43.715901 -50.542431 -29.530458 16.00000000
45.767676 -50.537432 -27.700404 16.00000000
13.152532 -27.309129 -44.724311 16.00000000
39.771025 -50.200660 -4.308722 16.00000000
51.430800 -49.836816 1.217387 16.00000000
52.587414 -49.549728 -4.846012 16.00000000
54.617589 -48.988759 -23.070566 16.00000000
39.040569 -50.075834 -41.872590 16.00000000
28.342096 -46.277427 -35.534816 16.00000000
53.030292 -49.431946 -10.931979 16.00000000
13.469694 -28.588131 -57.474430 16.00000000
58.765520 -47.323083 -18.947477 16.00000000
51.534833 -49.818517 -48.231649 16.00000000
39.604497 -50.172202 -49.819549 16.00000000
38.326674 -49.953837 -1.445610 16.00000000
12.678951 -24.844359 -9.790969 16.00000000
41.636428 -50.411335 -45.052997 16.00000000
12.339357 -23.076931 -55.855156 16.00000000
12.145919 -22.070176 -4.570616 16.00000000
15.595775 -33.382306 -49.489055 16.00000000
30.928284 -47.591769 -47.973876 16.00000000
25.863318 -44.728564 -42.372523 16.00000000
13.437918 -28.506575 -47.312281 16.00000000
14.756519 -31.677036 -15.756690 16.00000000
18.007441 -37.116339 -59.080140 16.00000000
52.361242 -49.609878 -55.543997 16.00000000
30.688885 -47.482918 -27.605765 16.00000000
45.685004 -50.537633 -47.728191 16.00000000
31.439562 -47.824237 -55.322937 16.00000000
48.622897 -50.309074 -60.292124 16.00000000
58.724365 -47.342038 -46.838467 16.00000000
14.296659 -30.710636 -7.824846 16.00000000
50.532895 -49.994750 -60.220280 16.00000000
16.966920 -35.657287 -11.387520 16.00000000
25.316047 -44.355424 -48.129970 16.00000000
22.044766 -41.664532 -36.857140 16.00000000
14.765063 -31.694396 -17.606453 16.00000000
15.367766 -32.919018 -34.211830 16.00000000
36.807291 -49.622256 -20.467609 16.00000000
36.596656 -49.567333 -52.922792 16.00000000
45.353132 -50.538442 -5.250974 16.00000000
56.977814 -48.138447 -12.706771 16.00000000
23.607183 -43.028247 -55.381001 16.00000000
13.106719 -27.070690 -20.974054 16.00000000
14.827608 -31.821480 -33.032555 16.00000000
12.968779 -26.352780 -57.313655 16.00000000
50.869947 -49.935465 -53.530017 16.00000000
17.893981 -36.960407 0.254051 16.00000000
21.277618 -40.920506 -29.801333 16.00000000
32.530958 -48.287444 -42.179174 16.00000000
39.723637 -50.192562 -15.429035 16.00000000
44.252119 -50.541124 -37.138444 16.00000000
38.557144 -49.993222 -43.473597 16.00000000
55.674574 -48.607962 -34.784390 16.00000000
47.276256 -50.428256 -16.544365 16.00000000
13.186620 -27.486539 -33.506580 16.00000000
12.808674 -25.519504 -17.399149 16.00000000
39.227591 -50.107793 -29.971923 16.00000000
28.225860 -46.212016 -27.142567 16.00000000
51.743391 -49.774195 -1.926904 16.00000000
12.839080 -25.677755 3.295032 16.00000000
12.972047 -26.369787 -4.223460 16.00000000
52.261846 -49.636313 -43.636761 16.00000000
41.523957 -50.401935 -51.027027 16.00000000
22.650226 -42.247617 -60.647917 16.00000000
55.824470 -48.553959 -27.635885 16.00000000
16.126334 -34.265100 -50.907959 16.00000000
21.026860 -40.677305 -42.721665 16.00000000
32.373904 -48.231727 -27.747258 16.00000000
45.922312 -50.537055 -13.007402 16.00000000
54.487739 -49.035540 0.515838 16.00000000
44.181604 -50.541296 -19.072015 16.00000000
28.471348 -46.350163 -44.484147 16.00000000
43.763410 -50.542315 -56.221716 16.00000000
58.807461 -47.303765 1.337661 16.00000000
13.290046 -28.024824 -55.930331 16.00000000
54.626030 -48.985718 -33.223172 16.00000000
16.872787 -35.501384 -54.333487 16.00000000
31.405088 -47.808562 -36.009720 16.00000000
59.025062 -47.203541 -21.038169 16.00000000
15.543360 -33.275805 -40.875176 16.00000000
15.683531 -33.531724 -45.256699 16.00000000
39.934311 -50.228563 3.728074 16.00000000
54.867811 -48.898613 -56.477753 16.00000000
14.166697 -30.377073 -25.598801 16.00000000
15.646186 -33.469874 -14.585688 16.00000000
59.446572 -47.009400 -2.832363 16.00000000
13.226909 -27.696225 -28.954092 16.00000000
15.228850 -32.636757 -6.120001 16.00000000
21.810748 -41.437568 -28.261734 16.00000000
16.235459 -34.445835 -44.096252 16.00000000
16.951393 -35.631571 -47.884743 16.00000000
24.919294 -44.084910 -56.328630 16.00000000
43.152935 -50.538078 -4.950286 16.00000000
53.507492 -49.305035 -7.156895 16.00000000
15.215840 -32.610321 -24.038728 16.00000000
23.692023 -43.097454 -7.711653 16.00000000
28.494274 -46.363064 -52.756854 16.00000000
49.600307 -50.158784 -21.452543 16.00000000
18.825370 -38.220472 -4.715156 16.00000000
49.301959 -50.211261 -51.925447 16.00000000
56.998067 -48.131150 -14.516666 16.00000000
14.251600 -30.594985 -31.941997 16.00000000
43.454031 -50.543069 -0.028515 16.00000000
32.047200 -48.100518 -20.078276 16.00000000
29.586130 -46.977501 -36.330514 16.00000000
54.529073 -49.020649 -46.854974 16.00000000
12.077564 -21.714418 -34.204712 16.00000000
36.694546 -49.592857 -61.028915 16.00000000
43.214469 -50.543221 -3.162024 16.00000000
45.238009 -50.538722 -17.603363 16.00000000
12.303771 -22.891722 -12.908919 16.00000000
14.638347 -31.436924 -42.445848 16.00000000
12.602245 -24.445142 -11.598633 16.00000000
13.761847 -29.337977 2.978730 16.00000000
25.283088 -44.332951 -5.302050 16.00000000
39.203537 -50.103683 -39.712553 16.00000000
47.544202 -50.404542 -44.881258 16.00000000
16.786744 -35.358878 -33.013061 16.00000000
45.550288 -50.537962 -7.232223 16.00000000
19.104772 -38.542352 -44.997962 16.00000000
13.479526 -28.613367 -60.602822 16.00000000
49.351350 -50.202574 -45.545152 16.00000000
40.286902 -50.288817 -17.781078 16.00000000
26.405960 -45.098547 -13.431341 16.00000000
23.619691 -43.038450 -45.310504 16.00000000
12.072812 -21.689689 -1.485047 16.00000000
16.504417 -34.891284 -29.920114 16.00000000
14.323127 -30.778568 -5.947906 16.00000000
12.757370 -25.252491 -42.056033 16.00000000
17.287079 -36.126317 -16.225710 16.00000000
53.157172 -49.398202 -15.171639 16.00000000
27.312610 -45.698089 -3.842416 16.00000000
58.151280 -47.605993 -60.817027 16.00000000
57.832414 -47.752858 -22.443666 16.00000000
17.018061 -35.741988 -21.014434 16.00000000
14.352320 -30.853497 -39.484078 16.00000000
43.877746 -50.542036 -25.406664 16.00000000
57.606796 -47.856774 -27.819659 16.00000000
17.239638 -36.061117 -39.448101 16.00000000
24.429896 -43.699369 -1.607871 16.00000000
13.229966 -27.712136 -24.953115 16.00000000
22.520311 -42.125744 -10.299415 16.00000000
43.478535 -50.543009 -51.939031 16.00000000
41.371684 -50.389209 -12.495197 16.00000000
13.831480 -29.516697 -17.236736 16.00000000
21.355894 -40.996423 -49.517310 16.00000000
12.730552 -25.112916 -15.812988 16.00000000
59.054100 -47.190167 -39.329419 16.00000000
48.446417 -50.324693 -11.457308 16.00000000
39.604636 -50.172226 -56.146762 16.00000000
12.895341 -25.970567 -52.430675 16.00000000
25.240704 -44.304054 -26.592118 16.00000000
19.083668 -38.518040 -11.972230 16.00000000
38.616676 -50.003395 -28.336688 16.00000000
18.631265 -37.973683 1.320513 16.00000000
43.364873 -50.543286 -58.349934 16.00000000
51.804914 -49.757833 -17.132733 16.00000000
26.986837 -45.494600 -34.389387 16.00000000
14.176186 -30.401426 -9.838660 16.00000000
17.659834 -36.638608 -55.375383 16.00000000
32.714907 -48.352703 -47.116851 16.00000000
29.245981 -46.786084 -12.424524 16.00000000
14.437217 -31.028250 -54.892455 16.00000000
13.284404 -27.995461 -42.353360 16.00000000
31.682111 -47.934520 -56.925685 16.00000000
33.759034 -48.723122 -26.558342 16.00000000
33.583403 -48.660814 -38.118935 16.00000000
50.622292 -49.979026 -0.562906 16.00000000
51.099732 -49.895048 -18.949800 16.00000000
17.181429 -35.981119 -57.174616 16.00000000
25.438744 -44.439081 -52.873168 16.00000000
23.775893 -43.165871 -52.184844 16.00000000
14.531201 -31.219216 -51.705092 16.00000000
13.049324 -26.771980 -9.145301 16.00000000
19.020480 -38.445245 -2.837973 16.00000000
19.467937 -38.960731 -27.570452 16.00000000
14.064508 -30.114792 -22.114431 16.00000000
21.418026 -41.056682 -60.478369 16.00000000
12.855407 -25.762730 -58.887883 16.00000000
53.547436 -49.294412 -37.934833 16.00000000
15.172274 -32.521801 -43.487115 16.00000000
48.601328 -50.310983 -32.582665 16.00000000
12.138794 -22.033092 -45.452730 16.00000000
27.503263 -45.805378 -28.816654 16.00000000
58.906164 -47.258304 -33.808743 16.00000000
12.355795 -23.162482 -59.760731 16.00000000
21.959254 -41.581598 -55.851779 16.00000000
47.083926 -50.445277 -34.279701 16.00000000
19.674345 -39.198520 -54.139995 16.00000000
23.096816 -42.611919 -27.090977 16.00000000
28.784936 -46.526633 -6.079365 16.00000000
23.532626 -42.967428 -32.612791 16.00000000
12.955635 -26.284373 -26.244043 16.00000000
19.529767 -39.031961 -25.619714 16.00000000
54.440244 -49.052651 -43.973412 16.00000000
14.014777 -29.987152 -19.099395 16.00000000
38.046080 -49.905887 -19.501906 16.00000000
38.813097 -50.036961 -21.152690 16.00000000
14.958353 -32.087139 -60.467132 16.00000000
29.856565 -47.104478 -55.829767 16.00000000
59.041289 -47.196067 2.980288 16.00000000
56.644643 -48.258477 -49.538162 16.00000000
46.825696 -50.468131 -38.448527 16.00000000
52.138823 -49.669030 -49.993466 16.00000000
13.199014 -27.551046 1.473732 16.00000000
59.607496 -46.935281 -0.213935 16.00000000
20.536974 -40.192296 -12.521735 16.00000000
29.349286 -46.844218 -18.516983 16.00000000
35.120730 -49.182484 -43.798691 16.00000000
22.030303 -41.650505 -38.466153 16.00000000
24.991411 -44.134081 -20.615956 16.00000000
14.145507 -30.322685 -60.390711 16.00000000
24.310663 -43.602105 -19.014357 16.00000000
13.183381 -27.469682 -5.650584 16.00000000
35.567492 -49.298978 -29.846637 16.00000000
15.690291 -33.542920 -57.336268 16.00000000
48.779155 -50.295245 -34.221606 16.00000000
12.591180 -24.387551 -37.940979 16.00000000
14.791197 -31.747498 -1.909978 16.00000000
45.226163 -50.538751 -41.679279 16.00000000
28.420480 -46.321537 -10.917997 16.00000000
57.266675 -48.013429 2.349501 16.00000000
50.375123 -50.022501 -49.937426 16.00000000
38.584094 -49.997827 -45.780585 16.00000000
42.496775 -50.483239 -27.245306 16.00000000
12.720934 -25.062859 -2.680236 16.00000000
43.235969 -50.543600 -21.898854 16.00000000
13.098904 -27.030019 -38.377770 16.00000000
42.297161 -50.466556 -17.119958 16.00000000
12.432362 -23.560975 -41.347587 16.00000000
15.524723 -33.237936 3.088875 16.00000000
57.875514 -47.733006 -40.373838 16.00000000
49.161867 -50.235902 0.554746 16.00000000
12.319568 -22.973935 -3.188895 16.00000000
55.169901 -48.789779 -2.322249 16.00000000
43.960481 -50.541835 -1.553086 16.00000000
36.109984 -49.440433 -39.330240 16.00000000
13.038535 -26.715826 -2.566086 16.00000000
53.457723 -49.318271 -48.185457 16.00000000
51.316442 -49.856930 -45.540285 16.00000000
13.823797 -29.496978 -23.922594 16.00000000
14.413109 -30.979266 -28.846826 16.00000000
20.381399 -40.013069 -37.648633 16.00000000
59.259841 -47.095406 -23.470668 16.00000000
50.033004 -50.082676 -16.893055 16.00000000
55.595376 -48.636494 1.635644 16.00000000
53.764836 -49.236595 -42.404583 16.00000000
29.467691 -46.910850 -41.154241 16.00000000
43.275753 -50.543503 -38.903403 16.00000000
51.322174 -49.855922 -10.218239 16.00000000
15.060358 -32.294401 -35.963800 16.00000000
52.164393 -49.662230 -8.212612 16.00000000
19.284427 -38.749321 -19.712111 16.00000000
48.084521 -50.356722 -39.534584 16.00000000
33.235397 -48.537354 -24.998167 16.00000000
18.256280 -37.458327 -30.648992 16.00000000
41.939880 -50.436696 -38.096899 16.00000000
21.846977 -41.472704 -0.442831 16.00000000
23.744602 -43.140345 -49.773306 16.00000000
57.261843 -48.015654 -7.034933 16.00000000
17.340470 -36.199694 -30.239325 16.00000000
35.050946 -49.164288 -18.048512 16.00000000
56.510741 -48.306718 -36.383548 16.00000000
22.840134 -42.402532 -51.084871 16.00000000
25.976921 -44.806020 -57.689274 16.00000000
15.520738 -33.229839 -29.420681 16.00000000
33.406682 -48.598120 -45.336953 16.00000000
42.250298 -50.462640 -7.320548 16.00000000
33.691049 -48.699003 -40.257018 16.00000000
31.594442 -47.894658 -44.627069 16.00000000
18.593555 -37.921857 -37.609493 16.00000000
48.799406 -50.293453 -5.303082 16.00000000
18.919506 -38.328920 -41.096510 16.00000000
58.046689 -47.654165 -36.457030 16.00000000
41.758996 -50.421579 -14.101414 16.00000000
49.779422 -50.127280 -38.042858 16.00000000
41.893473 -50.432818 -54.359608 16.00000000
25.656153 -44.587315 -9.961365 16.00000000
50.362315 -50.024753 -41.315016 16.00000000
18.608606 -37.942542 -22.619876 16.00000000
54.933062 -48.875105 -15.090848 16.00000000
36.728909 -49.601818 -36.538714 16.00000000
38.847047 -50.042763 0.413520 16.00000000
17.009000 -35.726981 -59.692795 16.00000000
23.415049 -42.871515 -20.218503 16.00000000
32.183250 -48.162378 -9.106341 16.00000000
57.438649 -47.934220 -34.856682 16.00000000
13.573685 -28.855038 -52.763992 16.00000000
34.482954 -48.979943 -47.192193 16.00000000
12.716409 -25.039311 -45.306156 16.00000000
27.461226 -45.781721 -43.399954 16.00000000
50.102325 -50.070483 -26.960800 16.00000000
14.872510 -31.912716 -56.555097 16.00000000
58.475240 -47.456781 -43.911980 16.00000000
19.946202 -39.511707 -23.920194 16.00000000
26.684930 -45.288754 -24.132397 16.00000000
20.885880 -40.540574 -15.055405 16.00000000
41.175377 -50.372802 -24.460633 16.00000000
12.223505 -22.473975 -21.086647 16.00000000
13.020525 -26.622094 -40.356317 16.00000000
51.384492 -49.844961 -3.696793 16.00000000
12.913992 -26.067639 -22.551633 16.00000000
41.934882 -50.436279 -36.408679 16.00000000
36.302709 -49.490686 -16.705247 16.00000000
22.181873 -41.797507 -32.306684 16.00000000
25.396504 -44.410281 -50.273743 16.00000000
47.079772 -50.445645 -51.928320 16.00000000
58.258028 -47.556826 -29.402867 16.00000000
14.125050 -30.270181 -35.052184 16.00000000
37.124908 -49.705075 -0.156697 16.00000000
12.100724 -21.834956 -9.100596 16.00000000
45.885970 -50.537144 -46.116398 16.00000000
13.655983 -29.066264 -34.120363 16.00000000
52.603479 -49.545456 -25.347563 16.00000000
56.110738 -48.450826 -39.833493 16.00000000
22.724439 -42.308155 -11.956574 16.00000000
45.653544 -50.537710 -21.611820 16.00000000
12.582825 -24.344070 -58.102268 16.00000000
44.624954 -50.540216 -32.159205 16.00000000
21.952807 -41.575345 -58.373411 16.00000000
34.727052 -49.066540 -51.396581 16.00000000
46.490009 -50.497841 -40.708777 16.00000000
41.153511 -50.370975 -59.167183 16.00000000
21.534640 -41.169781 -44.284369 16.00000000
13.193327 -27.521446 3.767241 16.00000000
56.886535 -48.171331 -29.796914 16.00000000
40.929216 -50.352229 -34.567221 16.00000000
16.659312 -35.147823 -25.994899 16.00000000
13.113436 -27.105652 -53.838625 16.00000000
55.911091 -48.522753 -60.816393 16.00000000
53.023254 -49.433817 -40.155913 16.00000000
13.447019 -28.529934 -14.742295 16.00000000
18.390621 -37.642957 -8.744764 16.00000000
12.705162 -24.980773 -33.146801 16.00000000
59.459348 -47.003516 -52.484920 16.00000000
32.451687 -48.259321 -49.187362 16.00000000
40.783488 -50.340050 -39.888342 16.00000000
12.073330 -21.692382 -53.938130 16.00000000
21.854089 -41.479602 -40.491261 16.00000000
38.266566 -49.943566 -15.955938 16.00000000
13.614458 -28.959686 -39.155999 16.00000000
24.728622 -43.943052 -16.004762 16.00000000
53.646306 -49.268118 -31.861881 16.00000000
17.039857 -35.778087 -42.023528 16.00000000
13.657432 -29.069984 -51.019572 16.00000000
22.906661 -42.456802 -18.598458 16.00000000
12.656249 -24.726203 -0.646955 16.00000000
14.207584 -30.482014 -53.140092 16.00000000
23.093486 -42.609202 -34.240528 16.00000000
57.375186 -47.963450 -47.864717 16.00000000
20.182798 -39.784274 -48.818646 16.00000000
15.463793 -33.114133 -1.122003 16.00000000
35.566448 -49.298706 -6.333537 16.00000000
35.518204 -49.286126 2.874422 16.00000000
53.121919 -49.407577 1.680792 16.00000000
12.078942 -21.721591 -40.552569 16.00000000
12.074564 -21.698808 -36.695226 16.00000000
47.150808 -50.439358 -4.189981 16.00000000
33.758364 -48.722884 -5.321084 16.00000000
34.934624 -49.133957 -36.353947 16.00000000
36.995024 -49.671207 -18.103943 16.00000000
50.265499 -50.041783 -4.879288 16.00000000
40.383977 -50.305406 -6.431689 16.00000000
18.398949 -37.654403 -13.797385 16.00000000
39.204461 -50.103841 -10.029407 16.00000000
53.790001 -49.229902 -21.624829 16.00000000
24.589222 -43.829337 -54.125778 16.00000000
35.865098 -49.376579 -32.029435 16.00000000
13.947029 -29.813269 -0.089706 16.00000000
19.559106 -39.065760 -5.876166 16.00000000
19.247214 -38.706450 -0.746345 16.00000000
58.258345 -47.556680 -15.723834 16.00000000
20.559106 -40.217793 -7.691223 16.00000000
16.889768 -35.529508 -24.289114 16.00000000
47.539517 -50.404956 -47.874134 16.00000000
13.185169 -27.478985 -35.576178 16.00000000
12.607116 -24.470493 -20.522070 16.00000000
19.734979 -39.268372 -36.032427 16.00000000
25.585122 -44.538884 -59.294367 16.00000000
13.179085 -27.447326 -12.838479 16.00000000
35.482299 -49.276763 -37.831989 16.00000000
29.914355 -47.130754 -11.042213 16.00000000
34.026293 -48.817936 -34.052255 16.00000000
56.866205 -48.178656 -20.627222 16.00000000
24.822472 -44.018895 0.873403 16.00000000
14.536324 -31.229625 -23.963464 16.00000000
14.182846 -30.418522 -45.543097 16.00000000
14.173277 -30.393961 -37.929504 16.00000000
49.196755 -50.229766 -19.793052 16.00000000
12.665070 -24.772112 -25.834115 16.00000000
51.767610 -49.767754 -11.967113 16.00000000
59.510804 -46.979815 -14.680721 16.00000000
33.889463 -48.769393 -32.463594 16.00000000
22.658245 -42.254158 -41.957247 16.00000000
34.005060 -48.810403 2.043835 16.00000000
20.568777 -40.228935 -33.539595 16.00000000
37.895091 -49.880085 1.882274 16.00000000
33.776131 -48.729187 -56.372504 16.00000000
56.584649 -48.280091 -46.532740 16.00000000
12.855164 -25.761466 -43.887980 16.00000000
56.451447 -48.328080 -31.713215 16.00000000
59.180713 -47.131851 -50.168614 16.00000000
55.328197 -48.732750 -37.569251 16.00000000
25.080504 -44.194826 -38.370929 16.00000000
58.206679 -47.580477 -58.349410 16.00000000
16.501653 -34.886707 -9.157644 16.00000000
46.356899 -50.509621 -43.079063 16.00000000
20.296962 -39.915795 -28.967187 16.00000000
12.519562 -24.014812 -22.385306 16.00000000
42.093411 -50.449528 -1.336064 16.00000000
19.178255 -38.627007 -59.976457 16.00000000
17.504351 -36.424923 -37.678446 16.00000000
15.835059 -33.782688 -42.519645 16.00000000
12.551240 -24.179682 -61.087730 16.00000000
27.457231 -45.779473 -45.981356 16.00000000
16.012317 -34.076263 -24.162177 16.00000000
17.100107 -35.869355 -35.942380 16.00000000
16.900435 -35.547174 -1.234411 16.00000000
57.139079 -48.072197 -38.477966 16.00000000
59.554535 -46.959674 -35.334683 16.00000000
17.549614 -36.487130 -22.316950 16.00000000
26.983358 -45.492228 -38.643302 16.00000000
29.524767 -46.942969 -48.511660 16.00000000
45.203992 -50.538805 2.325101 16.00000000
45.758845 -50.537454 -58.452548 16.00000000
43.063583 -50.530611 -35.069798 16.00000000
26.168896 -44.936913 -22.595704 16.00000000
38.894839 -50.050930 -59.420245 16.00000000
13.121396 -27.147077 -50.982610 16.00000000
12.519170 -24.012773 -43.646708 16.00000000
22.631170 -42.232072 0.829536 16.00000000
34.334238 -48.927184 -0.973263 16.00000000
24.058741 -43.396602 -41.977807 16.00000000
20.224740 -39.832593 -46.867430 16.00000000
26.856054 -45.405429 -53.457509 16.00000000
16.188736 -34.368451 -16.381236 16.00000000
26.750009 -45.333126 -11.239060 16.00000000
15.579229 -33.348685 0.977866 16.00000000
22.946156 -42.489019 -16.947031 16.00000000
15.911625 -33.909497 -22.184037 16.00000000
17.027592 -35.757774 -18.358965 16.00000000
27.634438 -45.879196 -55.086230 16.00000000
12.478555 -23.801391 -14.851442 16.00000000
27.075264 -45.554891 -21.286104 16.00000000
32.051091 -48.102288 -13.467468 16.00000000
22.184337 -41.799897 -46.300352 16.00000000
43.865718 -50.542066 -48.083813 16.00000000
12.101367 -21.838304 -30.282012 16.00000000
12.082922 -21.742304 -10.893144 16.00000000
57.945525 -47.700760 -51.367392 16.00000000
31.067900 -47.655250 -41.682222 16.00000000
27.322586 -45.703703 -40.570283 16.00000000
46.717894 -50.477672 -36.610699 16.00000000
24.547303 -43.795143 -29.737397 16.00000000
19.152919 -38.597819 -55.620873 16.00000000
16.058000 -34.151925 -18.166880 16.00000000
13.578956 -28.868566 -31.937878 16.00000000
38.222879 -49.936100 -53.595107 16.00000000
20.629264 -40.291693 -57.474656 16.00000000
53.048638 -49.427066 -33.937559 16.00000000
23.657898 -43.069617 -47.859639 16.00000000
29.248744 -46.787639 -45.849536 16.00000000
15.264991 -32.710192 -46.607408 16.00000000
37.234067 -49.733538 -13.627428 16.00000000
12.337734 -23.068482 -35.354053 16.00000000
24.463263 -43.726587 -27.932448 16.00000000
35.836826 -49.369207 -27.525489 16.00000000
36.724200 -49.600590 -51.224671 16.00000000
16.944144 -35.619566 -3.650412 16.00000000
46.368414 -50.508602 -8.608110 16.00000000
45.310897 -50.538545 -33.728471 16.00000000
15.199413 -32.576944 -31.147460 16.00000000
55.010286 -48.847283 -29.376893 16.00000000
48.233460 -50.343541 -23.161832 16.00000000
13.571754 -28.850082 -49.285600 16.00000000
39.457442 -50.147072 -8.028401 16.00000000
28.024932 -46.098944 -22.900417 16.00000000
41.442105 -50.395094 -3.877232 16.00000000
24.256971 -43.558306 -59.167216 16.00000000
29.006201 -46.651149 3.761334 16.00000000
41.687180 -50.415577 -20.477417 16.00000000
16.208919 -34.401879 -20.144760 16.00000000
34.388653 -48.946488 -60.086627 16.00000000
18.161473 -37.328031 -36.212699 16.00000000
13.640260 -29.025909 -54.659181 16.00000000
28.239485 -46.219683 -25.228447 16.00000000
49.603338 -50.158251 -36.208250 16.00000000
23.719331 -43.119731 -57.294213 16.00000000
13.312218 -28.140217 -18.843130 16.00000000
40.706672 -50.333630 -48.218852 16.00000000
12.405341 -23.420344 3.707601 16.00000000
43.261123 -50.543539 -9.500672 16.00000000
18.091172 -37.231414 -15.321500 16.00000000
17.825335 -36.866064 -60.839600 16.00000000
25.746653 -44.649019 -28.362118 16.00000000
50.678185 -49.969194 -29.816630 16.00000000
31.402737 -47.807494 -24.755092 16.00000000
12.609541 -24.483112 -49.379919 16.00000000
20.253837 -39.866113 1.127337 16.00000000
59.230528 -47.108907 -10.942517 16.00000000
38.199683 -49.932136 -3.093939 16.00000000
35.948040 -49.398206 -22.429803 16.00000000
25.945864 -44.784845 -40.232936 16.00000000
12.679030 -24.844770 -31.300897 16.00000000
56.185156 -48.424016 -51.000807 16.00000000
50.729468 -49.960174 -55.834187 16.00000000
43.921495 -50.541930 -6.639496 16.00000000
58.028674 -47.662463 -24.387890 16.00000000
49.606757 -50.157650 -47.975399 16.00000000
29.287099 -46.809223 -57.480370 16.00000000
44.502956 -50.540513 -44.697190 16.00000000
19.877031 -39.432021 -14.181896 16.00000000
51.006144 -49.911509 -51.819910 16.00000000
15.948256 -33.970165 -7.285091 16.00000000
47.376907 -50.419348 -29.246390 16.00000000
38.483794 -49.980687 -25.234746 16.00000000
21.929824 -41.553054 -16.190968 16.00000000
32.651886 -48.330345 -60.322921 16.00000000
26.298638 -45.025373 -19.596663 16.00000000
14.573394 -31.304948 -0.249782 16.00000000
54.227536 -49.113541 -35.729965 16.00000000
19.381667 -38.861344 -17.144201 16.00000000
13.021255 -26.625893 -31.151865 16.00000000
21.085386 -40.734067 -4.750632 16.00000000
13.103881 -27.055924 -11.013412 16.00000000
40.111418 -50.258829 -38.341344 16.00000000
30.160608 -47.242721 -33.319668 16.00000000
48.303542 -50.337338 -13.320629 16.00000000
18.958574 -38.373928 -34.700797 16.00000000
26.773441 -45.349103 -49.141896 16.00000000
12.205527 -22.380407 -49.143899 16.00000000
31.760050 -47.969957 -11.936816 16.00000000
23.039504 -42.565167 -43.677089 16.00000000
15.319866 -32.821691 -39.076339 16.00000000
20.971440 -40.623556 -21.134434 16.00000000
57.489879 -47.910624 -10.992294 16.00000000
12.073942 -21.695569 -23.536367 16.00000000
38.829296 -50.039729 -57.563793 16.00000000
39.671484 -50.183649 -31.713098 16.00000000
57.155948 -48.064428 -55.075809 16.00000000
30.479249 -47.387601 -22.683116 16.00000000
16.412315 -34.738745 -40.685402 16.00000000
37.632383 -49.835191 -5.167733 16.00000000
18.921939 -38.331723 3.073040 16.00000000
44.349708 -50.540887 -23.108373 16.00000000
18.518772 -37.819081 -53.804946 16.00000000
47.872885 -50.375452 -25.777144 16.00000000
12.876989 -25.875053 -24.594483 16.00000000
55.693095 -48.601289 -17.099259 16.00000000
49.250630 -50.220290 -42.822462 16.00000000
12.893640 -25.961716 -19.193785 16.00000000
24.294427 -43.588861 -9.531402 16.00000000
20.756373 -40.414970 -9.834367 16.00000000
28.414213 -46.318010 -49.912066 16.00000000
40.458235 -50.312867 0.557844 16.00000000
16.204416 -34.394420 -55.509503 16.00000000
24.474654 -43.735880 -14.260820 16.00000000
18.102085 -37.246412 -42.250531 16.00000000
46.918086 -50.459955 -49.744816 16.00000000
35.481326 -49.276510 -12.758605 16.00000000
28.743884 -46.503531 -33.341744 16.00000000
13.212410 -27.620765 -17.084885 16.00000000
52.246224 -49.640467 -23.718643 16.00000000
50.137410 -50.064312 -7.473560 16.00000000
15.012923 -32.198019 -28.030268 16.00000000
54.137426 -49.137505 -13.513928 16.00000000
59.328460 -47.063800 -56.747187 16.00000000
40.014548 -50.242275 -23.142377 16.00000000
30.795150 -47.531235 -50.003884 16.00000000
13.239359 -27.761022 -23.114113 16.00000000
36.316192 -49.494201 -42.500133 16.00000000
16.774442 -35.338503 0.502870 16.00000000
12.468318 -23.748113 -17.098234 16.00000000
36.959960 -49.662064 -45.850844 16.00000000
12.492615 -23.874567 -24.092030 16.00000000
44.158266 -50.541353 -50.291452 16.00000000
30.266393 -47.290820 -16.958187 16.00000000
24.641408 -43.871908 -31.542795 16.00000000
12.425084 -23.523098 -19.144485 16.00000000
45.617497 -50.537798 -15.666689 16.00000000
28.811420 -46.541536 -31.401815 16.00000000
48.760660 -50.296882 -15.173829 16.00000000
39.908233 -50.224107 -36.237781 16.00000000
26.882411 -45.423401 -36.339478 16.00000000
15.981314 -34.024917 -3.689093 16.00000000
15.405475 -32.995639 -12.472618 16.00000000
28.352635 -46.283358 -0.835462 16.00000000
16.922814 -35.584238 2.607640 16.00000000
57.317092 -47.990207 -42.397146 16.00000000
31.586307 -47.890959 1.426547 16.00000000
12.495097 -23.887482 -8.360505 16.00000000
35.398011 -49.254785 -34.696482 16.00000000
55.442188 -48.691683 -42.369126 16.00000000
12.202964 -22.367066 -25.268652 16.00000000
32.009166 -48.083225 -23.066568 16.00000000
58.872501 -47.273809 -4.693104 16.00000000
54.747038 -48.942123 -4.528550 16.00000000
37.586761 -49.825503 -22.602444 16.00000000
47.662028 -50.394114 -18.583233 16.00000000
33.088969 -48.485407 -11.081073 16.00000000
24.598577 -43.836969 -3.532152 16.00000000
55.908996 -48.523507 3.304664 16.00000000
12.117356 -21.921520 -38.581252 16.00000000
24.077315 -43.411753 -11.328755 16.00000000
57.499507 -47.906190 -32.887527 16.00000000
14.501895 -31.159669 3.633937 16.00000000
20.443124 -40.084179 -59.378395 16.00000000
15.378431 -32.940689 -20.956137 16.00000000
16.553643 -34.972813 -12.984228 16.00000000
23.528830 -42.964331 -22.083075 16.00000000
19.818754 -39.364883 -39.819833 16.00000000
13.814856 -29.474032 -28.102875 16.00000000
12.376237 -23.268876 -30.982905 16.00000000
12.558228 -24.216052 -47.673859 16.00000000
56.985570 -48.135652 -18.558473 16.00000000
21.102929 -40.751081 -31.634947 16.00000000
12.747377 -25.200484 -56.173545 16.00000000
43.351543 -50.543318 -13.779327 16.00000000
24.581486 -43.823027 -60.878115 16.00000000
32.840718 -48.397336 -58.254324 16.00000000
26.154980 -44.927424 -61.060825 16.00000000
20.913143 -40.567016 -36.102342 16.00000000
52.958881 -49.450937 -29.135477 16.00000000
40.429789 -50.310489 -28.747131 16.00000000
47.490761 -50.409271 -57.053395 16.00000000
58.692768 -47.356591 -55.329606 16.00000000
42.399708 -50.475127 -49.402231 16.00000000
33.976186 -48.800160 -3.132816 16.00000000
23.874309 -43.246153 -5.962317 16.00000000
40.104603 -50.257664 -61.104349 16.00000000
12.118069 -21.925227 -14.349463 16.00000000
14.858242 -31.883725 -37.906583 16.00000000
21.773612 -41.401551 -17.955672 16.00000000
49.166956 -50.235007 -24.610743 16.00000000
53.469198 -49.315219 -1.117506 16.00000000
37.347050 -49.762998 -34.052549 16.00000000
31.317982 -47.768957 -3.663284 16.00000000
23.458997 -42.907365 -30.764865 16.00000000
17.872879 -36.931405 -24.640070 16.00000000
55.504401 -48.669270 -21.394751 16.00000000
27.658167 -45.892549 -57.031866 16.00000000
14.026749 -30.017879 -56.467894 16.00000000
59.497991 -46.985717 -30.537713 16.00000000
47.788493 -50.382921 -30.872743 16.00000000
35.859489 -49.375116 -49.201322 16.00000000
18.017065 -37.129565 3.417638 16.00000000
26.016603 -44.833076 -6.628325 16.00000000
45.589344 -50.537867 -35.396601 16.00000000
26.347157 -45.058454 -44.515942 16.00000000
52.486199 -49.576646 -27.344500 16.00000000
54.206182 -49.119220 3.451227 16.00000000
13.206808 -27.591607 -58.742450 16.00000000
14.089078 -30.177855 -13.891323 16.00000000
38.144093 -49.922636 -11.795769 16.00000000
54.100344 -49.147367 -16.604230 16.00000000
12.521902 -24.026991 -52.403194 16.00000000
59.593857 -46.941562 -17.642536 16.00000000
46.943612 -50.457696 3.603964 16.00000000
43.999450 -50.541740 -40.395036 16.00000000
24.592336 -43.831878 -43.675186 16.00000000
58.519569 -47.436364 -13.232924 16.00000000
32.486155 -48.271549 -6.595353 16.00000000
17.961293 -37.052915 -48.304404 16.00000000
16.448657 -34.798934 -58.060445 16.00000000
46.475308 -50.499142 -53.677746 16.00000000
13.799624 -29.434937 -40.916380 16.00000000
17.329248 -36.184272 -14.054583 16.00000000
34.900391 -49.125031 -58.046477 16.00000000
54.086102 -49.151155 -24.692379 16.00000000
27.784775 -45.963797 -12.745108 16.00000000
31.921267 -48.043259 -38.191953 16.00000000
18.922912 -38.332844 -57.940368 16.00000000
17.535999 -36.468417 -28.079374 16.00000000
39.997525 -50.239366 -54.308147 16.00000000
22.053843 -41.673336 -8.329686 16.00000000
14.606813 -31.372851 1.574670 16.00000000
52.047527 -49.693310 -13.558914 16.00000000
18.619952 -37.958136 -39.303966 16.00000000
52.866757 -49.475438 -46.479438 16.00000000
13.687500 -29.147156 -1.689283 16.00000000
27.790903 -45.967246 -51.362606 16.00000000
29.809403 -47.083035 1.832175 16.00000000
13.644959 -29.037971 -3.800582 16.00000000
14.024703 -30.012629 -47.101170 16.00000000
15.086052 -32.346608 -8.604306 16.00000000
58.738929 -47.335330 -7.778234 16.00000000
14.542283 -31.241733 -49.683870 16.00000000
30.639023 -47.460247 -0.627663 16.00000000
20.060519 -39.643404 3.108595 16.00000000
33.100491 -48.489494 -36.146695 16.00000000
12.356938 -23.168432 -39.601561 16.00000000
18.104334 -37.249503 -44.111967 16.00000000
22.838959 -42.401574 -1.685345 16.00000000
15.194599 -32.567163 -26.453973 16.00000000
17.776866 -36.799451 -4.592970 16.00000000
18.359762 -37.600546 -46.785106 16.00000000
25.797756 -44.683862 -0.442439 16.00000000
22.928545 -42.474653 -4.746828 16.00000000
52.998396 -49.440428 -18.501540 16.00000000
56.153715 -48.435343 -23.501057 16.00000000
33.518442 -48.637768 -19.164369 16.00000000
40.309557 -50.292688 -43.312014 16.00000000
33.428440 -48.605839 -53.290830 16.00000000
23.276006 -42.758092 -24.011521 16.00000000
16.941668 -35.615466 -49.764119 16.00000000
47.410080 -50.416412 -1.528334 16.00000000
21.507593 -41.143550 -11.678110 16.00000000
20.498369 -40.147823 -19.080070 16.00000000
37.429756 -49.784564 -48.164764 16.00000000
21.747934 -41.376647 -6.269956 16.00000000
44.167085 -50.541332 -27.235703 16.00000000
33.334857 -48.572639 -29.679176 16.00000000
29.620418 -46.996796 -53.852553 16.00000000
12.583446 -24.347302 -54.363848 16.00000000
12.739156 -25.157696 -13.782464 16.00000000
48.839962 -50.289864 3.818259 16.00000000
16.578064 -35.013261 -14.942854 16.00000000
34.194551 -48.877628 -22.982084 16.00000000
42.052822 -50.446136 -56.200736 16.00000000
32.817079 -48.388949 0.057879 16.00000000
24.566254 -43.810602 2.644949 16.00000000
16.217992 -34.416905 -52.648252 16.00000000
13.724589 -29.242350 1.409496 16.00000000
54.679946 -48.966294 -40.802412 16.00000000
50.315808 -50.032934 -39.724410 16.00000000
12.200257 -22.352979 -28.283663 16.00000000
19.362795 -38.839603 -30.844470 16.00000000
16.997250 -35.707521 -51.540685 16.00000000
43.892141 -50.542001 -53.464637 16.00000000
17.707244 -36.703766 -12.426971 16.00000000
14.942681 -32.055295 -22.261889 16.00000000
34.313335 -48.919768 -42.003857 16.00000000
25.379694 -44.398820 -45.807639 16.00000000
25.690951 -44.611040 -2.330454 16.00000000
48.385196 -50.330112 -50.446280 16.00000000
29.376970 -46.859797 -2.466498 16.00000000
40.012180 -50.241870 -51.442500 16.00000000
27.857791 -46.004886 2.776283 16.00000000
21.786250 -41.413808 -2.949059 16.00000000
36.795134 -49.619086 -58.598939 16.00000000
40.770251 -50.338944 -57.351010 16.00000000
20.474060 -40.119818 -55.494522 16.00000000
18.144834 -37.305163 -19.320566 16.00000000
37.419217 -49.781816 -27.000963 16.00000000
34.469296 -48.975097 -8.471852 16.00000000
46.882506 -50.463104 -5.941534 16.00000000
35.974569 -49.405123 1.267317 16.00000000
55.183064 -48.785037 -54.800602 16.00000000
30.238421 -47.278101 -44.109223 16.00000000
13.829749 -29.512256 -11.438457 16.00000000
44.908350 -50.539526 -2.898089 16.00000000
22.410556 -42.019297 -52.612122 16.00000000
35.872175 -49.378424 -54.678723 16.00000000
59.048527 -47.192734 -42.430956 16.00000000
29.542175 -46.952765 -4.093868 16.00000000
24.733507 -43.947037 -34.767358 16.00000000
51.632589 -49.801323 -6.590163 16.00000000
21.183388 -40.829116 -26.079886 16.00000000
27.245274 -45.660196 -9.287400 16.00000000
29.909151 -47.128388 -25.023136 16.00000000
49.770264 -50.128890 2.312209 16.00000000
29.345077 -46.841850 -29.752803 16.00000000
38.395824 -49.965654 3.615109 16.00000000
16.047134 -34.133929 -31.987300 16.00000000
22.550477 -42.155002 -25.396343 16.00000000
52.067140 -49.688094 -30.760288 16.00000000
36.229550 -49.471610 -56.911737 16.00000000
47.713945 -50.389519 -55.134992 16.00000000
16.168796 -34.335427 -35.129705 16.00000000
15.280344 -32.741387 -19.392599 16.00000000
58.125071 -47.618064 -53.578249 16.00000000
52.127757 -49.671973 -59.859193 16.00000000
23.054654 -42.577525 3.727734 16.00000000
12.577332 -24.315479 -4.069963 16.00000000
32.088784 -48.119426 -17.122337 16.00000000
35.030867 -49.159052 -14.969318 16.00000000
18.111426 -37.259250 -1.337400 16.00000000
21.193111 -40.838545 -53.175451 16.00000000
27.439375 -45.769425 0.365740 16.00000000
31.226183 -47.727218 -7.775768 16.00000000
46.545152 -50.492960 -10.525175 16.00000000
13.881095 -29.644040 -30.099757 16.00000000
12.971200 -26.365377 -0.466932 16.00000000
19.356062 -38.831847 -42.771116 16.00000000
14.969677 -32.110147 -10.163389 16.00000000
12.110783 -21.887309 -16.563975 16.00000000
29.416137 -46.881838 -14.282126 16.00000000
37.185776 -49.720946 -30.375802 16.00000000
30.535376 -47.413121 -6.350514 16.00000000
25.456405 -44.451122 -12.187088 16.00000000
26.382459 -45.082524 -16.364342 16.00000000
14.048495 -30.073693 -43.892485 16.00000000
44.008966 -50.541717 -15.462143 16.00000000
47.613933 -50.398370 -27.308906 16.00000000
18.539663 -37.847791 -49.852536 16.00000000
12.710315 -25.007593 -28.177489 16.00000000
27.068648 -45.550380 -32.793329 16.00000000
46.473546 -50.499298 -23.111992 16.00000000
44.147111 -50.541380 -11.858280 16.00000000
30.072595 -47.202703 -20.855151 16.00000000
27.387728 -45.740361 -17.810482 16.00000000
57.035528 -48.117654 -25.955668 16.00000000
19.988986 -39.560996 -52.492081 16.00000000
42.757418 -50.505023 -43.541972 16.00000000
54.299803 -49.094321 -58.585966 16.00000000
50.347915 -50.027286 -34.337053 16.00000000
20.619963 -40.282671 -17.294810 16.00000000
43.518865 -50.542911 3.703692 16.00000000
36.243007 -49.475119 -3.131893 16.00000000
23.598827 -43.021430 -39.049434 16.00000000
53.764884 -49.236582 -8.820425 16.00000000
12.414367 -23.467320 -33.315889 16.00000000
12.141318 -22.046227 2.589674 16.00000000
17.418370 -36.306755 -8.493658 16.00000000
17.949932 -37.037301 -17.517430 16.00000000
23.767392 -43.158936 -0.270568 16.00000000
18.926945 -38.337489 -48.121747 16.00000000
39.532979 -50.159981 -13.372349 16.00000000
12.686655 -24.884456 -39.519174 16.00000000
42.448074 -50.479169 -60.678897 16.00000000
50.142704 -50.063381 -2.736711 16.00000000
17.236061 -36.056201 -6.410642 16.00000000
54.409668 -49.063667 -26.873195 16.00000000
32.467866 -48.265061 -50.915109 16.00000000
13.495136 -28.653433 -37.174417 16.00000000
49.154560 -50.237188 -56.816488 16.00000000
47.144829 -50.439887 1.286682 16.00000000
30.570483 -47.429083 3.666745 16.00000000
32.227968 -48.179954 3.089153 16.00000000
15.141882 -32.460049 -4.054980 16.00000000
42.216629 -50.459826 -40.813290 16.00000000
28.462060 -46.344936 -20.481462 16.00000000
35.392172 -49.253263 -25.965258 16.00000000
40.030651 -50.245027 -26.828674 16.00000000
15.622932 -33.431361 -54.015000 16.00000000
30.599256 -47.442166 -31.087261 16.00000000
33.877022 -48.764980 -13.858225 16.00000000
38.230910 -49.937472 -37.461313 16.00000000
26.229082 -44.977948 -56.028517 16.00000000
28.281664 -46.243419 -7.621167 16.00000000
22.443134 -42.050894 -54.227164 16.00000000
36.430444 -49.523993 -10.424850 16.00000000
19.047906 -38.476841 -51.164416 16.00000000
23.288217 -42.768053 -15.156272 16.00000000
31.315986 -47.768050 -34.370401 16.00000000
35.304182 -49.230320 -45.572614 16.00000000
25.320165 -44.358231 -18.077153 16.00000000
42.308397 -50.467495 1.121728 16.00000000
16.397996 -34.715029 -5.644758 16.00000000
38.264434 -49.943201 -51.632535 16.00000000
12.438055 -23.590607 -29.394274 16.00000000
16.226256 -34.430591 -47.021802 16.00000000
41.547140 -50.403873 2.865554 16.00000000
17.061009 -35.813120 -43.714259 16.00000000
13.407919 -28.429579 -10.068075 16.00000000
47.881650 -50.374677 -7.725133 16.00000000
28.823787 -46.548496 -16.046294 16.00000000
12.147347 -22.077606 -42.452434 16.00000000
32.308634 -48.208571 -31.703100 16.00000000
21.471451 -41.108497 1.571160 16.00000000
38.277893 -49.945501 -35.383253 16.00000000
34.576634 -49.013177 -10.671758 16.00000000
57.410951 -47.946977 -3.039556 16.00000000
53.473033 -49.314199 -3.312992 16.00000000
42.363704 -50.472118 -11.033301 16.00000000
42.066558 -50.447284 -32.182817 16.00000000
58.944431 -47.240679 -25.982235 16.00000000
51.282307 -49.862934 -22.524609 16.00000000
50.529448 -49.995356 -32.049053 16.00000000
23.439414 -42.891390 -36.655792 16.00000000
15.945400 -33.965434 -60.228927 16.00000000
54.948467 -48.869555 -49.305512 16.00000000
39.179935 -50.099649 -33.550731 16.00000000
19.365942 -38.843229 -7.591909 16.00000000
45.844965 -50.537244 -55.951793 16.00000000
54.477161 -49.039351 -51.705115 16.00000000
21.797201 -41.424428 -23.217964 16.00000000
12.101770 -21.840399 -58.545943 16.00000000
49.297024 -50.212129 -58.687930 16.00000000
17.621881 -36.586448 -53.379823 16.00000000
26.718862 -45.311890 -30.438123 16.00000000
21.796152 -41.423411 -13.790465 16.00000000
45.908392 -50.537089 -30.663383 16.00000000
55.543913 -48.655035 -11.600633 16.00000000
28.558171 -46.399022 -37.782009 16.00000000
24.767446 -43.974722 -23.054640 16.00000000
34.508331 -48.988946 -31.023048 16.00000000
50.249228 -50.044644 -11.473945 16.00000000
45.507891 -50.538065 -60.638400 16.00000000
17.604776 -36.562940 -26.431063 16.00000000
13.668458 -29.098282 -26.396811 16.00000000
52.063857 -49.688967 -57.931121 16.00000000
51.997041 -49.706737 -20.905309 16.00000000
38.619639 -50.003902 -17.750058 16.00000000
18.024322 -37.139538 -32.942027 16.00000000
31.324992 -47.772144 -29.490895 16.00000000
57.985602 -47.682301 -9.250026 16.00000000
14.474323 -31.103646 -12.366915 16.00000000
30.681143 -47.479398 -59.598845 16.00000000
17.980368 -37.079130 -51.477682 16.00000000
39.578073 -50.167687 -47.107868 16.00000000
39.719915 -50.191926 -19.557806 16.00000000
45.391745 -50.538348 -51.590693 16.00000000
46.297065 -50.514917 -0.219837 16.00000000
12.916499 -26.080688 -46.491650 16.00000000
20.695020 -40.355466 -51.082941 16.00000000
50.883546 -49.933073 -14.799199 16.00000000
29.222133 -46.772663 -59.666005 16.00000000
12.409962 -23.444394 -50.955623 16.00000000
24.886944 -44.062853 -24.810973 16.00000000
51.794116 -49.760705 -39.116322 16.00000000
12.567540 -24.264517 1.823078 16.00000000
26.380574 -45.081238 -51.794402 16.00000000
13.053017 -26.791197 -15.310769 16.00000000
19.576543 -39.085848 -9.577829 16.00000000
18.462850 -37.742224 -28.160916 16.00000000
12.913230 -26.063674 -34.601280 16.00000000
46.702552 -50.479030 -32.087070 16.00000000
14.764754 -31.693768 -40.833145 16.00000000
45.478341 -50.538137 -39.425974 16.00000000
45.969736 -50.536940 -19.652206 16.00000000
12.546592 -24.155493 -6.755670 16.00000000
52.689610 -49.522549 -52.255018 16.00000000
55.208128 -48.776007 -9.639993 16.00000000
14.913305 -31.995605 -13.856870 16.00000000
50.699131 -49.965510 -25.341836 16.00000000
15.858381 -33.821314 -37.828067 16.00000000
41.911975 -50.434364 -18.753678 16.00000000
48.791756 -50.294130 -9.076047 16.00000000
32.211277 -48.174032 -2.291594 16.00000000
12.129788 -21.986223 -32.322885 16.00000000
40.956204 -50.354485 -30.581644 16.00000000
26.116655 -44.901293 3.786858 16.00000000
56.246540 -48.401901 -57.308634 16.00000000
14.250770 -30.592856 -58.174104 16.00000000
37.475171 -49.796406 -55.384897 16.00000000
41.526258 -50.402128 -22.251313 16.00000000
12.091627 -21.787613 0.383917 16.00000000
19.795169 -39.337713 -21.857066 16.00000000
19.792687 -39.334854 -32.324175 16.00000000
25.044960 -44.170592 -33.247054 16.00000000
16.801489 -35.383299 -45.685457 16.00000000
27.959621 -46.062191 -48.175052 16.00000000
29.845243 -47.099331 -39.447527 16.00000000
55.501185 -48.670428 -53.003741 16.00000000
53.843849 -49.215582 -60.865610 16.00000000
37.851682 -49.872667 -31.925161 16.00000000
18.369493 -37.613920 -7.030855 16.00000000
32.160903 -48.152217 -15.254155 16.00000000
12.097991 -21.820732 -60.758074 16.00000000
23.046663 -42.571007 -29.277021 16.00000000
32.145079 -48.145022 -4.905476 16.00000000
54.988769 -48.855035 -31.144573 16.00000000
40.656253 -50.329416 -10.922042 16.00000000
57.178442 -48.054067 -59.614445 16.00000000
37.649239 -49.838072 -40.073052 16.00000000
35.168608 -49.194968 -4.282065 16.00000000
26.709650 -45.305609 -27.160236 16.00000000
21.268623 -40.911781 3.461730 16.00000000
50.853851 -49.938296 3.583951 16.00000000
41.115695 -50.367814 -8.789312 16.00000000
12.414961 -23.470411 -1.627673 16.00000000
14.452654 -31.059618 -4.103304 16.00000000
13.716659 -29.221997 -7.261207 16.00000000
41.297953 -50.383047 -15.886925 16.00000000
16.285128 -34.528096 -27.966649 16.00000000
13.174408 -27.422980 -48.639359 16.00000000
45.915970 -50.537071 -25.296334 16.00000000
51.982495 -49.710606 -36.207081 16.00000000
48.404304 -50.328420 -53.250686 16.00000000
37.149740 -49.711549 -7.360394 16.00000000
25.059948 -44.180811 -7.741512 16.00000000
15.833412 -33.779959 -10.976510 16.00000000
12.871460 -25.846278 -7.023442 16.00000000
43.151937 -50.537995 -46.496804 16.00000000
20.619206 -40.281938 -40.990236 16.00000000
48.133652 -50.352374 -41.591220 16.00000000
57.886557 -47.727920 -0.230898 16.00000000
53.763512 -49.236947 -50.302676 16.00000000
15.019938 -32.212272 -48.395808 16.00000000
15.172263 -32.521779 -52.752478 16.00000000
32.818288 -48.389379 -21.576712 16.00000000
35.229369 -49.210812 -19.655058 16.00000000
29.640989 -47.006460 -8.117432 16.00000000
27.137676 -45.597445 -59.070806 16.00000000
21.711817 -41.341618 -34.906991 16.00000000
52.624524 -49.539859 3.388217 16.00000000
19.887459 -39.444033 -4.110838 16.00000000
20.281686 -39.898196 -1.311684 16.00000000
12.938959 -26.197577 -49.782115 16.00000000
12.185007 -22.273608 -47.423546 16.00000000
55.160582 -48.793137 -7.783633 16.00000000
56.701135 -48.238125 -44.619174 16.00000000
55.087439 -48.819487 -18.869869 16.00000000
12.148883 -22.085601 -6.816078 16.00000000
58.911644 -47.255780 -32.044568 16.00000000
22.081078 -41.699750 -20.400695 16.00000000
30.057611 -47.195890 -52.200262 16.00000000
12.092780 -21.793611 -50.691652 16.00000000
