69.368332 36.843210 -26.806258 15.00000000
67.240749 29.480134 -31.051485 15.00000000
40.630461 5.686409 -25.706413 15.00000000
38.441898 5.119624 -41.763212 15.00000000
60.639538 18.408963 -29.171212 15.00000000
48.006763 8.483076 -52.346084 15.00000000
69.770746 39.673480 -59.208779 15.00000000
39.847278 5.483584 -46.270681 15.00000000
35.761869 4.425562 1.808278 15.00000000
55.856734 13.627385 -13.932269 15.00000000
51.829232 10.662718 -30.680194 15.00000000
49.928524 9.488073 -14.816154 15.00000000
60.127554 17.793140 -36.645966 15.00000000
43.738848 6.664264 -0.006247 15.00000000
50.617919 9.901748 -7.320583 15.00000000
57.566317 15.123950 -9.872755 15.00000000
49.305432 9.162224 0.039246 15.00000000
53.706526 11.951281 -37.332763 15.00000000
69.977870 44.685348 -13.320113 15.00000000
56.256548 13.977382 -10.886391 15.00000000
48.331841 8.653078 -2.310073 15.00000000
54.261031 12.364106 -11.172837 15.00000000
56.489939 14.181692 -31.468079 15.00000000
66.789851 28.342290 -29.188211 15.00000000
56.062823 13.807795 -34.182539 15.00000000
41.556845 5.932231 -25.575373 15.00000000
69.985659 44.254666 -45.944932 15.00000000
39.499449 5.393504 -28.591662 15.00000000
68.125706 31.969195 -4.469828 15.00000000
52.826100 11.295811 -55.546896 15.00000000
61.500898 19.445018 -10.428434 15.00000000
64.589331 24.005713 -55.389164 15.00000000
39.427435 5.374854 -34.285619 15.00000000
54.209989 12.326106 -43.404618 15.00000000
59.445564 17.040578 -57.454201 15.00000000
49.759152 9.399499 -51.373182 15.00000000
69.559006 38.171664 -29.786139 15.00000000
41.573869 5.937942 -18.760029 15.00000000
69.993319 42.905905 -51.306098 15.00000000
64.897546 24.525257 -40.103119 15.00000000
69.895062 41.296939 -42.162998 15.00000000
41.362407 5.875965 -11.444293 15.00000000
62.489728 20.775292 -18.652523 15.00000000
50.303744 9.704378 -36.541666 15.00000000
55.682959 13.475263 -4.156641 15.00000000
50.887796 10.071291 -31.937511 15.00000000
35.119578 4.259224 -41.186323 15.00000000
69.950831 46.180591 -3.586883 15.00000000
38.402651 5.109460 -21.829196 15.00000000
69.236590 36.251682 0.380742 15.00000000
36.792508 4.692472 -60.169917 15.00000000
64.175040 23.307363 -24.077795 15.00000000
36.753737 4.682432 -25.538834 15.00000000
57.339384 14.925293 2.853171 15.00000000
59.308982 16.900472 -12.015439 15.00000000
69.211506 36.139055 -23.391698 15.00000000
69.069472 35.501316 -0.282141 15.00000000
69.043116 35.382978 -50.230870 15.00000000
67.221747 29.432183 -41.032490 15.00000000
39.138284 5.299971 -48.925444 15.00000000
50.633875 9.911773 -8.740391 15.00000000
69.279918 36.446225 -57.109308 15.00000000
44.248957 6.835398 -41.746212 15.00000000
57.988332 15.545747 -35.530533 15.00000000
69.382254 36.918004 -59.316236 15.00000000
65.245591 25.114293 -52.120923 15.00000000
69.123184 35.742488 -56.468012 15.00000000
36.444890 4.602448 -39.710479 15.00000000
59.802131 17.406345 -38.522443 15.00000000
37.823208 4.959399 -1.269107 15.00000000
69.571278 38.258703 -10.167812 15.00000000
45.649085 7.413556 -10.811502 15.00000000
65.585933 25.807533 -23.146595 15.00000000
65.126512 24.911213 -15.066527 15.00000000
56.828834 14.478359 -41.062377 15.00000000
69.987928 42.817619 -40.387782 15.00000000
51.931482 10.726954 -22.807651 15.00000000
68.409246 32.891641 -60.595061 15.00000000
51.050667 10.173609 -52.054379 15.00000000
37.342248 4.834842 -0.479470 15.00000000
58.249802 15.813963 -38.089796 15.00000000
43.376666 6.542756 -47.343815 15.00000000
52.894451 11.346697 -31.299340 15.00000000
69.959543 42.352820 -25.455425 15.00000000
69.991386 43.937921 -51.805795 15.00000000
44.878371 7.085213 -35.308203 15.00000000
59.576161 17.174545 -47.532758 15.00000000
41.691308 5.977342 -61.097703 15.00000000
65.067853 24.812335 -2.030733 15.00000000
50.859951 10.053798 -27.578945 15.00000000
53.343617 11.681098 -8.129860 15.00000000
51.127027 10.221580 1.645880 15.00000000
64.201918 23.352670 -43.436060 15.00000000
63.382266 22.040115 -52.102699 15.00000000
50.404559 9.767711 -26.926822 15.00000000
53.489395 11.789629 -13.024710 15.00000000
69.608836 38.525094 -24.480251 15.00000000
54.992062 12.908353 -20.814802 15.00000000
69.849537 40.551462 -5.434092 15.00000000
68.875372 34.629799 -50.109216 15.00000000
43.910942 6.721999 -33.499296 15.00000000
66.496139 27.661525 -30.046414 15.00000000
68.448905 33.020665 -12.626349 15.00000000
56.285009 14.002296 -33.048422 15.00000000
44.862192 7.078321 -11.673729 15.00000000
69.992256 43.889818 -49.482071 15.00000000
61.194262 19.076192 -21.386513 15.00000000
37.127538 4.779237 -43.619593 15.00000000
58.539304 16.110935 -31.576457 15.00000000
62.889146 21.341310 -47.393725 15.00000000
65.807553 26.258949 1.745696 15.00000000
63.800897 22.676687 -5.745460 15.00000000
69.952463 46.090485 -45.770182 15.00000000
47.212011 8.079400 -17.393249 15.00000000
41.315400 5.863791 -57.420202 15.00000000
40.475948 5.646394 -46.771417 15.00000000
39.323398 5.347911 -42.110469 15.00000000
64.396715 23.681029 -40.674149 15.00000000
59.057360 16.642358 -40.588331 15.00000000
65.602385 25.841045 -60.995449 15.00000000
48.314281 8.643895 -8.142239 15.00000000
57.618455 15.169592 -21.721820 15.00000000
44.513152 6.929621 -20.292835 15.00000000
69.944242 42.102262 -58.762105 15.00000000
50.631497 9.910279 -28.512223 15.00000000
69.503428 37.777467 -37.719100 15.00000000
68.233274 32.319150 -33.207069 15.00000000
62.200513 20.365442 -21.798262 15.00000000
51.225411 10.283387 -47.821162 15.00000000
36.847953 4.706831 -3.410332 15.00000000
69.574843 38.283994 -45.960123 15.00000000
56.058362 13.803890 -23.110941 15.00000000
63.059955 21.583365 -51.156841 15.00000000
49.050153 9.028724 -24.327063 15.00000000
49.310523 9.164886 -13.356122 15.00000000
52.735665 11.232157 -8.266829 15.00000000
69.890639 41.224508 -58.791236 15.00000000
51.029791 10.160495 -39.348627 15.00000000
66.214689 27.088241 -7.774183 15.00000000
65.878998 26.404475 -35.672567 15.00000000
43.698128 6.650603 -35.120224 15.00000000
40.953616 5.770098 -50.503688 15.00000000
35.226044 4.286796 -52.836260 15.00000000
52.346577 10.987725 2.827180 15.00000000
68.081482 31.825319 -44.270345 15.00000000
42.735382 6.327614 -0.629955 15.00000000
63.427697 22.104496 -6.247465 15.00000000
67.804608 30.924562 -8.175480 15.00000000
63.112130 21.657303 -59.659350 15.00000000
52.786144 11.266063 -34.289542 15.00000000
41.720072 5.986991 -35.712322 15.00000000
53.713362 11.956371 -42.003151 15.00000000
63.257447 21.863233 -16.083212 15.00000000
65.104175 24.873561 -31.330222 15.00000000
48.433143 8.706055 -54.304594 15.00000000
54.087500 12.234913 -35.070503 15.00000000
57.573067 15.129859 -50.641244 15.00000000
55.834822 13.608204 0.431592 15.00000000
60.515635 18.259930 -22.140000 15.00000000
48.609500 8.798281 -49.152708 15.00000000
68.018973 31.621957 -12.483221 15.00000000
39.479972 5.388460 -22.583593 15.00000000
41.389834 5.883068 3.679515 15.00000000
54.486823 12.532207 -24.084414 15.00000000
65.042155 24.769018 -9.721274 15.00000000
50.237705 9.662891 -50.615280 15.00000000
45.779378 7.469064 -14.885152 15.00000000
69.977748 44.692119 -15.923952 15.00000000
67.668994 30.560814 -20.203127 15.00000000
62.632236 20.977242 -17.580412 15.00000000
67.692418 30.619924 -33.874447 15.00000000
63.068091 21.594895 -19.884591 15.00000000
56.360909 14.068738 -29.121362 15.00000000
69.850031 40.559561 -56.052968 15.00000000
55.598188 13.401055 -43.081013 15.00000000
40.539324 5.662807 -57.122474 15.00000000
69.966903 45.291803 -2.742174 15.00000000
69.113148 35.697426 -53.450834 15.00000000
36.017686 4.491812 -55.852433 15.00000000
63.784030 22.648255 -51.333408 15.00000000
49.507040 9.267655 -50.490442 15.00000000
57.971858 15.528848 -59.021226 15.00000000
49.262877 9.139969 -42.671492 15.00000000
35.017888 4.232889 -7.010672 15.00000000
60.911385 18.735943 -54.001069 15.00000000
61.771522 19.770529 -28.371773 15.00000000
69.206271 36.115551 -20.455614 15.00000000
52.092024 10.827810 -45.879113 15.00000000
60.295652 17.995331 -38.697624 15.00000000
53.644906 11.905405 -0.406849 15.00000000
52.281064 10.946568 -37.544573 15.00000000
69.546436 38.082511 -16.428279 15.00000000
63.553386 22.282611 -59.586107 15.00000000
47.952285 8.454587 -55.912516 15.00000000
69.890599 41.223855 1.818432 15.00000000
69.954247 45.991775 -33.806800 15.00000000
59.933709 17.559981 -41.760234 15.00000000
44.690540 7.005193 -38.392906 15.00000000
69.772007 39.682425 -40.455710 15.00000000
69.998803 43.527741 -16.857034 15.00000000
69.494326 37.712908 -45.175297 15.00000000
43.538266 6.596971 -20.200766 15.00000000
36.450047 4.603783 -16.036866 15.00000000
56.250366 13.971970 -12.063680 15.00000000
69.874277 40.956586 -22.303371 15.00000000
69.606071 38.505484 -40.686177 15.00000000
64.274820 23.475557 -56.797149 15.00000000
68.856287 34.544109 -45.186491 15.00000000
69.954254 45.991381 -41.890411 15.00000000
68.428576 32.954528 -18.185385 15.00000000
45.901560 7.521117 -49.706142 15.00000000
44.733436 7.023468 -33.725629 15.00000000
61.590178 19.552406 -32.105238 15.00000000
59.340867 16.933180 -53.853217 15.00000000
66.696691 28.107200 -17.172293 15.00000000
49.925689 9.486591 -2.034994 15.00000000
53.205632 11.578369 -6.016809 15.00000000
44.325201 6.860977 3.860344 15.00000000
63.567539 22.302667 -7.182810 15.00000000
69.981762 44.470101 -1.242723 15.00000000
68.901244 34.745966 -60.798202 15.00000000
65.389735 25.407898 -1.427317 15.00000000
69.924615 41.780881 -14.964398 15.00000000
69.668304 38.946887 -57.010515 15.00000000
55.322309 13.159551 -29.416671 15.00000000
57.354656 14.938662 -41.918106 15.00000000
67.933554 31.344062 -6.617298 15.00000000
69.925511 41.795541 -53.466207 15.00000000
47.340462 8.134630 -12.588595 15.00000000
43.914569 6.723215 -50.719025 15.00000000
45.289470 7.260351 -20.317736 15.00000000
58.095554 15.655736 -29.920540 15.00000000
63.843394 22.748323 -39.651202 15.00000000
47.122836 8.041410 -28.620151 15.00000000
47.529356 8.233413 -42.511540 15.00000000
34.915364 4.206338 -7.939183 15.00000000
47.666520 8.305144 -4.547198 15.00000000
55.520100 13.332696 -12.884362 15.00000000
69.570748 38.254947 -55.876946 15.00000000
68.560078 33.382348 -15.431708 15.00000000
58.478145 16.048198 -48.079859 15.00000000
38.900398 5.238365 -27.875479 15.00000000
57.080755 14.698890 -15.713291 15.00000000
69.447475 37.380606 -19.232767 15.00000000
69.904355 41.449119 2.870117 15.00000000
64.429605 23.736471 -17.126861 15.00000000
47.352623 8.140990 -10.255940 15.00000000
69.874926 40.967209 -59.717101 15.00000000
58.201799 15.764722 -20.149842 15.00000000
68.961910 35.018361 -41.135099 15.00000000
69.952488 46.089023 -21.963923 15.00000000
66.602356 27.877879 -32.807820 15.00000000
41.988205 6.076946 -24.603688 15.00000000
69.642766 38.765751 -20.604861 15.00000000
48.702776 8.847061 -30.686312 15.00000000
67.674360 30.574356 -45.051744 15.00000000
67.812391 30.949881 -34.637721 15.00000000
60.923993 18.751109 -57.310653 15.00000000
43.494331 6.582231 -39.987085 15.00000000
69.967390 45.264897 -8.254802 15.00000000
42.612306 6.286324 -52.220791 15.00000000
47.123586 8.041729 -21.700473 15.00000000
69.995710 42.945056 -27.154691 15.00000000
57.542117 15.102766 -27.521028 15.00000000
60.903725 18.726730 -18.078356 15.00000000
68.361180 32.735268 -51.957634 15.00000000
36.672353 4.661355 -52.351168 15.00000000
69.951724 46.131274 -30.474165 15.00000000
69.992339 43.885195 -33.099056 15.00000000
41.724563 5.988498 -54.143901 15.00000000
54.138535 12.272908 -42.616402 15.00000000
69.950845 46.179884 -22.956014 15.00000000
43.929654 6.728276 -11.830901 15.00000000
51.505739 10.459494 -32.384982 15.00000000
69.670085 38.959517 -39.706123 15.00000000
68.621000 33.580545 -11.961988 15.00000000
65.832860 26.310498 -16.618552 15.00000000
56.626132 14.300915 -41.920659 15.00000000
67.635813 30.477080 3.140731 15.00000000
52.536775 11.107211 -48.510670 15.00000000
67.070310 29.050032 1.367577 15.00000000
69.895662 41.306768 -21.445879 15.00000000
40.195358 5.573728 -19.275439 15.00000000
49.614739 9.323978 -58.185211 15.00000000
52.361900 10.997351 -19.258645 15.00000000
61.895547 19.933273 -42.637467 15.00000000
43.910934 6.721996 -20.870851 15.00000000
63.900847 22.845168 -8.039815 15.00000000
66.699794 28.115031 -58.885633 15.00000000
58.447243 16.016498 -59.795292 15.00000000
40.234211 5.583790 -29.657591 15.00000000
62.141844 20.282302 -45.469673 15.00000000
66.279190 27.219623 -15.047794 15.00000000
69.900253 41.381953 -23.894410 15.00000000
58.284192 15.849240 -43.134345 15.00000000
64.235188 23.408751 -51.608859 15.00000000
43.255178 6.501999 -24.868621 15.00000000
55.355245 13.188382 -52.456978 15.00000000
47.168942 8.061052 -3.204426 15.00000000
67.409647 29.906350 -33.718541 15.00000000
61.204148 19.088083 -58.304314 15.00000000
64.651362 24.110276 -43.295347 15.00000000
62.481582 20.763748 -51.573298 15.00000000
59.363494 16.956390 -3.586402 15.00000000
38.936584 5.247736 -5.416927 15.00000000
44.930317 7.107344 -39.272705 15.00000000
67.634727 30.474340 -3.641863 15.00000000
64.846705 24.439556 -37.333139 15.00000000
67.453224 30.016316 -59.928443 15.00000000
61.938873 19.994670 -0.938678 15.00000000
67.326256 29.695913 -56.578864 15.00000000
59.639501 17.239519 -50.839992 15.00000000
40.217376 5.579430 -21.796336 15.00000000
55.829451 13.603501 -45.598637 15.00000000
69.989839 44.023469 -54.063869 15.00000000
44.647467 6.986843 -21.369978 15.00000000
48.016224 8.488024 -59.246737 15.00000000
62.986204 21.478852 -8.021550 15.00000000
66.052198 26.757264 -17.909722 15.00000000
53.476502 11.780030 -49.113602 15.00000000
69.953696 46.022266 -32.866053 15.00000000
69.996688 43.644731 -50.595946 15.00000000
37.343373 4.835133 -42.359148 15.00000000
67.976589 31.484071 -15.159463 15.00000000
62.668406 21.028498 -21.515969 15.00000000
52.113018 10.840998 -53.840933 15.00000000
39.028694 5.271590 -13.964348 15.00000000
43.502618 6.585012 -51.364115 15.00000000
35.140819 4.264725 -54.502260 15.00000000
69.973109 44.948631 -12.488382 15.00000000
57.285736 14.878330 -59.365872 15.00000000
69.401419 37.053937 -54.518757 15.00000000
38.198275 5.056532 -14.774659 15.00000000
45.087704 7.174394 -6.752522 15.00000000
36.969856 4.738401 -22.165544 15.00000000
69.862069 40.756674 -37.349512 15.00000000
51.514029 10.464702 -25.848797 15.00000000
58.065295 15.624695 -22.455548 15.00000000
57.365107 14.947811 -0.335981 15.00000000
52.919383 11.365259 -41.632086 15.00000000
39.577266 5.413657 -48.132242 15.00000000
43.165146 6.471794 -19.219203 15.00000000
69.213839 36.149529 -29.270752 15.00000000
66.274354 27.209772 -34.705287 15.00000000
62.410457 20.662956 -37.569175 15.00000000
66.059476 26.772089 -53.260157 15.00000000
60.150944 17.821274 -23.675852 15.00000000
35.635446 4.392822 -13.192460 15.00000000
54.069552 12.221551 -57.046981 15.00000000
52.286213 10.949803 -51.751671 15.00000000
39.761665 5.461412 -17.296941 15.00000000
63.778527 22.638979 -20.823440 15.00000000
62.638225 20.985728 -0.495777 15.00000000
49.130240 9.070606 2.574189 15.00000000
57.992783 15.550312 -53.104867 15.00000000
69.030428 35.326009 -45.832657 15.00000000
37.330207 4.831723 -32.588907 15.00000000
68.353629 32.710701 2.087455 15.00000000
68.589123 33.476841 -39.274629 15.00000000
53.576565 11.854526 -29.387146 15.00000000
67.988985 31.524398 -26.071010 15.00000000
51.184014 10.257380 -2.850467 15.00000000
67.868701 31.133075 -40.079307 15.00000000
69.482723 37.630610 -17.557814 15.00000000
69.563596 38.204220 -35.337311 15.00000000
38.193792 5.055371 -60.821234 15.00000000
37.381537 4.845017 -60.846510 15.00000000
69.949744 46.240860 -8.117513 15.00000000
51.624491 10.534096 -19.867842 15.00000000
68.076385 31.808737 -41.470605 15.00000000
41.804259 6.015235 -52.612551 15.00000000
49.442251 9.233774 -16.293031 15.00000000
67.986141 31.515145 -27.140253 15.00000000
65.885327 26.417366 -29.667748 15.00000000
49.145572 9.078624 -37.716290 15.00000000
69.866182 40.824037 -7.420360 15.00000000
69.983792 44.357903 -33.950922 15.00000000
36.275413 4.558557 -19.751272 15.00000000
53.214583 11.585033 2.743270 15.00000000
63.801351 22.677452 -23.504606 15.00000000
55.155862 13.030301 -10.931235 15.00000000
66.780836 28.319542 -47.205899 15.00000000
62.126827 20.261022 -29.381182 15.00000000
34.999169 4.228041 -15.914246 15.00000000
37.982037 5.000531 3.626834 15.00000000
68.700615 33.845138 -39.979471 15.00000000
52.864726 11.324567 -56.500904 15.00000000
65.860156 26.366096 -24.375738 15.00000000
69.364741 36.827083 1.770790 15.00000000
68.960801 35.013380 1.494835 15.00000000
64.099673 23.180320 -33.146129 15.00000000
59.187547 16.775903 1.833239 15.00000000
66.982093 28.827414 -49.931960 15.00000000
41.324989 5.866275 -32.224890 15.00000000
54.941832 12.870957 -49.328199 15.00000000
63.853972 22.766154 -54.122123 15.00000000
57.918110 15.473713 -31.955233 15.00000000
63.285095 21.902413 -11.395500 15.00000000
66.486741 27.642383 -48.924323 15.00000000
36.175369 4.532648 -41.605187 15.00000000
69.984240 42.757240 -0.894648 15.00000000
45.856226 7.501803 -47.392759 15.00000000
47.551351 8.244916 -61.093840 15.00000000
47.220497 8.083015 -6.304721 15.00000000
58.940007 16.521976 -43.534044 15.00000000
67.162343 29.282277 -45.929218 15.00000000
66.809516 28.391915 -38.501238 15.00000000
62.375787 20.613825 -6.428869 15.00000000
61.143019 19.014556 -23.694137 15.00000000
46.689531 7.856811 -55.280814 15.00000000
67.988308 31.522195 -59.082933 15.00000000
69.974809 44.854629 0.631758 15.00000000
50.736929 9.976513 -46.039809 15.00000000
68.595491 33.497558 -43.783083 15.00000000
35.990977 4.484895 -54.798293 15.00000000
69.987780 44.137356 -23.922559 15.00000000
69.982463 44.431402 -32.457553 15.00000000
62.593628 20.922529 -57.464706 15.00000000
62.781489 21.188748 -9.145829 15.00000000
69.888941 41.196713 -4.764417 15.00000000
50.369282 9.745550 -49.869189 15.00000000
45.373316 7.296072 -5.667160 15.00000000
47.297340 8.115753 -51.094308 15.00000000
69.375036 36.873308 -45.310947 15.00000000
58.139427 15.700740 -48.652067 15.00000000
61.907814 19.950656 -49.688380 15.00000000
48.051032 8.506227 -14.924419 15.00000000
69.995394 43.716243 -18.211778 15.00000000
46.576316 7.808579 -39.259960 15.00000000
69.843560 40.453597 2.642411 15.00000000
61.345912 19.258599 -38.732287 15.00000000
48.700481 8.845861 -40.667542 15.00000000
36.069748 4.505295 -24.986405 15.00000000
67.579991 30.336215 -17.113752 15.00000000
46.564707 7.803633 -59.601560 15.00000000
68.905734 34.766127 -55.325447 15.00000000
56.785338 14.440283 -14.825760 15.00000000
68.719423 33.929586 -54.929115 15.00000000
54.507611 12.547683 -22.956589 15.00000000
41.507004 5.915510 -33.113995 15.00000000
63.660299 22.439688 -55.137171 15.00000000
45.653142 7.415285 -11.692584 15.00000000
67.035768 28.962865 -7.320724 15.00000000
63.084093 21.617572 -13.396846 15.00000000
42.171420 6.138413 -47.347647 15.00000000
46.937381 7.962401 -4.689818 15.00000000
54.192686 12.313224 3.825824 15.00000000
69.955357 45.930322 -15.439134 15.00000000
44.513194 6.929639 -27.908799 15.00000000
69.097992 35.629374 -35.729606 15.00000000
38.679254 5.181094 -10.219574 15.00000000
63.254734 21.859389 -4.070081 15.00000000
68.136368 32.003883 -49.408434 15.00000000
66.335893 27.335121 -10.706671 15.00000000
60.724378 18.511008 -2.350427 15.00000000
68.645689 33.660867 -46.920611 15.00000000
59.237234 16.826873 -55.708422 15.00000000
61.483353 19.423915 -60.181165 15.00000000
65.473347 25.578208 -6.311117 15.00000000
57.613289 15.165069 -30.990344 15.00000000
51.760869 10.619772 -22.056571 15.00000000
35.070466 4.246505 -27.134867 15.00000000
66.029798 26.711638 -54.583494 15.00000000
49.510365 9.269394 -3.628267 15.00000000
63.302387 21.926917 -33.019509 15.00000000
69.064266 35.477940 -27.625222 15.00000000
69.991259 42.872175 -15.689658 15.00000000
61.640033 19.612372 -15.243082 15.00000000
63.429454 22.106986 -29.991028 15.00000000
67.331424 29.708953 -36.891926 15.00000000
69.953230 46.047931 -7.134377 15.00000000
67.918121 31.293856 -20.763387 15.00000000
52.829323 11.298210 -15.937981 15.00000000
36.198310 4.538590 -11.703617 15.00000000
47.877174 8.415307 -20.872353 15.00000000
44.662929 6.993430 -49.234575 15.00000000
39.230008 5.323726 -56.041161 15.00000000
55.202910 13.065328 -4.870302 15.00000000
66.867946 28.539364 -30.438138 15.00000000
66.341473 27.346487 -55.092801 15.00000000
51.672084 10.563995 -55.327967 15.00000000
64.567353 23.968665 -21.613814 15.00000000
38.257971 5.071992 -42.604895 15.00000000
64.037594 23.075676 -8.959320 15.00000000
46.461515 7.759671 -17.529236 15.00000000
51.406566 10.397192 -35.909590 15.00000000
40.141449 5.559767 -54.316835 15.00000000
55.103208 12.991100 -3.080060 15.00000000
51.972065 10.752449 -40.884415 15.00000000
68.120242 31.951419 -19.822623 15.00000000
69.859341 40.712016 -31.037169 15.00000000
65.359959 25.347249 -56.985118 15.00000000
68.385386 32.814017 -25.317831 15.00000000
67.224945 29.440253 -57.382289 15.00000000
69.995306 43.721155 -8.859351 15.00000000
69.482088 37.626103 -32.239621 15.00000000
56.111431 13.850346 -30.870003 15.00000000
69.793442 39.834461 -44.597471 15.00000000
69.961466 42.384310 1.520295 15.00000000
39.561106 5.409472 -36.318561 15.00000000
62.011856 20.098096 -5.100115 15.00000000
37.522108 4.881421 -25.789002 15.00000000
55.613512 13.414469 -55.744761 15.00000000
68.553286 33.360251 2.694643 15.00000000
67.705248 30.652302 -54.544073 15.00000000
37.939038 4.989396 -13.017286 15.00000000
62.210529 20.379637 -0.069838 15.00000000
49.101874 9.055772 -4.891704 15.00000000
64.482763 23.826077 -34.369332 15.00000000
69.781576 39.750295 -8.495381 15.00000000
41.431243 5.893792 -53.388366 15.00000000
69.963924 45.456555 -10.246406 15.00000000
65.440859 25.512032 -14.590572 15.00000000
69.866747 40.833278 -36.305800 15.00000000
56.882917 14.525703 -12.688135 15.00000000
69.564095 38.207762 -53.837455 15.00000000
66.345569 27.354831 -26.109443 15.00000000
48.992035 8.998331 -15.575488 15.00000000
50.401460 9.765765 1.982006 15.00000000
69.988635 44.090043 -28.069752 15.00000000
69.450219 37.400067 -29.427099 15.00000000
68.408820 32.890258 -46.153607 15.00000000
65.312462 25.250502 0.995082 15.00000000
56.763996 14.421600 -32.161529 15.00000000
69.977181 44.723471 -23.452668 15.00000000
39.657821 5.434519 -5.095442 15.00000000
51.135985 10.227208 -40.544073 15.00000000
39.363394 5.358269 -27.224630 15.00000000
49.619758 9.326602 -26.903523 15.00000000
69.671181 38.967291 -43.200231 15.00000000
42.722352 6.323243 -10.857393 15.00000000
69.803229 39.903878 -50.062188 15.00000000
66.573458 27.819015 1.093922 15.00000000
66.075367 26.804458 0.985356 15.00000000
69.374982 36.873070 3.418138 15.00000000
69.973098 42.574790 -50.061241 15.00000000
69.975052 44.841202 -11.556897 15.00000000
69.963946 45.455441 -47.230273 15.00000000
59.525197 17.122266 -19.950249 15.00000000
69.953110 46.054644 -35.279791 15.00000000
65.081832 24.835900 -6.885784 15.00000000
60.672051 18.448069 -32.384634 15.00000000
69.968977 45.177092 -1.632211 15.00000000
68.247107 32.364153 -20.640056 15.00000000
51.116483 10.214956 -5.389506 15.00000000
65.562379 25.759557 -33.250191 15.00000000
68.189592 32.177037 -14.544476 15.00000000
69.842221 40.431673 -33.787600 15.00000000
59.442258 17.037187 -22.626254 15.00000000
44.333802 6.863862 0.453193 15.00000000
44.911457 7.099309 -10.794660 15.00000000
62.755773 21.152306 -43.698433 15.00000000
54.328420 12.414277 -32.446046 15.00000000
69.902183 41.413542 -5.719915 15.00000000
41.345733 5.871647 -58.879906 15.00000000
69.534933 38.000923 -4.908704 15.00000000
54.910094 12.847329 -57.577040 15.00000000
68.939538 34.917907 -7.477283 15.00000000
58.702513 16.278355 -0.643488 15.00000000
61.618934 19.586993 -45.817235 15.00000000
62.161892 20.310712 -47.674371 15.00000000
67.923025 31.309810 -29.904203 15.00000000
42.153693 6.132466 -39.221385 15.00000000
69.997430 43.603678 -9.673347 15.00000000
69.089318 35.590425 -15.254845 15.00000000
52.400611 11.021670 -39.671901 15.00000000
69.929641 41.863181 -22.280785 15.00000000
36.199592 4.538921 -13.673404 15.00000000
68.286813 32.493327 -23.759572 15.00000000
53.097828 11.498110 -33.537710 15.00000000
39.161948 5.306100 -50.446428 15.00000000
64.986080 24.674495 -11.150050 15.00000000
46.625742 7.829635 -46.276579 15.00000000
69.719578 39.310559 -15.761164 15.00000000
46.821419 7.912999 -27.239995 15.00000000
49.824942 9.433905 -7.317117 15.00000000
69.952946 46.063656 -16.478785 15.00000000
49.586504 9.309212 -29.661743 15.00000000
54.451315 12.505771 -61.011609 15.00000000
38.918951 5.243169 -9.186871 15.00000000
51.180730 10.255317 -14.399355 15.00000000
54.229340 12.340512 -48.969225 15.00000000
60.966423 18.802144 -12.606352 15.00000000
43.531374 6.594659 -4.994994 15.00000000
42.823258 6.357095 -59.889611 15.00000000
42.300224 6.181625 -50.168308 15.00000000
63.571089 22.307698 -49.295973 15.00000000
49.642455 9.338472 -45.453382 15.00000000
69.153041 35.876547 -58.063653 15.00000000
69.976844 44.742129 -44.945985 15.00000000
63.460018 22.150299 -10.623777 15.00000000
46.921324 7.955561 -43.849999 15.00000000
69.975505 44.816207 -31.257364 15.00000000
57.060105 14.680813 -9.440017 15.00000000
68.221267 32.280087 -18.804115 15.00000000
66.899506 28.619006 -8.239802 15.00000000
69.951689 46.133271 -53.359905 15.00000000
40.045229 5.534848 -50.965719 15.00000000
43.378813 6.543477 1.081251 15.00000000
69.989108 42.836948 -18.267334 15.00000000
59.657073 17.257545 -23.408739 15.00000000
44.306014 6.854540 -45.372867 15.00000000
68.126177 31.970729 -47.036194 15.00000000
58.896541 16.477389 -22.169286 15.00000000
69.971370 42.546490 -13.807308 15.00000000
54.004496 12.173118 -58.963711 15.00000000
35.237028 4.289641 -17.351131 15.00000000
67.984923 31.511183 -36.830114 15.00000000
66.672093 28.045127 -20.893503 15.00000000
69.982015 44.456164 -43.220634 15.00000000
54.924687 12.858193 -59.032935 15.00000000
54.020139 12.184764 -55.133090 15.00000000
64.256237 23.444233 -3.984808 15.00000000
48.752566 8.873099 -43.411237 15.00000000
65.813849 26.271773 -22.172023 15.00000000
52.993423 11.420381 -15.172726 15.00000000
35.592809 4.381780 -6.051571 15.00000000
36.707000 4.670328 -12.751060 15.00000000
42.216775 6.153629 -4.654126 15.00000000
67.027586 28.942218 -48.687134 15.00000000
40.522007 5.658322 -10.904535 15.00000000
69.979204 42.674765 -61.033544 15.00000000
69.970682 45.082907 -34.501346 15.00000000
59.440453 17.035335 -13.670251 15.00000000
55.791432 13.570220 -2.009013 15.00000000
51.710232 10.587961 -36.774347 15.00000000
68.106539 31.906838 -2.122457 15.00000000
36.043362 4.498462 -38.161329 15.00000000
66.654621 28.001038 -9.604732 15.00000000
37.317648 4.828471 -10.503289 15.00000000
57.391237 14.970686 -29.785313 15.00000000
59.131219 16.718122 -5.603365 15.00000000
60.674046 18.450469 -9.172576 15.00000000
57.087473 14.704771 -3.520513 15.00000000
48.245041 8.607685 -29.897732 15.00000000
63.993227 23.000889 3.784881 15.00000000
47.182387 8.066780 -38.322539 15.00000000
63.426963 22.103455 -39.004244 15.00000000
53.501064 11.798316 -32.131842 15.00000000
69.010923 35.238429 -44.277668 15.00000000
54.779358 12.749997 -53.675650 15.00000000
37.235932 4.807308 -58.934039 15.00000000
35.436000 4.341170 -44.132425 15.00000000
59.055068 16.640006 -7.218086 15.00000000
61.354898 19.269407 -11.677661 15.00000000
69.593133 38.413720 -13.024325 15.00000000
49.544275 9.287128 -33.228382 15.00000000
58.709887 16.285919 -49.191279 15.00000000
69.835502 40.321653 -21.400085 15.00000000
68.739539 34.019904 -52.142720 15.00000000
36.995663 4.745085 -9.583702 15.00000000
67.894918 31.218367 -2.689190 15.00000000
66.409234 27.484508 -59.864737 15.00000000
38.400869 5.108999 -50.206692 15.00000000
68.674915 33.755950 -60.537028 15.00000000
35.027943 4.235493 3.608529 15.00000000
65.951087 26.551313 -33.587833 15.00000000
69.678759 39.021044 -2.566555 15.00000000
64.156591 23.276264 -12.395467 15.00000000
41.013123 5.785509 -45.730369 15.00000000
69.961402 45.596023 -11.374170 15.00000000
50.869731 10.059942 -58.948883 15.00000000
45.774025 7.466783 -39.102720 15.00000000
69.835336 40.318934 -1.795931 15.00000000
53.550232 11.834921 -25.310721 15.00000000
69.943448 42.089269 -3.460361 15.00000000
44.356398 6.871443 -35.957139 15.00000000
58.811450 16.390103 -11.667291 15.00000000
48.353552 8.664432 -41.359877 15.00000000
66.337813 27.339033 -30.882021 15.00000000
69.678621 39.020065 -6.876433 15.00000000
48.178403 8.572836 -42.798282 15.00000000
57.287253 14.879658 -22.714784 15.00000000
47.184164 8.067537 -20.182474 15.00000000
69.977537 44.703830 -54.469271 15.00000000
55.861335 13.631413 -16.310029 15.00000000
68.410556 32.895905 -47.036847 15.00000000
60.822972 18.629599 -13.486878 15.00000000
44.490626 6.920025 -22.359443 15.00000000
68.851996 34.524841 -15.102835 15.00000000
64.229250 23.398741 -46.347761 15.00000000
45.702497 7.436311 -13.165499 15.00000000
55.004494 12.917609 -41.918376 15.00000000
53.703544 11.949061 -14.840597 15.00000000
55.028205 12.935261 -17.098710 15.00000000
61.600455 19.564767 -8.797099 15.00000000
40.339942 5.611172 -30.654320 15.00000000
55.922562 13.685010 -40.570710 15.00000000
37.119486 4.777152 0.374986 15.00000000
49.896937 9.471555 -20.139990 15.00000000
68.295124 32.520366 -47.747283 15.00000000
62.660121 21.016758 -48.398492 15.00000000
69.761353 39.606857 -41.395175 15.00000000
53.931235 12.118575 -7.662249 15.00000000
64.534161 23.912715 -7.475661 15.00000000
46.912141 7.951649 -48.393848 15.00000000
67.353988 29.765895 -14.806183 15.00000000
69.988811 44.080305 -26.211796 15.00000000
56.350681 14.059785 -51.136505 15.00000000
47.544002 8.241073 -13.543986 15.00000000
58.569558 16.141970 -50.413271 15.00000000
65.190914 25.019773 -14.029562 15.00000000
66.867268 28.537652 -37.297175 15.00000000
54.515801 12.553780 -18.666013 15.00000000
69.846852 40.507499 -60.798093 15.00000000
42.682830 6.309984 -43.138481 15.00000000
64.786045 24.337304 -1.397093 15.00000000
61.080957 18.939907 -31.646279 15.00000000
55.910271 13.674252 -14.920421 15.00000000
35.091842 4.252041 -58.370219 15.00000000
65.410768 25.450741 -46.057503 15.00000000
39.865142 5.488210 -20.180421 15.00000000
50.726610 9.970030 -11.698652 15.00000000
59.351236 16.943816 2.702576 15.00000000
67.602093 30.391989 -57.054593 15.00000000
66.235086 27.129788 -28.192847 15.00000000
55.747501 13.531763 -50.054484 15.00000000
43.675156 6.642896 -38.075342 15.00000000
68.347769 32.691637 0.997034 15.00000000
69.447781 37.382772 -60.822440 15.00000000
35.691287 4.407283 -2.152942 15.00000000
39.010183 5.266796 -32.452686 15.00000000
42.858778 6.369012 -32.442724 15.00000000
38.875421 5.231896 -20.839979 15.00000000
69.853628 40.618454 -29.138256 15.00000000
64.105864 23.190756 -53.379046 15.00000000
66.396208 27.457977 -57.956725 15.00000000
65.948246 26.545525 0.172478 15.00000000
61.727996 19.718175 -52.808700 15.00000000
69.703246 39.194719 -14.435886 15.00000000
63.124716 21.675139 -9.847471 15.00000000
53.678337 11.930295 -34.259043 15.00000000
35.832121 4.443755 2.984184 15.00000000
40.553691 5.666527 -6.797225 15.00000000
41.776957 6.006076 -50.878227 15.00000000
37.808377 4.955558 -33.262312 15.00000000
68.131393 31.987699 -16.757628 15.00000000
69.738991 39.448254 -60.858823 15.00000000
36.455713 4.605251 -54.117721 15.00000000
51.074524 10.188597 -55.700784 15.00000000
64.927137 24.575136 -53.940172 15.00000000
37.460233 4.865397 -54.064905 15.00000000
46.911541 7.951393 -47.522444 15.00000000
69.547077 38.087056 2.368511 15.00000000
65.895821 26.438741 -55.320697 15.00000000
60.755536 18.548486 -9.964678 15.00000000
45.286955 7.259280 -55.456760 15.00000000
46.627033 7.830186 -60.918271 15.00000000
63.764079 22.614625 -24.724550 15.00000000
59.492252 17.088471 -39.983769 15.00000000
50.255539 9.674095 -55.454730 15.00000000
69.994170 43.783963 -44.258397 15.00000000
39.430382 5.375618 -21.787251 15.00000000
48.137650 8.551525 -7.003096 15.00000000
69.066335 35.487234 -32.375003 15.00000000
67.074773 29.061293 -13.639679 15.00000000
61.100457 18.963362 -35.219136 15.00000000
38.156379 5.045682 -32.451753 15.00000000
69.734178 39.414117 -53.500629 15.00000000
64.056573 23.107669 -48.460394 15.00000000
68.829212 34.422539 -26.318451 15.00000000
60.897753 18.719547 -6.639432 15.00000000
52.762958 11.249303 -26.999158 15.00000000
67.569782 30.310453 -58.017428 15.00000000
60.938493 18.768550 -24.388822 15.00000000
68.653055 33.684832 1.241887 15.00000000
38.703433 5.187356 -13.211506 15.00000000
69.958015 45.783318 -9.389641 15.00000000
53.048705 11.461538 -37.177776 15.00000000
69.970502 42.532271 -14.759554 15.00000000
68.382432 32.804406 -41.804334 15.00000000
68.611159 33.548532 -53.127792 15.00000000
63.394535 22.057502 -40.144792 15.00000000
53.476211 11.779813 -50.796114 15.00000000
66.024340 26.700522 3.867903 15.00000000
37.555507 4.890070 -49.715692 15.00000000
37.761663 4.943460 -27.738106 15.00000000
69.380657 36.906678 -35.261072 15.00000000
66.024669 26.701190 -23.406830 15.00000000
63.547672 22.274514 -35.884144 15.00000000
65.269641 25.163279 -12.322401 15.00000000
36.900360 4.720403 -20.489642 15.00000000
56.615554 14.291654 -52.236460 15.00000000
53.732443 11.970576 -30.885655 15.00000000
69.976441 44.764454 -52.322782 15.00000000
42.612790 6.286486 -17.612890 15.00000000
51.773801 10.627896 -39.166756 15.00000000
43.623612 6.625603 -42.757347 15.00000000
63.024074 21.532519 -15.180406 15.00000000
66.450049 27.567646 -16.000932 15.00000000
52.387654 11.013530 -24.002055 15.00000000
35.858381 4.450556 -14.516155 15.00000000
48.123900 8.544334 -51.499197 15.00000000
63.741430 22.576448 -35.097688 15.00000000
66.400481 27.466680 -23.117374 15.00000000
45.314393 7.270969 -51.914830 15.00000000
69.489090 37.675765 -28.420246 15.00000000
56.654442 14.325697 -27.304496 15.00000000
61.353460 19.267678 -50.617604 15.00000000
66.654445 28.000593 -50.297740 15.00000000
62.489721 20.775281 -31.440738 15.00000000
53.330812 11.671564 -58.483472 15.00000000
45.615831 7.399389 -22.485987 15.00000000
53.259045 11.618135 -28.700136 15.00000000
69.321275 36.631922 -38.951428 15.00000000
47.625080 8.283473 -58.431986 15.00000000
62.592418 20.920814 -32.909003 15.00000000
63.440883 22.123182 -28.541975 15.00000000
56.459970 14.155456 -49.924056 15.00000000
43.159122 6.469773 -40.756338 15.00000000
64.643589 24.097173 -24.488173 15.00000000
44.327887 6.861878 -44.484187 15.00000000
68.600077 33.512476 -22.581045 15.00000000
65.705463 26.051002 -53.774439 15.00000000
48.222039 8.595656 -3.758490 15.00000000
47.762293 8.355229 -27.027911 15.00000000
54.948566 12.875971 -25.906204 15.00000000
49.996295 9.523515 -8.251199 15.00000000
69.786030 39.781888 0.975278 15.00000000
37.560321 4.891317 -47.466350 15.00000000
45.728293 7.447301 -37.944514 15.00000000
66.439231 27.545610 -5.134412 15.00000000
35.122231 4.259911 -55.297436 15.00000000
68.968762 35.049126 -20.959607 15.00000000
69.733135 39.406718 -28.582461 15.00000000
50.117203 9.587189 3.827299 15.00000000
64.328957 23.566814 0.352539 15.00000000
55.835932 13.609175 -44.692206 15.00000000
65.298425 25.221910 -47.806050 15.00000000
68.753246 34.081449 -11.088574 15.00000000
62.139029 20.278314 -14.736479 15.00000000
47.926875 8.441298 -6.093969 15.00000000
38.634243 5.169437 -31.520991 15.00000000
56.761475 14.419393 -57.670140 15.00000000
46.875960 7.936234 -25.033577 15.00000000
53.598012 11.870493 -55.802021 15.00000000
52.568561 11.127180 -22.040806 15.00000000
35.329439 4.313573 -40.409705 15.00000000
53.958288 12.138716 -19.031712 15.00000000
68.905023 34.762935 -0.282063 15.00000000
69.868394 40.860253 -47.863719 15.00000000
64.391325 23.671944 -18.045007 15.00000000
42.866007 6.371437 -48.696640 15.00000000
65.307764 25.240934 -58.014067 15.00000000
62.123295 20.256017 -24.309872 15.00000000
70.000376 43.440766 -14.863917 15.00000000
67.469278 30.056830 -25.875619 15.00000000
66.266127 27.193016 -33.138606 15.00000000
46.434126 7.748002 -33.100738 15.00000000
66.813776 28.402666 -2.951036 15.00000000
55.487426 13.304093 -56.559587 15.00000000
55.097120 12.986568 -20.021117 15.00000000
69.912115 41.576192 -31.444793 15.00000000
68.427074 32.949641 -33.855776 15.00000000
69.849986 40.558820 -32.843638 15.00000000
69.478968 37.603977 -57.935156 15.00000000
68.168402 32.108100 -3.398222 15.00000000
69.873028 40.936144 -11.716609 15.00000000
60.670847 18.446621 -45.138611 15.00000000
38.447835 5.121162 -15.713869 15.00000000
67.356117 29.771268 -27.989221 15.00000000
65.989667 26.629895 -42.157190 15.00000000
59.043292 16.627927 -17.665265 15.00000000
54.496391 12.539330 -14.108533 15.00000000
46.498823 7.775565 -18.415945 15.00000000
69.954640 45.970114 -57.360987 15.00000000
60.771304 18.567452 -36.980717 15.00000000
68.691872 33.811115 -20.509111 15.00000000
69.844083 40.462155 -39.399903 15.00000000
69.964223 45.440126 -48.845765 15.00000000
57.693777 15.243591 -17.971424 15.00000000
61.452148 19.386381 -41.497920 15.00000000
69.363541 36.821698 -13.828985 15.00000000
46.463923 7.760697 -7.954708 15.00000000
59.264926 16.855279 -54.803199 15.00000000
59.028094 16.612337 -58.510532 15.00000000
66.916783 28.662604 -44.461601 15.00000000
68.118769 31.946627 1.382090 15.00000000
44.027590 6.761132 -16.133401 15.00000000
68.806512 34.320619 -10.115685 15.00000000
53.368646 11.699732 -21.839699 15.00000000
61.628166 19.598098 -59.364326 15.00000000
69.953211 46.049000 -17.524877 15.00000000
69.993395 43.826833 -42.236879 15.00000000
69.846877 40.507915 -0.984420 15.00000000
65.227367 25.081220 -3.232570 15.00000000
69.451715 37.410676 -36.804066 15.00000000
64.662504 24.129057 -25.989016 15.00000000
35.211286 4.282974 -22.923226 15.00000000
44.293840 6.850456 -24.245422 15.00000000
66.778474 28.313582 -16.278406 15.00000000
55.055444 12.955541 -50.682978 15.00000000
45.505272 7.352288 -53.145138 15.00000000
34.935165 4.211466 -31.354761 15.00000000
50.405697 9.768426 -26.169307 15.00000000
59.994340 17.632909 -15.397748 15.00000000
69.992349 43.884682 -11.735573 15.00000000
69.031313 35.329983 -50.996145 15.00000000
46.687598 7.855988 0.610505 15.00000000
38.262393 5.073137 2.383964 15.00000000
43.098166 6.449323 -9.593420 15.00000000
45.063404 7.164042 -25.590278 15.00000000
45.773432 7.466531 -57.496736 15.00000000
70.001310 43.389121 -41.558096 15.00000000
69.887670 41.175894 -52.783086 15.00000000
53.105050 11.503487 1.753887 15.00000000
69.967091 45.281492 -32.323572 15.00000000
40.194414 5.573483 -5.902999 15.00000000
62.491442 20.777721 -52.400365 15.00000000
69.932752 41.914112 -40.794384 15.00000000
61.192963 19.074630 -40.581984 15.00000000
42.780355 6.342702 -20.978223 15.00000000
51.128743 10.222658 -20.660664 15.00000000
64.343156 23.590748 3.116427 15.00000000
69.946114 42.132918 -48.027403 15.00000000
68.401922 32.867816 -41.010166 15.00000000
68.982237 35.109628 -30.913717 15.00000000
53.751929 11.985083 -57.893376 15.00000000
63.664325 22.446474 -13.212350 15.00000000
38.438523 5.118750 -55.375397 15.00000000
63.307935 21.934780 -45.349522 15.00000000
69.906380 41.482274 -49.605988 15.00000000
57.582153 15.137813 -25.807069 15.00000000
64.053715 23.102850 -16.336637 15.00000000
57.796414 15.348877 -55.705816 15.00000000
48.576823 8.781193 -49.948167 15.00000000
47.356719 8.143132 -44.555083 15.00000000
64.912199 24.549957 0.987968 15.00000000
69.192374 36.053151 -25.263948 15.00000000
69.067643 35.493105 0.639870 15.00000000
49.408175 9.215954 -2.837240 15.00000000
53.660712 11.917173 -9.396237 15.00000000
64.908115 24.543072 -45.734903 15.00000000
58.070543 15.630079 -41.250100 15.00000000
50.812898 10.024238 -37.792173 15.00000000
69.677097 39.009255 -38.501103 15.00000000
62.747255 21.140235 -5.258148 15.00000000
61.594283 19.557342 -24.276651 15.00000000
35.198718 4.279720 -1.555839 15.00000000
67.338398 29.726553 -24.848813 15.00000000
67.697499 30.632747 -36.521581 15.00000000
57.025083 14.650155 -25.465645 15.00000000
58.703932 16.279811 -46.539905 15.00000000
52.515161 11.093633 -54.722343 15.00000000
55.344232 13.178742 -58.235348 15.00000000
42.033123 6.092016 -14.644766 15.00000000
69.573926 38.277485 -23.283905 15.00000000
52.318168 10.969878 -33.000892 15.00000000
68.696737 33.827724 -59.018335 15.00000000
59.891334 17.509011 -55.085935 15.00000000
61.753182 19.748469 -21.899568 15.00000000
63.704134 22.513579 -27.781262 15.00000000
60.122915 17.787561 -5.028772 15.00000000
45.255606 7.245925 -40.715353 15.00000000
69.818866 40.049226 -16.815244 15.00000000
64.013329 23.034774 -11.350155 15.00000000
69.185030 36.020176 -7.601241 15.00000000
64.789056 24.342380 -41.465514 15.00000000
45.731077 7.448487 -35.241750 15.00000000
43.366364 6.539300 -25.685042 15.00000000
52.620796 11.159994 -7.442616 15.00000000
65.568892 25.772823 -4.098958 15.00000000
64.453398 23.776578 -52.779169 15.00000000
37.963077 4.995621 -23.819187 15.00000000
69.252192 36.321736 -55.411075 15.00000000
64.937682 24.592913 -30.419930 15.00000000
61.475282 19.414207 2.782751 15.00000000
58.873399 16.453650 -32.969415 15.00000000
50.292739 9.697464 -52.238652 15.00000000
69.458510 37.458871 -25.207698 15.00000000
59.425370 17.019863 -43.053876 15.00000000
55.124022 13.006596 -6.691279 15.00000000
68.719863 33.931560 -41.632358 15.00000000
68.742836 34.034709 -48.621584 15.00000000
65.551206 25.736798 -48.826572 15.00000000
69.511928 37.837749 -49.425359 15.00000000
62.188129 20.347894 -8.904917 15.00000000
40.799382 5.730155 -42.773733 15.00000000
41.149253 5.820763 -47.500359 15.00000000
66.952234 28.752066 -50.728029 15.00000000
56.165054 13.897288 -48.240026 15.00000000
50.484073 9.817664 -1.419882 15.00000000
58.792137 16.370291 -8.202332 15.00000000
63.654017 22.429099 -60.979347 15.00000000
35.320509 4.311260 -20.617756 15.00000000
69.137897 35.808550 -22.584170 15.00000000
64.812647 24.382147 -17.590893 15.00000000
65.388921 25.406241 -16.683154 15.00000000
52.573322 11.130170 -44.088146 15.00000000
39.681203 5.440574 -11.064951 15.00000000
62.790735 21.201852 -56.653441 15.00000000
49.860189 9.452337 -56.674974 15.00000000
39.918089 5.501922 -31.315916 15.00000000
64.758233 24.290423 -50.337092 15.00000000
50.557574 9.863839 -39.950698 15.00000000
62.502040 20.792740 -9.887431 15.00000000
66.265961 27.192677 -32.323946 15.00000000
45.469067 7.336864 -16.214007 15.00000000
49.380102 9.201273 -25.148692 15.00000000
68.766031 34.138857 -47.756690 15.00000000
63.199730 21.781442 -0.800668 15.00000000
64.284874 23.492505 -29.398712 15.00000000
36.594065 4.641081 -51.238443 15.00000000
62.709023 21.086057 -13.849723 15.00000000
42.477740 6.241179 -28.717289 15.00000000
60.795439 18.596482 -38.420111 15.00000000
69.938027 42.000492 2.223950 15.00000000
37.006521 4.747897 -13.541918 15.00000000
69.680166 39.031023 -56.029132 15.00000000
53.120073 11.514671 -45.306410 15.00000000
65.593717 25.823388 -10.319748 15.00000000
59.857019 17.467737 -3.039808 15.00000000
38.445513 5.120560 -22.931790 15.00000000
66.150453 26.957400 -36.702483 15.00000000
62.464464 20.739490 -4.577183 15.00000000
47.245689 8.093748 -54.811372 15.00000000
66.718954 28.163382 -34.614510 15.00000000
53.015453 11.436783 -46.137952 15.00000000
69.163452 35.923289 -48.192866 15.00000000
45.658700 7.417652 1.574666 15.00000000
47.396578 8.163977 -7.106933 15.00000000
59.920241 17.543781 -31.204616 15.00000000
34.998626 4.227901 -60.772826 15.00000000
62.599445 20.930773 -14.838051 15.00000000
39.203750 5.316925 -14.751549 15.00000000
67.769338 30.814032 -45.769984 15.00000000
61.887783 19.922270 -9.786203 15.00000000
68.814581 34.356846 -19.763639 15.00000000
36.230288 4.546871 -38.890829 15.00000000
61.638404 19.610413 -29.609720 15.00000000
36.903324 4.721171 -27.702734 15.00000000
56.518679 14.206850 -9.122956 15.00000000
64.956487 24.624611 -38.965309 15.00000000
69.886458 41.156045 -34.154480 15.00000000
58.794541 16.372757 -38.688364 15.00000000
44.626721 6.978005 -13.441610 15.00000000
69.498855 37.745027 -12.402484 15.00000000
69.981346 44.493150 -41.619641 15.00000000
44.024370 6.760052 -26.158373 15.00000000
48.928442 8.965074 -20.033946 15.00000000
68.363727 32.743555 -16.579805 15.00000000
69.911578 41.567386 -27.438796 15.00000000
45.362886 7.291628 -31.048378 15.00000000
55.789296 13.568350 2.505572 15.00000000
48.321892 8.647875 -24.702585 15.00000000
66.656972 28.006970 -6.410741 15.00000000
41.903371 6.048486 -18.008650 15.00000000
69.969667 42.518606 -8.616138 15.00000000
68.562647 33.390706 -36.959559 15.00000000
69.274615 36.422417 -48.893325 15.00000000
39.806762 5.473091 -11.854571 15.00000000
39.184469 5.311932 -53.348753 15.00000000
67.315308 29.668285 -3.386223 15.00000000
36.030901 4.495235 -22.709786 15.00000000
48.325538 8.649782 -18.458355 15.00000000
60.667595 18.442709 -26.314996 15.00000000
52.126180 10.849267 -6.647032 15.00000000
56.833487 14.482433 -43.481785 15.00000000
64.093860 23.170521 -37.824714 15.00000000
66.183332 27.024371 -13.159939 15.00000000
55.878924 13.646810 -1.109523 15.00000000
58.811209 16.389855 -3.377558 15.00000000
67.272682 29.560719 -34.865308 15.00000000
41.207820 5.835931 -39.809481 15.00000000
69.777695 39.722767 -56.591703 15.00000000
47.957477 8.457302 -20.100914 15.00000000
69.957467 45.813749 -60.774011 15.00000000
61.379971 19.299565 -37.468318 15.00000000
42.766292 6.337984 -13.356443 15.00000000
55.832758 13.606396 -42.087341 15.00000000
53.535503 11.823956 -13.883826 15.00000000
59.554630 17.152458 -8.611646 15.00000000
68.379965 32.796382 -38.442993 15.00000000
54.576574 12.599026 -1.403601 15.00000000
57.430208 15.004801 -52.120720 15.00000000
40.666288 5.695687 0.801705 15.00000000
45.015051 7.143442 -23.160785 15.00000000
40.114914 5.552895 -42.419006 15.00000000
65.205718 25.044727 -49.121227 15.00000000
66.750607 28.243257 -31.920852 15.00000000
65.212965 25.056944 -22.992305 15.00000000
40.647864 5.690916 -43.968027 15.00000000
65.052457 24.786382 -27.842339 15.00000000
38.478086 5.128996 -7.263783 15.00000000
68.664568 33.722286 -7.738797 15.00000000
69.037801 35.359115 -57.287245 15.00000000
34.926014 4.209096 1.491099 15.00000000
69.409638 37.112238 -2.975526 15.00000000
67.588855 30.358582 -16.207014 15.00000000
69.961817 42.390064 -10.132238 15.00000000
50.932941 10.099652 -36.741926 15.00000000
68.126567 31.971996 -45.546770 15.00000000
45.882938 7.513183 -9.195009 15.00000000
56.316986 14.030289 -19.343047 15.00000000
70.001467 43.380432 -48.496329 15.00000000
62.909190 21.369715 -30.029439 15.00000000
69.561570 38.189848 -18.549467 15.00000000
57.286196 14.878733 -44.334023 15.00000000
39.665634 5.436542 -44.776160 15.00000000
42.262964 6.169125 -22.887694 15.00000000
69.971041 45.062991 -0.370572 15.00000000
52.950651 11.388538 -21.054170 15.00000000
69.152581 35.874479 -11.091659 15.00000000
37.174608 4.791427 -26.587692 15.00000000
53.945559 12.129239 -21.573204 15.00000000
52.804164 11.279480 -54.007449 15.00000000
49.584956 9.308403 -36.864134 15.00000000
37.447630 4.862133 -11.427555 15.00000000
66.501444 27.672332 -44.818321 15.00000000
57.551275 15.110782 -60.494059 15.00000000
69.183514 36.013368 -40.308441 15.00000000
65.515865 25.664813 -55.590599 15.00000000
67.337112 29.723307 -47.456010 15.00000000
69.906854 41.490034 -9.818682 15.00000000
68.427749 32.951838 -59.079443 15.00000000
66.016033 26.683601 -38.894179 15.00000000
64.062265 23.117264 -21.643461 15.00000000
68.687635 33.797332 -33.976725 15.00000000
69.642557 38.764269 -32.114816 15.00000000
36.646208 4.654584 -58.306715 15.00000000
46.468079 7.762467 -2.880107 15.00000000
52.404197 11.023923 -30.192833 15.00000000
63.023482 21.531680 -27.273310 15.00000000
65.559911 25.754529 -42.725857 15.00000000
66.928843 28.693038 -36.052911 15.00000000
69.649480 38.813372 -8.561647 15.00000000
42.529723 6.258618 -21.996601 15.00000000
59.626604 17.226289 -44.189517 15.00000000
67.471879 30.063393 -53.766462 15.00000000
67.414010 29.917360 -58.933459 15.00000000
