-105.351944 -19.196307 77.910787
-198.067591 -116.327469 137.710024
-80.237356 -35.859028 114.662081
-92.853437 -33.292670 91.350460
-183.343485 -115.248059 129.639736
-172.111908 -15.404150 67.613930
-161.017029 -89.915002 155.940887
-120.172076 -146.825212 67.613930
-89.314487 -120.344042 71.037743
-166.707190 -143.191956 88.734390
-144.007683 -4.632155 153.906597
-81.712185 -47.215563 67.613930
-85.884338 -136.497430 67.613930
-189.443891 -79.552933 71.037743
-85.731325 -97.548678 117.522105
-170.769273 -95.937178 114.357242
-160.171253 -21.860953 67.613930
-180.315710 -58.838135 71.075024
-108.257967 -17.982684 67.613930
-66.177873 -116.702580 67.613930
-79.946006 -117.126922 92.999847
-115.524006 -88.090758 139.649010
-122.879520 -4.465949 67.613930
-167.444928 -103.067901 153.737065
-110.648836 -38.222969 99.584593
-107.300062 -21.230884 71.037743
-61.079496 -50.254358 142.736348
-186.080344 -76.799272 71.037743
-131.906715 -94.449441 112.470190
-101.011928 -152.708560 67.613930
-127.367807 -95.025190 83.467410
-131.362023 -94.617050 120.087563
-84.700537 -66.019426 146.410324
-162.509051 -44.736659 67.613930
-117.756297 -124.788086 145.413692
-142.499953 -78.706640 124.640830
-60.748265 -42.818976 129.872736
-153.022337 -42.354624 128.236356
-106.509745 -149.010762 151.928510
-79.586414 -98.478189 74.102335
-175.286054 -97.661577 132.734734
-160.670576 -59.174136 67.613930
-121.728610 -125.512152 112.015812
-139.852086 -99.605570 155.940887
-187.664234 -94.061288 71.037743
-188.394135 -44.986530 67.613930
-123.605984 -125.741699 97.212767
-113.331336 -78.701600 145.220894
-152.925875 -101.952138 67.613930
-79.141500 -45.137559 122.935546
-65.687516 -128.182120 104.679117
-79.520755 -71.367290 152.411421
-195.362515 -89.990932 71.037743
-93.068214 -12.610371 89.928189
-134.396685 -47.560860 67.613930
-141.586177 -36.910816 103.191163
-140.832243 -60.896626 155.940887
-119.486015 -125.161580 125.935776
-172.737276 -88.711586 146.789242
-92.407740 -108.911713 98.688277
-139.065242 -36.201839 121.443222
-163.574635 -108.780630 108.090446
-114.008178 -142.818016 155.940887
-192.651858 -35.495462 100.655672
-169.007694 -51.108955 93.777318
-107.824551 -74.199213 67.613930
-146.239193 -78.089578 67.613930
-144.902988 -122.666237 126.367163
-91.146323 -53.491055 93.312484
-100.146710 -66.537314 155.940887
-128.382217 -94.987926 97.648032
-73.325888 -116.190216 88.742952
-130.935849 -133.271644 67.613930
-71.307988 -107.092642 76.968695
-62.064650 -86.284323 71.037743
-71.382234 -29.697004 112.036149
-179.465769 -92.657018 143.074084
-57.495277 -95.641803 67.613930
-68.845369 -44.653117 125.086949
-68.481492 -28.553199 113.792264
-116.666180 -33.319263 71.037743
-197.396891 -109.771198 138.206543
-153.263370 -118.254578 85.365091
-102.673062 -133.837363 129.785558
-166.695106 -42.695277 99.730427
-69.774866 -31.654295 67.613930
-105.609964 -117.145196 155.940887
-104.041298 -41.607542 84.443565
-169.860667 -43.357375 104.059283
-130.687924 -47.185892 67.613930
-116.714035 -70.992423 77.184861
-100.156032 -36.948583 71.037743
-105.863601 -120.251458 101.841422
-105.363999 -40.794641 112.615021
-103.482959 -30.661481 83.137600
-153.178080 -94.783071 67.613930
-136.925237 -91.993986 118.421807
-128.536516 -34.828219 73.415705
-164.305773 -135.680641 96.113645
-140.903290 -73.549183 108.217660
-160.572944 -138.592930 83.676669
-79.714791 -103.984576 71.037743
-74.125465 -46.833422 67.613930
-136.128243 -147.200723 71.037743
-203.187879 -104.178524 147.539892
-102.088977 -135.378390 137.708631
-171.996514 -68.750147 93.799853
-135.594679 -92.828766 85.239417
-63.243571 -38.129889 131.316367
-137.523357 -35.844639 78.410631
-169.726882 -78.599520 67.613930
-78.415017 -127.641139 67.613930
-153.014217 -87.781251 155.940887
-80.193111 -24.124324 67.613930
-182.423032 -23.320550 111.388187
-125.082088 -132.759957 67.613930
-134.464681 -60.986474 155.940887
-172.235548 -70.296969 155.940887
-188.980614 -41.214768 71.037743
-88.862866 -26.677662 92.900426
-164.175640 -52.746077 123.320033
-97.138313 -117.937624 105.725496
-161.761720 -33.805248 114.523919
-85.003875 -140.392470 120.260550
-131.450166 -66.193671 80.418029
-135.073989 -33.021137 154.351867
-61.536761 -120.474667 67.613930
-129.233175 -94.956667 116.104173
-101.228350 -43.470512 74.657965
-163.208510 -51.527778 116.751407
-85.553986 -97.094834 153.000322
-75.001291 -138.181922 71.037743
-65.108127 -89.899648 67.613930
-135.209059 -144.095583 71.037743
-134.606021 -7.731469 71.037743
-172.767089 -72.264210 131.467134
-90.452150 -27.035261 98.305056
-174.666977 -85.941393 67.613930
-184.017357 -96.643102 141.903951
-88.721806 -57.188812 90.459731
-190.580700 -104.736971 145.220001
-89.609826 -55.757778 130.678682
-61.152258 -61.166770 146.080466
-169.173334 -21.776796 120.333613
-157.479552 -133.066461 88.959924
-147.109637 -23.652846 71.037743
-171.433798 -82.139897 155.940887
-71.586040 -68.337995 147.144927
-113.328843 -80.755323 147.472089
-143.495754 -37.545878 88.468837
-197.231595 -103.400077 150.805568
-150.092164 -25.806899 71.037743
-111.623623 -25.700472 71.037743
-118.230548 -91.308803 110.366158
-175.640722 -30.004457 115.213264
-114.624129 -123.959828 108.943421
-163.756114 -14.748057 67.613930
-61.166735 -54.058802 146.119320
-54.673502 -51.533733 70.625087
-157.756807 -146.907961 78.072218
-68.960819 -102.915353 71.037743
-189.046439 -45.226576 92.457691
-189.956275 -113.910265 136.273854
-133.936821 -135.155345 67.613930
-116.629575 -124.528138 106.578675
-135.958294 -21.472202 153.786338
-124.743219 -21.863993 67.613930
-54.236242 -83.622033 71.037743
-155.898794 -30.681020 130.608958
-168.896222 -100.379097 121.465766
-113.846237 -127.781940 136.852161
-94.358837 -129.691327 124.910168
-116.930482 -36.172581 145.455363
-172.200376 -69.595661 101.400846
-165.785175 -53.869838 67.613930
-110.332228 -52.544828 155.940887
-203.136482 -73.924843 67.613930
-158.929932 -133.846799 67.613930
-104.403579 -70.477474 155.940887
-193.068457 -87.059560 67.613930
-156.931729 -103.452333 155.940887
-166.648229 -35.327099 67.613930
-76.250573 -139.809319 68.234630
-83.572558 -69.954649 70.368120
-96.990371 -21.096467 88.366225
-157.681947 -30.592447 121.695306
-103.749788 -142.578193 138.041766
-98.005245 -32.751367 71.037743
-172.390425 -42.071459 96.899288
-150.598256 -31.369793 71.037743
-104.573572 -14.701133 78.010308
-137.685279 -32.853957 67.613930
-90.456656 -40.085463 71.037743
-185.816141 -116.839482 123.453547
-152.109502 -107.183862 155.940887
-158.301437 -16.974200 71.037743
-167.593461 -57.913716 132.248457
-125.431431 -34.877658 77.916147
-95.147390 -114.457276 67.613930
-173.062610 -86.625806 128.682432
-161.851591 -77.957861 155.940887
-113.390596 -132.221001 67.613930
-122.522725 -64.278370 155.940887
-131.947795 -66.307609 73.739337
-124.531555 -12.592109 71.037743
-173.441794 -82.892355 148.821176
-154.334362 -127.645399 71.037743
-94.545647 -22.415396 91.650519
-82.629720 -85.141479 129.639953
-125.320584 -34.885353 108.007572
-88.514443 -107.231902 71.037743
-75.181048 -125.081998 99.491011
-148.137930 -39.549376 79.451946
-137.044420 -113.167061 155.940887
-117.036475 -36.147023 79.514197
-158.383587 -136.045144 88.987297
-142.595048 -81.295333 91.889005
-85.823584 -99.980753 77.898813
-147.491002 -49.673381 155.940887
-104.423875 -137.639282 134.875503
-110.498761 -122.466791 148.499215
-99.491705 -44.808785 109.036002
-174.438469 -36.839877 67.613930
-109.123802 -121.893941 77.578821
-112.401418 -137.282095 150.604237
-152.998262 -111.910252 155.940887
-173.225223 -107.980161 71.037743
-163.075059 -116.395618 105.607403
-121.380846 -93.444340 146.687362
-130.362224 -125.874184 67.633405
-148.576010 -84.693458 67.613930
-101.206157 -107.668819 67.613930
-99.566092 -44.750002 105.204337
-127.350550 -118.530781 155.940887
-191.245886 -100.786728 149.699285
-101.919256 -143.025059 143.603362
-65.533861 -40.083526 71.037743
-172.313119 -74.176895 155.940887
-87.854746 -102.040910 102.079859
-129.453278 -42.948333 67.613930
-109.665598 -91.164507 155.940887
-176.385642 -91.051402 67.613930
-151.388908 -139.659563 79.330611
-76.464511 -76.790698 67.613930
-79.606173 -120.123176 103.517777
-90.618454 -54.215592 150.802237
-111.328849 -37.961694 123.245040
-155.439836 -17.384490 142.442217
-66.114509 -113.808361 67.613930
-85.109672 -64.790884 92.364760
-61.019049 -101.820016 75.614652
-120.102879 -9.712821 71.037743
-167.266458 -55.523199 87.738357
-86.175881 -62.155810 153.272704
-131.492194 -94.576995 127.144375
-148.858985 -120.852327 150.229721
-90.848882 -131.292252 123.525155
-166.521213 -22.893253 121.399911
-64.170760 -119.128070 67.613930
-82.374901 -81.170053 109.881340
-114.218508 -104.412847 155.940887
-65.726059 -128.663232 68.295064
-171.624192 -130.444928 106.893027
-91.379178 -72.234275 155.940887
-113.873960 -123.718150 72.912858
-123.388557 -94.330814 114.070629
-110.770987 -133.402124 138.326561
-163.848897 -108.442211 89.727496
-68.829963 -36.831752 67.613930
-166.521911 -19.399727 131.268084
-62.866407 -72.067278 67.613930
-104.779367 -5.096435 68.655864
-139.384363 -124.483849 111.606102
-142.591668 -123.535916 120.614709
-114.629185 -102.266789 67.613930
-91.319963 -53.277248 73.160316
-147.147093 -115.317282 155.940887
-136.098509 -126.661653 67.613930
-104.187420 -41.506826 147.063193
-161.249495 -118.009786 94.336165
-181.757388 -112.930863 130.239683
-145.583238 -86.161031 67.613930
-146.735087 -38.864502 121.182454
-75.074787 -103.911152 71.037743
-111.563300 -129.123141 71.037743
-142.526107 -79.418606 140.480324
-84.098970 -40.468247 113.748067
-162.633746 -9.570965 137.650962
-140.500194 -87.885560 79.331038
-117.530767 -113.540979 155.940887
-73.995880 -123.603669 71.037743
-169.343882 -30.295212 119.315509
-54.339520 -63.085387 71.037743
-60.050349 -82.706693 67.613930
-90.749349 -29.083766 91.863332
-168.457927 -110.631598 67.613930
-95.986316 -47.888584 115.103944
-131.966866 -66.311975 151.234025
-70.635567 -54.326637 132.372333
-165.573919 -106.059527 132.846352
-95.951576 -47.915272 78.618780
-93.580859 -126.015530 67.613930
-186.939938 -36.105740 67.613930
-189.115521 -30.749698 106.111716
-191.465569 -118.596473 126.649809
-85.401641 -134.247782 122.127921
-146.847751 -21.690743 148.067386
-84.968925 -121.876081 101.735303
-173.423107 -83.144399 125.852575
-184.026047 -102.720927 142.318297
-94.952780 -48.949193 142.995300
-202.201770 -68.571888 71.037743
-132.807357 -152.691676 71.037743
-114.795426 -129.017996 139.364588
-81.606821 -64.726682 71.037743
-58.197833 -117.008992 70.702389
-125.321352 -94.773349 130.968608
-102.868064 -42.321851 129.814351
-151.722755 -90.395957 155.940887
-205.937063 -91.317045 67.648689
-121.844335 -93.689706 135.645709
-69.985345 -43.351965 67.613930
-84.114533 -67.867218 104.682567
-134.064474 -141.536576 71.037743
-102.080405 -88.634568 155.940887
-85.757616 -13.890601 69.327356
-169.175713 -29.308493 71.037743
-171.601448 -56.571865 67.613930
-84.679318 -66.072055 130.940042
-172.785793 -88.468125 105.770714
-90.333948 -54.657689 81.431105
-94.836025 -27.724316 71.037743
-164.634016 -129.916005 99.253344
-72.548112 -41.419487 119.239398
-143.267345 -9.891839 152.093373
-62.910910 -46.707314 138.386106
-193.443309 -113.497429 67.613930
-123.424256 -61.236080 67.613930
-125.532410 -36.274632 155.940887
-162.570607 -19.474336 67.613930
-95.414797 -17.246526 81.950744
-95.041287 -94.257520 155.940887
-89.906008 -33.460583 102.287673
-152.277460 -92.313342 67.613930
-168.540168 -48.268954 90.794288
-142.767923 -66.873890 155.940887
-141.538500 -5.711289 155.940887
-84.947296 -65.272201 107.196461
-196.969012 -53.729210 71.037743
-157.332777 -45.577079 150.259813
-171.869565 -125.312662 71.037743
-118.481210 -35.798684 148.261981
-113.574830 -77.638122 79.345833
-173.496633 -80.782113 80.196730
-83.978412 -92.419953 155.587096
-158.613469 -53.806396 67.613930
-145.684598 -122.352147 137.675686
-185.308429 -57.553854 78.960738
-67.763855 -34.106671 118.020088
-179.344105 -138.208453 103.330884
-132.398535 -1.770871 67.940916
-86.931913 -60.502408 135.617444
-108.621950 -132.441174 71.037743
-68.543812 -68.189961 155.940887
-116.153273 -61.832692 155.940887
-73.780747 -27.667597 108.674213
-192.455106 -110.525544 67.613930
-153.118101 -77.886955 67.613930
-112.847068 -121.775668 67.613930
-128.810371 -94.972198 118.895078
-92.807919 -138.807584 125.017943
-106.899674 -156.207847 149.328109
-145.160085 -16.564328 153.341972
-133.878163 -120.047196 67.613930
-131.201692 -34.934948 110.997956
-163.102223 -40.702986 112.407529
-153.317303 -8.280284 143.371154
-133.643803 -125.594953 112.856360
-84.063927 -118.567772 67.613930
-71.075435 -104.361165 67.613930
-135.096665 -93.141215 92.271013
-190.256677 -54.690287 81.384463
-107.818796 -121.251608 145.785929
-96.274853 -135.560291 67.613930
-191.869488 -64.097186 71.037743
-139.335517 -124.495627 152.910679
-90.476453 -42.312989 99.890008
-126.590834 -95.053732 78.187702
-167.568134 -131.356766 67.613930
-168.484129 -57.084000 67.613930
-82.646357 -52.169348 125.621063
-144.705797 -112.116318 67.613930
-183.677325 -29.383784 104.056856
-173.255461 -122.535438 106.634577
-90.083187 -55.035590 115.628246
-85.381979 -128.466834 67.613930
-149.664300 -99.274283 67.613930
-54.918213 -100.481209 67.613930
-65.406843 -128.527165 98.674847
-52.133176 -58.750327 151.841490
-92.918390 -109.542804 87.610001
-99.449873 -14.777241 83.769746
-110.375446 -48.741412 67.613930
-114.946739 -148.813477 71.037743
-70.626904 -112.123749 67.613930
-76.720297 -27.215228 112.605835
-126.009054 -34.859337 111.374783
-141.404844 -36.842825 122.771340
-139.977961 -13.466884 155.940887
-91.864950 -108.175874 67.613930
-168.510005 -101.128664 97.008240
-130.090589 -34.856935 106.671416
-115.066991 -73.460932 148.098755
-118.293880 -129.058728 67.613930
-194.860234 -45.851793 67.613930
-74.236774 -22.653912 108.817726
-160.044852 -48.068163 112.217190
-103.050721 -5.606572 75.577536
-101.111516 -33.832489 87.654138
-159.477940 -87.611322 155.940887
-86.608503 -104.012845 77.232017
-117.225611 -36.101420 98.465108
-170.481030 -89.575076 67.613930
-139.269623 -70.961859 70.137792
-197.469808 -117.175638 132.105815
-183.129747 -46.048792 71.037743
-167.502965 -110.169819 109.429908
-83.586931 -90.796298 120.095860
-90.130523 -54.961330 146.109121
-127.440284 -125.942745 102.176647
-109.895204 -139.303535 149.222456
-90.420087 -106.223889 124.368785
-173.334167 -30.164347 116.596941
-97.505993 -62.620651 67.613930
-131.494097 -101.898703 67.613930
-185.570013 -109.445492 136.810971
-59.085396 -92.608376 67.613930
-173.089344 -74.181023 126.499176
-146.938476 -121.786888 152.471347
-90.439631 -73.077108 67.613930
-85.183603 -96.113071 122.810063
-113.739908 -84.443798 155.940887
-111.021591 -122.680646 115.894089
-173.393486 -77.169340 81.687753
-91.221598 -114.529526 67.613930
-71.263924 -62.298634 67.613930
-175.625233 -30.598608 67.613930
-138.414194 -90.575080 85.674053
-96.048429 -31.272051 93.453609
-185.156267 -61.055787 71.037743
-133.018473 -61.646129 67.613930
-142.321684 -77.436347 137.357436
-158.949465 -22.071199 135.550345
-95.132073 -77.632956 67.613930
-104.018451 -102.953082 155.940887
-86.784181 -60.801055 121.889580
-84.043286 -92.636930 74.356548
-141.785504 -85.378613 114.365866
-84.581207 -94.379412 138.192740
-69.769745 -81.094754 67.613930
-61.242377 -62.463671 71.037743
-191.029293 -127.528387 69.561108
-147.347182 -26.183940 136.712465
-87.333110 -126.273168 67.613930
-167.943128 -14.757557 126.839962
-154.287263 -34.802224 127.850506
-124.537726 -125.812942 99.694637
-78.334830 -54.386485 71.037743
-79.826511 -18.524757 71.037743
-169.073852 -138.116855 93.299571
-64.776180 -116.342803 85.664983
-69.580461 -86.987639 71.037743
-151.236781 -32.015776 134.163987
-169.628247 -58.833169 73.607874
-143.400958 -50.900644 155.940887
-183.844564 -135.944316 112.594384
-82.529195 -84.239002 107.696095
-147.255481 -39.106024 92.329493
-121.391747 -67.237016 133.373677
-102.842091 -38.936363 79.572527
-183.433700 -116.868386 121.315777
-190.137139 -106.438052 143.241927
-69.242547 -104.358680 73.025323
-181.491970 -115.030172 71.037743
-125.872712 -129.517567 155.940887
-156.111686 -6.738935 141.814321
-80.344767 -75.394660 67.613930
-194.705000 -107.565280 71.037743
-78.893806 -102.516409 67.613930
-138.384494 -99.236476 67.613930
-131.104141 -66.114444 94.246987
-82.569636 -84.602068 116.217295
-145.075883 -32.657263 140.798049
-92.951133 -54.305655 155.940887
-68.840404 -49.856581 136.647727
-124.962537 -66.007200 72.408022
-116.999117 -107.057856 67.613930
-73.703852 -30.958510 110.752102
-101.463719 -43.282379 79.268313
-145.303306 -122.511450 105.964031
-155.617068 -119.220111 71.037743
-114.167918 -75.159262 126.701402
-96.490766 -104.205365 67.613930
-57.349375 -99.181593 67.613930
-99.949288 -75.183596 155.940887
-143.519474 -143.668349 71.037743
-191.671899 -54.837023 73.904234
-109.818388 -71.978380 155.940887
-114.324319 -15.886729 67.613930
-154.909782 -114.181457 67.613930
-110.088844 -38.461236 108.239417
-175.270380 -100.680674 136.539274
-116.176301 -89.130450 100.698596
-154.842919 -61.646977 155.940887
-100.944098 -84.346614 67.613930
-84.049652 -68.097487 91.445254
-142.655138 -37.268176 142.292025
-180.158602 -33.230530 109.263759
-85.164487 -40.037327 67.613930
-131.599565 -34.954710 148.846302
-89.613174 -105.013187 110.352933
-97.501687 -46.494653 109.596364
-125.570559 -137.731643 71.037743
-105.113582 -39.027424 83.500734
-127.843088 -32.442039 67.613930
-69.999312 -37.064706 125.124487
-168.449430 -106.118002 71.037743
-151.535882 -41.396522 116.845980
-139.335457 -89.583551 130.946873
-173.814434 -23.895971 122.066695
-175.011275 -112.668824 116.446950
-138.029942 -90.988639 109.063018
-121.758719 -93.644382 106.755511
-113.245542 -123.513692 89.161169
-193.760765 -120.448481 126.945211
-179.538737 -117.888233 116.771191
-78.348494 -75.641465 152.005338
-114.503878 -74.524640 155.240496
-178.016189 -92.527980 149.498520
-153.188923 -14.268496 139.763629
-54.312345 -94.583523 71.037743
-154.131558 -58.296617 67.613930
-125.377134 -34.880967 86.458881
-137.029368 -23.180645 155.940887
-185.286820 -26.386207 105.902873
-82.923226 -73.349336 81.419872
-114.917644 -124.044673 94.652547
-146.881241 -14.592718 71.037743
-128.677208 -100.008632 67.613930
-87.651566 -18.198316 67.613930
-109.254662 -121.952076 96.837164
-170.289305 -45.750165 100.662341
-82.959200 -73.129269 149.877517
-173.511627 -80.544061 126.851665
-129.851184 -52.057337 155.940887
-120.018315 -99.933845 155.940887
-76.730343 -121.420813 103.389266
-136.889094 -62.643982 67.613930
-126.330686 -43.620677 155.940887
-116.375149 -148.168362 67.613930
-172.123714 -69.277715 79.302866
-134.739088 -93.365556 108.810928
-56.099548 -111.058985 67.613930
-99.960122 -96.381080 67.613930
-174.713468 -107.057131 67.613930
-156.704691 -45.053796 110.775062
-99.614917 -9.808100 67.613930
-62.265644 -55.964620 140.244151
-127.333060 -125.942781 107.916725
-160.625222 -48.622656 134.502839
-200.135857 -65.216108 67.613930
-93.416430 -39.897051 71.037743
-130.642396 -104.746877 67.613930
-65.102807 -58.952870 67.613930
-102.049342 -42.898075 132.878011
-172.584409 -89.460732 86.330843
-198.577184 -45.553444 88.956066
-195.588792 -40.060415 69.100362
-119.702390 -68.296902 84.575776
-109.373403 -95.720186 155.940887
-188.031841 -38.636397 67.613930
-124.516418 -66.144477 113.342506
-114.802318 -124.013374 103.985738
-93.157831 -115.107987 98.382369
-176.700023 -122.519314 110.341624
-142.069935 -76.618226 96.549313
-127.852620 -95.007381 136.173239
-201.016010 -98.397663 155.909432
-185.166772 -122.355415 71.037743
-143.684445 -76.082257 155.940887
-137.597932 -157.613921 67.613930
-82.451549 -82.938051 73.551597
-100.042329 -44.364423 117.638588
-71.466618 -63.996811 149.321571
-149.438520 -120.540218 126.780104
-155.507793 -116.644961 75.389100
-167.838079 -92.368958 67.613930
-77.135787 -21.668566 109.165541
-106.306070 -55.002311 155.940887
-152.997890 -128.286167 67.613930
-92.273128 -40.399547 103.531551
-199.402629 -112.899414 71.037743
-100.077441 -44.336989 114.579445
-192.152842 -58.973047 67.613930
-157.039342 -24.453679 135.326486
-137.089588 -121.525975 155.940887
-173.408623 -77.396124 127.560520
-126.521434 -95.048119 147.762474
-168.355417 -101.428017 126.470295
-80.776877 -29.018852 102.788798
-182.564276 -47.492409 92.337937
-197.360093 -100.731945 67.613930
-77.784133 -112.527007 93.321289
-172.027443 -40.325428 99.281357
-76.672740 -25.610138 67.613930
-147.973595 -47.338300 67.613930
-75.916428 -90.932306 67.613930
-139.584999 -96.529318 67.613930
-135.571907 -92.843052 76.918981
-172.669574 -71.692481 91.589276
-175.232107 -138.504061 67.613930
-110.421935 -38.305821 137.081832
-172.523104 -44.094619 94.229568
-137.444475 -91.618760 133.878626
-86.130016 -98.496707 93.033869
-87.712806 -101.779697 85.478170
-117.835053 -69.785903 112.512100
-109.961592 -145.785453 71.037743
-160.698208 -149.173370 87.479117
-66.113894 -65.886783 148.000963
-93.681686 -105.521730 67.613930
-65.250396 -35.017106 127.511287
-80.011582 -23.592563 107.486989
-172.764200 -49.510239 67.613930
-115.579454 -145.357141 71.037743
-81.877294 -108.022410 89.018573
-184.251396 -36.528150 103.710672
-176.212005 -124.382639 67.613930
-195.752406 -102.689312 71.037743
-187.552458 -47.001783 84.045859
-82.573478 -84.636562 125.533911
-113.030742 -123.426933 123.622588
-90.721080 -32.236082 67.613930
-122.954917 -66.624973 107.974285
-87.800409 -137.822029 120.151166
-94.743733 -42.704187 101.647712
-195.986279 -68.873603 71.037743
-100.154069 -116.511142 71.766243
-74.131729 -98.334962 67.613930
-115.903846 -88.696183 135.074426
-196.192778 -56.409744 71.037743
-154.579045 -94.309134 155.940887
-128.193266 -65.748507 150.578116
-172.780372 -32.723327 71.037743
-137.168518 -35.768480 155.388242
-114.460783 -123.918534 70.238436
-148.783187 -90.166217 155.940887
-120.042218 -155.082641 71.037743
-90.647437 -54.174785 127.091224
-119.741969 -2.040310 68.241147
-171.518165 -101.942397 130.876126
-121.256664 -93.378600 138.449689
-118.161042 -4.687955 71.037743
-117.845182 -69.775002 129.432277
-105.867831 -68.450519 67.613930
-124.675419 -94.625456 117.922174
-164.121383 -43.365601 108.100488
-155.875324 -119.333736 85.248089
-106.569441 -150.518404 145.960027
-63.662416 -74.730459 67.613930
-101.637436 -16.346991 74.735267
-175.461775 -41.223636 103.270238
-124.369838 -34.942349 80.311772
-109.030201 -110.412987 155.940887
-138.451608 -36.035657 84.641705
-122.569010 -27.840889 71.037743
-114.939278 -36.715473 123.820199
-147.730036 -101.020458 67.613930
-126.387493 -95.017452 140.314700
-183.384463 -123.421042 123.169628
-160.845694 -141.925675 67.613930
-111.050690 -22.545095 67.613930
-137.160557 -69.002261 143.673241
-177.876438 -54.127522 85.580258
-163.950910 -52.461456 96.071389
-136.988860 -20.166431 155.940887
-140.556504 -72.996438 120.967781
-111.322729 -84.819138 155.940887
-128.884010 -94.969493 107.900405
-105.334524 -119.930175 134.720400
-72.052428 -25.350287 108.844152
-144.701241 -6.945023 152.169426
-109.348293 -62.682097 67.613930
-111.732240 -135.088870 140.873323
-100.306210 -118.940303 117.738285
-129.147075 -94.959830 81.292230
-139.897706 -30.575373 67.613930
-169.706771 -98.592806 96.373964
-68.615815 -61.338172 67.613930
-183.066523 -118.838196 67.613930
-113.545309 -2.970828 71.037743
-139.831937 -125.947027 67.613930
-178.302047 -119.161992 121.647672
-78.115791 -42.280918 67.613930
-81.405032 -138.180285 115.839547
-149.172551 -62.321948 155.940887
-181.053871 -96.414272 147.056477
-81.170963 -19.703566 97.595051
-170.692285 -107.674979 71.037743
-139.771352 -46.437074 67.613930
-170.608460 -19.458414 67.613930
-154.607415 -123.924136 81.157772
-128.902409 -139.811006 67.613930
-159.641525 -124.150941 67.613930
-161.073890 -49.103605 93.941101
-115.528212 -72.589696 111.670686
-81.317366 -102.563841 80.761240
-97.783171 -136.377311 134.390324
-153.980682 -35.679590 71.037743
-81.278045 -44.808584 71.037743
-173.718368 -21.840257 116.992108
-99.466581 -42.098995 86.518743
-139.194706 -70.133152 67.613930
-128.311145 -65.744176 138.745076
-110.747238 -122.569739 88.341758
-93.723242 -12.032037 67.613930
-122.352949 -98.495695 155.940887
-76.127029 -23.613666 104.262761
-155.180127 -109.082359 155.940887
-110.718710 -122.572023 118.912607
-161.917790 -30.723301 71.037743
-203.808649 -101.825940 151.716923
-85.013424 -61.052757 125.104456
-169.983369 -34.439680 114.543341
-106.348541 -152.719168 67.613930
-56.766855 -109.803396 76.607439
-175.123809 -40.688623 67.613930
-173.449954 -82.740038 123.268955
-74.993546 -59.914723 141.698594
-156.164955 -44.604700 152.897518
-83.867664 -133.750917 113.565633
-93.017690 -75.259129 67.613930
-133.452870 -35.140811 101.359631
-136.780993 -125.092194 76.727857
-153.460997 -125.377811 78.867141
-163.705100 -34.305806 119.564806
-120.368700 -92.908523 153.169476
-73.534237 -74.546754 67.613930
-157.804746 -26.016471 133.233204
-172.744411 -72.135014 124.205803
-177.051457 -81.909798 71.037743
-89.693338 -135.525940 67.613930
-183.536781 -131.364248 71.037743
-158.311102 -30.848596 128.089592
-189.426588 -113.608051 129.166109
-79.474163 -116.843552 99.529766
-107.225911 -153.914281 155.274168
-164.618682 -107.410056 93.471451
-173.394071 -83.589512 137.490933
-126.248671 -136.632379 67.613930
-142.502110 -78.765362 148.448826
-153.308176 -131.168962 67.613930
-170.036637 -97.791776 151.563261
-146.753340 -151.030650 72.293730
-143.363149 -16.688657 67.613930
-66.192672 -72.585462 155.743815
-85.188377 -96.175598 77.245544
-195.311092 -103.869178 142.264392
-160.476423 -48.486436 108.953681
-91.709100 -61.565516 67.613930
-83.425414 -70.678664 79.816709
-167.337895 -103.255503 148.723457
-199.759948 -106.878413 71.037743
-159.939572 -112.811711 117.909856
-58.548328 -62.770522 149.208295
-115.984866 -130.497146 67.613930
-120.444405 -35.442891 132.027857
-60.576334 -50.304885 136.220988
-90.320809 -139.605319 130.611008
-148.312740 -121.136363 117.364234
-142.519965 -79.251416 105.003656
-84.040058 -92.626473 108.361356
-148.444473 -121.688382 71.917949
-102.394630 -108.267682 155.940887
-144.635592 -60.261560 155.940887
-102.810966 -39.505687 67.613930
-187.182677 -101.866321 138.592189
-83.936244 -68.513732 72.646675
-132.881708 -131.825010 67.613930
-100.814006 -125.807440 119.474691
-61.146551 -85.698828 67.613930
-124.780824 -94.649589 93.339002
-74.048774 -70.644564 67.613930
-190.166521 -61.841013 67.613930
-84.311985 -23.106650 102.994217
-83.850977 -114.102876 91.126146
-173.313855 -46.692378 90.415411
-160.529965 -128.783471 94.712045
-122.529570 -94.052461 89.304615
-169.861139 -98.217824 69.691648
-95.344746 -112.227144 98.537364
-85.953690 -116.017302 94.897905
-171.168756 -94.743656 77.491469
-65.533517 -50.415920 67.613930
-175.205146 -95.089813 143.470382
-111.873637 -88.092970 155.940887
-158.350053 -46.455399 105.751154
-96.253372 -142.904222 67.613930
-149.603194 -140.529173 67.613930
-140.911202 -132.851250 71.037743
-72.247972 -110.246218 67.613930
-110.977234 -6.649048 71.037743
-117.450839 -57.586023 67.613930
-65.164974 -122.819055 71.037743
-180.042395 -81.381380 71.037743
-137.738821 -124.880608 113.609910
-161.965979 -86.016571 155.940887
-86.564416 -44.096657 71.037743
-74.745303 -62.609226 137.741866
-77.179384 -76.477688 71.037743
-143.867584 -73.089655 155.940887
-113.577771 -83.400178 128.637757
-157.319082 -45.573458 126.162788
-152.556160 -82.894465 67.613930
-144.042901 -37.746607 121.949338
-183.028640 -71.388845 67.613930
-97.706603 -7.869310 67.613930
-132.920480 -95.827279 67.613930
-162.977979 -26.118906 128.454504
-95.948273 -47.923908 121.285180
-141.570103 -36.897410 145.309614
-68.733442 -39.775928 67.613930
-85.428666 -63.964735 97.265533
-96.727148 -13.824926 79.569877
-107.510748 -142.939093 67.613930
-143.830985 -117.032762 67.613930
-121.816039 -125.521338 147.384269
-68.904080 -29.169263 71.037743
-116.006853 -36.395277 89.247915
-60.503380 -40.016537 67.613930
-101.015742 -43.624255 140.288941
-106.087578 -40.405657 138.275568
-158.935835 -46.980607 96.316457
-119.180318 -68.624446 81.949946
-197.703688 -116.883469 69.936105
-179.753721 -21.870272 67.613930
-83.679231 -89.254559 155.940887
-176.937843 -34.365248 67.613930
-166.724577 -33.344676 71.037743
-141.583460 -123.847157 92.112928
-72.974961 -26.106003 71.037743
-129.717553 -125.903803 147.459362
-169.404269 -99.295534 82.288827
-155.950741 -113.588790 155.940887
-148.355368 -99.073986 155.940887
-118.543430 -128.603856 151.691521
-66.743143 -104.016032 79.179051
-162.621961 -9.661198 70.686818
-100.876420 -117.028808 145.823134
-137.375298 -12.100563 71.037743
-155.577683 -44.149013 77.148063
-173.349363 -84.269351 144.821971
-133.602246 -93.927701 130.868868
-169.553803 -117.247677 71.037743
-171.255130 -136.508226 67.613930
-113.965911 -141.961172 148.437017
-157.238359 -45.498813 143.827445
-171.124123 -65.828042 129.494916
-137.437993 -63.599412 155.940887
-145.689068 -33.553519 131.569835
-140.416663 -124.215086 77.835286
-200.355306 -49.457849 70.949284
-129.932977 -65.846294 147.876070
-113.309198 -80.220557 92.068723
-129.197580 -149.516805 71.037743
-67.455831 -125.281592 71.037743
-187.924194 -109.680160 138.469609
-136.280439 -35.580114 99.135497
-97.573527 -46.417918 149.332551
-180.928127 -109.348467 132.837207
-119.190056 -68.618336 71.584723
-171.484567 -93.802895 111.712378
-93.560938 -25.702971 87.046031
-166.539828 -104.605169 93.815879
-59.894045 -107.349663 71.037743
-81.163054 -36.661399 67.613930
-140.830533 -158.081307 69.928887
-146.792331 -55.968278 67.613930
-85.891884 -69.430666 67.613930
-175.618917 -143.041781 70.348003
-85.676136 -36.860623 102.250945
-177.035627 -100.867087 71.037743
-170.880357 -65.137910 99.547468
-136.080604 -125.206945 143.311116
-97.169551 -148.332725 71.037743
-154.813381 -43.585490 91.215555
-134.652271 -35.314054 124.071569
-160.052804 -28.947674 121.195533
-141.425027 -86.138579 127.633333
-71.749311 -94.046018 71.037743
-108.442797 -124.215464 67.613930
-130.213449 -94.920657 122.425765
-142.539188 -79.774703 119.397573
-136.261565 -12.922836 67.613930
-170.116956 -63.122594 129.977802
-172.603310 -48.563380 95.528497
-178.746870 -136.704032 71.037743
-150.601344 -76.636278 155.940887
-117.364476 -25.199650 67.613930
-187.298241 -66.693956 71.037743
-153.521222 -28.748509 134.937091
-177.241889 -90.713496 143.746821
-116.894065 -22.675122 67.613930
-55.371108 -90.359821 67.613930
-75.878061 -125.239931 67.613930
-59.008980 -42.341658 137.246186
-186.342043 -112.224513 134.872636
-115.150753 -36.650189 81.683490
-176.211746 -85.457221 71.037743
-173.427138 -77.868409 138.035455
-160.442789 -149.680078 71.037743
-133.064467 -129.934529 71.037743
-136.057257 -35.537358 137.145844
-118.030136 -69.575941 148.085588
-143.248871 -37.472089 135.831412
-188.419113 -66.888672 67.613930
-111.117245 -104.644585 155.940887
-101.639610 -142.423187 67.613930
-114.502157 -28.278327 67.613930
-151.112414 -140.673987 71.037743
-150.767957 -149.046614 76.898858
-117.770093 -64.809291 67.613930
-71.265540 -65.865295 144.406581
-100.784677 -116.960848 149.793127
-68.805401 -110.836307 80.804687
-75.362004 -118.179855 99.029585
-96.742720 -22.104400 67.613930
-123.528631 -143.019572 67.613930
-73.908980 -100.814513 71.037743
-161.964727 -50.083633 112.139574
-150.816144 -155.758617 70.114547
-172.049087 -68.968190 129.776921
-139.601536 -150.845920 71.037743
-134.649120 -23.996868 153.972241
-136.862545 -35.690406 81.186224
-142.810000 -39.846959 155.940887
-87.444188 -59.473006 140.210705
-91.011213 -107.062878 143.378459
-111.335289 -119.491300 155.940887
-191.985982 -97.302900 146.752103
-113.669813 -77.223280 94.185356
-155.286391 -12.136524 146.132296
-101.429889 -136.481346 130.869342
-79.745920 -71.271435 67.613930
-98.764539 -106.313138 67.613930
-147.815879 -39.380678 95.538826
-114.499181 -99.109178 155.940887
-59.316007 -112.053337 79.526478
-102.290362 -135.379748 71.037743
-82.399160 -139.800390 124.761269
-67.586522 -125.551257 96.216396
-164.610093 -10.902937 132.169018
-91.009472 -149.915031 138.523036
-111.341116 -57.620581 155.940887
-87.113495 -100.638157 125.742070
-53.685258 -107.089140 73.327028
-188.705056 -113.096727 71.037743
-178.088272 -139.914078 71.037743
-99.626181 -116.084937 81.567600
-123.261040 -125.717188 152.962121
-180.124409 -128.315670 67.613930
-197.295862 -112.355688 135.921060
-126.616256 -126.818752 154.943784
-109.540263 -122.068878 129.012822
-127.843267 -95.007724 130.167737
-86.302578 -126.209565 71.037743
-166.583409 -51.776593 86.545562
-194.977062 -70.204100 67.613930
-118.669485 -135.832443 71.037743
-181.985084 -77.451610 71.037743
-85.663985 -50.124669 120.039450
-71.883732 -131.386906 103.898170
-138.589121 -70.329583 150.838968
-168.117018 -101.897941 110.593009
-150.687237 -7.541608 67.613930
-97.597598 -7.557328 78.313859
-162.395524 -29.760637 125.471287
-134.743257 -93.362940 81.366643
-110.220584 -33.174651 73.681120
-100.674299 -51.447426 67.613930
-205.372810 -94.640449 70.750054
-119.202897 -92.212246 75.827142
-175.814710 -56.399360 67.613930
-137.267885 -91.779012 98.018216
-85.144155 -96.034015 104.492714
-178.631152 -77.909108 71.037743
-169.754041 -62.282052 72.707431
-54.505339 -51.974296 67.732958
-180.804650 -125.765724 71.037743
-147.487823 -121.527544 90.012764
-185.858575 -61.774660 73.410765
-103.355295 -35.430060 67.613930
-90.451474 -39.050788 105.054746
-166.265903 -130.359497 93.864366
-99.891807 -37.450234 83.581912
-140.461421 -145.501341 71.037743
-169.470205 -99.155805 74.069129
-76.204887 -122.152695 67.613930
-72.695908 -130.750555 71.037743
-108.985176 -121.821955 105.733862
-116.493326 -89.635756 116.535995
-117.256281 -138.923413 71.037743
-137.637998 -69.445865 133.984574
-156.474625 -99.832050 67.613930
-83.116330 -66.383724 134.247621
-83.298596 -89.575371 153.538523
-85.324407 -13.996177 92.910887
-161.534383 -49.611615 149.963616
-76.404289 -107.874530 79.486147
-115.347422 -141.087730 71.037743
-80.799902 -70.488500 71.037743
-81.721988 -90.523115 71.037743
-108.192707 -50.981773 155.940887
-106.929733 -145.418153 150.186701
-173.376520 -83.846612 134.342520
-164.238810 -107.901950 139.901409
-113.162275 -9.769420 67.613930
-65.357478 -72.663185 67.613930
-150.767988 -40.958559 120.075249
-139.071292 -89.867864 98.310887
-103.214780 -130.808751 71.037743
-104.053175 -41.595446 118.155066
-166.467801 -104.714019 104.146530
-65.618922 -76.866604 67.613930
-127.895149 -100.747874 155.940887
-89.908143 -149.331008 70.178630
-130.644239 -125.860611 72.519824
-119.559422 -125.173381 118.248282
-172.839695 -88.206922 96.445268
-102.543667 -122.966551 117.766286
-149.036916 -120.750763 112.115654
-86.448307 -99.191020 140.940866
-173.422871 -71.058185 67.613930
-114.260498 -148.220472 155.940887
-143.763447 -119.868877 67.613930
-64.054103 -62.219825 67.613930
-81.276553 -107.785310 81.061882
-146.861221 -10.993154 154.822350
-93.112017 -109.755603 73.293608
-81.630427 -95.951329 71.037743
-82.942217 -41.568191 71.037743
-122.870511 -35.106733 142.658679
-114.559563 -141.246788 67.613930
-86.607610 -27.285680 71.037743
-183.066882 -33.225387 100.711026
-184.633194 -133.805737 71.037743
-171.291914 -94.381298 93.436077
-94.571817 -111.397450 140.534013
-104.806189 -103.508230 67.613930
-123.082246 -66.585791 84.195566
-191.859913 -48.106020 67.613930
-134.691814 -67.421586 72.440689
-82.909366 -73.390941 135.785033
-172.205244 -69.615864 82.364985
-166.126742 -94.675245 67.613930
-94.455648 -35.338768 90.321115
-120.384235 -125.322485 128.515444
-94.934678 -111.813727 75.303432
-154.170596 -146.256028 67.613930
-156.792229 -15.732674 135.412508
-151.708666 -151.908604 77.480256
-86.291490 -61.875934 141.580777
-166.587901 -56.257249 141.688936
-113.424976 -82.903627 74.661606
-84.397942 -117.636102 96.091398
-167.485015 -93.958212 155.940887
-132.950279 -35.083261 130.483304
-87.434071 -140.105221 121.816072
-127.552457 -8.886123 71.037743
-131.362578 -125.826031 108.484600
-119.589147 -68.367950 67.816129
-186.166926 -128.374574 122.108342
-135.968746 -35.525857 153.188546
-114.699827 -74.154499 114.086876
-86.832207 -22.748355 100.251954
-108.331174 -121.520614 119.561049
-104.408581 -29.675723 74.269049
-185.630773 -64.068690 71.037743
-165.451104 -54.511314 121.187407
-53.457092 -58.976358 67.613930
-170.310629 -100.922653 71.037743
-99.751960 -44.595409 126.490753
-99.789265 -122.901996 71.037743
-113.279635 -79.415761 72.706584
-170.450286 -133.839749 96.795242
-179.408594 -119.223553 67.613930
-116.117699 -36.368551 75.232475
-146.844944 -38.917993 115.366574
-91.885411 -113.883685 103.223045
-150.312303 -120.078991 139.754895
-91.532680 -24.095960 95.741487
-61.175937 -80.263781 67.613930
-142.665341 -91.015786 155.940887
-128.447384 -102.923072 67.613930
-121.241039 -93.370328 127.175284
-92.350902 -51.931032 76.272436
-199.155698 -47.459259 86.992005
-178.106181 -66.613394 71.037743
-110.118363 -4.181143 71.037743
-145.088723 -38.174894 154.709967
-92.604698 -43.816306 98.004892
-132.884771 -115.414698 67.613930
-161.970476 -139.849077 91.812421
-164.942086 -53.784802 102.632342
-70.479980 -49.876842 128.249631
-85.790910 -13.829499 96.722348
-149.422841 -120.545233 109.104393
-114.536434 -118.991885 155.940887
-122.019577 -36.801845 67.613930
-93.216057 -41.864024 67.613930
-187.133869 -113.061282 127.767940
-117.044750 -124.630454 72.546963
-88.254463 -102.767006 99.447208
-147.970256 -32.449627 71.037743
-115.279548 -36.610429 155.823215
-115.401004 -87.894706 129.048813
-88.565836 -140.417972 71.037743
-117.542312 -120.709863 155.940887
-112.326017 -110.252890 67.613930
-139.115303 -4.558439 71.037743
-74.475497 -32.298067 67.613930
-104.660320 -47.721414 67.613930
-88.151771 -137.502779 67.613930
-177.937959 -86.816915 149.825719
-122.843476 -35.109744 132.464022
-76.221164 -73.619721 150.732009
-147.896680 -124.828031 71.037743
-85.573920 -63.613091 110.432672
-92.685760 -26.515479 95.473003
-92.227772 -52.068569 103.373473
-55.471228 -49.532682 67.847297
-163.254185 -51.588716 127.045790
-123.934241 -94.455755 143.111968
-173.756521 -110.364241 71.037743
-95.879536 -120.300933 107.843858
-140.044115 -59.764169 67.613930
-143.788392 -8.828590 71.037743
-166.322284 -25.842387 125.928144
-161.552783 -36.054601 71.037743
-157.931119 -34.046226 67.613930
-123.289857 -16.738733 71.037743
-63.452979 -35.203537 70.436860
-156.967244 -11.338313 138.247629
-135.565361 -92.847160 143.597024
-157.764750 -20.597115 137.832188
-110.458466 -122.449133 99.864174
-94.856181 -151.732974 67.613930
-181.910936 -35.922218 105.547447
-118.008719 -127.220664 71.037743
-126.884777 -65.796574 131.369915
-103.646479 -15.447055 71.037743
-68.115004 -29.149237 67.613930
-138.903577 -20.858374 71.037743
-161.264187 -134.531810 85.988375
-162.138515 -110.477782 113.570561
-100.982085 -43.649172 135.193664
-77.441321 -139.413749 114.260770
-116.265750 -137.664091 148.286300
-138.241150 -2.310222 69.206710
-175.138687 -33.316808 112.211853
-199.493185 -113.453343 139.928600
-127.599761 -34.812120 124.047184
-131.333405 -34.937487 141.149259
-175.022378 -91.067283 141.175829
-178.400950 -103.605447 71.037743
-140.936175 -124.051033 114.965527
-54.319333 -71.625350 67.613930
-86.882867 -104.046168 67.613930
-70.043961 -65.493035 67.613930
-71.535795 -45.887963 67.613930
-102.150917 -117.949686 70.702342
-196.741887 -42.097828 70.176444
-167.019161 -121.063053 67.613930
-134.946723 -47.209437 155.940887
-117.601364 -124.750084 90.322015
-86.857853 -147.681809 130.155723
-161.504395 -43.127300 102.989847
-172.752598 -117.143144 117.332812
-101.032175 -18.223524 82.839420
-91.994211 -108.392576 113.433814
-167.057769 -57.021405 138.486086
-83.659567 -91.097554 142.053876
-176.023145 -45.860864 71.037743
-140.735007 -10.485704 71.037743
-54.174893 -61.582265 67.613930
-161.428690 -73.173286 67.613930
-154.833601 -106.361805 155.940887
-106.452619 -156.209675 152.477341
-168.430645 -147.705362 67.613930
-163.205648 -109.208034 75.300431
-99.273959 -125.451512 124.896261
-137.387637 -126.527630 71.037743
-71.119177 -104.981055 71.037743
-98.840172 -124.773959 116.299050
-144.821803 -38.005002 67.613930
-145.071249 -122.600467 113.074029
-80.517014 -51.918647 127.725774
-135.971447 -92.592385 95.554998
-121.210116 -67.350969 82.456813
-99.733620 -50.234601 155.940887
-58.320307 -44.484711 139.711375
-104.108515 -25.181636 80.780724
-55.965740 -96.475715 71.037743
-163.499052 -108.889991 143.352825
-81.270118 -70.796684 150.076932
-140.251775 -88.354817 101.333165
-113.920315 -76.129202 72.894003
-133.643418 -31.484502 150.015803
-174.732601 -110.436651 125.493246
-107.487939 -114.044729 67.613930
-100.149190 -56.893375 155.940887
-82.167068 -109.912711 67.613930
-144.077705 -37.760114 100.551929
-134.305099 -125.510675 126.978494
-188.732223 -125.685306 119.203391
-146.218375 -122.103325 73.817388
-163.444233 -99.025570 67.613930
-87.404124 -12.726049 91.771009
-72.923345 -120.946286 67.613930
-141.087853 -73.843358 114.695268
-109.243769 -26.381967 74.080284
-72.712856 -136.541938 70.485918
-126.158132 -34.856626 119.037212
-97.905406 -114.629851 113.768986
-164.443083 -10.627117 139.228443
-117.452150 -126.591986 140.610731
-89.701986 -104.422982 155.940887
-179.657035 -83.615882 155.699104
-124.435093 -96.794702 155.940887
-164.336212 -56.406056 67.613930
-79.919981 -38.543129 109.793213
-95.124549 -112.001724 134.336511
-168.886467 -83.027452 155.940887
-118.669039 -50.201315 67.613930
-82.845903 -55.125536 128.458519
-103.525911 -7.612312 77.968339
-114.428206 -86.163899 95.424909
-157.629511 -135.581696 81.112900
-172.969191 -87.306632 82.352696
-82.107548 -23.193310 98.359483
-131.854586 -125.784081 134.739482
-181.193088 -116.151652 119.811235
-101.786798 -134.742276 67.613930
-76.531827 -101.784420 67.613930
-83.975887 -43.122663 115.970909
-164.603591 -89.129266 155.940887
-88.289112 -57.917198 110.447982
-117.794239 -47.795693 155.940887
-172.139714 -60.353626 78.043901
-176.430558 -103.326822 127.281243
-88.493700 -57.587124 79.638746
-144.105250 -122.970636 140.106985
-100.634843 -114.020108 155.940887
-104.001015 -133.726403 138.235664
-121.501027 -97.134737 67.613930
-52.061984 -88.125962 67.613930
-160.934418 -16.820557 67.613930
-141.972026 -76.300049 139.747198
-114.632290 -86.669453 99.406795
-98.767818 -118.459009 107.871243
-95.371219 -152.171267 140.556613
-80.604801 -57.281397 133.327516
-163.171173 -34.605141 112.422473
-186.287445 -119.233048 67.613930
-99.636321 -44.685574 137.071104
-82.737123 -65.148900 67.613930
-90.644067 -36.064405 67.613930
-158.361093 -121.362057 95.553904
-159.940743 -112.820003 148.569717
-78.939288 -57.431749 135.199488
-150.636662 -122.766599 75.327691
-130.468156 -125.876165 84.277886
-141.047783 -124.015486 88.904722
-91.555574 -13.966857 71.037743
-157.770710 -7.525207 146.706546
-82.743244 -86.160653 134.176048
-170.696988 -146.708333 91.393703
-103.669446 -140.482583 143.458901
-150.937096 -41.053133 152.038811
-182.188668 -89.483793 149.377185
-108.006998 -39.407740 88.375588
-141.659724 -36.927695 148.072788
-200.972265 -82.689134 71.037743
-171.580851 -67.307519 145.420198
-106.207010 -12.837238 75.858144
-159.944601 -67.441212 67.613930
-99.142402 -109.950049 67.613930
-191.967796 -126.083868 121.475345
-135.263189 -93.036740 123.785997
-139.843722 -124.373093 149.460601
-138.931547 -90.018267 89.259874
-111.699639 -37.822606 111.638019
-128.760980 -97.818328 155.940887
-124.008485 -104.173843 67.613930
-118.756035 -139.246337 155.940887
-192.297411 -95.637499 155.801113
-136.955188 -68.811446 121.172524
-186.160794 -45.364400 93.397147
-115.825139 -36.442000 95.691247
-82.400795 -82.184973 86.806289
-146.605031 -38.801038 69.785462
-113.298030 -79.916531 77.560638
-156.206177 -13.367974 71.037743
-70.774210 -88.587961 67.613930
-206.338517 -87.789061 70.611729
-72.524865 -92.247310 67.613930
-99.765607 -46.487206 67.613930
-96.282907 -129.486819 126.432194
-188.491351 -110.448651 131.206457
-79.884568 -113.365511 71.037743
-157.532710 -134.525676 71.037743
-78.725226 -113.980519 88.421231
-119.260302 -68.574264 96.345366
-113.334514 -149.200922 151.962159
-83.431029 -70.643248 99.116718
-97.223185 -152.866823 145.794315
-153.952686 -154.819951 74.992233
-190.943087 -116.312565 128.069598
-202.082747 -106.934556 149.315428
-84.951594 -65.187643 138.320127
-172.824467 -72.591090 150.598803
-176.631258 -116.929124 67.613930
-145.032498 -29.956115 67.613930
-94.103717 -62.817000 155.940887
-87.910706 -95.509485 155.940887
-157.410883 -31.635677 67.613930
-141.648428 -155.825480 71.037743
-143.153030 -5.489571 71.037743
-197.159175 -49.562449 71.037743
-173.372001 -111.209295 123.221761
-173.054678 -42.659849 67.613930
-170.401913 -96.908677 75.627102
-153.320157 -137.972115 75.074905
-169.319630 -117.539276 105.621179
-89.551859 -145.700318 127.859362
-75.998883 -45.054785 118.899597
-69.638355 -73.609731 155.019347
-142.766868 -31.319051 137.540372
-70.713868 -45.052938 130.826269
-162.214614 -47.698578 95.702577
-179.883953 -94.645131 67.613930
-114.862539 -87.036447 108.681814
-122.327066 -66.818171 127.844182
-129.108798 -7.810512 67.613930
-82.456619 -83.043379 68.414512
-149.088001 -23.044299 137.428497
-93.848339 -135.601853 130.142842
-112.192597 -125.408991 132.196616
-119.952127 -92.687994 108.557868
-114.354139 -157.935771 67.867424
-119.218873 -92.227090 105.165638
-158.524124 -29.914607 71.037743
-57.539845 -64.180202 151.168888
-68.510361 -40.493576 71.037743
-120.566810 -67.754574 76.405610
-113.121319 -54.466468 67.613930
-88.461233 -134.165972 71.037743
-159.045367 -140.270477 88.354661
-137.063987 -91.906936 125.894092
-115.624348 -88.250694 132.371125
-150.555881 -119.941903 81.026149
-176.581314 -18.460915 69.408420
-82.104873 -115.476672 99.250350
-114.554445 -21.939142 67.613930
-140.135658 -88.574160 70.918156
-101.951284 -105.370569 155.940887
-92.137075 -37.741063 71.037743
-132.663563 -16.731387 67.613930
-172.672044 -31.907576 67.613930
-111.559380 -15.081789 67.613930
-198.613095 -115.315090 134.343161
-118.919505 -36.797039 67.613930
-80.680751 -49.765001 125.461593
-162.967080 -109.514083 92.823086
-68.177584 -112.356518 67.613930
-163.129871 -109.324316 137.928213
-141.757295 -85.501816 96.334491
-161.007691 -111.736099 111.416598
-95.703481 -45.060669 71.037743
-171.505259 -24.144519 123.473557
-198.556263 -51.798312 71.037743
-112.489744 -11.593093 71.037743
-183.360670 -51.094112 87.672862
-150.218080 -129.025514 80.313191
-147.603894 -20.163223 71.037743
-115.119495 -131.479666 142.022856
-190.556858 -41.316177 89.120512
-149.414439 -40.189564 109.672787
-159.468350 -127.571747 86.648305
-57.712691 -80.430832 71.037743
-125.173774 -145.623138 71.037743
-64.319281 -43.408641 127.701696
-66.939648 -55.074016 136.044184
-60.679097 -107.729129 67.613930
-194.313788 -42.646408 93.276018
-134.833659 -67.496677 149.726162
-144.181707 -156.035448 67.613930
-138.733872 -30.553306 151.105681
-67.629996 -43.100231 71.037743
-100.897304 -38.516872 89.991255
-123.853552 -94.437280 100.526376
-141.689915 -85.638213 123.273362
-126.625214 -142.406938 71.037743
-151.772246 -127.122831 75.809473
-104.814663 -131.494534 129.788921
-98.189507 -114.873451 119.625733
-139.944099 -8.827208 67.613930
-82.670233 -85.505188 110.378224
-61.255064 -38.297203 129.076421
-198.627991 -106.702804 67.613930
-113.402242 -82.753430 108.776599
-115.807350 -72.062410 94.037529
-158.604697 -123.954835 94.506084
-166.996415 -56.913797 111.811870
-100.118009 -136.448391 71.037743
-88.895128 -47.676029 71.037743
-98.563487 -16.248253 67.613930
-140.912729 -87.106295 103.695260
-171.709479 -93.026610 98.809667
-132.017205 -66.323501 129.516032
-193.189780 -111.293543 140.922304
-93.076311 -51.063698 73.572084
