-23.089141 -54.866905 140.421844
3.568402 -84.085126 80.321297
14.870450 -26.991766 140.421844
40.041117 -30.721383 77.210922
-35.769848 -31.594141 80.321297
-24.585835 4.097515 77.210922
30.309778 20.919810 80.321297
24.981417 -53.794741 108.833247
-0.041531 -55.117377 82.883624
-31.601588 -54.159631 113.327879
6.428878 -47.331792 88.734409
35.858204 -73.538733 77.210922
-18.484345 -20.486453 101.947114
-10.023862 -109.979985 80.321297
10.827941 -19.963028 104.069262
15.134739 -54.285672 80.321297
25.860690 -49.481072 106.798296
-10.845270 -72.093180 77.210922
-32.750205 -43.831604 91.060316
-50.279506 -78.495142 80.321297
-50.998325 -67.946258 77.210922
16.620837 -24.125249 132.226474
51.777895 -50.561181 80.321297
26.429061 -7.819292 80.321297
42.750552 -58.307677 77.210922
-30.619492 -34.602499 114.429444
-21.736624 -22.745918 113.771795
53.037090 -68.016385 80.321297
4.995120 -103.096930 77.210922
-31.917433 -38.588048 95.119737
-22.630420 -24.777966 80.321297
-57.398511 -57.070443 80.321297
6.539358 -46.629874 114.972876
-23.919319 -57.858173 80.321297
36.153345 10.618216 77.210922
-28.734790 -87.583055 77.210922
-37.616208 -32.555096 80.321297
-6.351726 -36.299121 127.455051
11.464801 -20.323441 87.087170
4.710929 -40.015928 117.971202
52.383786 -64.200806 77.210922
29.452799 -69.528625 77.210922
-46.638714 -45.399776 77.210922
-21.460591 -66.486933 80.321297
11.760067 -68.115494 80.321297
-55.862230 -43.857969 77.210922
4.829217 -74.063285 126.428494
24.011585 -56.680251 90.788183
-10.842064 -75.954281 80.321297
-17.546618 -120.901447 80.321297
20.489218 -113.481485 77.210922
39.037199 -100.818233 77.210922
18.750829 13.279050 77.210922
13.694008 -98.040063 80.321297
-37.122340 24.549487 80.254834
-27.773944 -62.261097 93.948783
44.382481 -14.222925 77.210922
-76.402751 -27.606790 80.321297
10.573396 -6.498276 80.321297
-2.077527 -13.245888 80.321297
-4.939913 -16.349884 91.538935
-68.231122 -77.860756 77.210922
18.705462 -65.299443 138.779651
-2.126040 -75.210746 101.126836
-11.074509 -81.833776 77.210922
17.307384 -32.422850 77.210922
-35.874964 -10.265026 80.321297
-28.885848 -48.851862 140.421844
-12.621959 -73.735394 94.466737
-31.025609 -55.908544 120.728582
46.763531 -81.869270 77.210922
47.489146 -59.077067 77.210922
69.830108 -18.791741 78.518910
4.386697 -1.237735 77.210922
18.268868 -66.953414 80.321297
-11.528713 -22.488917 80.321297
25.796056 -41.520258 120.262867
16.317694 -23.834673 90.178693
46.158504 -86.260428 80.321297
-1.712498 -121.289982 77.210922
-3.625376 -71.222534 80.321297
-15.842497 -48.720488 77.210922
18.099665 11.202222 80.321297
4.902147 13.390979 77.210922
-49.848636 -97.508104 77.210922
-65.177061 -74.455018 77.210922
-13.228780 -18.003775 91.542229
10.790482 -47.821267 140.421844
-9.742148 -74.530223 121.421597
-36.419201 -44.395824 80.321297
-9.961089 -74.296028 140.421844
50.342043 -23.889098 77.210922
1.453508 -37.062388 136.440007
-60.847993 -58.194218 80.321297
-31.582748 -54.230960 98.305172
18.382438 -105.352214 80.321297
54.217402 -58.117926 77.210922
35.430385 0.796553 77.210922
-65.903383 -55.461350 77.210922
-13.295743 -46.115542 132.413902
-43.949268 -30.984903 77.210922
9.311945 -119.757058 77.210922
-23.076926 -67.677621 87.131828
5.591597 -50.037803 132.016616
61.451778 -79.013959 77.210922
5.445076 -41.053263 108.892274
4.656450 -51.623311 97.489420
25.409912 -107.158960 77.210922
-16.124673 -58.023504 80.321297
-60.243644 -0.108840 80.321297
-32.020867 -52.572189 112.247858
19.521249 -64.320817 107.822252
-8.150922 -36.994760 135.704394
-28.048302 -29.684844 100.285479
-46.457663 5.150224 80.321297
-4.709034 -16.333773 115.818494
-13.266164 -73.521312 85.733458
6.724089 -86.889941 77.210922
12.615020 -11.788178 77.210922
-23.507973 -117.141699 77.210922
-26.181871 -42.322035 77.210922
20.699437 -11.267992 80.321297
60.835090 -15.606483 77.210922
-50.644125 5.611495 80.321297
51.442399 0.639782 77.210922
22.022224 -30.807790 104.682970
19.260908 -23.343090 77.210922
23.578446 25.198259 77.210922
-28.870154 -60.291065 77.210922
54.041886 -94.162289 77.210922
-29.760828 -58.862687 128.653009
-29.850383 -32.887402 87.687399
72.868291 -29.352223 77.559556
63.676189 -40.900348 77.210922
-31.862292 -53.172575 100.081013
52.947133 -88.831402 80.321297
-4.736081 -75.196822 121.587142
12.260266 -43.169022 140.421844
-46.615258 -41.592107 77.210922
-21.406564 -55.409389 77.210922
-41.844210 -19.475578 77.210922
-64.886354 -57.466701 80.321297
24.607684 -55.012662 126.595830
24.301081 -35.634869 135.261297
47.746289 -90.241406 77.210922
5.468438 -50.315140 127.359386
-0.380454 -55.247853 81.129947
-44.072212 -56.605291 77.210922
-18.811308 -20.690900 130.159962
-8.405368 -16.753965 109.270078
71.914118 -65.594084 80.321297
43.863312 -3.297247 77.210922
-3.530783 -16.327334 87.247223
25.831321 -49.701688 101.875745
14.683426 -22.478999 92.244392
6.431274 -73.568345 132.783590
27.784260 7.424461 77.210922
4.534259 -113.989739 77.210922
-18.486057 -75.939488 80.321297
-1.658192 -55.561282 90.891116
-28.307906 -119.686857 77.819485
53.708405 -75.476070 77.210922
6.589112 -46.313766 109.497478
35.187478 -98.222533 80.321297
-56.420718 1.350171 77.210922
4.471635 -6.290781 80.321297
3.407864 -17.112136 124.587411
2.575064 -37.822754 123.817153
-18.191286 -12.918452 80.321297
-33.308000 23.553439 80.321297
12.187093 -8.811949 80.321297
4.471072 -74.157880 93.573029
58.356056 -32.882973 77.210922
20.880481 -40.227422 140.421844
62.593196 -72.774060 77.210922
5.985101 -17.837552 129.800799
0.801468 -11.093402 80.321297
-12.229208 -119.984348 80.321297
-66.977266 -34.268034 80.321297
-6.822027 -75.027938 112.780811
-36.552127 2.378332 77.210922
-42.888267 -110.240783 80.321297
69.357344 -53.572320 80.321297
9.578448 -73.551330 77.210922
-26.951544 -28.128795 139.928663
41.569446 -56.447724 77.210922
12.524730 -82.794200 80.321297
18.346920 -86.822751 80.321297
9.666825 -19.350545 128.610933
-32.656298 -48.771365 137.979920
-32.801256 -46.943349 115.868028
-12.269860 -50.229453 126.180959
40.691047 3.581405 77.210922
2.810467 -110.056564 80.321297
72.292414 -44.805571 80.321297
21.103308 -29.348686 120.070689
-56.995495 -31.890198 80.321297
-4.985685 -27.260902 140.421844
48.331722 4.540702 77.210922
58.163903 -86.411362 77.210922
-15.655701 -19.009744 89.716896
67.491279 -35.776801 80.321297
47.156802 -54.726598 80.321297
-15.071224 -78.026759 80.321297
59.119362 -51.383006 77.210922
6.016187 -104.586498 80.321297
2.061095 -20.503679 77.210922
2.503920 -115.391309 77.210922
1.625420 -30.495262 80.321297
-11.234889 -51.803075 92.297083
39.326761 8.306755 80.321297
-72.097633 -36.998602 77.210922
-26.877466 -28.028254 134.709487
39.280078 2.338445 80.321297
-24.721519 -66.060044 87.462207
-17.780102 -42.509719 140.421844
-34.556367 -35.744390 77.210922
52.766469 4.467681 77.210922
-2.210610 -30.390427 140.421844
-51.457661 -68.959331 80.321297
-54.867881 -46.060618 80.321297
-47.243247 -17.555994 80.321297
60.879805 -9.454138 80.321297
-75.561987 -42.998070 80.321297
-26.471238 -101.461285 80.321297
37.434325 -112.239682 80.169234
-76.398678 -49.520463 77.210922
14.202159 -69.422759 132.661082
-32.023815 -39.009427 102.608661
-26.994415 -28.186981 110.151823
-13.020577 -43.370101 122.435623
11.676966 8.374748 80.321297
-18.725811 28.398508 80.321297
49.807580 -66.318822 77.210922
6.517423 -46.769237 111.762245
-1.098690 1.083758 77.210922
35.433065 -32.468499 77.210922
-72.351318 -35.957339 80.321297
-2.222251 -82.731666 80.321297
-20.046104 -72.378390 77.210922
-38.502516 -57.350597 77.210922
-72.358213 -25.250771 77.210922
25.742883 -50.245158 118.066167
11.851465 -60.752694 80.321297
-60.568664 -88.768674 80.321297
-52.787972 -3.635282 80.321297
60.928766 -19.132215 80.321297
6.249963 -43.144041 95.038744
-32.765246 -44.063278 132.288138
-55.306730 -95.781579 77.210922
49.956370 -54.983115 77.210922
-17.842141 -71.416688 93.661695
-26.425372 -27.431538 100.352598
-20.048439 -74.747784 80.321297
-78.758860 -56.473463 77.210922
1.545455 -16.738411 128.176464
-76.163375 -62.415437 77.210922
-24.369281 -53.913172 80.321297
-25.023705 -33.404582 77.210922
33.201307 19.695785 80.321297
-12.614619 -72.527744 77.210922
-11.351650 -51.642693 112.184172
2.856157 -53.508481 103.334882
-11.246041 -108.052443 77.210922
-52.257382 -82.871731 77.210922
-26.119962 24.764628 77.210922
-68.579140 -19.775903 77.210922
52.437623 -20.745534 77.210922
-22.456233 -23.334079 127.439744
-52.052744 -1.847320 80.321297
-13.788739 -79.636500 80.321297
-54.004901 -78.624067 80.321297
44.952400 -91.269452 80.321297
-26.889666 -116.723391 80.321297
14.499589 -57.427175 140.421844
-9.330219 -79.483326 77.210922
-41.722064 -54.977580 80.321297
44.199151 -25.416912 80.321297
53.751525 -92.005031 77.210922
47.451059 -22.884111 77.210922
-29.933986 -84.678489 80.321297
-12.599712 -42.145380 131.092085
-18.174086 -46.795758 140.421844
16.885017 -78.475161 77.210922
28.135851 -65.548392 77.210922
34.529623 -7.130909 77.210922
-36.772140 -88.239547 77.210922
6.997592 -39.342228 77.210922
21.525790 -61.538190 93.450630
63.604437 -49.622417 77.210922
-32.328982 -40.459050 118.407557
-13.930293 -18.276119 84.517427
-32.862885 13.044005 80.321297
71.682847 -50.513366 77.210922
-16.225249 -19.269136 120.138992
-70.565149 -35.832381 77.210922
5.524959 -41.260766 122.812367
-1.681311 -106.750239 80.321297
-44.499617 -2.843087 77.210922
57.006844 0.757355 80.321297
-3.812769 -55.737531 92.197034
-21.554458 -11.161059 80.321297
-10.621530 -38.981281 102.762962
12.873950 -113.620308 80.321297
23.877402 -36.312170 80.321297
51.667147 -69.382649 80.321297
-51.917685 -13.957131 80.321297
35.940618 -113.121863 78.248278
18.561773 -33.059156 140.421844
5.311840 -34.756915 140.421844
16.037232 -67.947927 115.058969
-22.840398 -75.408325 80.321297
-16.021821 -109.670685 80.321297
25.619908 -40.541501 81.809372
16.720981 -67.317462 126.357482
-10.237099 -67.122974 77.210922
-12.837746 -42.681402 101.460186
3.737617 -52.760214 138.766104
-25.621873 -49.491822 77.210922
-16.427215 -71.776451 80.321297
-64.517242 -44.690644 77.210922
17.649512 -31.804793 80.321297
16.185904 -29.610160 140.421844
-31.314990 -36.480321 118.329973
-31.581520 -37.282351 109.110501
-48.216451 -100.236846 77.210922
-17.052812 6.043450 77.210922
23.994419 -31.588400 80.321297
-22.187637 -23.123876 80.751761
-11.625555 -17.499670 126.682998
-14.141577 -73.183881 127.599111
45.659276 -93.122271 80.321297
19.393719 -27.075628 83.858466
45.535380 -94.926106 80.321297
24.870294 -37.357539 112.824283
-67.117049 -76.159613 77.210922
-74.460005 -24.993029 77.210922
9.960358 -100.732486 77.210922
23.753262 20.238934 77.210922
37.298371 -107.286813 80.321297
44.219635 -30.071910 80.321297
5.828057 -73.767990 115.605182
-12.106257 -85.369670 80.321297
39.309794 -1.163025 80.321297
-49.289245 17.270133 78.732274
33.062015 5.267460 80.321297
-33.184584 -90.475159 80.321297
-26.359787 -27.353328 88.603564
-21.797368 -22.795457 111.600052
-30.644251 -34.663832 140.314426
66.221793 -71.831374 77.210922
-19.821764 -88.576470 77.210922
3.265344 -60.444595 140.421844
19.652203 -31.042207 77.210922
10.644518 -20.285686 80.321297
24.166255 -35.287580 116.407484
-27.805750 -37.377077 140.421844
-32.820550 -84.392948 80.321297
13.118526 -113.991635 77.210922
47.222046 -41.217562 77.210922
23.660438 -57.511414 119.388123
-2.280887 -30.382762 77.210922
-31.456303 -6.708194 77.210922
3.247555 -74.481039 91.001249
-7.765714 -16.631946 83.560802
16.200112 -67.801235 130.561884
-16.166810 -107.189754 77.210922
-25.138334 2.264821 77.210922
-12.047223 -17.611042 124.695707
13.058778 -43.433411 77.210922
-31.766268 -37.989284 122.849468
-39.443379 -98.931539 80.321297
56.119335 -18.799202 77.210922
-53.000670 -26.835000 77.210922
45.145225 -65.173409 80.321297
-10.070701 -28.547700 140.421844
-32.365596 -4.238088 80.321297
8.112539 -35.233965 77.210922
-14.885290 -103.156484 77.210922
-10.699728 -39.078039 137.539955
-28.226940 -60.550314 80.321297
57.568664 -37.908571 77.210922
46.798740 3.362932 77.210922
-57.804527 -101.598506 79.690367
21.086081 -62.074596 140.421844
-8.346853 -37.137401 133.861477
17.338394 -9.354574 77.210922
-4.433809 -0.760209 77.210922
-11.918454 8.784914 77.210922
3.698267 -111.730713 77.210922
30.275036 -25.013329 77.210922
-28.861550 27.939883 78.795884
-32.013411 -52.600420 93.553937
-36.047793 -44.776791 77.210922
5.868477 -49.414304 94.417737
-9.470591 -90.112522 77.210922
-63.975388 -62.710960 77.210922
-10.024421 -17.076777 91.732636
-12.579652 -17.784979 102.181070
-38.590969 -5.684616 80.321297
3.257414 -38.374222 81.865739
19.174900 -64.737907 128.012089
14.505958 -69.205702 89.480905
30.908529 -111.443678 77.210922
-12.088756 -111.926439 77.210922
3.036586 -53.377126 84.153330
-68.877843 -8.340068 80.321297
44.614420 -9.968657 77.210922
10.563133 -71.727682 126.378180
-9.208736 -37.764865 117.518806
55.940293 -82.568088 80.321297
-21.436673 -69.043536 92.777511
74.252618 -38.229569 80.180339
-29.904236 -53.755084 80.321297
-1.680460 27.700317 77.210922
6.455105 -44.330995 79.019562
-3.792776 -75.219851 123.305003
4.241680 -52.136520 116.285950
-55.888393 -96.975108 80.321297
-4.443714 -119.902540 77.210922
5.342303 -73.927767 106.179814
-21.638520 -22.665581 96.243134
1.256162 -54.617804 101.745558
-7.969363 -88.831167 77.210922
-36.076694 -48.961065 80.321297
-76.227805 -73.587877 79.618838
-51.617600 -47.143769 80.321297
4.716211 -77.551412 77.210922
29.202819 -28.226906 80.321297
-72.051412 -12.760297 80.321297
10.734895 -67.304305 140.421844
71.004850 -32.303626 77.210922
-33.013153 5.739676 77.210922
-9.220793 -16.910646 100.320194
-59.880368 -91.599210 77.210922
0.299994 -75.000616 135.080586
-25.887005 -64.746129 81.707399
10.844365 -29.167384 77.210922
60.434383 -6.438778 80.321297
-16.599907 0.180729 77.210922
-32.714674 -43.284351 109.173657
0.296665 -75.001014 128.942446
52.385974 3.857552 80.321297
44.989278 9.192835 77.210922
16.406244 -84.373832 80.321297
2.535619 -87.494979 77.210922
43.013710 -21.066100 80.321297
-30.441515 -45.041147 80.321297
-14.748390 -32.719504 140.421844
-54.427778 1.065057 80.321297
-68.803287 -11.212857 77.210922
-31.649080 -41.733324 77.210922
-8.081408 -16.691717 119.224386
-74.504368 -61.170760 77.210922
0.633251 -20.854385 80.321297
12.997009 -2.845738 80.321297
-61.016190 -74.802571 77.210922
73.042588 -61.137665 80.321297
-63.102165 -95.905117 78.406792
-50.415295 -70.641464 77.210922
-10.131591 -31.796406 140.421844
44.121607 -9.706933 80.321297
22.692040 -102.311892 77.210922
-30.188325 -33.591245 123.822756
19.347116 -27.010035 113.451545
-35.505624 -60.304624 80.321297
-76.963140 -52.461525 80.321297
15.314343 -47.440517 140.421844
17.641117 -117.548435 80.321297
51.329119 -1.489012 77.210922
-4.427817 -75.216837 130.882361
-22.506169 29.824206 79.890526
3.336692 -53.158645 131.676935
-6.852999 -16.868821 80.321297
51.427186 -99.485491 80.321297
-37.001917 -61.683191 80.321297
14.823029 -68.952158 137.383671
72.594426 -37.622452 80.321297
-29.354273 4.428783 80.321297
12.565204 -48.827669 77.210922
68.611599 -27.016850 80.321297
-54.265434 13.299195 79.645758
60.452396 -87.878366 77.210922
-21.153864 -22.282521 139.353542
-61.311188 -85.652592 80.321297
50.527340 -65.700264 80.321297
33.395209 -110.022016 77.210922
14.638034 -87.166292 80.321297
-24.980073 -25.758797 131.590697
-28.407116 -98.866087 80.321297
-10.419764 -106.036502 80.321297
-32.128140 -39.422658 138.182233
-50.609988 -56.791103 77.210922
6.065163 -42.664006 101.063274
-5.031082 -35.978923 77.378528
63.688857 -77.170341 80.321297
-36.910287 9.023369 77.210922
49.319375 -54.395455 80.321297
-32.700777 -43.070301 113.854950
-63.654335 -59.130897 80.321297
2.053468 -74.718411 109.540512
-19.851266 -94.999851 77.210922
13.540304 -25.689601 140.421844
24.171091 -35.300036 138.642872
-29.286291 26.943540 80.321297
-78.036952 -23.222052 79.600634
-32.477671 -50.307449 104.842077
46.722315 -13.825157 77.210922
-1.048699 -93.305807 80.321297
29.546125 11.192727 80.321297
-58.340062 -21.430934 77.210922
49.352058 -20.802314 80.321297
-60.044587 -34.675467 77.210922
-8.134171 -36.985308 94.350593
8.339746 -72.812987 129.417902
-25.001975 -65.757363 131.672468
73.780479 -57.155542 78.951377
60.143459 -73.874708 80.321297
-47.395104 -110.130067 78.685875
-47.122498 -9.050619 77.210922
-0.499954 -16.443716 90.299644
-37.845593 19.519302 77.210922
18.905490 7.986339 77.210922
-49.048611 -13.844790 77.210922
-7.411906 -36.707258 119.125613
19.944667 -9.336341 80.321297
23.500163 16.372630 77.210922
-28.723445 -30.788819 92.286765
-22.662712 4.520314 77.210922
-14.495147 11.136158 80.321297
-51.562853 -26.843431 80.321297
53.049871 8.089002 79.960165
14.307467 -60.283987 77.210922
11.917280 -0.073335 80.321297
-23.023459 -85.710587 77.210922
-74.243023 -71.869527 80.321297
6.655305 -23.872345 80.321297
9.289577 -19.171022 103.371920
11.177044 -82.670695 77.210922
9.023639 -72.492516 97.161674
33.436372 -94.334582 80.321297
7.006991 -18.189216 125.532094
-4.811725 -55.580298 140.397425
-27.807343 -29.325197 116.082515
-27.658581 -30.903069 140.421844
58.468545 1.784737 77.820740
35.462613 -65.406263 80.321297
-13.398875 -76.935766 80.321297
5.850555 -2.598386 80.321297
-21.743192 -1.592776 77.210922
-40.638595 -81.050487 80.321297
55.197903 -72.847397 77.210922
18.042085 -72.146839 80.321297
-10.180028 -17.117876 132.582698
-20.235076 -21.634087 84.526614
17.967328 -74.252508 80.321297
-48.932031 -3.667872 80.321297
-59.289904 -38.654243 77.210922
15.960214 -68.014272 101.854276
21.199723 -62.037095 107.651318
45.112192 -30.987504 77.210922
-16.325046 14.249445 77.210922
18.120582 -88.734035 80.321297
9.631960 -36.834609 77.210922
-28.931849 -16.504266 80.321297
-24.264088 -25.006482 139.948669
-18.513451 -55.460585 140.421844
37.422657 -95.789058 80.321297
-19.249845 -48.416682 80.321297
-1.347538 -16.388691 95.181676
-52.709782 -36.578566 80.321297
-2.747686 -75.214141 129.512311
-30.008799 15.917943 80.321297
-23.079332 -23.891877 110.074702
-71.644768 -77.370284 77.210922
-64.290517 -69.961050 77.210922
-55.799485 -26.255285 77.210922
18.661576 -103.430944 77.210922
58.349972 -25.442950 77.210922
36.432006 -90.604596 77.210922
-58.002482 9.802518 77.210922
44.810214 -82.271528 77.210922
16.980098 -21.201134 77.210922
-11.915047 -93.490468 80.321297
-17.793769 -73.790944 80.321297
-1.892821 -35.966713 121.122654
-31.349980 -36.585611 131.938022
-71.636577 -11.643341 77.210922
15.566686 -30.231092 80.321297
-0.664423 -1.663313 80.321297
-34.745124 -37.171643 80.321297
4.883000 -120.229964 80.321297
-8.943055 -11.468103 80.321297
19.043622 -48.538252 80.321297
-34.199967 9.590857 80.321297
20.776796 2.881242 77.210922
37.582863 -36.170416 77.210922
8.311357 -40.677832 140.421844
29.474366 -35.772890 80.321297
44.860346 -38.543914 80.321297
23.448911 -33.576022 117.213359
-10.347652 14.508505 77.210922
-62.968594 -90.140680 77.210922
-31.839338 -104.441571 77.210922
-23.508972 -24.275731 104.745049
-23.191092 -67.565206 131.584403
65.407614 -9.346343 77.210922
-14.086554 13.167669 77.210922
-26.473155 -64.037706 95.963777
5.091611 -30.582950 77.210922
48.875848 -70.564027 80.321297
5.969429 -49.186973 122.637927
-22.189743 -23.122774 91.695113
52.751339 -53.846690 77.210922
-46.626668 12.999455 80.321297
32.684740 -50.145192 80.321297
68.419098 -38.692786 77.210922
-57.212100 -80.890370 80.321297
56.175470 -78.184098 80.321297
25.837543 -49.654951 131.679757
5.765849 -41.886504 136.602147
25.313448 -52.479574 132.279460
18.776936 -65.212913 130.746332
-55.963965 -6.145793 77.210922
22.396490 -82.360307 77.210922
63.504660 -78.229671 77.210922
-34.640275 -15.560220 77.210922
-66.788891 -91.132812 77.987405
-0.157744 -71.701244 140.421844
-40.497016 -67.725804 80.321297
-16.047779 -57.035776 77.210922
-22.282661 -59.278188 80.321297
-9.097020 -112.334762 80.321297
64.490642 -71.149709 77.210922
-40.757497 -82.857550 80.321297
-68.015058 -2.685962 77.210922
-27.718449 -97.017031 77.210922
-78.029197 -36.476184 80.321297
-12.150761 -73.891983 102.601924
-26.952394 2.033153 77.210922
27.694045 -96.024860 80.321297
-29.005484 -111.924884 80.321297
4.975975 -51.699431 140.421844
2.865599 -38.057561 113.530573
37.515208 20.648004 78.815485
-26.096876 -36.435455 80.321297
-20.658192 -96.822278 77.210922
69.830009 -49.343788 80.321297
-22.614477 7.676959 77.210922
-11.243271 -15.150370 80.321297
12.286771 -14.057376 77.210922
62.390143 -65.620562 80.321297
-7.853078 -54.625700 112.365374
26.344404 11.917507 77.210922
-37.878571 -21.532640 77.210922
25.836631 -49.661798 96.691263
-51.685884 -101.406182 77.210922
50.445285 -31.754801 80.321297
-10.779239 -91.670312 77.210922
39.256659 -42.992126 80.321297
-15.549010 -18.955258 129.165389
53.242395 -96.570250 80.321297
-15.952094 -106.608492 80.321297
-3.400221 30.409165 77.210922
64.835057 -50.206953 80.321297
1.135443 -97.305465 77.210922
18.171616 -62.643717 140.421844
-45.570666 -1.258963 77.210922
-62.075809 -64.831451 80.321297
14.363090 18.854411 77.210922
50.304880 -40.195326 77.210922
3.372246 -17.103144 84.088195
21.596532 -91.551620 77.210922
-13.070729 -43.688732 132.101242
1.731940 -74.780191 114.350864
32.638613 -84.993435 80.321297
25.492009 -39.875857 112.816566
49.255749 -101.122825 80.321297
8.021491 -70.208570 140.421844
38.361109 -54.899196 80.321297
-80.795214 -49.996909 80.321297
-37.503036 -73.088908 77.210922
-2.335428 -75.211889 98.112300
31.192920 -39.628260 80.321297
4.260998 -17.327520 119.219757
17.532940 -119.784679 80.321297
-13.101199 -17.957597 138.617242
-75.586280 -40.737574 77.210922
-16.888791 -80.041626 77.210922
-64.279003 -48.931774 77.210922
-4.177376 -89.637984 77.210922
-0.618227 -16.436038 123.686999
-12.464095 -73.787855 104.488629
-27.683256 -29.133080 88.222755
28.032778 -27.859380 77.210922
-61.868048 -97.343988 78.124223
-62.481180 -90.565297 80.321297
13.542619 -21.638458 140.038102
39.194369 8.076576 77.210922
-0.429369 -115.824791 80.321297
-1.154093 -61.906466 140.421844
-8.365013 -54.398363 83.104148
23.695286 8.294168 77.210922
-53.065470 6.224294 77.210922
-5.195944 -75.166965 97.234067
-53.338969 -55.506807 80.321297
-62.704152 -23.343473 77.210922
-61.274713 -14.903618 77.210922
70.434276 -41.936629 77.210922
13.743986 -108.612058 77.210922
-32.812519 -44.883005 134.674547
39.630434 -87.460975 77.210922
-65.380557 -42.723137 77.210922
-20.167755 -21.578576 128.858729
17.917673 -29.976832 77.210922
-28.091848 -61.778489 128.002706
-34.327288 -29.316933 77.210922
-68.312620 -32.357564 80.321297
-10.848032 -39.261540 133.137445
-64.880409 -4.147050 80.321297
-22.774956 -99.724075 80.321297
-9.886560 -106.239986 77.210922
-15.619670 -88.957026 77.210922
-76.695424 -19.209067 78.922614
12.548072 -20.981520 122.348552
28.613645 -6.472515 80.321297
-16.154599 -99.033784 77.210922
-24.756035 -37.942277 77.210922
-15.144975 -18.767412 136.774527
-52.082317 -71.395494 80.321297
-25.424605 -23.123217 77.210922
12.357408 -70.683975 112.394805
-59.299667 -15.411351 77.210922
-29.107856 -103.741720 80.321297
19.167517 -15.656062 80.321297
-16.829668 -113.044629 80.321297
-15.792201 -9.543303 80.321297
-19.031182 -54.527693 77.210922
-8.569464 19.727371 80.321297
-48.696065 -0.882736 77.210922
-50.437719 -88.576818 77.210922
-22.879053 -33.089439 80.321297
-12.519329 -56.222264 77.210922
19.886184 -117.155533 80.321297
60.455623 -78.594789 80.321297
48.968719 -51.694408 77.210922
36.363076 -50.980886 77.210922
-10.523149 -52.732050 117.030320
-50.913487 -53.425656 77.210922
-42.294949 -36.401329 80.321297
22.703833 -32.046976 100.681182
4.070809 -97.041733 80.321297
5.727577 -41.787090 99.540933
72.829350 -31.427059 77.210922
-29.053389 -60.189383 123.686102
0.459548 -16.564135 119.646656
-66.230930 -48.283961 77.210922
-50.817187 -4.040594 80.321297
-18.529820 -20.514888 121.297534
-25.855300 -26.751734 109.230002
13.328733 -58.592813 80.321297
-9.450144 -37.940614 79.639238
8.459393 -22.169318 80.321297
26.087696 -46.552790 133.309003
-8.107414 -63.430935 80.321297
-13.284730 -46.219357 99.330641
16.804857 -67.241739 112.879131
-81.356252 -46.378888 79.683885
11.806165 -71.028661 105.353452
2.483161 -74.635849 129.885066
-22.498221 -68.167967 101.353513
-32.695099 -48.340046 113.805524
47.442468 10.973196 80.321297
-23.748896 -67.034339 99.771168
34.456184 -98.363098 77.210922
-58.176514 -33.434597 80.321297
-18.419526 -40.019403 80.321297
23.698746 -34.872135 140.421844
51.271860 -23.385342 80.321297
9.197547 -19.129673 95.787252
-33.198744 -93.729129 80.321297
-46.008493 -109.126709 77.210922
33.665238 17.908403 77.210922
-42.284159 -96.384251 80.321297
-46.455201 -56.258023 77.210922
65.084704 -80.145255 77.210922
-34.454583 -71.227836 80.321297
-31.694810 -23.573831 77.210922
19.512887 -31.649865 80.321297
37.649260 -79.161537 80.321297
2.006265 -37.363056 106.952218
-57.633386 5.225935 80.321297
-31.160253 -46.377173 77.210922
17.987459 -107.788774 80.321297
-62.200095 -29.819382 77.210922
-10.913399 -39.342420 80.882307
-68.247503 -54.731879 80.321297
-27.797788 -29.572863 80.321297
-27.072506 -108.360093 77.210922
22.336969 -80.314708 77.210922
8.594787 -14.633001 77.210922
1.486186 -74.827411 94.172806
47.423622 -101.431394 80.321297
2.704352 -59.285816 77.210922
64.848427 -73.838483 77.210922
-22.169087 12.781340 77.210922
5.861163 -42.134094 110.838321
58.979596 -75.244231 80.321297
24.762954 -10.738484 80.321297
11.329563 -44.829562 140.421844
44.155033 -82.515185 80.321297
-60.188817 -13.942926 80.321297
28.245922 -52.161696 77.210922
18.317878 -28.169564 77.210922
18.445782 -76.266057 80.321297
17.249664 -22.469726 80.321297
21.522088 -61.536549 119.696225
25.182216 -38.538520 114.146231
-43.646889 -23.850603 77.210922
59.360057 -17.517692 80.321297
7.972589 -18.583651 129.896602
30.099818 -48.026353 77.210922
10.656012 -71.675563 112.301394
-22.246144 -36.646145 140.421844
-16.325603 -72.223990 135.570011
29.980339 -116.292700 78.475680
-24.247594 -56.808545 140.421844
-13.306070 -45.061725 77.210922
60.873024 -37.163305 77.210922
-71.023246 -32.202901 80.321297
-5.124261 -28.042404 77.210922
-6.192790 -13.843321 77.210922
-53.404107 -33.064570 80.321297
31.293448 -73.103637 77.210922
32.540034 -47.026420 80.321297
5.433141 -17.654125 136.959365
-26.213665 -25.284126 77.210922
-0.949142 -55.466781 88.114595
-8.581794 -74.754160 128.389764
56.144694 -93.118338 80.321297
32.874942 15.653425 77.210922
-51.846706 -87.503905 77.210922
26.079258 -45.008877 99.708364
0.893052 -74.929715 137.057887
26.048904 -44.071311 104.173939
-31.385519 -83.860759 77.210922
50.577502 -78.360354 80.321297
-30.245496 -57.817863 140.377552
27.553485 2.459284 80.321297
-37.555345 -66.530124 77.210922
-20.058733 -47.710794 140.421844
-6.107662 -120.992421 77.210922
20.899758 -104.488314 77.210922
-23.069589 -69.539385 80.321297
-2.320094 -67.589073 77.210922
-26.008630 -26.934578 118.510941
-21.146636 -41.717599 80.321297
21.012452 -65.169192 77.210922
20.303098 -97.207083 77.210922
42.276005 -26.162172 80.321297
21.698451 16.026922 77.210922
-27.611657 -45.896591 77.210922
-76.150436 -73.778650 77.599550
-28.734984 -83.200967 80.321297
17.109676 -5.066052 77.210922
-38.234698 -35.946138 80.321297
-20.083809 21.496220 77.210922
-6.408047 -16.481958 131.525875
31.001100 21.733834 77.210922
64.624874 -20.942729 77.210922
19.305621 27.070885 77.210922
26.005825 -48.022650 87.360062
-46.715850 -0.538227 80.321297
-9.875469 -19.681142 140.421844
-81.325309 -47.422629 77.502263
-10.172018 -53.015831 86.806402
-35.163137 -37.819100 77.210922
11.963555 -70.819464 140.421844
20.641273 -31.765489 140.421844
-5.482491 -36.026808 113.646258
33.594198 -54.660856 77.210922
-8.572953 -3.138175 80.321297
16.570809 -25.828218 77.210922
10.516290 -52.126271 77.210922
-39.583907 -106.287200 77.210922
-17.275529 -85.265387 80.321297
54.122264 -14.692722 80.321297
5.643360 -41.568326 132.917647
11.024444 -71.479718 138.825192
-20.063664 -121.621652 77.210922
25.254123 -52.714556 123.080303
-14.558329 -18.519937 115.614723
-67.687468 -80.372068 80.321297
-47.604576 -62.292871 77.210922
66.717706 -50.114448 77.210922
-36.468815 -116.396549 79.090485
13.261123 -85.530276 77.210922
-14.283173 -116.784526 77.210922
-18.957259 -70.765293 126.574266
30.098083 -71.199678 77.210922
-32.985365 -13.353740 77.210922
-69.031669 -69.797928 80.321297
58.953390 -11.136465 80.321297
-32.492950 -41.455798 98.451069
25.424678 -39.915707 77.210922
32.336331 -77.897218 77.210922
57.802783 -36.827622 80.321297
-32.620053 -49.174266 87.551528
-52.729114 1.733173 80.321297
-54.757557 -68.427015 77.210922
2.167512 -113.312770 77.210922
38.784369 -11.714617 80.321297
3.186814 -30.551951 77.210922
-12.290953 -41.450097 135.119702
-37.315998 -75.759134 80.321297
-21.550258 -34.625785 140.421844
13.965032 -8.408096 80.321297
0.986478 -20.171580 140.421844
-31.992435 -28.323518 77.210922
24.823805 -37.181525 85.770745
35.803538 -77.275078 80.321297
16.739636 -7.969376 80.321297
-49.576126 -49.792270 77.210922
-22.216789 -112.300933 80.321297
3.745586 -55.443417 140.421844
20.752422 -70.871653 77.210922
17.805884 -51.232792 77.210922
14.007629 23.489341 77.210922
-39.498937 -40.432675 80.321297
-32.789347 -44.434483 137.623513
-42.142239 -29.247049 77.210922
47.233562 -15.087264 80.321297
-32.335316 -40.497550 103.882050
2.508515 -108.773156 77.210922
-57.645713 4.041954 77.210922
-23.295913 -59.706592 77.210922
40.966288 -30.457486 80.321297
-3.777811 -55.743033 99.389009
53.479978 -63.116928 80.321297
-48.009846 -81.130438 80.321297
-66.920985 -61.115440 77.210922
-21.826547 -22.821627 93.603002
-58.646911 -83.375572 80.321297
3.205653 -38.332390 105.487416
49.162145 -1.944314 80.321297
50.882124 -19.182220 77.210922
41.687634 -62.428267 80.321297
-19.140736 -109.469847 77.210922
-12.348386 -41.579428 120.855479
-62.590979 -56.384427 80.321297
-22.921145 -77.181352 80.321297
34.749602 -35.951128 77.210922
8.836367 -60.587134 140.421844
-7.095762 -1.650270 80.321297
48.516572 -44.989872 80.321297
69.062781 -40.467036 77.210922
36.978478 8.907815 77.210922
-6.231587 -55.345764 112.060963
-12.472503 10.779563 77.210922
-24.510875 -48.076720 80.321297
6.550792 -46.557226 125.723297
16.543219 -18.989766 77.210922
42.702351 -81.345011 80.321297
26.512961 -110.712253 77.210922
16.543953 -24.052077 114.036172
-30.066988 -7.840078 77.210922
29.083567 -73.864420 80.321297
29.378423 -104.708411 80.321297
46.705888 4.395245 80.321297
15.540624 -6.129828 77.210922
6.894432 -33.205909 140.421844
38.890353 -94.374652 80.321297
-37.986318 -111.977414 77.210922
-67.904169 -82.521439 77.210922
-20.531471 -21.843381 109.741379
27.497064 -82.101578 77.210922
-68.951659 -57.214321 77.210922
66.067123 -81.341694 79.758448
-49.825210 -34.741249 77.210922
-53.337041 -16.580242 80.321297
-3.847061 -57.777036 140.421844
-32.806474 -45.988752 111.972556
-77.544714 -46.667834 77.210922
-18.550909 -66.774617 80.321297
-21.467918 -22.526976 135.750635
-38.158793 -12.227462 77.210922
-3.513261 -23.748938 140.421844
48.796672 -62.428087 77.210922
-5.680435 -16.416502 122.376546
-28.918564 -60.438554 117.163071
64.338342 -31.613163 80.321297
60.527758 -61.261837 80.321297
-50.329885 -46.618788 77.210922
16.778281 -24.275090 127.034835
-70.450197 -7.335179 80.321297
-31.345714 -77.139597 77.210922
-31.630120 -92.584631 80.321297
-14.153329 -123.015686 77.845312
16.195166 -23.729139 112.071901
31.965879 -71.381307 80.321297
34.622718 -70.984523 80.321297
5.959403 -42.389280 139.031130
-44.092348 -53.348762 77.210922
16.699762 -12.541502 80.321297
32.330577 -5.130302 80.321297
5.513104 -112.721848 80.321297
5.224209 -40.720970 94.930142
32.946376 -47.240869 77.210922
36.772878 -76.861473 77.210922
4.976768 -74.024313 134.352914
41.910694 -11.955852 77.210922
-43.361455 -75.585150 80.321297
18.798261 -40.812234 140.421844
25.836449 -49.663164 122.197484
25.231281 -38.724287 82.470907
-37.030246 -47.145055 80.321297
4.974906 -53.020114 77.210922
7.525292 -18.392488 87.309267
5.737184 -73.798065 90.530280
-36.583701 -35.240997 77.210922
-26.187645 -27.148051 136.621582
22.080835 -113.814614 80.321297
22.941053 15.286462 80.321297
8.974264 -78.502512 77.210922
-4.888158 -35.963762 136.154677
-61.636066 -39.921273 80.321297
39.907798 -14.419030 77.210922
-77.575269 -59.703876 80.321297
-32.803954 -46.449910 117.774040
-70.173623 -67.141925 80.321297
-66.545645 -31.809821 80.321297
-10.215599 -74.410695 86.505853
-66.204073 -45.522492 77.210922
-23.176900 -3.435758 80.321297
62.815236 -20.331001 77.210922
6.493594 -44.693836 96.582429
30.662270 -83.341029 80.321297
25.488361 -80.128860 80.321297
43.033636 1.743271 80.321297
9.870857 -66.881016 80.321297
-38.490999 -45.743393 80.321297
9.251412 18.751829 80.321297
12.127381 -70.827808 107.827405
-28.972283 -60.339276 126.340174
-37.869757 -63.672174 80.321297
-7.348879 -62.752180 77.210922
16.440932 -65.106266 140.421844
-47.567814 18.469831 77.431739
22.117891 2.661890 80.321297
23.821222 -92.386678 77.210922
32.576421 -56.437268 77.210922
-28.642847 -60.897950 129.783610
-25.804137 -29.414443 77.210922
16.194797 -76.322039 77.210922
0.103071 14.775750 80.321297
-32.529117 -88.479020 77.210922
-59.649235 -26.053922 80.321297
-60.360837 -53.153842 77.210922
-0.977649 -55.477755 131.710085
25.055400 20.614692 80.321297
-0.943561 -71.323588 80.321297
-15.814257 -31.542674 80.321297
-1.863789 26.985675 80.321297
-12.077180 -31.684845 140.421844
16.144942 -91.325594 80.321297
-32.796179 -47.216429 85.115842
24.455914 -55.469363 105.194187
37.557591 -65.828422 77.210922
11.613184 -20.398292 130.327225
21.155370 -57.053777 140.421844
4.604902 -51.687094 105.703692
36.620594 -99.905444 77.210922
13.383298 -46.988071 77.210922
0.216549 -21.229181 77.210922
68.072237 -29.307292 80.321297
17.644642 -25.103279 107.814190
28.310888 -102.862551 80.321297
-4.003925 -7.839801 80.321297
15.622532 -68.298376 119.443270
15.899818 -23.481465 98.211855
-43.086144 -18.739892 80.321297
14.111957 6.469344 77.210922
66.237393 -47.441156 80.321297
1.327123 -63.926088 140.421844
2.186528 -16.843868 97.916278
8.573734 -65.635599 140.421844
24.583091 -55.086665 89.879337
37.371023 -4.598820 77.210922
-8.070703 -16.689660 138.766743
-30.239843 -64.841890 77.210922
21.018795 -29.236527 98.322688
14.544073 -112.791277 77.210922
70.403437 -20.487590 77.579099
-1.508660 -75.169226 86.660004
-12.875891 -35.116934 140.421844
4.740613 -40.056702 110.944637
-62.155229 -37.664474 77.210922
-16.539313 -70.090756 77.210922
-10.344135 -59.815271 80.321297
-16.652503 -72.066619 109.397320
28.388889 -116.993735 77.695205
-32.057869 -97.903612 80.321297
-40.487780 -57.481561 77.210922
-12.193137 -41.229827 112.831698
-32.939634 -35.467803 80.321297
2.914272 -104.355007 77.210922
-72.133939 -60.162115 80.321297
-15.086995 -18.742588 121.750088
20.554661 -28.577126 108.914164
10.918419 -2.429312 77.210922
-29.932227 12.894334 77.210922
24.933434 -53.984804 131.092462
65.931256 -69.850902 77.210922
40.139864 -42.136676 77.210922
-60.737929 -9.688495 77.210922
-6.991417 -16.539378 94.627970
-12.358319 -60.786244 140.421844
-26.087208 -64.504183 85.679784
-46.604344 8.922133 77.210922
6.525586 -44.995420 124.641455
-18.278498 -20.357739 99.948760
31.091130 5.073129 80.321297
-3.138631 -28.431094 140.421844
48.481995 -45.518698 77.210922
-9.910630 -17.046722 84.909120
-4.337298 -35.905328 98.810344
-14.753729 -72.931475 95.723114
13.670660 -69.797598 107.711690
-2.370413 -75.212081 105.270373
16.158954 -67.834490 82.632874
0.720624 -36.736932 83.631151
-12.693442 -73.711639 137.199747
6.558721 -73.519109 110.753685
16.298816 -46.905065 80.321297
-79.442777 -46.757552 77.210922
-4.127962 -68.392753 80.321297
27.278778 -44.944183 80.321297
16.383421 -23.897688 122.789183
-67.436008 -87.946216 77.210922
-44.079278 -60.159615 77.210922
-69.882418 -53.385030 80.321297
-19.077504 -70.687852 137.545292
-27.562379 -13.668147 80.321297
18.571782 -64.679547 140.421844
-48.669009 -43.098423 77.210922
10.210352 -27.824975 140.421844
-21.297151 -22.386782 82.711522
15.018540 0.654994 80.321297
-1.042300 -19.821913 80.321297
-11.896313 -1.356958 80.321297
-23.548937 -45.896063 80.321297
71.513477 -46.429924 77.210922
-26.869782 -90.680692 77.210922
-9.058759 17.098541 80.321297
-56.271299 -89.241468 80.321297
-29.530947 -32.218257 114.976746
-81.314214 -43.747049 78.208052
-50.661554 -10.990387 80.321297
14.297683 -25.447506 77.210922
7.161837 -73.284966 139.314247
25.715999 -50.408590 85.931433
34.711259 -38.234356 77.210922
53.179469 -23.414891 80.321297
-43.382452 -27.882208 80.321297
-45.817753 -42.823103 80.321297
39.329060 -87.091916 80.321297
-10.001406 -17.070698 102.617664
-0.187111 -55.173422 136.551667
-25.074745 -65.684381 94.419007
-63.764394 -84.618227 80.321297
-49.450278 -101.996240 77.210922
-52.914680 -63.412720 77.210922
30.327633 -61.666667 80.321297
25.928385 -4.810710 80.321297
-62.791716 -47.256948 77.210922
-29.969692 -33.133028 121.507961
-11.185646 -122.190876 77.210922
-7.032166 -54.990247 129.575986
2.814238 16.429423 77.210922
-39.891523 -113.163553 77.210922
-2.334294 -35.897226 88.456257
55.974315 -22.194753 77.210922
-58.900376 -69.136643 77.210922
71.077041 -22.480041 80.308866
-5.946090 -36.142964 80.277481
-40.899270 -91.943873 77.210922
-43.390635 10.561481 80.321297
58.186423 -67.280110 77.210922
-51.340938 -80.676715 80.321297
15.792374 -22.686011 77.210922
-57.072581 -25.272289 80.321297
-10.062386 -63.022084 140.421844
-1.349820 -75.154938 136.715677
40.455882 -99.509480 77.210922
39.275917 -77.542361 80.321297
3.603515 -115.147865 80.321297
-17.922022 -111.248520 77.210922
5.689383 -49.817600 87.898234
-9.748990 -111.675781 77.210922
-30.489888 -57.285260 131.516117
65.816336 -13.332685 80.321297
-55.925096 -82.949579 80.321297
-26.369083 13.662058 80.321297
47.746815 -52.989434 80.321297
19.913051 -63.832466 99.104594
-64.874226 -92.081287 77.210922
-9.933611 -17.052792 104.519762
-22.836015 -23.663506 120.786999
-13.082424 -48.118727 100.000266
-5.701817 -16.418425 88.107880
72.426276 -39.609712 77.210922
29.147266 -49.724534 77.210922
-37.970695 -84.649925 77.210922
40.604137 -32.467383 80.321297
46.364344 12.612648 80.321297
-63.734398 -87.770791 77.210922
62.708570 -74.627350 77.210922
57.734937 -79.416564 80.321297
-49.833892 -51.715683 80.321297
-57.767074 -95.670429 80.321297
17.301786 10.974864 77.210922
-45.148345 -74.272976 80.321297
1.291029 -59.326470 140.421844
-13.998774 16.038447 77.210922
-24.901302 -25.676029 126.022891
-32.185620 -51.827406 91.002816
-29.705425 -28.139691 77.210922
39.068594 17.049495 80.321297
-30.580781 26.768421 77.210922
-43.934176 -51.213389 77.210922
-21.372564 -69.090772 96.581579
-20.545078 -118.877484 80.321297
32.558426 19.393633 77.210922
18.993491 -26.576361 134.093977
-41.565779 -31.622889 77.210922
14.177590 -69.438311 102.323837
17.246088 -24.720307 130.159145
-16.092557 -7.711576 77.210922
6.907124 -18.151184 85.100464
66.290568 -13.875018 77.210922
15.456504 7.797964 77.210922
-20.663024 -69.613558 130.564384
-20.010451 -68.514097 80.321297
-19.414034 -113.087765 77.210922
21.508339 28.165952 77.784097
-15.245011 -76.045363 80.321297
26.760781 -115.525715 77.210922
-1.963517 -75.209858 140.359853
-13.135000 -44.097072 119.720882
25.394200 -52.159714 117.138796
2.342792 -37.635034 87.132488
17.011413 -20.580924 80.321297
-0.281722 -30.885135 140.421844
-32.010066 -52.613081 84.862916
-38.073986 -5.682423 77.210922
-14.138901 -18.357105 134.920581
-15.831251 -46.010839 140.421844
56.564682 -16.515202 77.210922
-56.377389 1.647476 80.321297
-24.927091 -68.088667 80.321297
-15.072888 -121.292793 77.210922
26.149020 -111.090415 80.321297
-20.013890 -27.368241 77.210922
-19.494979 -70.418985 94.254754
-56.325045 -75.576735 80.321297
70.746294 -36.907410 80.321297
-7.398138 -123.647500 77.957149
-31.824005 -101.281905 77.210922
25.588266 -51.185071 133.861275
-30.690251 2.415202 80.321297
51.154512 -5.453364 77.210922
-5.763579 -62.274455 140.421844
-43.559742 -16.909729 80.321297
-49.431467 -17.982390 80.321297
23.174668 -47.686899 140.421844
-15.924305 -67.998663 77.210922
66.710461 -68.981637 80.321297
-19.154511 -58.647627 140.421844
-60.053013 -86.099055 77.210922
-18.435962 -31.444415 80.321297
-31.789070 -53.449801 90.209500
-16.590036 -11.231631 80.321297
-55.605796 -37.414599 80.321297
-37.409891 7.013616 80.321297
-33.514827 -70.513860 77.210922
10.852095 -34.474082 80.321297
7.425855 -106.979833 77.210922
16.333972 -16.940650 77.210922
6.427948 -44.074989 89.704175
44.982535 -40.037384 77.210922
4.768568 -105.559834 77.210922
-26.146492 -53.001795 80.321297
22.374133 -53.237581 80.321297
-54.816981 7.053654 77.210922
20.881462 -118.664451 77.210922
19.995814 24.661243 77.210922
-51.036117 -7.548482 77.210922
10.038281 -72.012545 132.953160
-36.107170 -69.388441 80.321297
1.688855 -37.166899 112.390132
-15.927877 -112.489082 77.210922
70.446272 -68.515803 77.210922
-49.411235 -5.782127 80.321297
-10.906746 -74.236205 123.523938
25.881614 -77.487323 80.321297
-30.763926 -34.960297 132.907946
35.407829 -94.442055 77.210922
11.590647 26.717408 77.210922
67.681440 -70.743712 77.210922
34.469004 -12.054392 80.321297
-27.765876 -43.688433 80.321297
-38.459165 -103.130628 80.321297
47.991600 -9.338636 77.210922
47.220426 -27.097004 80.321297
19.015717 -63.943071 80.321297
-30.520818 -34.358058 138.008416
-9.379572 -55.866598 140.421844
-19.767582 -22.200684 77.210922
36.376225 -2.791981 77.210922
-3.337590 -75.217364 138.505652
5.778625 22.552598 77.210922
-8.145277 -54.495942 78.059197
-22.557018 -108.170566 80.321297
23.994950 -95.037323 77.210922
-75.220929 -76.070573 77.973850
-29.201213 -5.825181 80.321297
39.603565 -14.262232 80.321297
13.857875 -69.664303 87.872517
-81.220021 -50.586551 77.396500
-13.783848 -73.331237 115.818942
-43.288236 -14.206908 80.321297
25.944041 -42.905651 99.009083
-50.188037 -82.689307 80.321297
0.110372 -66.857929 80.321297
-16.498733 -72.142296 88.185922
-27.508602 -81.830703 77.210922
-38.868883 -65.680382 80.321297
3.954909 -52.491351 127.386781
35.266938 -70.522167 77.210922
58.775846 -59.353924 77.210922
54.718848 -58.892678 80.321297
54.799291 -97.720595 79.882366
1.635933 -54.396820 81.680666
20.518209 -101.942168 77.210922
-3.922888 -55.720199 105.632227
-20.034444 -45.309764 140.421844
-44.561853 -39.534849 80.321297
-69.056755 -79.025354 80.321297
-20.713301 -69.580422 102.529036
14.609357 -42.275758 140.421844
16.281710 -23.802164 108.249520
22.175571 -31.070680 83.944181
-15.662433 -118.356151 77.210922
10.080185 -58.808841 140.421844
-24.472159 16.682618 77.210922
26.328091 -87.578185 80.321297
-5.257267 -73.083107 80.321297
15.085158 -81.708895 77.210922
0.844353 -4.284995 80.321297
22.927951 -92.772437 80.321297
-8.538243 -54.321436 127.853374
24.387986 -55.673768 118.869739
0.309969 -74.999423 88.265518
70.506291 -38.419016 77.210922
-26.647324 -10.533319 77.210922
-11.756277 -3.331013 80.321297
-68.300274 -76.214038 80.321297
-43.034442 14.083544 77.210922
-46.751125 -66.817066 80.321297
-1.780155 -110.163961 80.321297
3.209212 -38.335266 78.871411
26.548022 -4.728712 77.210922
0.712288 -36.733231 127.749928
-38.049533 -59.807134 80.321297
51.339111 -9.923743 80.321297
-28.839739 -98.955628 77.210922
32.404631 11.686600 77.210922
-8.414577 -76.333883 77.210922
-24.023958 -111.747694 80.321297
-56.855737 -38.939890 80.321297
-15.900362 -72.423447 92.226720
21.873397 -60.992132 132.020574
50.590271 -35.072928 80.321297
-29.277095 -59.775946 120.904168
-26.882643 -21.214309 80.321297
27.600366 -6.513794 77.210922
-9.788095 -27.961454 80.321297
16.973892 -67.090110 103.443037
42.007977 -97.977921 77.210922
33.299207 -33.105490 77.210922
63.756907 -9.540851 80.321297
61.396980 -17.620928 77.210922
-6.471557 -94.832088 77.210922
-0.254479 -91.773745 77.210922
4.555763 -51.747894 123.066113
-37.452473 -82.483827 77.210922
8.416033 -51.891112 77.210922
9.771847 -65.323332 77.210922
30.881496 -10.049294 77.210922
-44.349112 -12.749031 80.321297
-31.832778 -53.284316 86.679925
-41.766795 -99.567118 80.321297
17.397806 -74.364550 77.210922
-22.566941 -68.110340 94.726296
60.079870 -57.431284 77.210922
25.881853 -49.322091 113.234855
-12.054287 -29.761107 140.421844
-14.058245 -32.318420 77.210922
-53.128733 -80.756264 77.210922
24.276553 -35.571687 132.219673
-24.819742 -70.682652 80.321297
-8.692815 -54.211311 90.535662
-13.010794 -43.307946 135.690913
-73.750718 -58.807071 77.210922
47.673157 -99.519933 80.321297
16.354592 -95.037114 77.210922
-45.408594 -19.537135 77.210922
-30.436329 -51.106840 77.210922
-36.959291 -15.299955 80.321297
18.822017 -65.152271 88.754868
56.708719 -63.077982 80.321297
-58.666331 -61.918225 80.321297
50.731004 -26.954097 80.321297
58.437337 -43.054242 80.321297
66.700344 -63.890152 77.210922
-19.282391 -101.537912 77.210922
6.318038 -17.948194 103.812233
20.717406 -13.510951 80.321297
34.853731 -3.103059 80.321297
17.960930 -55.147784 77.210922
-6.126728 -64.166659 140.421844
49.776851 -95.812170 77.210922
-13.183982 -47.169106 88.020264
16.930284 -71.575801 77.210922
9.391483 -48.127990 77.210922
-3.856930 -103.799038 80.321297
6.158237 -28.711185 77.210922
-12.946111 -48.472817 119.235116
-32.219806 -39.795383 93.341110
42.464272 -77.807177 77.210922
-37.686379 -9.085497 77.210922
-29.817001 -58.735879 109.443719
40.153750 -75.579402 80.321297
-32.514277 -41.585446 128.497359
-21.294513 -41.390802 140.421844
22.094580 -6.978461 80.321297
-67.008152 -61.473381 80.321297
-18.506156 -113.756199 80.321297
6.368137 -17.964843 111.962931
66.312906 -37.665136 80.321297
-41.400893 -104.251195 80.321297
37.767068 -44.024503 80.321297
-24.258089 -66.158805 140.421844
0.472473 3.727740 77.210922
-43.337722 -108.658829 77.210922
13.814456 -16.405047 77.210922
-18.209824 -1.823959 77.210922
-69.460861 -28.061412 77.210922
58.618997 -44.352222 77.210922
35.707683 -83.794122 77.210922
54.990452 -16.835011 80.321297
-49.865535 -70.807412 80.321297
-7.753688 -100.413772 80.321297
13.478103 -76.213099 80.321297
14.081535 -45.999188 80.321297
63.497589 -62.643234 80.321297
3.007132 -74.535171 136.827260
16.867274 17.686706 77.210922
-24.022434 -24.757454 116.077542
-64.706108 -81.787103 77.210922
5.522777 -108.723564 80.321297
25.207230 -17.764124 77.210922
-26.177787 -4.377243 80.321297
-60.822613 -40.594594 77.210922
-39.857275 -93.351102 80.321297
8.957586 -112.440997 80.321297
-8.420112 -117.683893 77.210922
-44.568077 -12.314862 77.210922
-46.130954 -103.088248 77.210922
-4.688516 -35.942585 134.043494
-80.077357 -31.655559 77.736716
-9.303769 -16.369811 80.321297
29.239287 -32.848839 80.321297
-4.376444 -55.648810 134.593370
-45.096283 -9.296549 80.321297
-11.998571 -50.754084 93.845572
54.157725 -86.995580 77.210922
-41.821726 -86.657049 77.210922
-15.504047 -72.610479 98.451869
3.613261 -52.914084 92.629863
10.860916 -19.526175 77.210922
-7.728917 29.080830 80.321297
12.892357 -21.203249 105.489025
-28.911387 -37.089354 80.321297
-12.768439 24.159860 77.210922
14.121450 -103.021439 80.321297
25.308893 -39.018137 121.031251
14.320996 -49.703342 77.210922
11.009808 -15.264194 77.210922
-12.064818 -61.605960 77.210922
-23.247748 -67.402061 80.321297
-22.328987 -23.239825 84.825156
-43.249219 -23.137141 80.321297
9.430771 -72.307219 119.881667
-24.592258 -43.544947 77.210922
-12.115243 -7.262803 77.210922
29.453362 -106.870594 77.210922
-28.666198 -60.864473 90.531529
6.314587 -48.057919 77.364729
4.702162 -74.096843 129.507640
-26.232363 -114.807019 80.321297
-46.470543 -4.593667 77.210922
22.374299 -31.431680 118.094271
-8.715404 -37.405712 109.426292
60.240572 -8.363557 77.210922
-13.110150 -47.865124 136.576843
-20.418710 -70.415650 80.321297
-51.422201 -95.680897 77.210922
-33.899423 -22.513923 77.210922
6.021528 -73.703957 122.155383
-64.087158 -9.293344 80.321297
-51.700494 -93.787271 80.321297
36.659421 -47.113063 80.321297
-49.342872 -40.387028 77.210922
