-56.341261 -93.336590 56.506496
-58.023320 -96.112814 47.711947
-53.277629 -101.540900 31.191726
-55.318986 -123.007121 51.854290
-55.819947 -120.513067 67.999174
-54.833708 -124.831731 26.857804
-55.404260 -92.008757 26.414518
-61.398747 -104.355434 52.547446
-59.221771 -122.697664 62.615552
-62.733632 -117.699866 42.527479
-53.701609 -89.821475 67.900408
-62.732563 -111.200305 69.265178
-27.729269 -76.801015 66.074548
-53.938560 -90.106484 24.208932
-51.037608 -86.920330 67.563729
-62.920228 -114.231297 32.956753
-29.050383 -83.695034 64.073012
-27.871398 -75.459126 53.391355
-54.804887 -91.159381 18.816116
-58.468667 -123.687077 46.763256
-62.762229 -111.644058 19.019377
-55.723877 -121.059247 56.133412
-54.944007 -105.990417 45.294756
-51.735487 -98.558524 31.754648
-38.667276 -78.698493 34.088366
-54.521358 -90.807482 72.211719
-34.680454 -84.277353 25.589832
-31.706944 -76.452444 26.951822
-54.546814 -90.838101 67.218888
-37.016384 -85.233221 41.358348
-30.010978 -76.013227 41.366181
-31.053166 -76.283130 53.233170
-33.954654 -83.994560 75.192618
-37.936167 -78.387004 26.711671
-47.143675 -83.578811 33.074766
-57.936965 -124.366656 57.944705
-59.387102 -122.473137 51.087127
-28.999279 -83.691989 46.744174
-52.791149 -129.939510 33.782802
-28.128242 -82.881022 83.487457
-61.305044 -104.050597 81.472074
-40.372405 -84.729759 83.487457
-41.396330 -87.643985 28.139788
-56.248051 -113.856253 24.066051
-62.618717 -110.392824 77.996702
-62.875055 -117.297863 74.932293
-29.976219 -83.750204 51.096497
-51.280432 -87.169419 60.736173
-55.420685 -107.818517 42.918620
-45.035417 -90.445058 39.464069
-50.719949 -96.938960 27.758818
-60.600078 -104.834993 18.487457
-56.247580 -114.769697 24.270708
-29.003606 -75.752342 48.877036
-60.367902 -101.242014 57.336536
-57.742160 -95.638877 80.968886
-50.275216 -96.286689 34.864565
-49.107345 -94.721639 47.609411
-28.103183 -75.519153 42.952607
-54.362848 -104.229079 54.862262
-46.108351 -82.808020 31.656562
-27.337365 -81.924861 20.172611
-56.038022 -111.343566 55.845957
-56.110596 -118.202069 75.084784
-61.246949 -103.861604 76.902095
-62.917586 -114.946050 71.547977
-27.480550 -80.052822 59.719187
-60.860864 -120.479307 77.706961
-33.614419 -76.946435 36.003125
-55.855894 -120.308694 46.791960
-60.215902 -121.377673 77.891994
-36.323374 -84.917483 55.112260
-33.183644 -83.941333 77.829848
-27.639047 -77.980602 69.788432
-50.245710 -96.243414 36.600410
-54.706226 -105.196992 71.265100
-56.029514 -111.241779 31.327646
-34.772639 -84.313271 27.167964
-53.987764 -127.237497 30.521300
-47.032321 -83.495909 37.353660
-30.893817 -76.241862 26.621937
-54.286779 -126.407471 36.142423
-36.658118 -77.907283 31.659693
-37.792864 -78.325950 72.265940
-54.205113 -90.427098 40.541025
-51.744348 -87.645305 61.387834
-46.602286 -83.175751 21.448335
-54.088335 -126.958325 76.709187
-52.449306 -99.826941 52.336588
-49.762957 -95.535380 67.931707
-46.081853 -91.373088 47.530288
-51.810576 -87.713242 76.302480
-62.341976 -108.429969 23.552732
-55.876649 -110.252056 36.228889
-53.707742 -127.949490 59.926183
-53.387535 -89.443703 34.741073
-44.786762 -83.635526 18.487457
-57.004018 -94.394625 37.899493
-39.872342 -79.211911 67.918715
-55.497768 -127.248067 57.510088
-45.331008 -85.119478 18.487457
-50.224205 -96.211874 79.521517
-56.539160 -93.617033 18.755186
-55.059032 -123.984529 20.505253
-59.477109 -122.371276 68.096034
-62.236876 -118.437129 53.799481
-62.686841 -117.769313 66.328613
-43.188398 -80.924932 24.746080
-31.381632 -77.283374 18.487457
-57.177034 -125.264353 74.021459
-55.985429 -119.572256 18.776359
-57.077153 -125.382342 80.934581
-45.281209 -90.658407 19.671223
-34.703472 -77.251572 32.935579
-37.876885 -85.656715 72.433208
-34.431705 -84.180433 46.281273
-30.809220 -83.799842 78.387411
-52.685179 -130.229433 22.652663
-61.456413 -104.543034 79.680075
-58.552954 -123.575670 43.315864
-55.519045 -108.195736 31.129989
-27.627260 -78.134704 82.598822
-62.883982 -116.803314 25.032487
-56.629358 -125.918316 59.320433
-53.808299 -89.949804 49.578350
-36.110901 -77.723712 80.052593
-53.126700 -129.762345 47.760625
-54.897971 -124.590109 40.574663
-55.566836 -127.166468 19.068082
-27.437833 -80.611315 56.126801
-61.652671 -105.224334 66.685857
-55.453659 -107.944974 46.722654
-54.575864 -125.605010 38.041744
-47.397933 -92.730086 50.239860
-53.501674 -102.033653 80.148604
-55.002803 -102.797701 83.487457
-55.969925 -110.797918 76.913660
-33.292673 -83.947830 69.347457
-32.363551 -83.892464 65.665857
-52.830801 -129.853416 18.784992
-61.825820 -119.047180 51.185963
-54.246942 -126.518054 66.761694
-53.879533 -127.537933 45.300387
-45.361820 -90.728377 33.318277
-53.615562 -129.245160 58.890894
-42.877394 -88.704622 41.760334
-61.275597 -103.954801 80.562650
-61.472524 -119.571522 61.532333
-55.669308 -121.369482 55.151444
-62.035742 -106.944338 30.711832
-56.126947 -112.407423 38.942756
-27.636820 -78.009716 72.546874
-33.867119 -77.011879 69.121963
-60.939098 -102.860096 50.909629
-32.644754 -76.695315 53.009092
-57.910200 -124.398273 48.584689
-60.685027 -120.740268 24.563453
-33.187799 -83.941580 20.432010
-51.044918 -86.927828 33.299493
-32.467624 -76.649442 61.853166
-37.032695 -85.241249 63.016268
-27.549610 -79.149915 37.396384
-36.417224 -84.954049 43.596940
-32.218728 -76.584984 80.891073
-55.815966 -120.535699 33.995128
-59.002555 -122.998992 72.733281
-62.570865 -110.053423 79.992309
-55.796299 -120.647508 47.522369
-47.410493 -92.743037 58.781150
-59.667296 -99.473984 77.519785
-45.467333 -90.819963 28.844450
-31.267616 -83.827158 62.641390
-62.891295 -116.399917 80.902405
-55.607894 -107.463221 83.487457
-56.497104 -126.067565 39.737800
-58.321146 -123.882063 59.588194
-37.747089 -85.592836 37.693630
-56.062491 -118.745622 45.517516
-35.935102 -77.664738 64.076240
-27.786410 -83.619715 28.253432
-27.536254 -79.324543 53.519801
-54.539076 -104.725831 49.646982
-50.566456 -96.713838 50.320802
-61.329647 -104.130638 70.005782
-56.197709 -117.217747 68.764353
-62.616607 -110.377859 72.504207
-62.912693 -114.107901 18.987675
-38.097695 -78.455823 79.866115
-45.401490 -90.762811 50.152285
-54.766540 -105.367007 43.073193
-54.725058 -125.190867 56.935109
-41.024078 -87.419227 35.572667
-46.733625 -83.273531 56.373706
-62.130476 -107.369695 33.729218
-55.410783 -127.345913 72.958612
-58.221210 -106.332042 18.487457
-62.234157 -107.835225 76.320221
-62.415095 -108.948587 30.970144
-61.369112 -104.259026 25.899978
-48.911797 -84.987882 80.855688
-56.314307 -126.283505 45.972977
-54.923593 -124.493772 63.500582
-58.333168 -96.695643 24.398341
-56.056715 -111.567202 74.896168
-42.392096 -88.351502 77.084731
-55.912183 -119.988677 59.502412
-27.825967 -75.536757 46.634476
-32.705846 -76.711136 74.310767
-35.630653 -77.562607 81.594736
-58.821250 -97.689814 29.238422
-58.580125 -97.198669 35.139778
-41.266644 -79.903780 49.505682
-55.829066 -120.461223 25.414314
-62.561673 -109.988225 70.924164
-35.267743 -84.506178 72.921875
-30.756767 -83.796717 24.323580
-45.496006 -82.374599 70.013675
-30.050525 -80.970605 83.487457
-62.685700 -110.867917 79.999818
-54.641656 -128.159601 26.020512
-59.025055 -98.104944 80.164350
-56.245431 -115.651846 53.465516
-49.636792 -85.622541 37.070106
-27.768011 -76.294486 29.144964
-34.368110 -77.141624 42.235943
-48.325819 -93.763565 69.613062
-56.166905 -126.457637 57.114510
-39.115256 -86.266718 62.022745
-56.241787 -116.719687 34.614974
-55.575540 -121.902581 46.173865
-56.188397 -113.142579 41.787523
-44.407256 -81.690633 19.313108
-28.643233 -75.659013 68.070059
-37.779531 -85.608803 47.340940
-33.355531 -76.879389 46.429104
-54.612118 -125.504375 46.818308
-62.336546 -108.391458 37.122408
-27.255599 -82.993887 67.403326
-60.640618 -120.806177 47.489789
-33.427882 -76.898127 74.153953
-36.805610 -85.129489 61.349656
-54.310261 -94.705820 18.487457
-53.262848 -128.915426 82.058149
-52.994105 -100.917334 76.011338
-54.723420 -91.389191 83.487457
-59.542186 -122.268154 21.423045
-28.183127 -83.643355 31.680594
-41.644594 -81.912349 18.487457
-55.216619 -123.392015 28.944880
-50.038040 -95.938833 77.961997
-62.433622 -109.079990 29.051152
-62.643020 -110.565202 58.262692
-51.429744 -87.322584 36.063978
-33.185610 -76.835384 44.761077
-55.734380 -109.419471 31.604277
-29.120116 -75.782515 48.038810
-62.927175 -114.415765 29.335778
-47.464281 -89.325099 83.487457
-43.649088 -89.266135 73.112829
-37.584438 -78.237150 48.445041
-39.607406 -86.563868 61.461020
-53.869695 -127.565240 46.131769
-56.247854 -114.657361 63.209060
-62.576474 -117.933120 58.623590
-58.617805 -97.275419 69.650026
-60.544767 -101.688346 20.452697
-55.463118 -107.981252 75.130176
-33.633828 -76.951462 66.747917
-56.729072 -125.793526 82.217116
-47.166230 -83.595603 55.366533
-27.303817 -82.363484 50.949406
-56.216290 -113.476275 40.828561
-56.136076 -112.516640 66.232305
-56.137363 -126.492536 59.985434
-52.559470 -100.022696 67.199704
-55.747197 -120.926667 63.806551
-27.333594 -81.974165 43.405704
-43.019436 -88.807977 33.298903
-38.350355 -81.811991 83.487457
-60.334967 -101.158899 49.640487
-44.453423 -85.657463 83.487457
-62.874470 -117.329124 27.022260
-39.187036 -78.919937 39.174999
-53.651619 -102.363433 54.190581
-32.821298 -76.741035 41.311059
-55.901246 -126.771439 29.047924
-33.952774 -77.034062 23.406109
-53.904871 -128.939079 53.847435
-62.830590 -112.763461 55.552199
-60.230050 -121.358973 54.243633
-62.628923 -110.465211 19.731822
-29.642301 -77.444804 83.487457
-30.121023 -76.041727 20.792317
-53.004069 -100.939247 62.917952
-55.962816 -119.700816 52.062120
-55.693298 -109.179053 22.645601
-62.923582 -114.614443 65.280002
-57.945103 -124.357043 67.959971
-61.679906 -105.346620 31.375977
-27.427769 -80.742901 80.726619
-27.692228 -77.285302 34.819685
-47.201627 -83.621956 43.151742
-46.410050 -83.032633 38.664747
-40.877560 -83.801180 83.487457
-59.893421 -100.044627 56.335840
-27.432180 -80.685225 37.702838
-31.652709 -83.850105 45.905743
-27.831074 -75.469997 25.316342
-27.711603 -77.031987 77.935054
-55.292099 -91.849813 56.473939
-39.997099 -79.265064 29.816266
-62.842341 -117.538519 65.240623
-54.024593 -90.209965 59.855809
-30.042845 -76.021481 53.961692
-55.438030 -122.559524 64.366895
-62.735314 -117.697361 22.398587
-49.744960 -95.508986 30.624486
-60.037913 -119.758820 83.487457
-59.612304 -99.335207 82.759768
-60.014086 -100.349134 51.830364
-39.731829 -79.152045 81.676716
-44.424618 -84.088790 83.487457
-27.721449 -76.903254 32.650699
-28.603010 -83.668376 73.020617
-62.896302 -116.123036 68.130055
-41.507759 -80.029873 20.258538
-54.497961 -104.609935 52.419940
-27.732148 -76.763377 38.567479
-44.998899 -90.413360 72.942388
-40.328947 -79.413406 18.721595
-56.213589 -117.038310 75.301867
-49.525614 -85.525216 67.377862
-56.249742 -113.882489 80.112411
-61.660701 -105.260390 24.286625
-54.694747 -128.103434 41.283447
-62.343621 -108.441638 55.296202
-62.194024 -118.500726 54.852929
-51.053035 -86.936155 81.829287
-48.987415 -94.574617 49.606907
-27.558047 -79.039611 41.665103
-60.453703 -101.458538 70.964577
-29.706267 -83.734118 43.552563
-59.896544 -100.052507 29.285176
-46.635115 -83.200192 71.349451
-54.025539 -127.132638 47.890024
-55.698203 -109.207758 60.858956
-48.417784 -84.555424 58.535315
-55.248343 -91.787806 19.306545
-62.433240 -118.145710 75.348897
-53.527817 -100.724214 18.487457
-52.940824 -129.958975 27.358199
-51.837206 -98.739274 25.229561
-27.820938 -83.621772 70.219900
-61.555394 -104.865040 25.282260
-47.985433 -93.346285 49.539994
-43.368824 -89.062204 65.839531
-51.327664 -87.217870 70.814443
-52.473037 -88.392796 26.873760
-34.112123 -78.113514 83.487457
-56.279585 -124.949257 18.487457
-62.888793 -113.716536 55.014376
-46.225426 -91.521125 48.340091
-54.617115 -128.185569 69.796227
-54.686125 -105.140332 60.209936
-54.493078 -128.316800 76.296334
-30.031965 -76.018663 61.284286
-52.724924 -100.325312 66.415994
-31.146698 -76.307353 69.177962
-55.998564 -119.467955 30.200042
-59.935625 -100.151132 69.614940
-52.859353 -100.620968 60.814723
-50.423668 -86.311371 65.313193
-35.332087 -84.531248 51.547248
-46.389394 -83.017254 51.136437
-50.689541 -93.711405 83.487457
-61.183281 -119.058248 83.487457
-30.513618 -83.782228 53.665699
-53.483848 -101.994447 51.044205
-61.484303 -104.633768 60.464885
-55.739391 -120.971047 44.121541
-55.119602 -123.756791 68.864373
-57.558166 -105.920044 83.487457
-62.203326 -118.486916 50.260525
-56.246822 -115.080770 41.485600
-56.196088 -117.236063 66.384084
-52.960518 -88.930081 56.351986
-56.244577 -116.002170 47.593029
-55.273580 -107.254356 25.061878
-48.027196 -84.236586 67.930554
-55.519766 -122.219667 75.388752
-27.645799 -77.892316 55.133284
-55.552280 -108.353798 60.791210
-49.863592 -85.821081 49.137841
-52.645296 -130.256208 65.518178
-28.769872 -78.643897 83.487457
-43.037244 -80.829976 68.612756
-60.564799 -120.916517 78.463513
-27.211943 -83.564658 38.445639
-51.725685 -98.541107 38.599280
-59.606971 -99.321749 76.420593
-60.805188 -102.424458 55.301806
-33.301782 -83.948373 43.137611
-51.387756 -97.940626 39.510242
-55.448609 -107.925607 72.852785
-49.291662 -85.320415 21.478717
-48.653578 -94.165365 38.339195
-61.359386 -119.739426 22.458999
-56.085095 -118.490204 77.023799
-28.492115 -83.661767 64.741941
-44.481555 -89.964304 81.847229
-58.567684 -123.556200 25.591544
-58.416957 -123.755424 61.226063
-54.784381 -105.417296 75.838436
-52.672960 -88.597877 68.482603
-55.230327 -123.340473 76.776747
-54.558702 -125.652648 21.283531
-61.719019 -119.205699 69.768230
-54.081079 -103.434826 34.904989
-59.770791 -99.735159 24.182361
-60.853190 -116.292764 83.487457
-54.746311 -91.078058 38.668170
-56.045069 -118.942474 61.685130
-28.489795 -75.619276 58.351549
-55.171712 -127.598835 38.129909
-40.578493 -87.150192 53.349813
-29.559466 -75.896296 37.833428
-56.023529 -111.170177 34.162614
-31.356232 -83.832438 26.564941
-53.912521 -102.959694 22.101691
-27.249700 -83.071011 83.043588
-49.991378 -85.932944 58.406281
-57.073215 -94.511268 25.473023
-27.218519 -83.478686 25.202979
-50.360476 -96.411736 48.932384
-55.073010 -123.931974 66.395669
-61.977733 -106.683875 79.111878
-58.977504 -98.224414 83.487457
-61.799464 -105.883441 71.985787
-59.809682 -121.914592 33.579797
-56.248997 -114.188244 41.674953
-41.217241 -87.535855 82.550942
-62.703145 -114.692399 83.487457
-62.646986 -110.593328 52.158588
-56.641511 -93.783565 64.238032
-58.377609 -100.639902 18.487457
-55.872746 -120.212890 78.886778
-54.433986 -100.186295 18.487457
-32.108588 -79.834981 18.487457
-62.646413 -110.589265 74.519047
-56.187661 -113.133776 53.592223
-38.590974 -86.008153 29.572401
-58.245063 -123.982625 38.171744
-60.788234 -102.369303 40.599425
-34.115251 -77.076139 27.280820
-48.383658 -84.525549 30.056221
-55.971356 -119.652266 24.371022
-34.650467 -77.233791 35.749981
-58.005463 -124.285741 42.673754
-55.404791 -92.009510 27.287887
-30.679159 -83.792092 62.087996
-57.425342 -95.104831 62.177969
-45.716650 -82.516401 37.784912
-42.571129 -88.481772 81.692866
-56.337638 -93.331455 39.923061
-30.056789 -76.025091 81.543433
-43.765165 -81.287264 36.144767
-27.325579 -82.078961 73.793481
-49.584897 -95.307071 74.534546
-57.537551 -111.701967 18.487457
-37.055581 -85.252512 78.901853
-53.978117 -127.264276 27.783792
-56.173765 -117.488294 58.128820
-56.581293 -124.869289 83.487457
-48.090621 -84.283805 32.772838
-46.097404 -82.799870 62.696426
-57.394402 -125.009894 37.865758
-45.459854 -84.181307 18.487457
-39.587602 -86.551912 21.618039
-36.301956 -77.787804 70.495703
-54.471730 -125.894072 43.228989
-56.534611 -93.610587 33.260513
-43.786027 -89.365776 49.937802
-47.341511 -92.671910 57.620650
-30.534430 -76.148790 65.022057
-46.382553 -83.012161 70.177359
-55.652590 -121.464534 58.681511
-56.247682 -114.727739 55.952444
-62.117806 -107.312804 35.556548
-55.687802 -109.146895 73.433504
-49.391673 -88.340239 83.487457
-33.689208 -83.971459 28.625453
-27.260971 -82.923663 29.881727
-60.556950 -120.926891 23.262890
-35.081252 -77.378303 64.391378
-58.307668 -96.643703 41.424348
-59.500568 -122.336026 55.824261
-54.873942 -105.721713 56.737035
-61.044725 -103.203725 48.464702
-52.661974 -130.253984 23.958580
-40.461409 -87.079499 81.855721
-62.045556 -106.988399 28.607539
-41.610310 -87.782646 33.761543
-46.704454 -92.015046 42.247189
-55.831179 -120.449207 40.105682
-55.601511 -108.641900 56.535844
-55.282133 -107.287160 38.862786
-53.375257 -101.755617 39.324322
-55.955639 -110.714315 74.397454
-46.725275 -92.036514 61.787634
-35.380746 -84.550207 24.418138
-35.138205 -77.397409 43.407199
-33.437166 -83.956440 39.356642
-42.257183 -80.421789 67.185227
-55.962402 -119.703170 64.839364
-37.695270 -78.284370 75.625360
-55.784197 -120.716314 38.604826
-44.727420 -90.177715 67.705383
-34.403511 -77.150947 37.815565
-28.912266 -83.686804 37.260249
-48.817626 -84.905445 66.918220
-58.261450 -96.549562 35.612922
-27.734101 -81.459992 83.487457
-42.110420 -80.345038 49.647963
-52.709034 -90.844894 18.487457
-27.505086 -79.732042 34.080595
-61.822794 -105.988191 58.008219
-56.078145 -92.963725 60.743908
-28.064515 -75.509139 63.672698
-27.556072 -79.065437 26.493843
-55.301470 -107.361317 73.382096
-54.185201 -103.728328 61.812950
-60.460993 -121.053724 61.199702
-59.640791 -99.407096 63.742890
-54.269392 -103.533463 83.487457
-43.227627 -80.949576 82.326550
-57.599249 -124.765596 60.823826
-60.242467 -117.630964 18.487457
-58.454117 -96.942003 43.207063
-61.449706 -119.605390 68.324473
-29.234711 -75.812192 34.053537
-55.300565 -123.076384 48.514826
-55.941619 -110.632272 72.791280
-50.523854 -86.399073 28.809261
-38.453068 -78.607230 69.082900
-27.520858 -79.525834 65.621816
-54.255666 -126.493836 32.218231
-57.575265 -124.793930 20.092151
-57.727045 -95.613397 61.205834
-35.360965 -84.542500 57.438731
-56.204865 -113.339592 56.625016
-27.639741 -77.971520 24.568673
-55.027057 -106.308920 63.363375
-42.211793 -88.220307 37.629565
-45.188256 -82.181267 33.546046
-55.240739 -123.301325 25.238287
-43.635641 -81.205896 61.161619
-55.785701 -109.719815 49.583664
-28.886014 -75.721888 77.112705
-58.519541 -97.075266 21.986897
-56.163048 -126.462173 27.106266
-47.884002 -84.129979 49.061310
-62.758665 -111.585698 82.676572
-48.466753 -93.936336 63.339097
-61.814646 -119.063777 67.473872
-56.102275 -118.296082 48.584177
-62.816863 -112.538683 63.693075
-49.031360 -85.092547 57.891086
-62.718329 -117.722578 77.036487
-47.896585 -93.244243 47.739430
-35.068888 -84.428698 49.960337
-52.993468 -100.915934 35.596154
-51.527939 -95.862641 83.487457
-32.772654 -83.916842 23.741891
-27.359292 -81.638191 66.113951
-49.612693 -85.601445 19.785395
-40.557917 -79.533147 56.366096
-62.882430 -116.889725 52.348932
-38.496778 -85.961795 51.653366
-56.348807 -126.242762 63.267039
-56.246965 -115.022071 70.267344
-31.764864 -76.467443 24.748952
-62.912858 -115.207523 47.161472
-60.972327 -106.257417 18.487457
-51.691777 -87.591378 39.217958
-58.526816 -97.090084 34.282731
-27.509681 -79.671963 81.967827
-28.667166 -75.665211 70.229188
-62.858884 -117.513966 57.816575
-57.063531 -125.398449 39.827255
-27.322893 -82.114074 52.749919
-53.733744 -127.893037 65.336325
-56.244129 -116.186300 75.552299
-62.891997 -116.360819 48.395071
-54.408998 -90.672334 36.538363
-60.023039 -100.371727 46.642107
-34.873417 -81.318860 18.487457
-41.930929 -80.251172 38.275592
-27.748767 -76.546094 30.119974
-29.154054 -83.701212 50.872407
-54.757691 -125.100283 80.018041
-52.673732 -88.598669 80.634260
-51.888076 -87.792742 69.256827
-55.488804 -108.079759 69.586059
-55.678883 -121.315048 30.883654
-57.789868 -95.719295 33.655580
-39.228326 -78.937528 55.653894
-58.408836 -123.766157 32.292008
-30.826439 -83.800868 30.492256
-50.651173 -96.838089 55.889297
-55.874238 -120.204409 61.878642
-40.798908 -82.227012 18.487457
-40.750320 -87.253937 41.714410
-28.182570 -83.643322 42.176792
-54.376340 -104.267109 38.554557
-53.742357 -102.562997 82.603693
-38.984152 -78.833498 81.407863
-50.112804 -86.039241 72.938934
-54.869281 -124.697979 64.710368
-49.791852 -85.758280 47.374597
-53.638336 -102.334220 45.719416
-54.820400 -105.518828 67.825875
-54.214260 -126.608774 82.746007
-57.263399 -125.162331 70.528602
-49.292990 -94.949222 68.359667
-55.972677 -110.814025 48.746043
-60.659827 -101.978707 26.514360
-58.290981 -114.615608 18.487457
-27.474942 -80.126149 22.065719
-52.696715 -100.266572 70.606432
-58.016550 -96.101403 30.858885
-54.136958 -126.823356 20.382524
-60.140241 -105.138027 83.487457
-56.226926 -113.603528 37.231302
-40.839735 -87.307925 32.536850
-62.858137 -113.214552 47.256105
-57.506022 -95.240829 80.163150
-43.152775 -88.905000 52.139643
-58.225309 -101.745019 18.487457
-62.510045 -109.622044 31.684023
-55.816337 -109.899100 74.465592
-55.023055 -91.468548 25.982384
-51.153934 -87.039658 28.774771
-44.033570 -89.575451 57.012367
-55.547097 -92.211173 28.478568
-35.628139 -77.561763 77.090153
-54.959891 -124.357291 29.996068
-54.810450 -124.919178 66.445625
-54.280548 -90.517832 19.329867
-36.995752 -85.223067 73.588155
-55.710306 -92.442458 25.732278
-56.013778 -92.872510 29.323801
-56.243840 -116.304690 30.851861
-62.900691 -115.879875 30.861341
-51.901190 -98.852969 27.707176
-59.047633 -98.150931 38.231094
-40.985149 -79.756571 76.604604
-62.918332 -114.904687 25.181127
-57.590161 -124.776337 25.730068
-58.425568 -117.490725 18.487457
-56.246516 -115.206624 26.600444
-35.310024 -77.455048 50.939112
-37.868411 -78.358136 59.905004
-39.302543 -78.969148 18.696042
-48.197822 -84.363616 37.156911
-51.544450 -98.219063 22.252923
-62.785615 -112.026995 56.645542
-61.684881 -119.256347 21.967220
-34.566993 -84.233145 37.323205
-60.699374 -102.080225 49.154317
-46.314261 -91.612722 22.222584
-45.007782 -90.421071 78.915670
-55.813610 -126.874984 60.795594
-50.113586 -86.039925 50.183703
-53.907100 -127.461411 35.595738
-62.746840 -111.392059 24.815684
-49.425266 -85.437371 66.301537
-46.295798 -91.242607 18.487457
-27.526708 -79.449345 74.877667
-49.595843 -95.320490 56.463761
-57.899576 -124.410823 39.924558
-27.563983 -78.962008 57.218217
-59.561036 -118.551267 18.487457
-37.103732 -85.276209 37.215821
-55.212579 -123.407204 69.569607
-31.322112 -76.379684 18.487457
-54.487906 -128.322258 53.619676
-49.320836 -94.983358 46.141818
-50.652130 -96.839493 53.186881
-62.923131 -114.639426 81.766383
-56.160197 -112.805212 36.370392
-40.428046 -79.465230 54.747983
-55.853275 -126.828137 76.167102
-28.829720 -75.707309 24.114431
-58.256429 -96.539334 81.971227
-46.460377 -91.763381 78.275834
-52.674588 -130.240684 72.139988
-56.244637 -115.977614 73.328076
-58.670997 -114.560601 83.487457
-57.779985 -95.702636 51.718658
-60.193665 -100.802315 18.638571
-29.567363 -83.725841 66.642712
-38.663722 -78.696978 22.995291
-56.245164 -115.761267 20.575156
-62.808498 -112.401715 59.958189
-54.704724 -105.192758 24.968328
-27.496111 -82.381353 18.487457
-54.211403 -90.434664 83.381306
-51.860604 -98.780851 68.163000
-62.322452 -108.291493 40.087814
-54.089790 -128.743440 51.024368
-59.833775 -121.892802 53.674284
-61.331656 -104.137173 24.712975
-56.769864 -125.745365 53.318894
-61.660188 -105.258086 27.218302
-53.765567 -89.898406 39.542121
-46.622282 -88.887369 83.487457
-56.248340 -114.457757 34.253352
-56.158081 -117.665510 72.828887
-57.757817 -95.665268 40.242576
-56.219695 -116.969312 51.746001
-41.827263 -87.940509 70.005184
-38.760002 -86.091340 75.701940
-50.054223 -95.962568 53.288073
-54.078631 -128.755264 70.455346
-56.140447 -117.864770 67.691365
-60.671047 -102.007022 36.411016
-55.779688 -126.915048 48.860895
-43.057042 -88.835340 40.772675
-45.271280 -87.155922 83.487457
-62.761399 -111.630469 49.131199
-56.782591 -94.021376 59.515688
-60.663237 -101.987313 69.946749
-27.658664 -77.724115 63.569698
-43.839404 -81.333902 59.501783
-46.447384 -91.749984 76.542228
-27.455286 -80.383135 68.226753
-42.711123 -88.583638 53.198100
-52.737327 -100.352592 56.234272
-47.876725 -84.124561 36.490284
-45.265459 -90.644735 42.471499
-55.690986 -109.165522 55.874963
-40.783934 -79.651344 68.522078
-53.820177 -89.964091 69.588439
-57.199303 -125.241165 52.838424
-62.927131 -114.418222 67.456344
-27.597509 -78.523672 36.208090
-42.681724 -80.643805 72.119889
-61.446298 -119.610457 80.029863
-33.195642 -83.942048 19.606920
-48.471518 -84.602462 37.869245
-27.478104 -80.084806 63.499876
-49.318225 -85.343668 80.251929
-61.985011 -106.716553 71.283893
-51.820320 -87.723237 78.511019
-34.341157 -84.145153 41.379996
-41.385935 -79.966165 66.877414
-53.513660 -129.352989 81.414041
-28.459240 -83.659808 63.056760
-58.698700 -97.440193 76.197985
-30.139629 -83.759942 54.436015
-56.130404 -117.978247 49.376926
-51.253250 -97.721129 53.093984
-54.523479 -104.681864 31.788983
-62.600969 -110.266942 31.122754
-37.779647 -85.608860 55.886664
-54.976229 -106.113989 39.649732
-47.816310 -93.161471 77.322256
-40.497001 -87.100989 38.238556
-49.902263 -95.739695 39.205645
-38.239472 -78.516227 22.216694
-55.562859 -92.233508 29.424825
-59.184788 -98.430301 72.587035
-54.177988 -103.707994 55.891880
-62.476051 -109.380933 41.975267
-56.848566 -95.014906 83.487457
-56.248948 -114.208250 47.101616
-33.929009 -83.985749 68.412811
-34.295098 -84.127207 64.323092
-40.405372 -79.453373 50.897990
-35.972511 -84.780776 81.529711
-50.766945 -86.642684 36.108421
-54.506090 -125.798695 50.396219
-27.489007 -79.942258 19.175607
-58.073804 -96.197912 77.132102
-61.750683 -105.664409 42.097862
-54.615980 -90.921294 28.236671
-60.848254 -102.564563 67.177214
-49.492043 -85.495827 77.427646
-57.052767 -125.411149 79.985161
-62.205228 -118.484116 69.766031
-35.296511 -77.450515 74.055674
-53.213650 -89.234552 36.860582
-28.441893 -83.658775 82.663671
-27.769769 -76.271507 45.995375
-51.013588 -86.895690 48.222192
-49.088905 -94.699034 44.592503
-42.014636 -85.700206 83.487457
-47.723499 -93.065775 24.999159
-30.716766 -78.827162 18.487457
-58.959186 -97.970775 63.165607
-41.607449 -87.780564 21.717143
-40.622942 -87.177029 67.582042
-56.246646 -115.153025 33.605349
-62.927809 -114.380679 44.315175
-38.855860 -86.138516 53.772118
-62.844071 -117.535951 79.640404
-54.671281 -125.340145 51.515117
-56.083662 -111.889580 51.736290
-50.778582 -97.024955 45.893217
-45.935254 -82.679151 39.219618
-35.719506 -84.682198 80.237912
-60.959794 -106.491416 83.487457
-27.291133 -82.529310 60.426299
-57.686215 -95.544572 45.208366
-46.118675 -91.411055 28.559604
-32.937631 -76.771163 71.683464
-54.762315 -91.099051 75.622356
-36.108601 -84.833801 59.742107
-27.224352 -83.402424 40.614236
-55.635630 -108.841575 79.046682
-51.281635 -87.170653 27.927425
-50.739513 -96.967653 25.590025
-53.655500 -128.062913 57.658620
-62.053198 -118.709735 60.971142
-57.117807 -94.586434 56.872741
-59.885936 -100.025737 65.189293
-56.247882 -114.645779 45.316071
-53.808174 -102.707751 27.874069
-42.890975 -85.396097 83.487457
-55.176801 -127.593455 81.711696
-61.708003 -105.472778 53.788540
-51.948239 -87.854457 82.531468
-40.070447 -86.843443 77.620518
-33.497766 -83.960051 21.217401
-55.159469 -106.816732 46.027385
-35.332226 -84.531303 61.404124
-51.338113 -97.852415 64.402193
-56.245206 -115.744050 27.404643
-62.861574 -113.270827 70.512710
-60.363091 -101.229872 77.871758
-54.926060 -105.921587 26.939582
-42.358094 -80.474561 29.873713
-38.839688 -78.771949 50.918590
-28.563724 -75.638422 64.975424
-62.316005 -118.319690 51.027671
-36.110851 -84.834678 34.812629
-62.647420 -117.827808 25.650148
-37.126694 -85.287510 19.898937
-62.739889 -111.278244 81.105713
-43.400923 -85.566688 18.487457
-28.368540 -83.654404 57.654584
-27.339118 -81.901941 69.402978
-36.513897 -77.858902 24.351732
-56.245627 -115.571337 48.481268
-27.448226 -80.475443 74.696479
-47.531713 -92.868026 80.891537
-60.683350 -102.038070 68.973991
-38.870027 -86.145489 22.066324
-56.188074 -117.326618 74.531917
-36.217238 -84.876129 74.406932
-59.335108 -106.524832 18.487457
-53.365345 -89.417012 30.849423
-31.262106 -83.826830 58.212534
-56.246644 -115.153963 31.394519
-42.397839 -88.355680 78.218157
-61.695757 -105.417790 80.167750
-60.266147 -100.985229 52.395892
-56.199716 -113.277990 29.549109
-46.820770 -92.134979 58.704187
-55.134215 -106.719880 21.906733
-34.956186 -84.384786 63.696297
-55.970297 -119.658288 42.989855
-30.518330 -76.144620 72.821764
-60.214441 -100.854745 55.764451
-49.301108 -94.863369 83.487457
-50.213600 -86.127477 71.124396
-61.815317 -105.954620 36.652116
-54.305194 -104.066563 53.763857
-47.479888 -92.814590 47.023900
-57.496049 -110.969935 83.487457
-47.308026 -92.637384 82.688304
-58.559711 -123.566739 47.589082
-31.028275 -83.812896 32.108359
-57.841938 -95.807067 52.627812
-27.539322 -79.284432 76.500810
-62.223896 -107.789152 32.667963
-46.547424 -91.853134 25.968551
-56.207783 -113.374500 45.810968
-46.644071 -83.206859 52.331813
-55.817477 -92.594331 73.957605
-60.873386 -120.460723 49.993927
-56.472594 -126.109743 69.322714
-56.116565 -112.283224 68.573442
-52.211471 -98.058050 18.487457
-59.397784 -122.476892 72.175997
-34.424538 -84.177641 48.605899
-48.944343 -94.521815 67.738614
-55.877499 -92.679388 39.663390
-57.815824 -95.763048 60.185533
-56.161021 -93.081169 51.631130
-27.555330 -79.075141 29.598375
-54.556525 -104.775015 57.192573
-53.144201 -129.172993 40.352909
-54.094793 -126.940399 27.001141
-51.802529 -98.677654 40.506149
-27.733909 -76.740347 58.329134
-46.064438 -82.775327 58.197448
-44.524095 -90.001228 53.567450
-30.853321 -83.802470 48.674604
-49.914359 -85.865522 32.351362
-51.051519 -97.425259 70.451498
-58.287060 -123.927116 26.234998
-53.013004 -129.457835 26.027882
-27.688024 -77.340262 73.271425
-62.359596 -108.554947 71.427420
-27.827496 -75.516771 60.778386
-27.457901 -80.348944 51.431305
-32.248466 -76.592685 22.970635
-54.255278 -126.494913 50.173837
-57.057080 -94.484069 19.181973
-48.534343 -94.019194 57.972118
-32.197794 -83.882587 41.295497
-48.768134 -94.305799 60.306914
-54.823843 -124.868822 50.131235
-45.028372 -90.438943 63.663691
-56.047753 -118.912148 23.810798
-59.313989 -98.693471 75.945885
-55.848460 -120.350963 18.971301
-54.210712 -103.800236 42.414141
-60.911891 -120.403574 39.205908
-59.961213 -100.215705 31.930402
-56.601840 -93.716693 47.055765
-58.485589 -116.572846 18.487457
-62.901199 -115.852234 70.977146
-45.963987 -91.251557 65.608468
-55.771787 -126.924369 31.325122
-53.659234 -128.054806 75.179860
-61.664641 -105.278079 75.918099
-36.158003 -84.853049 56.008848
-40.572828 -79.540945 45.377758
-34.785978 -84.318468 28.839197
-61.837624 -106.054778 69.093448
-59.223257 -98.508660 67.562807
-48.397699 -84.537841 23.300914
-52.913215 -100.739430 52.965287
-44.225065 -89.741669 47.562478
-62.874513 -113.482706 65.310561
-29.885232 -83.744782 64.040495
-30.663437 -83.791155 35.317672
-36.621243 -85.038753 81.965641
-55.753936 -120.888355 73.212165
-46.037384 -91.327236 51.441950
-34.846130 -77.299429 62.361648
-49.659520 -95.398552 52.812444
-61.414243 -104.405846 18.625317
-49.462741 -95.157320 21.040089
-44.534657 -81.770668 64.363142
-56.590005 -93.696743 50.329937
-41.973427 -88.046863 82.008369
-39.830742 -79.194187 34.692267
-54.907251 -124.555214 45.140015
-56.491860 -120.787298 18.487457
-55.860752 -110.159023 73.584049
-54.765001 -125.079991 55.499904
-60.332839 -101.153530 80.588389
-54.814699 -91.173286 67.928928
-31.280867 -76.342099 58.274308
-51.220697 -87.108143 64.783765
-56.683784 -125.850346 74.765220
-53.076816 -101.099244 22.240102
-57.709975 -124.634797 70.901730
-44.978748 -90.395869 20.422286
-54.433918 -104.429410 76.111223
-54.043061 -127.084001 53.407495
-56.248276 -114.484243 62.089161
-30.282391 -76.083517 56.848022
-27.535334 -79.336567 21.718050
-43.950361 -81.403607 73.556612
-29.568831 -83.364583 18.487457
-27.821768 -75.591660 28.556331
-41.627082 -80.092273 54.770997
-56.236434 -113.717275 38.399986
-43.455002 -81.092416 72.015520
-59.457775 -122.379724 23.772728
-34.642485 -77.231113 76.614150
-57.199427 -125.237900 77.518989
-61.836034 -106.047639 28.248537
-46.087537 -91.378949 82.017893
-56.533209 -93.608600 79.184161
-51.272633 -97.749557 29.402027
-46.439246 -83.054369 33.963085
-56.247917 -114.631273 81.548580
-56.249279 -114.072327 50.516654
-59.055844 -119.731398 83.487457
-45.847399 -91.149862 60.096933
-34.781831 -84.316852 66.069124
-61.042424 -103.196238 54.458602
-41.408438 -81.725850 83.487457
-52.091592 -94.796171 18.487457
-58.223010 -96.512207 83.487457
-53.974354 -90.149537 53.682186
-62.513777 -118.026154 31.415852
-61.787494 -105.829694 79.435519
-52.760550 -100.403667 44.003919
-54.879187 -127.908310 72.104997
-37.812973 -78.334517 36.454984
-39.562927 -86.537013 36.552668
-29.770070 -83.737920 25.645515
-62.855579 -113.172658 59.400630
-56.112929 -118.175699 47.732163
-53.883135 -127.527932 69.265051
-46.454404 -91.757222 43.109280
-55.459779 -107.968446 51.072334
-58.808018 -97.662861 56.006870
-40.629656 -79.570663 80.300585
-56.246860 -115.065197 49.584568
-57.627338 -102.579286 18.487457
-52.639160 -130.269516 48.362235
-54.615390 -90.920585 76.488943
-53.263206 -128.914621 24.263268
-58.932319 -97.916049 44.736544
-61.300539 -107.839138 83.487457
-62.092339 -107.198456 82.101580
-53.253087 -89.281987 68.482158
-39.580655 -79.087638 71.977653
-60.818437 -102.467561 72.464451
-42.733097 -88.599626 19.179812
-28.584386 -75.643773 28.482999
-47.328719 -92.658721 55.726207
-38.428177 -85.928033 26.806632
-38.885412 -78.791430 53.022177
-29.796503 -75.957684 45.049506
-52.206930 -99.396252 33.781155
-57.024878 -125.276117 18.487457
-55.062079 -106.443234 35.548305
-56.094252 -118.386738 33.411436
-59.170325 -100.350935 18.487457
-56.211328 -113.416914 58.005848
-38.966328 -78.825904 46.148551
-52.482518 -88.402521 77.062864
-55.601740 -108.643241 48.813313
-53.468978 -128.467871 50.381260
-38.717003 -86.070178 35.070630
-55.564649 -108.426180 55.442057
-56.044745 -118.946133 77.717676
-53.076147 -129.320770 69.927248
-40.010785 -86.807421 54.035822
-62.812167 -112.461798 71.763440
-29.333888 -75.837877 53.509527
-55.104809 -106.607105 33.028488
-42.476856 -88.413176 24.609987
-58.988516 -98.030517 24.015308
-34.087747 -84.046417 79.073714
-59.098979 -98.255518 33.808134
-58.712483 -97.468267 66.600387
-60.376070 -101.262627 26.931364
-49.378399 -95.053925 42.189112
-48.162459 -93.563302 33.506607
-50.656579 -96.846018 26.854902
-47.067952 -83.522436 27.900826
-55.926336 -126.741814 49.672094
-47.099147 -83.545660 41.235088
-56.131589 -112.462963 72.010528
-54.508596 -104.639915 19.141765
-61.132776 -103.490173 37.539187
-33.382514 -76.886377 78.443937
-48.002232 -84.218000 34.731786
-57.361043 -107.524022 18.487457
-55.669175 -121.370239 68.039669
-29.639734 -75.917084 79.121724
-38.040588 -85.101633 18.487457
-27.804999 -75.810907 81.399382
-32.122763 -76.560131 53.844072
-61.728761 -119.191244 70.929333
-44.496851 -89.977581 49.679942
-55.474175 -92.107834 45.964690
-38.451070 -85.939299 49.816669
-51.219598 -87.107015 68.875130
-58.191740 -109.382442 18.487457
-40.376667 -87.028333 80.663904
-40.497387 -87.101222 36.514702
-28.803714 -75.700574 83.341763
-56.406342 -126.188200 71.895627
-51.955103 -98.948770 74.962981
-50.808611 -97.068996 73.900079
-56.122730 -93.026906 47.221229
-47.557805 -92.894929 78.040296
-55.798867 -109.796865 40.809351
-40.813866 -84.954274 18.487457
-62.047578 -106.997482 69.405477
-56.106776 -118.245229 56.964126
-57.539543 -124.837407 40.863732
-27.709794 -77.055637 46.113922
-27.421792 -80.821050 78.776614
-60.906257 -120.411939 79.287869
-52.126821 -92.833904 18.487457
-59.084182 -122.873521 47.056689
-62.909994 -115.365868 38.074161
-59.404066 -122.450714 33.142676
-27.507711 -79.697716 38.052491
-27.908775 -83.627006 37.452382
-47.267649 -92.595752 37.043317
-53.538094 -102.113753 35.680048
-27.744261 -76.605001 57.352207
-54.208063 -103.792770 20.084282
-43.635796 -89.256463 54.551327
-36.357748 -77.806520 19.607662
-29.486824 -75.877484 18.621916
-61.522126 -104.756812 41.004368
-27.290236 -82.541040 59.359962
-55.936087 -110.599894 49.637839
-36.822385 -77.962388 67.500435
-30.292940 -83.769077 27.721744
-50.834082 -86.711553 53.213511
-59.404954 -98.878757 22.253216
-49.301485 -94.959636 34.249906
-36.229501 -77.763498 42.466147
-56.115338 -118.148488 22.863029
-62.881306 -113.593950 37.728132
-42.159241 -88.182068 43.781886
-33.783046 -76.990106 56.846098
-59.720396 -122.032606 41.318641
-59.509940 -99.092603 33.821060
-55.107149 -106.616082 28.475228
-55.479440 -122.403826 28.152662
-60.277875 -101.014824 39.165010
-59.109416 -122.863977 71.142790
-54.526378 -125.742378 32.576358
-27.297474 -82.446414 25.444108
-59.766939 -99.725439 25.059888
-34.780191 -77.277309 26.355454
-47.940954 -93.291757 32.686622
-55.434926 -122.571194 46.975205
-52.960365 -88.929898 79.210145
-58.589564 -123.535183 82.930227
-50.169570 -88.701883 18.487457
-60.997632 -103.050522 31.188970
-53.780701 -102.647329 63.506650
-54.075194 -90.270829 73.918901
-56.245956 -115.436526 80.050036
-57.452636 -95.150840 37.476949
-30.545566 -83.784131 23.560005
-55.903320 -120.039071 48.318823
-59.878413 -121.823747 25.336590
-53.751874 -127.853675 78.092493
-60.249159 -100.942358 32.478468
-51.578910 -87.475599 49.306666
-51.914193 -96.356019 18.487457
-27.242372 -83.166818 37.540565
-48.551385 -84.672378 48.679079
-55.706960 -109.259010 72.448725
-62.884926 -113.653228 75.354631
-32.293970 -83.888318 55.064552
-27.408025 -81.001033 36.745742
-46.837290 -83.350710 75.116471
-60.290722 -121.281659 33.169252
-52.381960 -88.299369 37.469450
-52.862033 -100.626863 48.077289
-59.830248 -121.887409 19.224460
-42.635115 -80.619431 26.098520
-56.203662 -113.325206 46.611225
-56.245430 -115.652324 34.821525
-55.737487 -120.981873 21.626492
-28.123802 -81.507058 18.487457
-50.200015 -96.176395 31.348742
-39.705661 -79.140897 65.863216
-60.539103 -101.674053 48.436617
-61.765562 -105.731217 32.919384
-61.803685 -105.902390 20.450303
-62.892126 -116.353183 25.864865
-56.043139 -118.964283 55.564727
-27.708588 -77.071403 64.055030
-44.954987 -90.375244 50.911372
-54.149329 -126.789014 22.434129
-54.812520 -105.496614 40.623582
-51.380019 -97.926880 65.899263
-54.709970 -125.232749 48.340246
-27.389448 -81.243914 82.455877
-54.903953 -105.836806 34.710578
-30.704235 -83.793586 59.906692
-44.977159 -82.048653 49.131683
-62.426250 -109.027701 69.445227
-56.674431 -93.839056 57.363991
-33.616686 -76.947023 26.387968
-49.767340 -85.736822 60.557027
-51.004283 -86.886145 65.673188
-41.658201 -80.108548 53.887928
-49.871824 -95.695052 26.919644
-50.126263 -96.068226 82.541151
-57.976368 -96.033669 31.758353
-58.646070 -123.452595 54.125218
-60.120329 -121.503996 23.773443
-32.814521 -76.739280 29.384422
-55.135728 -91.628218 48.973363
-61.449600 -119.605550 74.174228
-29.936672 -75.993984 71.493100
-51.890777 -87.795512 57.284371
-37.241619 -78.925878 18.487457
-56.243626 -116.392910 61.467844
-41.061786 -79.796649 28.351461
-51.602056 -98.321426 71.887283
-46.166537 -85.309295 18.487457
-61.962397 -106.615014 76.985591
-58.678590 -97.399232 63.870111
-53.837359 -102.771940 69.710154
-55.843442 -120.379490 82.244179
-28.068812 -75.510251 45.724731
-58.621472 -123.485108 74.750241
-31.934529 -77.343469 83.487457
-53.701027 -127.964070 33.936312
-62.459969 -109.266868 68.332208
-37.854608 -83.275973 83.487457
-55.578446 -104.605501 83.487457
-61.372052 -104.268590 45.573314
-60.404228 -121.128753 55.721598
-56.243088 -116.613717 77.288329
-56.028867 -126.620708 70.343859
-48.987575 -93.328923 83.487457
-36.584462 -77.882574 74.336896
-41.456197 -80.002908 24.499192
-47.019393 -83.486284 51.575579
-29.189318 -83.703313 34.574741
-38.386822 -78.579005 56.061105
-37.938235 -85.686909 70.586375
-31.888485 -76.499459 60.660439
-60.100431 -100.567032 81.750553
-27.330548 -83.592550 59.124960
-52.659098 -130.226242 64.603040
-61.731711 -119.186852 57.008797
-37.893782 -85.665031 58.273597
-53.404688 -128.607450 37.622525
-59.457161 -122.380537 38.169488
-56.044175 -111.417179 24.427979
-49.626641 -95.358245 32.810863
-27.324764 -82.089618 58.304374
-52.648346 -100.180622 33.503829
-50.042270 -95.945038 24.627322
-57.496753 -108.912484 18.487457
-58.953017 -97.958209 52.060450
-56.248439 -114.417087 68.042526
-27.668049 -77.601417 31.761973
-52.096356 -99.199768 82.749609
-53.536391 -102.110007 18.951207
-57.084767 -125.373352 20.907899
-62.759268 -111.595574 67.702491
-35.158619 -84.463660 41.399322
-54.706690 -125.241854 73.059109
-38.750882 -86.086852 45.443394
-62.885517 -113.662903 35.239209
-35.177311 -84.470943 46.147341
-31.141761 -76.306074 40.950098
-53.360987 -128.702348 78.451456
-27.364158 -81.574567 75.011491
-55.742302 -126.959855 81.466745
-62.875680 -113.501819 67.728693
-30.558902 -83.784926 47.939114
-27.755770 -76.454532 74.862177
-29.570955 -75.899272 25.469644
-55.469257 -122.442112 32.116576
-56.246844 -115.071721 47.611398
-52.721904 -100.318670 32.660782
-48.778088 -94.318002 78.902099
-31.145934 -76.307155 66.691278
-47.645918 -83.952727 25.327414
-56.859982 -94.151831 70.810649
-44.280337 -89.789646 22.379197
-53.209170 -89.229164 25.753721
-45.897071 -88.543031 83.487457
-44.176449 -89.699471 31.656635
-49.766970 -85.736498 40.398123
-33.881319 -83.982907 36.777417
-46.901103 -83.398218 62.109352
-43.201796 -88.940669 37.310441
-61.780353 -111.627329 83.487457
-37.176444 -85.311995 18.647854
-27.286026 -83.589897 42.226254
-55.285823 -107.301310 77.504018
-50.668212 -90.909283 83.487457
-55.507975 -127.236002 20.957722
-37.737782 -85.588256 35.526931
-56.768949 -93.998380 28.494223
-37.802367 -83.151266 18.487457
-60.123065 -100.624149 61.184715
-27.601697 -78.468927 45.294283
-52.937244 -88.902087 73.609166
-39.427687 -79.022466 65.063975
-55.413452 -107.790779 35.198150
-55.636609 -127.084057 36.738768
-56.068094 -126.578372 73.575955
-54.569207 -104.810765 28.240729
-62.062576 -107.064820 18.742377
-36.901888 -77.989058 56.945968
-51.791204 -87.693370 29.463387
-54.680792 -125.313744 41.923142
-53.346459 -129.529863 61.589729
-62.171919 -107.555776 71.214341
-55.081072 -91.550765 29.582542
-51.546441 -98.222602 69.640407
-54.549290 -128.257318 62.559171
-51.208506 -87.095638 47.118829
-57.777239 -124.555338 56.893586
-47.436448 -92.769799 66.476081
-44.683456 -81.864146 65.158414
-54.926427 -105.922995 22.185901
-62.903758 -115.710222 24.730316
-30.990600 -83.810651 59.110169
-55.901086 -120.051772 29.600018
-59.092869 -122.891944 77.962010
-29.289877 -83.709306 73.721383
-57.835945 -95.796966 35.167074
-55.832713 -126.852412 54.057551
-33.244003 -76.850506 76.102676
-38.667925 -86.046025 56.567029
-52.642142 -88.566264 43.870486
-28.960215 -75.741104 51.793877
-49.375670 -85.393955 69.963187
-62.699880 -117.749961 45.929830
-27.484796 -79.997317 20.065571
-28.439433 -75.606234 30.947346
-47.699759 -86.776079 18.487457
-44.706046 -90.159163 66.727806
-56.554526 -114.137668 18.487457
-27.458538 -80.340622 57.715338
-40.759057 -79.638335 22.201974
-42.471091 -80.533653 54.643046
-62.539353 -117.988207 40.932784
-55.623239 -121.631400 54.363041
-44.276233 -89.786083 37.077231
-55.617827 -127.106242 33.359547
-39.632875 -86.579246 72.709755
-54.782402 -105.411719 80.126358
-48.098275 -93.484618 60.312677
-60.291059 -121.278334 67.687645
-53.514873 -128.368242 82.870225
-30.380189 -83.751733 18.487457
-62.836481 -112.859931 25.380279
-38.223311 -78.509341 71.112917
-55.372038 -127.386902 24.023127
-44.175402 -81.544980 40.482626
-27.736038 -76.712509 21.546298
-48.372590 -93.820902 32.246198
-57.994484 -116.953687 83.487457
-56.091498 -111.983327 63.010813
-53.624280 -89.728464 82.467265
-59.225948 -98.514141 49.952355
-56.109283 -118.216902 56.090811
-55.879200 -110.266984 62.890392
-27.462772 -80.285262 56.873412
-38.497599 -78.626202 60.419267
-29.844910 -75.970220 51.479615
-57.538479 -99.734661 83.487457
-54.697027 -128.101022 32.651408
-51.803044 -98.678571 49.596943
-55.779180 -109.681652 70.683039
-62.886648 -116.656737 59.573099
-58.472246 -123.682347 57.535712
-27.802588 -83.620679 83.362355
-52.584947 -88.507593 50.741110
-34.056380 -77.060893 43.487135
-35.509189 -77.521860 48.330616
-34.824499 -77.292172 40.932942
-55.307145 -107.383081 35.956733
-54.711385 -91.036049 47.337171
-48.650351 -91.131996 18.487457
-55.856124 -126.824742 30.372939
-35.286587 -77.447186 46.821396
-45.522631 -82.391325 65.954301
-56.503862 -93.567012 36.680811
-33.144142 -83.938979 36.402735
-33.043312 -83.932971 59.689883
-36.969881 -85.210335 44.435227
-58.071399 -124.207851 43.602898
-37.358116 -78.142106 29.165662
-61.737436 -105.604933 58.760470
-47.273532 -92.601818 40.773645
-60.777684 -102.334983 68.043885
-53.076868 -97.916182 18.487457
-60.255237 -100.957697 76.951736
-52.978633 -129.532464 43.984026
-51.854616 -87.758418 43.598977
-62.311746 -118.326030 67.096236
-43.854140 -81.343159 30.714569
-41.197935 -87.524199 72.128980
-30.081250 -76.031426 23.043188
-47.998946 -85.622078 83.487457
-61.967721 -106.638920 37.069146
-44.077348 -81.483381 67.543577
-62.584924 -110.153136 75.210716
-56.883083 -95.335326 18.487457
-27.421591 -80.823677 58.549172
-42.700968 -83.717232 18.487457
-56.787924 -125.724027 49.254116
-60.506958 -101.592931 53.400605
-27.368293 -81.520505 72.961117
-49.222563 -85.259925 62.170801
-41.628250 -80.092885 80.329529
-61.590428 -104.979015 38.999749
-42.475405 -80.535910 42.792085
-32.186926 -83.881939 59.501535
-53.625728 -129.234392 45.442047
-30.587540 -76.162544 23.657133
-46.841028 -92.155866 71.117703
-27.546517 -79.190355 47.057152
-54.630141 -125.454345 25.934360
-35.597842 -77.551600 51.788532
-60.097075 -113.189536 18.487457
-27.492734 -79.893536 28.683983
-51.891713 -98.836130 28.590717
-55.740487 -109.455214 65.511813
-52.371815 -99.689244 78.337663
-60.612874 -116.157797 18.487457
-55.138986 -127.633457 53.912719
-62.317649 -108.257428 42.797064
-29.242181 -83.706463 79.396213
-56.242999 -116.650170 48.112731
-38.177235 -85.804532 33.979486
-33.341409 -79.895104 83.487457
-58.911422 -123.101865 20.213988
-61.826683 -106.005652 73.395625
-56.109372 -118.215891 19.470415
-62.895014 -116.193475 21.896249
-59.054591 -122.921916 68.770164
-36.937021 -78.000844 56.175039
-40.640232 -79.576194 39.419945
-62.812229 -112.462799 37.964156
-35.992898 -84.788720 71.813424
-53.927459 -127.404897 82.478151
-62.627737 -117.857036 49.891237
-49.470051 -93.667111 18.487457
-58.839291 -97.726561 51.074110
-54.596997 -125.546348 24.112189
-39.392427 -86.434069 56.253777
-56.239996 -113.759884 23.288698
-59.345443 -98.757539 81.713735
-59.897972 -100.056111 38.410447
-52.849708 -88.796797 45.964034
-38.685073 -86.054464 79.549300
-50.038467 -85.974166 37.818656
-56.987366 -94.366555 79.585349
-56.246233 -115.322510 37.343078
-62.860476 -113.252849 78.225340
-55.673710 -121.344460 40.637922
-53.412771 -89.474058 62.673602
-30.238903 -76.072255 31.120859
-43.886233 -81.363320 44.897009
-56.294986 -93.271012 42.707325
-58.868727 -97.786520 47.210908
-48.627486 -94.133378 70.359339
-51.608520 -87.505973 51.180947
-61.485481 -119.552305 79.183145
-60.943131 -102.873218 69.281083
-62.317020 -108.252963 65.886175
-56.077450 -111.815262 72.775227
-55.845781 -108.261018 83.487457
-29.807677 -83.740161 19.447242
-53.419970 -129.452083 53.445133
-53.861821 -127.587098 23.389875
-52.860546 -129.788859 54.449184
-42.734831 -88.600888 65.360531
-46.959346 -83.441579 47.311922
-62.866458 -113.350804 33.936732
-30.742547 -76.202687 52.285516
-55.037907 -106.350532 76.318823
-58.706470 -123.372762 75.542505
-38.028248 -85.731208 20.049088
-40.432269 -79.467439 23.046265
-58.336161 -96.701740 57.628583
-62.327418 -118.302765 61.872257
-56.247050 -114.987318 43.874046
-59.936270 -105.903219 18.487457
-48.859043 -84.941701 79.093922
-62.901957 -115.809999 34.810409
-61.698643 -105.430751 40.548913
-40.387567 -79.444062 75.113422
-44.040863 -89.581781 81.011429
-58.503138 -97.041854 75.247821
-55.566994 -121.951167 81.219218
-56.831789 -125.679795 62.101053
-37.443829 -78.177243 33.113454
