28.295860 27.645939 6.634707
28.717232 22.136814 0.479080
28.578720 23.947756 27.979572
28.466831 25.410615 46.640323
28.744256 21.783493 6.097419
28.561880 24.167920 43.931053
28.517431 24.749064 32.973873
28.446680 25.674081 32.867485
28.812698 20.888662 11.391615
28.698966 22.375630 1.297709
28.736270 21.887908 41.976007
28.795311 21.115986 31.037509
28.658535 22.904239 38.082098
28.748461 21.728521 35.426397
28.886681 19.921397 38.832302
28.557261 24.228318 56.583504
28.339259 27.078519 57.405930
28.450157 25.628622 3.736682
28.481056 25.224634 54.879520
28.303611 27.544599 13.601377
28.883568 19.962099 6.179990
28.417544 26.055003 61.662677
28.573952 24.010093 14.171183
28.500267 24.973466 29.520451
28.372938 26.638194 50.182679
28.636970 23.186182 43.525953
28.774459 21.388611 12.078917
28.830877 20.650991 10.003792
28.334798 27.136846 8.322417
28.895367 19.807835 29.365368
28.855306 20.331594 5.015354
28.415137 26.086484 28.478017
28.559817 24.194890 2.271482
28.519293 24.724721 4.304428
28.347584 26.969677 35.823311
28.342609 27.034732 31.486597
28.455602 25.557427 5.610897
28.738189 21.862817 10.573279
28.416712 26.065880 22.838867
28.708699 22.248376 58.578911
28.533594 24.537738 43.952303
28.292916 27.684428 10.212259
28.729462 21.976916 23.948607
28.660252 22.881784 57.497023
28.808164 20.947950 21.573363
28.378984 26.559149 39.788734
28.668779 22.770295 40.355787
28.274325 27.927490 47.528974
28.554847 24.259878 48.127814
28.516236 24.764688 18.954322
28.294248 27.667010 0.298632
28.313310 27.417794 63.447939
28.659466 22.892056 27.112698
28.535101 24.518033 13.178119
28.764989 21.512423 0.386875
28.521357 24.697726 51.984970
28.719975 22.100950 59.740986
28.369872 26.678284 9.516215
28.294077 27.669246 47.284149
28.449968 25.631095 53.783731
28.365317 26.737833 9.289738
28.650091 23.014631 41.711611
28.361515 26.787551 22.352381
28.855201 20.332976 43.726676
28.355579 26.865148 45.434836
28.510156 24.844175 53.405831
28.728163 21.993898 38.538701
28.776866 21.357149 36.602443
28.366244 26.725721 62.064157
28.757163 21.614747 23.205344
28.586986 23.839686 21.095493
28.849841 20.403050 60.342721
28.460646 25.491481 61.594499
28.367731 26.706281 42.352447
28.720082 22.099548 49.781892
28.895679 19.803760 8.112569
28.794315 21.129007 30.814674
28.586333 23.848217 29.410524
28.360784 26.797107 54.172224
28.675185 22.686545 33.291667
28.737873 21.866948 54.738373
28.514322 24.789703 56.887983
28.379083 26.557862 14.052174
28.400972 26.271674 8.819343
28.492950 25.069137 53.802743
28.671352 22.736662 36.082410
28.564402 24.134957 51.353798
28.593284 23.757343 39.279617
28.340582 27.061231 14.360630
28.426585 25.936802 58.879125
28.460102 25.498591 55.800314
28.425590 25.949812 19.446225
28.616468 23.454222 37.141439
28.741740 21.816389 2.643555
28.579803 23.933594 58.837058
28.452510 25.597856 4.813152
28.369532 26.682734 64.181431
28.475278 25.300177 58.114655
28.461170 25.484631 59.792037
28.654350 22.958952 17.852458
28.745761 21.763815 27.261172
28.783445 21.271135 17.938922
28.449943 25.631420 49.385453
28.539212 24.464285 35.156203
28.520727 24.705974 8.489727
28.389763 26.418219 37.950005
28.743553 21.792684 52.969227
28.275696 27.909570 33.153060
28.669304 22.763438 24.083941
28.487293 25.143093 46.052365
28.311665 27.439293 26.390893
28.598793 23.685320 46.843539
28.280964 27.840689 52.330278
28.409112 26.165254 18.313978
28.731719 21.947403 51.409057
28.739003 21.852175 35.017173
28.505095 24.910345 54.265458
28.280570 27.845843 6.092361
28.695631 22.419225 63.975325
28.275571 27.911193 29.873335
28.343135 27.027844 50.120697
28.426117 25.942927 29.173111
28.668575 22.772963 63.509756
28.490311 25.103633 28.187287
28.632243 23.247980 15.232449
28.327054 27.238091 15.057205
28.707799 22.260138 37.218704
28.679932 22.624477 17.506893
28.364521 26.748242 33.082970
28.324463 27.271977 29.066740
28.475153 25.301819 36.137141
28.511817 24.822461 18.519798
28.287172 27.759530 20.681901
28.322925 27.292084 19.226983
28.572298 24.031714 11.101912
28.381617 26.524729 29.644384
28.696819 22.403701 11.873615
28.688697 22.509882 10.890125
28.699370 22.370348 60.049557
28.494990 25.042458 60.609351
28.277731 27.882963 23.098187
28.398714 26.301194 62.985870
28.672647 22.719725 56.515556
28.614041 23.485959 20.664092
28.287815 27.751114 27.084165
28.294847 27.659174 33.517882
28.519824 24.717780 47.410512
28.687820 22.521354 42.250777
28.538525 24.473275 36.890719
28.323195 27.288554 12.288489
28.731487 21.950446 62.710549
28.847479 20.433932 55.524741
28.492941 25.069249 62.849957
28.343416 27.024173 17.244538
28.867141 20.176873 38.968591
28.446850 25.671852 56.948210
28.886760 19.920358 53.057951
28.858246 20.293165 21.475215
28.573168 24.020343 24.871097
28.518938 24.729356 48.787911
28.516817 24.757095 12.905712
28.637932 23.173597 20.568691
28.689686 22.496951 49.761553
28.540099 24.452700 60.964072
28.757653 21.608344 39.004259
28.330860 27.188336 41.832153
28.426172 25.942208 5.847947
28.751177 21.693014 20.159985
28.551252 24.306879 32.503720
28.739366 21.847429 42.841428
28.496445 25.023436 16.140521
28.894910 19.813809 33.727720
28.353249 26.895623 44.284887
28.702440 22.330213 13.248832
28.404668 26.223348 7.235289
28.564006 24.140123 19.840705
28.349310 26.947111 57.618089
28.626636 23.321289 -0.257262
28.663091 22.844661 12.295004
28.287070 27.760853 59.045075
28.783023 21.276651 20.573435
28.393585 26.368253 21.464207
28.803107 21.014070 42.843459
28.315155 27.393663 48.467093
28.363511 26.761446 30.968342
28.847150 20.438232 45.771475
28.857247 20.306227 14.914669
28.892980 19.839046 46.953311
28.444413 25.703713 16.460347
28.427605 25.923473 56.214016
28.731065 21.955956 29.758976
28.531009 24.571544 29.831373
28.677644 22.654393 57.774458
28.310379 27.456111 50.035815
28.842435 20.499885 28.832102
28.861679 20.248280 8.074887
28.454785 25.568115 24.250810
28.378481 26.565727 25.797241
28.549446 24.330495 42.555887
28.648149 23.040016 1.635570
28.439679 25.765608 7.525139
28.521517 24.695646 49.084065
28.664264 22.829324 8.965730
28.536001 24.506268 42.052897
28.629625 23.282207 40.972781
28.637316 23.181657 1.468520
28.660578 22.877517 8.752310
28.545463 24.382569 37.752099
28.742016 21.812785 26.848018
28.418997 26.036014 0.641101
28.275477 27.912424 -0.550875
28.424583 25.962980 35.642821
28.422418 25.991290 42.636355
28.825877 20.716362 44.949376
28.321560 27.309927 36.170829
28.649101 23.027576 30.097145
28.662324 22.854694 52.130500
28.599138 23.680807 53.395192
28.331289 27.182731 3.505714
28.428686 25.909330 54.974815
28.548175 24.347110 63.413148
28.520551 24.708264 26.537743
28.756170 21.627729 55.895701
28.583392 23.886675 25.881264
28.565365 24.122354 32.100075
28.441406 25.743035 49.070041
28.491457 25.088650 34.803069
28.881242 19.992503 10.549842
28.811062 20.910064 33.041583
28.661669 22.863262 13.137033
28.728250 21.992765 30.627954
28.313412 27.416449 53.179562
28.420105 26.021527 21.167206
28.824105 20.739534 11.953050
28.598305 23.691688 44.892559
28.664097 22.831517 21.663885
28.887650 19.908723 20.010301
28.497422 25.010661 29.315092
28.531704 24.562452 15.640867
28.728541 21.988956 58.798596
28.821878 20.768650 19.194519
28.649154 23.026881 44.350945
28.874632 20.078929 6.558557
28.632263 23.247723 36.906316
28.529832 24.586922 19.423582
28.407268 26.189353 57.547805
28.776093 21.367256 47.491297
28.819125 20.804634 13.878748
28.331990 27.173564 62.360485
28.318140 27.354645 40.493503
28.665128 22.818039 20.481915
28.623254 23.365508 17.255813
28.529288 24.594040 61.097268
28.858040 20.295858 35.449593
28.618310 23.430138 18.437160
28.624099 23.354458 32.570279
28.362256 26.777859 33.260068
28.741776 21.815923 19.465487
28.749342 21.717000 59.722516
28.318856 27.345275 8.152642
28.604498 23.610727 48.857788
28.561348 24.174885 60.554727
28.722822 22.063733 13.172654
28.751569 21.687881 17.973573
28.436520 25.806907 46.781352
28.464816 25.436962 28.735449
28.545368 24.383802 21.011194
28.534405 24.527140 2.046020
28.405801 26.208534 52.447815
28.730887 21.958279 54.171301
28.688805 22.508470 46.909607
28.809594 20.929245 35.362571
28.877837 20.037026 50.576263
28.894596 19.817909 -0.418306
28.878093 20.033684 36.527187
28.532379 24.553632 2.243689
28.608918 23.552935 14.718404
28.364391 26.749945 12.002304
28.538046 24.479529 2.416553
28.439359 25.769791 6.655061
28.674398 22.696840 28.009098
28.890624 19.869839 33.895514
28.614137 23.484700 49.490367
28.736721 21.882004 46.079098
28.277109 27.891086 23.877281
28.335179 27.131867 33.107754
28.804321 20.998187 8.816038
28.717071 22.138924 23.451397
28.434021 25.839583 40.640582
28.815089 20.857414 14.366654
28.779777 21.319087 22.938285
28.831155 20.647361 24.600703
28.590064 23.799438 1.844748
28.428409 25.912955 53.203332
28.330781 27.189364 61.215643
28.441258 25.744970 2.589563
28.274435 27.926044 43.001780
28.504094 24.923429 17.649913
28.414809 26.090763 31.924201
28.278419 27.873956 16.971245
28.562073 24.165398 37.751043
28.779575 21.321732 13.931359
28.834929 20.598018 48.269611
28.539327 24.462785 59.409741
28.662710 22.849651 3.156079
28.820655 20.784638 46.586168
28.344823 27.005784 20.127066
28.828332 20.684264 29.202204
28.371247 26.660309 38.390521
28.688459 22.513002 20.582752
28.582563 23.897514 5.619553
28.788156 21.209536 47.593749
28.396360 26.331968 -0.273497
28.530199 24.582133 64.170621
28.749069 21.720572 19.637506
28.659994 22.885154 33.134710
28.652382 22.984681 46.981818
28.511074 24.832177 39.302408
28.323057 27.290355 2.583671
28.452342 25.600057 17.913417
28.876969 20.048379 25.461159
28.869604 20.144667 60.967499
28.811399 20.905652 5.720405
28.869763 20.142582 31.015400
28.804935 20.990161 53.841545
28.775895 21.369842 38.174013
28.537542 24.486129 19.633379
28.323813 27.280473 8.812175
28.807035 20.962706 14.182109
28.348204 26.961578 45.837169
28.788968 21.198914 22.458714
28.540935 24.441768 10.197141
28.293540 27.676261 6.299627
28.713763 22.182173 22.611033
28.274717 27.922369 29.228195
28.767993 21.473155 5.586562
28.596521 23.715021 42.227781
28.451111 25.616151 3.421978
28.406411 26.200568 33.931714
28.780572 21.308686 30.765263
28.470877 25.357719 27.873258
28.461028 25.486490 44.998133
28.643983 23.094494 55.082873
28.276529 27.898677 27.535359
28.398973 26.297804 40.554800
28.330624 27.191422 3.753139
28.698029 22.387880 56.380024
28.597099 23.707457 28.393184
28.468040 25.394814 24.774403
28.677074 22.661853 39.129398
28.306898 27.501616 25.129181
28.488626 25.125662 47.111141
28.469393 25.377125 38.751902
28.330111 27.198134 17.126152
28.423033 25.983250 26.815446
28.512313 24.815981 38.864989
28.313859 27.410616 50.662049
28.498189 25.000638 42.819741
28.570300 24.057839 35.602636
28.457333 25.534794 27.799684
28.460856 25.488740 8.598784
28.894931 19.813539 12.695056
28.717305 22.135855 62.665037
28.850862 20.389696 23.099103
28.491740 25.084952 47.400180
28.696733 22.404828 23.547668
28.504351 24.920073 48.592975
28.727205 22.006419 37.483445
28.288158 27.746630 42.718799
28.302049 27.565014 33.719925
28.664462 22.826745 12.699883
28.760547 21.570503 50.037163
28.634651 23.216498 12.194914
28.882395 19.977435 36.036304
28.770827 21.436095 49.251257
28.584738 23.869076 50.055892
28.422849 25.985652 14.027044
28.801130 21.039917 45.592411
28.488983 25.120992 57.114719
28.872432 20.107697 16.800640
28.301239 27.575603 12.981661
28.834949 20.597755 3.866067
28.550462 24.317210 59.838344
28.871207 20.123701 20.011631
28.833677 20.614382 10.651167
28.375517 26.604476 62.893183
28.798068 21.079942 46.003954
28.656961 22.924818 20.085057
28.531544 24.564551 25.261639
28.713521 22.185329 26.568063
28.614914 23.474548 38.940952
28.428087 25.917163 27.552887
28.638298 23.168823 36.021167
28.667332 22.789217 7.797491
28.330021 27.199306 63.754104
28.823146 20.752071 18.916911
28.419075 26.034990 8.059175
28.627584 23.308898 24.590991
28.326056 27.251148 38.406870
28.578633 23.948885 63.371248
28.841930 20.506484 55.327505
28.725647 22.026799 35.333826
28.877375 20.043059 55.974832
28.531930 24.559494 47.906063
28.768195 21.470507 23.595582
28.308743 27.477493 60.881428
28.349620 26.943065 54.003334
28.808100 20.948783 0.978592
28.430686 25.883189 36.227651
28.848494 20.420667 37.620585
28.896464 19.793488 49.367262
28.894891 19.814061 34.468679
28.503780 24.927535 33.782614
28.842487 20.499203 10.843397
28.352418 26.906483 26.937835
28.740419 21.833667 48.334979
28.342595 27.034904 27.846743
28.456848 25.541137 49.991912
28.773135 21.405923 30.201178
28.355796 26.862317 16.022099
28.786241 21.234574 55.599677
28.374754 26.614456 51.218361
28.743745 21.790172 58.553059
28.535008 24.519261 34.817455
28.815955 20.846082 16.050420
28.336782 27.110905 29.445340
28.460509 25.493267 62.014126
28.548538 24.342358 40.973970
28.610813 23.528168 5.372543
28.442354 25.730634 3.088488
28.743711 21.790616 49.528545
28.837134 20.569180 61.638522
28.579538 23.937063 47.282109
28.792913 21.147341 58.433615
28.895513 19.805924 16.129753
28.734012 21.917433 -0.654396
28.623299 23.364919 4.751676
28.364378 26.750113 34.842641
28.810743 20.914231 55.943979
28.671427 22.735683 46.311577
28.792344 21.154782 44.659075
28.787642 21.216259 9.217159
28.835279 20.593434 27.263535
28.878538 20.027862 25.787974
28.636630 23.190625 25.633855
28.891461 19.858905 3.961075
28.342899 27.030930 22.626643
28.650667 23.007104 41.206608
28.527267 24.620461 56.122295
28.894197 19.823132 -0.075761
28.391033 26.401615 28.252019
28.377327 26.580819 29.471352
28.872845 20.102295 36.901313
28.870562 20.132140 9.810031
28.592123 23.772519 23.518765
28.646379 23.063157 31.737834
28.838064 20.557032 46.211836
28.829319 20.671367 41.508307
28.578589 23.949467 30.448218
28.381471 26.526629 16.963202
28.335694 27.125129 33.742819
28.330270 27.196056 10.531087
28.709938 22.232175 57.590729
28.374440 26.618555 42.862224
28.628088 23.302298 35.244987
28.849221 20.411159 56.973337
28.819271 20.802729 54.036091
28.666700 22.797484 8.130980
28.376807 26.587608 57.498147
28.734902 21.905793 50.797749
28.398462 26.304485 53.985174
28.657348 22.919751 36.540747
28.753932 21.656989 62.459122
28.597113 23.707283 29.788761
28.348002 26.964216 37.997692
28.583820 23.881074 -0.348518
28.786542 21.230644 10.451299
28.599993 23.669625 61.757035
28.771423 21.428313 60.835075
28.747124 21.746002 30.245047
28.473697 25.320855 58.317897
28.387441 26.448585 16.085716
28.648481 23.035683 48.820562
28.876455 20.055098 22.641802
28.660322 22.880871 31.899356
28.683558 22.577075 52.569369
28.570240 24.058622 7.533582
28.338474 27.088792 13.780338
28.678946 22.637373 26.193332
28.580657 23.922435 55.199997
28.853803 20.351248 40.245905
28.333938 27.148099 18.737389
28.693359 22.448940 39.637218
28.350063 26.937269 40.596325
28.878974 20.022157 42.262866
28.692198 22.464108 49.993054
28.340266 27.065358 25.813105
28.486809 25.149423 27.905759
28.587539 23.832446 11.289515
28.715384 22.160973 1.714053
28.625942 23.330358 30.723210
28.611477 23.519483 26.580168
28.876564 20.053669 29.973975
28.320774 27.320200 22.844049
28.560712 24.183192 35.748451
28.349837 26.940229 0.489582
28.375467 26.605137 3.949050
28.463000 25.460710 51.326694
28.522699 24.680186 62.722412
28.591018 23.786965 47.725395
28.517180 24.752348 2.135751
28.832312 20.632230 30.893998
28.834877 20.598698 62.006912
28.873707 20.091015 50.045672
28.448068 25.655926 61.488284
28.326283 27.248183 37.564949
28.773886 21.396106 40.020403
28.889647 19.882614 27.983553
28.564337 24.135800 63.720955
28.649011 23.028755 59.859726
28.833723 20.613776 47.425761
28.872955 20.100853 24.614914
28.377842 26.574076 17.250658
28.675766 22.678951 49.756073
28.331673 27.177704 37.933004
28.292254 27.693078 32.254354
28.768305 21.469071 44.880058
28.463835 25.449789 59.260014
28.870813 20.128859 57.738468
28.808465 20.944005 43.032624
28.353009 26.898756 50.647997
28.855678 20.326739 58.364360
28.687618 22.523991 29.771458
28.619178 23.418790 30.506619
28.361635 26.785971 60.686603
28.399674 26.288650 40.999896
28.629516 23.283636 42.288188
28.562426 24.160781 18.198358
28.361361 26.789560 10.128112
28.502952 24.938361 30.313851
28.602469 23.637250 58.619007
28.675216 22.686140 15.156263
28.503459 24.931729 9.982283
28.507687 24.876451 51.348678
28.629316 23.286246 53.641648
28.889634 19.882783 14.722573
28.740681 21.830237 8.595655
28.391642 26.393654 51.954833
28.543155 24.412744 35.515931
28.530874 24.573298 37.803558
28.769569 21.452551 4.007078
28.342647 27.034230 56.652161
28.756568 21.622521 41.060703
28.780265 21.312701 11.281418
28.839927 20.532675 36.862098
28.422363 25.991998 43.994297
28.635823 23.201179 36.486404
28.555872 24.246472 19.062904
28.586493 23.846132 6.187394
28.339023 27.081612 28.826346
28.403045 26.244572 25.587555
28.566033 24.113624 36.945213
28.276143 27.903718 38.987837
28.639783 23.149403 54.618469
28.788460 21.205563 7.704170
28.805281 20.985642 25.248650
28.668027 22.780128 5.318572
28.380902 26.534081 17.638188
28.311712 27.438683 30.430884
28.743856 21.788730 53.830054
28.305163 27.524308 0.444652
28.447257 25.666536 9.931086
28.311498 27.441474 63.246072
28.512210 24.817320 5.971496
28.346183 26.987996 46.433350
28.504516 24.917911 3.865451
28.294678 27.661389 35.783996
28.311487 27.441627 35.690154
28.549302 24.332374 43.578309
28.501434 24.958213 15.530302
28.384602 26.485698 40.589643
28.547300 24.358548 51.709730
28.429038 25.904738 11.613706
28.663647 22.837395 50.795140
28.621865 23.383663 1.823888
28.405652 26.210481 14.973140
28.376117 26.596641 10.347704
28.878224 20.031968 56.863198
28.470437 25.363472 47.010905
28.831204 20.646711 61.830333
28.740723 21.829690 63.890468
28.589025 23.813022 40.701536
28.431887 25.867479 14.679687
28.422291 25.992940 26.348811
28.632263 23.247722 45.186088
28.308325 27.482969 16.185802
28.385131 26.478788 35.967136
28.683546 22.577234 51.976299
28.859622 20.275166 47.319276
28.367601 26.707971 38.584950
28.742633 21.804720 26.086884
28.741836 21.815130 55.594846
28.275563 27.911299 41.380229
28.822248 20.763811 54.572556
28.533286 24.541769 26.979168
28.625893 23.331000 20.062041
28.461847 25.475775 40.772682
28.577986 23.957356 3.572116
28.393501 26.369354 19.112658
28.503982 24.924901 60.429100
28.808503 20.943511 41.582816
28.293330 27.679018 10.684233
28.593081 23.759997 45.673285
28.543224 24.411837 -0.580857
28.588157 23.824378 63.918228
28.432352 25.861399 34.939638
28.727319 22.004931 19.501189
28.500292 24.973146 38.256353
28.465200 25.431938 16.997848
28.429009 25.905109 26.543244
28.726431 22.016538 63.219919
28.834189 20.607686 0.083702
28.476659 25.282122 53.223684
28.839486 20.538430 38.478118
28.877158 20.045901 12.258116
28.292944 27.684053 58.822520
28.495178 25.040006 20.102317
28.493318 25.064315 18.277852
28.692092 22.465503 28.921855
28.698206 22.385564 52.608053
28.575926 23.984285 36.015191
28.467964 25.395803 4.810062
28.556130 24.243105 39.077470
28.789706 21.189267 46.999131
28.658179 22.908883 25.421501
28.342672 27.033897 24.656614
28.877213 20.045181 8.784898
28.475415 25.298392 22.680931
28.346915 26.978430 39.141112
28.882380 19.977633 16.682170
28.681215 22.607715 58.909762
28.411531 26.133621 10.519570
28.581953 23.905484 26.443804
28.798767 21.070803 -0.321044
28.695633 22.419201 38.831326
28.801037 21.041122 27.476921
28.729431 21.977324 4.113546
28.761047 21.563967 55.084735
28.740332 21.834799 4.329065
28.356296 26.855774 61.125829
28.704477 22.303581 21.073914
28.772388 21.415694 20.766718
28.402917 26.246246 50.869335
28.539448 24.461199 0.834855
28.566927 24.101944 31.651596
28.770669 21.438163 10.523849
28.559415 24.200155 20.885573
28.732514 21.937014 32.473087
28.289710 27.726337 53.962123
28.663936 22.833623 51.281069
28.865339 20.200426 32.989714
28.633931 23.225917 47.713287
28.684005 22.571233 45.844164
28.545942 24.376306 5.580735
28.825263 20.724391 22.247635
28.726050 22.021521 2.233624
28.518383 24.736609 25.695085
28.573629 24.014317 51.900686
28.781013 21.302929 0.260963
28.487956 25.134425 -0.539256
28.708364 22.252759 54.978964
28.480470 25.232303 55.887257
28.657775 22.914173 9.439054
28.802431 21.022899 1.426794
28.483399 25.194006 37.115547
28.460629 25.491710 53.441155
28.367659 26.707220 47.112230
28.877242 20.044802 47.713976
28.562959 24.153816 29.906838
28.888600 19.896303 37.472569
28.454733 25.568787 10.161345
28.492696 25.072449 8.077489
28.772507 21.414129 61.667526
28.554015 24.270748 52.713955
28.488385 25.128819 4.806234
28.748631 21.726296 13.846987
28.770951 21.434481 22.597596
28.684372 22.566434 41.714716
28.374906 26.612462 0.308169
28.480642 25.230047 8.673386
28.878848 20.023803 62.821222
28.780358 21.311493 17.289335
28.448419 25.651336 33.303425
28.276876 27.894130 9.057007
28.557948 24.219330 41.503395
28.547930 24.350309 0.347127
28.606166 23.588915 17.249843
28.354271 26.882253 38.899182
28.616742 23.450643 43.220741
28.448667 25.648098 61.894611
28.842509 20.498916 41.892035
28.476639 25.282390 44.437652
28.524225 24.660229 14.780475
28.585702 23.856463 24.220688
28.684316 22.567165 24.010106
28.724163 22.046196 18.918390
28.466219 25.418618 7.903602
28.702655 22.327391 21.424582
28.830563 20.655097 55.518718
28.411642 26.132171 0.892224
28.370118 26.675070 41.739945
28.354073 26.884838 43.530106
28.571411 24.043316 16.577638
28.400842 26.273376 43.611993
28.730880 21.958372 41.770738
28.584763 23.868752 57.600665
28.851954 20.375422 7.791685
28.891134 19.863180 44.888543
28.533260 24.542107 53.022039
28.587493 23.833052 40.480293
28.301858 27.567516 8.140677
28.348657 26.955655 48.391130
28.279223 27.863453 6.289962
28.408122 26.178189 43.975182
28.505535 24.904598 54.520617
28.697285 22.397602 57.450733
28.513520 24.800189 41.063171
28.614558 23.479195 35.305771
28.790830 21.174580 42.683092
28.861587 20.249482 17.807959
28.549848 24.325233 4.336238
28.322003 27.304137 32.549659
28.684833 22.560401 6.227565
28.713568 22.184715 51.897324
28.430961 25.879587 22.824111
28.687855 22.520896 14.128344
28.388856 26.430076 33.562793
28.501939 24.951604 9.753077
28.414932 26.089160 51.000622
28.279986 27.853477 2.259309
28.884143 19.954577 49.880990
28.372134 26.648706 60.925501
28.470727 25.359681 58.526884
28.291652 27.700948 3.138935
28.596198 23.719239 42.814919
28.692604 22.458807 38.240914
28.770484 21.440585 57.391732
28.495685 25.033368 4.072120
28.747220 21.744745 15.083658
28.487709 25.137650 22.104576
28.554549 24.263768 10.025522
28.658119 22.909670 60.338978
28.338616 27.086938 34.231392
28.353035 26.898414 11.631358
28.848956 20.414625 1.957396
28.896354 19.794924 24.559156
28.326065 27.251025 22.032477
28.689627 22.497723 37.561999
28.365105 26.740613 16.618887
28.804081 21.001333 23.185684
28.674363 22.697288 51.110124
28.508727 24.862858 35.485950
28.460700 25.490773 29.916427
28.665487 22.813343 9.212989
28.847214 20.437398 11.076366
28.391273 26.398487 57.764129
28.892632 19.843588 51.676403
28.441390 25.743239 53.130528
28.869730 20.143016 9.119618
28.657346 22.919782 47.533216
28.394887 26.351229 6.976765
28.796885 21.095405 50.629932
28.789724 21.189035 16.534209
28.381203 26.530145 51.509641
28.733771 21.920579 52.656100
28.428114 25.916820 18.086987
28.729571 21.975486 11.781514
28.882373 19.977716 3.768756
28.612828 23.501817 31.293975
28.752906 21.670408 36.831810
28.627726 23.307031 22.784747
28.670796 22.743930 32.060297
28.401906 26.259470 11.768407
28.774902 21.382818 59.460102
28.511890 24.821500 41.353856
28.323860 27.279858 1.615085
28.518692 24.732569 12.301149
28.623073 23.367866 38.229749
28.534783 24.522201 40.781632
28.307339 27.495852 2.004008
28.666011 22.806485 59.428110
28.462252 25.470487 17.781452
28.550292 24.319431 8.091745
28.735818 21.893818 39.512699
28.498036 25.002640 32.630589
28.634086 23.223879 46.873681
28.792913 21.147345 61.376033
28.686734 22.535546 40.299980
28.319126 27.341752 23.774863
28.655069 22.949546 38.952358
28.697893 22.389655 50.616958
28.774986 21.381721 -0.681185
28.444360 25.704416 37.226889
28.667732 22.783985 31.748751
28.374463 26.618256 7.643255
28.858166 20.294208 28.755984
28.365346 26.737461 10.610925
28.274647 27.923273 35.897475
28.728030 21.995632 25.656672
28.694316 22.436421 36.658448
28.620909 23.396163 24.132921
28.687548 22.524914 38.629694
28.841760 20.508704 36.001337
28.694616 22.432504 5.072284
28.835026 20.596741 40.206740
28.319574 27.335896 30.985909
28.854082 20.347605 12.210213
28.732902 21.931939 17.524612
28.297136 27.629246 37.013256
28.291859 27.698239 21.819849
28.590269 23.796762 2.708690
28.636526 23.191988 51.868441
28.555432 24.252229 8.622430
28.489774 25.110656 35.808270
28.490199 25.105101 52.790238
28.776183 21.366075 20.037623
28.729854 21.971791 0.321012
28.862636 20.235762 52.015769
28.764887 21.513756 17.907323
28.521722 24.692953 32.107420
28.682627 22.589251 1.926226
28.592936 23.761890 58.199699
28.875595 20.066333 32.282199
28.832886 20.624729 4.056864
28.889512 19.884380 39.682435
28.706938 22.271402 47.820302
28.740407 21.833819 27.441651
28.380331 26.541542 19.658884
28.297346 27.626510 36.238559
28.527213 24.621164 59.707639
28.323413 27.285694 51.715626
28.506956 24.886016 63.774142
28.730967 21.957242 1.168037
28.567220 24.098104 57.963322
28.865783 20.194628 17.085909
28.762716 21.542150 54.613469
28.368946 26.690388 6.621321
28.611895 23.514017 49.268316
28.755798 21.632593 26.767612
28.684640 22.562927 13.531761
28.637502 23.179222 39.055238
28.806481 20.969956 5.042409
28.599932 23.670423 19.700580
28.365179 26.739640 50.558888
28.687262 22.528647 23.787458
28.895542 19.805543 5.156280
28.367024 26.715524 38.793586
28.444451 25.703218 62.707126
28.509817 24.848603 18.785321
28.669230 22.764402 25.239315
28.894652 19.817183 29.029053
28.623972 23.356118 3.835431
28.816892 20.833837 28.104005
28.625167 23.340491 57.360908
28.572381 24.030635 49.048122
28.519126 24.726902 54.941457
28.324212 27.275250 24.882037
28.821798 20.769694 5.187939
28.771650 21.425343 58.384679
28.350043 26.937528 16.604255
28.611783 23.515482 24.645243
28.859056 20.282572 22.431462
28.275832 27.907779 36.391172
28.540970 24.441300 8.427964
28.779474 21.323045 47.964753
28.818652 20.810829 30.461818
28.628690 23.294432 32.346065
28.313066 27.420984 1.088918
28.842725 20.496094 31.039726
28.638092 23.171514 16.702768
28.811611 20.902875 53.656505
28.407696 26.183769 42.182640
28.841722 20.509207 57.308080
28.811305 20.906876 31.150130
28.607545 23.570891 63.154149
28.622906 23.370058 38.641791
28.437480 25.794363 62.269795
28.388261 26.437864 62.800422
28.810758 20.914027 0.721800
28.691824 22.469010 40.102050
28.724815 22.037671 57.609776
28.519713 24.719229 36.548738
28.439393 25.769351 -0.677467
28.856276 20.318925 18.085312
28.336627 27.112931 32.570036
28.294393 27.665117 23.785969
28.604527 23.610345 48.061713
28.684846 22.560240 62.239215
28.895309 19.808586 57.437208
28.296716 27.634746 12.254946
28.781413 21.297696 15.248627
28.566652 24.105533 49.562856
28.774835 21.383697 44.677195
28.645912 23.069273 14.602579
28.741890 21.814428 47.340442
28.347397 26.972130 8.243637
28.759793 21.580368 1.189044
28.813677 20.875867 5.466556
28.511252 24.829851 27.512955
28.702002 22.335935 12.719594
28.568340 24.083462 18.574549
28.836164 20.581868 38.253147
28.352788 26.901640 59.030226
28.710470 22.225228 14.457225
28.529164 24.595656 32.580533
28.291928 27.697341 52.568148
28.579380 23.939124 14.803890
28.721585 22.079904 36.759881
28.574484 24.003141 19.572972
28.485938 25.160808 27.660965
28.674310 22.697989 55.903688
28.879656 20.013242 51.809267
28.830566 20.655057 45.702405
28.653110 22.975166 30.754660
28.400208 26.281662 39.129867
28.337730 27.098522 52.789024
28.784791 21.253535 27.520654
28.433923 25.840862 21.191760
28.785183 21.248409 50.237042
28.532734 24.548985 7.278822
28.665164 22.817566 14.405280
28.383814 26.496002 54.896064
28.813283 20.881014 57.078174
28.714809 22.168497 33.606973
28.586527 23.845680 62.865203
28.343178 27.027289 53.545386
28.491799 25.084184 44.511236
28.834336 20.605769 22.826521
28.770513 21.440204 -0.312716
28.455565 25.557915 35.815900
28.581582 23.910333 31.720635
28.542771 24.417764 16.644516
28.693880 22.442127 12.986179
28.504046 24.924054 49.848674
28.313979 27.409043 4.480943
28.596788 23.711532 3.236316
28.550952 24.310800 57.915714
28.285374 27.783026 12.129692
28.781356 21.298445 17.506479
28.536924 24.494199 60.287686
28.435388 25.821706 17.692823
28.609776 23.541720 20.128228
28.426913 25.932518 53.477239
28.549266 24.332846 28.901427
28.482370 25.207456 35.393310
28.832403 20.631038 39.284382
28.792564 21.151901 14.211658
28.762405 21.546218 41.446237
28.759136 21.588950 17.092631
28.894246 19.822489 8.766971
28.892166 19.849681 24.276359
28.877807 20.037418 1.609719
28.666813 22.796006 16.909216
28.637918 23.173782 28.278300
28.293649 27.674838 1.781129
28.613881 23.488051 45.887125
28.304981 27.526690 2.791290
28.330911 27.187668 16.910180
28.497537 25.009164 2.349428
28.713589 22.184449 49.312376
28.861645 20.248718 34.015134
28.448142 25.654957 54.234276
28.299457 27.598908 35.321215
28.461345 25.482341 48.473130
28.347700 26.968166 39.914063
28.728667 21.987305 53.542489
28.757241 21.613731 10.604937
28.327322 27.234595 7.688146
28.348204 26.961577 55.128285
28.499410 24.984673 14.070578
28.427576 25.923846 10.384908
28.784308 21.259843 27.993744
28.808081 20.949028 5.287489
28.792507 21.152644 4.333686
28.735349 21.899942 61.465024
28.737466 21.872269 40.106047
28.447720 25.660484 -0.064626
28.532827 24.547770 24.264654
28.522789 24.679012 25.125845
28.408878 26.168316 54.677322
28.764315 21.521245 34.563697
28.848101 20.425807 10.654656
28.297845 27.619981 35.518538
28.276241 27.902435 8.361370
28.327566 27.231401 22.647636
28.395318 26.345592 17.695509
28.594660 23.739351 20.022760
28.660640 22.876711 41.448725
28.362912 26.769277 17.362707
28.405248 26.215773 42.620664
28.307971 27.487596 53.869650
28.882831 19.971731 41.030917
28.816885 20.833929 8.981489
28.594825 23.737194 45.112811
28.772914 21.408810 28.247349
28.722646 22.066029 9.838225
28.335372 27.129347 42.967142
28.716120 22.151359 49.513348
28.895945 19.800281 36.170506
28.657734 22.914699 28.737341
28.475700 25.294666 39.790412
28.713291 22.188336 46.073875
28.389260 26.424796 9.621782
28.848719 20.417724 39.207620
28.302187 27.563213 10.450599
28.275995 27.905657 52.580025
28.420583 26.015279 55.618662
28.433072 25.851986 42.453674
28.693925 22.441538 16.092983
28.623075 23.367841 53.166713
28.656609 22.929413 -0.512247
28.664194 22.830245 53.237139
28.751007 21.695230 50.360225
28.686335 22.540766 11.084330
28.294420 27.664761 53.732786
28.736814 21.880788 44.647055
28.412813 26.116860 1.399568
28.517869 24.743328 4.495569
28.627555 23.309273 3.581127
28.358710 26.824221 44.715857
28.706187 22.281219 27.226607
28.552261 24.293680 55.086109
28.841498 20.512127 37.095760
28.534283 24.528737 20.258341
28.829480 20.669260 29.808466
28.631032 23.263820 15.015138
28.375517 26.604479 4.464674
28.856483 20.316215 40.439264
28.495682 25.033411 53.447675
28.417783 26.051886 56.367029
28.477017 25.277439 35.153206
28.414436 26.095645 54.875739
28.479603 25.243635 48.201937
28.343560 27.022292 45.545377
28.350552 26.930883 6.205262
28.889913 19.879135 12.125398
28.276112 27.904125 44.654160
28.893752 19.828944 41.420873
28.448302 25.652866 18.779963
28.787821 21.213914 21.862776
28.852036 20.374352 4.476443
28.550055 24.322532 0.540165
28.299469 27.598752 43.249559
28.309964 27.461531 12.737301
28.735621 21.896396 37.235351
28.387047 26.453730 54.450650
28.750027 21.708044 27.794602
28.320342 27.325855 26.201937
28.744365 21.782067 20.588842
28.467829 25.397564 9.194455
28.818114 20.817861 38.892327
28.417951 26.049685 32.431962
28.757692 21.607825 32.138415
28.657672 22.915517 2.063167
28.279729 27.856829 32.149979
28.598616 23.687627 56.487897
28.346995 26.977382 3.650596
28.308985 27.474337 15.898644
28.758626 21.595614 42.516875
28.794924 21.121046 16.206513
28.646735 23.058503 31.552154
28.382044 26.519147 3.231621
28.492605 25.073636 1.214430
28.462362 25.469050 20.634402
28.599400 23.677372 58.043782
28.653633 22.968326 44.764830
28.615247 23.470197 27.332639
28.330563 27.192225 1.437508
28.744495 21.780370 23.945456
28.476048 25.290107 36.918472
28.356440 26.853896 58.301259
28.605319 23.599993 55.268920
28.378792 26.561663 19.060533
28.301859 27.567504 31.037348
28.680129 22.621902 11.921109
28.687218 22.529221 0.708095
28.598119 23.694127 28.808681
28.778954 21.329839 50.610633
28.686211 22.542388 45.534279
28.665359 22.815017 23.313724
28.317379 27.364592 4.267878
28.715936 22.153756 14.092444
28.503877 24.926265 4.442013
28.376615 26.590120 55.572588
28.893410 19.833426 58.203988
28.878388 20.029821 60.796381
28.296711 27.634806 35.130737
28.651825 22.991966 53.303265
28.624480 23.349483 40.551606
28.564284 24.136494 7.310542
28.735497 21.898010 39.328023
28.646457 23.062140 8.265830
28.314825 27.397976 44.791960
28.728213 21.993246 34.543926
28.654962 22.950947 40.157963
28.279391 27.861254 0.159387
28.311824 27.437220 39.459922
28.596066 23.720968 25.760783
28.393399 26.370692 42.122742
28.388342 26.436802 43.475370
28.367008 26.715724 59.671828
28.274600 27.923890 11.741026
28.548437 24.343685 13.157939
28.851135 20.386135 62.045834
28.617575 23.439753 42.167522
28.749716 21.712114 1.769428
28.553267 24.280531 33.597914
28.275054 27.917955 31.890118
28.276077 27.904581 1.561008
28.866707 20.182535 2.892048
28.670392 22.749214 56.871973
28.305750 27.516624 47.165434
28.756062 21.629143 35.245745
28.450671 25.621903 20.420127
28.888195 19.901606 13.879980
28.544305 24.397710 35.702004
28.865631 20.196613 30.782739
28.674466 22.695947 18.761209
28.852472 20.368648 34.917998
28.896118 19.798013 63.559684
28.464343 25.443142 44.606295
28.400961 26.271819 -0.015916
28.809308 20.932992 3.108133
28.622145 23.380003 10.926124
28.468698 25.386203 12.620587
28.640107 23.145160 36.705857
28.770134 21.445161 0.634136
28.547552 24.355250 52.171397
28.727700 21.999958 53.746780
28.564144 24.138327 21.482785
28.710376 22.226457 45.431921
28.621140 23.393147 29.225114
28.670202 22.751702 21.861767
28.325824 27.254182 61.713885
28.427889 25.919759 30.987616
28.541849 24.429816 46.519833
28.753676 21.660333 63.774438
28.877237 20.044876 29.034694
28.860454 20.264298 60.801225
28.794578 21.125569 3.029497
28.409344 26.162223 27.136156
28.758903 21.591994 39.439864
28.691856 22.468590 58.099958
28.690090 22.491678 3.596775
28.689367 22.501128 32.271840
28.323243 27.287918 18.409099
28.471873 25.344700 63.700330
28.482719 25.202892 19.979700
28.476644 25.282322 0.438898
28.728499 21.989510 53.046419
28.278847 27.868372 62.499114
28.404266 26.228610 27.570596
28.544381 24.396714 58.830995
28.472384 25.338019 50.340350
28.730313 21.965792 36.553769
28.604412 23.611852 16.952216
28.846524 20.446424 36.349877
28.411266 26.137088 12.211035
28.698452 22.382348 50.258041
28.328308 27.221708 9.705812
28.454088 25.577225 30.634204
28.380066 26.545011 27.568551
28.586073 23.851618 61.696271
28.688876 22.507543 52.367899
28.449537 25.636724 49.563831
28.360512 26.800660 24.677237
28.575815 23.985738 60.265807
28.293146 27.681422 36.418902
28.643307 23.103325 37.446569
28.707120 22.269015 12.520059
28.476061 25.289947 42.642175
28.879964 20.009211 32.033600
28.779870 21.317867 35.219972
28.769384 21.454963 8.273883
28.727266 22.005623 21.071432
28.883226 19.966566 49.236695
28.821098 20.778848 42.755084
28.280448 27.847433 55.027174
28.877122 20.046371 2.542954
28.543975 24.402015 53.427020
28.520883 24.703923 46.318992
28.334708 27.138028 9.319762
28.629697 23.281264 14.238181
28.738030 21.864898 36.879971
28.368352 26.698160 63.452363
28.763039 21.537923 20.338829
28.895237 19.809532 6.819800
28.638312 23.168633 42.820421
28.680706 22.614359 36.212862
28.778412 21.336925 48.979208
28.728479 21.989761 9.678013
28.522122 24.687731 63.374745
28.731763 21.946836 53.919520
28.378797 26.561600 35.748662
28.638554 23.165471 44.706345
28.858641 20.287999 7.580775
28.275037 27.918186 61.801255
28.791782 21.162125 34.825806
28.390697 26.406008 15.544374
28.481219 25.222508 18.679706
28.274633 27.923464 56.544811
28.729862 21.971681 42.198460
28.819311 20.802206 0.153106
28.328521 27.218923 52.639148
28.617517 23.440518 16.084950
28.691494 22.473323 53.311457
28.327316 27.234671 23.056606
28.527539 24.616908 45.602227
28.430685 25.883194 57.008490
28.590450 23.794388 37.154463
28.861939 20.244885 42.810822
28.628756 23.293574 36.251229
28.543406 24.409451 18.463309
28.447791 25.659546 26.906748
28.373323 26.633171 44.801537
28.721078 22.086532 63.015107
28.660173 22.882818 58.235695
28.374722 26.614875 8.072272
28.735172 21.902267 3.898607
28.851185 20.385477 48.550529
28.392854 26.377809 10.360230
28.769164 21.457839 47.313065
28.345368 26.998658 7.686255
28.726419 22.016699 34.902605
28.501237 24.960781 21.991633
28.647829 23.044200 16.550820
28.871198 20.123826 57.530273
28.806113 20.974759 12.263002
28.821727 20.770617 16.865252
28.392991 26.376016 0.295174
28.328997 27.212699 53.465293
28.516316 24.763641 23.310690
28.324906 27.266178 37.193098
28.677369 22.657992 6.827210
28.682952 22.584995 43.466617
28.794910 21.121239 21.498806
28.781560 21.295769 62.066580
28.291888 27.697868 13.404872
28.853592 20.354013 46.674224
28.563304 24.149311 21.707865
28.556506 24.238182 7.461785
28.410662 26.144991 19.206608
28.870922 20.127435 25.244638
28.529550 24.590616 43.049903
28.553119 24.282465 54.327017
28.491789 25.084311 56.889749
28.813438 20.878989 10.485028
28.552959 24.284554 48.328194
28.748668 21.725817 0.543977
28.464780 25.437437 4.206366
28.297798 27.620599 26.897313
28.660790 22.874752 63.687235
28.338322 27.090772 63.615877
28.327083 27.237722 13.935781
28.781988 21.290175 2.844736
28.613809 23.488994 32.365915
28.281058 27.839462 12.647188
28.558589 24.210954 54.499143
28.485588 25.165386 26.550289
28.861220 20.254282 41.487001
28.611090 23.524547 12.545640
28.623011 23.368682 8.531984
28.727868 21.997751 12.215014
28.891371 19.860083 3.073864
28.476818 25.280042 -0.172896
28.475295 25.299956 61.664352
28.818507 20.812723 22.427002
28.308454 27.481277 11.348701
28.283168 27.811869 13.083921
28.861740 20.247478 33.596970
28.438360 25.782860 15.666150
28.387927 26.442226 34.175794
28.672990 22.715249 44.663405
28.276567 27.898171 19.640850
28.875189 20.071641 20.914348
28.573359 24.017844 55.953747
28.539702 24.457879 18.967175
28.615862 23.462149 3.279729
28.297242 27.627863 0.065633
28.685698 22.549100 58.479179
28.776304 21.364493 28.643892
28.656735 22.927761 0.534752
28.320776 27.320182 16.701434
28.729535 21.975961 59.323508
28.537126 24.491566 30.063241
28.334176 27.144979 13.457801
28.432070 25.865089 61.897737
28.545032 24.388202 30.706859
28.411777 26.130409 62.826739
28.676252 22.672599 41.315830
28.751500 21.688784 19.860630
28.484350 25.181569 34.400504
28.432726 25.856519 31.317847
28.464997 25.434591 31.537716
28.692647 22.458243 1.690415
28.444296 25.705242 -0.336230
28.780346 21.311642 61.513303
28.297761 27.621075 18.248532
28.332114 27.171943 13.054410
28.414089 26.100179 40.570871
28.402294 26.254389 35.890518
28.418921 26.037002 16.902138
28.745119 21.772216 4.078991
28.695786 22.417200 0.040873
28.646205 23.065443 31.173851
28.525076 24.649103 40.582607
28.316926 27.370512 58.861816
28.697968 22.388674 19.575415
28.521879 24.690906 63.751229
28.608440 23.559192 0.223122
28.433807 25.842381 43.823053
28.420168 26.020697 4.503078
28.485213 25.170282 49.486287
28.799979 21.054957 18.682104
28.683769 22.574313 37.848378
28.441383 25.743326 30.836996
28.301530 27.571805 39.687136
28.299718 27.595489 42.915618
28.527315 24.619836 8.305514
28.407955 26.180374 26.820178
28.402341 26.253771 38.628027
28.690611 22.484870 8.163856
28.404795 26.221695 49.756076
28.833545 20.616111 15.883153
28.641646 23.125038 -0.590190
28.508664 24.863689 20.369938
28.863375 20.226109 56.047089
28.824577 20.733359 7.234015
28.353775 26.888733 52.325950
28.294729 27.660727 4.094322
28.791379 21.167403 54.931010
28.671748 22.731484 52.261170
28.469733 25.372672 45.666262
28.888171 19.901909 7.025820
28.492656 25.072973 59.041218
28.806186 20.973806 2.480707
28.275537 27.911649 15.602773
28.675613 22.680954 1.031564
28.502792 24.940454 16.412966
28.730000 21.969886 34.064500
28.599538 23.675572 40.330271
28.513433 24.801331 35.054147
28.490055 25.106978 62.327680
28.348993 26.951263 62.764170
28.575796 23.985983 52.606281
28.389768 26.418157 10.755626
28.815179 20.856227 44.595988
28.809650 20.928522 52.226443
28.784285 21.260147 26.776996
28.678580 22.642161 12.925694
28.864458 20.211948 47.894396
28.788106 21.210187 28.204340
28.642249 23.117157 27.184071
28.848191 20.424620 55.865924
28.672883 22.716645 50.384225
28.451220 25.614724 22.984663
28.539353 24.462452 23.852916
28.282314 27.823034 14.972144
28.621130 23.393279 60.007301
28.637780 23.175593 26.520475
28.527636 24.615635 41.902799
28.303650 27.544082 5.858851
28.705112 22.295275 16.403304
28.856884 20.310975 27.645564
28.515888 24.769238 14.510563
28.279883 27.854826 60.665125
28.509364 24.854527 36.778270
28.431581 25.871480 24.749852
28.872069 20.112434 37.791005
28.458164 25.523934 30.388633
28.691543 22.472681 28.566002
28.791295 21.168496 43.020160
28.800363 21.049937 28.393242
28.895934 19.800414 64.215149
28.781770 21.293033 24.930219
28.720942 22.088302 -0.349542
28.397644 26.315183 23.467439
28.306688 27.504364 36.102989
28.618807 23.423644 53.777293
28.591416 23.781759 59.296400
28.329413 27.207252 54.095700
28.866471 20.185628 27.311557
28.681818 22.599829 63.722340
28.291118 27.707933 51.643660
28.597391 23.703646 14.471482
28.830796 20.652046 11.038252
28.628784 23.293204 63.714165
28.805300 20.985393 9.174057
28.334937 27.135034 15.492048
28.314345 27.404262 56.323518
28.303877 27.541121 55.825834
28.483954 25.186747 38.080256
28.464457 25.441651 32.734550
28.838642 20.549470 62.441984
28.613620 23.491464 47.703433
28.379578 26.551383 23.254151
28.715989 22.153066 3.325921
28.713520 22.185341 58.281924
28.396311 26.332613 1.860245
28.844416 20.473977 64.109704
28.450567 25.623252 45.923893
28.612949 23.500231 42.850731
28.501793 24.953519 13.184264
28.719546 22.106560 12.956339
28.490577 25.100151 42.464387
28.829490 20.669121 23.293910
28.390728 26.405606 11.378865
28.357988 26.833661 46.794348
28.698880 22.376746 47.999503
28.276316 27.901453 62.302877
28.803922 21.003404 58.583024
28.821445 20.774313 25.152931
28.495547 25.035180 32.270460
28.810979 20.911142 20.171683
28.564122 24.138607 30.369606
28.584385 23.873686 3.040231
28.663197 22.843285 15.575898
28.585297 23.861764 44.642130
28.687254 22.528757 54.883692
28.425975 25.944777 62.692424
28.665697 22.810599 47.713657
28.394077 26.361825 20.478162
28.578106 23.955776 8.293756
28.721641 22.079167 40.155838
28.765557 21.505005 9.036298
28.871565 20.119030 60.472028
28.411570 26.133109 4.800503
28.318748 27.346689 21.221856
28.711566 22.210889 10.015180
28.876644 20.052626 22.258000
28.586863 23.841292 51.177379
28.488706 25.124623 25.213290
28.889872 19.879679 30.072588
28.797234 21.090848 39.143955
28.312607 27.426978 60.447260
28.335455 27.128266 5.804788
28.389352 26.423602 35.217768
28.429665 25.896541 1.658905
28.639123 23.158032 27.997460
28.407787 26.182573 10.985763
28.713527 22.185254 -0.536483
28.691512 22.473081 30.686433
28.516019 24.767518 56.526901
28.577431 23.964601 29.856490
28.896368 19.794747 19.035371
28.494571 25.047935 59.676841
28.661467 22.865902 26.439587
28.340906 27.056998 22.904854
28.780706 21.306933 2.208097
28.591659 23.778591 14.222306
28.849706 20.404815 53.219341
28.301279 27.575080 28.111947
28.668533 22.773522 18.331466
28.321026 27.316902 16.433269
28.856452 20.316622 29.623251
28.493802 25.057996 60.070714
28.342779 27.032504 48.206777
28.701204 22.346374 15.777032
28.685327 22.553948 45.004466
28.402876 26.246784 33.380232
28.568200 24.085288 0.145789
28.598658 23.687084 39.080909
28.288914 27.736742 57.173627
28.419699 26.026835 10.068798
28.539041 24.466524 62.809856
28.535997 24.506322 38.135459
28.891067 19.864048 29.663841
28.401214 26.268512 12.733290
28.646247 23.064886 35.847795
28.829209 20.672798 14.445619
28.447475 25.663688 1.344547
28.791311 21.168289 13.325350
28.873524 20.093410 52.333754
28.609741 23.542175 17.450751
28.679193 22.634146 48.047847
28.875590 20.066399 12.768222
28.445417 25.690587 54.739381
28.687817 22.521391 41.907811
28.386615 26.459387 19.308537
28.767392 21.481010 0.980928
28.542986 24.414952 4.989971
28.295136 27.655406 6.013894
28.736514 21.884713 60.655811
28.802600 21.020689 52.902522
28.437763 25.790657 48.106168
28.354738 26.876149 59.570470
28.805615 20.981271 17.052756
28.350626 26.929906 63.303271
28.514606 24.785991 10.529384
28.601005 23.656389 9.760206
28.509376 24.854372 28.508486
28.392158 26.386910 14.826552
28.502773 24.940708 11.252910
28.351024 26.924703 13.194818
28.391056 26.401314 29.358611
28.860395 20.265063 55.285744
28.464612 25.439633 35.617889
28.442944 25.722921 31.788625
28.759847 21.579653 64.199686
28.399940 26.285163 32.772819
28.894697 19.816589 63.838483
28.295271 27.653636 63.198674
28.870903 20.127685 37.136584
28.529975 24.585055 2.593150
28.856559 20.315223 12.018045
28.729302 21.979008 51.842427
28.345649 26.994987 1.869006
28.570419 24.056287 43.362416
28.360686 26.798389 49.333470
28.281165 27.838059 26.479832
28.617487 23.440902 42.392370
28.727657 22.000521 42.396478
28.599831 23.671738 9.215211
28.354300 26.881882 29.434057
28.759686 21.581758 28.086512
28.645331 23.076871 22.502151
28.734332 21.913243 62.405491
28.648723 23.032519 48.402998
28.693373 22.448751 9.651448
28.537308 24.489187 40.201249
28.584330 23.874404 23.674315
28.474803 25.306395 59.109682
28.875661 20.065475 8.423795
28.420645 26.014467 11.393618
28.773695 21.398608 50.040249
28.839365 20.540015 25.795366
28.340157 27.066790 47.845039
28.477798 25.267230 62.010868
28.434134 25.838104 36.000194
28.710091 22.230174 31.761621
28.610673 23.529989 22.952630
28.636523 23.192024 3.743406
28.281621 27.832096 45.967881
28.535789 24.509039 9.974041
28.677291 22.659008 30.587907
28.748517 21.727786 54.396016
28.497604 25.008280 15.357165
28.331336 27.182117 13.227657
28.376089 26.596998 22.880440
28.848560 20.419802 29.054750
28.760572 21.570176 52.023529
28.440053 25.760715 29.663644
28.710461 22.225334 62.854451
28.366265 26.725440 5.032197
28.864109 20.216505 3.857967
28.895886 19.801050 10.768371
28.797124 21.092285 1.150367
28.811518 20.904089 49.999981
28.834314 20.606056 16.728442
28.342891 27.031042 42.788107
28.526941 24.624724 16.962960
28.470037 25.368698 58.927148
28.504659 24.916044 63.964590
28.651334 22.998385 50.948307
28.406750 26.196137 15.232294
28.476803 25.280238 31.791717
28.633203 23.235432 58.455426
28.737140 21.876530 1.664657
28.472531 25.336093 10.983368
28.821856 20.768932 17.621241
28.317376 27.364634 35.437700
28.397345 26.319098 18.229543
28.771952 21.421388 55.845966
28.481315 25.221250 3.813974
28.731863 21.945521 42.988766
28.417798 26.051682 30.800384
28.663028 22.845492 8.508440
28.475703 25.294618 21.892575
28.487452 25.141016 0.291036
28.499687 24.981053 26.555555
28.871767 20.116391 -0.189683
28.560720 24.183089 60.965734
28.752045 21.681655 43.065908
28.524172 24.660929 42.859996
28.772080 21.419719 38.951241
28.787584 21.217011 22.691720
28.428025 25.917980 62.881551
28.821628 20.771918 61.355096
28.307682 27.491370 10.915315
28.560509 24.185853 62.875434
28.777415 21.349968 10.115602
28.844486 20.473068 17.919840
28.630785 23.267048 12.830144
28.714182 22.176684 48.978493
28.412857 26.116283 61.101392
28.519787 24.718260 52.385026
28.773396 21.402507 24.675916
28.742554 21.805750 57.985431
28.662394 22.853782 41.049945
28.359637 26.812099 5.959346
28.325930 27.252790 46.217447
28.525410 24.644744 51.104298
28.314475 27.402559 62.101977
28.402092 26.257037 36.844712
28.869521 20.145750 46.103146
28.855306 20.331604 49.441854
28.810485 20.917606 16.712851
28.847379 20.435235 54.042040
