0.985439 -0.170012 0.711738
0.982751 -0.184907 -0.138986
-0.591806 0.806076 0.364668
0.310984 -0.950411 -0.042524
-0.866546 0.499091 -0.567965
0.765388 0.232769 -0.556068
0.818300 -0.351512 -1.000000
0.434242 0.900791 -0.029973
-0.654141 -0.756366 -0.426593
-0.975130 -0.221613 -0.330060
0.491818 -0.870695 -0.859365
0.239870 0.763188 -0.891948
0.674817 -0.737983 -0.054771
0.431509 -0.673643 0.318740
-0.537745 0.592305 -0.211460
0.620117 -0.505422 0.047907
0.195985 0.980602 -0.015670
-0.344021 -0.722250 0.683423
-0.401939 -0.915664 -0.173265
-0.723889 0.689912 0.408116
0.991758 -0.128086 -0.506396
0.673326 0.432005 -0.158028
0.127494 -0.789772 -0.112763
-0.760371 -0.248659 -0.811183
0.991434 -0.130590 0.911293
-0.279378 -0.749629 0.247495
0.074480 0.796523 -0.024444
-0.880609 -0.473833 -0.757682
-0.338959 0.724639 0.359581
-0.057521 0.998342 0.024695
0.660851 0.450855 -0.496923
0.081237 -0.996694 -0.128534
-0.114889 -0.993374 0.045355
0.772422 -0.635101 0.864856
-0.307730 -0.951470 -0.415237
-0.998066 0.062136 -0.441949
0.841110 -0.540863 -0.457174
0.660419 -0.451487 0.289701
-0.551501 0.579521 0.860365
0.059802 -0.797760 0.945897
0.790223 0.124681 0.734870
-0.353688 0.935358 -0.855583
0.947111 0.320905 0.550837
0.822474 -0.568796 -0.480615
0.497124 -0.867676 0.267076
-0.983404 -0.181424 0.128434
-0.592911 -0.537079 -0.789921
0.237526 0.971378 -0.261281
-0.311936 -0.736676 -0.949635
-0.488585 -0.872512 0.050930
-0.278538 -0.749940 -0.634036
0.798745 0.044765 0.908933
0.977309 0.211817 0.088032
-0.858025 -0.513603 0.448766
0.075134 0.900372 -1.000000
0.194848 -0.980830 0.379502
-0.820280 -0.571960 -0.693695
-0.992144 -0.125098 -0.883178
0.174627 -0.984633 -0.438512
-0.192533 -0.981288 -0.882982
-0.976477 -0.215597 0.418692
-0.775204 0.197619 0.085402
0.642239 0.623802 1.000000
0.953455 -0.301522 -0.641287
-0.769916 -0.217314 -0.648953
-0.654110 -0.460580 -0.721162
0.318924 -0.733677 0.676912
0.772260 0.208840 -0.446520
0.667115 0.683113 1.000000
-0.786414 -0.146792 -0.756791
0.473044 -0.881033 0.089671
0.015205 0.799855 0.010797
-0.999835 0.018060 -0.080293
-0.457369 -0.656362 -0.621188
-0.776239 0.193523 0.416364
-0.394081 0.919070 -0.033054
0.355203 0.934786 0.173090
-0.621335 0.503921 0.837654
-0.242222 0.970220 0.224611
-0.985830 0.167732 -0.293190
0.736954 0.311277 -0.118757
0.101056 0.793590 0.552027
0.770730 0.214409 0.709161
-0.785220 0.153048 0.285866
0.210019 0.977693 0.482513
-0.162564 -0.783305 -0.858823
0.543481 -0.587048 0.931886
0.264029 0.964510 0.046848
0.877522 -0.479527 -0.666282
0.800682 0.599084 -0.350896
-0.584476 0.811405 0.288519
0.867935 0.496669 0.859298
-0.081944 0.803684 -1.000000
0.982295 0.187341 -0.389602
0.754688 0.265411 0.312201
0.760605 -0.247944 -0.147167
-0.925856 0.377865 -0.807638
-0.521565 0.606604 -0.981144
-0.512610 0.858616 -0.179685
-0.774012 0.202237 -0.013780
0.938845 -0.344338 -0.160358
-0.963898 0.266264 -0.282590
-0.999301 -0.037348 -0.474098
0.605910 0.522368 -0.769853
0.783142 0.163351 -0.182066
0.107727 -0.994178 0.945636
-0.335809 -0.941925 0.253123
-0.875749 -0.482761 -0.832508
-0.714393 0.360052 -0.184151
-0.764193 0.236655 0.249122
0.023951 0.994417 -1.000000
-0.645318 0.472820 0.518213
0.268656 -0.753537 -0.700095
-0.732388 -0.321878 0.283869
-0.999640 0.026676 -0.126452
0.610271 0.592733 1.000000
0.707916 0.372629 0.912218
-0.893609 0.446787 1.000000
0.616092 0.510322 0.899636
-0.746983 0.286377 -0.571121
0.299619 0.741773 -0.187635
0.130591 0.991434 0.327565
-0.400083 0.692768 0.042095
-0.438491 0.898732 0.083076
0.523735 0.751286 -1.000000
0.799939 0.009832 0.780422
0.994412 -0.105540 -0.866955
0.945124 0.326711 0.293632
-0.723688 0.690122 0.320517
-0.404932 0.689945 -0.001296
-0.788182 -0.136979 -0.086812
0.842078 -0.539347 0.561633
-0.341731 0.723336 -0.392112
0.054281 0.855219 -1.000000
0.112824 0.993615 -0.425340
-0.066995 -0.797186 -0.783319
0.664586 -0.445336 0.003235
0.583621 -0.547159 0.922217
-0.395460 0.779418 -1.000000
-0.542994 0.587497 -0.818683
0.343620 -0.722440 0.237302
0.617624 0.627052 -1.000000
0.475239 0.879853 0.432756
-0.124765 0.992185 -0.934288
0.098467 0.793913 -0.607583
-0.647973 0.469176 -0.184419
-0.680599 0.420457 0.083900
0.994730 0.102489 0.233065
-0.378496 -0.704794 -0.535644
0.103202 -0.994656 -0.429294
-0.937833 0.347074 0.743581
0.624021 -0.500591 -0.618537
-0.839849 0.542812 0.716696
0.422793 -0.679147 -0.350884
0.984180 0.177145 0.567567
0.483670 0.637226 0.528375
0.027978 0.799507 0.562227
-0.706101 0.376058 -0.801674
-0.779335 0.180643 -0.419587
0.640740 0.479008 0.806867
0.737085 -0.675797 0.496955
0.331341 0.943507 -0.705279
0.486717 0.634905 -0.380394
-0.405258 0.914197 0.136319
-0.692028 0.721864 -0.381841
-0.246184 -0.761176 -0.720661
0.431066 -0.902319 -0.766342
-0.851827 -0.232364 1.000000
0.527999 0.849239 0.254505
-0.151119 0.919905 -1.000000
-0.118218 -0.791213 -0.728835
-0.760355 0.248706 -0.595837
0.757258 -0.257984 0.181201
-0.948889 -0.315605 -0.490661
-0.810915 -0.585156 -0.585365
0.445504 -0.664474 0.952203
0.957322 0.289008 0.654502
-0.306043 0.739143 0.526306
0.761266 -0.648433 -0.139490
-0.644065 0.474531 -0.648092
0.602491 0.798124 -0.743326
0.741475 -0.300349 -0.811296
0.481031 -0.876701 -0.635449
-0.993099 0.117244 0.121258
-0.061621 0.797620 -0.869296
-0.650142 0.686575 -1.000000
-0.035621 0.799205 -0.268466
0.796449 0.075293 0.103874
-0.737898 -0.309038 0.993405
0.706491 0.707718 0.634397
-0.749097 0.280805 0.785035
0.773875 0.633334 0.974059
0.444492 0.665148 -0.854646
-0.650770 0.759271 0.050479
0.434551 0.900642 0.836900
0.913077 0.407780 -0.673359
0.754077 0.656785 0.891182
-0.567686 0.772084 1.000000
-0.773996 0.202298 -0.753865
-0.765682 -0.231789 -0.572396
0.618735 -0.507111 0.952213
0.895406 0.445240 0.528445
0.233967 -0.972240 0.887591
0.320068 -0.947392 -0.236816
-0.172512 0.985003 0.538397
-0.628291 -0.777976 0.153775
0.482654 -0.637999 0.222815
0.921502 0.388361 0.905355
-0.301475 -0.953470 -0.470635
0.358410 0.933560 -0.362519
0.796156 -0.078289 -0.857821
0.799927 0.010658 0.930998
0.962484 0.271325 -0.085292
0.998961 -0.045487 -0.518573
0.548100 -0.582738 0.891145
-0.748007 0.283689 -0.249873
0.003086 -0.999990 -0.228715
0.776752 0.629798 -0.119413
0.111839 -0.792141 0.316703
0.636297 0.665159 -1.000000
-0.962818 -0.270133 0.844455
-0.981008 -0.193962 0.169737
-0.679111 -0.734032 0.105566
0.669686 -0.437628 -0.409734
0.818965 0.573836 -0.516581
-0.997375 0.072344 0.959233
-0.525124 0.851026 0.281064
0.799961 -0.007459 -0.518141
-0.839700 -0.543043 -0.761965
-0.788099 -0.137454 0.414962
0.440545 -0.667769 -0.770315
0.729531 0.328297 0.493950
-0.795376 0.085872 0.125885
-0.748859 0.281435 0.557347
0.501991 -0.622900 0.070630
-0.984714 0.174167 0.305199
-0.348758 0.937208 -0.128839
-0.948630 0.316375 0.170609
-0.011139 0.799920 -0.847143
0.358502 0.715175 0.435543
-0.973866 0.227102 0.597384
0.768328 0.640049 -0.529833
0.810583 -0.585616 0.271647
-0.748072 -0.287183 -1.000000
-0.798090 0.055242 0.794191
0.148008 -0.988982 -0.291463
0.950931 -0.309399 0.029154
-0.859170 -0.511681 -0.874438
0.796418 -0.604739 -0.881982
0.641622 -0.767018 0.867699
-0.760049 -0.649858 -0.402343
0.096735 -0.995305 -0.498003
0.940544 -0.339664 0.866058
-0.614729 -0.788732 -0.755766
-0.377060 0.705566 0.073946
-0.786151 -0.148194 0.528548
0.141784 -0.787332 0.432121
-0.706289 0.707920 0.138565
0.021188 -0.799717 0.180123
0.499241 0.625103 0.330216
-0.999605 0.027942 -0.589408
-0.718680 -0.351415 -0.211426
0.531278 0.598111 0.850470
0.694868 -0.719132 -0.770317
0.019445 -0.799762 -0.184271
0.761171 -0.246200 0.870840
0.573752 0.819025 -0.858593
-0.911164 -0.412032 0.739838
-0.998871 -0.047402 -0.801467
-0.765860 0.231199 -0.866565
0.560614 -0.570707 0.176629
-0.608948 -0.518822 0.951415
-0.904867 -0.425694 -0.742270
-0.614281 -0.512497 0.265064
-0.194719 -0.775939 -0.459198
0.147898 0.786206 0.852920
0.438468 -0.898743 0.872211
-0.699584 0.472897 1.000000
0.050729 0.798389 0.516457
0.155040 -0.784832 -0.846036
0.791146 0.118669 -0.815376
0.623619 0.501094 0.944080
0.065309 -0.997860 0.347466
-0.365413 0.711665 -0.360836
0.316260 -0.948669 -0.612960
0.631386 0.491271 -0.893429
0.060992 -0.797670 -0.641338
0.141402 0.787401 0.216119
0.682657 0.663164 -1.000000
-0.972511 0.232836 0.783564
-0.990148 -0.139992 0.725477
0.215561 -0.976486 -0.903742
-0.777659 0.477903 1.000000
-0.748131 0.663543 -0.185540
0.291251 0.745096 0.158950
0.739921 -0.672686 0.387125
-0.953447 0.301549 0.049415
0.554396 0.576752 -0.296965
0.152426 -0.988310 0.785072
0.334598 0.726663 0.153322
0.527268 -0.849693 -0.851414
-0.664516 -0.672228 1.000000
-0.482024 0.638476 -0.467164
0.814539 0.580101 -0.843297
-0.606842 -0.794818 0.848823
-0.754144 -0.266952 -0.744206
0.174395 -0.984674 0.338136
-0.174014 -0.984740 0.449204
-0.089958 -0.794925 0.114803
-0.142195 0.989834 0.118754
0.721132 -0.692794 -0.844596
0.374779 0.927112 -0.198835
0.606130 0.522114 0.179020
-0.371841 0.708331 0.754961
0.479984 0.640007 0.812344
-0.535747 0.777894 -1.000000
-0.107260 -0.994229 0.717296
0.841498 -0.015619 -1.000000
-0.033502 -0.799295 0.860930
-0.999716 -0.023666 0.355211
-0.783983 -0.159275 -0.232561
-0.987112 0.159998 0.357681
-0.838872 0.544320 0.381389
-0.803975 0.594656 -0.026281
-0.951573 0.307411 0.606770
0.433664 -0.672259 -0.048684
0.914147 -0.405372 0.210434
0.925529 0.378670 -0.067857
-0.870780 -0.491666 0.415801
-0.815157 0.041596 1.000000
0.387090 0.922038 0.754044
0.208561 0.978004 0.230026
0.764118 0.236898 -0.739994
-0.858256 -0.513214 -0.135268
-0.152551 0.785316 -0.793133
-0.220304 0.769064 0.671480
0.945010 0.327039 -0.445575
0.774468 -0.200485 -0.381014
0.059506 -0.998223 -0.837206
-0.627765 0.495888 0.683878
-0.540217 0.590055 0.267109
-0.931292 -0.364261 -0.243453
0.024832 0.799614 -0.488637
0.462368 -0.886683 -0.325728
0.018575 0.999827 -0.707935
-0.675725 -0.428244 0.519738
0.681712 0.418645 0.868168
-0.433295 0.901247 -0.694426
0.884385 -0.466749 -0.147793
-0.589167 -0.808006 -0.813506
0.182153 0.778983 -0.890607
0.147433 0.989067 -0.133002
-0.704037 -0.710158 0.086374
-0.872821 0.488036 -0.836713
0.552744 -0.833348 0.004766
-0.540319 0.841457 -0.205165
-0.995996 -0.089356 -0.560333
-0.544609 0.586002 -0.723694
0.442398 0.666543 0.112718
-0.213220 0.771062 -0.123046
0.075900 0.796390 0.414276
0.513345 0.858179 -0.224096
-0.999664 0.025840 0.959266
-0.808136 -0.188654 -1.000000
-0.611206 0.516160 -0.562864
0.772952 -0.206252 0.419447
0.950085 -0.152483 1.000000
-0.766548 -0.642186 -0.201052
0.594855 -0.534922 -0.723869
-0.793189 0.104148 -0.037210
-0.432296 -0.901729 0.886296
0.666566 0.442363 -0.666006
0.847304 -0.531104 -0.653247
-0.393907 -0.919145 0.062684
0.760275 -0.248950 -0.793742
-0.791912 -0.113445 -0.168443
0.792426 0.109817 -0.431722
0.177268 -0.780109 0.073562
0.742930 0.296730 0.470553
-0.995724 -0.092330 0.208747
0.545404 0.585259 0.953106
-0.065303 0.871470 -1.000000
-0.799631 0.024218 -0.248896
-0.111734 0.792155 -0.138582
-0.704484 0.709713 -0.002751
0.909779 -0.415089 0.001449
-0.900135 -0.435603 -0.646232
0.693429 -0.398941 0.997527
0.913815 0.097276 1.000000
0.824205 0.566286 0.373189
0.799306 0.033236 -0.425146
-0.575816 0.555368 0.719049
-0.820230 -0.572031 0.430217
-0.749116 -0.662433 -0.791772
-0.998085 0.061818 -0.555283
0.929800 0.368064 0.668937
0.994674 0.103025 0.449132
-0.480622 -0.639528 0.997226
-0.108565 -0.994085 0.952053
-0.684480 0.414102 -0.260319
-0.157287 0.987551 0.443437
0.696417 -0.717631 0.036894
-0.080717 -0.795916 -0.226607
0.717123 -0.696941 -0.247057
0.919434 -0.393234 -0.890725
-0.025035 0.799608 0.693288
-0.090705 -0.995873 0.817400
0.643805 0.765184 0.967294
0.763224 -0.646130 0.133724
-0.711241 -0.366239 0.651039
-0.181187 0.863129 1.000000
0.803729 -0.594988 0.738826
0.476154 -0.653729 -1.000000
-0.518602 -0.855012 -0.307161
0.781756 -0.169872 -0.009736
-0.433395 0.672433 0.634816
0.795040 0.088917 0.313438
-0.967962 -0.251079 -0.166506
0.301210 0.741125 0.114802
-0.938037 -0.346522 -0.132597
0.055843 0.798047 0.633917
0.526122 0.850406 -0.184730
0.261191 0.756160 0.203402
0.712654 -0.701510 -0.171143
-0.789029 -0.132015 -0.035938
-0.761311 0.245765 0.947736
0.810815 0.585294 0.684031
-0.382203 0.702791 -0.758661
-0.037122 0.799135 0.785286
0.787982 -0.138125 0.248402
-0.567592 0.563767 -0.690888
-0.857397 -0.514653 0.686849
-0.661396 0.750036 -0.114773
-0.790885 0.120412 -0.786728
0.005802 0.961202 1.000000
0.469973 -0.882678 0.899498
-0.103429 0.793282 0.594809
0.453515 -0.785619 -1.000000
-0.723382 -0.341634 -0.268311
0.841040 -0.540972 0.008695
0.790859 0.611994 0.764972
-0.998129 0.061083 0.102508
-0.638454 0.482052 -0.894722
-0.795525 0.084479 -0.223347
0.789420 -0.129668 -0.916719
-0.769158 0.219977 -0.797391
0.573826 -0.668438 1.000000
0.798470 -0.049412 0.630320
-0.610439 0.792057 -0.339098
0.767629 0.225254 0.389937
-0.799018 0.039598 -0.204035
-0.465742 0.650448 0.279914
-0.927398 -0.374076 0.667480
0.910290 -0.413967 -0.507863
-0.327466 -0.944861 -0.537448
0.787888 0.615811 -0.474824
0.699344 -0.388475 -0.270689
-0.406024 0.689304 -0.844779
-0.210246 0.819851 -1.000000
-0.744963 -0.291589 0.325652
-0.793423 -0.102341 -0.064175
-0.755078 -0.264292 0.890626
0.817976 -0.413442 -1.000000
0.045363 0.798712 -0.189260
-0.027760 0.999610 0.993447
0.692729 -0.400151 -0.070182
-0.139596 0.787725 -0.704628
0.642963 0.765894 0.839841
-0.550336 -0.580625 0.657410
-0.989246 -0.146229 -0.439754
-0.814408 0.580284 0.634426
-0.315007 0.735367 -0.355427
-0.439715 -0.676016 -1.000000
0.431107 0.673899 -0.355288
-0.350592 0.719083 0.228221
0.201014 0.774330 0.923879
0.784374 0.157325 0.117555
0.742844 -0.296944 -0.480192
-0.643067 0.765806 0.537566
0.033017 -0.799315 0.369166
-0.640686 -0.479081 -0.116478
0.950092 -0.311955 -0.990471
0.981142 -0.193284 0.120185
0.843417 -0.537252 -0.597380
0.366560 -0.930390 0.985290
0.661515 -0.749931 -0.686749
-0.779071 -0.181774 0.742419
0.497211 0.867626 -0.854697
-0.996286 0.086059 0.669571
-0.074686 0.944261 -1.000000
0.912996 0.407964 0.997704
-0.131460 0.789122 0.123623
0.561381 -0.569953 -0.306846
-0.542491 -0.587960 -0.072595
0.290544 0.956860 -0.945445
0.488719 0.633362 -0.586144
-0.121492 0.992588 -0.660636
0.602144 0.637636 1.000000
-0.992427 0.122798 -0.498923
-0.762565 0.646911 -0.614592
-0.995011 0.099744 0.805958
-0.723336 -0.341730 0.813677
-0.781444 -0.171290 -0.927810
-0.091315 -0.794769 -0.647186
-0.150822 -0.785652 0.102618
-0.732844 -0.680394 -0.375659
-0.496019 -0.627662 -0.130024
-0.979974 -0.199119 0.217546
0.729749 0.327814 0.236810
-0.536816 0.593150 0.214509
-0.131332 0.789143 -0.243536
-0.987589 0.157052 0.728212
0.044361 -0.798767 -0.680089
0.164288 -0.782948 -0.646656
-0.352200 -0.881365 1.000000
-0.896849 -0.442334 -0.875355
0.836667 -0.547704 -0.394221
0.219716 -0.975560 -0.799739
0.750172 -0.277913 0.891676
0.281592 0.959529 -0.329709
-0.629577 -0.493588 -0.082925
0.320844 -0.732840 -0.523504
-0.896145 0.443755 -0.020214
0.920329 0.391143 -0.164020
-0.739283 -0.305704 -0.568685
-0.313785 -0.735891 0.303577
0.700292 0.713850 0.513912
-0.988183 -0.153245 -0.558032
-0.256906 -0.966432 -0.256274
0.361557 0.876310 1.000000
0.099330 0.793807 0.489020
0.632118 0.490334 0.163687
0.833019 -0.553237 -0.559096
0.873834 0.486218 -0.740940
0.799995 -0.001533 -0.244126
-0.344209 -0.938892 0.868534
0.719782 -0.349369 -1.000000
0.795289 -0.086663 0.438035
-0.737267 0.310533 -0.791453
0.939960 -0.341270 -0.342408
-0.281458 -0.909381 1.000000
0.069904 0.997551 -0.208620
-0.643665 -0.765302 -0.706988
-0.688299 -0.725423 0.180621
0.157366 0.987538 -0.278367
0.454155 0.658590 0.657943
0.962715 -0.270502 0.918507
-0.096592 -0.995319 0.758373
0.931286 -0.364277 0.936585
0.992792 -0.119837 -0.409670
-0.994752 0.102271 0.084873
0.660726 0.628158 -1.000000
-0.991759 0.128082 0.767396
-0.380434 0.924806 -0.171281
-0.508979 0.617200 0.726264
0.841938 -0.539567 -0.200327
-0.799763 -0.019377 -0.506675
0.603291 0.797519 -0.508046
0.721946 -0.344661 -0.641870
0.477601 0.878573 -0.422936
0.908303 -0.418304 -0.941706
-0.894694 -0.446670 -0.101416
-0.181338 0.983420 -0.715000
-0.336826 -0.725634 -0.109615
0.952802 0.303588 -0.120563
-0.935626 0.352978 0.179883
-0.897045 -0.441933 -0.698643
0.831654 -0.555287 -0.312965
0.998931 -0.046132 -0.880642
0.999968 0.007577 -0.125378
0.714326 0.699806 0.673893
0.478598 -0.878028 0.648820
0.718593 -0.695424 -0.508667
-0.799881 -0.013604 0.403681
-0.672072 0.433952 0.537464
-0.354627 -0.935003 -0.746363
0.214716 0.976672 0.100349
-0.745997 0.384510 1.000000
0.632569 0.774504 -0.243465
0.999986 -0.004554 -0.647128
0.679030 -0.438900 1.000000
-0.698283 0.715821 -0.791190
0.937589 -0.347731 -0.113401
-0.786119 -0.148364 0.003645
-0.852428 -0.025111 1.000000
0.623758 -0.500919 0.422996
-0.910086 -0.414418 0.127367
0.032802 -0.999458 0.707345
-0.789726 -0.127774 -0.372672
0.043864 0.999037 -0.064740
0.741195 -0.301039 0.845426
0.969382 0.245536 0.770491
-0.783341 0.162388 0.855743
0.668768 -0.439025 0.603064
-0.000261 -0.999999 -0.363281
-0.490287 0.632154 -0.743844
0.244948 0.761574 -0.387342
0.611461 -0.791270 -0.377365
0.796991 -0.603986 -0.678646
0.504648 0.755040 1.000000
0.577696 -0.816252 0.430167
0.001046 -0.999997 0.782704
-0.338763 0.724730 -0.943956
-0.919366 0.393391 -0.702323
0.675736 0.737141 0.607031
0.937408 0.348220 -0.599638
0.409190 -0.912447 -0.151725
-0.738152 -0.308434 -0.921403
-0.525050 0.787571 1.000000
-0.163760 0.986497 -0.355373
-0.944553 0.328349 -0.282013
0.995063 -0.099212 -0.652837
-0.079892 0.796000 0.643011
0.210166 -0.977661 0.745819
0.100763 -0.994909 0.394950
0.113660 0.993517 -0.825301
0.796214 -0.077694 -0.144650
-0.989883 -0.141856 0.041178
0.287766 -0.746448 -0.743593
0.234235 0.764937 -0.145334
-0.773778 0.633452 0.856333
-0.325748 -0.945453 0.969434
0.649975 0.759949 0.798890
-0.660637 -0.750703 -0.295087
0.803655 0.144817 1.000000
0.456297 0.889822 -0.857318
0.964996 -0.262253 0.145247
-0.372328 0.708075 0.558651
-0.621961 -0.711698 -1.000000
0.777058 -0.629422 -0.198089
-0.138049 0.787995 -0.839511
-0.094784 0.794364 -0.501246
0.776310 0.193232 -0.533629
0.790403 -0.123520 0.493964
0.899803 0.436291 -0.397626
-0.158776 -0.987310 -0.392121
0.751910 0.275551 -1.000000
0.027314 0.999622 0.303988
0.976879 -0.213775 -0.174454
-0.511142 0.681796 -1.000000
0.619731 0.784809 0.776578
0.799800 0.017699 0.518750
0.779654 -0.179273 0.174227
0.783338 -0.162407 0.457671
-0.660913 0.450765 0.374164
0.123550 -0.790399 -0.645042
-0.023531 -0.999719 0.534282
-0.997752 0.066944 -0.925043
0.720401 0.693557 -0.580968
-0.322852 0.731959 0.250262
-0.901381 -0.337959 -1.000000
-0.747168 0.285896 -0.750236
0.875544 0.483131 0.346265
0.967711 -0.009957 -1.000000
0.431615 0.902058 0.275556
-0.389547 0.921002 0.835471
-0.179968 -0.983669 -0.427009
0.671943 0.434152 0.220624
-0.500666 0.623961 0.586963
-0.611115 -0.516268 -0.567118
-0.376842 0.926272 -0.403259
0.141361 0.787409 0.577546
0.979421 -0.201807 0.428921
-0.936691 -0.350153 -0.570094
0.165481 -0.782696 0.961128
-0.480586 0.639555 -0.584676
0.762088 -0.243348 0.021892
0.518530 -0.855055 -0.027937
0.482540 0.638086 0.290871
-0.765482 -0.232456 0.120986
-0.994729 -0.102500 -0.165107
0.946102 0.323854 -0.263395
0.297692 0.954660 0.906004
0.857015 -0.515287 -0.947376
0.691041 0.403065 0.231767
-0.684872 0.413453 -0.812198
-0.730167 0.326888 -0.150384
0.280850 0.959747 0.008666
-0.213003 0.977049 0.370098
-0.109903 0.960095 -1.000000
0.484349 0.636710 -0.859407
-0.997115 0.075881 0.355884
-0.159662 -0.850306 -1.000000
-0.315811 -0.948820 0.704024
0.973095 -0.230406 0.014737
-0.794606 -0.092710 -0.887979
0.737634 0.309664 -0.612640
-0.216521 -0.770138 0.131098
0.544485 -0.761496 -1.000000
-0.991587 0.129406 0.161371
-0.943941 0.330098 0.782857
0.842548 -0.538612 0.904263
-0.915175 -0.403056 0.942156
-0.778820 0.182852 -0.602456
0.898543 0.438875 0.660122
-0.904847 0.425737 0.909112
0.985050 -0.172243 0.505605
0.424714 -0.905324 0.427229
-0.359409 0.933175 -0.654953
0.490044 0.871692 0.707047
0.989008 -0.147833 -0.883620
-0.450475 0.892784 -0.008256
-0.792221 0.111271 0.207733
-0.999308 0.037161 0.434898
0.827477 0.341920 1.000000
-0.172089 0.985076 0.895698
-0.776253 0.193463 -0.174524
0.794713 -0.091792 -0.663662
0.915298 -0.402777 0.737990
0.179492 0.779604 -0.532187
-0.661277 -0.450233 0.031536
0.367926 -0.710373 -0.525337
-0.144945 0.786760 0.711859
-0.110077 -0.792390 0.554518
-0.298795 0.742105 -0.541472
-0.239044 0.763448 -0.305572
0.687072 0.409788 0.072590
0.578321 0.552755 0.629693
-0.543538 0.586996 0.161371
-0.879413 -0.476058 0.848845
0.241254 0.762753 0.498612
-0.943670 -0.330874 -0.793293
0.775245 -0.197458 -0.484205
0.903658 -0.428243 -0.131483
-0.645268 -0.472888 0.128213
0.325118 0.945669 0.126860
0.426020 -0.904713 -0.312219
-0.799028 -0.039386 -0.061654
0.987933 0.154858 -0.930818
-0.575822 -0.555361 -0.925659
-0.786145 -0.618040 -0.745733
-0.091003 -0.995846 -0.166652
0.792545 -0.108938 0.976341
-0.213155 0.977015 -0.173820
-0.891962 -0.452101 0.909698
0.470196 -0.882560 -0.237072
-0.700494 -0.386398 -0.062819
-0.220737 0.975328 -0.548065
0.996233 0.086688 0.688919
0.388226 0.921559 0.544294
0.882889 0.342070 -1.000000
0.191798 0.776664 0.429647
0.021140 -0.799718 0.990925
0.798690 0.045739 0.185146
0.777782 -0.628530 -0.582610
-0.796561 0.604551 0.057606
0.463097 0.681868 -1.000000
0.646454 -0.471268 0.881247
0.846707 0.532052 -0.743344
0.389369 -0.921077 0.294818
-0.453257 -0.891377 0.362004
0.191682 0.776693 0.100955
0.475516 0.776725 -1.000000
0.791660 -0.115216 -0.454304
0.998524 -0.054226 0.536423
-0.154617 -0.987970 -0.990786
-0.746971 -0.664851 0.221977
0.258096 0.966114 -0.152728
-0.999911 -0.013236 -0.913213
-0.773231 0.205203 -0.448991
0.415448 0.909614 0.314294
0.500876 0.623793 -0.016267
0.752006 0.272912 -0.706784
0.204796 0.773340 -0.019789
-0.475317 0.643482 0.447376
0.216274 0.770207 -0.567405
0.999888 0.014700 -0.853431
-0.293758 -0.955875 0.670836
-0.330460 0.943815 -0.068516
0.915348 -0.402661 0.821421
-0.606598 0.521573 0.404745
0.198914 -0.774876 0.567494
-0.415393 -0.909639 0.928733
0.612813 0.514254 0.137827
0.445204 0.895424 -0.663829
0.917589 -0.397527 0.325235
0.725749 -0.336579 0.857229
0.112130 0.792099 0.601954
0.510479 -0.859886 -0.763930
0.622654 -0.782496 -0.656013
-0.973446 -0.228902 0.350921
0.349559 -0.936911 -0.481959
0.934242 0.074649 -1.000000
0.118917 0.992904 0.373914
0.764023 0.330888 1.000000
0.813600 -0.581419 0.999415
-0.956713 0.291033 -0.879616
-0.289889 0.745630 0.108278
-0.341300 0.939949 -0.610896
0.287176 0.957873 0.218478
-0.617334 0.730182 -1.000000
0.228493 -0.766674 -0.704040
-0.236453 0.764255 0.054565
-0.799354 0.032060 0.934618
0.206914 0.772775 -0.268976
-0.925763 0.378094 0.862860
-0.075736 -0.997127 -0.707931
0.697675 0.587445 1.000000
0.611249 -0.516109 0.338067
0.630065 -0.492964 0.130108
0.998659 0.051705 -0.350716
-0.642636 -0.766170 -0.908609
0.999175 0.040481 0.435018
0.999534 0.030438 0.175017
-0.673996 -0.738730 -0.946103
-0.710729 0.703462 0.502062
-0.175001 0.780623 -0.346024
0.555267 0.831667 0.605773
0.887595 -0.190909 1.000000
0.500203 0.624332 0.061167
-0.034587 -0.799250 0.941519
-0.795903 -0.080847 -0.308651
-0.921348 0.388726 0.508425
-0.494077 -0.629195 0.642561
0.669023 0.743235 -0.371544
0.876954 0.480567 -0.928879
0.357101 0.934064 0.101459
-0.029400 0.999563 -0.986696
0.791650 -0.115283 0.902944
0.891323 -0.453365 0.699625
0.679719 -0.421872 -0.530993
0.580702 0.550255 -0.210170
0.799335 -0.032510 -0.403288
-0.065716 -0.997833 0.970219
-0.144662 0.989479 -0.053468
0.735959 -0.313628 -0.260274
0.443836 -0.665585 -0.956801
-0.324612 -0.731178 0.126222
-0.436612 -0.670349 0.163911
0.120654 -0.992691 0.748291
-0.883995 -0.467486 0.802715
-0.591794 0.806085 -0.399468
-0.998693 0.051060 0.259800
0.798416 -0.050307 0.805723
0.004453 0.830556 1.000000
0.067705 -0.997702 -0.170455
-0.549368 0.835575 -0.653317
-0.643106 0.765773 -0.580930
0.492631 -0.630324 -0.287935
-0.475443 0.643389 0.764933
0.442419 -0.666529 -0.192291
-0.093483 0.995619 -0.629029
-0.919758 -0.392477 0.532695
0.797722 0.060321 0.768653
0.012551 -0.799898 -0.088516
0.258322 -0.966054 0.488659
0.751658 -0.659546 0.232907
0.472002 0.871728 -1.000000
-0.999995 -0.001594 0.395877
-0.356992 -0.715927 0.417277
0.411679 0.685944 0.395463
0.101876 0.793483 0.664509
-0.757772 0.652516 0.784827
0.354554 0.717140 -0.704180
-0.799989 0.003383 -0.930585
-0.004444 0.799986 -0.399199
-0.007673 0.799959 -0.025408
0.791769 -0.114446 -0.875356
0.323537 0.946210 -0.253936
0.562643 0.568709 0.068918
0.248278 -0.968688 0.066430
0.769659 -0.218231 -0.759346
0.097522 -0.995228 -0.056368
-0.366630 0.711040 -0.224589
-0.938931 0.344100 0.970623
0.362182 -0.713316 0.003154
0.104813 0.793103 0.790698
-0.437121 -0.899402 -0.732787
-0.564488 -0.825436 -0.065934
0.683799 -0.415230 0.567396
-0.973681 0.227895 -0.035892
0.440129 -0.668043 -0.246624
0.995626 0.093403 0.016549
-0.548747 -0.582127 0.568756
0.243339 -0.969939 0.338482
-0.069030 0.797013 -0.079681
-0.645198 0.472984 -0.364906
-0.695621 0.395104 -0.428480
0.722740 0.691113 -0.333159
0.263320 -0.964704 -0.814527
0.350492 -0.719133 0.400591
-0.799888 0.013179 0.449922
0.637273 -0.483610 0.000536
0.746898 -0.664934 -0.477112
-0.758365 -0.651830 0.315866
-0.860261 0.509848 -0.714659
0.788396 0.135752 0.542525
0.572886 -0.751403 1.000000
-0.248668 -0.968589 0.869048
-0.001605 -0.799995 0.091803
0.799841 0.015838 0.043584
0.708616 -0.371294 -0.426583
0.267226 0.754046 0.455290
-0.823803 -0.566873 0.637378
-0.639038 -0.769170 0.462015
0.524058 -0.851679 -0.107916
0.799989 0.003459 -0.481679
-0.829977 0.557792 0.170172
0.944093 -0.184746 -1.000000
0.474508 0.644082 -0.420194
0.711528 -0.365679 0.627990
-0.856870 0.515526 -0.935630
-0.208609 0.772322 -0.081601
-0.999988 0.003680 0.549661
0.031882 0.999490 0.726080
0.645448 -0.472642 -0.050099
-0.398629 0.740732 -1.000000
-0.414132 -0.910216 -0.443140
-0.997766 -0.066729 0.259800
0.697983 0.390915 -0.395322
0.433930 -0.900941 -0.007725
-0.274036 0.961716 -0.595117
0.999322 0.036749 0.265231
0.746006 0.665939 -0.562786
-0.261413 0.965225 -0.137190
-0.901659 0.432440 -0.527529
0.983586 0.180426 -0.038417
0.915798 -0.401631 -0.985144
0.892750 -0.149323 -1.000000
0.376293 0.705976 -0.103741
-0.961833 -0.273632 -0.892483
-0.284529 -0.958666 0.278095
0.799757 -0.019653 0.276200
-0.627533 0.496182 0.546899
-0.777050 0.629431 0.339528
0.368328 0.710163 0.356422
-0.858893 -0.404997 1.000000
-0.618802 -0.785543 -0.845610
0.466438 0.884550 0.046837
-0.956674 0.291161 0.718604
0.932136 -0.136900 -1.000000
-0.890412 0.455149 -0.921207
-0.793895 0.098613 0.844499
0.999298 -0.037454 0.572413
0.920137 0.391594 -0.904453
0.998844 0.047984 -0.024594
-0.421679 0.679839 -0.035533
-0.794497 0.093645 -0.936540
0.195908 0.775638 0.867421
-0.786005 -0.618218 0.345482
-0.161189 -0.783590 0.594764
0.598858 -0.678581 -1.000000
0.510286 -0.616122 0.020792
-0.080083 -0.795981 -0.737287
0.791694 0.610910 -0.921287
-0.910445 -0.413624 0.593435
-0.175659 -0.984449 -0.703770
0.831576 0.085985 -1.000000
0.323245 0.946310 0.597775
0.464341 0.651445 -0.014382
-0.591214 -0.538943 -0.445226
0.447341 0.663234 -0.567560
0.482176 0.653482 1.000000
0.966749 0.255718 -0.353811
0.479122 -0.829837 -1.000000
0.771000 0.213443 -0.098689
0.344737 -0.938699 -0.396910
0.159066 -0.987263 0.720532
0.765935 0.230948 0.648707
0.387986 0.921660 0.702915
0.935330 0.353764 0.263461
-0.351755 -0.936089 0.819930
0.274979 -0.751255 0.424500
0.988585 0.150657 0.761474
0.929106 -0.369802 0.150333
-0.279961 0.960009 0.582384
-0.328774 0.729316 -0.252672
-0.063881 -0.797442 -0.582961
0.341459 -0.723465 -0.671344
-0.278662 -0.960388 0.465330
0.227067 -0.767096 0.943835
-0.893817 0.448431 -0.355012
0.709338 0.369910 -0.663061
-0.929344 -0.369208 0.867810
-0.108648 -0.994076 0.106125
0.999134 0.041505 0.997979
0.111391 -0.792204 0.048899
-0.672836 -0.739785 0.272268
-0.040280 0.999184 0.369121
-0.439965 0.668151 0.020164
-0.486837 -0.634813 -0.816806
-0.520278 0.853995 0.840346
-0.085872 -0.996302 -0.204446
-0.773643 0.203657 0.869188
0.771068 0.213197 -0.035594
0.805039 -0.593220 0.188512
-0.937782 0.347210 0.887053
0.943076 -0.332574 0.909546
0.067838 0.997693 -0.032459
-0.044462 0.999010 -0.269298
-0.661732 -0.449567 -0.816083
-0.867338 0.497717 0.870305
-0.790702 -0.121597 -0.528313
-0.208469 -0.978024 0.672670
-0.799515 0.027727 -0.518716
0.621075 0.780150 1.000000
0.955958 -0.049865 -1.000000
0.344691 0.938716 0.056821
0.044639 0.798752 0.306708
-0.882958 -0.469445 0.978964
0.854205 -0.347497 1.000000
0.925184 -0.013588 -1.000000
0.998579 0.053199 -0.871918
-0.015690 0.999872 0.499970
-0.854020 0.520237 -0.206425
-0.105829 -0.792968 -0.387089
0.827775 0.561055 0.550683
-0.796754 0.071949 0.748702
0.884304 -0.466902 0.489715
-0.400477 -0.916301 0.148562
-0.323787 0.731544 -0.493258
-0.996163 -0.087510 -0.942519
-0.648703 0.761036 -0.954507
-0.218815 -0.769492 -0.278598
0.006965 0.999974 0.694678
0.884971 0.465644 -0.838543
0.969282 -0.245934 0.606545
0.798280 0.052373 -0.855849
-0.795947 0.080421 0.986218
0.922942 0.384934 -0.258727
0.793292 -0.608836 -0.135166
-0.744902 0.667168 0.158434
0.770941 -0.326866 -1.000000
0.597007 -0.616112 -1.000000
-0.401681 -0.915776 0.507388
0.999031 0.044001 0.707370
0.936875 0.349658 0.589110
0.786485 -0.146409 -0.998364
0.771448 -0.211808 -0.966767
0.842037 0.539412 -0.819942
0.857639 -0.514252 -0.517899
0.793532 0.101500 -0.111398
-0.399937 0.692853 0.522039
-0.261812 -0.755945 0.528675
0.754093 -0.267096 -0.107224
0.397878 -0.694039 -0.746142
0.063220 -0.797494 0.287075
0.372146 -0.708172 0.918742
0.208015 -0.772481 -0.437285
-0.231190 -0.972906 0.627051
0.427870 0.675961 0.724899
0.841325 -0.540525 0.304041
-0.642862 -0.476153 0.889156
-0.857373 -0.383625 -1.000000
-0.797542 0.062611 0.182477
-0.759799 0.250398 -0.021403
-0.750367 -0.661019 -0.298909
-0.583681 -0.811980 -0.410744
0.166640 -0.782448 -0.146721
-0.228652 -0.766626 -0.975740
-0.871503 0.490380 0.278214
-0.867885 0.496757 -0.126096
0.822759 -0.568384 0.658611
0.678828 -0.734292 0.287666
0.512206 0.858857 0.132981
0.221463 -0.975164 0.103490
-0.314031 0.735786 0.210400
-0.235820 0.971795 0.141247
0.415978 0.909370 0.035241
0.907656 0.419711 -0.141466
0.660298 -0.751000 -0.419839
-0.485113 0.636129 -0.643922
-0.796751 -0.071987 0.177510
-0.239905 -0.763177 0.239544
0.331562 0.728056 0.020920
0.969376 -0.245563 -0.321893
0.356800 0.716022 0.202591
-0.266913 -0.963721 -0.294972
0.787887 0.138666 -0.705185
-0.889978 -0.455993 -0.542336
-0.089211 -0.996009 0.500305
0.781746 0.169916 0.320177
0.894769 -0.358099 1.000000
-0.507923 -0.618068 0.377512
0.950359 0.311141 0.594408
-0.844904 0.534912 0.767117
0.535335 -0.844638 0.488028
-0.031087 0.799393 -0.561940
0.791774 -0.114413 -0.573883
0.779848 -0.625962 0.736693
-0.342247 0.857427 -1.000000
-0.531514 -0.688794 -1.000000
0.583949 0.811786 0.354693
0.739502 0.673147 0.937495
0.012610 0.799897 0.505640
0.601875 0.527010 -0.091983
0.444948 0.664844 0.599470
-0.186359 -0.777987 0.922647
-0.729093 -0.684414 -0.556591
0.491941 -0.683667 1.000000
0.073622 -0.796602 -0.151770
0.585066 0.810980 0.402553
-0.361433 -0.932395 -0.323275
-0.810852 -0.585243 -0.186779
0.730694 0.682698 -0.818434
0.957015 0.290029 0.314989
-0.236395 0.971657 -0.586917
-0.361698 0.932294 0.740590
-0.588671 0.808369 -0.224626
0.073807 -0.997269 0.685394
0.783588 -0.161199 0.327447
0.727289 0.333233 0.069458
0.792263 -0.110979 -0.496646
-0.618365 0.507562 0.765500
-0.607500 -0.720599 1.000000
-0.798567 -0.047798 -0.380787
0.090030 0.995935 0.793099
-0.740607 0.302483 0.674624
0.324009 0.946049 -0.161311
-0.787802 0.139155 -0.873807
-0.166631 0.934495 1.000000
0.556651 0.830746 -0.378875
0.291308 0.745073 0.721749
-0.867860 -0.300348 -1.000000
0.346485 0.721071 -0.858142
0.379314 -0.704354 0.432677
-0.942666 -0.333729 -0.335485
-0.204623 -0.978838 -0.477435
-0.829767 -0.558103 0.825357
0.884577 -0.466386 0.424577
0.036575 0.999328 0.888500
-0.932821 0.360327 -0.622905
0.345143 0.721717 -0.326768
0.565249 0.566119 0.692181
0.140764 -0.787516 0.731978
-0.145199 -0.989399 -0.947834
0.936218 -0.351412 0.592865
-0.003294 0.999990 0.917375
0.207560 -0.978218 -0.041117
0.199311 0.979935 -0.925854
0.958312 0.285717 -0.235952
0.779430 -0.180236 -0.680141
0.731644 0.323562 0.145238
0.053555 0.998560 0.664046
0.822034 -0.569430 -0.923822
-0.899736 -0.436430 -0.470107
0.854931 -0.518736 0.042511
0.737887 -0.309064 0.460783
0.656556 -0.754277 -0.202471
-0.204775 0.773345 0.140893
0.791292 0.611431 0.652030
0.155057 -0.987902 -0.725956
0.312586 0.736402 0.067469
0.611804 -0.519014 1.000000
-0.761724 -0.647897 -0.349635
0.910402 -0.413720 -0.627631
0.054824 0.798118 0.819543
-0.730046 0.327156 -0.374442
0.763581 0.645706 0.341400
-0.921690 -0.387915 0.164203
-0.560148 -0.770919 -1.000000
-0.150845 -0.988556 0.132110
0.999175 0.040492 0.547370
0.229538 0.766359 0.833851
-0.666027 0.745927 0.002727
0.537328 0.592684 -0.882512
0.746363 0.287987 0.999900
0.986186 -0.165610 0.077240
0.748024 -0.283645 -0.439352
0.907226 0.420640 -0.035871
0.473958 0.644485 -0.051877
0.198833 -0.899707 -1.000000
0.129049 -0.991633 0.857856
-0.386291 0.922375 0.091353
-0.973043 -0.230622 -0.253369
0.587192 0.809445 -0.939171
-0.691279 -0.402656 0.751612
0.274327 0.961633 -0.371318
-0.141228 -0.989972 0.423514
0.129327 -0.991597 0.904515
0.742249 -0.670121 0.660690
0.990273 0.139113 -0.672842
-0.622461 -0.502533 0.579822
0.746350 -0.288020 0.032748
-0.170051 0.781716 0.282937
-0.529045 -0.600093 0.805622
0.999880 0.015198 -0.795813
-0.358033 -0.715408 -0.281837
0.310826 -0.737144 0.400034
0.131067 0.789188 -0.946074
-0.800916 0.598772 0.848874
-0.996738 -0.080674 -0.323102
0.955358 0.295437 0.121199
-0.227534 0.766959 -0.747880
0.999834 -0.018134 0.052736
0.990238 0.139358 -0.577247
-0.435784 -0.670885 0.665201
-0.738573 0.307417 -0.602488
0.612087 0.515115 0.500430
0.024685 -0.799618 -0.130241
-0.110972 -0.993819 -0.481361
0.139593 0.794014 -1.000000
0.452587 0.891716 0.924906
0.078363 -0.996920 0.068623
0.834780 -0.550579 0.997196
-0.371887 0.708307 0.134026
0.723248 -0.341918 -0.075153
0.411046 -0.911609 0.216143
-0.479530 0.877520 -0.866291
-0.922937 0.384945 0.992036
-0.788040 -0.137793 -0.483393
-0.237943 -0.971275 0.048029
-0.763394 0.645927 -0.563266
-0.534223 -0.845338 0.110489
-0.795496 0.084761 0.540099
0.762152 -0.243147 0.134757
-0.797150 0.067419 0.234767
-0.856060 -0.516867 -0.735872
0.474541 -0.644057 -0.956496
0.797174 0.603745 0.427506
0.403058 0.691045 -0.634853
0.587910 -0.808926 0.876067
-0.555181 0.831724 -0.738743
-0.425918 0.677191 0.335783
-0.667763 -0.506035 1.000000
-0.700472 -0.713673 0.288999
0.157246 0.784390 -0.842719
0.950732 0.310005 0.256893
0.258323 -0.757142 0.516713
0.758013 0.255758 -0.601374
0.467710 0.649031 0.495967
-0.329502 0.944150 0.770083
-0.069602 -0.796965 -0.513203
0.816341 -0.577570 0.935423
0.878343 -0.478021 -0.015036
0.395549 0.695367 0.429479
-0.833664 -0.552268 -0.996220
-0.974171 0.225794 0.273164
-0.784066 0.620669 -0.331322
-0.999013 0.044383 0.151138
-0.975813 -0.218599 -0.631006
-0.707834 -0.706374 0.219512
0.701055 0.385385 0.518655
0.909830 -0.414976 0.676773
0.980850 0.194748 -0.290060
-0.380986 0.924577 -0.601466
-0.480537 -0.639592 0.356140
-0.604942 0.796264 0.407448
-0.791295 -0.117667 -0.220517
-0.223213 0.974767 0.603243
0.740033 0.382998 1.000000
0.582619 0.548226 0.566832
-0.275150 -0.961397 0.634058
-0.994257 0.107009 0.562190
-0.665701 0.443662 0.203802
-0.629104 0.777316 -0.124961
-0.614768 -0.511912 -0.034257
0.793616 0.100851 0.074184
-0.962873 -0.269937 -0.238322
-0.368432 0.710109 -0.318763
-0.591901 -0.538189 -0.060689
0.978929 -0.204181 -0.519899
0.782245 0.167590 0.649707
0.428105 -0.798784 1.000000
0.923563 0.383434 0.545400
0.853708 0.520746 -0.242912
-0.479403 -0.782885 -1.000000
0.899546 0.436824 -0.458201
-0.463336 -0.652161 0.129752
-0.822479 -0.568788 0.584280
0.370487 0.709037 -0.201272
-0.523297 0.605106 0.346283
0.246387 -0.761111 -0.575773
0.538292 -0.591807 0.372487
-0.993737 -0.111714 0.123007
0.821453 0.341632 -1.000000
-0.691889 0.401602 0.213468
0.790459 0.123161 -0.748112
-0.789382 -0.129904 -0.131932
0.957234 -0.289301 0.198016
0.600651 -0.799505 -0.102196
-0.111276 -0.993786 -0.755560
-0.809671 0.586880 -0.352236
0.075954 0.796384 0.335223
-0.487849 0.872926 -0.449082
-0.669300 -0.438215 -0.521884
0.595490 -0.534216 -0.291712
0.981482 0.191530 0.000211
0.655870 0.754870 -0.049814
-0.924636 0.380844 0.017790
0.473715 -0.791966 1.000000
0.991777 -0.127937 0.490958
0.831496 -0.555524 -0.800253
0.440677 0.897661 -0.456540
0.720173 -0.348347 -0.372395
-0.513876 0.857862 0.932766
-0.676125 -0.736783 0.224330
0.159846 0.987137 -0.711975
0.623567 -0.781767 0.129751
0.535685 -0.844417 -0.634594
0.982708 -0.185138 -0.678117
0.980840 0.194799 0.773302
0.207266 0.978281 0.698863
-0.797252 0.066218 -0.900612
0.998672 -0.051465 0.105058
-0.788524 0.614996 0.216994
-0.452122 0.659984 0.955943
-0.789487 -0.279791 -1.000000
0.786183 -0.196593 -1.000000
0.610271 -0.792186 0.327189
-0.428591 0.903493 -0.498221
-0.305503 -0.952186 0.165220
0.704610 -0.709588 0.076580
0.751107 -0.275386 -0.177111
-0.003655 -0.999989 -0.577947
-0.797806 0.059177 0.574349
-0.570354 -0.560973 -0.403340
-0.622216 -0.502835 0.335936
-0.626562 -0.497409 0.707762
0.862142 -0.506657 -0.071625
-0.456684 -0.889623 -0.940274
0.414498 -0.684241 0.264800
-0.373044 0.707696 0.996662
-0.589513 0.540806 -0.527759
0.976607 0.215011 -0.995976
0.165600 -0.782670 -0.919039
-0.225847 -0.974159 -0.917018
-0.287250 -0.957851 -0.506590
0.293545 0.744196 0.256069
0.796160 0.078249 -0.457858
-0.816015 0.578029 0.882471
-0.998994 0.044803 0.301293
-0.742750 0.297182 0.373770
-0.967463 -0.158901 -1.000000
-0.764852 0.644199 0.490417
0.259295 -0.965794 0.374852
0.497752 -0.867318 -0.964026
0.716406 0.356029 0.369424
-0.388965 0.921247 -0.825250
0.666863 0.441917 -0.793092
-0.595069 0.534683 -0.132700
0.746382 0.665515 -0.732450
0.353382 -0.717717 -0.940305
-0.689846 0.723953 -0.188434
0.391325 0.697753 0.197893
-0.435513 0.671061 0.481915
-0.501316 0.865259 0.006080
0.594771 0.535016 0.099400
-0.721167 0.690353 -1.000000
0.630376 0.776284 -0.703011
-0.968775 0.247933 -0.381456
-0.673120 -0.739527 -0.724622
0.239084 0.970994 -0.213492
0.860012 -0.332690 -1.000000
0.445333 0.895360 0.568518
-0.070551 0.997505 0.185502
-0.079182 0.796069 0.039794
-0.113140 0.857519 -1.000000
-0.270855 -0.962616 0.383588
-0.411729 -0.685914 0.050366
-0.296728 -0.954961 -0.887671
-0.337143 -0.941449 -0.465698
-0.794882 0.090345 -0.570620
-0.982573 0.185858 0.596387
0.662041 -0.449109 -0.360199
-0.275911 -0.961178 0.953055
-0.669305 -0.438208 -0.056111
-0.589686 0.540618 0.774050
-0.999758 0.021757 -0.866403
0.598542 -0.801089 -0.187613
0.615738 -0.510747 0.893060
0.040907 0.861820 1.000000
0.792146 0.111800 -0.160684
-0.363573 -0.931562 -0.498286
0.991524 -0.129898 0.699674
-0.807995 0.589183 -0.709755
-0.790146 -0.125174 0.242490
-0.080250 0.996771 -0.873977
-0.613992 0.512844 0.237797
0.778934 0.627103 0.930147
-0.764092 0.236981 -0.094489
0.087271 -0.996183 0.835270
-0.297204 -0.954813 -0.171411
0.742234 -0.670138 0.757579
-0.640310 0.479581 0.328783
-0.213086 0.774378 -1.000000
-0.812311 -0.583222 0.333558
-0.646310 -0.587544 1.000000
-0.759333 -0.251818 -0.350492
0.662760 -0.659213 1.000000
0.134181 0.788665 0.023430
0.996037 0.088907 -0.761211
-0.536577 -0.593368 -0.417826
0.726882 0.686756 0.038917
0.244832 0.761611 -0.932574
0.945834 0.324636 0.859107
0.616906 0.509337 -0.809337
-0.999693 0.024724 -0.706599
-0.796017 0.079717 -0.455912
0.050804 -0.998707 0.301765
0.985640 0.168861 0.640372
0.964786 0.263019 0.437254
0.584367 0.811484 -0.464122
0.395355 -0.695478 -0.432791
0.704647 -0.378769 0.957668
0.943494 0.331379 0.224901
-0.746308 -0.288130 0.538324
0.766948 0.227573 -0.369245
-0.697153 0.392393 -0.716521
0.218252 0.975892 0.377149
0.323782 -0.946126 0.790540
0.822344 0.568982 0.924666
-0.476773 0.642403 -0.827579
-0.269380 0.753279 0.395598
-0.031494 -0.799377 -0.307133
-0.795462 -0.085080 0.629094
-0.787621 -0.140186 0.132504
-0.966145 -0.257981 0.642788
0.614827 -0.788656 -0.839359
-0.144243 0.786887 0.610347
0.761441 0.648228 -0.155416
-0.791910 0.113459 0.701568
-0.675673 -0.428328 -0.586018
0.183708 -0.778620 -0.258454
0.986313 0.164858 -0.077733
0.691598 -0.722275 -0.525389
-0.762384 0.242426 -0.264894
0.747410 -0.664356 0.581703
0.571169 0.560142 -0.440863
-0.568248 -0.563107 0.776777
0.736460 -0.312448 -0.887591
0.028065 -0.999601 0.176204
0.584399 -0.811461 0.818272
0.068545 0.797055 -0.484934
-0.787348 0.141694 -0.426187
0.459140 -0.655122 -0.101745
-0.281140 0.748971 0.999327
-0.171655 -0.781363 -0.045694
-0.088589 0.996066 -0.965395
-0.796977 -0.604004 0.574423
-0.417359 -0.908736 0.555116
-0.784868 -0.154861 0.610793
-0.022547 -0.799678 0.762505
0.064752 -0.797374 -0.590066
0.194081 0.776101 -0.658430
-0.667472 0.744630 0.243764
0.577089 0.554043 -0.274771
0.831967 0.554817 0.804428
0.064663 -0.797381 0.333476
-0.255199 0.758201 0.652733
-0.876865 0.480731 -0.960529
0.650813 0.465230 0.647671
0.871967 0.489555 0.777152
-0.743375 0.668868 -0.849527
0.998971 0.045291 0.132558
0.565853 0.824502 0.006977
-0.275693 -0.961241 -0.391510
0.475416 -0.727468 1.000000
0.632470 0.489877 0.669532
-0.938259 0.345925 0.623366
-0.176452 -0.780294 0.060264
0.447249 -0.894406 -0.900781
-0.546673 -0.837345 0.354729
-0.509127 0.617078 0.850378
0.631865 0.490658 0.098065
-0.595477 0.534229 -0.933556
-0.789357 0.130059 -0.065162
-0.563293 -0.568063 0.060434
-0.691768 -0.478590 -1.000000
0.350876 0.936421 -0.894023
-0.981055 0.193727 -0.922080
0.996801 0.079872 -0.287323
0.770020 -0.638016 -0.861314
-0.024923 0.999689 -0.205664
-0.456111 0.801359 -1.000000
0.771577 -0.211334 -0.530707
0.505313 -0.862931 0.514360
0.796530 0.074409 -0.150129
0.999968 0.007618 -0.537707
0.816433 -0.577439 -0.826107
0.138074 -0.787991 -0.810799
0.933732 -0.357962 0.807599
0.772610 -0.207532 -0.439617
-0.981585 0.191000 -0.847668
0.400411 0.916330 0.202257
0.392051 -0.919941 -0.724535
0.017841 -0.799797 -0.037896
-0.774815 -0.199148 0.979199
-0.541686 -0.840579 -0.209496
-0.727218 0.333389 -0.689757
0.275092 0.751213 -0.419554
-0.907857 0.419274 0.477976
0.795960 0.080301 0.712120
-0.623232 -0.616070 -1.000000
0.425018 0.905182 -0.837468
-0.787422 0.141284 0.792886
-0.974048 -0.226321 0.730462
0.351586 -0.936152 0.482857
0.778003 -0.186294 0.094895
0.291537 -0.956558 -0.007791
0.279180 -0.960238 0.035019
-0.713709 -0.700435 -0.413979
-0.370778 0.708885 -0.493259
-0.576655 0.554497 0.399954
0.674759 -0.738035 0.507286
-0.146155 0.786533 -0.431482
0.115136 0.993345 0.634936
-0.640350 -0.768077 0.401522
-0.252937 0.967479 -0.977755
0.931136 0.276862 -1.000000
0.859716 -0.510765 -0.244526
0.362945 0.712930 0.952196
-0.366816 -0.930290 0.033940
0.260492 0.965475 0.896004
0.762815 -0.241056 -0.025288
0.799996 0.001260 0.461974
-0.596665 -0.532907 0.483950
-0.369273 -0.929318 0.333971
-0.960086 0.279697 -0.792865
0.992929 0.118696 0.964889
-0.380972 -0.924583 0.469801
0.515365 0.611877 0.133637
0.355448 -0.934693 0.877068
0.957487 0.288460 -0.450277
-0.990281 0.139060 0.070018
0.157544 -0.784330 0.472960
-0.823646 0.567103 0.206044
-0.857229 0.514933 0.223075
-0.294945 0.955510 0.333245
-0.490646 0.871354 -0.781055
0.291563 -0.915084 1.000000
0.796449 0.075292 -0.663117
0.485190 0.636070 -0.138293
0.799566 -0.026250 0.965761
0.751478 -0.659752 0.449076
0.693532 0.720425 0.934203
-0.525933 0.602819 -0.654931
-0.785913 0.149463 0.645471
-0.980076 -0.198607 0.554178
0.892465 0.451106 -0.257777
-0.992506 -0.122158 0.963767
-0.474005 0.644451 -0.876443
0.369112 0.791677 -1.000000
0.174326 0.780775 -0.085953
-0.040542 -0.798971 -0.251930
-0.770254 -0.637736 -0.883180
0.968703 0.248219 -0.550031
-0.896570 -0.442902 -0.237440
0.769846 0.217563 -0.917222
-0.579356 0.612219 1.000000
0.032986 0.999452 -0.220869
-0.477500 -0.726578 1.000000
0.482160 0.638374 0.933323
0.402441 -0.691404 0.741618
-0.011593 -0.946987 1.000000
-0.915528 -0.402249 -0.015868
-0.645331 -0.763897 0.054585
0.236501 -0.764240 0.272641
0.329134 0.729153 -0.435671
-0.821708 -0.188890 1.000000
0.575836 0.555347 0.011783
0.781266 -0.624191 -0.277556
0.029686 -0.799448 -0.567880
-0.874217 0.485527 -0.319098
0.645420 0.763822 0.183067
-0.548635 -0.582233 0.323655
0.590693 -0.539516 -0.580570
0.132273 -0.991211 -0.767609
0.999494 -0.031774 0.346557
0.728403 0.685146 -0.471596
0.471855 -0.646024 0.015574
-0.918972 0.319157 1.000000
0.794881 -0.090352 -0.101401
0.823868 -0.566779 -0.429853
0.467045 0.649511 0.860901
-0.608580 -0.519254 -0.323201
-0.232725 -0.972538 -0.783562
-0.799446 0.029748 -0.883429
0.648099 -0.469002 -0.420706
0.076325 -0.837345 1.000000
-0.542970 0.587519 -0.388799
-0.750981 0.660319 -0.142834
0.738526 -0.307531 -0.732957
0.597025 -0.532503 -0.209004
0.051079 0.998692 -0.782998
-0.101170 0.793575 -0.455012
-0.931863 -0.362806 -0.607029
-0.765444 0.538033 -1.000000
-0.981682 0.190503 -0.072349
-0.424152 0.905587 0.642837
0.047473 -0.998868 -0.055177
0.743316 -0.305697 1.000000
0.796117 0.078696 0.949391
-0.168231 0.782108 -0.559514
0.374285 0.707039 -0.914882
-0.631079 -0.491664 -0.851936
0.587903 -0.542553 0.958831
0.777557 0.188151 0.857244
-0.874502 0.485012 0.014946
-0.186770 -0.777889 0.316605
0.142921 0.787126 0.501811
-0.022480 -0.799680 0.990879
-0.224033 -0.767988 -0.216311
0.732740 -0.321073 0.651113
-0.779450 -0.180150 0.490738
-0.593838 -0.536053 0.756281
0.912253 0.409621 -0.941652
-0.040972 -0.798948 -0.465712
-0.350842 -0.936434 -0.082264
-0.267987 -0.963420 0.164853
-0.745358 -0.290581 0.062615
0.861008 0.508589 0.399245
-0.367448 -0.930042 -0.897852
0.815887 0.578207 -0.470633
0.952097 -0.305780 0.989906
0.331720 -0.727984 -0.034240
0.272935 -0.751997 -0.929450
0.135217 -0.990811 0.340905
0.012628 0.999920 -0.861264
0.512262 0.858824 -0.553026
0.795716 -0.082644 0.518628
0.563713 -0.825966 -0.386676
0.805143 -0.593080 -0.306733
0.996543 0.083033 -0.203877
-0.941108 0.338101 0.037816
-0.561420 0.827528 0.353714
-0.939834 -0.083060 1.000000
-0.110779 -0.792291 0.905905
-0.330210 0.728667 0.556892
-0.528945 0.848651 0.382604
-0.677818 0.735223 -0.038933
0.236312 -0.971677 -0.121704
-0.777028 0.629459 0.256486
-0.953089 -0.302686 0.999575
0.792889 0.387872 -1.000000
-0.735571 -0.314531 -0.196893
-0.367741 0.710469 -0.713664
0.440183 0.897902 -0.108722
-0.796272 0.077107 0.411257
-0.312489 -0.949916 -0.262027
-0.546372 0.586029 1.000000
-0.998967 -0.045359 -0.150706
0.912439 0.167943 1.000000
-0.119220 0.992868 0.074160
-0.793554 -0.101334 0.089112
0.037874 -0.999282 -0.796789
-0.181241 0.779196 -0.211626
-0.670297 -0.436691 -0.006599
-0.832407 -0.554155 0.536791
-0.663604 -0.545750 -1.000000
0.636731 0.484321 0.013919
-0.119416 0.791035 -0.039524
-0.445768 -0.895143 0.592347
-0.019368 0.999811 -0.886697
-0.302749 -0.740499 0.659359
-0.463912 -0.651751 -0.728121
0.149597 0.785887 -0.667682
0.972853 0.231413 -0.760074
0.405782 -0.913965 -0.871985
0.629725 0.493398 0.993213
0.998843 0.047999 0.049651
-0.881432 -0.110018 1.000000
0.581273 0.813704 -0.657962
0.243628 0.761998 0.900646
0.707888 -0.372681 0.750686
0.781240 -0.172214 -0.868654
0.110432 -0.792341 -0.724892
0.233903 0.765039 0.090835
0.814638 -0.579961 -0.994830
-0.282189 0.748574 0.909836
0.834838 0.550489 -0.037732
0.663711 -0.446634 -0.472728
-0.755726 -0.262438 0.289513
0.830332 -0.437601 1.000000
0.856995 -0.515320 0.593524
-0.138633 -0.990341 0.742262
-0.762692 0.241446 0.759076
-0.212471 0.771266 0.305347
-0.171599 0.781375 0.414603
0.047195 -0.998881 -0.095009
0.416705 0.909036 0.964322
-0.648598 -0.468310 0.082590
-0.362288 0.932066 0.120395
0.248645 0.760375 0.142427
0.293819 -0.955856 0.416895
0.723854 -0.340641 -0.330095
-0.989052 0.147532 -0.467093
-0.980218 -0.197902 -0.364285
0.705482 -0.377216 -0.220231
0.733106 -0.500876 1.000000
-0.082005 0.996631 -0.198709
-0.842865 -0.538117 0.355113
0.724059 -0.689735 -0.430051
0.755979 0.261715 0.535339
-0.119393 0.791039 0.492645
-0.975164 -0.221463 -0.209724
