63.775238 2.606607 2.495574 
49.817429 3.159320 -1.254819 
59.565220 -2.449408 2.421363 
43.454823 7.615880 -1.410448 
56.473221 6.550588 -4.118928 
47.612316 -0.021658 -7.042323 
48.431446 3.350392 -0.411810 
59.880089 6.538146 -3.359839 
62.587196 -3.503091 -0.544705 
58.862694 3.519052 -6.539948 
49.661091 -1.362813 3.114127 
44.461781 -2.671178 1.971564 
48.592014 -4.791067 6.071334 
55.749886 4.611083 6.175594 
39.926605 4.892509 6.003571 
53.322178 -5.707765 -5.197358 
57.114643 6.569067 -2.677141 
59.004089 3.165310 -1.351005 
45.216206 -3.031277 1.532694 
44.592735 -0.943210 3.258948 
54.883690 6.590915 -3.618118 
59.349667 -6.531134 -1.428481 
37.545265 -2.524053 -1.849165 
61.316841 -3.903232 6.507835 
37.287998 3.947886 -6.666946 
53.460148 0.058282 3.407218 
43.298584 4.651949 -6.188812 
47.822037 5.280502 5.652885 
51.882988 -5.762762 5.144006 
43.559822 4.998096 5.912424 
40.800026 -7.443348 2.147115 
52.922195 2.982343 -1.646359 
52.826385 -3.388678 -0.323849 
59.139446 -0.169587 6.533354 
50.292721 -6.631748 -3.005976 
61.484467 2.336754 2.584777 
41.621490 -2.561970 -2.213151 
61.228851 -2.578216 -6.502218 
33.331989 -7.742369 -0.246260 
41.114624 2.659549 1.817862 
49.084137 6.642494 1.464061 
64.976387 5.142538 -2.907547 
60.218822 2.123290 6.527709 
44.422588 6.205878 4.627188 
42.501892 -3.380767 -0.185204 
64.551186 -6.297115 -3.183380 
57.794018 -6.560645 -3.310207 
55.108479 -5.226577 5.668682 
40.149151 7.532138 1.811075 
62.090744 5.726267 -5.028307 
60.728123 -0.762223 -3.372522 
35.589321 0.341580 7.739323 
41.243607 0.295749 2.915682 
61.700672 -6.476233 0.251308 
57.784332 -3.507929 6.555884 
39.798840 0.120229 7.746100 
53.543755 3.211065 1.137695 
45.737999 3.401289 6.960756 
58.301472 -6.555721 -3.531658 
31.393806 5.803622 -5.128343 
47.600624 1.687685 7.052137 
45.861603 -3.704228 6.803896 
51.480198 4.237293 -6.484431 
41.414497 4.132843 -6.554962 
44.630020 -2.469885 2.321774 
51.779476 1.405406 -6.618718 
32.084816 3.727296 6.790209 
59.850632 -4.898339 5.897569 
43.492699 3.102828 7.098056 
45.689659 7.102544 -3.087106 
38.062382 -3.938908 -6.672657 
50.698154 2.311534 -2.489301 
54.352287 -1.188428 -6.593682 
31.931976 -2.341096 7.383620 
47.891991 -2.747417 -6.762944 
62.578621 6.456192 0.980853 
31.099922 6.756354 3.786722 
47.078693 -3.188926 -7.052467 
44.925339 0.448850 3.128943 
57.182549 -1.696722 -2.974543 
50.021294 -2.471824 -6.634163 
54.882362 6.428061 -4.299394 
61.232979 -5.122279 5.671671 
54.562660 -3.127342 1.361538 
37.325203 2.899318 1.515093 
56.292301 -1.581737 6.573282 
56.936813 6.568995 2.456189 
42.998131 -2.045082 -2.268593 
59.743549 -0.103729 3.453427 
36.916466 -0.754343 0.818205 
34.647755 6.100928 -4.772624 
50.748013 -5.543507 5.384535 
52.306942 3.407387 -0.033973 
52.755463 -6.609630 -0.267715 
48.053566 -6.674891 -2.054764 
35.864483 -7.601755 1.492311 
47.137489 2.743546 1.953548 
54.629837 -2.428623 -2.390914 
38.927608 -6.018654 -4.874282 
62.112148 -3.090584 1.619143 
35.356445 -5.867011 5.057373 
53.075981 2.993442 6.606916 
64.755402 -6.148788 0.012357 
47.843113 -1.324535 6.810002 
36.990646 -1.967519 2.648049 
54.144753 -3.413441 -0.053408 
57.855087 4.918150 -5.911275 
43.216393 6.507216 4.205188 
60.073399 1.759947 -6.517835 
35.027119 -7.746705 0.052058 
57.269905 -0.760916 3.335962 
44.090633 7.624750 1.355845 
32.144665 6.752567 -3.795127 
31.094664 7.503038 1.921648 
57.267193 -1.528573 3.062911 
43.461761 7.136492 3.012109 
45.872520 2.333039 2.340365 
45.081207 1.033574 7.674682 
34.109928 0.001859 7.746467 
64.448555 -2.476890 6.311144 
53.967453 -6.598130 -2.426568 
58.762527 -2.694793 2.130279 
37.853756 0.391057 7.737069 
39.967861 0.735715 -7.712023 
42.613796 -5.857211 5.064206 
45.021843 -1.446621 -7.609716 
37.450890 6.876043 -3.570324 
40.392891 2.829818 7.211323 
33.356407 2.859607 7.199108 
47.617531 5.039597 5.868694 
37.431980 1.865351 2.737725 
49.658661 -0.734805 6.637394 
63.320095 3.383988 -6.446718 
64.812637 -6.216541 -2.743986 
41.325802 1.005121 7.681332 
56.663666 -0.274949 6.568082 
47.040962 6.775604 3.753155 
45.786728 -2.758103 -7.236724 
60.320927 -6.510731 -0.535040 
55.663891 3.459886 -6.579571 
64.001266 6.370924 -0.234581 
30.681435 -3.789837 6.753827 
57.962090 -1.859053 2.880383 
46.844395 -1.980598 -2.747756 
57.113621 6.568329 4.005800 
49.452133 1.459595 -3.068835 
41.542522 5.726079 5.213070 
58.678459 4.305717 -6.410514 
43.577576 -4.755298 -6.109371 
39.546860 -0.783451 -7.707672 
51.486511 5.773347 -5.134272 
47.739445 -6.910428 2.655339 
60.474903 -2.027804 -2.805864 
47.226357 -0.446997 -7.431381 
62.122410 1.406369 -6.471557 
37.465519 -0.866425 -3.167128 
54.746117 -1.380099 -6.589675 
50.187424 6.632794 -0.940091 
57.955521 0.855171 3.322068 
57.902164 5.384066 5.490006 
45.372311 1.821394 7.526501 
47.888329 -6.767532 0.126376 
63.583775 -6.422478 3.927140 
47.379860 -6.331245 -4.450438 
62.069546 -0.427784 -3.464364 
64.788826 4.199411 -5.855179 
34.113453 6.318552 -4.480162 
57.558022 4.762314 6.041058 
64.984520 4.355422 3.912706 
56.786026 1.476325 6.567736 
54.839237 5.171428 -5.721150 
57.298977 1.921970 6.563078 
32.263123 4.066674 -6.592550 
47.889351 -1.660308 -2.885664 
64.948212 -0.383821 -4.316894 
51.834568 5.129663 -5.776619 
48.956520 -5.484203 5.451569 
45.110939 -1.697960 -2.803729 
44.992168 -1.840486 -7.522178 
56.293449 -6.572482 1.841903 
64.987656 -3.593262 -3.930575 
32.110863 -7.359968 -2.414515 
64.976372 -4.673003 0.174261 
62.210846 2.276150 -2.669615 
58.407562 6.551212 2.604861 
41.107170 -7.318343 2.539723 
64.257736 1.723178 -3.240876 
34.271259 -5.645692 -5.303055 
39.332428 -7.259304 2.704269 
37.099808 2.378496 -2.041310 
52.702805 3.408791 0.028089 
46.403603 -0.808897 3.298423 
38.020256 -2.376632 7.373636 
49.010361 2.284853 2.513623 
41.048172 3.046705 -7.122018 
40.796864 -3.384295 0.192032 
49.768414 -5.425185 -5.507197 
46.630493 -5.744517 -5.183148 
58.374107 -3.201551 -1.229548 
37.438278 -7.367564 -2.393477 
49.587814 -6.637935 2.772651 
56.992302 4.553056 -6.209103 
61.158928 -1.850144 2.931870 
40.577354 -4.827662 -6.055482 
60.705135 5.763443 -5.036362 
58.057663 -3.068347 1.525929 
39.062729 6.399561 4.364869 
40.331169 -3.741917 -6.785090 
36.675983 0.992900 7.683108 
50.112141 -2.197311 2.595036 
30.920248 1.563739 -7.585335 
38.905144 -2.711730 -1.370252 
61.967995 6.484441 -0.971842 
47.981789 -2.464294 2.339268 
52.162048 4.227048 6.489383 
31.134394 -5.466200 -5.486119 
38.333397 -4.184460 6.520867 
54.939590 -6.587462 -0.642741 
35.633003 7.466649 -2.065011 
48.578884 6.646498 -2.702426 
45.681137 -3.084222 -1.345081 
48.689293 0.597980 -3.335276 
64.802399 3.938823 0.350352 
39.560253 -3.381924 0.201060 
59.317745 3.252862 -1.135544 
52.828815 6.135851 4.688101 
34.976631 4.337052 6.417382 
42.931179 -1.059507 -3.222319 
56.262180 1.736206 -6.572822 
53.558411 6.602866 1.851717 
53.390457 4.658466 6.155328 
32.126587 -7.006620 3.302492 
63.110989 -6.001086 -4.621478 
32.929955 -6.075172 -4.804769 
38.303902 -1.679698 -1.872238 
59.269611 -2.757219 6.532558 
50.582733 -5.572032 -5.356746 
36.671474 7.680911 -1.008535 
62.745098 6.458566 2.634532 
37.317719 -2.974005 7.153027 
54.446701 1.744921 6.593043 
55.799343 -0.580945 -3.364129 
51.504711 3.560673 6.621093 
57.015202 -0.201441 3.419158 
46.505714 -6.620842 -4.026619 
56.790909 2.310954 6.569814 
47.828979 -0.403731 3.345009 
44.849613 2.261671 -2.503830 
36.715054 0.345589 -7.739598 
56.192467 -3.322554 -0.804241 
47.266399 -1.739372 2.917844 
64.943436 -4.132038 1.224462 
58.993721 -1.338241 6.536011 
51.720688 -6.619265 1.473851 
37.761311 3.009356 -0.752670 
62.029675 6.508480 -3.844353 
30.316353 4.632716 6.203741 
38.893028 5.079556 -5.846347 
48.044823 -1.631508 -6.677573 
53.433388 -6.603145 -2.265320 
47.724567 -0.386701 -6.929101 
47.714924 -6.438330 -4.305099 
37.039474 0.816118 2.713677 
55.655205 0.378163 3.389442 
51.074039 -3.201839 -1.121919 
38.595669 -2.464914 2.181449 
59.153465 5.911279 -4.895900 
52.418430 5.610956 5.304787 
31.627535 2.684230 7.265781 
34.876961 -5.269343 -5.677381 
51.014053 0.186031 6.625545 
34.334625 -0.899602 -7.694110 
55.468765 3.188459 6.584941 
53.208374 1.835886 6.605197 
46.938568 7.435388 2.093173 
30.261368 3.952150 6.657683 
54.372169 3.699844 -6.593892 
64.176132 1.579432 -6.351439 
64.281265 0.084432 -3.648197 
42.651588 7.730876 0.484283 
46.962303 7.007443 3.290593 
37.896492 1.059085 -7.674656 
64.971275 -5.653435 3.787319 
63.144569 3.562334 0.350066 
54.115963 -0.610083 -3.348402 
45.417210 2.280366 2.488757 
48.582039 4.037289 6.611100 
49.414608 -3.162192 -6.639415 
47.841640 2.743974 -2.000344 
60.942619 1.963907 -6.501589 
62.821136 6.445839 0.686306 
42.719933 -7.333248 2.494579 
64.330078 -3.658072 -0.148206 
56.886528 -6.565869 -1.535811 
36.724030 -5.453464 5.500490 
56.370590 -6.574261 -2.702267 
62.155495 2.934958 -6.476274 
64.417267 -1.903177 6.313472 
40.569145 -1.019615 -3.230361 
49.564980 3.355874 -0.441799 
55.379425 2.603917 -6.582902 
48.739052 -5.597754 -5.336329 
53.606304 6.602418 -0.843626 
42.788723 1.493057 -7.601770 
61.800228 -1.837519 6.476882 
53.975807 -6.597817 2.617951 
64.915398 -3.899383 -5.896711 
59.308327 -3.023789 -1.645190 
56.467369 -4.907261 -5.935571 
43.072498 7.165131 2.943165 
38.474327 -7.746435 0.103864 
45.333405 5.513634 5.431011 
48.657436 6.646097 -2.258296 
50.294388 0.677402 -3.330479 
36.929104 7.745924 -0.133911 
39.807766 -0.469105 -3.037416 
50.439686 -6.630558 1.418923 
31.773937 -7.599077 -1.501194 
56.927002 6.392292 -4.327169 
64.981689 4.854704 -0.429095 
56.497864 -6.569317 4.052350 
30.961849 7.196336 -2.863358 
35.940117 -6.565994 4.112941 
42.581749 -7.491104 -1.972463 
53.629608 -2.295523 2.519639 
48.136898 -3.281538 -0.882889 
64.977722 -4.242576 4.392732 
34.205750 -7.497567 1.947198 
50.679375 -2.594375 -6.628344 
42.429482 -3.139867 7.080929 
58.710339 1.186515 -3.225165 
57.202629 4.180943 6.519405 
33.256592 -7.655437 1.183019 
43.296669 1.198068 3.171948 
51.291935 -1.587043 -6.622978 
48.201660 -2.813803 1.903487 
62.507370 -4.099702 6.477873 
40.677921 2.659391 -2.085819 
49.985878 6.634544 1.717602 
47.422707 2.932303 1.717781 
57.923210 0.826073 -3.328369 
49.778183 -4.383195 -6.382421 
52.620525 -3.333502 0.689587 
46.500957 1.468403 -3.059265 
64.971756 0.505268 5.487202 
41.082848 -2.995473 -1.186696 
33.703583 -3.419946 -6.951066 
64.891541 -1.056959 3.972710 
37.117172 6.844130 -3.632252 
36.988792 -6.939035 3.444949 
57.581692 2.376565 2.464718 
38.164467 7.526606 1.832868 
61.798229 -5.745610 -5.017825 
57.752010 -6.554212 -4.080501 
60.107162 -6.525594 3.713656 
37.225349 -0.190177 -1.903437 
43.187527 1.404032 7.618436 
43.961174 -0.246563 -7.741282 
35.927303 5.293753 -5.654524 
43.293678 -3.312964 -0.592762 
62.274364 -2.245918 -2.699154 
32.552605 -7.072844 -3.158005 
36.862015 -1.915827 7.506364 
64.964561 4.461305 -0.432569 
33.838017 -6.113266 4.756715 
52.379093 -0.523455 6.613332 
54.263107 -0.928650 -3.280857 
58.256897 -6.546962 3.102090 
63.536621 -2.732559 6.397602 
35.547947 6.650672 3.974145 
43.382580 3.326085 0.572644 
46.665016 2.668629 -2.101984 
46.039078 0.918896 -3.270689 
54.237511 -0.734962 6.595387 
43.754723 -2.795550 1.894945 
31.817024 6.497760 4.215934 
48.290245 4.364877 -6.395686 
48.051895 -2.507884 6.674003 
49.383186 2.373865 6.639755 
64.957962 3.694185 -2.694062 
61.332958 3.405951 0.793335 
53.309769 6.581166 4.074292 
61.434322 3.076691 -1.604146 
44.286129 -1.323597 -3.125538 
30.486366 0.926921 7.688393 
43.920624 1.043181 -3.230534 
62.129822 6.277660 -4.348993 
49.722641 2.906154 -6.636733 
41.824135 5.061195 -5.860566 
47.013428 -0.193415 -7.639105 
39.761272 -0.439010 7.734697 
37.390163 5.690216 5.254991 
42.308765 -3.162172 1.226999 
37.940586 1.422814 3.005716 
40.885708 -0.309484 -7.740907 
43.534935 2.794604 7.224399 
37.152214 5.135084 -5.798740 
35.914757 7.621170 -1.390051 
38.371754 -0.526571 2.802011 
37.885700 -6.511822 -4.197343 
43.226570 -1.733015 -7.550066 
45.210278 -7.726997 -0.510489 
39.047081 -0.385195 2.968097 
49.853783 6.635589 -2.717257 
33.303036 7.405614 -2.271943 
33.290665 -4.867126 -6.025391 
53.190308 6.606373 -3.018240 
40.980522 -4.895761 -6.000210 
49.091606 -6.642335 -2.393160 
45.886246 -3.288162 0.836048 
62.625645 1.509175 6.472597 
39.866997 7.149675 2.981708 
53.236729 6.391548 4.352692 
49.512154 -3.332051 -0.646096 
33.012962 -3.633101 -6.841657 
61.804840 5.245658 5.539820 
30.275162 -7.729836 0.449895 
62.358875 -5.629018 -5.120711 
57.010986 -2.889853 -1.831355 
58.031708 -5.601803 5.263230 
37.230438 -1.376783 -1.589791 
35.246754 6.505608 4.206075 
50.607384 0.512290 -3.351662 
36.801903 -3.572774 6.875143 
64.628777 -5.866085 -4.389332 
35.012978 -1.464892 7.607328 
42.117821 7.597389 1.513038 
57.553486 -1.693529 2.979787 
54.824242 0.772206 3.322243 
61.676422 1.981878 2.881011 
44.236904 -7.613233 -1.418226 
44.021149 -0.609399 -7.722438 
41.317043 -6.061357 4.819594 
40.802914 -2.464065 7.344665 
48.809151 -3.308270 -0.778906 
61.142574 -0.591410 -6.494969 
33.375370 4.229692 -6.490029 
52.810867 -4.532292 -6.254613 
39.418980 -3.156141 -7.075278 
62.428333 5.814452 4.908848 
50.280693 2.066121 2.700942 
56.029366 -2.513747 2.315522 
56.840340 5.087755 -5.777776 
56.531235 -6.569675 -1.186841 
43.127617 -6.327827 4.463284 
56.256733 -4.617623 -6.166259 
51.352989 6.424282 4.318019 
33.628578 6.604260 -4.050302 
39.867290 4.592005 6.236519 
53.224674 2.659455 6.605340 
53.166531 -2.823486 -1.906934 
56.908081 0.195223 3.415465 
63.175053 -0.395986 -3.503727 
41.662197 -2.808101 -1.801634 
47.399368 4.780890 6.082194 
36.765728 -7.214192 2.822511 
63.784950 4.595919 5.950666 
39.738060 -2.505373 7.330640 
53.972450 3.002673 1.615563 
57.794235 0.140390 -3.426867 
46.339046 7.017041 -3.278785 
57.136211 2.834341 -1.918022 
34.412678 1.015151 7.679655 
58.378468 -4.002667 6.554613 
46.519665 6.506539 -4.206377 
53.830978 -2.021367 2.745290 
35.457447 5.458262 -5.495882 
60.776070 -2.805757 2.049331 
59.858150 6.525505 1.663082 
45.215927 2.374306 -7.372523 
52.371155 -6.613312 0.505175 
33.656509 -4.985040 -5.928286 
60.489239 2.629487 2.243049 
53.733154 2.174612 6.600272 
58.951157 0.301744 -6.535990 
45.832024 6.835808 -3.648867 
40.364876 1.448401 -3.043480 
31.969700 -4.477363 6.319244 
48.850365 0.093587 -3.397541 
39.889038 -3.230237 0.929520 
57.671749 -6.560215 3.818545 
43.222809 -3.172126 7.066310 
42.162254 6.096361 4.774191 
34.175529 1.311356 -7.634789 
37.782589 7.725224 0.576844 
38.749611 0.007496 7.747066 
40.287846 -7.206453 2.841325 
36.595039 7.742191 -0.266421 
45.079578 6.368877 -4.404030 
48.810589 6.191418 4.634329 
52.118683 2.022540 6.615411 
50.772682 3.387590 -0.238385 
48.818436 3.193886 -1.159004 
61.106270 6.501686 -0.312886 
48.648331 -3.631346 6.645933 
35.267601 -1.812786 -7.531819 
50.332485 -6.631511 -0.230650 
64.678268 -1.631642 3.466271 
46.163826 1.304596 3.135718 
48.469513 5.477717 -5.459545 
58.293934 -6.547526 -1.542934 
42.746761 3.288937 -0.467393 
64.550194 1.312488 -3.518408 
52.268436 2.908031 1.768469 
42.001980 -4.861276 -6.027236 
62.916496 -6.449315 3.336542 
64.985687 -1.649032 -4.759084 
30.656672 5.274594 5.669806 
49.123161 2.155849 -6.642032 
53.009346 -4.994364 5.887960 
35.767654 5.035179 5.885932 
64.980316 -5.314295 3.630836 
39.012455 7.536262 -1.793749 
61.391338 6.498735 -0.874563 
34.328094 -7.746260 0.079714 
61.463940 -6.413517 4.259145 
41.811459 -3.300343 -0.607880 
41.535484 -7.696545 0.880266 
56.523773 -6.574893 -3.513203 
51.161007 -2.714791 -2.049692 
51.870148 3.197693 1.163551 
46.842632 -7.431880 -2.124927 
47.176735 -6.807293 3.694345 
41.935616 5.234002 5.706676 
56.538239 4.538687 6.224133 
59.884743 5.062253 5.756866 
63.855438 -5.365617 5.254744 
35.702080 -1.738998 -7.549299 
40.591904 -7.532763 -1.808551 
36.496544 2.480590 -7.339015 
37.176292 -0.527214 -2.435559 
59.405479 -3.442060 -0.121081 
51.985649 -0.350062 3.379547 
64.094666 2.734499 -2.405288 
59.643677 -6.527170 -1.677456 
49.095039 6.642369 -0.961174 
60.245514 -6.531075 -3.849346 
38.202785 -1.589521 2.979205 
52.436665 6.612999 0.500046 
36.444992 -5.016566 -5.901667 
42.770164 -7.693060 -0.907331 
64.929543 5.885720 -0.855897 
62.671246 -6.472779 -3.798177 
60.831356 6.509389 2.250976 
33.841438 -5.651559 5.296769 
57.500488 5.694786 5.171892 
44.926178 -4.253174 6.474103 
57.922028 -2.074585 6.552734 
41.539974 1.272565 7.641733 
58.811893 -2.996652 1.690279 
52.812057 -2.704581 -6.609130 
40.209007 -7.594915 -1.526719 
44.950096 2.128061 -7.446309 
38.938267 3.422901 -6.950237 
54.864655 3.322074 -0.775693 
38.850105 7.742386 -0.261371 
33.483543 -5.985537 4.916341 
31.753315 -6.948417 3.422576 
46.319805 -7.510271 -1.878725 
56.870327 -3.416017 -6.571070 
35.527752 -5.464764 5.489396 
61.102036 0.214020 6.497766 
59.113445 -0.205690 3.441009 
32.173820 6.645730 3.979493 
37.253738 7.747082 0.031789 
46.376450 5.610347 5.328096 
36.697620 -2.418071 -7.360244 
46.995010 7.638650 0.507961 
47.753082 4.794345 6.070767 
40.763882 -4.567926 -6.253785 
62.738148 -6.441354 -0.786420 
41.167011 0.745970 -3.300075 
52.341171 -3.358055 -0.545587 
64.302750 6.336907 -0.920352 
41.596710 -0.723560 -7.713299 
63.468620 -3.540587 -0.655113 
48.079536 6.666628 2.698922 
47.494720 2.424067 2.296162 
60.179863 -1.912026 6.515528 
56.555931 6.574759 -3.037251 
45.638840 -5.985100 -4.906358 
51.307198 6.622999 -1.363167 
44.894257 -4.231042 -6.488568 
64.968590 4.261179 4.630658 
34.401932 -2.836808 7.207969 
40.831566 0.313080 2.826588 
49.964756 -1.079170 3.222230 
62.734253 6.467395 3.479262 
63.561821 -2.712404 -2.311858 
40.623066 4.393958 6.377780 
56.551109 -0.626595 -6.569082 
46.641258 -7.163292 -2.937771 
64.735878 2.708309 2.804742 
57.463745 -6.464381 -4.251143 
49.288330 1.109600 -3.213565 
63.774940 4.330333 -6.210283 
60.106110 -3.387303 6.520877 
61.782799 6.508575 -4.092103 
35.590271 -0.296754 -7.741254 
49.262520 -0.853905 3.290373 
45.539124 -3.818587 6.743165 
64.986305 1.058473 5.043070 
38.114227 -1.605775 -1.521463 
46.237076 -2.853479 -1.828784 
52.303024 0.712031 3.328746 
44.963192 -7.673075 -1.052990 
61.116032 -5.998220 4.740039 
34.026466 -6.804581 -3.704180 
41.922306 -5.860757 -5.061040 
57.186565 5.168531 5.701912 
62.195263 -6.465214 2.465274 
35.201443 7.169005 2.934896 
35.979252 4.736843 6.128637 
34.207500 7.456286 2.101384 
32.581615 0.731223 7.711624 
37.908829 0.729463 -3.065141 
53.622658 3.445350 -6.600875 
33.710957 7.737329 0.375209 
64.820038 1.376426 3.732167 
61.276276 6.511408 3.808317 
35.479996 6.192839 4.652459 
37.252632 2.945975 -0.709987 
56.036583 -1.255673 6.576099 
53.092552 -1.187078 6.606685 
56.298180 -1.285995 -3.168250 
57.088295 -6.253067 4.492860 
46.483150 6.306922 4.485777 
46.892818 -7.705997 0.130011 
48.717278 6.401433 4.353817 
62.315849 -6.457727 1.327845 
36.589069 7.339984 -2.477498 
63.911369 0.748849 3.520810 
50.184647 -4.012489 6.614903 
36.899147 -7.712503 0.731456 
52.548172 4.280948 6.450502 
52.534451 -3.136892 1.325298 
52.482796 -3.056331 -1.478461 
53.282761 -3.382558 0.396613 
38.596916 7.721486 0.625855 
59.603577 1.827371 2.917023 
34.263371 6.835026 3.647717 
51.728802 0.017013 6.619215 
50.831730 3.236484 -1.043540 
44.299591 7.153671 -2.969329 
42.736073 -4.538341 6.274044 
50.443256 -1.393511 -3.101184 
59.591774 -6.525310 -0.857501 
30.851835 -7.641540 -1.261812 
37.175610 -3.248922 0.506978 
59.463535 1.754814 6.535654 
51.636070 6.620116 -0.393562 
61.221664 0.846631 6.499298 
31.940168 3.121612 -7.089088 
46.354378 -1.954021 -7.490105 
59.595314 2.951270 -1.792073 
38.727848 -6.287389 4.523186 
62.809364 2.963551 1.892721 
59.912086 -2.335728 -6.526456 
51.323097 -3.371787 0.449289 
57.037994 -3.180414 -1.263099 
30.202366 2.920813 7.170486 
63.278236 1.615730 -3.167757 
64.579575 -5.103682 5.275440 
35.583847 4.957798 -5.951346 
39.788391 -2.087044 -7.460515 
38.630447 -4.671872 6.177352 
37.204174 0.939623 3.042966 
50.040691 -5.284676 -5.640894 
48.605766 -0.877812 3.283612 
42.591236 -3.316469 0.669394 
41.754990 1.911187 -7.507438 
48.334976 -2.045485 6.648950 
39.450985 -2.993787 1.576355 
61.972069 -6.470011 1.704603 
43.801399 -7.711492 -0.728570 
52.602989 1.834368 2.867948 
36.701424 4.918740 5.983539 
64.161674 -3.366611 -1.402554 
42.313992 2.660305 -2.099506 
41.857815 7.693224 -0.907667 
56.545238 5.731313 -5.143219 
60.967796 2.329479 -6.501392 
37.744743 6.462754 -4.271122 
40.179214 -3.601629 6.860851 
60.884708 -6.159031 4.539090 
43.298820 -3.798447 6.754585 
50.860100 5.330056 -5.596242 
47.522476 0.892300 7.132719 
40.659481 7.072751 3.160119 
32.680138 7.182049 2.902006 
35.882107 7.547506 1.745931 
47.276360 2.013637 -2.726451 
52.084026 1.403530 3.101026 
41.179325 2.594571 -7.299232 
63.557522 4.969420 -5.670088 
43.660248 -6.532301 4.166532 
43.549728 6.468351 4.263746 
41.625938 3.211915 -1.070244 
48.133972 -3.538464 -6.653027 
47.502159 4.451294 6.332432 
63.020935 0.254061 6.440906 
51.034447 -1.854129 6.625322 
60.514030 0.650351 6.511990 
53.791523 0.983929 3.263852 
41.182083 -7.695724 0.887869 
46.224758 -5.071963 5.843751 
50.349377 -6.631361 -0.656429 
64.973579 -4.503519 -4.247087 
58.728630 -4.797812 -5.997498 
45.877415 7.695423 0.867735 
56.335617 -4.295352 -6.439733 
40.387333 -4.472023 -6.323271 
58.744740 -6.539563 -0.980161 
41.129963 -6.704171 -3.885237 
55.195450 -3.240772 -1.068689 
43.241852 -5.488883 -5.459960 
49.578197 2.356498 -2.442795 
58.341778 0.657484 6.546532 
36.863258 6.819553 3.678908 
50.040524 0.491819 3.303588 
43.627781 -0.028414 -7.746137 
37.375664 2.958321 0.416372 
56.865616 1.841379 -6.565545 
40.048519 3.265533 -0.877457 
37.844723 7.607444 1.462872 
45.310768 3.335888 0.550215 
64.900513 -5.211270 -4.553610 
46.921028 -7.522499 -1.768578 
36.258545 6.898845 3.524992 
61.615406 -5.405874 5.390813 
41.437153 -6.812558 3.693527 
57.515327 0.581635 -6.556633 
56.099262 2.665927 -6.574782 
46.446289 7.355950 -2.410670 
41.771278 7.744308 0.201321 
35.166428 -2.951786 7.162137 
46.708023 -4.049983 -6.606654 
63.774033 6.466643 -3.829135 
46.143547 -3.174500 -1.090370 
35.706261 3.694725 -6.809701 
38.998306 3.106337 -7.096181 
63.459274 -5.073733 -5.592069 
56.105957 1.994443 -2.776239 
49.562840 -3.340032 0.623847 
43.076347 -2.547715 7.315496 
50.381264 -1.117746 3.208891 
50.749897 -1.511602 6.627839 
54.093399 -2.564507 -2.247765 
50.773438 6.627665 -1.401825 
44.576832 3.875125 -6.711027 
58.906921 -3.327591 -6.546940 
39.741257 3.009478 1.546873 
43.201099 -2.838451 7.207299 
62.731041 0.128006 -6.444160 
37.539223 -6.511970 -4.197049 
38.599869 -3.036489 1.494375 
59.220688 -1.581543 -6.534496 
63.466736 -2.369874 6.403924 
43.351223 -7.708111 -0.766657 
42.718666 -0.689779 7.715537 
48.792030 -0.331165 -3.347005 
46.539215 -1.671474 7.558780 
34.136177 7.513064 -1.886623 
59.663845 6.533260 2.702197 
64.847527 -3.656814 -1.613380 
44.658794 2.410535 7.361236 
40.885311 -4.027552 -6.619657 
58.076355 6.557953 -2.122015 
58.337570 -3.438874 -0.018285 
43.996105 0.095268 3.349399 
49.312279 -6.583229 4.088057 
38.351349 3.653748 6.832449 
58.282425 6.551640 2.260902 
38.484947 3.037378 0.040821 
46.301884 -3.305643 0.774499 
35.307777 3.678575 6.818247 
35.044804 6.397224 -4.367825 
58.077518 -1.204310 6.549867 
51.927990 2.200768 2.595625 
47.039925 7.607258 0.872042 
40.867432 -1.993071 -2.004616 
32.696064 5.229342 5.713793 
56.383789 1.574070 6.572450 
57.136581 -2.651577 -2.161581 
43.915588 -3.356621 -0.361173 
59.737316 0.581216 6.525251 
32.667877 -7.694867 0.890430 
30.804417 0.807190 7.702678 
43.490173 6.742636 3.819469 
58.531776 -3.154613 -6.550958 
57.519684 3.424979 0.121154 
37.927422 -3.452534 -6.936542 
64.405716 2.931992 2.283800 
63.771389 -6.383324 -1.349120 
36.048100 -6.332534 -4.460779 
54.875298 -0.109872 3.411514 
63.353584 3.185264 6.485520 
64.479500 -4.033425 -6.360698 
39.567616 3.687152 -6.814701 
45.963707 -0.188678 -7.739790 
62.072739 -6.472075 2.800137 
64.940117 -3.676148 -5.650887 
39.887318 5.778002 5.156916 
51.615227 3.013293 1.581707 
64.989449 -4.691623 2.879248 
34.112297 -7.737884 0.361290 
64.942841 3.737131 -2.294920 
44.850636 7.741426 0.241670 
49.046509 -6.642767 -1.504111 
46.971756 -2.416651 2.386566 
46.240452 6.986774 3.343080 
30.238672 0.490262 7.726784 
49.015144 1.998762 2.749650 
61.556149 -0.537042 -3.452187 
45.989727 -2.583488 2.174793 
61.909145 -5.002557 -5.756494 
52.418739 5.162288 5.744496 
52.240883 6.614755 0.791975 
44.407181 -1.403366 -7.618022 
46.898010 1.398285 3.094826 
61.757801 6.485900 -0.438951 
49.563347 -0.471487 3.343430 
48.227882 -6.650233 -1.247220 
60.117298 -2.045141 -2.782107 
62.288216 -6.246552 -4.383121 
63.545853 -6.366451 -4.234930 
40.746998 4.888416 -6.006364 
39.815807 7.609047 1.455156 
34.859970 6.534030 4.162091 
47.243889 -1.548092 -3.000307 
37.849445 5.729252 -5.212150 
59.996624 3.035511 -1.640604 
37.626507 2.546740 7.316197 
57.191994 -3.391454 0.488967 
56.039097 -0.990716 -3.271445 
48.454544 6.648573 2.670088 
43.295979 2.146940 2.618787 
38.510189 -2.801265 -7.222198 
56.935165 4.397633 6.335342 
37.336079 -1.709368 -0.847270 
58.305981 0.269838 3.420715 
46.052990 -4.850002 6.029651 
47.731331 -0.390449 6.922250 
44.623177 0.944868 -3.261998 
36.047523 -5.678862 5.267671 
43.075008 7.743361 -0.215149 
33.966270 5.870569 -5.053087 
56.629719 -1.638912 6.569292 
59.357372 -3.242121 1.153255 
49.260796 -1.649061 -6.640865 
60.835903 -1.244151 -6.503904 
38.701660 1.161021 7.659348 
55.865364 0.370388 -6.577073 
50.188061 1.432877 3.082906 
57.350647 -3.626204 6.561777 
47.897732 3.116194 1.350182 
50.098846 2.703726 2.024545 
39.380688 3.224321 -0.533427 
47.525311 2.350232 -7.123982 
63.204094 -6.430668 -2.526023 
36.727509 -2.279444 1.092964 
38.149437 -3.122976 7.089007 
58.188667 -6.547465 2.548437 
54.089249 -6.598041 -3.754999 
47.920296 -6.742774 -1.739813 
42.913761 -6.780019 3.752986 
40.992744 -7.096740 3.105595 
57.162224 -6.561036 0.552238 
46.734230 2.205224 2.581763 
31.200331 2.416011 7.358781 
40.587032 5.436226 -5.515729 
50.974876 -0.043299 -6.625890 
48.085918 -4.612104 6.210448 
63.006496 -1.157626 -6.436681 
47.537666 -7.116243 -1.792641 
38.330978 -6.447371 -4.294504 
46.009880 2.548269 -2.245078 
63.510391 1.430550 6.437372 
63.842560 -1.892729 -3.057930 
64.929573 5.962582 2.851329 
52.008396 5.065435 5.831980 
45.615211 -4.441419 -6.343075 
44.930832 4.482480 6.312831 
60.811878 3.077622 1.577722 
39.746925 0.263475 -3.344716 
37.237968 1.330679 2.945109 
62.569275 -6.463434 3.383633 
52.348827 -3.387720 6.613213 
53.448296 -6.602914 -0.258901 
32.709541 -7.448436 2.127434 
52.024830 -0.601126 6.616568 
55.422016 1.180289 -6.582330 
49.407681 -6.639433 3.361618 
35.283165 -3.216835 -7.047503 
62.649811 -3.227755 6.449036 
48.849716 -6.644512 -0.757123 
39.854866 2.806060 -7.220592 
32.718609 3.781096 6.760949 
52.702244 6.610604 0.787978 
63.079327 6.444320 2.562030 
64.223679 1.350268 -3.404910 
40.418388 1.651324 2.947517 
45.528435 3.079573 7.107132 
47.177727 -7.477712 0.801189 
50.439369 3.228280 1.066833 
55.392078 -5.089046 5.790316 
45.970329 -7.622849 1.353810 
45.768612 -3.395308 -0.030729 
62.282265 6.492647 -4.090796 
57.039150 -1.482054 -6.564093 
62.974743 -1.332851 6.433003 
49.001671 -6.642927 3.446342 
59.180473 -5.269906 -5.578905 
41.376846 4.065976 6.596154 
41.259438 -0.408226 3.224412 
34.698841 -7.571409 -1.637943 
63.048328 -6.430528 2.426770 
60.217648 6.518915 1.650212 
45.627777 -6.379085 -4.389226 
31.301117 -1.868942 7.516647 
47.747505 -6.888487 -3.302323 
35.220005 6.701152 3.887818 
37.039703 6.454333 4.283886 
31.581413 5.982899 -4.918364 
39.394573 0.253018 -3.345275 
63.088493 -0.137927 3.549011 
48.413803 -1.612786 -6.648363 
64.064651 -6.072622 4.402503 
49.634064 -1.386191 -6.637602 
53.400925 -6.604235 -3.632434 
63.479988 -5.390728 -5.285456 
42.535889 6.845137 3.632738 
37.343689 -4.364321 6.398347 
45.312046 4.655263 6.183317 
36.708633 -6.031539 -4.859682 
54.733719 -3.225034 6.590044 
40.878273 5.969314 4.933577 
63.284370 -6.432624 -3.174163 
54.944954 2.512535 6.588923 
64.981438 -5.444829 2.624600 
52.686264 5.931876 -4.944247 
49.623405 -1.722637 2.930863 
36.804592 1.771287 -0.021277 
48.150974 -2.967062 6.653165 
33.980804 -7.219434 -2.808040 
38.969543 6.146767 4.711656 
64.829727 5.373300 -4.664585 
36.800987 1.775785 -2.315354 
44.524616 2.008626 -2.717162 
45.986801 7.008858 -3.297244 
43.855751 7.738993 0.322115 
41.472786 -6.511603 4.197805 
54.895912 -3.318739 -0.790546 
55.925983 -6.576858 1.982929 
37.231766 6.286345 4.525187 
44.716103 7.593098 -1.523422 
32.829678 -1.873813 7.516357 
48.820545 -1.872922 2.834398 
47.722366 -6.929560 -2.032402 
47.267326 2.299855 -7.326313 
39.412338 6.101244 4.770504 
43.234970 -7.745490 0.090835 
53.360416 2.159692 6.603814 
61.164848 -1.226285 3.253136 
36.364132 3.483231 -6.920415 
35.319160 1.933793 -7.501638 
41.355755 4.693182 6.159543 
41.100636 -5.862483 -5.059939 
56.200401 -0.352132 -6.573146 
64.981628 -3.772433 4.607295 
33.461536 -2.796363 7.224033 
37.238876 7.478215 -2.023152 
50.987938 3.164447 1.246230 
36.650871 -1.869363 -7.517974 
30.694843 -7.652804 1.188818 
51.560730 6.620633 -3.248071 
60.161621 -0.130517 3.462461 
61.561920 4.089956 -6.530943 
39.451012 -1.579528 -2.494531 
64.068016 -6.369971 -3.277785 
57.581417 -2.177762 -6.558980 
36.630817 6.196948 4.646811 
31.565004 7.409688 2.255902 
43.618332 -5.766188 5.165636 
55.060238 2.279521 -6.586447 
37.006096 -2.581459 -7.304142 
44.667915 -3.858252 6.720495 
47.355618 -0.423904 -3.248849 
32.176136 -0.896388 -7.693857 
41.591175 -5.321761 5.625329 
38.697628 3.151183 1.166516 
50.038834 -0.525965 6.634074 
44.670464 3.047963 -1.498024 
64.968033 -5.729757 2.839153 
52.750305 -5.842093 -5.049695 
46.409710 -0.049260 7.737862 
48.327301 -6.648992 -3.414268 
46.784195 0.610763 7.698725 
61.425861 0.218230 3.473113 
53.312557 -3.397658 -6.605022 
54.591873 -1.230228 -3.180696 
45.449860 -3.387713 0.246104 
37.541325 -7.214597 2.821286 
49.509407 6.112815 4.734938 
45.717438 -6.778268 3.754798 
55.168793 3.211902 1.151340 
31.960642 6.814322 3.683557 
53.670856 6.601680 -3.852026 
33.641262 -7.533269 1.804252 
30.584196 -7.056870 -3.189506 
56.440491 -3.288251 0.947865 
37.340008 -7.742652 -0.251089 
43.985146 1.486459 7.602559 
58.522858 1.856771 6.548435 
38.167248 -2.485578 2.074616 
54.539173 1.670164 -2.974517 
52.456120 3.039268 -1.534651 
34.258961 0.360406 7.738139 
31.585817 -2.996423 7.142525 
64.989716 -2.646959 4.646482 
35.508022 6.064146 -4.819080 
30.849951 3.038973 -7.123686 
46.274853 -4.302556 6.440607 
42.488342 0.082081 -7.746439 
42.476700 -3.878975 6.708997 
30.692162 7.558633 1.687703 
38.534077 -0.500934 -3.026913 
52.520927 1.403281 6.611746 
38.595467 -2.757894 1.749062 
52.978970 1.514976 -6.607599 
63.388443 -6.410374 -1.299401 
37.786880 5.752748 5.186230 
48.176971 6.209672 -4.612017 
49.754967 -1.133914 6.636546 
44.910767 1.572498 -7.584488 
61.010128 0.164062 3.467134 
61.076168 -6.494432 2.046867 
61.491520 -6.484126 1.927190 
54.244110 0.226527 -3.402604 
42.349743 -7.709641 -0.755309 
59.890839 1.995790 6.531351 
41.802094 7.560318 1.686875 
46.874008 -2.856521 -7.190161 
47.753845 -1.063758 -3.226773 
40.920567 3.243475 -0.581462 
46.347599 -0.932390 7.684574 
38.730938 -1.718370 -1.814395 
37.682426 -7.715230 -0.701407 
52.355923 4.869767 5.994555 
61.869270 -0.403666 3.459483 
45.006760 -2.870105 -1.765762 
50.513046 -0.071115 -3.398746 
52.653423 -0.777520 -3.314747 
47.511547 7.143743 1.224400 
56.897079 -6.467420 4.242215 
58.141659 6.558377 -3.143325 
32.124313 5.720820 5.221308 
62.959732 -6.437480 -1.843095 
42.157799 -3.388251 0.148403 
54.337322 -3.215515 1.132993 
36.538071 7.037497 3.238186 
48.026867 2.524538 6.683109 
58.569916 -4.587514 6.164251 
33.336914 0.674110 7.717257 
51.215275 4.456599 -6.319797 
36.092045 7.198882 -2.861159 
59.641891 6.539778 3.866767 
45.655991 -7.628658 -1.326532 
51.106224 -6.375237 -4.381251 
42.266777 -3.315042 -0.448428 
51.146309 3.142574 6.624209 
53.791061 -1.340223 6.599941 
36.267601 2.118513 -7.451605 
63.463634 6.417461 -0.730242 
33.745178 -7.729127 0.517722 
57.928349 -1.535647 6.552273 
54.506721 5.233125 -5.667203 
58.823265 -2.773479 -6.545225 
47.993359 -6.682688 -3.586677 
46.903866 -6.919340 -3.480793 
53.600010 -6.601361 -0.576698 
57.904263 5.865058 -4.972642 
43.741600 -2.013594 -2.401356 
41.545818 -3.341712 -0.329103 
33.048832 6.688040 3.908814 
42.617588 -2.432655 -7.355151 
63.417057 1.907873 3.002081 
39.588741 2.808173 1.826605 
44.891552 -3.390522 -0.134175 
38.882874 3.186028 -1.100863 
63.863598 -0.573206 6.384054 
37.141766 -1.854290 -7.521725 
45.597878 1.434021 3.074850 
62.747337 6.455704 2.177647 
60.087925 -5.457175 5.381264 
44.430271 -2.991843 -1.391297 
40.360603 6.429567 4.321094 
59.793610 0.226655 -6.521965 
39.785282 3.254466 0.919291 
38.388840 1.537753 -2.951773 
55.101486 -3.202315 1.177229 
54.417686 -3.680516 6.593664 
37.080292 -1.232986 2.679590 
39.672585 -4.202734 -6.508185 
50.568996 2.734297 -6.629331 
60.174397 -3.479139 -6.528893 
47.498909 -0.528903 -7.156824 
64.942513 -2.169267 5.954317 
42.250717 1.832756 7.526501 
30.203804 -7.225615 -2.780152 
35.349575 7.431305 2.188381 
45.539055 2.989616 1.613043 
53.604374 0.122773 6.601565 
49.243355 6.639767 -3.405477 
47.644207 -1.969409 -2.764368 
61.944710 2.738234 2.166646 
47.989246 3.391957 -0.171373 
42.120537 -1.619091 -7.576053 
53.055679 4.242117 -6.480033 
37.160633 7.267556 2.682094 
55.788216 -6.578361 1.598059 
56.513615 -5.275632 5.610335 
54.643776 -6.592045 -2.837539 
63.454121 6.415952 1.121147 
59.930683 0.622762 -6.519626 
38.546913 2.608769 1.585617 
60.486946 0.985446 -3.322182 
31.818132 5.814495 -5.116529 
37.099453 7.734264 -0.441231 
48.393410 -1.238194 -3.164412 
38.912693 -1.596777 -2.373591 
48.669365 -6.645799 3.253043 
31.428497 -6.480470 4.241884 
38.072731 2.684938 -7.266494 
54.302788 -5.244659 -5.656266 
42.170746 0.000208 3.286481 
42.596077 7.570956 1.637083 
40.009277 7.356637 2.427093 
61.777779 -3.434421 -6.494277 
37.523983 -0.553595 -7.727533 
31.015591 6.427451 -4.320917 
64.821716 -4.148474 -6.271070 
51.470303 -6.621327 3.031125 
53.506973 2.348117 2.462860 
55.546318 -3.217690 -1.139061 
51.928543 -5.338524 -5.581214 
63.728344 -6.380916 0.558181 
50.329277 3.946105 -6.628281 
57.469269 1.172445 6.559000 
36.886524 4.083825 6.584051 
63.934326 -3.099599 -6.395474 
44.804066 -7.557545 1.690687 
42.021313 -2.829511 -1.722711 
36.919338 2.503001 -1.790569 
52.956490 2.047318 -2.721549 
53.269466 -6.355831 4.395184 
53.215778 -3.072875 -6.605654 
38.349091 -5.319383 -5.629451 
41.841011 0.837880 -7.701499 
64.944885 3.307964 2.998049 
45.109531 0.661406 7.717313 
54.528416 2.713398 6.593200 
58.316559 -5.145633 -5.708833 
48.502731 5.446467 5.490885 
64.959732 3.521410 -3.003017 
49.141804 4.015543 -6.617843 
41.490723 0.928439 -7.691193 
60.958069 3.249657 -1.198009 
55.331505 -2.895491 -1.806803 
48.415737 -6.346787 -4.426795 
57.168957 5.698878 5.171486 
60.088936 5.563366 5.268976 
54.258667 -0.352455 -6.594640 
40.457573 -1.830231 -7.527580 
60.024899 0.265249 3.441170 
58.674522 1.612657 -6.540628 
39.977158 5.513520 5.438657 
46.616249 -6.787134 -3.733976 
36.075603 7.028602 3.257450 
31.218332 -6.388968 -4.377724 
33.304058 1.505240 7.599004 
58.703499 -0.797056 3.338753 
52.913250 -6.608251 1.143619 
39.705120 7.611652 -1.441670 
57.955147 -0.175665 -3.418986 
56.982502 -2.522297 -6.567040 
39.360142 -2.224672 -7.420843 
35.820656 -4.561761 -6.259533 
59.134956 2.468034 2.399570 
64.976242 -5.588259 3.390785 
40.704887 -3.723779 -6.795008 
34.106926 7.246924 -2.736570 
48.477093 -6.305788 4.481490 
63.715012 2.627092 -2.465879 
59.442429 -1.194980 -3.232403 
30.578770 5.610156 -5.337524 
64.384651 0.276030 3.670793 
32.567795 -0.307121 7.740118 
54.444992 -3.199918 -1.170527 
63.148857 6.437711 2.004699 
30.650177 -7.036122 3.235422 
51.909836 -4.936424 -5.942223 
42.165176 0.774452 -3.301619 
62.859154 -6.448795 -2.554016 
59.930809 -6.522652 3.302828 
53.257748 -1.539068 -3.035609 
44.057991 2.151978 2.618801 
33.435028 0.435915 -7.734131 
59.207611 3.394265 0.611744 
50.672138 -0.387390 3.367365 
58.865879 -2.048754 -6.541477 
37.210163 -0.336517 -7.739619 
64.001846 -0.479812 -3.579613 
37.723812 7.704109 -0.815234 
52.753593 6.583839 4.072627 
39.446983 -7.668488 -1.098295 
64.981750 -4.824750 -0.175036 
62.027687 -6.439507 -4.248365 
44.111526 -7.283234 2.633850 
41.428837 -4.936807 5.966188 
60.502254 -5.452969 5.376460 
44.051300 -7.133945 3.016840 
61.409615 -4.620290 6.082972 
49.111012 -6.642207 -1.146633 
46.528595 -7.679626 0.954239 
64.968956 2.401813 5.657129 
37.050789 4.986110 5.927330 
64.784294 6.231405 3.847917 
38.187126 -2.618111 1.699614 
40.566521 7.741828 0.278924 
49.125378 2.755376 -1.987199 
38.714970 2.024276 7.477571 
53.255322 6.605683 -1.106368 
59.656643 -1.519791 3.090405 
50.758614 3.058052 1.486882 
31.412653 0.252833 -7.741405 
63.261963 -2.495341 -2.519485 
63.871399 6.391421 1.926529 
59.518608 -3.672802 -6.540231 
59.733688 -1.799331 -2.935044 
64.781342 -6.194792 3.727628 
44.322624 -7.512379 1.887339 
64.856400 -2.692303 -3.061508 
53.882404 0.005125 3.407964 
39.093586 -1.782212 -2.155391 
39.217316 -6.535359 -4.161604 
49.136871 0.404007 -3.359994 
52.740391 -6.609619 -1.944391 
34.244808 2.310844 7.394172 
49.958893 -2.025948 -2.714229 
57.793671 -6.554678 3.452005 
38.192074 0.713610 3.196074 
34.256447 -4.017560 -6.623786 
52.657532 -1.075172 -6.610443 
45.923946 -2.368026 2.434398 
48.035259 6.681351 2.151182 
35.152687 -7.730680 -0.498303 
45.470947 -4.732994 -6.123463 
43.291489 -7.492786 1.965790 
46.095531 -1.400151 7.615614 
39.527077 3.154986 -1.201554 
61.398590 -0.818887 -6.489269 
38.388416 -7.551577 -1.727368 
59.489735 -1.817678 6.528102 
50.794773 3.259863 0.970308 
51.318115 6.622897 -1.786789 
48.267906 -6.649804 -1.755956 
54.337341 6.595307 1.492303 
61.376152 -4.576770 -6.117921 
58.433144 -4.397190 -6.335349 
45.251465 5.640544 -5.298900 
60.352009 -3.211556 1.272069 
42.572075 -0.763642 3.291355 
30.202211 7.740887 -0.127823 
44.307198 0.341262 -7.738366 
53.660831 -0.852155 -6.600689 
40.077065 -5.931881 -4.979137 
52.682953 3.158872 -1.273199 
61.197208 -5.648901 5.150472 
62.295258 -2.295956 6.460798 
64.923996 5.921527 1.573145 
36.273529 -5.681009 -5.265364 
59.656815 6.535157 -1.424007 
47.905319 -1.473472 3.062669 
57.780308 -0.975393 -6.553877 
46.937569 2.105014 -7.430931 
59.838413 -6.380380 -4.315216 
56.783195 -2.413355 -2.421792 
37.474487 -1.171472 -2.404257 
56.919659 -5.819120 -5.039712 
44.294342 -2.913688 7.176820 
52.840866 6.609469 -1.790540 
48.995670 3.361097 0.273051 
64.977646 2.304041 -4.213098 
35.767223 -6.531214 -4.166945 
50.883282 -6.626565 -2.287781 
55.773685 6.580557 0.059400 
32.243378 -5.810964 5.120852 
61.142960 2.740303 2.138086 
36.056484 -4.861195 6.030354 
57.442013 -4.973050 -5.870201 
40.783802 -3.374794 -0.170578 
44.990860 6.771258 3.768046 
37.706665 1.652674 2.896269 
47.658978 1.197097 6.994605 
45.323311 7.102966 3.087640 
52.164268 2.560699 -2.243720 
50.271271 2.215525 -2.575741 
52.491112 -6.612337 -3.355516 
58.410614 -5.655772 -5.201675 
56.852280 -1.845453 -6.566962 
64.893677 2.321071 -6.013459 
50.635605 -2.651941 6.628763 
64.970795 -5.495824 0.720673 
36.923317 -1.864810 -0.226266 
35.016163 -4.236249 -6.485906 
43.748241 -7.498367 1.943805 
55.352314 6.586431 -2.773304 
31.383194 6.529691 4.165861 
55.951088 -3.230293 -1.111770 
45.952839 -3.962312 -6.657839 
30.622705 -6.409695 -4.345901 
33.252552 -4.587399 6.240837 
57.871983 -3.950091 6.559693 
64.259842 -3.588707 -0.872468 
47.645405 2.954708 6.978903 
61.929020 6.482095 2.133551 
51.628143 4.624684 6.189626 
33.925407 -7.484747 -1.996242 
56.537472 -0.129848 -6.569069 
53.383583 -1.977636 -6.603494 
47.496578 -2.894247 7.095567 
51.219044 5.747294 5.164411 
63.478401 -5.838552 -4.782447 
56.520138 -5.942430 4.898651 
41.931690 7.475624 2.030965 
47.365005 -3.105602 1.379772 
62.750473 -6.440393 1.271366 
37.360695 -4.949625 5.957755 
64.939400 3.585085 -5.428424 
50.747528 -3.850021 -6.627621 
64.932152 -3.994065 -5.476395 
38.987053 -7.696469 -0.883424 
64.200897 1.152323 3.460037 
46.119919 1.972314 2.766384 
60.959858 -0.904155 -6.499953 
61.163731 -6.498951 3.213784 
39.983120 -0.339543 3.104455 
55.003651 -6.587008 -1.414116 
46.962784 0.313223 3.317884 
38.598984 -7.475508 2.033164 
39.536510 1.638462 -7.571969 
51.666569 -4.670015 -6.154876 
50.707817 2.425047 2.356395 
53.100426 -6.174112 -4.636109 
54.955780 0.708087 -3.338059 
44.180405 3.331877 0.577513 
47.459415 1.898457 -7.193579 
49.594318 -6.637884 -2.981550 
36.879261 7.621359 -1.389144 
37.101585 -0.650496 -7.720017 
64.719643 -4.265407 -5.918145 
37.005276 6.650178 3.975884 
47.969612 1.882445 -2.822216 
48.099873 -1.428710 -3.082916 
36.920361 -7.602258 1.489948 
48.093147 2.323702 2.451461 
42.323059 -2.753842 -7.240358 
56.304787 1.759251 -2.929754 
51.824421 -1.538606 -3.029337 
37.546478 -7.609312 1.453358 
45.320721 -0.566472 -7.724772 
55.458488 -6.582090 2.756348 
38.877361 5.562707 5.388612 
64.922821 -5.912088 0.779487 
36.936031 -7.536770 -1.791346 
60.780270 -6.500561 1.542978 
43.675713 -1.095857 7.668612 
35.617332 -3.173340 -7.067295 
45.319347 7.602295 1.474535 
53.706127 3.217839 -1.119994 
64.977478 2.485441 -4.900918 
32.503448 -7.081448 3.138745 
41.250786 1.719742 -7.553749 
53.728848 2.947003 -1.711405 
46.612968 -3.843994 6.727420 
62.959236 -5.567779 5.151853 
38.720100 3.682810 -6.816870 
32.439369 -6.930051 -3.460340 
57.428112 -4.350709 6.376675 
33.952900 -4.697607 6.158548 
62.069454 -2.717994 2.191335 
32.193005 5.342945 5.607247 
35.540195 -1.231177 7.648548 
60.711544 6.515306 -1.117923 
50.126080 -1.375663 3.109007 
64.877441 1.518054 -6.083982 
64.318771 -4.968997 -5.512640 
58.587883 6.552999 -4.022007 
32.391453 -7.496576 -1.949555 
42.476093 2.180060 -2.569984 
39.228146 7.722233 -0.617905 
48.682774 6.644230 -3.313467 
33.766476 7.660474 1.150347 
60.216049 4.339365 6.345168 
46.145546 1.977030 -2.747661 
42.626625 3.395696 -6.963208 
33.682049 4.336627 -6.417793 
56.398914 2.440787 -2.393940 
32.132591 -7.087564 -3.124765 
48.927284 -0.683896 6.643799 
61.914818 -4.071532 -6.492041 
42.638557 -5.425861 5.523888 
64.981361 4.685306 1.044059 
56.658943 -6.567963 2.887742 
60.973053 -4.657791 -6.065663 
50.120583 4.370634 6.388257 
59.677876 -1.519413 6.524554 
36.724606 7.161698 2.952868 
60.833763 6.000635 4.746083 
48.411819 -1.546530 -3.011496 
60.799892 -1.781795 2.965202 
41.449829 -4.174382 -6.527034 
36.672474 -5.696317 5.248688 
35.517792 4.395371 -6.376900 
64.971611 2.188758 -5.175705 
42.276360 3.312739 0.547209 
36.369370 -7.270756 -2.673513 
40.865459 3.175198 0.241464 
52.590584 -2.666109 -2.116858 
34.939056 3.867219 -6.713835 
63.770611 2.888071 -2.163797 
49.948177 -0.046271 6.634869 
58.133377 4.748347 -6.045050 
52.264343 -1.344038 6.614376 
60.910278 -3.464439 0.390401 
35.792477 5.309416 5.639785 
34.061764 7.744633 0.167331 
59.329041 0.127647 6.530658 
47.791885 0.563985 -6.861356 
57.079407 -6.526447 -4.168636 
64.959564 -3.212861 5.918365 
48.425385 3.087322 1.418203 
37.614105 -3.311319 0.402986 
64.986298 -3.580091 3.861580 
49.774429 0.378156 6.636388 
53.835556 -6.599047 -0.217107 
37.653816 -1.900253 -1.179868 
55.674900 -3.105866 -6.582424 
46.448269 6.691763 -3.905137 
33.128021 6.872409 3.574762 
54.552315 -3.537041 -6.593861 
49.637566 3.086493 1.423250 
40.304684 3.306891 0.706212 
63.843025 -2.875910 -2.195644 
60.315685 4.754486 6.005243 
58.015972 6.559649 3.524386 
45.889549 -1.199701 3.164510 
57.528198 -3.239992 -1.116848 
51.814659 -4.566056 6.232926 
59.706970 3.016383 1.677486 
55.788292 6.580191 0.478324 
32.432743 -0.743189 7.710416 
48.918598 1.261392 3.156171 
39.889000 -1.079646 7.671789 
60.300056 -6.510520 1.263421 
60.391685 1.996020 -2.832063 
58.909603 3.388455 -0.619167 
64.856651 -6.117016 -1.280332 
49.096375 1.679015 6.642309 
44.526718 0.020437 -7.745360 
62.096634 -0.964898 6.467791 
49.695137 6.637111 -0.373963 
55.940956 -1.746616 -2.934453 
64.795631 6.282979 -3.608862 
59.442646 6.531783 0.488098 
64.252373 3.110609 1.939540 
36.941273 7.706473 -0.792554 
61.469280 0.767983 3.384638 
52.213959 -1.535227 3.037404 
60.000885 -3.297981 1.053100 
56.601219 6.571422 1.678690 
40.434483 -3.816359 6.744258 
37.276012 -1.105937 -1.845948 
37.816933 2.664057 -1.986421 
39.475586 3.157866 7.074512 
35.556725 -7.240466 -2.754360 
38.940708 -3.156330 1.163998 
50.871124 -4.299722 -6.441730 
48.676880 0.526154 6.646016 
47.970047 0.829072 3.295750 
33.191246 -6.342342 4.446268 
35.442154 -7.446786 -2.135497 
48.759457 1.299374 -3.140197 
32.120876 -0.601180 7.722795 
52.610596 -1.599662 3.005543 
39.244339 -7.745912 -0.138732 
45.324135 -2.111616 -7.451160 
64.460876 6.314993 3.949070 
51.474773 3.948332 6.619547 
56.486115 3.478868 -6.570351 
38.030903 -4.308314 6.436850 
45.006451 -2.275855 -2.254729 
41.489063 -3.075563 -1.064406 
41.430374 -4.613162 6.219960 
47.776257 0.684456 -3.327629 
41.714382 -6.279748 -4.531520 
39.389252 7.179773 -2.908063 
41.240967 -2.519319 -2.225500 
38.713562 2.707886 -7.257931 
59.823704 3.431483 6.541123 
63.026161 -0.129882 6.436779 
52.540279 3.223104 1.094887 
61.149746 6.492164 4.160223 
38.192093 -3.630854 -6.844688 
48.517624 6.647559 3.404323 
37.873268 4.647805 -6.195809 
48.972729 2.939365 1.708226 
64.688133 6.217325 0.654819 
49.327431 6.462650 4.269653 
50.565804 5.554059 -5.374233 
41.412857 1.953182 -2.724009 
64.954193 -5.927089 3.327452 
64.788445 2.712390 -2.864752 
62.326630 -0.676755 6.460761 
57.962666 4.773309 6.027484 
34.963882 -2.026932 -7.476574 
61.006577 -5.156398 -5.648786 
38.325256 6.962209 3.397853 
58.395630 -6.550938 4.076286 
41.658955 -7.188162 -2.886838 
58.694389 -6.539272 -0.273441 
48.258575 -2.585028 2.193024 
54.268581 -0.676802 3.342463 
60.038330 6.536860 -3.690444 
38.209106 -2.884924 -0.735024 
50.114498 6.633352 2.432851 
55.749653 -3.410339 -0.195825 
34.338715 -7.709695 -0.755444 
57.340881 3.213372 -1.178199 
37.589214 -1.132965 7.664149 
49.615467 -1.438452 6.637758 
38.004105 -1.583890 7.583590 
51.325417 6.622831 0.814063 
50.296108 -6.631811 -1.456441 
57.556831 1.894831 -6.556657 
34.270485 6.001084 -4.897486 
36.506001 -4.221211 6.496134 
53.905502 -0.894396 6.598763 
36.941006 -6.305303 4.498881 
63.976353 -6.380813 3.249647 
47.439968 -0.334544 3.365406 
64.600990 4.205817 6.151592 
32.631554 7.676123 1.037848 
52.378922 -3.396655 -0.213391 
42.253242 -7.002923 3.311920 
39.422451 -2.018803 -1.688986 
56.644855 3.416302 0.185682 
42.014641 7.645852 -1.244939 
46.892586 -3.358370 -0.418194 
34.569099 7.702347 -0.828754 
60.893673 -6.508239 -2.468244 
36.968819 -0.325303 0.795364 
56.991791 2.522406 -2.315518 
49.822193 -6.635913 -2.641176 
39.793137 3.139680 -7.081570 
62.187122 -3.170317 6.468199 
56.815361 2.996238 -6.566189 
32.721581 -6.443417 4.298711 
42.286049 6.491099 4.229490 
47.454346 -0.381592 7.201819 
37.953316 -7.274329 -2.663516 
52.496574 1.863651 -2.847446 
36.424107 -3.106422 -7.097000 
40.242870 3.193011 1.097481 
60.299034 -3.392278 -0.727555 
46.489410 -4.917547 5.973483 
53.235474 -4.907992 -5.958797 
55.530621 6.582927 0.742702 
31.801695 -2.080292 -7.461247 
54.486160 -6.592380 0.138801 
48.327396 2.686098 -6.648925 
63.309834 3.135617 -1.638010 
46.783817 1.830777 2.862070 
40.392326 -3.367028 0.357070 
61.252144 -3.521386 -6.507925 
46.210808 7.593981 1.503430 
57.096100 -3.192664 6.563783 
37.320351 -2.313214 2.063055 
60.233665 -6.530440 4.044101 
41.750641 6.184864 4.659633 
43.444908 -1.396626 7.619800 
49.951534 6.634824 2.082349 
45.488781 -2.085132 -2.412943 
60.884140 4.522874 -6.172440 
42.199680 -3.169696 -7.068991 
49.547089 -2.438022 -2.355064 
64.944969 -3.908035 1.946548 
