-0.939141 0.818120 0.214633
0.232182 -0.528520 0.787339
-0.565058 -0.462044 0.164042
0.096549 -1.458254 0.165981
-0.524617 0.197771 0.164042
-0.205570 -1.257122 0.205805
-0.342090 -0.392537 0.917968
0.163869 -1.164052 0.240199
-0.186731 1.196609 0.226485
0.250336 0.380951 1.210469
-1.248239 -0.317967 0.164042
0.280509 0.049671 0.164042
-0.541822 -0.352732 0.670052
-0.025493 0.465129 0.164042
-0.909406 0.179874 0.164042
-0.556762 -0.277336 0.707933
-0.796570 0.949917 0.216527
-0.730615 0.086128 0.553237
0.265389 -1.381400 0.164042
0.189688 -0.431426 1.098123
0.817422 0.954012 0.164042
-0.160827 -1.304283 0.194538
-0.435384 0.888809 0.335570
-0.221333 0.748618 0.504402
0.742340 -1.242776 0.164042
0.448576 -0.052362 1.277171
-0.138964 -0.436628 1.186968
-1.033530 0.327480 0.281881
-0.979348 -0.663342 0.237420
-0.471338 1.286707 0.181334
-0.058283 -1.264429 0.164042
0.413025 0.894741 0.338104
-1.318588 0.056255 0.192879
0.191941 -0.238970 0.164042
0.281277 0.357331 1.220831
-0.028916 -0.525281 0.903463
0.960341 -0.233968 0.336229
0.562062 -0.321368 0.668323
1.222851 -0.178495 0.217977
0.553752 1.037789 0.239998
0.601632 1.104986 0.164042
0.208926 -0.592986 0.164042
-0.214247 -0.657572 0.164042
-0.797195 -0.638495 0.164042
-0.250279 -1.358398 0.178883
0.909265 -1.092782 0.171664
0.376171 0.446193 0.775455
0.712189 -0.061662 0.164042
-0.490549 0.504091 0.164042
0.885595 0.099630 0.164042
-0.200138 0.784491 0.475733
-0.299571 0.637441 0.590764
-0.538384 0.770396 0.164042
-0.131331 -0.574049 0.164042
0.727936 -0.602179 0.164042
-0.324605 -0.369547 1.008817
-0.013297 0.742346 0.545287
-0.456752 -1.212443 0.164042
0.361058 1.329784 0.179595
1.138872 -0.652306 0.164042
-0.913258 -0.508982 0.302432
-0.593014 0.258766 0.668754
0.155174 0.347370 0.164042
-0.258542 1.273391 0.198270
-0.682458 -0.866302 0.272497
-0.594541 -0.215728 0.164042
-1.102147 0.689386 0.164042
0.814772 -0.909059 0.164042
0.508098 -1.112001 0.164042
0.178164 -0.048978 0.164042
0.251099 -0.534069 0.762743
-0.185451 0.225405 1.279051
0.241554 -1.239447 0.209044
-0.342912 -0.372391 0.960232
-1.051707 -0.566149 0.232900
0.019574 0.636841 0.164042
0.412096 0.592041 0.569688
-1.206790 -0.121831 0.164042
1.043283 0.364226 0.164042
-0.644274 -0.200337 0.629514
1.237974 -0.795224 0.164042
-0.804932 -0.158397 0.164042
1.287909 0.363146 0.188473
0.709556 0.630771 0.164042
-0.553713 0.320052 0.679918
0.378066 -0.379179 0.879267
0.360580 -0.708295 0.164042
0.233952 0.443624 0.164042
-0.371790 0.616987 0.571162
0.206619 0.516900 0.830084
0.830899 0.532616 0.337187
1.072546 -1.012518 0.164191
1.133797 0.751544 0.183553
-0.018932 0.836290 0.164042
-0.645432 0.976361 0.164042
-0.568869 -1.019846 0.164042
0.646315 -0.524450 0.454764
1.185653 0.573270 0.193787
1.086023 0.836052 0.181263
1.098250 0.694034 0.198552
0.189539 -0.459518 0.164042
-0.034866 -0.482918 1.038844
-0.899851 -1.042819 0.164042
-0.015780 0.171460 0.164042
-0.220067 1.316783 0.164042
-0.991072 0.918966 0.164042
-0.668648 1.206790 0.179283
0.065016 1.414986 0.164042
-0.022074 -1.019694 0.316937
0.276718 -1.230629 0.164042
0.166830 -0.519659 0.164042
-0.134287 0.122538 1.279051
-0.461695 1.105815 0.164042
0.558834 0.328887 0.666881
0.091478 -0.454509 1.144951
-1.154010 -0.336090 0.164042
0.139895 1.112176 0.164042
-0.915582 0.752321 0.236541
0.107192 -0.923896 0.375349
0.639562 0.547287 0.164042
-0.354928 0.395472 0.888886
-0.430747 -0.321599 0.874341
0.646075 0.013392 0.670133
0.132771 -1.117003 0.164042
0.827954 -0.105345 0.452677
-0.829912 -1.118711 0.164042
-1.109770 -0.265349 0.255087
0.490250 -0.106170 0.974629
0.273784 -0.361863 1.237940
0.331963 -0.849689 0.388746
0.886883 -0.161079 0.164042
-0.327441 -0.504078 0.743068
1.464209 0.000129 0.165555
0.930904 -0.169052 0.164042
-0.448563 -0.394593 0.749917
-0.601194 -1.346114 0.164288
0.397077 0.546294 0.628681
0.111546 -0.750978 0.527005
0.043858 0.469351 1.097730
0.728859 -0.034806 0.164042
0.325895 -1.437811 0.164042
0.267026 0.449642 0.164042
-0.863440 -0.578860 0.305824
-0.045393 0.688310 0.608862
-0.893838 0.904058 0.164042
0.426287 0.345830 0.847490
1.258905 -0.130808 0.208340
-0.649680 -0.730371 0.164042
-0.286384 0.427558 0.934695
1.084651 -0.285152 0.164042
-0.744801 -0.340696 0.466847
0.475929 -1.154673 0.213683
-0.943203 0.261165 0.164042
0.293624 1.333857 0.182316
0.768146 0.703431 0.304603
-1.116499 -0.777793 0.164042
0.575626 -0.344967 0.634403
0.507922 -0.344264 0.721418
1.315864 -0.284938 0.186650
-0.387580 -0.717658 0.164042
0.541325 0.031792 0.863304
-0.333512 -0.982952 0.164042
-0.627359 -1.252095 0.175489
0.076537 -0.923257 0.164042
-1.302402 -0.023958 0.164042
0.346577 -0.940254 0.164042
-0.127416 -1.103231 0.164042
0.101811 -1.263076 0.164042
-0.742167 0.281489 0.491241
-1.143382 -0.830348 0.164042
0.464915 0.102311 1.074125
-0.127243 -1.051578 0.164042
-1.008669 -0.551079 0.164042
0.938584 0.023773 0.164042
1.110998 0.128990 0.164042
-0.840430 -0.727772 0.268118
-0.364717 -1.366110 0.164042
0.423478 0.998410 0.164042
0.445194 1.304375 0.164042
1.473113 -0.038194 0.164358
-1.229408 0.496945 0.191360
-1.067564 -0.446606 0.247898
0.840046 0.996012 0.197541
0.768279 0.786058 0.164042
-0.825562 0.276238 0.164042
1.084221 0.664665 0.206467
-0.249909 -0.338038 1.279051
-0.765267 -0.104200 0.513075
-0.333701 0.419014 0.878886
0.504936 1.221649 0.192470
0.455004 -0.266417 0.900303
0.696719 0.756828 0.164042
0.120554 -0.062775 1.279051
-0.723466 0.271191 0.164042
0.235181 -0.907517 0.370321
-0.147382 -0.584397 0.740627
0.186308 -0.980956 0.330010
0.656123 0.518328 0.164042
-0.321656 -1.028981 0.164042
-0.915792 1.007493 0.183183
0.534790 0.650571 0.164042
-1.151374 -0.592466 0.199619
-0.363097 -0.219918 0.164042
-0.465750 0.089566 1.083213
0.361405 0.293714 1.131268
-0.429015 0.343102 0.846253
0.553730 0.056966 0.829994
-0.749431 0.538604 0.380967
-0.066613 -0.074841 0.164042
0.742144 -0.784434 0.283917
-0.774038 -1.188287 0.172372
0.090081 -0.667547 0.164042
-0.028752 0.014618 0.164042
-0.055000 -0.692796 0.602371
0.735992 -0.401679 0.449190
0.504581 0.382299 0.690171
0.096492 1.328315 0.189885
0.296545 0.375199 1.063496
-0.090982 0.487711 0.164042
-0.078036 1.261686 0.164042
0.394831 -0.641577 0.533154
0.450972 -0.887495 0.332036
-0.248819 -1.222299 0.164042
0.299900 -1.256486 0.164042
1.044719 -0.441497 0.258135
-0.223116 -0.473941 0.164042
-1.261026 -0.249072 0.164042
-0.604003 0.916498 0.275073
-0.513738 0.182056 0.856709
0.196009 0.530814 0.164042
-0.528485 1.053424 0.164042
-0.823516 -0.974335 0.164042
-0.854752 -0.614105 0.164042
0.413759 -0.186766 1.234781
0.590506 0.657850 0.164042
-0.228843 -0.936578 0.352085
0.219344 -1.286180 0.196826
-0.828063 0.709859 0.278518
-1.021721 0.932461 0.164042
0.452994 0.051081 1.209681
1.048499 -0.353041 0.270721
1.063911 0.040347 0.291797
0.634563 0.560539 0.441861
1.010566 0.791463 0.164042
0.519624 1.323620 0.171703
0.737808 0.299018 0.488958
-0.314083 -0.797673 0.432921
0.048552 -0.827370 0.457872
-0.132498 0.723361 0.553376
0.615252 0.323734 0.602057
-0.292971 0.282889 0.164042
-0.052778 -1.180640 0.164042
-0.327693 -0.735281 0.164042
-1.237677 -0.444897 0.164042
0.315380 -0.783107 0.444020
-0.255943 -0.531199 0.763777
0.248161 1.367023 0.177445
0.543470 -0.251154 0.747588
0.176506 1.317517 0.164042
-0.091866 0.718630 0.565805
0.354308 -0.907606 0.345500
0.130368 -0.939621 0.362537
-0.130489 -0.726483 0.550493
0.827453 0.949746 0.210207
1.397152 0.056033 0.175870
-0.438680 0.905089 0.164042
-1.017855 -0.718568 0.164042
-0.893706 -0.510156 0.164042
-0.857884 -1.002702 0.193081
0.770306 -1.123719 0.183005
0.619908 0.505355 0.485351
0.946217 0.466151 0.297153
-1.028945 -0.434828 0.164042
0.247728 -1.203120 0.164042
-0.661413 -0.227979 0.164042
0.537917 -0.712556 0.403759
-0.307033 -1.242552 0.164042
-0.223185 -0.394998 1.239329
-0.503455 0.105652 0.164042
-0.623492 -0.820006 0.310923
-0.507623 -0.072141 0.940474
0.223655 0.542449 0.769364
-0.147373 -0.073476 1.279051
-0.176630 -0.491829 0.912870
-1.064779 0.169259 0.164042
0.544226 0.270031 0.732008
-0.909364 -0.290479 0.164042
-0.601450 0.084536 0.732379
-0.051516 0.732303 0.554740
-0.516040 1.002533 0.164042
0.760586 -0.541053 0.164042
-0.165099 0.411544 0.164042
-0.863841 0.409772 0.357555
-0.477586 0.465922 0.164042
-1.054445 0.086745 0.295435
-0.816247 0.473163 0.366303
-0.410792 0.659312 0.164042
0.445412 -0.191360 1.035477
1.136977 -0.204504 0.248789
-1.184603 0.012735 0.236713
-0.460013 -0.355565 0.779693
0.378295 -0.270697 1.133306
-0.039151 0.281371 1.279051
-0.358900 0.276851 0.164042
1.020539 -0.694172 0.164042
1.032839 0.952482 0.164042
0.265777 0.690186 0.164042
0.626926 -1.038800 0.164042
-0.763668 0.441141 0.412380
0.850754 1.068991 0.182229
-0.503105 -0.133915 0.164042
1.074090 -0.394255 0.253697
0.626328 -0.142500 0.164042
0.675979 -1.252339 0.171495
0.018119 -0.585391 0.164042
1.292916 0.712391 0.164047
-0.693233 -0.374054 0.497156
0.178734 0.385132 1.279051
0.463547 -0.236527 0.918727
-1.169357 0.269335 0.230709
-0.985660 -0.595747 0.164042
-1.106162 -0.346635 0.246997
-0.677692 0.781131 0.308547
0.499520 0.615771 0.492082
-1.247426 -0.014205 0.164042
0.442792 -0.102992 0.164042
-0.186058 -0.650999 0.626392
0.195429 -0.409124 1.244938
-0.204907 1.096672 0.164042
-0.326918 -0.198058 0.164042
-0.282463 -0.409230 0.164042
0.465111 -1.009904 0.268226
-0.193956 -0.464195 0.969798
-0.415879 -0.308066 0.926285
0.166141 -0.607047 0.164042
1.180729 -0.055737 0.164042
0.813509 0.670860 0.297368
0.630699 0.404968 0.164042
0.092624 -1.231144 0.164042
-1.056838 -0.460938 0.164042
-1.137636 0.264871 0.243214
-0.779211 -0.822606 0.258617
1.232177 0.761656 0.164042
0.488383 0.407563 0.164042
0.982171 -0.194426 0.328234
-0.349640 -0.295238 1.193070
-0.082285 -0.477627 1.036726
-0.317932 0.468787 0.164042
-0.290067 -0.556725 0.164042
-1.233549 0.768528 0.166960
-0.351465 -0.939506 0.164042
1.084174 -0.056685 0.281132
-0.732343 -0.200739 0.526604
0.652608 1.179862 0.164042
-0.300258 -0.231014 0.164042
0.208978 -0.297766 1.279051
-1.209712 0.486355 0.164042
0.827149 -0.246267 0.164042
-0.343336 0.570428 0.641402
-0.248063 0.912367 0.364781
-0.323621 0.606393 0.164042
-0.262016 -0.219555 0.164042
0.260905 0.398538 1.072835
-0.909569 -0.430833 0.164042
-0.057209 0.756209 0.527666
1.015171 0.862324 0.164042
0.094364 1.291176 0.199777
0.486453 0.321088 0.164042
-0.253081 -0.925030 0.164042
0.331843 -0.638362 0.164042
0.732910 0.057375 0.553841
0.833431 0.652302 0.164042
-0.667748 -0.097490 0.629392
-1.325966 0.101067 0.164042
0.995424 -0.858716 0.194413
-0.087877 -1.195630 0.164042
0.678791 -0.081756 0.164042
-0.612967 -0.330892 0.164042
0.874590 0.764328 0.245987
0.087803 -0.234706 1.279051
-1.309047 0.528619 0.164042
0.777320 -0.895196 0.236349
1.011517 -0.532217 0.164042
-0.452116 -1.169213 0.212067
0.684796 0.905526 0.257649
-0.894345 0.042967 0.402080
-1.069497 -0.362587 0.260322
-1.195479 -0.371101 0.212631
-0.383676 0.469997 0.164042
1.243371 -0.240626 0.208105
-0.471823 -0.220458 0.917664
0.617583 0.779140 0.332497
-0.122845 0.035292 0.164042
0.277762 -0.474320 0.845784
-0.018587 -0.579297 0.782304
-0.223458 0.155626 0.164042
0.950583 1.018959 0.176710
-0.773172 1.160656 0.176525
0.528678 0.524900 0.542583
0.815219 -0.786857 0.164042
0.216343 -1.189337 0.164042
0.667003 0.424726 0.494181
-0.237518 0.770940 0.478686
0.125301 0.858314 0.424366
-0.102307 -0.564184 0.795233
1.319355 0.542167 0.164042
0.961725 -0.003614 0.353747
0.427992 0.877698 0.164042
0.015441 -0.808826 0.476212
-0.526160 -0.777639 0.369440
-0.973062 -0.773834 0.164042
1.263973 0.743500 0.165251
0.034009 -1.275657 0.164042
-0.317774 0.427992 0.164042
-0.086247 -1.163760 0.164042
-0.308023 0.239836 1.279051
0.348239 -0.871501 0.164042
1.191110 -0.420000 0.164042
0.975030 0.991487 0.164042
0.369725 0.415677 0.830759
0.771559 0.261876 0.164042
-0.151584 -0.935854 0.363085
0.340703 0.575767 0.637176
1.011527 0.684864 0.164042
-0.473816 0.705705 0.164042
0.310291 -1.016702 0.292791
-0.240825 -0.694571 0.553616
1.091424 -0.684125 0.201534
0.932432 0.527663 0.288412
-0.830199 0.547959 0.164042
-0.839216 0.436164 0.364711
-0.011602 0.694944 0.602282
-0.114521 -0.065492 1.279051
-0.014887 0.461179 1.158596
0.450323 -0.226802 0.164042
1.003879 1.037923 0.164042
0.284121 -0.376422 1.096482
-0.118193 -0.451365 1.125306
0.260614 -0.316052 0.164042
-0.683316 -0.801393 0.298086
-0.001404 0.496301 0.993311
0.097841 -0.828866 0.164042
0.792568 0.582329 0.164042
-0.191893 -0.409538 1.265332
-0.414730 -0.052530 1.279051
-0.943231 -0.823210 0.212586
-0.006720 1.247546 0.214129
-0.598909 0.690294 0.164042
-0.446283 0.311557 0.858505
-0.122307 -0.353600 1.279051
-0.982196 -0.922062 0.186464
0.496958 0.418554 0.664934
-0.314212 0.177187 0.164042
0.181239 1.348699 0.183429
-0.166471 1.359903 0.181324
-0.362410 0.310820 0.164042
0.541709 1.004245 0.255102
0.506997 -0.311501 0.164042
0.970852 -0.969688 0.180847
0.997888 0.573016 0.250801
0.408128 -0.037050 0.164042
-0.593723 0.147771 0.724518
0.586751 0.047564 0.164042
0.258268 -1.206098 0.218849
-0.207036 0.239988 0.164042
1.143413 -0.360757 0.164042
-0.719726 0.416348 0.164042
-1.167256 0.433402 0.164042
1.095772 0.055370 0.275360
-0.466809 0.975536 0.164042
0.740990 0.637074 0.164042
-0.975425 0.975440 0.164042
-0.979314 0.400848 0.164042
-1.092522 0.252479 0.263861
1.173621 0.600892 0.193246
0.088088 0.446875 1.212023
-0.332516 1.346968 0.177715
0.393159 1.134179 0.230544
-0.100859 0.663355 0.634453
-0.031076 0.488454 1.017576
-0.557982 0.971482 0.164042
0.460758 1.178260 0.164042
-0.030639 -0.247110 1.279051
-0.826978 0.306622 0.164042
-0.371923 -1.059121 0.263333
-0.153257 0.379961 1.279051
0.420946 -0.070551 1.279051
-0.681343 -1.275354 0.164042
0.951298 -0.055687 0.359801
-1.136119 -0.269263 0.164042
-0.169797 -1.240763 0.212470
0.628378 -1.190135 0.164042
0.223943 0.495158 0.860411
-0.869947 -1.019658 0.164042
0.647280 0.911027 0.265509
1.382322 -0.187387 0.176448
-0.740846 -0.104580 0.539016
-0.197871 1.283727 0.164042
0.465151 -0.133911 1.039334
-0.981416 0.606337 0.164042
0.980972 0.953391 0.164042
0.506463 -0.044875 0.164042
0.832873 0.322180 0.403768
1.231632 0.012656 0.164042
-0.669338 0.587799 0.405288
-0.520838 0.569652 0.513503
-0.049584 0.587102 0.164042
-0.642777 0.305779 0.164042
-0.022743 -0.586719 0.164042
0.121321 0.173634 1.279051
0.849467 -0.949101 0.205866
-1.325605 -0.172306 0.164042
1.128196 0.066483 0.259936
0.664640 -0.723784 0.339807
0.092195 -0.968820 0.164042
0.437199 -0.179644 1.091335
-0.506056 -1.206207 0.196176
-0.927416 0.643064 0.164042
0.580626 0.514764 0.164042
-0.877875 0.001368 0.164042
1.121838 -0.288776 0.164042
0.181443 -0.666090 0.608528
0.025063 0.668305 0.164042
-0.799722 -0.994194 0.164042
0.769807 0.431717 0.411872
0.335026 0.363149 1.001037
-0.193018 -0.437143 0.164042
0.940145 0.449248 0.164042
-0.095882 0.576633 0.773049
0.171913 0.595311 0.164042
-0.431349 1.329902 0.175768
-0.580353 1.082080 0.220754
-0.196729 1.172086 0.164042
1.098847 -0.362006 0.247998
0.384212 -1.089887 0.248552
0.326320 0.209038 0.164042
0.065876 -0.894192 0.164042
-0.531702 1.146687 0.208702
-0.872768 0.189340 0.164042
1.180146 0.786724 0.164042
-0.278693 0.239794 0.164042
-0.682173 1.080817 0.164042
-0.595766 -0.641403 0.417608
0.694081 -0.421027 0.164042
0.143778 -1.060203 0.164042
-0.329933 -0.423736 0.164042
-0.011606 -0.451716 1.271719
0.278243 -1.183899 0.164042
0.965534 -0.401283 0.164042
0.128958 -1.120729 0.260362
-0.344156 0.317491 1.114519
0.927922 0.378124 0.164042
0.011294 0.140999 0.164042
0.698501 -0.352586 0.502447
-0.809136 0.171443 0.164042
0.546168 -0.796164 0.351181
-0.547448 -0.022311 0.164042
0.628333 -0.685246 0.375712
-0.214350 -0.939178 0.164042
0.545194 -0.165098 0.802532
-0.196853 0.467446 0.164042
-1.068201 0.079819 0.164042
0.096669 -0.300725 1.279051
0.097419 -0.561047 0.803332
0.303570 -0.209415 1.279051
0.574066 -0.210184 0.725383
1.240992 0.345032 0.164042
-0.159748 -0.423937 0.164042
-0.575004 -0.919950 0.281594
0.460719 -0.709288 0.164042
0.487602 -0.685982 0.164042
0.248561 1.128437 0.248656
0.259496 0.360511 1.279051
-0.559820 0.918083 0.286137
0.728409 0.914761 0.164042
0.810048 1.019267 0.197810
-0.629119 -0.915213 0.164042
1.271252 0.660756 0.164042
-0.067152 -0.934045 0.371144
0.057454 -1.258879 0.209849
-0.759417 -0.761987 0.164042
-0.659542 1.155384 0.190239
0.435477 -0.390281 0.164042
0.143879 1.313804 0.192524
1.183340 0.198226 0.164042
-1.259100 -0.042379 0.164042
0.505796 -0.082258 0.941343
-0.634680 -1.177654 0.164042
-0.372339 0.542842 0.164042
0.655041 -0.112009 0.643174
0.668367 1.127136 0.164042
0.328245 -0.441779 0.164042
0.320722 0.364130 1.034443
-0.465187 -0.547658 0.573139
-0.527783 -0.149919 0.847999
0.261792 -0.375846 1.188859
0.111959 -0.667007 0.627115
0.423417 0.158022 1.269977
-0.971806 0.912430 0.189552
0.500439 -1.136649 0.216058
0.194484 1.191469 0.227953
-1.238339 0.294642 0.206089
-1.202030 0.763055 0.164042
-0.165550 1.096163 0.164042
-0.022937 0.909202 0.390891
1.012779 0.283271 0.298918
-0.676901 -0.352607 0.522641
0.479620 -0.113238 1.005453
0.317648 1.217559 0.210588
0.465776 0.558704 0.562682
0.471888 -0.043754 1.085079
0.137113 0.618566 0.689299
0.473148 0.608013 0.164042
0.037627 -0.870962 0.164042
0.111789 0.542747 0.835441
1.263501 0.702765 0.167934
0.453297 -0.100185 1.140939
-0.279613 -0.360227 0.164042
-0.684491 0.306832 0.164042
-0.831626 -0.234772 0.427119
-0.452417 0.145924 1.077523
1.101909 -0.524765 0.164042
0.400854 -0.356533 0.877010
1.199226 -0.217423 0.164042
-0.052523 -1.463281 0.165540
-0.375465 -0.399459 0.848860
-0.401358 -1.083347 0.164042
0.398455 -0.408686 0.800262
-0.897388 0.276504 0.369329
-0.423946 -0.894885 0.164042
-1.310154 0.655803 0.165516
0.182501 0.100807 0.164042
-0.203431 -0.131549 0.164042
-0.368153 1.381599 0.170350
-0.421055 0.950355 0.305533
0.246574 0.980814 0.164042
-1.302587 0.250997 0.191221
-0.136205 0.136207 0.164042
0.601108 -0.377506 0.164042
0.102685 -0.842393 0.440050
-0.686332 -0.120916 0.599818
0.745894 0.871665 0.252340
0.050829 -0.785061 0.164042
-0.206222 -0.766152 0.164042
-0.149032 -0.908988 0.382047
0.578235 0.715901 0.382689
0.169412 -0.395644 1.279051
-0.397533 0.442360 0.754451
-0.614027 -0.230127 0.656128
-0.306476 -0.450487 0.164042
-1.239993 0.021214 0.164042
0.186400 1.128606 0.164042
-0.869708 -0.301504 0.164042
-0.676641 -0.025818 0.164042
-1.382771 0.388028 0.164042
-0.863934 -0.916671 0.210198
-0.136187 0.467404 1.027302
0.280424 -0.457863 0.875957
-0.981710 -0.265414 0.164042
-0.325658 1.305393 0.186588
0.328730 -0.096190 1.279051
-0.911138 0.243462 0.164042
0.000359 -0.522138 0.913865
-0.219431 -0.557493 0.164042
1.268294 -0.278293 0.198745
1.160716 -0.568599 0.164042
-0.240657 0.433784 0.993942
-0.120170 0.509937 0.909318
0.042623 -0.401563 1.279051
0.599473 -0.356518 0.599087
-0.051325 -0.450386 1.246430
0.563948 -0.095382 0.797980
-0.093034 0.265019 0.164042
1.439053 0.313208 0.164042
-1.226168 0.065898 0.220748
1.139613 -0.114899 0.164042
-0.923487 0.891388 0.164042
0.835730 -0.248963 0.420468
-0.939949 -0.267945 0.164042
-0.861201 0.763153 0.250547
-0.760158 -1.220512 0.169072
-0.197515 0.341080 0.164042
-0.236831 -1.453868 0.164464
0.383225 -0.438821 0.164042
0.260978 -0.678528 0.563051
-0.968239 -0.335298 0.164042
0.000147 0.485291 1.034182
1.267114 0.588460 0.164042
-0.903189 -0.121519 0.164042
-0.474260 -0.155836 0.983060
0.390731 1.096982 0.244668
0.784487 -0.796982 0.164042
0.018190 -0.459391 0.164042
-0.318589 0.340683 1.126510
0.262953 0.832893 0.419222
-1.137167 0.543862 0.209908
0.438737 1.040032 0.260531
0.170028 0.131383 0.164042
0.881606 0.872305 0.216401
-0.617402 0.382647 0.164042
-0.278014 -0.796577 0.444447
0.067319 -0.385645 1.279051
0.484453 0.239856 0.867290
1.255883 -0.370523 0.164042
0.563410 1.200229 0.191389
-0.705079 -0.528161 0.413084
-0.146932 -1.133736 0.164042
1.004798 -0.412886 0.164042
0.260500 -1.116214 0.252634
-1.199511 0.455533 0.202947
-0.600297 -0.298832 0.635112
0.523688 0.084300 0.891687
0.904458 0.402867 0.164042
0.005895 -1.059818 0.164042
1.102480 -0.080204 0.164042
-0.864169 0.240929 0.164042
0.598297 -1.281302 0.173033
0.499399 1.122803 0.220356
0.925108 -0.686981 0.249810
0.512848 -0.349292 0.164042
-0.965361 -0.716361 0.229833
0.578325 0.748042 0.364872
-0.177067 -0.933400 0.164042
0.460576 0.939229 0.302094
0.472319 0.637903 0.491263
-0.035476 0.839956 0.446972
-0.969834 -1.111006 0.164238
0.037110 -0.437936 1.279051
0.244020 -0.222763 1.279051
-0.143391 1.433408 0.164042
-0.106263 -0.973849 0.164042
-0.373417 1.218935 0.205494
0.642636 0.635935 0.164042
0.039946 -0.534625 0.164042
0.451274 -1.263075 0.164042
0.179838 0.445880 1.052936
0.963638 0.645759 0.246664
0.059136 0.912971 0.164042
-0.983897 -1.034946 0.164042
-0.541833 0.925789 0.164042
0.639638 -1.220549 0.179716
-0.701680 -0.973683 0.230631
-0.936217 -0.507990 0.164042
-0.949121 -0.614342 0.164042
-0.239726 -0.278406 1.279051
0.088198 0.450670 1.177443
0.017604 -0.454180 1.222433
0.101663 0.453485 1.137513
-1.384797 0.500480 0.164042
0.453964 0.099913 1.136752
0.174684 1.463580 0.164328
-0.418138 -0.215443 1.101771
0.653223 -0.261280 0.164042
0.422513 -0.522686 0.632940
-0.292642 0.021722 1.279051
0.016478 -0.584524 0.772547
-0.477994 0.023076 1.062201
-0.469716 0.115145 1.041059
-0.809803 -0.587947 0.328525
-0.436270 -1.076791 0.164042
0.545748 0.691857 0.164042
0.203805 -0.083437 0.164042
-0.350547 -0.883012 0.361782
0.551396 1.011914 0.164042
0.540077 0.360115 0.164042
-0.747885 0.672501 0.164042
-0.996932 -0.208891 0.164042
-0.379080 -0.075993 1.279051
0.529995 -0.409844 0.164042
0.802309 0.016443 0.482747
0.327186 -0.966114 0.164042
0.616457 -0.392944 0.558516
0.058382 0.334243 0.164042
-0.402954 -0.402725 0.802325
0.121547 -0.353051 0.164042
0.130155 0.857392 0.164042
0.214459 -1.452565 0.164042
0.317122 0.004712 0.164042
0.149068 -0.848194 0.164042
0.415894 -0.746994 0.164042
-0.053356 -0.096770 1.279051
0.977770 0.333675 0.164042
-1.329182 0.410619 0.164042
-0.074159 -0.437877 0.164042
-0.050633 -0.668243 0.635637
1.207483 0.449379 0.164042
0.327209 -0.255114 1.279051
1.417842 0.366792 0.165587
-0.307438 -1.197439 0.217786
0.446596 0.414634 0.164042
-0.263390 -0.387279 1.113592
-0.121765 0.371036 1.279051
-0.101278 0.128619 1.279051
0.451039 -0.087995 1.174335
-0.522973 0.821629 0.345410
-0.267735 0.034456 0.164042
-0.573519 -0.967904 0.164042
0.263995 -1.419367 0.168361
0.299775 -0.421894 0.926336
-0.005492 -0.457622 1.192876
0.492504 1.174452 0.205913
-0.599959 -1.206157 0.186473
1.066961 -0.026737 0.290488
0.267601 -0.998621 0.164042
-0.719898 0.219878 0.533964
-0.105319 0.944680 0.164042
0.960882 0.074087 0.352358
-0.883700 0.824430 0.227589
-0.474504 -0.361018 0.752031
-0.776531 0.546708 0.164042
-0.186225 -0.236270 0.164042
1.221702 -0.414287 0.201003
0.218685 0.855362 0.411630
0.461436 -0.199002 0.971398
0.846820 0.248726 0.164042
-0.341496 0.465857 0.786945
0.881899 -0.803650 0.233255
-1.019877 0.188445 0.307174
-0.228990 0.627741 0.164042
0.494202 0.568681 0.533059
-0.389950 0.969821 0.302272
-0.633218 0.227200 0.632161
-1.025047 -0.301762 0.289849
0.292346 1.444190 0.164430
0.127565 -1.340271 0.186365
0.733515 0.829771 0.270135
0.428734 0.225057 1.038684
-0.461637 -0.125951 0.164042
-1.107680 -0.622750 0.206778
-0.588422 -1.244547 0.164042
1.034422 -0.249417 0.164042
-0.647836 0.110273 0.164042
-0.442992 -0.949942 0.300914
1.097589 0.745338 0.191162
0.070922 0.189200 0.164042
-0.143664 -0.439616 1.152138
0.887100 -0.112800 0.164042
0.403732 -0.324748 0.164042
-0.426962 -1.270063 0.164042
0.219679 -1.156247 0.164042
-1.418740 0.050759 0.171979
-0.122984 0.580293 0.757604
-0.727137 0.559532 0.385080
0.795206 -0.334227 0.164042
0.612095 -1.171809 0.192524
-0.781201 0.352725 0.164042
-0.576591 -0.499064 0.523309
-1.229535 0.196226 0.214720
1.294462 0.403619 0.164042
-0.376306 -0.685669 0.164042
0.882455 1.137826 0.168899
-0.434569 -0.438306 0.164042
0.956026 0.164836 0.347938
-0.377468 0.795881 0.164042
0.210930 0.124452 1.279051
0.778027 -0.270722 0.462516
0.327744 -1.083378 0.258818
0.633550 -0.942568 0.257278
-0.089652 -0.360080 1.279051
-0.259130 1.144418 0.164042
0.286054 0.331537 1.279051
-0.720711 -0.048828 0.164042
-1.064331 0.766813 0.164042
-0.470321 -0.502986 0.164042
0.943462 1.084575 0.164042
1.094892 0.002466 0.276513
-0.098454 -0.856900 0.164042
0.018644 1.299588 0.164042
-0.924148 0.412844 0.321366
0.471680 0.079785 0.164042
1.186144 0.062591 0.235488
0.202923 0.604375 0.164042
1.227571 -0.756443 0.168512
0.096349 1.409721 0.173280
0.675993 0.827487 0.289874
0.537933 0.922175 0.164042
0.269895 -1.253892 0.203165
-0.632898 1.118847 0.202255
0.360477 1.207624 0.164042
1.342776 0.339603 0.178204
1.106698 -0.603869 0.164042
0.490215 0.100181 0.978140
-0.152961 -1.079804 0.164042
-0.568360 0.957325 0.267319
0.462697 1.149963 0.216662
-0.174454 1.223308 0.164042
0.523254 0.968768 0.273399
-0.815324 -0.051275 0.164042
-0.080512 0.663765 0.164042
-0.077154 -1.099808 0.164042
0.721903 -0.994150 0.164042
-0.766870 0.012353 0.518715
1.339664 0.164927 0.164042
-0.616612 -0.701464 0.372864
1.345796 0.309415 0.164042
0.355539 0.542052 0.164042
0.610707 1.073040 0.164042
0.398610 0.674934 0.500958
-1.068488 -0.740185 0.198350
1.155240 0.567672 0.201769
-0.882915 -0.063293 0.409884
-0.521068 -0.120107 0.881064
-0.255629 0.728022 0.164042
0.553022 1.228281 0.164042
0.630024 0.437119 0.164042
-0.426207 0.019664 0.164042
-1.232599 0.286287 0.164042
0.036442 -0.209585 0.164042
0.207105 0.677848 0.164042
-1.313044 -0.142875 0.164042
0.400773 0.321503 0.937171
-0.548321 -1.062814 0.232305
-1.266312 0.282651 0.164042
0.461847 -0.657576 0.164042
-0.817687 -0.413112 0.164042
-0.231189 0.427980 1.029396
-1.456938 0.130308 0.165826
-0.602989 0.591965 0.443417
0.774055 -1.026575 0.164042
0.674099 -0.527791 0.433851
-0.385243 -0.942926 0.164042
1.295593 -0.027671 0.199421
0.690300 -0.596411 0.164042
1.446796 0.159346 0.166795
-1.140686 0.365291 0.231535
-0.270232 -0.509369 0.788964
0.067402 -0.596003 0.745691
0.116136 1.143312 0.251223
-1.212844 0.226050 0.164042
0.634741 -0.516353 0.164042
0.375198 0.007701 1.279051
-1.394271 -0.088389 0.164042
-0.451311 1.403631 0.164042
0.538931 1.039040 0.164042
-0.039126 0.530761 0.887826
0.927613 0.270420 0.164042
-0.154932 -0.748143 0.521811
-0.548983 0.693409 0.410296
1.063658 -0.150679 0.286935
0.935376 0.233080 0.352190
0.251606 -0.169641 0.164042
0.989000 -0.786989 0.208948
0.130108 -0.079351 0.164042
1.112423 -0.454730 0.230006
0.235508 -0.660529 0.594486
-1.163494 -0.059608 0.244433
0.694975 -0.321598 0.519896
0.447707 -0.438956 0.164042
1.064679 -0.271558 0.274535
-0.143170 0.548273 0.809088
-1.036021 0.742398 0.164042
0.519703 -0.158998 0.860348
0.972300 0.398583 0.299231
-1.009954 0.861922 0.164042
-0.252118 -0.394515 0.164042
0.421624 -0.131329 0.164042
-0.044811 1.260065 0.209561
1.142669 -0.551338 0.207385
-0.837305 -0.352242 0.164042
-0.952611 0.380680 0.313575
0.373963 -0.897259 0.164042
-0.891177 -0.988536 0.190081
-0.912698 -0.446732 0.319069
0.127679 -0.466195 1.041760
1.274809 -0.028400 0.164042
0.049137 0.573446 0.790572
-0.427637 1.083265 0.244690
0.534715 0.894115 0.304535
1.154752 0.449908 0.164042
-0.015122 0.691236 0.164042
-0.496187 -0.673272 0.451098
-0.099029 -1.425060 0.170553
-0.338701 0.111077 0.164042
0.325007 0.713588 0.500655
0.893081 0.626268 0.278542
0.028243 -0.651437 0.661087
0.794081 -0.204142 0.466061
-0.856672 0.189918 0.415861
-0.381560 -0.037478 1.279051
-1.257285 0.353059 0.196752
0.138267 0.661288 0.628367
-0.413913 -0.191373 1.208220
0.551535 -0.220646 0.755886
-0.531332 -0.782493 0.164042
-0.802324 -0.260185 0.164042
-1.022314 0.216668 0.164042
0.237512 1.188964 0.164042
-1.058489 -0.418172 0.164042
-0.808096 -0.522555 0.164042
-0.084692 -1.229174 0.164042
-0.500577 0.016542 0.977314
-0.546831 -0.127475 0.819819
0.907604 -0.193711 0.377031
0.320348 0.354021 1.067340
-0.096113 -0.917657 0.164042
0.726308 -0.921528 0.241255
0.104243 0.365253 1.279051
-1.429507 0.019755 0.164042
0.418660 -0.192068 1.164497
0.730301 0.000833 0.164042
0.973268 -0.915944 0.188784
0.428518 -0.327557 0.870144
0.416003 0.006803 0.164042
0.238319 0.734436 0.164042
0.517306 -1.377203 0.164042
-0.060533 -0.460365 1.140167
0.222815 -0.264362 1.279051
-0.196375 0.639021 0.164042
-0.822032 -0.554761 0.334204
-0.759690 -0.311868 0.464846
0.708543 0.131191 0.570954
1.164225 -0.383296 0.164042
1.235139 -0.441011 0.195245
0.306201 1.024717 0.164042
-0.760404 -0.330082 0.164042
0.783023 -1.143945 0.164042
-0.680287 -0.074534 0.164042
0.709716 -1.129561 0.164042
1.066185 -0.797929 0.164042
0.315869 -0.854421 0.164042
-0.404787 -1.058819 0.258393
0.639037 -0.299844 0.588591
0.400487 1.417446 0.164457
0.214321 -0.836371 0.427713
-0.550103 1.217060 0.189094
0.387704 1.262931 0.164042
-1.194762 -0.435549 0.206485
-0.228443 -0.108459 0.164042
0.374212 0.820370 0.397218
0.360467 -0.642154 0.552254
0.862611 0.550870 0.314913
-0.436661 1.261045 0.189354
-0.358240 0.994151 0.296139
-0.221582 0.279528 0.164042
0.617132 -0.459601 0.164042
1.051201 0.199511 0.289128
0.144882 -0.778424 0.493169
-0.053946 0.080283 0.164042
-0.125920 -0.881470 0.164042
0.326515 -1.283064 0.164042
0.868688 -0.156439 0.411853
1.317595 0.393250 0.180272
0.767682 0.520822 0.377292
-1.012713 -0.818505 0.164042
-1.107511 -0.747135 0.188966
1.264253 0.066996 0.208234
1.129456 -0.417183 0.229113
-0.815134 0.859485 0.236757
1.371121 -0.114650 0.180064
-0.307871 -1.375270 0.173920
0.105384 0.518513 0.895329
-0.137646 0.664245 0.624489
-0.434282 0.285224 0.920963
-0.232382 -0.504269 0.164042
0.659728 -0.618915 0.164042
-0.611629 0.528556 0.477003
0.847143 -1.107261 0.176598
0.028854 0.323156 0.164042
-0.187439 -0.467328 0.164042
1.177193 -0.562093 0.197103
0.770755 -0.521944 0.374976
-1.258069 -0.515889 0.164042
-0.627384 0.896105 0.276926
-0.174298 0.961504 0.343397
0.127809 0.811296 0.164042
-0.341287 1.111030 0.245680
0.570702 1.074305 0.164042
-0.912657 -0.713497 0.247356
-0.505037 -1.239030 0.164042
0.815889 0.546682 0.164042
1.069461 0.097319 0.164042
-1.361763 -0.210272 0.179621
-0.375983 0.084288 1.279051
-0.148098 0.914588 0.378122
0.515941 0.302590 0.164042
1.191753 -0.250519 0.164042
0.146178 -0.648080 0.164042
0.082414 0.808271 0.473013
0.449350 0.684804 0.164042
-1.122167 -0.460388 0.164042
0.122984 -0.444911 1.157533
0.898406 -0.869649 0.164042
-0.534238 0.590081 0.488928
0.891375 0.947507 0.198084
-0.204782 1.405305 0.164042
-1.080469 -0.543358 0.227345
0.453734 1.218193 0.164042
-0.187004 0.424505 1.140710
-0.037745 0.565758 0.808411
-1.051734 -0.767386 0.164042
-0.139876 -0.920144 0.164042
0.228119 -0.574254 0.714555
0.188188 -1.309376 0.192298
-1.116111 -0.402567 0.164042
-0.968403 1.057419 0.169794
1.269779 -0.110722 0.164042
-1.021926 0.044053 0.164042
0.744890 -0.886133 0.247551
-0.280880 0.956551 0.331012
0.495091 0.006924 0.997340
0.777524 -0.060940 0.164042
0.951124 -1.033923 0.164042
-0.221684 -0.511991 0.827276
0.272858 -0.809087 0.435589
0.533719 0.623081 0.465576
-0.357580 0.415526 0.849171
-0.850969 0.106258 0.432670
0.167259 1.096763 0.164042
0.177957 -1.158758 0.164042
0.574650 0.529848 0.503198
0.438813 0.177443 0.164042
0.002872 -1.337879 0.164042
0.588103 0.911051 0.164042
-0.899270 0.171452 0.386606
-0.479495 -1.379831 0.164042
-0.024219 -0.423068 0.164042
1.265619 -0.477523 0.185233
0.613316 -0.773813 0.336963
0.252006 -0.299569 1.279051
0.340738 0.402750 0.899515
0.536070 0.398831 0.638273
0.361485 0.372556 0.921811
-0.178645 0.076989 1.279051
1.424910 -0.142965 0.169959
-1.169388 -0.766885 0.164042
-0.340837 -0.321302 1.113652
-0.265275 -0.439024 0.939792
0.441401 1.043775 0.164042
0.430950 -0.067434 0.164042
0.775491 1.060751 0.194589
-0.207484 1.100096 0.264541
-0.547115 1.133511 0.164042
0.060104 -0.575054 0.785975
0.671318 -0.849364 0.164042
0.760683 0.160979 0.507484
0.985618 -0.692866 0.228949
0.324027 1.172978 0.224558
-0.151402 -1.317424 0.164042
0.153715 0.457961 1.043440
-0.365959 1.115131 0.164042
-1.104294 0.553971 0.218098
-1.011087 -0.333419 0.164042
0.650330 -0.609011 0.405145
0.789939 -0.953370 0.164042
-0.051589 -0.141383 1.279051
-0.242724 0.130831 0.164042
-0.759793 -0.529684 0.378371
0.913257 0.551653 0.290661
-1.160253 -0.131023 0.243338
0.257215 -1.079101 0.164042
-0.111155 -0.649611 0.164042
0.686944 -0.279260 0.546589
-0.702149 -1.001843 0.164042
0.300004 -0.922948 0.164042
-0.158557 0.622609 0.164042
-0.803374 -1.129489 0.178029
0.212985 -0.524478 0.809831
0.558031 -1.110669 0.215630
-0.776107 -0.791331 0.269647
-1.316218 -0.050342 0.164042
-0.878951 -0.935078 0.164042
-0.288654 -0.745151 0.486006
-1.265987 0.333025 0.164042
1.016147 0.137662 0.313817
-0.128817 -0.967318 0.344083
0.641617 0.314836 0.577891
-0.586018 1.207190 0.164042
-0.781098 -0.560324 0.164042
0.009008 -0.278470 0.164042
0.685101 -1.213881 0.164042
0.576819 -0.444456 0.561764
-0.437403 0.112886 1.274082
-0.460425 0.777991 0.164042
0.459161 -0.972659 0.164042
-0.411971 0.710574 0.164042
0.421066 0.279579 0.962640
0.560501 0.016088 0.164042
-0.491864 1.185800 0.164042
-0.116097 -0.469423 1.041356
0.698998 0.312433 0.164042
1.297364 -0.585567 0.171453
-0.396955 -0.014137 0.164042
1.006690 -0.742262 0.213007
0.907300 -0.654704 0.164042
-0.218880 -0.360610 1.279051
-0.338345 1.141539 0.164042
-0.055721 0.614493 0.716052
0.281711 -0.867114 0.389555
-1.035742 -0.429283 0.263930
-0.620775 -1.288694 0.164042
-0.922875 -0.294330 0.348950
-0.636230 0.006829 0.684913
-0.528197 -1.233127 0.187705
-0.154353 1.166913 0.239558
0.310853 -1.076888 0.164042
1.042010 1.035151 0.165014
0.706690 0.816723 0.284039
-0.073687 0.020725 1.279051
-0.397522 -0.638084 0.164042
1.295521 -0.250614 0.193099
1.240222 -0.453729 0.164042
0.461455 0.257175 0.164042
-0.859620 0.079662 0.164042
0.084147 -1.234656 0.217451
-0.663170 -0.919219 0.164042
0.459593 -0.527420 0.164042
-0.606881 -1.029644 0.164042
-0.964289 0.464163 0.164042
0.560498 0.090226 0.806563
0.789552 -0.532755 0.164042
0.811491 -0.874487 0.233334
-0.497311 -0.900558 0.164042
0.799751 0.279865 0.164042
0.034660 0.313745 1.279051
-0.381233 0.371850 0.886174
0.686119 -0.383982 0.498566
0.057448 -1.332877 0.189374
0.775241 -1.058639 0.195076
-0.156888 -0.057909 0.164042
-0.715724 0.769262 0.299434
0.765397 0.372621 0.164042
1.256416 -0.508312 0.184653
-1.089095 -0.316988 0.258096
-1.102167 0.610308 0.210145
-0.653385 -0.194484 0.164042
0.288259 -0.155597 0.164042
-0.609559 0.044243 0.725720
0.873891 1.172246 0.164042
-0.440479 -0.204848 1.032116
-0.053278 -0.472575 1.076713
0.633531 1.006297 0.234974
0.488884 0.214235 0.883392
0.086041 0.736634 0.546472
-0.906563 -0.911464 0.202179
-0.913288 0.804349 0.164042
0.384475 -0.738487 0.454557
0.462299 -1.112266 0.164042
-1.044954 -0.628329 0.223750
-1.408537 0.268329 0.164042
0.279350 0.567788 0.164042
-0.092620 -0.620084 0.699968
1.047114 0.988649 0.164042
0.284167 1.363578 0.164042
0.243702 0.869600 0.396128
1.105162 -0.888317 0.164042
0.185159 -0.931043 0.164042
-0.599719 -0.486884 0.164042
0.065348 -0.746068 0.537788
0.308871 -1.394875 0.164042
-1.132764 0.644834 0.164042
0.968915 -0.508804 0.164042
0.370030 -0.489315 0.721577
0.622557 -0.815795 0.313261
0.655618 -0.200917 0.614754
0.050627 0.474870 1.066676
0.402589 0.512815 0.661670
0.883130 -0.834110 0.164042
0.320758 1.326286 0.164042
1.138612 -0.169440 0.250598
-0.263070 1.054971 0.164042
0.630833 0.218687 0.638991
1.218797 0.484047 0.164042
0.677314 -0.121720 0.611515
-0.167319 1.273874 0.164042
-0.436021 -1.133418 0.225446
-0.708187 -0.799857 0.164042
-0.455810 -0.432093 0.698183
-0.065705 0.594038 0.749575
0.159887 -1.133698 0.164042
0.384528 -0.242717 1.221309
-0.329809 0.193634 1.279051
0.331365 -0.640618 0.570117
-0.239911 -0.885012 0.164042
-1.073388 0.844065 0.182319
1.264143 -0.760049 0.164042
0.795796 1.084908 0.164042
0.478356 0.334310 0.775354
-1.229336 -0.101089 0.218774
0.202713 1.126559 0.253494
-0.853420 0.511352 0.332200
0.270730 -0.399723 1.044659
0.602280 1.204076 0.186661
0.884424 -0.712739 0.164042
-0.092044 -0.857153 0.428847
1.158930 0.676175 0.187549
0.761821 -1.211008 0.164042
0.211517 -0.651328 0.164042
-1.315002 -0.380174 0.181643
0.051786 -0.104304 0.164042
0.079144 0.246228 0.164042
0.171558 1.109192 0.263400
-1.038345 -0.080473 0.164042
0.421163 0.323877 0.889448
0.584485 -1.167570 0.164042
-0.557294 -0.713338 0.394300
1.123972 0.563418 0.164042
-0.489030 -0.331052 0.762019
0.217661 0.467099 0.932525
0.790376 1.049688 0.164042
-0.405926 0.210702 1.195788
-0.006792 -1.473202 0.164561
-0.233294 -0.686119 0.164042
0.004473 -0.281797 1.279051
0.482344 0.288228 0.164042
0.282053 0.064068 1.279051
0.832572 -1.036518 0.164042
0.336127 -0.742409 0.164042
0.888260 -0.032760 0.164042
-1.293028 -0.696697 0.164967
0.766442 -0.247522 0.479822
-0.423771 0.751844 0.164042
0.363448 1.167711 0.222430
-0.674459 0.958447 0.164042
-0.450152 -0.051959 1.249161
0.631693 -1.032369 0.226956
1.184036 0.876651 0.164042
-0.436611 -0.303166 0.164042
-0.969768 -0.853997 0.200428
0.347978 0.634019 0.567407
-0.670701 0.549641 0.164042
0.884137 0.309460 0.370958
-0.529821 0.848233 0.164042
-0.569669 0.798131 0.341129
0.360235 -1.195081 0.213933
1.426542 -0.202140 0.168785
-0.631888 -1.100452 0.207326
-0.074580 1.006206 0.323233
1.226688 -0.725889 0.171005
0.797272 -0.290044 0.440391
-0.911981 -0.117010 0.383619
-0.168043 0.446625 0.164042
-0.266707 -1.182861 0.164042
0.850634 -0.402267 0.164042
0.052913 -1.086309 0.164042
0.524320 1.122283 0.164042
-0.409601 0.101340 0.164042
-1.019944 0.407231 0.164042
-0.218052 -0.910071 0.164042
-0.576450 0.250214 0.697561
-0.959179 0.344955 0.317267
-1.079372 -0.020049 0.164042
-1.071369 -0.324318 0.164042
0.704140 1.119946 0.164042
0.680385 0.450343 0.469648
0.367558 0.557063 0.639355
1.292795 -0.207644 0.164042
-0.054155 -0.294356 1.279051
0.397562 -0.321175 0.945439
-1.082773 -0.665067 0.206785
0.683528 0.539361 0.164042
1.182398 0.329968 0.164042
0.243082 -1.089835 0.265865
0.497580 -0.226879 0.852352
0.333927 0.479041 0.774643
-0.411104 0.995633 0.164042
0.369283 -0.747193 0.164042
-0.162963 -1.462637 0.164042
-1.234291 -0.790187 0.164042
1.383534 -0.431689 0.167638
0.508505 -0.531213 0.553617
1.005325 0.592466 0.164042
1.109827 -0.822737 0.164042
0.091798 -0.746225 0.164042
1.178771 -0.001552 0.239028
-1.120860 -0.533954 0.215961
-0.505116 -0.070627 0.164042
0.122819 -0.109008 0.164042
0.879827 0.929345 0.164042
0.874301 0.663727 0.275092
-0.695046 0.734429 0.322459
1.221855 -0.114236 0.164042
0.432714 0.533071 0.613624
0.363744 1.124057 0.237934
0.574762 1.187998 0.164042
0.530920 0.496274 0.563314
-1.058029 0.879970 0.179948
-0.294967 -0.440226 0.893165
-1.182511 0.818257 0.169242
-0.453315 0.032058 1.225478
-0.954659 0.412160 0.305604
0.676703 0.672424 0.359025
-0.876071 -1.138953 0.169303
-0.128732 -0.542479 0.828224
1.080343 0.184442 0.275942
-0.909868 0.905016 0.202924
0.296781 -0.094456 0.164042
0.843137 0.218217 0.421362
-0.521029 -0.312981 0.731637
-0.915692 -0.148080 0.377329
1.066734 -0.895491 0.176856
-0.526623 0.955745 0.164042
-0.842627 -0.958996 0.204966
-0.317707 -0.257714 1.279051
0.161894 0.355991 1.279051
-0.552168 -0.581088 0.483634
0.735586 0.444920 0.430891
-1.198000 -0.584358 0.164042
-0.532989 -0.405041 0.636574
-0.289104 0.717117 0.164042
0.777198 0.082435 0.503273
-1.210804 0.255307 0.217404
-0.106318 0.995122 0.328522
0.705696 0.251727 0.164042
0.246665 -0.965372 0.164042
1.027430 -0.481788 0.257830
0.636770 -1.112672 0.203329
0.318971 0.298245 1.279051
-0.662352 0.500511 0.164042
-0.895316 -0.089727 0.398628
0.351101 -0.573633 0.164042
0.445166 -0.927720 0.311574
0.411649 0.201862 1.184749
-1.260456 0.091618 0.208929
0.668025 0.776086 0.164042
0.438974 -0.673384 0.481430
0.112104 -0.942309 0.164042
-0.527798 0.526355 0.542160
-0.853324 -0.285791 0.398554
-0.180034 0.525199 0.833278
-0.293832 0.864532 0.388428
-0.087230 -0.458585 1.124134
-1.041588 -0.487495 0.164042
-0.352817 -1.130739 0.236735
-0.814032 0.469816 0.164042
0.907224 0.201178 0.164042
-0.743840 0.391370 0.447324
0.505805 1.289457 0.178194
0.146163 -0.946725 0.164042
0.465900 -0.882254 0.164042
-0.366901 0.518039 0.687311
-0.651860 -0.319993 0.164042
-0.600468 0.874371 0.164042
-0.554583 0.035402 0.164042
0.194266 1.418483 0.164042
-0.902556 -0.633592 0.272488
-0.604143 1.295157 0.164042
-0.085145 0.144614 0.164042
0.679362 -0.488761 0.450598
0.206613 -0.957408 0.341935
0.204141 -0.288392 0.164042
1.101419 0.337406 0.164042
0.755631 -0.956923 0.164042
-0.074178 0.350492 0.164042
-0.784671 -0.221861 0.164042
-0.899595 0.210141 0.164042
-1.152042 -0.531813 0.207352
-1.469912 -0.058057 0.164699
-1.062163 -0.145648 0.288049
-0.030528 -0.024087 0.164042
-1.271001 0.750422 0.164370
0.076501 -1.286773 0.164042
1.030252 -0.989549 0.170543
0.300341 0.946862 0.333102
0.151776 0.734656 0.536754
0.784280 0.140155 0.164042
0.629098 -0.805881 0.164042
0.414336 0.740668 0.164042
0.633104 0.749647 0.340768
0.684013 0.499036 0.164042
-0.712003 -0.145678 0.563675
0.048969 -0.692573 0.164042
0.348625 0.726752 0.164042
-0.304801 -0.469055 0.824304
0.950533 0.304055 0.330267
-0.375872 0.392488 0.860526
0.173943 0.622031 0.670571
0.572910 -0.871760 0.164042
-0.575662 1.318403 0.169053
1.076960 -0.593767 0.220076
0.163385 -0.564753 0.767147
-1.077102 -0.626603 0.214398
0.332925 0.820026 0.410011
1.248945 -0.417102 0.164042
-0.846890 -1.200711 0.164042
-0.301980 0.396638 0.984736
-0.533760 0.451729 0.596910
-0.860641 0.321499 0.164042
-0.988439 -0.168465 0.327294
0.403995 -0.221974 1.162401
0.766203 -0.581296 0.353691
1.020839 -0.945382 0.177085
-0.404363 -0.866574 0.164042
-1.076415 -0.553884 0.164042
-0.136665 -0.624751 0.679952
0.856921 0.162570 0.164042
0.591289 -0.397017 0.580940
-0.636446 0.675725 0.376898
-0.230469 1.012756 0.306020
0.650694 0.051039 0.660436
-0.067192 0.089020 1.279051
-0.471212 0.577062 0.542600
-0.007569 -0.702622 0.164042
0.417099 1.077632 0.248630
0.251801 0.210799 0.164042
0.665282 -0.789052 0.309663
0.033558 0.966208 0.350265
0.664445 -0.009034 0.643252
-1.038471 0.823690 0.191547
0.452854 0.028009 1.238972
0.242244 -0.411469 0.164042
0.147109 -1.029378 0.164042
0.105210 -0.898257 0.164042
0.582300 -0.121220 0.754560
0.301914 0.418573 0.930299
-0.443323 -0.783549 0.164042
0.210483 -1.103902 0.262498
-0.354826 -0.336741 1.018220
1.119476 0.025144 0.264556
-0.596378 0.291809 0.644040
0.477302 0.164876 0.164042
-0.459201 -0.880334 0.164042
0.051039 1.304262 0.196760
-0.324414 0.540123 0.694685
0.704028 0.025383 0.164042
0.301930 0.534456 0.721106
1.243588 0.632071 0.164042
-0.423848 -0.162594 1.232262
-0.294883 0.539284 0.164042
0.448684 -0.424884 0.714422
1.202834 -0.082885 0.164042
0.352238 -0.701813 0.499641
-0.150060 -0.388185 1.279051
-0.044525 0.217427 1.279051
0.217472 -0.182506 0.164042
0.310194 1.283979 0.164042
1.070172 0.737560 0.164042
0.862290 -0.607501 0.164042
0.864760 -0.071541 0.424087
-0.714641 -1.068672 0.164042
0.220071 -0.398268 1.218129
-0.328022 -0.974852 0.312046
-0.390610 0.140194 0.164042
-1.261381 0.266883 0.201201
1.251956 0.277861 0.164042
-0.339658 0.986676 0.164042
-0.250335 -1.259700 0.202572
0.982280 -0.139586 0.164042
-0.178157 0.499965 0.890887
0.635547 -0.972762 0.245813
-0.387586 -0.250945 1.157363
1.263892 -0.279923 0.164042
0.349165 -0.004817 0.164042
0.144741 -1.161820 0.164042
-1.091690 0.682454 0.201691
0.770108 1.022103 0.203988
-0.985890 -0.550786 0.260317
-1.190227 0.037132 0.164042
-0.231094 -0.717364 0.533360
-0.096639 0.985094 0.164042
-0.003822 1.163148 0.245248
0.892508 -0.595542 0.164042
-0.277941 -1.136563 0.242442
-0.472769 0.277994 0.848668
0.549893 -0.278673 0.164042
0.327333 0.683583 0.528228
-0.579847 0.031142 0.780854
0.384313 0.237700 1.271516
0.453917 -1.333346 0.164042
0.858964 0.953190 0.202950
0.286181 0.117280 0.164042
0.035139 0.691099 0.606377
0.061000 -0.510030 0.164042
-0.167156 -0.629375 0.662718
-0.380394 0.169467 0.164042
0.082719 -0.637775 0.674523
0.343038 -1.342604 0.178069
-0.211000 0.400802 1.252740
-0.344960 0.762761 0.450460
0.328391 -1.105493 0.164042
-0.330748 -0.775780 0.444714
0.811081 -0.156512 0.460468
0.110077 0.655460 0.642997
0.062743 -1.357609 0.164042
0.575380 0.207767 0.724703
-1.355496 -0.258929 0.179160
0.182164 0.510976 0.862789
0.184288 0.455849 1.008836
-1.118273 -0.655890 0.199296
0.534405 0.008657 0.881742
0.240985 0.278704 1.279051
0.470213 1.024147 0.261376
0.004925 0.321222 1.279051
-0.092229 -1.462289 0.164042
0.147628 -0.045869 1.279051
0.110393 0.634464 0.673369
-0.809544 0.122530 0.467065
0.340158 1.240259 0.202042
-0.170043 -0.533496 0.823010
0.423453 0.929090 0.316292
1.189931 -0.773209 0.164042
-0.454295 0.079949 1.160385
0.032433 -0.828593 0.164042
1.177214 0.153597 0.164042
-0.196151 0.801409 0.164042
0.710707 1.001925 0.164042
0.590860 -1.347809 0.164663
-0.100457 0.229286 0.164042
0.337089 -0.593796 0.618643
0.377730 -0.810938 0.164042
-0.350571 0.356309 0.980807
-0.198367 0.037266 0.164042
-0.287511 1.264901 0.198928
0.130355 -0.534972 0.164042
-0.824885 1.131880 0.164042
0.168924 -0.433250 1.134570
-0.733734 1.116484 0.188887
-0.192490 -1.149618 0.244158
-1.028680 -0.221329 0.298563
1.301219 0.244793 0.191895
0.097947 0.801478 0.164042
-0.547901 0.146658 0.807653
0.329491 0.694965 0.164042
0.437062 0.782198 0.401581
0.451616 0.753811 0.164042
-0.923150 -0.802877 0.222294
-0.447338 -0.212460 0.164042
-0.732645 -0.514675 0.402030
0.403753 -1.259873 0.192285
1.182606 -0.682089 0.182259
-0.587177 -0.108607 0.750426
-0.202001 0.581579 0.718285
0.195449 0.691671 0.572900
-0.064664 0.455535 1.168837
1.258242 -0.160608 0.207482
-0.380875 -0.635096 0.547713
-0.792744 -0.366034 0.164042
-0.086860 -0.150294 0.164042
0.061861 -0.475902 1.056561
0.855140 0.744224 0.258380
-0.280677 -1.352320 0.164042
0.563626 -0.801356 0.164042
-0.008411 1.133801 0.164042
-0.763048 -0.717075 0.164042
0.137836 0.444533 1.133006
0.001192 0.109556 1.279051
0.439902 0.248717 0.962913
0.216029 0.619860 0.655118
-0.474597 -0.994815 0.272794
-1.455663 -0.219348 0.164042
0.857152 0.675925 0.164042
0.455307 0.791069 0.164042
-0.940019 0.011229 0.368641
0.904131 -0.486705 0.313043
-0.929909 0.447379 0.310102
0.727934 0.377489 0.465961
0.881621 -0.512869 0.316926
0.725507 -0.619361 0.359120
0.922914 -0.054800 0.164042
-0.328976 -0.304147 1.279051
-0.596748 0.357828 0.601264
0.046774 0.735420 0.551858
0.643866 -0.382888 0.537953
-0.405745 0.904471 0.334595
-0.627606 1.157446 0.193776
0.933631 -0.892561 0.164042
-1.052607 0.051170 0.297705
0.104768 1.036136 0.304611
-0.870680 0.415129 0.164042
0.397211 -0.773261 0.164042
0.271737 -0.750623 0.164042
0.912026 0.127451 0.164042
0.652445 -0.823426 0.299538
-1.001805 -0.471649 0.270309
0.794660 -0.994100 0.164042
0.637679 1.035646 0.164042
-0.969612 -0.195733 0.335793
0.955835 0.333854 0.321209
0.236098 -0.746804 0.501676
0.006381 -0.462328 1.152453
0.408403 -0.287768 0.981635
1.042755 -0.224567 0.290807
-0.970389 0.668987 0.239119
-0.036684 -0.924206 0.379412
-1.238594 0.801217 0.164163
0.115138 0.557410 0.803534
0.307836 -0.326727 1.279051
-0.260476 -1.069804 0.273390
-1.027053 -0.359144 0.279990
-0.464862 -1.063560 0.246282
0.224522 1.143446 0.164042
-0.616941 0.431639 0.533579
-0.382606 0.852224 0.372684
-0.624797 -0.632944 0.406624
-0.190168 1.162397 0.239273
0.315859 0.262703 0.164042
0.328716 0.614507 0.164042
-0.411735 0.321051 0.914091
0.333869 -0.195794 1.279051
-1.171350 -0.084382 0.164042
-1.252101 0.128564 0.164042
-1.075651 -0.911100 0.173864
0.350816 -1.147327 0.230884
0.152447 0.799709 0.471410
-1.284034 0.431341 0.164042
1.435348 -0.047711 0.164042
-0.867396 -0.665777 0.164042
-0.211890 -0.861363 0.408461
-0.902564 0.848411 0.216892
-0.397666 -1.120227 0.235128
-0.156440 -0.266669 1.279051
-0.900922 0.510687 0.308054
0.076652 -0.473116 0.164042
0.690125 -0.170657 0.582541
0.615495 0.496608 0.164042
0.507926 -0.121340 0.913211
-1.157710 0.789890 0.175283
0.151390 1.135700 0.253004
-0.415790 -0.485799 0.164042
-0.495117 1.106585 0.164042
-0.339214 -0.509600 0.164042
0.596250 1.162548 0.164042
0.985439 -0.231113 0.321361
0.549046 0.806358 0.344336
-1.172866 -0.568064 0.164042
