-52.0171095780 47.0878157810 -25.6847676756
-41.4558674274 71.6651130084 -37.3084503676
-73.7605271800 38.9241991481 -23.9974433062
-36.3163202512 54.9212145116 -25.4745844482
-57.7472288816 32.1657802993 -15.2974386624
-54.9670076774 24.6069715179 -9.8436691096
-77.2842965988 18.9537232306 -7.1511844073
-44.4914559591 65.5464609222 -34.5138409020
-88.1939581140 22.2229636443 -11.8740257655
-38.8471887188 37.0242559834 -16.8725305869
-74.9111153319 16.7097921895 -6.5131121180
-75.5191357787 40.1761184009 -24.8652344041
-51.6809407529 31.2452353452 -15.1182756454
-28.1814886772 71.9889140482 -33.3478965247
-67.3754503121 27.8632551333 -13.3002462506
-61.9135875912 38.6475555725 -20.5104602338
-60.3760496465 41.0366777048 -21.9561508609
-45.8432793599 59.8926657891 -32.4960107340
-50.0236058417 32.1199802143 -15.4566178129
-67.6567726305 43.2479333157 -26.2576536769
-18.1886352767 69.3951559035 -28.1141536500
-74.9867006019 34.9090476139 -20.9726389134
-85.0651444280 32.4703224236 -20.3641118751
-75.9804021338 31.0887144489 -16.7568078266
-24.0204482818 55.1079862793 -23.3295087882
-86.3445755653 23.0836145392 -11.1475525487
-73.6530656359 39.7710413309 -24.6469474361
-36.8008288956 43.3128118843 -19.0058795604
-17.1973080752 69.4761780375 -26.6424864573
-11.9684894835 72.2553059455 -26.8183069777
-70.0292270353 20.5230785036 -8.0319663138
-32.1457693369 60.3724326785 -27.2948311903
-80.9024174259 14.6462686512 -5.1009344268
-59.6798348731 48.8143219936 -27.4703539370
-62.6048733082 35.8061241245 -18.5543738226
-61.5568805748 39.8219812555 -21.2884201516
-53.5044300169 37.7070046619 -19.6649826330
-50.0578177579 48.1548197992 -24.7508314173
-47.0938468425 66.6108374654 -37.3834069363
-84.7150910667 18.5088063767 -8.4737818525
-42.7354714636 39.1814227124 -18.8159576182
-87.7347762360 27.5145197791 -15.0735029298
-52.1932494851 62.6667346084 -35.1819629191
-33.2226903299 66.1124808533 -32.1208481594
-58.6142435860 40.7954672540 -21.4753529421
-57.5918930047 26.1449032969 -12.3602369149
-54.4430924885 49.8567200048 -26.9564883859
-60.0858176403 26.3276311668 -12.7345740787
-49.8419527677 55.6449317358 -30.8739402265
-72.8889750167 33.9971267676 -19.9312381907
-75.9700407529 34.9169803748 -19.8716701845
-45.7729709787 39.8302122419 -18.5869572580
-62.7946617057 19.8553931020 -8.3166151706
-78.6416302338 15.5613705023 -4.4977762743
-54.4257714507 35.4570993232 -17.0902430266
-40.0483230262 62.2990768968 -32.2190057165
-44.5859752783 42.1275052630 -19.7909600050
-79.6786299772 23.2176708062 -10.7570032729
-65.4924628609 23.6984971763 -10.0818175366
-48.3290174870 50.9245849967 -27.3556933996
-42.8858580442 47.6893637284 -24.0045001558
-75.3404483700 37.5113541270 -23.1269937186
-68.7880047188 24.4100054063 -10.8437301402
-44.4486288880 35.4613663764 -15.6789776269
-83.3837273997 18.5141467484 -8.4068272131
-84.4320739795 15.3351258646 -5.7835634175
-70.6223469798 43.5412639835 -25.7884284352
-82.3060717806 31.8974800485 -18.2427876909
-77.0167844448 16.3843510099 -6.3514939791
-20.0769122214 66.8370930738 -26.5702743268
-45.6916333523 52.7339871543 -26.6638658722
-24.3981194481 54.5580639235 -23.1544422444
-84.4372665985 31.2875060726 -19.2860108210
-53.8453381722 45.2789977715 -23.6580535328
-65.1873975945 33.5591957095 -17.2763653072
-61.9017779267 48.5824942429 -29.0123295947
-58.4726083890 51.8876607694 -30.6546202531
-44.0092425146 74.9045474630 -40.7235541935
-51.2246737283 29.7452221447 -12.9282681511
-66.1546990420 48.2513672386 -28.4756304540
-26.4030338946 73.3769487750 -32.1347617436
-51.9238580836 53.7837812401 -30.1907255603
-49.4765525970 33.5117137912 -16.2695713005
-72.4320962213 14.4358301430 -4.6811472047
-85.5801420035 30.2404397342 -17.1985001922
-80.9209460589 14.5685729155 -3.7466710731
-59.0005768944 30.0209953714 -13.9781151446
-26.5858512713 68.2653977993 -30.7801753908
-57.3977570449 24.4891907698 -9.9970716509
-22.8617627814 65.5011192417 -26.8701381553
-71.3466737435 33.6844733920 -19.4663236529
-61.1691514607 28.6358200328 -14.4503216124
-68.1555401657 20.5553177584 -7.9349128877
-42.1296452978 47.9702247198 -22.8367978402
-78.5904008509 32.2994114722 -18.1033414081
-24.6575071051 59.2468170452 -25.5632777711
-22.6491209570 56.9390530820 -23.8597378639
-49.8858848207 58.0886496486 -31.3530536698
-54.8391303644 42.9120516524 -23.4130421683
-74.8017657299 30.2849091409 -17.2533085414
-36.2005168563 61.0015907538 -30.1701683627
-36.3508155443 49.1041948581 -23.3282844509
-25.4321630433 66.3106976017 -29.3242230304
-59.8393256885 39.2486575522 -21.8134464561
-62.6824512127 22.9485461920 -9.3356246354
-38.6326260149 69.2911275772 -34.7492133123
-70.6577739878 29.2357705219 -14.6838668752
-65.0070265748 27.8672590679 -13.0520403879
-47.0352047733 39.6001056733 -19.7904845275
-44.0319977684 54.2123838262 -28.3995319658
-73.7058049665 39.3328959119 -24.3108799410
-69.6642618130 36.8816477328 -20.4664031319
-41.2539320170 66.2542799826 -33.8372693618
-81.9127450075 23.7053443603 -11.3101351716
-78.6855169203 33.7021381420 -19.2595327063
-83.6927728770 29.9317794507 -18.0471653307
-56.4738546763 32.5931974987 -16.6533534233
-47.1778121162 48.6371760429 -24.3964593985
-22.6037548454 70.7292349736 -30.4393233179
-54.5640893090 28.9100198481 -13.9240114347
-42.3730223888 62.6909416842 -31.9621984896
-20.1509500680 63.8040169506 -26.2919058552
-36.8139545405 43.4652417487 -19.0965411322
-62.2985393149 32.6526035240 -17.4611334534
-45.1307377166 43.9128731281 -22.2268413668
-64.9834780355 18.3058205639 -7.2994465586
-64.1928421305 22.0702247242 -8.8012569032
-58.8173606089 30.6482314052 -14.3884146538
-31.4037970121 49.9301811436 -22.6125709563
-32.6683644209 70.5984373789 -34.3759061501
-60.5184510280 46.4067559037 -25.9199450574
-84.6622050226 24.2376674052 -11.9687064642
-42.0125248508 37.0948911107 -17.4335540877
-54.2460564210 60.2606792551 -35.3885079348
-66.2897042945 23.5353270976 -11.2717882852
-81.6259926637 24.9481283232 -13.6312793715
-59.4760429783 29.4601639814 -14.8230114019
-41.4413543699 74.8038206208 -39.8148534349
-29.3265662208 49.5725526759 -21.9376134345
-65.0446555425 19.6883193687 -7.1019852776
-89.1902699602 16.8702371225 -7.2740372411
-58.0475780819 43.7741638175 -23.4554409289
-70.0484578148 30.7099858055 -17.0390212224
-32.0290673502 46.6877959112 -19.8765546499
-53.1923042252 24.9161449957 -9.8819317434
-15.9908694592 66.8934803049 -25.0597956709
-36.8371808639 52.0356878711 -25.1198446977
-64.1331992776 18.0781080041 -7.0833831391
-38.1718685384 49.2840584069 -23.8833338445
-88.0446056427 16.6217372804 -7.0166307567
-36.1009535715 63.8491227101 -30.5652457772
-31.1779181845 70.9790937403 -32.8162717622
-59.6006263629 40.2573883472 -22.5031832460
-40.4848361263 43.0147877747 -20.6700305528
-61.6924081394 21.2796503204 -9.2832849643
-64.9974167609 19.5714698486 -7.0118609906
-44.9905647747 48.5267798653 -23.8342186561
-26.0411617337 51.9235428786 -22.3077679079
-65.2602422422 47.3766464168 -28.8741120984
-75.1275229851 24.3566131846 -11.3202682097
-42.1046291136 70.0482500934 -36.5703913604
-63.9931690972 33.8895686037 -18.5995359525
-57.5498254510 31.5784912153 -14.8791984742
-42.0030061640 67.1299779489 -35.8607574176
-77.5110110255 23.1207407893 -10.4999388957
-32.8745219433 73.4516024420 -36.1755587079
-74.3316094069 37.0176823695 -22.5592922806
-70.2596336618 28.4421677196 -15.3461565156
-41.0843146641 68.0800069723 -34.8941288251
-42.5604213076 57.4950721434 -29.9463802147
-82.8673378934 27.6711107982 -14.7434986578
-57.4166571589 46.5506668243 -25.3133236756
-32.8288802273 44.3522062914 -18.7609318293
-81.6613100960 25.2994979045 -13.9284162039
-55.2348633389 50.2598897288 -27.4372777692
-59.2901520670 21.5418521731 -8.0642140690
-74.7173202648 30.5635936337 -16.1716360566
-75.0604826755 32.8536077463 -19.3337403278
-47.4828638558 44.2929055246 -22.9582256225
-13.4884361012 71.9133307331 -26.1862099261
-68.4701648545 28.9919169241 -15.5345487440
-49.9263473386 37.0793906855 -17.5114115156
-52.7558580045 52.2632459640 -28.1778883942
-72.3884242128 42.4620908668 -25.2540004871
-34.5406901576 50.1187729920 -22.3725605629
-59.4175396722 46.5114947212 -25.7434269635
-27.4701353312 72.5689311635 -33.3717996614
-68.8692397930 20.6881702042 -9.2875369403
-73.8108306820 18.4347183493 -7.8163096706
-51.8837708937 44.3985104094 -22.6522903186
-56.0022834330 34.3658872149 -17.7921873244
-29.9482693450 54.0415217181 -24.4212063512
-55.1682993652 30.6272873785 -15.1442937608
-56.8244235918 27.3157629789 -11.8963952347
-77.9582323946 23.4515196054 -10.7993059190
-11.2905174789 73.4411077261 -27.0287179663
-37.5982147416 64.4093176342 -32.6591576488
-55.1920121876 23.8519854216 -9.3448220787
-70.4147926399 31.8541640523 -17.9484548143
-71.4239022133 18.8498794425 -6.8155644489
-45.1063600707 42.7723089784 -20.2726720821
-21.7516443414 66.5690661810 -27.0190161079
-65.2444158674 31.1972640783 -15.5405731193
-76.8331156032 33.4074695378 -20.0245056738
-26.0064788906 50.8601762815 -21.7708120953
-67.0365698994 44.3336310657 -26.9682815534
-44.2370913731 35.3876177386 -16.7393989928
-41.7630676565 36.9873021166 -16.1766954065
-88.5933052567 13.7771272890 -3.2808550448
-69.1860595361 30.7588241310 -16.9592355090
-35.6292318760 48.3903732359 -22.7448234731
-52.0146607122 28.5838150126 -12.2415971461
-48.3218542314 68.6203814360 -37.9424256657
-64.0721708135 21.1326461171 -9.3471114696
-38.5883872445 54.4448290695 -25.8308356922
-61.3638822422 48.0283097333 -28.4900145769
-62.7438886407 45.1998915760 -25.5030554484
-74.3624104291 37.8333650459 -23.2210450222
-25.8146476796 74.1017143093 -32.2732667503
-35.8069899727 72.1023786336 -36.5931401886
-12.9352797396 71.3841729763 -25.7523917968
-58.1451964792 23.6220167131 -10.6583602471
-65.9011505640 47.1399874953 -27.5992969469
-73.8210376637 41.5478230252 -25.4047169468
-26.8699557296 66.0787578063 -29.6872467643
-63.4744006753 44.6074162718 -26.4041759284
-49.1238858877 47.8133708252 -24.3132283062
-41.0137166900 67.0900262023 -35.4710642097
-86.7868219021 26.7660773171 -14.3331301417
-66.9446143511 33.1280612731 -17.1911145302
-17.1296176014 63.7926398704 -25.2384286100
-82.7067981670 16.5804996516 -6.7568992174
-39.6176236747 43.5009966999 -20.7859588019
-48.8432205953 44.7602332095 -22.2758253224
-69.9928335876 28.3195531435 -15.2218774297
-88.6415700585 20.4361780585 -10.3426452135
-85.1302633864 22.0887727120 -11.5399616582
-63.1334094168 24.8214479694 -11.9376075841
-39.8150921231 70.3081309205 -37.0896222758
-75.7123615177 29.1337696297 -15.1657118040
-53.1306083696 29.0729743171 -12.6974242224
-39.0653753044 58.5172038736 -28.3526253557
-81.5332403878 20.0686953089 -9.5671309794
-69.3523779538 32.6254066799 -17.1291611201
-65.8479152764 26.9943686305 -13.7219304094
-70.7333633620 33.7997743937 -19.4698315462
-80.8863377797 15.0018865238 -4.1018175907
-60.6491684401 36.9158317283 -19.0585894983
-77.3797759210 27.2891229123 -15.1174011965
-66.2932045176 27.7216771968 -14.3104198607
-87.6289572335 19.1644098767 -7.8688367381
-42.5100033711 58.2559222824 -30.4271516789
-37.9514427688 70.6511157942 -35.2896554340
-73.6634155884 29.7255945030 -16.6891055416
-56.5390651573 38.4838121076 -19.4922849955
-64.3166952990 23.4053938863 -11.0343123743
-20.1937404790 58.7375309618 -23.9448648589
-76.1724910604 33.7996166242 -18.9904082209
-31.6360776707 59.9395825131 -28.0837016458
-83.8765139623 17.4970567942 -6.2656649572
-77.4079678623 27.4694606436 -15.2639066143
-56.6882771276 36.8088621846 -18.3697055149
-34.4440199481 69.3399387395 -33.1450127235
-64.8116699152 33.7599938317 -17.3731868368
-57.9811538449 35.1509370028 -18.6376144921
-50.4982892891 44.7383885611 -23.8438439334
-55.2251557243 38.1980232810 -20.2963547649
-77.4490163700 34.2579526752 -19.5419608608
-78.4193996655 24.7505372565 -11.8971671565
-25.9419463684 63.4362205050 -26.9526010735
-66.2548771306 22.8126265129 -10.7304312696
-11.6960379112 72.8659658066 -26.9591202440
-40.0152175431 58.1937795519 -28.4428775044
-27.7397946984 63.9171663346 -28.8757520994
-65.6037565152 29.5371935386 -14.3630407248
-51.7428625735 47.1513102642 -25.6781529363
-45.1834936805 40.9729964883 -19.1951068116
-87.6989254745 13.7426665690 -3.2454650432
-37.6334867568 59.5428481817 -28.5315268021
-73.1831355034 22.2025053306 -9.4697707808
-80.3343746342 24.9745788325 -13.5461413086
-69.6248850974 24.3161272943 -12.0872451425
-58.0898243246 52.5873254657 -29.8002813633
-31.8835520055 53.4377083961 -23.5056993861
-22.4226780152 69.6666514126 -28.6912478014
-36.7016455763 62.4903621016 -29.9727842755
-89.9225294963 12.6445386454 -2.5671688434
-32.9993695482 57.5646864486 -26.0114963395
-83.3486391554 12.3788800308 -3.2636265983
-43.9720941587 56.4355375228 -29.7108305816
-26.7844346156 56.8164495376 -23.8608367332
-79.4139146668 26.7777448371 -14.9137436371
-23.6905988853 59.0253115083 -24.0264265000
-31.6147923441 60.7045001429 -27.3191243569
-26.1027085901 74.9479181907 -32.9977418575
-53.2888049180 37.3570407606 -19.3862057339
-33.5705551277 57.4956628091 -27.3439852627
-51.3912700657 62.8141303313 -35.0195582926
-33.0190721792 69.5054410455 -33.9075965487
-53.2008753332 52.0552655496 -28.1520299477
-49.6621127656 33.5585987224 -16.3237669497
-33.2589911910 69.4933557477 -33.9921333563
-39.9698889339 58.7137916187 -28.7375636368
-48.0174972960 61.2978940021 -32.9277469133
-88.5774089721 28.0612826182 -16.0209507885
-67.1298816761 31.4004342458 -17.1637146883
-81.3526517767 27.8488244838 -15.9892084088
-74.3529384881 36.8325314539 -21.1678150556
-60.0655127818 31.7123385020 -16.4782565105
-78.1737252195 16.5828022862 -6.5584014907
-37.2345936340 53.0589676598 -24.6497930596
-35.1368590687 53.9138004050 -25.7842655852
-40.4545682240 59.6310086727 -29.4492060589
-73.1745449117 41.5732995735 -25.9841390117
-43.2596919338 74.3358881180 -39.8085955132
-49.7188567977 39.8581520165 -20.4644141189
-48.2870982486 38.2990849514 -18.0391223004
-26.8694281897 74.9667985451 -33.2840282576
-60.1548064078 40.0082170789 -22.4243678923
-66.0617065153 18.5984085642 -7.5762842143
-52.0952504492 53.4024790371 -29.9811401437
-49.9704229101 30.9840942116 -13.5857467447
-41.2851005162 57.9670577048 -29.8730881237
-81.2807141280 20.8011009835 -10.1511925325
-79.1694846692 20.0170105864 -9.3933318840
-84.5994824020 26.3034843741 -13.7273056593
-70.4814603990 31.4618950037 -16.3844525101
-52.6186575640 39.6109706365 -20.8252180082
-67.7983048927 17.1893688779 -5.3710133918
-76.8877816661 14.2960346986 -3.4372078891
-89.8663102979 10.4530524818 -1.7186445276
-67.3113972527 17.9401239638 -5.9233237847
-31.4196952244 51.7811465085 -22.4981395039
-77.9222815661 34.0184639944 -20.6880834845
-86.4874318412 21.7480044870 -11.3690508997
-36.9951703377 47.0874012469 -21.2134268142
-78.7594960725 32.4463370496 -19.5045732806
-30.5110160653 67.7857213865 -30.8095858330
-38.3065153691 44.6596431789 -21.2149128129
-36.0954780565 58.2982847328 -27.3635577220
-81.0197956129 18.2187487599 -6.7418464227
-24.7676194002 61.4289687359 -26.6850701668
-55.0261614663 37.5837959624 -19.8374670950
-79.7180754570 32.4521577540 -18.3807282140
-87.1397186287 28.4996813019 -17.1946244745
-38.8217300585 50.3115105371 -24.6263792663
-84.1633264477 34.2842953019 -21.4026069087
-68.7179237019 15.8928931672 -4.4209857191
-71.8546239985 40.1037255389 -23.3385304562
-78.6264988732 34.7008207426 -20.0653045609
-71.4710028409 41.4445941644 -24.3110553277
-34.6258377357 51.9161772658 -23.3755668344
-63.2891686727 28.1236056946 -13.0730526999
-51.1428005161 46.7743514057 -25.3162896272
-33.8834256812 71.4590711356 -35.3940896803
-45.1998314152 46.9617504354 -22.9078114261
-59.0345473660 23.4302865319 -9.3833400027
-46.8156378220 57.6550040763 -31.3214240344
-31.2067387155 53.5428369889 -24.5083314337
-45.7567621291 66.1812819965 -36.6096105157
-51.8600974223 61.9038219089 -34.5628634294
-79.4097049186 16.5676865738 -5.3277663976
-67.9135646371 29.9598067834 -14.9252214695
-60.4994544593 42.6326701582 -23.1371472249
-23.9880563996 70.6580557105 -30.9783130879
-88.3579495042 15.3739169087 -4.6563678045
-86.8259230401 25.3041496071 -13.0619600238
-37.5983678388 65.5822817728 -33.3326842016
-26.7110025159 54.6427411960 -23.8337563342
-46.8730916610 35.8873595672 -16.3067788381
-34.6296979514 60.6610990073 -28.2429836970
-64.8048796372 26.7395149615 -12.2127689427
-70.2007194155 17.8211947815 -7.1987582610
-36.3979763865 59.4634939372 -28.1021755367
-74.3410881496 26.9211097740 -14.5479479134
-43.2292415719 72.8208941949 -38.7768573833
-41.2881243226 46.4183274312 -22.8708771784
-48.8603618325 60.7878014084 -32.8751456512
-20.6546674083 74.9246960373 -30.5052999421
-87.2340735698 10.9613111619 -0.8295768164
-48.9085575453 38.0645957467 -17.9829960144
-65.4529909423 27.8383058011 -14.3024469803
-50.9024195283 45.0989208403 -24.1614327376
-51.2426933906 58.3806525783 -31.9603932714
-64.3656598833 35.5999899480 -19.8928460780
-41.0826293962 72.1599179608 -38.8042823199
-61.8826865298 47.4941539815 -27.0123389823
-51.6316639309 51.9915208915 -28.9060703247
-44.2717599491 66.7254587989 -35.2401981201
-61.8668197265 35.5998669376 -19.5288123826
-63.6096623605 35.0501037537 -19.3793151387
-63.6932957598 30.6154354594 -16.1742111031
-67.7849942591 16.8820242491 -6.3787409809
-52.2469329333 41.3258022662 -20.6799709625
-61.4128514647 51.6103829399 -31.1314829119
-43.9935464188 64.8763092348 -33.9083769974
-45.6040058620 35.9645977971 -16.1677597655
-52.2267769061 35.0816271573 -16.5462206069
-32.5219227168 74.6022027936 -35.4178429667
-49.5452109960 50.4842105502 -26.1619637544
-60.7879262168 30.0246976040 -14.1520406849
-41.4976261146 74.8887385428 -39.6902276486
-42.1058721168 63.3968055638 -32.3124190913
-43.5433526099 70.1626222647 -37.1886129346
-70.3566220581 25.9569900234 -13.4067204176
-79.3978536976 36.2275210361 -21.4153051609
-71.5358494558 41.3240708218 -25.5047534519
-23.9374625363 57.0157529836 -23.1432456142
-86.4002725340 17.8114458589 -7.9504371741
-47.6018676419 38.9670621587 -19.4994260986
-26.6664825340 73.4524179397 -33.5585477668
-49.1046950337 48.2158189921 -24.5696254332
-49.5382678802 42.6393652053 -22.2678588469
-45.8633400921 49.7449933865 -25.9779182087
-18.4346902842 74.3801413145 -30.4835264882
-49.5696471872 56.7669246942 -31.5845189487
-62.1279261042 46.1515262237 -26.0716658070
-87.3078241384 11.9108716885 -2.9694961445
-61.7176040696 34.7693098336 -18.9110732765
-80.9551621652 32.7178643569 -20.0302387735
-79.6632965881 16.0865387846 -4.9477625847
-88.7040774208 19.9898067585 -9.9576518382
-21.9363417179 74.9941688837 -31.1083024133
-60.2187685009 36.2247945561 -18.4909782197
-79.3223444137 36.6028718504 -21.7108348673
-47.2813245024 43.8052639492 -22.5963080984
-35.5830486250 50.0521819008 -23.6735004224
-47.7919221564 31.2684987746 -13.4874433036
-40.0425916068 58.5061557942 -28.6361038768
-53.7248321020 55.5327138453 -30.7137228554
-28.5640095355 57.6821377819 -25.9477599161
-71.7500310453 34.4643538150 -18.8909807048
-64.6453384915 43.9684038463 -24.9742935078
-76.0829836648 25.2400306704 -12.0931385478
-21.5384467731 69.5361210753 -29.4387074811
-66.3734401768 47.7542958699 -29.2710248550
-45.7087890568 36.5687027255 -17.7007413187
-44.5751663697 32.2340198430 -14.8341375969
-62.3769853457 20.3353829606 -7.4063918562
-50.8577641486 26.9830308277 -12.2336534598
-73.2852936191 16.5268233968 -6.3095468682
-44.3251686360 46.6831888332 -22.5403097986
-81.4374843933 24.3685749611 -13.1303588364
-43.2067835502 58.4988882420 -29.5747886381
-38.5920647228 68.5276045087 -34.2294811666
-37.0130707789 68.1147681343 -33.3877155773
-57.8253145402 31.6087228232 -14.9295581032
-62.2436638588 21.7426015791 -8.4242444528
-61.8920904183 26.6870187386 -11.9356781469
-57.5598434617 53.3768924869 -30.2209955971
-24.0935129145 72.3060808406 -30.6794457820
-27.3933765300 73.3200084620 -33.7862568341
-71.9246132433 26.3528485057 -13.8664066755
-68.4274173510 34.5574446466 -18.4607411897
-58.6110477673 48.3316983705 -26.8773067088
-67.9224839925 41.1449141401 -24.6732441273
-57.3401428664 48.9107169029 -26.9913408622
-73.2892932046 35.3927077065 -19.8633250243
-40.6906101210 58.7483091339 -30.2046674833
-85.8325408074 12.5012907386 -2.1382599314
-29.5185596111 51.3146761769 -22.8862478858
-22.2842077117 59.9843147344 -25.1986865883
-35.8110846118 45.2721199776 -19.9227294724
-48.0460030404 48.3225304531 -24.3935975893
-87.5505643603 22.8547562006 -11.0484671995
-27.5980262849 66.4482493746 -29.0173576945
-36.6911566841 49.1131227713 -23.4180521479
-63.6976195995 23.2977578286 -9.6623441575
-81.0547647673 36.3220208110 -22.3111922541
-22.1984338631 61.4540728227 -24.7535338750
-84.0595978123 28.2540007978 -16.6706939667
-21.5931789518 69.6006847491 -29.4876582916
-29.7598711274 48.9221229441 -20.5507094778
-69.1920019810 35.0777651320 -18.9663369226
-62.3564507819 51.9380686159 -30.3534233505
-73.7270529467 34.5376490015 -19.2493205839
-31.7443766074 70.0517736598 -32.5268607802
-34.5130771751 67.1398768111 -33.1756676090
-43.9746131897 60.6328859434 -31.1714621236
-73.9256044431 41.5612781515 -25.0917839787
-47.3211484258 62.8199166033 -34.9278040500
-76.4587434604 17.8645971476 -6.2555226743
-77.2153314500 24.8432519553 -11.8646565609
-50.3550380169 33.7844104786 -15.4585618813
-46.3144289537 39.8346967990 -19.8110118528
-77.2618315025 33.4820351001 -18.8841752570
-47.8867601995 51.8094289703 -26.6219660271
-70.8547233005 41.7502948843 -25.7110196182
-83.1843126449 26.8576325606 -14.0795386423
-43.2754321151 34.2581005135 -15.9098466407
-67.9676079508 21.4712729314 -8.6047572625
-27.1953980673 72.7746009128 -32.1496734057
-22.5598810027 69.4179400200 -28.6346370762
-75.6985241929 20.7243376410 -8.4670160399
-54.9348697253 28.5948034471 -12.5791898391
-49.4688746699 61.4106875139 -34.6463312953
-87.2481358801 27.6956750243 -15.1864282819
-87.0642463193 13.3122229652 -4.1817469015
-27.6140639640 58.6318501143 -25.0630632528
-10.9459688591 74.0367467561 -25.9826250025
-73.8033572916 15.0531544947 -3.9507335029
-86.8028475935 11.7675209984 -1.5261178620
-89.2321087163 12.7242549690 -3.6896851966
-87.6452250453 14.0794179662 -4.8533335288
-87.2125812682 11.1684788558 -1.0092373003
-85.9910852521 10.7489406514 -1.9481569202
-85.3187338538 11.5040037916 -2.5944248013
-72.8029931908 14.1852755717 -3.2340784989
-75.1668454363 13.3347005438 -3.8919850951
-88.4303507099 13.4475444981 -2.9939270822
-89.9912323135 10.1781577076 -1.3198461275
-86.9339744996 10.4636734158 -1.7096349671
-76.3220689913 16.7291880103 -5.3565998850
-76.9179653013 13.4730414634 -4.0556896122
-80.6156414556 15.0016700007 -5.3882105912
-80.6646846248 14.0990494118 -3.3578219098
-88.7105986444 11.1672318275 -2.3337271564
-70.3642078161 15.9914451373 -5.8129223928
-86.5858541471 14.7077410389 -5.3505370874
-75.4280541906 13.5384932351 -2.7899109504
-72.1563642573 14.6777644270 -3.6016483959
-85.1145452606 12.3066746180 -1.9459116576
-77.5365258230 16.0835942061 -6.1388247717
-78.7309223944 15.3373288347 -4.3179906200
-88.4148529145 15.5268936590 -4.7873798367
-80.5346012363 11.7879667403 -2.7505606937
-79.4020801701 16.0388078775 -4.9003681697
-72.1181288987 16.5960270801 -5.1074148158
-69.4799223349 16.4775042529 -6.1451606136
-88.8800968342 14.4600200897 -5.1959068963
-79.4388783447 17.5754678707 -6.1448221356
-73.0664008937 16.1095306334 -5.9846942035
-87.1476639082 12.5107970967 -3.4883509606
-79.7463338497 14.1059648575 -3.3509152162
-87.1662460616 14.5321467140 -3.9005194718
-80.8008802991 15.7601019802 -6.0130612366
-82.7368616090 17.0074118395 -5.8154661683
-76.9562927428 14.2254813768 -4.6566341316
-86.4878593151 10.5478458823 -0.4660031665
-70.3893196301 16.1537569286 -4.6938113097
-69.2638080032 17.9286300665 -6.0075670194
-87.5839232702 11.9473642300 -3.0033791258
-69.4570281324 16.6427670657 -5.0309484375
-89.8772050256 12.1221206212 -3.1694784422
-84.5388480587 12.9573344231 -2.4714069905
-88.1805895142 10.4740469566 -1.7285283094
-82.8804488383 15.2289721429 -5.6318658495
-79.6977983476 15.3008793292 -5.6132970007
-89.2289848062 11.6025870665 -1.3924597522
-86.0825121580 12.7090699435 -3.6475569130
-77.7393542212 14.1784008859 -3.3600737173
-86.3350499865 14.1737764885 -3.5658497523
-70.2260092125 16.8846772645 -5.2520677602
-88.4206753828 14.4598130472 -3.8723990858
-72.2135695781 15.9582833214 -5.8474921456
-73.3198363222 17.4372452248 -5.8112934503
-81.3206835077 11.7423103573 -1.4295887029
-75.3690235835 14.3594252272 -4.6911637558
-81.1785557556 13.7909363224 -4.4025502559
-89.9322917949 12.3348851340 -2.0432005044
-77.2330401099 16.9847290335 -5.5887929948
-88.6064421904 12.0209942022 -3.0753177271
-86.0861664759 15.5794752505 -6.0593409785
-86.1865509325 17.1093844174 -6.0306237561
-70.0032698859 17.6488420996 -5.8282825234
-82.0614786808 12.9953791261 -3.7593613210
-71.3583650527 14.8563212996 -4.9703350844
-67.0302616537 16.9858345591 -5.1783813176
-83.7885196904 11.2712246276 -1.0561560161
-78.7448151721 15.5562603346 -5.7791235612
-87.9151000370 11.1298534675 -2.2959937491
-71.1036990099 17.2658843743 -5.5851078098
-84.6686486307 10.9865925077 -2.1384424698
-81.9433138057 13.3753924523 -2.7751149408
-77.1430927092 13.4730206187 -2.7771779690
-76.2533791960 15.3356815845 -4.2465838180
-70.1307674232 15.3044441739 -5.2758176881
-81.5630718573 14.0642677253 -3.3381568170
-88.5548931690 16.2320633023 -5.3864373182
-73.8933801245 13.8972104110 -4.3001422606
-82.9507751917 13.7511210913 -3.0866797265
-89.8466415370 14.5143128581 -4.7670029153
-76.1883938342 14.6497978641 -3.6969609371
-82.1347121693 15.0044547226 -4.1121568868
-73.8309105314 16.7548635877 -5.2936477174
-79.9951710771 12.9717275759 -2.4234554348
-89.1767373057 13.9517397717 -3.4345731193
-89.7231734483 10.9887011966 -0.8592648283
-80.3494314243 14.7990188988 -3.9279679526
-88.5594944571 12.1578004452 -1.8737312681
-79.1825626619 14.4836240056 -4.9347867221
-81.2555680187 12.6872481495 -2.2051394804
-78.3869357395 12.7190827831 -3.4764791090
-84.3676068601 14.2259482564 -3.5321709709
-89.4409035913 14.9961223673 -5.6654565933
-80.8613408734 16.1526997106 -5.0419952646
-89.3447144375 15.3552977460 -4.6546786088
-68.4812384611 15.9846449301 -4.4800404661
-79.5466434509 12.2125363434 -1.7942416173
-89.9451365735 11.4147951188 -2.4797860504
-89.1377652752 13.1103803677 -2.7031897046
-78.4009883854 13.6302967894 -2.9287517685
-78.4242651048 17.3153249212 -5.8895223358
-83.6924232316 13.3309828882 -2.7569171703
-81.7820648828 16.0750980115 -4.9993563063
-67.9733495405 17.1712871742 -5.3654950842
-80.0617279008 14.4134296295 -4.8959238913
-84.3088483678 11.6952707785 -2.7290589718
-85.0231057939 13.6374466729 -3.0622855953
-84.1075264971 12.3397730824 -3.2603255772
-82.2873176890 12.4854612423 -2.0467045075
-86.9342089972 11.1959433750 -2.3456160090
-84.7083491605 15.0027864007 -5.5170252967
-76.3380616060 13.0159131693 -3.6689837224
-83.8738453373 15.4543379819 -5.8594427273
-86.0364112573 16.4810793387 -5.4958557291
-85.2409648885 17.1899999410 -6.0608659628
-77.3153191095 15.9589810739 -4.7728592275
-82.8669996993 11.6336067582 -2.6492800892
-87.1776349934 15.2826611401 -4.5326237954
-87.0746962378 12.9602617092 -2.5625785733
-68.6025625276 16.6796590258 -5.0186097595
-83.6226221481 12.9725971890 -3.7712614192
-84.7766493010 11.7174314455 -1.4370319460
-74.2512552369 13.7981302417 -2.9676643164
-72.9933687475 16.6427021781 -5.1782212922
-83.3061587738 15.1638437895 -4.2847857929
-87.9976177957 13.3224702832 -4.2009438557
-87.4529310942 12.2964403972 -1.9892941218
-87.0772296504 13.2896160349 -4.1623129108
-74.4384150158 15.5187227971 -4.3388442439
-84.2572396674 14.9454245652 -4.1333200792
-82.6706766762 14.4814125644 -3.6895574072
-75.4643998452 15.2180418708 -5.3684021519
-84.7058377791 10.9754387633 -0.8155183441
-82.4737184849 15.7958992180 -6.0907632225
-87.6268377458 16.0927270052 -5.2322598564
-72.4411905641 14.4153381214 -4.6656484107
-85.3356815909 13.4584438456 -4.2502435466
-89.9132839054 12.9548551890 -2.9185064617
-79.5671319165 15.1948407801 -4.2256607267
-66.4186861840 17.9996978676 -5.9198753713
-88.0790457993 12.6054079024 -3.5788181196
-74.9385241770 15.8169232272 -5.8144763470
-83.7934754799 11.0385991605 -2.1684923885
-82.2855558972 14.6630549606 -5.1347501837
-76.2277172030 15.9122377772 -5.9464134528
-71.2361199148 15.9087490723 -5.7775324653
-86.1710739311 11.6156743962 -2.7012497110
-83.0814741147 12.5164174246 -3.3743699498
-78.0286587770 16.6073980138 -5.3132650758
-64.7344051437 17.7978805831 -5.6700915236
-87.9981261983 10.3677414943 -0.3164525532
-85.5762982612 15.0309357614 -5.5779040711
-68.2564693404 16.0949869410 -5.8013163806
-89.8909352386 13.2379801975 -3.7572511985
-84.0038801494 12.3173036369 -1.9152250149
-75.3237913585 15.3391639783 -4.2259190141
-81.6130474486 15.2582752543 -5.6105950900
-88.2430831062 16.9253545600 -5.9575276467
-75.3676638348 16.9254945951 -5.4785861191
-79.6802257816 13.6435728834 -4.2580519214
-72.9773752099 15.2872344652 -5.3510470405
-89.9974891135 10.0694906024 -0.2210378723
-72.7854064535 15.2057235931 -4.0382728910
-71.3138781521 15.0498604016 -3.8679649373
-79.3086512583 13.4284568088 -2.7888874122
-79.8115547417 16.8854891485 -5.5972458793
-85.5375950177 15.9905452654 -5.0631723575
-79.6274989589 11.9971678851 -2.9081424817
-81.0375360991 13.4343098377 -2.8171099899
-81.9208540258 12.2069410941 -3.1121601391
-86.4325151812 15.6252969583 -4.7913612307
-74.0374952796 15.0740436152 -5.2073062970
-82.6934942251 13.9323364059 -4.5387364864
-71.7166172058 17.7524438728 -5.9867959053
-86.1149258848 12.3997663561 -2.0640449232
-82.4881803417 16.3675814726 -5.2691346657
-70.4804806702 15.2433311031 -3.9872608618
-72.4945692921 17.3108682589 -5.6799601543
-83.0430281130 11.9577596839 -1.6173127970
-87.3714106546 17.0477278120 -6.0258537152
-81.2482345268 14.6799252674 -3.8415315667
-71.1109784302 15.7997923431 -4.4463468529
-81.3565866209 15.4699200799 -4.4910623963
-77.5209221835 14.8672508011 -3.9134424710
-74.0388624726 15.7520455979 -5.7283968562
-69.4714304271 15.8568557121 -4.4257861755
-85.0181299718 15.4741439754 -4.6078973011
-82.0653757897 11.5578014346 -2.5812283199
-78.4731532573 12.3927799868 -1.9274599117
-80.4780541524 12.7845334404 -3.5676647417
-89.7934956831 16.9656996864 -6.0594513083
-76.4817447242 13.0024030167 -2.3832181080
-88.3544927195 11.3842773490 -1.2009263508
-72.5041285580 15.8052522641 -4.5020238022
-77.0383969484 14.8939171291 -5.1842149649
-78.4843853089 14.6689125466 -3.7717575139
-76.3569136169 17.7380646310 -6.1523844485
-77.6901572734 13.9314727250 -4.4481926072
-85.4038350116 14.3347680417 -3.6643099361
-87.7512939753 15.3571002040 -5.9446045165
-78.3218372826 15.9957521840 -4.8381582509
-78.9940795611 16.6036691758 -5.3449345209
-74.3975007422 16.1832655517 -4.8611120205
-84.8340291983 12.7987708291 -3.6760599978
-80.2438799134 15.5520575399 -4.5367244549
-75.2945212705 16.0474301352 -4.7845203287
-71.2485049446 16.5968887122 -5.0735722235
-79.5457829282 12.7434962351 -3.5180970136
-73.7602735181 14.3222211791 -3.3732954438
-83.8380875147 15.6891037126 -4.7443742661
-80.4768888015 12.1200031536 -1.7310447543
-89.0813272396 10.1471074763 -0.1269699878
-76.4163318198 13.7509994785 -2.9875598239
-77.7844620989 15.3729106638 -5.5927795781
-86.1792118276 13.6789741011 -4.4712359002
-87.7326759761 14.0680471944 -3.5279407597
-74.7267639312 17.6429991147 -6.0229121395
-85.8443870293 14.9857938322 -4.2297499231
-77.5845365880 13.0244745193 -3.7066562048
-67.4004595594 17.8537218566 -5.8613341106
-67.6450152887 16.4235698848 -4.7766579963
-83.5355281591 14.4273362328 -3.6733426458
-85.8248340626 11.1580506131 -0.9908642332
-65.7896708004 17.2867042749 -5.3485797260
-76.0890996588 13.8040483702 -4.2878099976
-84.3721635151 16.7222557131 -5.6326488382
-84.8024141918 14.0659681795 -4.7362683953
-76.1641992453 14.5435974441 -4.8708202504
-77.9617841836 14.6061399075 -4.9996372976
-67.4488882781 16.5348098053 -6.1003263819
-88.9565316649 13.3719967225 -4.2513549534
-82.2256713684 11.3693694847 -1.1297029535
-89.8162469818 16.1392125324 -5.3370279036
-78.7700445264 13.2804862533 -3.9435919450
-83.4746678778 16.3574698933 -5.2939957952
-76.5019033082 16.0704998831 -4.8399321712
-89.8051067958 13.6268573714 -4.4770640912
-86.0536825135 13.0531770421 -2.6115357779
-77.5738545846 12.7008788873 -2.1599240432
-85.7005642868 14.3054304057 -4.9754677035
-81.6094307911 16.7413131500 -5.5519281400
-81.1403024950 12.3738781835 -3.2391553988
-84.2583360221 13.5010533798 -4.2396433681
-81.3757707864 14.5862410160 -5.0577438746
-82.7615559272 15.6878401334 -4.7069045430
-63.8369834339 18.3105298848 -6.0018049437
-89.3366206841 14.6474344442 -4.0395994656
-83.4670294948 14.3687935086 -4.9344059384
