-23.702930 42.466074 29.704934
-67.110576 47.457320 11.347101
53.758668 56.602364 4.999996
31.937222 5.526830 54.153941
21.415421 -78.635920 35.529010
57.129374 5.446012 5.000000
-27.163969 -8.264898 68.932464
24.431106 -82.110182 10.639391
58.412921 56.773511 35.776979
27.590487 32.931714 4.999997
2.702049 14.600005 65.747535
-44.688192 55.143506 14.927840
44.165309 63.900419 16.293239
7.163194 -10.240370 70.320734
-17.619871 -43.349213 5.000003
68.417693 31.119192 4.999998
24.609541 -64.227165 24.436025
8.206493 9.426101 69.519823
2.143523 -30.486285 59.470277
-79.685264 7.337837 19.026988
-20.910904 68.969570 14.486420
23.215773 10.600852 79.975474
19.657178 -19.983223 71.429794
72.117251 -4.365847 14.415974
2.796351 -68.012344 5.000005
30.299011 -15.538220 5.000001
76.199780 -25.164703 5.000002
24.781756 -64.391633 15.779882
39.866661 12.372680 4.999999
74.450655 -50.521766 5.494212
-42.170917 -58.658931 5.000004
44.215504 37.457981 37.304128
36.941847 47.579512 4.999996
-41.381770 13.324718 4.999999
47.459237 71.570471 10.609096
52.675933 19.203105 23.359319
-12.228257 -2.582203 50.905153
55.404066 -66.909172 5.000005
-12.371569 -75.822383 12.801604
22.921322 -56.869608 5.000004
-9.838348 17.587310 80.000000
-10.465164 -35.621756 61.265238
45.594810 3.880258 5.000000
-2.800000 14.211257 22.325433
25.760972 13.688926 64.750905
38.502743 -23.907975 33.185641
-37.077841 6.628991 43.560054
51.207931 32.147818 20.366933
-43.859006 -73.323771 5.000006
9.159345 8.505545 34.585609
-27.419170 -22.395194 47.606334
-42.008502 24.490660 48.822704
-39.604977 -5.504049 39.980938
-57.143780 65.040068 4.999995
-17.667909 -23.225842 64.709488
-34.913582 70.992163 12.118299
73.628755 14.348546 13.399486
-83.398624 17.637593 29.490761
9.317853 -59.492117 20.524555
7.152944 29.287478 60.920918
77.449934 -5.685364 12.545117
-0.137116 14.600005 58.727424
-2.807247 -29.771964 61.777777
26.253226 -32.267855 37.742913
34.656243 -9.388664 5.000001
68.840423 -53.790410 10.357197
-63.417487 -11.399235 5.000001
-1.230328 36.511357 45.505656
44.721096 9.998839 4.999999
-36.628978 31.875007 29.782488
-7.007852 45.713135 32.158517
-33.194058 -70.725006 12.399279
-16.377030 -72.030247 13.799561
-78.867802 43.300942 5.151904
83.825471 32.757258 7.708641
-80.452814 9.558075 11.615557
40.927625 43.424582 20.861162
74.838480 -23.443930 5.000002
-21.314544 29.733630 70.366768
-55.720506 16.874805 34.860560
8.835218 8.838665 2.586301
-54.652920 41.449429 4.999997
35.179884 -35.940525 5.000003
30.543213 -36.080830 5.000003
27.955301 59.938211 17.162911
7.708634 -29.685752 59.109415
67.482220 38.423835 4.999997
48.747145 68.844421 17.757495
-86.829840 2.917501 5.000000
6.526777 -65.167653 5.000005
63.604121 15.167652 17.542794
12.152254 2.915153 50.381568
-69.451275 17.564307 33.186252
44.426655 54.944333 4.999996
-44.468078 10.948924 4.999999
-6.092852 -41.121227 5.000003
-28.417975 -81.055937 5.000006
50.679158 39.074994 18.288500
-41.768894 4.871047 37.140520
-68.636615 -42.793799 5.000003
25.269386 86.356664 5.362094
32.707928 -72.212789 18.053160
-0.422741 14.600006 72.218090
-26.297129 41.773793 4.999997
32.173652 7.223427 52.812329
49.630706 30.015246 50.938619
-33.768028 -42.484381 5.000003
19.542018 45.264729 29.048359
-40.807395 62.374709 13.567706
-14.359962 -32.107595 70.756366
-30.105137 72.599353 4.999995
70.939600 -4.961730 5.000000
64.005491 -51.768949 5.000004
-1.691167 -37.104505 44.425159
-16.162594 -41.823043 5.000003
8.840192 -32.196829 51.845712
39.594830 -34.146880 5.000003
-32.622019 -23.590340 39.564123
65.076496 -57.598680 10.421486
14.328246 -53.193530 29.531622
6.034961 -39.622052 39.845980
-83.755312 -7.360148 10.931716
52.603217 15.216562 4.999999
-65.732289 3.123897 17.331104
-66.985337 31.866338 4.999997
-56.384133 -17.690674 5.000001
9.294135 8.353964 65.146220
36.330591 -17.968624 5.000002
-41.764074 59.516638 14.232471
-61.997563 9.213143 19.034723
-44.738393 10.973638 32.344230
-64.794398 -15.548814 16.911784
24.312452 -86.648017 9.578640
49.980043 51.762731 14.533130
-15.858207 63.789232 4.999995
-13.937491 6.431470 75.000000
-42.267707 45.675698 19.292832
-75.845960 -19.327894 12.355340
50.012365 74.303441 4.999994
40.624291 -11.315895 5.000001
31.285481 41.578471 4.999997
-21.942551 -67.994778 5.000005
10.624513 9.078873 75.000000
24.120510 -29.467430 42.891877
-38.583989 -24.181724 5.000002
24.017087 -72.656424 12.896117
-1.108261 -51.149453 27.337300
42.956525 54.035933 21.933716
-27.470634 -53.048809 5.000004
20.921893 9.910009 4.481972
-67.599256 38.381866 12.521281
-53.612881 17.972701 35.201071
-8.163962 38.967462 4.999997
39.525592 29.727277 28.901331
-34.396128 32.565965 30.973546
-6.834398 -63.996540 18.087565
-16.673748 -28.145078 74.898909
-58.761187 49.490931 12.806179
45.701704 -14.396889 30.404045
-19.396167 -61.469944 5.000005
-20.149617 -2.554930 0.000000
-58.655809 -64.940513 10.332734
-68.933453 -50.447868 5.000004
-88.907261 -13.851913 9.553754
-28.479025 30.870054 37.209003
-69.013360 -47.527491 5.000004
53.826274 62.093346 28.934260
-51.435727 23.624756 22.959049
-70.998790 -37.016512 11.859202
27.693765 80.496524 10.740695
12.116372 -27.334314 61.787918
-55.422881 60.258887 11.417796
38.525248 -19.981401 35.437031
-20.702992 31.446545 74.652536
68.332713 10.223549 15.757471
-67.802631 -29.322633 5.000002
44.562116 -11.541570 32.376041
25.717657 -16.747662 59.050674
-8.417987 9.236160 49.111176
-36.001762 16.528986 40.516990
-12.230369 32.352737 49.239936
42.524455 -4.800199 36.179567
41.796259 -45.862720 5.000003
-9.441013 8.187127 24.911264
34.948703 -6.091452 47.466672
-12.469334 -51.919103 25.432284
-5.375715 -11.280825 2.191740
-54.709061 20.831000 39.096683
-17.124821 -30.387138 74.723802
-31.549324 -30.301271 5.000002
-44.315905 -4.270045 34.095334
-3.332832 12.045835 17.889754
-85.066237 -29.345674 9.967715
12.334385 2.009686 31.784668
7.790181 32.586580 51.549366
51.843272 23.308031 4.999998
-75.569593 8.371392 13.047899
37.319208 25.085914 33.589647
-75.799124 -5.545837 13.057404
40.721042 79.975121 10.032756
-2.800000 13.728344 57.389989
2.027702 61.976414 19.414291
-79.590900 29.426759 4.999998
-67.353855 26.101934 44.755756
5.083807 66.544395 4.999995
-26.506787 -16.170070 5.000001
-7.323935 29.085485 4.999998
19.302115 -71.834243 5.000006
-3.368104 12.036798 22.614755
45.360553 -48.221523 5.000004
21.659576 72.718130 13.098186
79.323309 1.699971 5.000000
-12.436345 -1.258741 23.022752
-55.950533 47.794132 4.999996
50.930791 -11.310421 26.461691
-31.075530 34.792075 4.999997
57.022942 -21.110960 5.000002
59.873003 -55.487750 5.000004
72.574839 -23.387414 12.978242
18.848076 -4.978520 0.000000
40.954280 10.449370 67.406854
-52.144830 42.252643 4.999997
71.678848 53.244225 10.092177
-2.677728 51.850725 26.677782
50.824589 20.671672 64.892673
-86.920344 -1.811539 5.000000
55.799480 4.863927 23.413669
-63.564767 20.512280 38.299052
-46.022888 75.087312 10.251819
19.433052 -70.622740 34.121115
-76.151777 16.887282 12.438635
-35.760636 -46.641558 21.463005
-31.534792 26.052905 38.678415
32.123240 36.731346 4.999997
-23.430635 54.656132 20.988976
37.339156 34.133056 33.934900
-66.688181 -48.779493 5.000004
37.816120 54.676231 4.999996
-63.102897 21.476384 16.899887
52.503809 29.757100 20.438113
59.224783 -46.281650 13.344849
56.470579 20.554518 4.999998
-36.471965 51.675688 18.694620
3.124923 -89.926765 8.126251
-40.014944 30.217540 28.260143
-62.762690 25.867029 4.999998
56.580958 32.561741 57.323835
42.882352 79.100958 9.906740
-32.333646 -58.230388 16.927099
5.499419 -29.914132 59.953862
-36.769606 -42.381259 23.338789
39.809264 -13.141761 37.312959
-37.456557 -50.695364 18.817030
-21.359700 -25.154479 5.000002
-16.007343 -61.526385 18.523621
53.499875 44.148912 41.333074
-9.100479 -50.021202 64.122489
-36.954899 66.622420 13.004862
3.402279 -65.479632 17.444519
-80.915608 -24.248653 5.000002
16.452519 -31.724124 46.961504
-73.890761 -17.964497 13.044191
60.442519 -25.495578 17.434959
-27.836607 15.718032 4.999999
16.049813 -47.111541 28.605745
-66.345258 -50.024413 11.151007
11.713288 4.358420 62.896732
27.295807 -42.247108 28.116608
19.050712 -21.147201 68.451202
-9.603563 8.000251 73.706205
49.482598 -44.948463 5.000003
43.098649 -2.130003 5.000000
13.553239 -46.811126 5.000004
79.709299 22.852461 11.189782
58.855950 68.070058 29.505348
-9.137227 -8.528902 37.269620
-34.569575 -61.584732 15.076512
65.873802 19.664940 15.911624
14.510195 -76.852011 5.000006
-56.187804 28.803019 18.772925
-10.780824 -6.319215 43.568789
55.754465 62.455709 30.527697
-51.355123 -69.135167 5.000005
-55.938189 31.466277 4.999998
81.522814 -38.100228 8.092378
-7.130556 -32.628795 53.031683
50.197527 12.296307 74.852776
11.192144 -43.936159 33.156476
-1.078400 -12.450601 67.514068
-2.931664 -12.148347 10.639946
69.428694 -5.579553 15.485863
-54.064741 -71.941047 7.405266
-31.778350 8.557452 52.964782
64.671111 -34.871069 5.000003
-3.303877 -63.054998 18.771618
-16.058183 36.485700 4.999997
0.365880 16.869012 -0.000001
22.133129 -81.771516 10.805074
9.117825 -8.548778 34.090980
2.636911 -31.769817 55.575929
75.365039 31.124182 11.497053
-34.937896 -17.564447 41.275651
-53.625678 52.626504 4.999996
-54.582299 27.602921 4.999998
25.800742 -57.123561 19.023117
-11.598809 26.511050 4.999998
-18.659137 77.250033 12.018404
-60.446504 -32.709207 15.919182
-5.483547 51.838655 26.498898
13.435555 27.453633 59.457773
-12.151733 2.917442 2.139159
-22.191471 45.430684 4.999997
74.284316 -20.279827 5.000002
-12.474982 -0.751572 32.745890
27.421066 4.367259 5.000000
23.016950 -53.380626 21.903571
13.147574 -47.162684 29.380717
-5.132912 -35.150528 47.374242
50.975880 4.088889 5.000000
19.853848 -75.451362 5.000006
-24.296100 1.562192 4.993863
32.504078 5.440649 63.823598
52.547620 46.227198 4.999997
-43.022068 53.258307 16.027597
-4.914305 -63.858438 62.054349
56.455883 -6.569032 22.795274
-48.333353 -26.962830 23.925700
-3.178547 -47.409221 5.000004
-13.240682 -54.205417 5.000004
-48.277915 -12.557449 5.000001
-47.555827 76.396163 8.323770
10.506679 -16.843054 80.000000
15.521561 51.744143 4.999996
-31.058013 42.582250 4.999997
71.209980 40.059927 11.456161
-75.586623 -39.662420 10.699184
16.885543 -62.884838 5.000005
46.043407 -69.658385 11.056582
12.575067 -69.039123 5.000005
-4.293290 39.972146 39.662054
-18.936376 30.211187 47.111534
37.970417 -79.114062 5.000006
-16.990798 -77.614829 12.035125
83.525633 19.298386 10.634770
65.513562 52.771181 10.921647
-3.860043 -48.449585 54.755066
47.415741 -0.171926 5.000000
68.252679 -44.220616 5.000003
66.614759 -52.815701 10.761562
-50.275947 -6.725705 27.735803
58.749793 30.246329 17.193176
-18.184058 15.501898 80.000000
15.326743 72.051250 13.872685
84.927616 -29.725825 5.142965
4.040792 -64.435464 51.188346
75.078237 33.806145 11.319083
9.273914 35.592620 4.999997
-23.762028 -14.683985 72.382844
-42.640516 27.900442 4.999998
-85.018848 18.895854 30.738230
9.242218 8.412931 25.696520
24.675786 -20.069077 5.000001
-7.186288 -10.224640 8.038807
34.825157 -72.735071 11.723186
-60.380378 40.940932 14.139122
21.501622 -70.572078 5.000005
19.381105 20.482939 70.205242
8.421847 -24.008147 5.000002
4.816100 11.530903 49.975613
-12.484851 0.614309 24.776128
28.775346 6.656741 63.238895
-14.515356 -32.665563 46.936140
17.590601 -23.619007 63.599450
48.841131 6.643885 29.065480
8.769137 -45.081363 32.656362
40.138110 -21.260015 33.071894
74.562850 -18.074901 5.000001
-5.827264 -34.908611 53.857411
87.962172 18.952407 5.381048
58.173488 -52.845118 5.000004
42.096781 39.792266 34.454300
-44.180218 67.035708 4.999995
-75.665906 -36.457129 10.951609
6.240201 10.830205 58.883678
19.439169 -2.633915 0.000000
-2.152268 -12.312884 53.536501
-34.167124 23.579457 37.863977
-68.790091 -3.901640 15.843139
27.781644 -12.441026 59.860450
-80.844492 16.814092 28.919171
-3.380739 -12.034058 55.825420
53.931524 47.713541 38.692067
50.764804 74.241926 10.005419
26.159492 48.373214 24.194874
79.638918 -7.814783 5.000001
35.667848 -30.113920 5.000002
-40.172573 34.502519 25.800262
-58.518520 -18.241348 19.844113
4.850359 -52.489078 26.001043
-11.754127 -12.959803 77.113264
-4.765123 48.540689 4.999996
58.035395 68.744417 26.837799
-54.591569 32.620644 57.931805
36.748885 -77.357414 5.000006
-18.782013 -36.722228 38.220945
-6.611646 -39.668533 55.600000
41.897831 -25.885127 29.106036
43.978547 70.952346 13.166983
44.006924 43.347819 31.745031
-4.613235 -16.875853 75.514235
62.295542 -63.374528 5.000005
-5.133151 -11.397238 58.003231
54.317766 57.656323 12.099026
-17.890956 55.910119 4.999996
-87.044282 -1.964500 10.399204
32.261773 -2.513685 54.295663
-4.240239 -76.700329 5.000006
-67.630307 -23.829525 5.000002
25.437767 -37.519109 5.000003
16.827705 14.923702 1.843250
46.565928 -6.708797 31.312885
0.069664 -27.630832 76.035230
35.155283 -82.840077 7.332388
26.561163 -14.650636 60.270910
-18.247832 20.714961 76.415687
-81.681523 -22.238055 5.000002
63.111371 28.732604 4.999998
-42.039638 -71.707823 5.000005
60.303048 -5.014717 5.000000
44.813069 -69.692970 5.000005
3.961312 -39.733564 40.064851
11.705873 -25.000481 76.504668
-63.218281 -64.039699 7.401740
44.655401 42.773729 19.511642
-5.664862 -28.892785 63.626660
-26.550549 -11.693752 65.532305
-50.837349 52.845545 4.999996
-60.995313 -60.310017 5.000005
46.526850 38.205151 40.978694
-36.161261 24.673648 51.565601
31.981207 23.437091 40.459473
-1.652792 -12.388129 19.341050
52.503248 -9.233488 25.505527
8.180511 55.442815 23.375508
-47.570358 -12.039055 29.289868
34.176733 -35.173172 29.304658
30.142515 -3.246736 60.331474
-59.579972 -54.156818 11.748563
66.604872 13.065698 4.999999
31.855683 -16.480409 46.711374
12.149343 2.927959 9.486092
-11.135007 -48.423657 67.219094
36.612326 6.711762 4.999999
-33.846350 72.183298 4.999994
12.380472 1.703888 52.522779
-66.276323 7.848041 16.852434
49.585099 -57.258188 13.141293
66.784012 43.352391 4.999997
-7.099669 -10.283653 53.551396
63.070717 -63.390582 10.075916
-58.558935 -68.329724 7.819072
35.678460 8.727698 45.164693
21.467422 -87.388375 9.485300
-80.171193 -7.386882 11.752139
-64.784093 -42.756238 5.000003
-12.587920 -40.170637 5.000003
-7.326676 -49.785229 61.004476
42.995016 -48.343062 5.000004
-33.853303 19.807675 4.999999
76.622058 9.539053 12.681728
8.794887 80.399643 4.999994
78.439662 23.534589 4.999998
86.143743 6.103646 5.000000
-2.260542 -12.291894 33.330575
15.019522 -60.394186 34.458584
-19.546772 -23.513823 59.415323
4.174501 -60.019571 47.423635
39.169942 64.505607 4.999995
-14.866058 27.530579 73.895229
-70.611277 7.768967 18.543872
-44.890929 -60.342630 13.330843
35.675020 11.892755 58.141982
-49.227052 36.833495 19.746752
-41.916574 68.000481 4.999995
41.602395 8.341616 69.230008
57.126847 64.095256 10.612047
-78.408019 9.346004 20.010968
-31.205815 -23.422579 41.397581
-12.149396 -37.986195 40.126743
14.354657 -75.300639 40.771520
-27.695317 1.099962 74.477996
79.281273 -16.202758 5.000001
40.823392 53.069045 21.882405
-11.721098 -4.339529 72.138838
-33.207128 41.669867 4.999997
-46.155452 36.610965 4.999997
-53.489885 30.447976 4.999998
0.276750 -55.920851 23.463710
4.589344 -58.073344 21.799255
-28.164163 -66.078467 14.579701
-76.136541 20.082421 4.999998
0.006968 -17.499820 77.327026
25.134003 15.608487 4.999999
84.136549 28.889709 10.138634
16.338955 53.860767 23.204280
24.627113 -12.475840 76.503768
-41.574549 22.344369 47.365445
-7.090667 36.135470 44.999710
-39.258906 -60.467107 14.476236
48.849497 73.518069 16.443308
-24.458949 -21.835801 53.257769
-66.999262 40.681592 12.327802
-57.671698 15.226732 4.999999
-11.868867 3.909835 63.033401
-50.501223 58.709021 4.999996
38.660583 -50.808940 5.000004
7.652470 24.324820 79.996697
50.164939 -10.440248 5.000001
-68.626075 48.017127 4.999996
7.854160 28.038402 64.994212
17.864948 22.042906 69.054249
38.161283 -36.616676 25.864925
31.504183 -33.152563 32.715800
-41.338091 -39.042502 5.000003
-64.286714 15.872141 31.811970
0.675032 -36.250213 46.000793
19.893870 -85.029690 5.000006
47.447019 -50.222979 15.747013
-40.372959 -76.502658 5.000006
25.444024 -69.940141 26.627614
-10.951566 30.507571 54.150674
3.760671 -63.373827 49.357608
-22.537669 0.525685 3.418003
-41.388084 68.687966 11.837127
-11.094063 -60.874093 5.000005
-81.534811 -19.123484 5.000001
5.981614 -10.971480 4.033379
-33.544098 -0.463454 51.463703
-43.334512 21.520795 45.380237
34.512479 25.835207 4.999998
0.751737 14.600005 64.760877
7.154254 -10.246465 18.620971
-74.072296 45.896357 4.999996
-63.468181 -44.839249 12.527378
41.823280 62.340945 4.999995
44.981852 -62.933384 12.640697
-66.810735 58.964357 4.999996
63.805640 -14.968747 17.465751
37.586779 -6.078396 5.000001
37.447668 24.650690 42.160032
37.585129 -55.493263 16.712816
-3.601196 -39.289825 5.000003
4.264231 77.380164 12.592467
-20.101706 -44.064547 5.000003
-42.292191 2.697566 36.704676
-70.205698 -28.157799 13.179902
-2.762480 33.500148 51.333329
-61.106861 -40.391473 5.000003
27.147590 -15.247279 57.693274
43.506979 8.913597 34.230580
68.708394 -3.280289 5.000000
-45.628283 45.768477 4.999997
88.339630 13.171417 10.089857
85.060694 29.361778 7.889421
30.867428 -82.353353 5.000006
52.331936 -22.607206 5.000002
-53.341451 -12.333711 5.000001
3.738888 -11.923809 53.405401
22.751817 40.525656 31.913665
-7.688733 64.572995 17.721270
64.515950 -60.723342 5.000005
8.993887 -72.608428 46.966431
0.409036 76.133115 13.019752
-16.473099 7.290447 -0.000001
-68.968518 18.736422 14.721689
14.244762 -70.501804 40.377117
-4.771486 -16.831328 77.854834
45.573785 57.778298 4.999996
27.321363 -1.010194 5.000000
-67.860765 -57.177954 10.168103
85.378090 20.917399 10.279791
-9.696346 -60.061404 69.980461
14.163000 -4.694454 75.000000
-58.715250 27.013192 48.485702
-16.149803 30.928081 4.999998
-4.369887 49.053839 29.098767
78.160466 7.700303 12.279229
25.605317 -66.334346 24.466839
-46.946689 15.111590 4.999999
-69.806619 6.388223 15.294196
-50.511618 25.994744 49.891871
-21.939508 18.566508 66.894073
49.783685 43.399870 38.045190
-19.296936 -21.908285 5.000002
55.358908 24.543516 64.916734
50.196966 38.043525 45.153937
5.550252 -30.522636 5.000002
-15.274935 -36.343376 71.637575
-44.418991 22.169434 4.999998
-39.222856 39.187840 23.840916
37.744447 -14.272408 39.439784
23.092917 46.808870 26.443744
-7.906928 -49.781306 28.023798
68.874663 35.994629 4.999997
-36.538484 -31.071738 5.000002
-12.143715 2.952721 26.358240
65.040319 37.957984 13.297681
46.832459 -76.847976 6.260652
15.645439 -13.318460 0.001288
25.105824 47.576183 4.999996
-12.291450 37.112025 41.294278
-17.043040 88.365045 7.184333
80.638816 -39.916829 9.738336
33.052401 20.957898 4.999998
67.879869 -42.524556 11.861725
-29.000815 -70.054308 13.117678
48.712024 -40.041587 18.797676
36.933433 20.729616 36.738335
25.318303 11.709656 72.618496
8.324188 15.392085 77.251536
14.059776 6.774628 75.000000
41.794061 16.529986 33.615315
-33.889850 -80.548478 5.000006
-30.622198 -24.273195 5.000002
47.356134 36.212251 20.898678
24.018619 84.242610 10.320411
-63.226285 50.110575 11.709766
-50.406319 15.046066 26.099653
8.328289 9.319594 13.157670
32.240444 58.498754 4.999996
-21.585172 23.242182 55.961346
-47.290271 19.045263 27.502570
75.400497 -48.967180 10.010063
-62.728087 -58.618731 10.612337
-33.353039 50.148814 4.999996
25.561648 60.768882 17.269941
-38.694808 -28.458573 5.000002
47.877905 40.857992 18.885269
32.592583 -77.356485 22.535771
-42.164872 15.461304 33.634838
-2.800000 14.061996 68.850981
8.575139 -55.754670 5.000004
31.393511 -74.049343 5.000006
6.478072 -33.123903 51.025712
-22.700624 42.141417 4.999997
-8.997493 -73.839604 13.619602
-19.983747 49.228241 25.659285
19.627793 -81.920541 5.000006
-4.276190 52.013180 4.999996
-3.070325 -12.113057 46.183970
-63.893561 -9.292822 5.000001
-44.559414 25.317565 27.259293
43.816149 26.690806 47.852646
-16.216674 70.312196 4.999995
-21.081591 -21.563924 60.887230
-6.349372 16.875800 -0.000001
12.706476 40.138561 37.069132
-18.704559 23.432435 61.509841
0.778636 -78.665194 12.252541
-45.812702 64.715434 4.999995
-54.902013 -41.073305 5.000003
-73.170093 -40.487973 11.024089
8.748049 -39.181939 39.742067
19.974169 38.297193 35.689491
50.122440 41.157277 40.424257
-54.838231 -50.378028 13.589052
-11.786926 -4.153555 44.167392
-74.831508 -2.160618 5.000000
82.975911 34.797458 9.715530
27.158404 16.687870 4.999999
26.645040 37.775715 4.999997
-65.880204 -30.951084 14.205294
11.279453 5.385825 58.588036
15.687351 62.742711 4.999995
-25.718330 22.924472 53.365653
32.866580 -76.857478 20.414357
6.309408 -17.873987 79.466746
35.664240 48.931012 20.310614
54.617836 67.175140 24.662813
55.319781 43.642377 4.999997
-59.245573 -10.707846 5.000001
-88.764483 -8.905833 10.104331
38.123897 -8.483534 5.000001
-73.480164 51.946237 5.643174
57.959204 2.135355 5.000000
14.142260 67.122364 15.978128
-2.022230 14.600005 62.936246
23.054987 43.053363 4.999997
-8.228768 9.407358 22.287911
64.019944 1.771208 18.260025
-12.004427 -25.295896 71.723642
-32.794564 66.829294 13.597849
-9.144618 -8.521332 25.974284
-22.984858 6.164507 80.000000
63.050892 -4.810117 5.000000
-5.895228 14.484540 -0.000001
-54.514597 26.826396 49.652263
-24.374411 63.808048 16.097844
-36.678947 -49.054853 5.000004
-60.806297 38.208538 14.583759
-31.082658 -55.815207 5.000004
-8.136423 -42.726549 61.888462
-41.918523 -43.890912 5.000003
29.304702 28.250391 38.946601
69.160458 -36.221132 5.000003
29.004029 -71.526486 12.683349
-27.787078 -3.497245 71.662130
-67.425175 -40.263986 12.282249
-26.941654 -79.629102 10.935342
9.992773 7.508289 44.952367
-34.065381 -79.270491 10.536295
-10.416232 -6.904732 33.183438
-13.847808 -1.653618 75.000000
-76.090528 -0.791867 13.028646
-78.475535 21.266452 11.547524
-7.681628 9.857469 31.598946
-43.068738 18.115046 31.652715
-18.385409 -31.973655 44.877563
79.333909 12.582676 11.800467
-65.502032 24.869422 43.600995
76.762819 38.647161 4.999997
34.356314 -72.473258 16.383915
37.317668 11.960753 41.153326
-14.066941 -52.927520 24.365836
6.269425 -35.816236 45.818930
-11.190723 -35.994334 65.246806
-32.415120 44.995858 23.830380
14.711829 -38.128633 38.718995
-11.655047 4.507257 28.876802
-23.616761 -57.613231 19.268743
-75.251238 26.521588 11.945958
-12.007662 3.460835 4.787079
-31.470564 -20.065308 5.000002
74.706641 -32.198035 11.537807
11.117357 -32.999612 5.000003
-39.453222 -50.278438 5.000004
-0.542441 -12.484594 48.386617
51.979976 -49.554720 5.000004
67.783771 3.134437 5.000000
-27.364739 7.172229 69.608318
33.287653 -31.445077 5.000002
-1.963623 33.429800 4.999997
-14.776375 23.073639 4.999998
27.684090 -53.058094 5.000004
-27.166359 45.098615 4.999997
12.695243 -49.938655 29.832141
-12.463829 -49.779117 5.000004
6.073634 -27.010855 74.875123
-8.155431 9.469053 6.223030
12.611430 54.988074 23.102520
3.806377 -38.321910 42.200916
12.298129 2.216409 70.410648
2.472067 -12.249155 40.247531
-18.439441 -2.675235 79.152054
-81.275581 15.801014 11.216988
-83.375692 -31.746540 5.000002
22.529155 7.092717 80.000000
-63.738215 58.046788 10.544647
16.618765 -74.527340 39.287940
19.730485 25.914324 53.773114
24.614412 27.057497 45.433666
32.765688 51.949491 19.768214
48.504286 33.762025 45.815771
7.414863 41.603957 36.864136
-41.366900 48.277109 18.516986
-28.998702 -17.002110 51.303136
-25.165243 15.485146 63.190359
17.246823 21.890447 73.085190
-46.595873 56.084274 4.999996
25.251152 -53.506570 5.000004
-27.818413 -9.223509 64.188595
-72.052367 -9.687869 5.000001
80.785360 33.149518 10.357438
49.329444 -62.414354 12.007612
-66.204032 47.203813 4.999997
-57.171632 25.789351 4.999998
-77.160356 16.861485 4.999999
14.156327 43.056555 4.999997
-67.582323 55.786281 4.999996
42.684670 20.052867 31.192346
-9.871826 36.436701 43.432341
-67.438638 -23.469251 14.748372
-12.066559 19.287318 80.000000
-79.662203 32.518376 4.999998
-2.171643 -60.409810 5.000005
-2.754026 14.600002 27.002405
-20.675991 48.916713 4.999996
6.632619 -18.696058 0.000001
-17.497208 -39.329499 35.861279
23.868842 68.359494 14.355631
-20.736661 -55.915683 5.000004
-51.057738 29.284109 21.403739
81.508465 -38.110455 5.024679
-5.676116 68.659883 4.999995
-47.845398 58.393358 13.229355
-48.102842 53.552903 4.999996
6.421731 89.750603 6.936511
-77.742832 10.057058 12.319773
-34.338816 56.497997 17.162492
14.247382 80.459007 11.458784
17.383327 8.367522 -0.000001
-11.950215 21.518817 80.000000
-60.603955 54.077834 4.999996
5.474120 -46.421633 5.000004
-11.015491 -64.028633 17.753338
11.291570 -5.357922 53.163413
-49.908396 65.280802 4.999995
2.485935 -12.246355 15.507066
-23.880943 -86.749169 9.791306
-78.597953 3.775490 12.237248
-16.469106 22.321227 74.238435
49.929070 -7.836087 5.000001
2.236994 53.417977 25.373625
22.647159 -34.626024 5.000003
20.475624 -52.783568 5.000004
39.869548 -38.337592 23.942211
-27.817554 75.387469 4.999994
-3.874471 66.159042 17.070702
-76.250350 -12.143292 5.000001
65.326055 -22.889434 5.000002
-31.093092 -4.216348 5.000000
-0.717346 -60.173484 20.546432
-0.286361 -45.993836 32.426711
23.349767 26.516727 47.744866
48.979025 72.134476 4.999994
7.371603 33.768909 4.999997
-30.857703 76.531312 4.999994
-4.284887 22.893210 4.597137
-0.248062 -38.441265 42.294091
40.237324 33.448073 38.244040
67.208511 22.732390 14.932067
-57.611908 60.643731 11.023926
-52.807383 50.683962 14.045745
-7.932580 9.656534 63.567820
-30.806570 34.678574 74.594676
15.477198 23.876251 68.476080
-16.658798 20.070205 79.415682
-16.967330 29.936179 49.584070
-7.934087 -26.523364 75.048104
30.197785 12.873237 53.164889
72.944748 -7.811335 13.981526
-7.348453 89.679592 7.150832
74.174298 30.757697 4.999998
-51.588873 -6.699126 5.000000
46.267988 27.428257 51.783629
64.524845 -12.896115 5.000001
-77.843137 -15.136104 12.075919
52.156783 48.668146 4.999996
14.960383 11.302268 79.265967
-40.538284 -74.881366 10.736831
-37.339576 -0.004984 44.100777
24.318179 -50.262062 5.000004
-9.956241 44.907949 32.420319
50.972417 30.783677 53.310766
20.929990 -24.183569 55.271301
-7.602839 12.677111 -0.000001
-5.644251 11.151151 55.286056
59.286723 63.299515 33.316262
12.484045 -0.629823 2.117068
39.771803 -76.864814 14.655097
-17.492600 53.401645 23.276272
-7.757530 -9.800349 31.907371
36.668275 -57.865944 5.000004
24.113376 13.800489 73.840465
22.574295 75.855466 12.118395
12.317502 -44.806682 5.000004
-12.941285 11.773379 77.838477
20.828714 26.151704 51.717391
12.120502 -62.599417 18.401555
-54.531920 -66.538054 10.582024
54.370868 -64.370578 10.895926
-23.628795 13.883479 4.999999
-39.283410 68.625252 12.136162
7.488077 -48.432241 5.000004
2.800000 13.626090 45.129974
-87.984026 18.902942 7.330699
-5.606485 20.932216 80.000000
-42.109452 35.394445 66.343414
3.348498 30.711644 58.429626
-51.951639 -40.761681 5.000003
-11.159809 5.622921 69.874812
-19.304289 84.152165 10.523917
19.049605 -36.386773 5.000003
22.875880 -37.453937 5.000003
-57.374897 -40.089411 15.353984
68.848062 44.897679 4.999997
64.232796 41.374436 4.999997
25.572861 -24.266586 47.892442
-6.082034 66.239461 4.999995
-77.563047 23.851998 11.583013
8.018076 -46.169226 36.323431
-88.203114 8.341462 19.678137
35.531148 -25.560837 34.978910
15.820790 -5.101172 0.000000
3.270969 84.809786 10.781008
40.279921 38.793608 33.158618
12.485921 -26.478211 64.321000
2.057238 33.585027 4.999997
36.716040 82.147799 6.366482
-8.897069 26.440784 72.708765
-84.562599 -20.564874 5.000002
-25.539000 -81.296216 10.724229
38.639147 66.570436 12.757617
-33.689286 80.333737 10.391722
52.779264 -39.609617 17.226408
-4.541857 -79.611880 11.955526
10.422345 6.895714 71.583126
35.202940 43.249853 23.587161
-64.212760 -26.129690 5.000002
10.820844 -35.139280 45.098851
-83.241094 -2.802482 5.000000
21.942869 -64.935315 26.453291
-75.859678 -48.413359 6.849688
-20.918814 74.702538 4.999994
35.387537 53.835780 4.999996
-35.840576 7.417215 4.999999
12.148698 -2.929655 15.438486
52.020856 6.852358 5.000000
37.185682 56.675811 16.335487
-51.626865 23.255889 4.999998
-72.659569 39.583680 4.999997
15.520228 23.572052 4.999998
43.381014 72.879111 4.999995
-25.579138 26.286673 45.257585
11.906446 77.873926 4.999994
9.016768 39.122137 39.739520
51.653284 -4.727611 26.719303
29.217312 30.557103 36.837568
86.437453 -6.021023 5.000000
-54.899974 36.408388 4.999997
-17.277253 -25.209176 59.471043
-79.195185 16.839108 11.630277
32.789200 -83.808721 9.132657
28.613487 -51.379855 21.442636
-9.009348 8.659705 29.409141
-31.699493 -17.945606 45.687497
-35.304824 63.450093 4.999995
-7.959068 9.634248 34.993887
34.030797 -47.792286 21.537306
30.729917 33.065896 33.391972
-68.189317 13.196844 4.999999
-11.226423 -5.493460 59.500349
-57.465832 53.527948 4.999996
40.170801 -2.039541 39.632286
74.623686 -14.806031 13.033633
-48.726901 -62.082184 12.177811
53.686429 55.688118 12.639374
-38.730709 26.844185 56.095012
-78.377844 -26.021422 11.264411
5.798490 -72.543884 5.000005
11.817075 -38.545431 39.496465
10.832603 26.341848 68.356627
-37.214523 22.598062 47.433475
-4.138307 43.539139 35.019333
55.933865 62.787181 4.999995
-20.071587 -77.187529 11.953044
-57.454117 16.725503 32.518408
-12.203639 -2.689719 6.755011
45.336567 -18.728786 29.297670
-45.773146 -75.044436 10.270459
-53.347523 -43.301885 15.927051
-76.283545 -21.904504 12.058862
-45.515532 -12.586285 31.120289
54.780920 -20.179604 21.733627
-86.974621 21.238089 4.999998
13.271431 -89.000961 9.882523
-41.088510 39.400971 74.955369
43.131623 11.134341 66.896909
2.638685 14.600003 31.930124
0.092829 14.600000 0.782034
-0.315332 -61.651480 56.299139
24.735497 -86.512136 6.096759
-29.837351 -28.133423 38.539547
-39.798814 19.922868 34.113091
16.271999 -48.666353 27.210625
-60.983356 64.152383 4.999995
-37.468428 22.828640 49.752463
54.501470 16.585578 4.999999
-18.327160 21.405523 4.999998
-46.111807 30.757156 4.999998
24.106605 59.393031 4.999995
-2.858997 -17.532264 0.000001
26.257614 23.862872 47.448866
36.017582 -15.679082 5.000001
-84.613844 30.611145 6.870465
-68.633493 -6.466420 5.000000
8.588365 9.077677 55.538017
77.252199 12.308041 4.999999
-9.534930 28.276804 4.999998
2.028265 -12.331567 7.737549
40.549738 80.331544 7.185734
-76.100513 48.015785 5.208103
76.810961 -4.400550 5.000000
-11.721225 13.631811 78.485205
7.183957 10.225899 56.819380
8.929661 -52.920531 38.911540
34.630397 -74.953914 11.258168
20.907743 -70.890027 32.493908
74.276279 -35.500786 11.321053
55.732552 -26.516885 19.577491
-67.499410 14.900076 15.743088
-84.737185 3.384554 10.792666
5.728709 11.109660 43.064436
-25.245955 74.492112 4.999994
-7.495415 -28.927473 61.845345
-61.654793 -6.793297 5.000001
10.334470 -57.839066 5.000004
-23.581749 50.323809 23.742691
-52.687237 -51.175816 5.000004
-64.257260 -54.469670 5.000004
-23.581267 -61.116452 17.480435
23.858301 -73.028790 5.000006
40.632846 -2.124199 5.000000
-83.494294 14.639963 4.999999
-9.271949 8.379164 71.046774
61.516786 42.350490 13.512778
-30.462468 33.142565 33.531976
-12.256806 -43.813923 67.816338
-32.132125 -0.140086 54.907696
-54.443465 7.650619 24.192794
-18.036176 42.935141 4.999997
42.593589 -16.360878 32.826816
32.861796 -81.021853 5.000006
-83.566024 -33.383409 7.526134
-16.968410 25.137212 60.284337
-26.045183 83.817320 4.999994
-22.239500 52.651264 22.574106
-34.137260 -37.265242 27.894873
10.313950 -62.027538 5.000005
4.624771 -50.116874 43.852293
-24.467045 -78.440811 11.355413
-0.614887 -25.757728 79.726932
-31.730440 2.009858 55.816736
-42.537915 -3.206470 36.348342
38.293522 -13.824709 5.000001
10.280688 -7.107485 61.747648
48.926591 56.181582 26.736090
-81.725136 19.608081 4.999999
64.729951 -58.263996 5.000004
-27.468718 32.762704 4.999998
55.406640 69.049220 25.687686
-44.134872 47.895201 4.999996
37.481885 20.610193 48.917735
42.155904 65.820477 14.463819
12.472198 0.785115 56.885577
7.307437 -60.217773 43.100008
10.605096 23.638596 4.999998
5.340576 29.326558 62.112509
-10.067911 -7.403134 47.236266
76.722779 -21.723504 5.000002
-28.741426 -39.590195 5.000003
-50.208911 -10.037628 27.301497
-12.472434 -0.785220 38.088165
70.087055 50.616526 10.507060
3.095430 -85.902650 10.583157
2.341149 76.055290 4.999994
-4.377708 57.460536 4.999996
43.428694 -42.665559 5.000003
-7.316208 10.193901 -0.000001
-66.875100 35.558514 13.145010
38.305102 -58.120232 15.513826
64.791826 29.509466 14.830785
-54.767541 -24.382255 5.000002
-50.550045 39.106368 18.331141
36.366065 14.805079 4.999999
25.554870 -2.427415 5.000000
14.794342 25.149313 64.726828
-74.862537 10.530264 13.194169
39.415616 -24.853721 5.000002
-41.109928 34.862118 4.999997
26.992993 -78.792474 5.000006
31.269162 -28.650258 36.658935
32.515438 46.683012 4.999997
-10.457366 6.841356 54.034575
44.528226 36.813983 40.039452
-2.649706 -54.828163 57.320871
68.940982 56.790784 10.088455
-30.736419 -61.028065 16.096204
-7.275148 -71.560913 14.542806
29.774299 18.301899 4.999999
79.093781 -20.881978 5.000002
-24.055793 27.438233 65.805012
-9.425175 8.205116 18.447536
35.016841 -45.588515 22.348615
53.317616 -34.975756 5.000003
-26.585360 -47.889118 24.363917
48.313273 30.707800 4.999998
-22.259510 81.318537 10.889925
12.181228 -2.787590 35.994871
10.693574 27.088436 64.974601
-52.743592 35.871268 62.660219
76.954095 -18.772658 5.000001
-31.656147 -36.051264 30.346674
-50.202824 7.049217 27.760576
-42.444801 -49.037243 17.812341
13.340803 -1.796351 0.000000
-3.911523 -51.844411 58.182505
43.188699 3.702488 35.498835
7.855444 -79.797953 5.000006
4.738729 -52.600589 5.000004
-69.651180 27.263048 45.023731
-43.858837 -56.599225 14.669618
-33.652446 -59.610199 16.041707
-32.942898 35.373735 72.062303
-8.163355 -33.403107 57.734436
14.015703 -31.880651 5.000003
53.963668 -20.091605 5.000001
13.240770 -59.933309 19.789200
27.030361 -34.833991 5.000003
38.796898 81.204314 5.555020
62.959476 -33.804520 14.726915
21.614205 36.783351 4.999997
55.991589 25.533095 62.635080
59.038029 -35.179936 5.000003
33.768285 7.484566 59.907842
-62.859667 -23.653274 5.000002
-45.147329 40.945194 4.999997
-30.786912 31.019353 67.993436
0.899221 -54.356194 51.603578
-39.281467 -28.936676 29.551318
53.743612 -69.170228 5.000005
46.807939 1.591330 31.535238
-10.512953 -6.755151 29.826519
-7.879739 46.129685 4.999996
-12.501465 -47.506966 29.222389
-6.962173 -84.541999 5.000006
-19.389468 -49.936131 25.286218
68.158626 -41.880613 5.000003
-52.550187 8.457844 25.574904
54.109894 -42.951378 5.000003
-22.878276 -76.801090 5.000006
18.762687 24.637167 4.999998
24.729274 -45.365541 5.000003
46.838924 10.539967 72.201182
8.444266 26.388788 74.581688
-17.869600 65.995720 4.999995
47.658688 21.640422 4.999998
-1.363706 14.600001 14.515032
-2.505063 -37.159661 5.000003
44.736414 23.336267 27.978198
-12.425870 -1.341818 71.008737
-23.798634 -28.221016 44.838768
42.493551 76.849581 10.285011
88.999710 -13.298570 7.872987
-83.360932 13.819075 26.540186
-42.240565 -16.349024 33.216238
22.026086 -20.686091 5.000002
-0.939656 -21.600977 80.000000
83.519591 -14.324930 5.000001
-27.120233 -50.785902 5.000004
-77.108576 -21.549130 5.000002
1.172238 -32.698324 53.382038
-7.746263 87.927146 4.999993
20.538888 21.537022 62.303624
21.658142 -18.154888 69.803818
71.230392 -16.393432 5.000001
-15.677339 -1.417315 0.000000
13.233782 48.703439 27.951738
13.912102 -55.387252 22.602380
27.305819 9.192170 66.541023
23.415859 -57.916440 19.145461
-15.540837 -54.454407 5.000004
20.751854 -14.029624 5.000001
-29.671507 -56.071926 18.602998
39.841891 -79.041346 10.196867
-89.919337 3.387293 7.829462
-3.731608 -11.926055 28.349822
-32.064454 21.906061 50.389426
-74.855682 -35.461875 5.000003
82.931079 27.017379 4.999998
-12.492762 -0.291218 7.599109
-24.149985 52.216185 4.999996
-44.025253 -26.222712 5.000002
12.155177 86.890361 4.999993
-80.001849 35.114981 4.999997
-32.677193 -23.354630 5.000002
3.819310 -11.899019 13.637098
21.409771 49.636666 4.999996
17.614619 39.903518 4.999997
47.858896 50.399695 15.573745
-65.499357 -29.289018 5.000002
11.498894 -40.426102 37.165427
-73.012529 20.482021 13.113899
-42.265875 -49.329473 5.000004
24.844749 -52.024589 22.234551
-44.793630 -6.129397 5.000000
81.214385 -12.257815 11.364404
-13.146423 -72.300551 13.934779
-21.611397 -45.519078 5.000003
-50.560445 61.597968 11.971452
-24.313858 -66.795184 14.875261
-44.049940 74.262683 4.999994
33.511529 -7.083014 49.927793
-6.781718 -47.072427 61.171955
-74.974985 6.276009 16.403680
50.783905 33.955291 49.802127
-2.059967 44.589650 33.955161
-15.098605 85.672357 10.410357
-8.134342 65.248642 4.999995
-13.060209 -78.804097 11.920220
49.356241 6.444109 5.000000
-65.051437 -25.791577 15.363956
12.492272 0.310186 68.666271
-69.000219 -54.624452 10.266402
44.006216 -65.457555 5.000005
12.478684 0.697561 48.813935
-78.042138 6.748821 16.833191
83.199692 -26.328968 10.363832
-31.691158 53.858495 19.138469
6.851283 70.805937 14.853714
54.549954 53.725927 35.943649
28.346589 72.150918 12.588160
-59.001539 6.299468 5.000000
7.837389 -9.736055 3.070514
-12.957519 -88.319750 5.000007
2.800000 13.166368 33.850047
15.843438 34.115439 43.640705
74.849878 -36.968728 5.000003
31.519453 -4.262854 55.780173
-7.949077 -9.642403 49.027113
26.806065 -73.303144 5.000005
-51.744365 31.582226 57.578046
40.296705 30.962050 39.010921
79.741403 9.692865 4.999999
12.581339 70.870860 4.999995
-65.519842 -41.551185 12.567549
-88.212463 18.079172 29.404293
68.465435 -3.321179 15.979674
13.732753 16.614460 80.000000
-77.186467 -37.082840 5.000003
-84.626073 30.593334 9.862607
50.003243 -2.923273 28.312397
-2.933994 71.634250 4.999995
-6.563010 42.757995 35.600072
-4.301110 -85.819181 5.000006
-54.856604 -30.841308 5.000002
-3.601625 14.292648 -0.000001
24.262386 16.452256 64.191685
-12.225423 -2.594583 39.979453
-39.757892 -79.280264 10.173789
16.150703 26.371896 4.999998
7.539519 -9.965369 49.347055
-36.879699 -67.343358 5.000005
-2.979568 -62.684980 60.577744
19.293842 19.892683 74.538783
34.120472 63.150442 14.602038
39.584109 11.610245 38.214245
-60.991679 48.824830 12.401759
65.510091 -39.958079 5.000003
31.426654 -69.083949 19.291592
-16.917762 -23.453770 5.000002
-37.546455 45.241379 21.452017
34.395291 17.259379 48.955442
-36.738044 -59.764001 15.283093
13.337240 -66.110316 5.000005
5.797299 11.072185 31.212598
11.932466 3.719920 42.951088
7.444368 -36.983059 43.469277
13.546008 -23.621383 78.260110
-57.428703 -9.364717 5.000000
8.512699 53.116810 25.111084
39.377478 -76.878620 5.000006
-8.425149 -9.229252 52.068034
-38.068696 20.914231 46.168888
58.828462 -3.547669 21.352059
57.596255 -18.890969 5.000002
6.736660 -10.528012 72.702218
-13.385774 -24.952898 69.443874
63.912399 -19.904584 5.000002
-0.844600 56.126879 23.298209
-2.530029 -73.084478 14.073147
15.478547 -77.165253 40.248537
46.624197 20.224882 60.755793
89.819416 5.544647 7.414367
75.508185 18.900319 12.489561
21.793987 -75.548508 32.109866
-67.657090 -10.510048 16.033716
-52.011062 70.626533 4.999995
61.466509 -35.670388 5.000003
28.760376 -8.486471 61.487557
-50.025570 -60.814391 5.000005
28.240354 -64.415303 20.177880
-8.559489 27.156475 68.413116
-24.506380 70.460329 4.999995
15.636247 57.475317 4.999996
5.675226 23.585455 80.000000
-5.366052 46.142276 4.999996
-36.685932 55.721798 4.999996
-49.098461 75.403961 6.358751
15.181216 45.829262 4.999996
37.273394 19.431391 4.999998
66.723093 -53.376001 5.000004
75.870026 16.197541 4.999999
34.002377 41.746597 25.076099
-13.224706 79.947358 4.999994
-19.408627 87.856829 5.169261
27.402081 43.802653 26.890268
-25.525879 -49.567203 23.612217
-9.496061 84.667866 10.717522
-14.369680 11.279728 -0.000001
68.843892 40.895897 4.999997
23.232719 -79.333822 11.237823
50.892079 69.202904 10.604400
56.965438 1.281079 22.697465
34.707543 -42.155989 5.000003
-9.105711 -35.734205 58.579110
-2.800000 14.053460 71.071702
30.343758 -65.971739 5.000005
87.695590 -6.558425 10.274487
-61.035692 -17.697798 5.000001
0.711374 14.600002 23.586704
71.348399 -35.927736 11.920408
-44.127394 28.216771 55.874530
-2.800000 12.226327 29.258619
-12.146583 28.119584 59.224923
8.383966 30.532154 56.141206
-69.162921 23.875779 4.999998
84.254099 -21.342988 10.425728
49.339883 -44.333163 17.054751
-11.120058 -20.022006 4.208224
-12.074620 -3.222977 37.543788
11.229497 5.486631 50.504278
-32.831623 29.434188 34.581961
-76.938117 -24.433472 11.694244
43.927627 30.432665 25.390684
70.402774 24.719306 4.999998
46.544021 33.955415 4.999998
54.347625 -50.406763 5.000004
5.174215 -43.270069 39.089499
35.946168 -49.056867 20.158446
-40.125969 -15.822539 35.763719
-71.391392 42.530728 4.999997
40.995969 62.014401 15.728640
34.705182 9.353606 58.378544
8.474614 -26.271232 76.449528
71.531869 -36.969215 5.000003
30.595523 -2.619024 5.000000
7.096739 87.340689 4.999993
55.450796 -25.905384 5.000002
26.889619 56.424011 4.999996
-21.616716 56.651540 20.248376
-11.318547 5.298939 14.717091
21.521677 54.477971 21.599977
40.664709 -58.875475 5.000004
-26.788653 78.062478 11.265293
-62.160492 19.986900 36.179890
-27.726231 -23.876527 5.000002
-50.762845 15.697942 4.999999
14.562616 6.411324 -0.000000
-66.591710 -44.162993 5.000003
-35.042099 38.763323 4.999997
11.883774 3.865319 26.451460
-45.307552 19.044663 40.696083
-80.373307 4.490714 13.911765
-26.610631 27.443025 42.658871
1.016127 -12.456830 60.074134
-66.904626 15.166647 4.999999
51.965684 -38.412391 5.000003
-3.124358 -49.644567 28.626390
-9.573866 14.069326 -0.000001
12.639503 -74.157182 44.013312
50.945885 25.826881 4.999998
18.158131 81.363704 4.999994
-15.000804 -74.839644 12.956548
28.692650 78.888304 4.999994
-7.718290 -78.383013 12.220751
-10.214633 -56.034176 22.712974
32.403693 -4.689628 53.365049
-5.241542 -11.345399 32.802626
-14.861717 -29.185795 53.346738
-37.995983 -6.828431 42.051356
16.147095 78.338981 11.892705
-86.871293 23.486561 7.136418
17.569880 18.205523 4.999999
-0.099811 31.223000 57.451239
4.703242 54.870129 24.135296
65.857627 46.916151 11.657596
-73.030981 -14.579667 5.000001
-1.171557 -52.619036 54.075433
-49.841723 17.884874 25.803949
-55.527132 54.067827 12.596149
82.986429 16.584666 10.828895
-35.326799 -4.813785 47.122662
44.506721 39.451613 35.770299
-43.158798 -34.336895 5.000003
-6.894398 39.035734 40.480821
-2.554634 -12.232474 21.934156
-50.514887 -20.566084 5.000001
-11.181391 -5.581176 22.377793
32.264324 76.651229 11.134997
31.954838 57.359427 17.405449
-63.881702 15.706911 4.999999
-59.109053 61.832522 4.999995
-40.150326 0.255818 5.000000
-28.277680 16.181591 53.753517
-4.393589 -41.117497 54.297766
5.391874 45.550988 32.563092
19.787232 -58.967413 27.393282
16.769974 -2.938546 0.000000
0.065661 -29.083178 5.000002
51.520370 -44.937790 16.071592
-26.076497 10.099887 72.073316
-1.665118 -86.237900 5.000006
31.749102 38.641107 28.382194
-11.136290 5.668913 40.961683
-23.141152 25.996879 48.752380
-37.359563 -36.562230 5.000003
39.982280 43.417267 28.684967
-52.760651 15.991332 34.114317
-22.338564 24.106534 4.999998
-19.520374 50.910385 4.999996
-17.905177 -81.939295 5.000006
10.723357 14.402908 78.467307
2.789228 -48.380312 29.874178
30.589556 -63.746241 15.041087
46.068028 24.728540 52.613791
-44.180676 -68.961834 5.000005
44.281428 20.600458 55.579475
55.433286 70.899791 24.280450
80.160882 -34.140844 5.000003
2.725475 -56.775591 22.787461
-11.495598 -86.248838 5.000006
-5.293769 29.438335 61.725733
-82.110257 -36.846287 6.047101
-47.795823 38.086016 69.125611
2.319621 -34.902471 5.000003
21.296542 19.618890 65.799381
14.911177 2.879225 -0.000000
14.634316 35.599712 42.234867
24.361395 64.554515 4.999995
-44.731579 6.709257 33.287354
2.828351 -62.683204 52.152545
52.674179 66.212742 23.401386
24.760121 -84.624369 32.966907
28.382261 -4.520177 66.899031
-51.707074 4.008205 5.000000
86.683306 1.518532 5.000000
25.587030 -84.210026 10.262719
28.913996 -85.225506 9.372756
14.972322 -11.857540 79.603784
25.254864 7.089626 79.254388
-18.975953 -22.999670 62.081667
45.420928 11.999804 70.535379
-4.351395 27.962436 69.540349
43.857892 32.961719 24.292470
-64.308289 11.088985 4.999999
-34.728332 2.199928 48.776768
0.755617 -27.024172 5.000002
6.696283 10.552288 67.641091
56.459029 30.761698 4.999998
-56.689171 -52.222866 12.722523
85.091867 17.935776 4.999999
-34.298400 -63.176564 5.000005
-12.031013 -34.263698 45.898915
-25.824693 49.609234 23.475073
7.247219 49.506767 28.361530
62.850050 -45.724445 12.527146
-41.568921 27.634721 56.091302
-40.974575 36.889951 24.078571
49.230215 69.780415 4.999995
53.888791 68.482626 4.999995
37.144068 -81.959865 7.309353
37.599805 -6.353041 42.808958
68.033321 -39.279732 5.000003
-14.447182 -38.779648 72.978143
-12.446848 -49.552522 27.403943
-4.343306 -28.068620 68.880972
-5.666580 -36.173262 45.369774
-75.466357 28.578422 11.702037
40.351949 13.814224 36.356808
-51.665474 -73.677761 6.797553
11.178613 87.702290 10.210876
35.309751 71.949287 11.849234
-32.921705 -67.803754 5.000005
-4.412641 -59.615884 5.000004
33.685168 -37.495954 5.000003
17.578903 -52.460956 23.935361
-8.600239 -21.902651 4.752929
-1.254612 28.371843 68.878059
-86.076434 17.200293 30.186496
-46.098102 -26.041719 5.000002
58.585650 56.998055 4.999996
64.114611 -17.554804 5.000001
-48.356870 67.157647 11.221902
-5.863236 18.872515 80.000000
21.948243 -80.942872 35.992012
-27.735846 -50.487867 22.267292
1.335498 -12.424890 31.556357
40.292921 -64.138289 13.139238
-35.301500 36.835149 74.994860
-12.449459 1.092072 12.463010
-62.064640 19.757398 17.668022
36.651020 14.264297 54.003157
4.961519 -87.094153 5.000006
-2.842541 22.312719 2.411929
52.624763 63.927367 24.918677
-29.637646 -2.045595 62.484478
-66.678592 -17.775217 5.000001
11.311441 -55.993988 37.146205
-67.119867 -26.023715 14.519350
1.113521 64.456823 18.020442
-9.919225 7.603471 27.192232
2.858555 17.260407 77.103299
15.239443 -53.526672 23.688273
8.141924 43.160472 4.999997
-40.357465 -62.923653 13.491574
-7.305324 51.795057 4.999996
-89.247379 -11.587866 6.236085
21.888792 5.567899 3.601016
-4.409557 35.619336 46.659934
-14.416378 -79.204261 5.000006
19.810751 -4.162474 80.000000
30.944107 -54.859301 18.839399
25.165194 -43.321389 28.294491
-9.541173 -34.902493 46.124398
33.207278 -54.470933 18.393236
-1.899803 -43.344967 50.984251
-20.351621 26.841500 51.134075
-60.753733 27.346618 16.916850
-4.424083 -58.418372 61.275817
4.945661 -89.849640 9.718552
72.457285 34.047627 4.999997
-5.459681 11.240356 72.652392
7.429914 -54.978732 42.145856
2.800000 14.582209 40.501617
29.330318 55.699482 18.880126
-81.073554 10.610950 4.999999
9.565278 16.314765 79.424304
56.273224 47.878076 42.489539
-19.461987 -49.110279 5.000004
52.237461 0.245065 5.000000
-53.388035 -55.783054 5.000004
-3.339098 -33.894443 50.323881
-69.065349 18.934475 35.063065
52.649639 49.603629 14.383657
-0.563575 -66.407831 57.153852
-51.129205 31.459376 20.636755
4.922957 -29.006114 63.684820
6.166398 51.890046 4.999996
-18.035745 71.541853 4.999995
74.540895 1.600206 5.000000
39.888568 46.738196 25.790540
41.371082 30.148621 27.309677
30.431141 36.570610 30.756417
-32.722345 25.268214 4.999998
-28.844245 -26.419728 41.254060
-70.224609 40.464346 4.999997
-15.785099 -76.590543 5.000006
-20.456416 -53.478290 5.000004
43.518636 75.081202 4.999994
-6.523761 31.148710 4.999998
49.540953 50.087440 32.143975
-9.899680 -85.057567 10.652151
23.970227 -29.574310 5.000002
-0.076089 -12.496116 28.227975
-46.500881 15.212884 34.245960
-57.976903 -10.250011 21.392972
-30.773519 -51.559919 20.629475
-30.275756 -75.418567 11.557291
-1.984139 -36.547811 47.496431
16.458344 -22.464481 73.181782
54.364617 -23.749265 5.000002
-0.679355 -59.677203 54.376491
55.119536 71.118051 9.949149
-40.523142 -47.286259 5.000004
12.228838 -2.579668 29.617075
42.606210 35.723138 38.861105
41.983183 5.718243 74.694841
-3.228470 12.072579 55.882062
87.115540 -2.640022 5.000000
-13.627526 26.723770 61.441784
58.819192 66.963414 4.999995
9.803050 15.463941 -0.000001
-30.923443 30.757760 35.168461
-85.390339 4.346979 15.146538
-0.193360 79.613703 11.987466
-81.132753 -34.285365 5.000003
-71.071036 30.151199 12.685133
-15.913373 16.149411 80.000000
-46.702436 32.975045 4.999998
-21.942605 87.067272 4.999993
-20.006216 -67.967911 14.974951
-37.036076 29.283868 31.135650
-65.439417 53.681244 10.827166
17.807163 -50.021282 25.691171
