64.843117 31.983938 -18.786524 
13.305740 41.572155 -36.557220 
-83.894485 34.388229 -21.835253 
38.564388 39.197292 -12.432292 
-35.036484 43.994331 -13.072918 
-24.616102 68.356903 -30.081598 
-57.194458 71.875648 20.353901 
46.002815 16.406416 -49.579247 
13.083907 25.854855 -67.782692 
-16.213528 21.046057 57.123734 
-3.714556 14.787229 -71.198021 
-30.966541 56.758064 5.460237 
20.572811 0.038429 -3.627542 
36.039680 44.408279 -21.105759 
-24.737356 53.526688 36.542175 
-26.258436 48.057278 51.621967 
-16.649927 39.085007 -37.027534 
-23.829315 52.756367 30.239376 
-57.838860 48.043446 43.391117 
-62.282551 19.554710 -44.712708 
9.807348 50.092873 32.725136 
-0.872303 78.000000 -17.478247 
-57.564842 24.846785 -48.091091 
13.544487 65.473297 43.037640 
-19.624359 19.561193 58.549938 
23.884838 58.121555 48.224407 
-27.487635 69.339417 16.591450 
-11.089950 54.122280 30.469387 
6.732890 60.793388 -46.307926 
22.590485 38.042007 -69.633308 
-16.970655 56.169994 -39.417320 
-35.664364 53.993122 -58.146168 
21.148531 54.122280 -24.578653 
78.903473 21.887781 9.612191 
46.287060 34.875362 -44.653427 
23.885735 5.000000 -5.451763 
72.700195 13.082919 21.876396 
25.237555 27.003336 70.183777 
6.529837 50.092873 33.533264 
-46.116131 14.106624 -56.620884 
65.580681 16.406416 -16.538908 
-35.998238 43.994331 -10.128334 
-20.828833 24.877941 -49.905701 
-36.919277 22.868496 -43.071045 
15.937819 30.027838 -76.299408 
33.468483 16.406416 -58.772625 
-48.316761 14.106624 -54.755024 
9.612191 21.887781 -78.903473 
32.816765 22.924219 -46.178608 
26.426138 55.367748 48.406689 
21.296906 62.135506 20.848005 
-51.092010 27.025572 6.528511 
21.849831 22.868496 52.352009 
49.644310 41.649624 -41.167610 
8.460732 80.000000 17.568893 
57.642185 13.082919 -49.409245 
22.995255 10.901387 -81.017212 
-37.787441 10.901387 75.264069 
15.430994 25.300592 -51.280674 
-25.338980 51.027225 44.779343 
7.859240 56.758064 30.446222 
-49.880844 21.046057 -32.216465 
-4.274838 11.368032 -81.937126 
-7.099793 59.248276 29.791327 
26.896879 48.868790 22.005106 
26.527966 5.000000 -86.001549 
-10.174575 22.227654 83.042908 
9.679976 68.315361 -60.952991 
32.563393 28.352959 37.989353 
-60.170170 35.080303 61.040241 
-10.450392 28.642511 48.614872 
33.481091 52.513775 24.542936 
-39.694267 53.526688 19.277773 
83.899063 18.055248 6.735712 
49.263233 13.952818 -54.459820 
15.540147 62.135506 25.430323 
-50.557308 66.402779 17.754150 
-30.053043 49.004833 64.961655 
-56.213036 20.134823 -42.780956 
52.008625 10.000000 73.451363 
-20.511078 3.098135 9.254951 
-15.494380 29.769493 63.237621 
-69.611298 13.952818 23.388151 
1.172077 52.275772 56.841160 
3.362139 58.035526 -53.752434 
74.061737 24.794678 12.839135 
19.492100 56.758064 -24.673849 
-69.824516 14.893116 13.070131 
37.782028 52.071617 24.219412 
-78.205872 12.330984 -4.772476 
-66.865669 13.082919 -35.956604 
-18.709721 32.045803 -64.777565 
16.970655 56.169994 39.417320 
44.734303 47.114910 -30.085974 
-59.551689 10.932714 -59.327888 
-48.286594 25.300592 23.156595 
66.890747 33.949356 -16.719524 
-48.556259 10.000000 -75.777893 
-44.825085 34.760338 -46.317593 
39.365486 56.717293 -16.510622 
28.033348 71.080658 1.371932 
-27.387272 52.240780 49.831234 
-52.365883 19.561193 -32.726517 
-5.557793 46.052307 -61.302231 
29.742723 10.348852 82.152435 
24.592587 41.572155 -30.144283 
78.467300 39.536457 -16.543444 
61.266052 14.893116 35.954998 
45.830418 30.498169 -13.658681 
25.139427 71.080658 -12.480383 
-19.445475 80.000000 -1.457237 
35.664364 53.993122 58.146168 
-10.117112 59.248276 -28.906301 
-35.448391 46.461811 6.250508 
-66.497238 48.043446 -28.394363 
-79.831978 10.901387 26.822119 
-23.300644 62.135506 -18.581644 
6.277416 53.088753 32.236992 
-24.701456 46.307365 55.511532 
-30.956528 61.167339 -28.543385 
-10.167987 80.000000 16.639172 
-53.119518 38.536980 7.984430 
76.343323 26.285454 -28.686621 
-32.679848 41.572155 -21.106884 
-40.615879 11.562416 -70.348770 
16.290291 78.000000 -6.393468 
69.639664 15.399447 5.333074 
-27.650599 48.868790 21.050207 
30.440048 11.597329 -75.159218 
-28.095556 34.118069 -34.495415 
-64.227150 50.117050 -29.713243 
23.125267 77.970772 14.935882 
16.026369 74.672005 -39.728050 
-7.592966 75.000000 -15.766955 
73.424500 13.952818 -1.257502 
-5.564632 52.824627 38.061832 
-46.949322 27.025572 -21.184341 
51.107689 27.025572 6.404624 
-0.319042 57.153427 -66.406120 
-66.803040 22.238373 -50.325508 
19.203751 80.000000 -3.386139 
20.511827 10.901387 -81.681305 
-54.534203 22.924219 -15.343546 
-71.922775 32.695595 19.793404 
52.613964 29.417744 47.307800 
65.876816 11.562416 47.527298 
31.535809 54.700069 25.217836 
-11.996290 32.197872 -44.614380 
41.196014 36.561161 -10.389297 
64.541496 21.467535 48.044842 
79.166626 26.956423 -27.938480 
-63.620281 12.302706 -45.899303 
-50.966839 27.025572 -7.442882 
-22.644409 60.364365 -50.627121 
30.331184 59.248276 -4.236690 
-31.305731 14.787229 -64.053932 
-30.781813 5.000000 -84.572334 
-38.838612 35.054779 -41.869179 
38.515873 16.908915 81.370438 
-2.083493 39.953083 -39.934952 
34.600605 48.868790 -3.234976 
57.125504 37.789341 59.121571 
-17.680021 29.214294 -60.316257 
-43.687393 58.329033 17.836681 
-37.616974 65.327858 50.207336 
13.959404 80.000000 -13.615618 
-34.284645 64.847328 41.646271 
52.889179 11.597329 -61.467381 
-58.876137 21.048986 -7.679749 
75.936790 10.901387 -36.416679 
-66.762375 16.406416 -10.823394 
66.616859 19.468079 -28.593884 
-66.616859 19.468079 28.593884 
-11.398479 50.092873 -32.205486 
21.643244 29.648062 67.097839 
-27.608536 57.910015 -25.787148 
-3.227948 74.519119 27.524895 
-48.041351 22.924219 -30.023863 
6.481883 47.804459 68.351494 
-40.902271 27.025572 -31.305262 
-80.044426 11.597329 -12.976656 
-55.511532 46.307365 -24.701456 
-11.449401 74.519119 -25.237883 
-39.365486 56.717293 16.510622 
24.919359 62.135506 -16.346958 
-10.864038 61.147789 33.515076 
5.135335 64.154152 34.025265 
-25.048029 46.461811 25.850599 
-32.698410 51.070877 -8.211231 
-34.174706 62.018932 46.701073 
15.387641 72.001793 -28.998312 
41.868687 25.300592 -33.389164 
-61.040241 35.080303 -60.170170 
7.695453 3.000000 21.143084 
-38.912895 60.728283 13.193948 
-79.436859 10.901387 -27.970638 
-44.084473 32.413616 13.138343 
-37.298779 36.327999 29.888350 
-50.238319 10.416196 -70.951180 
49.650452 21.046057 -32.570415 
62.564980 14.893116 33.643936 
-43.121296 64.650032 14.196183 
-33.234001 19.472443 -72.970978 
27.452253 77.970772 -2.057262 
34.401333 72.299965 34.847771 
1.425019 67.663673 28.552963 
-60.086597 14.415776 -40.069778 
0.000000 11.066673 83.410431 
-11.743439 -0.000000 4.282715 
-63.043686 26.273251 -51.779999 
8.369445 75.000000 -15.368877 
-15.832791 80.000000 11.383001 
55.149624 19.561193 27.780020 
22.968857 69.702209 16.458075 
-85.483665 33.628014 -20.081215 
-20.658585 42.121330 43.075809 
16.591450 69.339417 27.487635 
-62.412483 34.875362 15.527472 
37.924629 28.642511 32.161144 
-29.909170 54.122280 -12.522463 
-56.046486 21.046057 19.616087 
-89.301529 5.000000 11.190933 
-6.688596 17.103769 -65.873840 
13.081475 79.000000 13.081475 
-29.033670 26.085186 -76.703773 
50.332893 22.227654 -66.829979 
-72.409149 11.139433 40.712185 
22.208166 5.000000 -87.216957 
26.396700 71.080658 -9.537560 
-62.933327 17.914089 14.822083 
57.691807 50.117043 -40.983620 
-20.591734 0.002409 0.513526 
-17.833153 5.000000 88.215523 
40.740704 22.868496 39.475849 
-7.176391 36.387394 -47.195488 
46.929169 5.000000 -76.796181 
-64.229652 17.624483 -44.135803 
35.225227 64.008911 11.874520 
17.061239 78.000000 -3.894116 
44.779343 51.027225 25.338980 
-32.815792 51.070877 7.728788 
-87.289772 10.000000 -21.920225 
-70.454384 50.117043 6.646952 
7.448940 62.135506 28.856730 
30.741991 56.758064 6.608387 
44.197777 17.541901 -64.450531 
-0.971995 80.000000 19.475760 
54.113071 16.311426 40.905251 
-1.479590 54.122280 32.391068 
26.792841 19.561193 -55.635910 
-18.316490 34.955360 56.788185 
-26.505589 10.348852 -83.253265 
34.906837 66.402779 -40.654198 
-55.196041 31.292467 -52.613056 
0.933641 -0.000000 12.465084 
38.601460 41.572155 4.837390 
69.611298 13.952818 -23.388151 
39.627270 57.130997 27.697969 
41.522449 37.529499 -35.786873 
-31.578348 12.058958 -72.759003 
-28.207121 30.498169 38.617935 
22.493006 3.000000 -0.560941 
-30.517559 73.255661 19.731657 
39.107624 32.367210 41.323555 
15.387881 26.956423 -82.529549 
-64.615654 17.914089 -2.261720 
20.467505 32.195644 -87.714867 
14.063916 27.025572 -49.550190 
-17.205009 22.879749 -54.040417 
14.700454 75.000000 -9.494559 
61.338688 10.901387 -57.707333 
-24.367796 59.248276 18.551033 
-8.743934 19.561193 61.128998 
-28.803183 59.248276 10.407062 
0.992786 54.957905 -55.363453 
26.939274 64.297501 -21.380108 
-26.983522 67.663673 9.444145 
-15.477553 59.248276 -26.426798 
14.815284 52.163601 35.861362 
70.967667 10.000000 -55.349705 
29.804939 58.079639 -44.832485 
42.416183 20.626881 -54.990898 
-24.300417 43.994331 -28.424391 
-35.250885 42.363129 -45.211369 
-24.906609 39.536457 76.226402 
-28.385920 59.248276 -11.496511 
-36.424648 25.300592 39.256435 
-35.177074 12.865987 -68.034164 
-80.709343 10.901387 24.053528 
-32.248932 41.572155 21.759586 
-35.025173 11.368032 -74.197067 
-21.261089 39.435097 63.038902 
-24.309860 5.000000 -3.046421 
-47.307156 29.419302 52.611103 
-46.563496 13.151393 -59.702263 
2.648023 48.330757 53.015244 
-7.639374 40.266659 -51.942173 
-29.564669 36.561161 30.511955 
12.978363 32.575691 55.154362 
30.434589 14.787229 64.472412 
30.621344 17.914089 -56.944107 
-13.296597 80.000000 -21.758917 
-67.370537 30.859947 -15.538378 
-50.698807 5.000000 -74.361488 
59.708805 71.875648 10.970233 
26.646935 32.413616 -37.496635 
-38.312351 41.572155 6.755501 
-19.011095 80.000000 4.339158 
42.649265 53.506226 26.334627 
18.469271 60.169167 24.081560 
-52.893940 40.670708 -58.634327 
-62.453587 18.955986 -6.404836 
24.906609 39.536457 -76.226402 
-13.086609 4.546021 19.194529 
-6.735712 18.055248 83.899063 
66.548866 32.238842 60.590691 
77.271111 10.000000 46.142982 
18.266649 1.901865 13.132827 
12.884470 24.279032 -79.379875 
-2.786789 44.301224 -37.110020 
-31.124367 61.519073 42.088428 
-39.049538 5.000000 81.087196 
32.136803 20.924736 50.153351 
-29.030567 22.868496 -48.737808 
42.418682 74.672005 -5.984782 
46.510933 30.113968 44.968296 
49.384724 43.941399 -38.421524 
-11.166215 41.329350 -63.846432 
-28.523687 22.924219 48.946941 
81.370438 16.908915 -38.515873 
45.708889 30.535995 13.931743 
27.452253 77.970772 2.057262 
35.448391 46.461811 6.250508 
39.428764 42.121330 -26.975452 
-52.889179 11.597329 61.467381 
-62.844635 16.406416 24.998255 
-10.324938 69.769775 -42.663937 
52.613056 31.292467 -55.196041 
-16.966867 17.103769 -64.001762 
33.643936 14.893116 -62.564980 
35.756481 52.756367 -14.273410 
-78.903473 21.887781 -9.612191 
33.854904 64.650032 30.246048 
-5.135335 64.154152 -34.025265 
17.833153 5.000000 -88.215523 
-14.344734 39.085007 -37.980087 
68.831604 20.626881 9.238044 
37.072830 12.058909 70.118958 
-37.666653 40.625244 -47.327984 
-20.681786 25.300592 49.397232 
-68.379311 10.901387 49.161377 
75.602333 5.000000 -48.829163 
41.149990 14.893116 -57.904827 
-16.622271 77.970772 21.944445 
11.046863 63.458454 38.592533 
-40.094265 71.363571 45.759579 
-44.292004 22.924219 35.321693 
-30.024424 28.642511 39.637741 
-90.000000 10.000000 0.000000 
27.106436 67.663673 9.085346 
10.086155 41.665215 37.510559 
-7.283941 64.876205 -28.217531 
46.473038 10.901387 -70.234093 
-12.674702 3.000000 -18.590372 
55.954273 48.018841 -39.562843 
67.338150 14.893116 -22.624416 
-48.152691 18.864628 -40.531696 
35.509739 14.106624 63.809719 
-59.682957 39.536457 53.560696 
38.613327 52.243725 57.565376 
-36.039680 44.408279 21.105759 
72.896240 22.686724 9.828171 
10.335923 75.000000 -7.029843 
-0.872303 75.000000 -17.478247 
83.770195 23.793055 -33.028332 
31.808022 30.244839 36.046478 
-86.555267 10.000000 24.661413 
-38.569824 51.331718 -58.323788 
10.528143 22.924219 -55.664730 
-44.493519 21.046057 39.323357 
26.461020 41.572155 -28.518196 
-69.857384 27.501619 24.664413 
-52.762074 15.164898 -46.591484 
73.138504 21.887781 -31.127335 
-36.542175 53.526688 -24.737356 
-43.986225 33.663670 8.925312 
86.406090 10.368080 -12.069287 
49.850204 25.300592 19.564764 
26.500305 77.970772 -7.456030 
55.701401 35.042255 -12.718578 
34.456600 34.609192 27.478222 
-46.416668 44.766712 -58.930416 
-10.670173 30.654741 -46.458725 
62.453587 18.955986 6.404836 
45.800873 32.413616 -4.282142 
44.712990 19.556194 -62.280827 
29.503628 70.949745 32.127216 
-36.652206 43.994331 -7.421058 
60.474354 41.649624 22.409428 
-41.174583 33.242561 -42.136894 
27.181595 39.197292 -30.048876 
29.770569 51.938553 48.663479 
-54.125332 21.046057 -24.422279 
0.443402 41.572155 -38.900856 
-22.099827 40.503582 56.450268 
11.996290 32.197872 44.614380 
-61.215546 5.000000 -65.974670 
56.301785 21.046057 18.870838 
64.338760 50.117043 29.470762 
52.742683 21.046057 27.280190 
29.245970 19.561193 -54.386433 
64.228943 20.626881 -26.415422 
29.935785 59.977005 57.678398 
24.833349 48.868790 24.309908 
-19.718687 12.752238 -74.382065 
64.474434 17.914089 4.831691 
-13.082762 70.969604 41.604618 
51.449539 51.027225 -0.445472 
12.527670 75.000000 12.219144 
-59.624882 13.952818 42.867371 
-3.851143 13.776216 -73.816032 
-44.391941 25.300592 29.952938 
61.582813 32.195644 -65.729553 
88.639603 28.009520 15.588881 
-27.720566 67.663673 6.990899 
42.670036 31.016003 -44.418747 
79.436859 10.901387 27.970638 
30.517559 73.255661 -19.731657 
-27.553461 13.776216 -68.588951 
-59.865425 13.082919 46.690750 
51.753567 37.529499 18.066061 
32.424263 42.799339 -20.049980 
35.096771 59.535282 -54.942352 
-7.516257 80.000000 -24.367107 
-36.149513 18.041080 -76.065025 
1.418472 50.224121 -47.493229 
-17.892750 54.122280 27.041080 
11.475853 19.561193 -60.675495 
65.667648 24.653196 -25.132124 
22.575439 14.893116 -67.354584 
52.094711 25.969084 43.753830 
-55.800049 17.914089 32.659649 
-18.516306 30.244839 -44.364910 
38.087952 68.811127 -48.366684 
21.338778 41.572155 32.528904 
15.021208 30.244839 45.666859 
69.435913 24.653196 11.068765 
-86.963356 10.411786 -0.351174 
-65.667648 24.653196 25.132124 
58.634327 40.670708 -52.893940 
37.255486 26.704885 36.098835 
-25.302099 80.000000 -3.170764 
81.099197 36.730465 -19.967497 
57.005466 12.302706 53.894928 
-10.496777 61.614204 36.280479 
10.970233 71.875648 -59.708805 
26.694180 46.461811 24.147007 
45.211945 28.642511 -20.700163 
-31.965893 51.070877 -10.714105 
63.620281 12.302706 45.899303 
21.835253 34.388229 -83.894485 
-84.071640 33.628010 25.351000 
-5.984782 74.672005 -42.418682 
77.022835 10.901387 -34.059551 
-58.009056 46.024006 45.836685 
12.214041 56.758064 28.975128 
47.634037 42.121330 -3.647045 
34.468517 46.461811 10.372006 
-4.657432 52.243725 -69.159744 
54.942352 59.535282 35.096771 
30.882742 60.728283 27.102581 
37.657654 34.992561 -31.653191 
37.606438 10.000000 -81.766472 
13.459432 14.787229 70.012856 
33.277531 48.868790 10.013624 
48.055962 21.451458 -64.581757 
8.288306 11.368032 81.628860 
-20.017216 56.758064 -24.249781 
7.283941 64.876205 28.217531 
38.594505 27.025572 -34.109810 
-29.621420 46.461811 -20.450640 
-58.205070 44.060062 48.321049 
-22.484003 44.402504 51.070000 
-11.885068 47.161587 -33.580307 
53.036209 48.824532 25.874681 
32.815792 51.070877 -7.728788 
-12.377991 -0.000000 -16.341217 
71.961853 42.845852 26.777206 
-23.730261 24.877941 -48.593147 
-16.237526 31.774752 -58.407291 
69.799782 14.893116 13.201574 
-85.322212 10.000000 28.637735 
-43.530666 25.300592 -31.191408 
-49.644310 41.649624 41.167610 
-54.082615 10.368080 68.459854 
-16.754208 72.600822 28.790880 
-18.152039 80.000000 7.124150 
11.068765 24.653196 -69.435913 
28.847662 37.159214 37.104965 
-3.647045 42.121330 -47.634037 
44.924194 60.364365 32.522167 
13.118907 56.758064 -28.576828 
-44.220398 52.094494 25.064022 
-21.883648 4.414214 -7.352515 
14.364661 80.000000 -21.069088 
29.175785 24.877941 45.532330 
33.743267 74.672005 -26.392315 
-1.453703 68.591133 -32.630913 
-40.204353 39.197292 -5.038259 
-6.446152 18.373434 -63.486080 
-22.305805 59.248276 20.985264 
-61.979187 43.941399 8.581653 
-22.093391 68.315361 -57.626827 
18.815369 22.924219 -53.435810 
43.825672 11.562416 68.395241 
-4.417462 10.790812 -84.670845 
-30.781813 5.000000 84.572334 
-22.047430 67.663673 18.199265 
12.560301 32.413616 -44.252632 
48.183628 22.924219 -29.794994 
28.661617 56.758064 12.932614 
-31.674841 13.082919 68.997101 
8.961106 5.000000 89.552773 
11.662577 69.702209 25.737539 
86.636185 5.000000 -24.375643 
-10.754567 56.758064 29.547930 
-23.661896 64.876205 17.011745 
33.093792 61.828312 -43.781883 
0.000000 15.041561 -70.680901 
-47.998707 61.519073 20.887466 
7.078461 0.009631 19.447910 
17.785934 25.300592 -50.512211 
-57.924660 13.151393 -48.757084 
-70.364830 5.000000 -56.114082 
37.335251 43.994331 -2.129626 
0.000000 56.142750 31.662489 
17.097887 35.834301 68.261673 
27.406744 74.519119 -4.112155 
-9.828171 22.686724 72.896240 
-63.941463 11.597329 49.869766 
-26.684378 56.158024 -51.078770 
41.760555 36.561161 -7.816968 
63.038902 39.435097 21.261089 
-39.474827 34.609192 19.597143 
80.088463 5.000000 -41.058960 
38.291882 64.831871 10.551652 
-36.633022 20.924736 -46.969719 
57.521427 10.416196 65.186226 
71.083954 26.147045 -26.386890 
19.271902 28.352959 46.175312 
0.000000 25.300592 -53.552059 
-2.741026 77.970772 -27.392431 
72.321632 10.368080 -48.798168 
75.484070 11.597329 29.625315 
-45.286137 71.843468 9.609946 
0.000000 11.832911 -80.160942 
-15.965401 48.868790 30.867018 
-62.289314 65.327858 -7.473586 
-9.678926 64.876205 27.488237 
19.499559 43.994331 31.909615 
8.114384 77.970772 -26.306185 
-70.690567 13.952818 -19.889242 
24.605165 70.530571 31.170420 
-23.356962 62.018932 -52.946701 
-61.669678 10.000000 -65.550369 
20.580635 5.000000 -13.292383 
6.598526 22.924219 -56.266006 
-50.478729 27.025572 10.242710 
26.392315 74.672005 33.743267 
-21.645170 71.080658 17.867214 
44.959568 22.686724 -58.215912 
0.000000 19.561193 -61.751202 
20.442678 -0.000000 1.531967 
50.627121 60.364365 -22.644409 
-59.704079 17.914089 24.813723 
34.617531 46.461811 -9.863260 
-64.310776 10.932714 -54.132488 
-5.491328 74.519119 -27.164034 
-64.245995 42.045116 -24.662655 
-19.271902 28.352959 -46.175312 
-34.966450 63.990887 45.197498 
-28.090488 67.663673 -5.312891 
-25.797792 74.519119 -10.124887 
67.969994 42.045116 -10.764511 
-11.654851 39.085007 -38.889881 
-7.329492 16.908915 89.726799 
-38.729637 21.046057 45.011272 
-56.651138 22.924219 -0.228768 
-79.166626 26.956423 27.938480 
-73.074417 5.000000 52.536930 
-22.469994 56.758064 -21.996368 
28.394363 48.043446 -66.497238 
34.959133 5.000000 82.932861 
-9.804207 -0.000000 18.003542 
70.376335 13.952818 -20.974016 
26.563551 64.876205 11.985930 
-49.650452 21.046057 32.570415 
69.633308 38.042007 22.590485 
-35.530872 62.861526 52.873180 
13.050191 65.138527 -25.993038 
10.984741 80.000000 16.111656 
44.493519 21.046057 -39.323357 
44.985119 25.300592 29.054470 
-16.271927 36.536011 -67.586456 
11.632391 28.221487 -48.810486 
10.630152 5.000000 -22.073738 
-44.044674 34.609192 -1.541681 
-16.416550 64.876205 -24.078657 
-49.084568 28.642511 -7.957500 
-49.569328 33.949356 47.924908 
-42.662159 68.535789 -11.660438 
46.949322 27.025572 21.184341 
90.000000 10.000000 -0.000000 
-21.462486 54.122280 24.304983 
30.893324 56.158024 -48.648735 
-9.960533 -0.000000 7.552336 
75.709396 42.845852 -12.791185 
-35.715889 46.461811 -4.475781 
74.204048 10.368080 -45.885071 
-64.033569 17.914089 8.944271 
7.582171 19.556194 -76.293274 
41.674713 10.901387 -73.183258 
-44.975712 19.561193 42.313072 
10.764511 42.045116 67.969994 
-78.339867 12.330984 1.341684 
-67.472145 36.009251 -19.426912 
-20.051233 13.952818 70.644791 
5.939247 44.545185 55.390575 
11.515491 75.000000 4.862455 
11.515491 -0.000000 4.862455 
49.582298 27.025572 13.950295 
21.667307 74.519119 -17.279100 
-57.865875 59.535282 30.033087 
-18.042912 24.877535 -50.978798 
-20.634069 37.225777 61.420319 
-13.121171 75.000000 11.579502 
27.533627 27.254539 78.870667 
57.761387 62.401096 -27.318811 
-32.087479 51.070877 10.344281 
36.088924 21.048986 -47.148354 
8.315446 22.879749 56.100201 
13.233084 60.664330 38.906971 
-39.808659 49.696655 -23.325291 
-4.183154 71.080658 -27.753414 
11.552313 34.118069 42.963219 
-25.763319 19.561193 56.120068 
23.584293 5.000000 6.635592 
20.254286 34.040451 -74.872940 
-48.813015 25.300592 -22.025270 
-40.674751 10.790677 -74.392380 
-50.922039 22.924219 -24.826389 
63.554955 62.861526 4.334049 
-57.281746 17.914089 29.984991 
6.396677 58.329033 -46.752731 
9.903110 66.402779 -52.660988 
24.036945 30.244839 41.633209 
68.379311 10.901387 -49.161377 
31.224970 51.331718 -62.564339 
-25.202642 59.248276 -17.399914 
20.640900 77.970772 18.215702 
-8.866001 64.843987 53.210186 
-67.480309 5.000000 -59.551723 
9.239660 64.608284 -44.462753 
10.335923 -0.000000 -7.029843 
-4.772476 12.330984 78.205872 
-5.454811 77.970772 -26.983395 
-47.245865 36.327999 7.234681 
3.962314 44.425232 49.246223 
8.548275 57.941494 -36.785397 
3.403448 75.000000 -12.027740 
-71.239571 12.330984 32.616840 
-12.744722 44.060062 -74.567596 
-41.522449 37.529499 35.786873 
-35.756481 52.756367 14.273410 
-19.911354 37.789341 -79.763535 
-74.872940 34.040451 -20.254286 
44.590733 33.685364 -41.861557 
54.522408 12.330984 -56.269371 
-55.633602 21.046057 -20.758177 
40.848583 34.609192 16.543983 
-12.653053 1.609819 18.558620 
-8.315107 10.000000 -89.615059 
-28.334789 41.572155 26.657322 
-87.191551 10.368080 -3.051937 
14.498731 48.868790 -31.582489 
-18.614996 39.197292 35.989666 
76.764656 10.901387 34.637531 
-75.124657 40.670708 -24.331848 
-9.708277 17.103769 -65.496941 
-13.083907 25.854855 67.782692 
-6.608387 56.758064 30.741991 
-31.322308 35.235973 -37.587479 
-84.596222 10.368080 21.334473 
-23.737280 80.000000 9.316196 
47.107227 27.025572 -20.830849 
-36.260612 43.994331 9.144629 
-57.524456 16.406416 35.571022 
29.676767 11.368032 76.493507 
-26.132055 32.195644 -86.197060 
12.522463 54.122280 -29.909170 
-7.011413 -0.000000 19.263699 
-67.480309 5.000000 59.551723 
80.146645 19.336544 7.610954 
-3.700224 11.597329 81.005013 
8.315107 10.000000 89.615059 
-57.691807 50.117043 40.983620 
28.264904 64.876205 7.097888 
-41.820839 27.025572 30.067135 
64.229652 17.624483 44.135803 
-29.326674 59.248276 -8.824762 
-25.350763 54.122280 20.216560 
47.307156 29.419302 -52.611103 
48.317600 14.893116 -52.073990 
-43.928955 11.597329 68.159744 
-46.941689 11.562416 -66.295372 
87.000992 10.368080 -6.519823 
-45.921276 37.122631 41.654049 
-62.222809 52.243725 -30.546417 
1.110035 70.412804 -30.624907 
-0.971995 80.000000 -19.475760 
-34.735641 48.868790 1.049819 
-21.920225 10.000000 87.289772 
-73.183258 10.901387 -41.674713 
-3.046181 72.188545 -37.110958 
38.924335 13.082919 -65.182755 
-47.924908 33.949356 -49.569328 
-8.658381 48.043446 -71.785484 
51.697060 10.932714 66.284363 
-53.666283 41.890358 -21.310291 
13.138956 42.528759 75.960197 
-26.939274 64.297501 21.380108 
-58.323788 51.331718 38.569824 
23.257238 36.730465 -80.217712 
-54.737862 14.106624 -48.336201 
8.937196 0.002409 -18.558279 
26.975452 42.121330 39.428764 
-15.787488 64.876205 24.495714 
-59.937279 40.503582 9.086122 
-30.284914 46.932682 -44.759933 
-16.719524 33.949356 -66.890747 
83.042908 22.227654 10.174575 
-16.230944 41.572155 35.355759 
-67.462112 10.000000 -59.572338 
-51.363403 27.025572 3.849155 
-29.385719 69.031799 25.002937 
13.568685 27.501619 -72.830475 
27.545065 66.998810 14.633263 
-27.861858 62.135506 10.578959 
48.648735 56.158024 30.893324 
-9.321696 71.080658 26.473700 
-23.933142 36.561161 35.103474 
29.011009 48.120037 44.603813 
20.749384 30.498169 -43.086540 
-27.938480 26.956423 -79.166626 
18.265566 54.122280 -26.790663 
74.803673 10.901387 38.690834 
-32.683670 34.609192 -29.564976 
-57.521427 10.416196 -65.186226 
20.639982 32.413616 -41.110191 
-62.991531 13.151393 -42.006981 
-27.280190 21.046057 52.742683 
-31.429314 68.535789 31.116293 
31.674841 13.082919 -68.997101 
30.097273 46.461811 -19.743641 
-41.196014 36.561161 10.389297 
-34.709961 48.868790 -1.698681 
13.786506 12.330984 -77.128899 
-18.242373 -0.000000 9.352319 
-48.401127 28.642511 11.399452 
6.688596 17.103769 65.873840 
81.066841 10.368080 -32.246662 
-41.149990 14.893116 57.904827 
-43.188583 18.864628 -45.784786 
21.656727 1.901865 -6.093258 
23.661896 64.876205 -17.011745 
5.705393 54.122280 -31.918943 
-73.729164 11.597329 33.756695 
7.041089 28.642511 -49.224380 
34.041267 30.881557 -33.050987 
5.702928 60.364365 -55.166576 
25.428698 80.000000 1.905617 
-46.473038 10.901387 70.234093 
-55.154854 11.597329 59.442795 
-61.536587 17.914089 19.838011 
-34.997482 34.609192 -26.785931 
26.013723 25.300592 -46.809284 
54.901566 10.416196 67.407539 
35.897923 39.197292 -18.791307 
-43.481907 45.676392 -21.725698 
-42.778492 20.924736 -41.450371 
34.847771 72.299965 -34.401333 
-14.527307 12.752238 -75.567688 
-22.527393 74.519119 -16.141748 
-32.563393 28.352959 -37.989353 
27.236862 43.994331 -25.624393 
12.699219 34.609192 -42.202366 
7.629778 1.144890 -20.962643 
-35.989666 39.197292 -18.614996 
45.197498 63.990887 34.966450 
30.966541 56.758064 -5.460237 
-41.272690 30.498169 24.156818 
-59.572338 10.000000 67.462112 
42.477997 32.413616 -17.654360 
15.922663 31.745512 -55.381386 
-32.163334 54.122280 4.109814 
-57.577702 56.158024 -2.430037 
38.831146 41.572155 2.369652 
-6.203629 10.368080 87.024109 
18.516306 30.244839 44.364910 
33.128273 48.703049 48.942120 
28.991076 72.016235 15.394662 
57.850883 5.000000 68.944000 
-17.357515 36.327999 44.533459 
28.052851 17.914089 -58.252342 
22.226425 64.876205 18.848629 
24.880377 53.599163 -32.498116 
25.794025 39.197292 31.248077 
15.286796 35.070065 62.183849 
34.460899 61.121803 -7.368869 
35.062893 18.864628 52.269436 
15.750859 54.122280 -28.342211 
-38.876892 28.642511 -31.003286 
85.483665 33.628014 20.081215 
46.050182 22.924219 32.996738 
-26.743298 54.589634 41.697002 
86.963356 10.411786 0.351174 
42.897930 34.609192 -10.103337 
-15.540986 51.070877 -29.918022 
-23.635998 51.070877 -24.040588 
-28.575453 67.663673 0.863639 
52.872555 68.056580 -18.400738 
53.481483 42.045116 -43.307335 
27.783451 24.750538 74.489861 
-52.872555 68.056580 18.400738 
16.169355 27.727335 54.344120 
56.814331 16.406416 36.694584 
-20.632322 10.000000 -87.603127 
75.054588 10.000000 49.666985 
-12.884470 24.279032 79.379875 
6.245627 62.018932 -57.531666 
35.602516 46.411377 49.133064 
67.553169 16.406416 3.306004 
12.839135 24.794678 -74.061737 
9.599444 71.080658 26.374258 
76.866936 11.597329 -25.825918 
-35.828144 69.122322 -34.764393 
39.562843 48.018841 55.954273 
-30.592882 59.248276 1.416268 
-47.418983 47.456093 1.462015 
-39.564835 28.642511 30.120432 
-32.354797 46.461811 -15.774168 
18.769184 46.461811 -30.714409 
68.165527 27.994431 58.856224 
-4.009269 12.752238 -76.846886 
36.269810 43.994331 9.108082 
-13.797954 22.924219 54.945614 
10.864038 61.147789 -33.515076 
-58.194195 21.046057 11.808267 
65.563309 19.352621 46.654079 
-58.933617 17.914089 -26.591860 
-66.548866 32.238842 -60.590691 
-18.941969 37.122631 59.034103 
0.000000 11.066673 -83.410431 
-20.188559 -0.000000 3.559788 
-59.269867 21.046057 -3.616915 
-33.128273 48.703049 -48.942120 
-19.743641 46.461811 -30.097273 
1.399019 71.080658 28.032009 
43.247131 17.539858 49.009861 
-15.951352 75.000000 7.197524 
-34.713669 16.311426 -58.278854 
58.298050 17.914089 -27.957745 
-50.816673 19.561193 -35.083851 
-60.517914 19.561193 12.279776 
-49.384724 43.941399 38.421524 
-11.662577 69.702209 -25.737539 
-22.590485 38.042007 69.633308 
30.604490 54.122280 -10.711473 
-17.785255 54.122280 -27.111902 
25.389025 16.406416 -62.687782 
-40.954994 72.512131 -13.955388 
27.614403 59.248276 -13.242921 
79.325912 10.368080 -36.319149 
54.952869 23.780022 -71.275345 
31.655758 21.587355 73.660652 
30.638048 13.952818 -66.738655 
2.817792 19.561193 -61.686878 
4.028262 22.924219 -56.508202 
-60.734982 14.893116 -36.844986 
-5.821799 74.675667 27.082815 
53.830444 12.302706 57.066360 
35.194469 15.164898 60.958611 
-28.024080 62.861526 -57.207230 
-14.504605 59.248276 26.973074 
-61.303413 17.914089 -20.547249 
-30.246048 64.650032 33.854904 
47.326912 28.642511 -15.257132 
-25.178888 67.663673 -13.539793 
46.623440 30.498169 10.641496 
73.214508 19.336544 -33.482044 
57.761715 19.572296 43.287464 
-11.523421 -0.000000 -4.843631 
32.527527 30.498169 -35.056335 
1.757122 13.952818 -73.414238 
-61.566853 11.597329 52.773354 
-45.000000 10.000000 77.942284 
-50.853214 14.893116 49.600822 
67.462112 10.000000 59.572338 
43.391117 48.043446 57.838860 
18.400738 68.056580 52.872555 
-67.761841 54.667881 2.473197 
44.882332 16.311426 50.862953 
32.941898 48.868790 -11.067889 
15.951352 75.000000 -7.197524 
5.508696 41.572155 -38.511395 
27.861858 62.135506 -10.578959 
-73.074417 5.000000 -52.536930 
-48.579788 37.225777 42.874519 
-33.816345 56.731060 57.416416 
-7.073026 14.893116 70.684250 
-44.708195 30.498169 16.975397 
-52.865948 11.562416 -61.674873 
-46.287060 34.875362 44.653427 
57.613293 74.472778 -17.137819 
48.153202 27.025572 -18.283443 
3.137380 27.025572 -51.411789 
42.662159 68.535789 11.660438 
28.543385 61.167339 -30.956528 
14.641355 67.014954 -27.537138 
63.941463 11.597329 -49.869766 
-34.764393 69.122322 35.828144 
42.301388 36.561161 -3.954959 
8.362725 17.914089 -64.112114 
-74.879845 11.597329 31.120949 
21.662474 43.994331 -30.482676 
32.354797 46.461811 15.774168 
-57.207230 62.861526 28.024080 
-3.132114 46.461811 35.858711 
28.024319 39.197292 29.264511 
30.690117 22.924219 -47.618492 
23.460340 51.070877 -24.212038 
52.865948 11.562416 61.674873 
51.502365 25.300592 -14.674105 
-45.590874 39.462429 38.710255 
45.997589 22.924219 -33.070015 
-36.399605 10.368080 79.289024 
17.743444 39.239288 -36.394047 
55.520161 22.924219 -11.265675 
-6.277416 53.088753 -32.236992 
23.356962 62.018932 52.946701 
-17.080713 71.080658 -22.271059 
-48.212982 21.046057 34.662773 
31.818390 34.609192 30.494263 
-11.629580 12.058958 -78.459015 
0.000000 37.252079 -41.951630 
20.828833 24.877941 49.905701 
-48.279034 19.561193 38.501244 
-10.742335 1.609819 -19.726236 
8.825940 10.348852 86.923843 
-25.310820 48.868790 23.812376 
43.808380 27.025572 -27.089499 
-67.040268 18.541466 -48.361710 
-77.013756 12.330984 14.415853 
48.391983 28.291546 43.194141 
57.626827 68.315361 -22.093391 
2.538980 80.000000 -25.373285 
-22.388636 10.348852 -84.453545 
-15.540147 62.135506 -25.430323 
12.810560 10.348852 86.426506 
32.403168 36.561161 27.478788 
9.204332 74.519119 -26.140385 
45.286137 71.843468 -9.609946 
-13.165980 37.073711 -60.639194 
-21.782497 36.561161 36.477005 
-86.120560 10.368080 -13.961707 
-10.448377 21.046057 58.453663 
34.028286 16.811056 72.599274 
20.465561 67.663673 -19.961544 
-12.560301 32.413616 44.252632 
17.907047 18.373434 61.248451 
18.242373 -0.000000 -9.352319 
-51.697060 10.932714 -66.284363 
-26.246544 44.060062 70.949791 
-22.443350 47.456093 41.797050 
15.487939 71.080658 -23.406719 
-54.522408 12.330984 56.269371 
10.210825 43.994331 -35.974926 
25.296774 64.876205 -14.469212 
9.422884 25.300592 -52.716526 
-34.959133 5.000000 -82.932861 
63.778748 26.956423 54.591072 
6.797609 75.000000 16.125834 
-24.925043 32.197872 -38.898537 
-36.534828 39.197292 17.520851 
34.064632 13.082919 -67.849068 
-41.336441 41.521824 -49.669632 
-37.648933 14.893116 60.239925 
-19.437023 10.790812 -82.527985 
13.358747 13.082919 -74.735794 
-57.131512 41.890358 8.377887 
-24.833349 48.868790 -24.309908 
-32.568775 10.348852 -81.073593 
-43.468258 10.416196 -75.289230 
-16.519114 41.665215 -35.155247 
30.579624 39.197292 26.583090 
38.054451 36.561161 -18.892002 
-46.255726 42.788914 -20.490938 
-27.406744 74.519119 4.112155 
11.094506 12.330984 -77.561890 
59.937279 40.503582 -9.086122 
-78.733063 10.901387 29.894409 
14.663649 29.419302 -69.216125 
27.354374 17.103828 60.297787 
-42.649265 53.506226 -26.334627 
-80.763992 16.889442 39.713341 
-31.116293 68.535789 -31.429314 
8.999083 30.654755 46.811146 
-60.889622 11.562416 -53.768509 
-22.576897 12.330984 75.028122 
-46.284531 17.914089 45.144657 
22.351391 67.663673 -17.824638 
-54.380589 38.042007 49.008972 
7.592966 78.000000 -15.766955 
-64.428017 5.000000 62.841312 
-15.387881 26.956423 82.529549 
23.665648 39.197289 32.889351 
-14.743963 31.016003 59.802780 
-19.191992 32.413616 41.805790 
59.170666 42.845852 -48.932190 
-32.552780 10.000000 -83.906593 
-83.843719 10.901387 -7.924760 
50.209282 18.864628 37.954288 
9.761339 1.901865 20.269629 
-58.049271 11.597329 56.619663 
35.457287 43.994331 11.884325 
-55.025032 13.952818 48.631104 
-25.296774 64.876205 14.469212 
36.297962 44.408279 20.658398 
48.316761 14.106624 54.755024 
-9.960533 75.000000 7.552336 
46.609894 20.924721 37.089745 
5.728994 22.879749 56.423023 
-60.700508 16.830421 27.791561 
17.785255 54.122280 27.111902 
-14.005829 74.519119 -23.913935 
-65.165794 10.416196 -57.544575 
54.342396 5.000000 -71.741928 
23.821915 10.368080 -83.929710 
3.449760 17.103769 66.122604 
0.000000 34.647076 -44.039753 
-18.724632 77.970772 20.180355 
9.714569 51.070877 -32.283703 
-40.555962 45.676392 26.793587 
-72.183655 32.695595 -18.819798 
-12.015537 17.914089 63.528931 
11.600613 36.561161 -40.871445 
28.901621 22.085716 68.956093 
24.729815 54.122280 20.971571 
-26.107613 11.368032 -77.784058 
-58.604416 10.901387 60.482174 
24.891907 33.053692 85.127777 
-78.596550 10.000000 43.847256 
-16.834551 32.413616 42.809517 
19.731657 73.255661 30.517559 
31.028625 26.704885 41.573086 
-11.663920 68.541954 42.660591 
8.963191 46.478828 73.006302 
38.418262 39.197292 12.876765 
48.973896 40.113953 19.286911 
-0.826526 52.636597 50.527416 
-59.162708 31.016003 17.132744 
-19.986023 -0.000000 -4.561679 
77.650108 11.597329 23.365887 
-26.694180 46.461811 -24.147007 
-28.684795 12.752238 -71.405190 
-1.672889 30.498169 47.793182 
-63.433411 28.339062 -13.238131 
-37.555573 39.197292 -15.210290 
-64.843117 31.983938 18.786524 
-15.021208 30.244839 -45.666859 
57.577702 56.158024 2.430037 
89.301529 5.000000 11.190933 
-13.274262 36.564869 -40.355869 
-52.008625 10.000000 -73.451363 
57.288811 18.955986 -25.680042 
34.422600 25.300592 -41.023258 
49.008972 38.042007 54.380589 
-75.583450 13.082919 -7.144015 
-11.108627 36.649757 -54.526577 
-42.548416 36.351154 -45.948822 
-52.011833 61.519073 -5.910278 
-66.983727 16.406416 9.356352 
-39.449364 12.330984 67.695511 
-9.968245 22.924006 55.767555 
63.744560 13.952818 -36.460522 
34.968819 41.572155 17.048601 
78.253693 10.901387 -31.127649 
-83.778641 5.000000 -32.880692 
71.630859 10.954246 43.781590 
53.102978 32.695595 52.390247 
1.844268 46.987587 47.710400 
-44.023918 71.843468 -14.320611 
-20.129452 63.322609 -50.513069 
-45.492584 10.368080 74.445312 
28.112434 69.339417 15.509265 
-48.994499 17.539858 -43.264534 
-36.358967 68.356903 -13.743377 
-20.022116 2.000000 -10.264740 
33.186489 51.400776 5.033041 
-56.319500 39.462429 -20.127728 
46.332790 14.893116 -53.847595 
11.349679 38.852322 59.314735 
-75.046066 10.901387 38.218571 
40.129227 39.197292 -5.605289 
58.868046 48.824532 -4.109972 
-18.819798 32.695595 72.183655 
-18.469271 60.169167 -24.081560 
25.606627 67.663673 -12.712322 
12.877553 10.901387 -83.227036 
17.364185 75.000000 2.176015 
-41.219845 28.642511 27.812603 
6.096980 54.737038 -39.897915 
31.307713 56.758064 -2.927108 
19.061443 48.868790 29.057327 
0.000000 80.000000 25.500000 
20.071205 0.116912 -6.743566 
32.250153 32.413616 32.802200 
26.195765 12.752238 72.355377 
26.677711 74.519119 7.505944 
36.308994 30.498169 -31.123039 
-25.428698 80.000000 1.905617 
-48.969971 28.642511 8.634727 
-15.951352 78.000000 -7.197524 
-26.937962 28.642511 41.796684 
0.000000 65.586983 28.990103 
-4.531292 41.572155 38.638588 
43.307335 42.045116 53.481483 
-50.209282 18.864628 -37.954288 
7.823919 63.322609 -53.810329 
-35.152557 14.893116 61.729965 
-51.070000 44.402504 -22.484003 
-28.112434 69.339417 -15.509265 
-64.550301 17.914089 3.681989 
-24.408266 74.519119 -13.125396 
-6.479280 0.656882 -21.005308 
29.754276 62.135506 -1.697202 
-35.464306 46.052307 -50.310390 
66.479385 16.406416 -12.443972 
69.862999 19.556194 -31.580282 
-26.896879 48.868790 -22.005106 
-4.222276 21.046057 59.229820 
-6.916332 21.046057 58.975960 
-50.207336 65.327858 -37.616974 
-26.182478 61.598385 -27.226292 
-75.973228 11.597329 -28.347361 
-64.228943 20.626881 26.415422 
-20.837246 0.656882 7.000942 
59.547485 33.685364 -13.957807 
-32.277832 40.533146 -41.124039 
-7.424320 41.665215 -38.126789 
-17.713177 56.758064 -25.980457 
-59.547485 33.685364 13.957807 
16.362886 36.564869 39.205334 
74.612991 10.901387 -39.057293 
63.172768 10.416196 59.725704 
39.694267 53.526688 -19.277773 
-89.972023 5.000000 -2.243762 
-29.742723 10.348852 -82.152435 
-11.884325 43.994331 35.457287 
-7.293505 -0.000000 10.151590 
-68.235077 13.952818 27.142458 
-46.572746 15.164898 -52.778618 
0.752382 56.758064 -31.435247 
12.450416 10.000000 89.134659 
37.789043 16.311426 56.333401 
60.170170 35.080303 -61.040241 
-23.792627 10.790812 -81.379219 
-9.972861 -0.000000 -7.536049 
-76.292252 10.368080 -42.322254 
54.456158 45.902798 -4.712140 
31.131939 51.070877 -12.938804 
-13.724348 41.665215 -36.337513 
-34.064632 13.082919 67.849068 
-59.443203 19.561193 -16.724724 
-65.243492 25.854855 22.560352 
-23.899214 39.197292 32.720047 
-6.646952 50.117043 -70.454384 
-48.422367 47.114910 -23.698055 
-61.814533 34.875362 -17.759056 
23.635998 51.070877 24.040588 
27.439589 28.642511 -41.469090 
46.929169 5.000000 76.796181 
41.599159 11.652556 -69.346664 
21.645170 71.080658 -17.867214 
-61.648804 16.406416 -27.817001 
-70.144829 10.000000 -56.388851 
-80.645363 10.901387 -24.267195 
-51.459694 10.368080 70.452682 
-52.094711 25.969084 -43.753830 
46.752731 58.329033 6.396677 
57.160748 21.046057 16.082541 
-28.847662 37.159214 -37.104965 
-56.106899 22.924219 7.837067 
59.959328 53.993122 32.523876 
44.391941 25.300592 -29.952938 
20.944660 3.000000 -8.220173 
34.421738 20.924736 48.613544 
-29.836884 27.025572 41.985420 
-14.268299 11.597329 79.824303 
-28.490372 72.512131 -32.563217 
-2.741026 77.970772 27.392431 
-72.978119 16.402805 36.064480 
52.637825 25.300592 -9.853034 
-34.960670 43.994331 13.274329 
30.763739 39.197292 -26.369802 
-56.590992 22.924219 2.619826 
49.274582 13.151393 57.485085 
-53.728539 58.079639 -3.395592 
-66.479385 16.406416 12.443972 
89.748344 5.000000 6.725708 
-57.349865 57.153427 33.479359 
21.473564 17.914089 -60.985111 
31.072161 16.406416 -60.073967 
-18.163811 12.330984 76.216866 
30.567547 32.197865 34.640705 
-89.832672 10.000000 -5.485576 
-16.836088 35.042255 54.598118 
10.324938 69.769775 42.663937 
83.778641 5.000000 -32.880692 
58.253841 14.106624 44.035347 
48.430634 10.416196 72.197174 
4.448767 34.647076 43.814476 
20.022116 2.000000 10.264740 
-63.778748 26.956423 -54.591072 
-42.199108 14.106624 -59.597462 
-9.666842 56.758064 -29.921448 
-24.880377 53.599163 32.498116 
-11.475853 19.561193 60.675495 
79.032921 37.789341 22.638029 
-42.609570 25.300592 32.438366 
-46.929169 5.000000 76.796181 
23.160992 32.413616 -39.744499 
-77.484032 12.330984 11.625838 
-18.732433 64.876205 22.324444 
3.046181 72.188545 37.110958 
23.325291 49.696655 -39.808659 
-22.226425 64.876205 -18.848629 
-87.000992 10.368080 -6.519823 
-6.740576 66.006645 62.125656 
-38.310772 24.877941 -38.166794 
-2.381040 32.743675 -45.638126 
0.000000 1.901865 22.497591 
32.568775 10.348852 81.073593 
-3.863850 80.000000 19.113363 
26.126740 71.080658 10.253989 
10.630152 5.000000 22.073738 
0.000000 57.037136 66.469231 
-33.528450 61.121803 -10.848823 
24.929613 71.080658 12.894386 
34.323540 26.704885 38.897194 
-61.385685 12.302706 -48.847557 
-39.145870 10.368080 77.969749 
20.658585 42.121330 -43.075809 
-7.015105 71.080658 -27.176077 
73.487320 16.432436 -34.842918 
69.824516 14.893116 -13.070131 
62.238686 17.914089 17.511251 
25.837925 46.052307 -55.868183 
-17.877075 21.344030 -56.151356 
26.887262 67.663673 -9.714808 
-71.417717 12.330984 -32.224903 
-37.995350 52.513775 16.724009 
80.460167 11.597329 10.082967 
16.344204 14.787229 69.396133 
-17.024137 13.952818 71.434708 
-38.919857 13.952818 62.273453 
-26.994928 28.352959 -42.128841 
-31.224970 51.331718 62.564339 
-24.062595 41.572155 -30.569014 
-59.027382 11.562416 -55.806515 
-52.660988 66.402779 -9.903110 
25.214975 13.082919 -71.610756 
54.380589 38.042007 -49.008972 
-17.364185 75.000000 -2.176015 
15.832791 80.000000 -11.383001 
-35.225227 64.008911 -11.874520 
-54.420227 28.430603 -47.698853 
-30.897789 34.609192 -31.426685 
-33.821869 28.642511 36.451305 
57.677845 14.893116 -41.467545 
-36.088924 21.048986 47.148354 
76.293274 19.556194 7.582171 
4.125289 57.064831 -48.203827 
46.421753 13.952818 -56.901310 
-44.451550 15.164898 -54.577126 
-18.066061 37.529499 51.753567 
-22.535696 41.572155 31.711443 
-29.676767 11.368032 -76.493507 
86.567856 10.368080 10.848360 
39.805267 36.561161 14.852262 
-72.830475 27.501619 -13.568685 
24.431494 5.000000 -1.830887 
42.574799 70.949745 -9.487283 
30.397902 43.994331 21.781273 
22.934963 20.937794 54.951973 
50.816673 19.561193 35.083851 
45.085751 32.413616 9.128618 
-18.183090 12.058958 -77.203888 
-29.008940 62.135506 6.832197 
39.049538 5.000000 -81.087196 
70.250885 14.893116 -10.540565 
25.338980 51.027225 -44.779343 
59.891644 19.561193 15.040002 
-14.156341 19.561193 -60.106644 
-46.288082 28.642511 -18.166733 
-58.223457 22.684418 -44.962521 
-8.114384 77.970772 26.306185 
-3.051937 10.368080 87.191551 
72.729195 13.952818 -10.158885 
-56.388851 10.000000 70.144829 
-60.185852 17.914089 -23.621206 
18.888130 41.665215 33.941288 
-32.930317 32.413616 32.119324 
-25.709167 34.118069 -36.308853 
0.187017 44.501221 41.713348 
-13.177146 -0.000000 15.703911 
-27.885916 64.831871 -28.283939 
-23.737280 80.000000 -9.316196 
44.975712 19.561193 -42.313072 
2.741026 77.970772 27.392431 
25.516684 59.248276 16.936029 
-11.288602 25.326273 52.316364 
-34.413975 71.843468 30.965527 
75.590660 13.082919 -7.067332 
36.533161 34.609192 -24.650318 
-22.061729 26.704885 -46.950794 
-28.384779 14.787229 -65.400764 
-75.602333 5.000000 48.829163 
54.248749 22.924219 16.324125 
44.015129 53.526688 3.152093 
-8.870974 50.092873 -32.991280 
57.194458 71.875648 -20.353901 
6.627532 67.663673 -27.809679 
32.280972 54.122280 3.051141 
-14.419257 47.646622 -32.295586 
18.329243 26.704885 48.529743 
39.295921 24.877941 37.151714 
62.239563 48.018841 28.676399 
-52.569874 13.952818 51.275208 
-12.260080 25.423412 76.362526 
17.833153 5.000000 88.215523 
78.257698 12.330984 3.829876 
7.610954 19.336544 -80.146645 
52.011833 61.519073 5.910278 
-10.566577 75.000000 -13.949819 
36.814316 65.806358 -50.583508 
19.121971 34.609192 -39.707180 
-52.390247 32.695595 53.102978 
-32.419136 66.853859 2.222834 
-30.690117 22.924219 47.618492 
-15.487939 71.080658 23.406719 
89.972023 5.000000 -2.243762 
-16.779156 43.994331 33.420296 
-65.876816 11.562416 -47.527298 
-49.831234 52.240780 -27.387272 
5.985353 75.000000 -16.444620 
-71.205795 13.952818 17.957518 
75.779350 13.082919 4.624399 
42.270172 32.657391 -42.005787 
-54.348839 13.082919 53.010365 
71.417717 12.330984 32.224903 
36.827812 43.994331 6.493737 
12.416572 44.301224 35.082024 
17.696011 30.200058 62.123989 
-45.796505 32.413616 -4.328605 
66.803040 22.238373 50.325508 
-8.627529 32.743656 -44.878414 
-79.939903 10.000000 -41.347454 
-83.418083 10.000000 -33.784950 
-27.315582 77.970772 -3.423087 
7.312457 30.498169 -47.260075 
-2.483581 30.654755 -47.603558 
39.808659 49.696655 23.325291 
-42.088428 61.519073 -31.124367 
-40.128426 10.348852 -77.610321 
16.881069 48.868790 -30.375917 
26.878551 54.122280 -18.135986 
31.507729 45.720570 44.826515 
-29.565285 30.244839 -37.907688 
-32.765072 36.561161 27.046244 
2.522108 47.743347 -35.228107 
-6.234746 62.004265 57.538696 
-11.646640 60.215496 28.009865 
20.658398 44.408279 -36.297962 
41.879536 35.042255 -38.865311 
-14.315477 19.561193 60.068943 
25.492075 80.000000 -0.635733 
-13.287971 59.248276 -27.592754 
11.629580 12.058958 78.459015 
42.885662 28.642511 25.168161 
46.867348 30.498169 -9.509919 
-68.831604 20.626881 -9.238044 
-25.162600 13.776216 -69.501663 
-59.221191 14.106624 -42.725548 
37.950249 69.031799 -6.960319 
17.640957 12.752238 74.902039 
61.979187 43.941399 -8.581653 
-48.576462 10.932714 -68.604149 
12.498903 78.985382 -23.383802 
-23.037359 34.388229 -83.572380 
33.928993 43.495148 45.049309 
70.629089 14.893116 7.604124 
31.929144 27.025572 -40.417137 
89.301529 5.000000 -11.190933 
-23.266037 71.080658 15.698483 
25.532219 67.663673 12.861113 
-33.852676 25.300592 41.494808 
-57.125504 37.789341 -59.121571 
-25.626238 77.970772 -10.057557 
53.452621 25.300592 3.261921 
-79.032921 37.789341 -22.638029 
-6.096980 54.737038 39.897915 
53.551620 25.300592 0.216251 
56.917900 17.914089 -30.670025 
14.700454 78.000000 -9.494559 
0.000000 5.000000 -90.000000 
-6.597531 1.326220 21.388670 
-15.414257 32.197872 -43.551746 
32.750736 10.368080 -80.864517 
-14.700454 75.000000 9.494559 
1.553492 75.000000 12.403090 
-31.250191 24.877941 -44.134396 
28.631268 59.248276 -10.871098 
-23.580690 28.352959 -44.130676 
6.797609 78.000000 16.125834 
23.698055 47.114910 -48.422367 
-21.095604 30.244839 -43.198082 
20.636303 61.808487 47.976551 
-8.548275 57.941494 36.785397 
51.905842 12.302706 58.822357 
-71.630859 10.954246 -43.781590 
-55.078575 15.164898 -43.828682 
-13.659764 55.882023 -37.417503 
35.686329 39.197292 19.190104 
-84.558586 28.009520 30.819435 
-11.717222 5.000000 -21.516428 
-10.566577 78.000000 13.949819 
18.268604 3.000000 -13.134233 
-35.509739 14.106624 -63.809719 
61.669678 10.000000 65.550369 
52.738483 25.300592 9.299217 
8.258965 67.225044 38.175507 
7.145475 67.663673 27.681124 
-1.399019 71.080658 -28.032009 
48.784901 10.901387 -68.648407 
-27.181595 39.197292 30.048876 
-4.719450 39.197292 40.243023 
84.215912 10.901387 -0.500266 
-3.809466 62.135506 -29.558167 
5.884283 61.482754 -52.030151 
-87.000992 10.368080 6.519823 
-80.088463 5.000000 41.058960 
54.082615 10.368080 -68.459854 
-22.141188 11.597329 78.008156 
14.320611 71.843468 -44.023918 
30.239376 52.756367 23.829315 
-89.748344 5.000000 6.725708 
50.853214 14.893116 -49.600822 
22.920155 36.564869 35.769665 
-63.377575 13.952818 37.094761 
7.851961 25.300592 52.973293 
-26.547108 26.704885 -44.568466 
15.179092 17.103769 64.449165 
59.060505 11.597329 -55.564026 
-17.753521 -0.000000 -10.250000 
-42.574799 70.949745 9.487283 
-24.662655 42.045116 64.245995 
4.815312 30.654755 47.424461 
-21.658958 63.990887 -52.880581 
42.380554 10.368080 -76.259880 
64.816742 16.406416 -19.317110 
-1.873318 25.300592 53.519283 
10.161901 10.368080 -86.651115 
48.551456 48.057278 -31.576717 
-57.642185 13.082919 49.409245 
-28.120651 69.702209 -2.768682 
-6.285292 48.018841 -68.239243 
36.095592 10.348852 79.566071 
-28.052851 17.914089 58.252342 
18.199265 67.663673 22.047430 
37.683998 11.368032 72.882675 
12.192776 69.122322 -48.410278 
50.850838 10.901387 -67.132431 
-34.919689 30.535995 32.619186 
56.651138 22.924219 0.228768 
-57.677845 14.893116 41.467545 
-57.626827 68.315361 22.093391 
60.874111 13.952818 -41.074089 
-55.381386 31.745512 -15.922663 
71.275345 23.780022 54.952869 
11.124839 21.344030 57.868839 
-16.538095 66.998810 -26.445311 
62.628357 10.000000 -64.635048 
-22.153208 4.990369 9.995908 
8.738978 75.000000 -8.937575 
43.899471 55.688828 -21.727278 
2.741026 77.970772 -27.392431 
13.340490 10.368080 -86.218979 
71.610756 13.082919 25.214975 
-77.942284 10.000000 -45.000000 
12.115537 35.339085 57.997086 
75.777893 10.000000 -48.556259 
-41.929832 32.413616 -18.919460 
