-81.434372 -186.208237 -34.983112 
-75.385391 -164.894989 -93.133720 
-58.603916 -19.435083 -99.333740 
-16.561789 -210.573898 -18.117237 
-67.194580 -29.678122 -71.169342 
39.391788 -183.032822 -28.575703 
-10.239095 -154.461792 -23.377384 
6.404045 -179.010010 -22.878996 
-35.328831 -59.217144 -10.518796 
76.506531 -46.240326 -42.690201 
-100.092888 -171.825745 -99.893288 
-39.043682 -162.369034 -22.678869 
50.636112 -30.807707 -25.451002 
-39.064041 -29.733395 -15.635334 
40.861019 -220.148636 -96.331154 
-74.380165 -30.908733 -65.744164 
-24.481174 -159.756378 -22.963192 
-38.959751 -210.436142 -41.745064 
5.062942 -21.587990 -39.708641 
40.719643 -216.791016 -95.410904 
82.033882 -45.532036 -58.489525 
-56.260387 -233.442429 -32.819717 
-30.835159 -36.102615 -24.367464 
-49.105522 -189.655319 -63.977226 
-61.125378 -112.855888 -10.826348 
48.122658 -77.824593 -22.895702 
-86.373482 -120.626343 -37.538979 
-108.973541 -123.972755 -80.173500 
58.007843 -91.741631 -10.489878 
-40.404995 -146.553497 -8.867218 
60.653839 -203.037949 -55.668293 
49.917347 -23.084118 -43.838688 
-71.459679 -32.234173 -78.164459 
91.209122 -87.246315 -98.581383 
-65.854836 -190.075974 -85.167412 
84.172066 -110.313126 -29.776829 
76.572968 -214.437592 -68.122093 
-30.914007 -213.240921 -87.661911 
93.093109 -108.925880 -21.311571 
50.021851 -82.459824 -22.872267 
66.908409 -72.021797 -22.955040 
56.225544 -192.191666 -30.017225 
16.690390 -100.144638 -4.076361 
62.809174 -178.050598 -60.149529 
22.322462 -180.791794 -22.572815 
15.320918 -82.792046 -5.398872 
48.194908 -177.430176 -12.896735 
-108.770630 -109.093842 -67.603859 
-30.041361 -228.417999 -85.048264 
19.770548 -208.949615 -4.659794 
93.800026 -108.221161 -6.024086 
-83.752869 -85.434204 -37.312321 
-30.311071 -195.890991 -31.088608 
-93.485809 -116.988213 -28.135933 
-10.103844 -176.868866 -8.863529 
-107.610191 -128.418320 -58.557381 
73.956398 -124.116013 -12.143933 
-101.513451 -139.971542 -62.352749 
55.538227 -191.657440 -29.561113 
-24.143583 -3.006342 -71.485748 
22.497559 -78.213387 0.114759 
85.815208 -145.431335 -65.733055 
38.092945 -233.562088 -20.656044 
104.460716 -151.624893 -70.456451 
31.182001 -151.743256 -7.745712 
38.831001 -136.478333 -4.047221 
-37.600117 -228.615997 -38.662148 
0.754409 -90.446655 -3.636807 
-105.684517 -99.946846 -82.546310 
81.327888 -37.113289 -79.299728 
68.729385 -88.683624 -22.602623 
-74.607018 -108.883522 -7.870894 
78.107712 -62.838181 -49.135426 
-91.516281 -86.456474 -29.649263 
-35.736271 -98.831940 -24.396833 
92.356628 -139.393250 -38.633438 
99.667793 -172.497971 -79.901146 
-119.182770 -135.978470 -83.180458 
-84.279289 -46.650349 -78.385201 
-86.004021 -78.120132 -51.455444 
-31.535717 -92.509682 -5.929419 
-14.626849 -87.837547 0.549073 
91.522675 -89.454971 -87.823486 
-86.166222 -80.834030 -19.526148 
-33.822651 -122.004150 -16.775642 
65.579659 -220.492355 -56.152470 
80.673431 -31.196341 -97.810417 
103.381088 -109.016914 -47.988949 
-65.499733 -148.767426 -23.009853 
22.907333 -125.047272 -5.270858 
-38.870213 -85.792503 -23.262539 
-42.944435 -190.176086 -76.339500 
-85.830116 -131.857239 -42.521736 
-98.224182 -116.806618 -42.111195 
80.648018 -76.732422 -14.609732 
31.633339 -60.559906 -10.097526 
82.288704 -50.050354 -49.264576 
49.852760 -156.037811 -22.718332 
53.493282 -233.482346 -38.213200 
-24.875570 -109.154579 -5.205986 
74.673477 -165.844162 -92.558907 
-90.969772 -158.823318 -61.797272 
92.492699 -122.136353 -69.934814 
-27.653946 -144.423370 -0.138524 
-3.498608 -17.776024 -51.754265 
-107.333611 -103.451546 -31.472561 
-88.139046 -78.747269 -69.417412 
99.668404 -49.051331 -79.811584 
108.564316 -124.280647 -69.382935 
42.230766 -18.699217 -99.327751 
-76.036674 -164.198395 -97.327927 
-91.063553 -131.376343 -95.261253 
-84.897842 -190.647385 -89.497490 
-62.965755 -42.355839 -5.509405 
58.249752 -17.015635 -71.872864 
-82.570198 -157.807037 -34.425369 
-52.700798 -32.028343 -78.198959 
-41.719509 -134.928101 -4.225755 
63.099678 -131.891403 -22.721432 
93.121498 -97.661766 -95.034737 
89.466057 -84.610703 -25.114954 
76.830177 -43.748306 -47.194805 
27.207457 -32.093266 -12.263108 
-13.254359 -54.910526 -23.137085 
-74.139023 -195.125687 -90.241570 
49.678368 -54.995941 -7.472670 
-57.339649 -42.421177 -15.296815 
-103.978127 -50.264610 -71.171799 
52.107998 -188.738464 -85.527901 
-59.872387 -111.026497 -22.721275 
-65.128464 -68.092911 -23.140057 
89.588493 -98.779465 -46.984680 
-49.767193 -145.251465 -22.826227 
-26.619261 -20.706949 -59.545586 
-4.747874 -17.958780 -7.846567 
-95.323792 -135.844650 -43.867638 
-10.880403 -13.696004 -33.625259 
-71.287994 -111.508675 -11.679890 
76.393448 -30.052328 -55.286598 
-85.057945 -144.880432 -54.292831 
41.871178 -212.913116 -9.521625 
-21.980503 -7.687666 -56.054882 
-14.408748 -66.996254 -2.568835 
-67.914116 -217.233185 -44.145981 
72.321304 -31.758814 -85.660736 
32.297230 -153.949799 -8.568299 
109.623085 -100.722527 -45.370731 
62.575714 -192.990753 -85.346695 
59.268753 -12.138212 -59.263649 
80.489059 -207.540573 -65.946365 
-81.162308 -210.235901 -76.158585 
23.686825 -231.713852 -13.266012 
-63.298840 -40.891285 -67.764755 
26.677006 -41.788883 -22.831846 
103.108620 -110.502693 -54.039902 
40.568256 -198.238724 -48.228642 
-71.363739 -153.657074 -13.373538 
18.678282 -200.502274 -6.584593 
-5.514632 -230.309616 -15.255765 
47.873085 -225.032791 -87.088562 
75.242470 -229.076065 -94.006554 
-89.967590 -84.629410 -26.581083 
-66.688919 -57.981983 -30.083004 
-63.658798 -146.443237 -12.085425 
-61.834755 -52.980495 -3.705900 
-64.090508 -231.748871 -70.261711 
-67.030960 -28.238592 -90.296173 
98.399940 -68.251907 -63.894550 
84.504555 -72.789917 -54.685577 
-59.616886 -233.300278 -79.988083 
53.690380 -112.330711 -22.842796 
31.372646 -0.008049 -78.465759 
64.567856 -225.539490 -64.335144 
5.686468 -34.500675 -23.036243 
-70.968781 -32.625923 -65.300461 
-74.436737 -102.612640 -3.814627 
36.207664 -92.179634 0.060370 
104.761406 -50.506767 -74.568062 
-81.643715 -63.627789 -80.093086 
-24.543024 -22.117655 -18.110020 
23.099918 -231.926437 -18.314112 
-16.406155 -11.535504 -41.853516 
-103.395493 -97.084045 -78.630829 
94.635803 -61.722286 -98.555885 
-17.016115 -203.162384 -18.352722 
73.888969 -75.008362 -25.700994 
71.260437 -170.050110 -84.106590 
-47.091633 -218.720459 -87.068474 
-54.816990 -30.616339 -32.611500 
-16.421047 -89.950813 0.944502 
91.150238 -59.622387 -58.398220 
-59.047253 -22.822966 -58.556206 
-18.545004 -53.370590 -23.118595 
-26.555515 -52.834164 -23.077145 
42.910530 0.008674 -97.344276 
18.013124 -70.899078 -24.282431 
97.194710 -88.103394 -44.749443 
77.822586 -232.091339 -73.286369 
83.914505 -68.548981 -70.200691 
111.075943 -68.820000 -99.069824 
-64.221466 -115.631195 -11.200397 
3.992498 -10.519748 -63.770325 
35.046955 -214.499985 -78.858612 
-109.379196 -64.382149 -99.540306 
-82.980583 -66.277077 -26.557831 
-4.664075 -62.061363 -23.369034 
-72.142052 -33.290398 -41.756500 
-5.348457 -21.681297 -12.101116 
82.822113 -150.673325 -57.885597 
118.142036 -143.509598 -81.189903 
82.337753 -219.641357 -97.520309 
-11.226860 -26.621628 -28.551807 
94.013702 -116.952522 -29.647554 
-22.811058 -109.523216 2.311293 
-74.816078 -164.643661 -66.857697 
12.773346 -183.582718 -22.783695 
84.487503 -184.613358 -69.022873 
-27.804199 -166.210007 -8.973570 
56.699181 -34.565403 -100.548576 
76.966919 -210.428345 -46.874882 
-42.040947 -18.775679 -48.753277 
14.213208 -152.764145 -23.439194 
-23.873203 -144.351501 -0.127013 
-18.029343 -5.717909 -80.055328 
93.772369 -108.866608 -98.515320 
-101.519447 -169.862091 -100.039085 
-41.904148 -26.064833 -67.285309 
75.438942 -55.763657 -56.443596 
59.798248 -9.196478 -78.894707 
-43.313549 -223.978363 -11.982788 
15.301224 -158.357834 -23.146240 
22.533104 -231.978485 -16.978331 
-5.516521 -231.496994 -15.258438 
34.903599 -195.963486 -36.519131 
-81.466537 -200.083252 -63.177151 
-45.466324 -192.748840 -64.799385 
119.291481 -139.728165 -79.198082 
1.814167 -90.597916 -4.001260 
-92.955841 -72.428589 -49.807465 
26.053690 -30.563166 -27.839182 
87.224197 -77.122147 -25.280159 
109.069695 -71.797440 -60.949661 
-42.337673 -6.597298 -97.066833 
2.669310 -231.424072 -4.227243 
-65.362854 -142.156830 -11.998653 
103.330681 -96.998970 -77.230652 
-57.920128 -218.063431 -36.006935 
42.889771 -191.313919 -68.370621 
31.321888 -0.968864 -67.779167 
-93.851784 -156.838837 -81.305374 
32.907734 -32.403431 -28.865757 
-39.853786 -60.117466 -10.737091 
90.169281 -128.414124 -53.687691 
-85.897385 -120.953331 -36.299389 
117.550873 -145.552460 -91.914703 
-93.280472 -156.564514 -73.894821 
92.339447 -120.875114 -61.711208 
65.661201 -217.170395 -86.401917 
-98.814156 -94.465576 -46.388657 
-94.566765 -105.936035 -4.420987 
76.223053 -55.428684 -68.608452 
-96.026367 -97.268875 -37.257572 
105.825989 -109.457642 -60.382526 
105.861130 -61.385254 -99.513962 
73.328560 -32.281437 -39.613495 
43.997173 -193.736435 -61.167759 
-48.380207 -176.705353 -27.523954 
-70.129860 -71.401787 -24.367298 
-84.686378 -146.306030 -55.924110 
67.258278 -45.009430 -3.618427 
48.969009 -233.498016 -32.523315 
20.114145 -18.254683 -64.394447 
-49.511265 -51.280197 -23.001682 
33.503952 -105.085777 -5.457819 
-13.379968 -76.443962 -20.883966 
-88.356667 -49.622288 -80.848557 
3.646427 -74.107285 -6.723095 
-70.081367 -51.216225 -19.886126 
-92.143112 -66.442764 -58.403389 
-49.230030 -36.188145 -40.912701 
-76.464783 -115.799232 -22.958464 
69.307915 -29.795237 -91.822815 
-26.533381 -233.584824 -8.843361 
-14.004580 -207.087219 -5.194383 
48.328564 -179.469833 -13.575344 
-89.924316 -135.638687 -95.365616 
37.614273 -203.274216 -6.288496 
-37.489861 -201.068130 -85.051018 
-76.201233 -39.474522 -23.802441 
64.121979 -206.026169 -74.838524 
78.488037 -229.366516 -100.278046 
-29.149971 -79.569382 -24.323763 
16.556206 -232.998596 -18.282812 
78.031990 -57.326450 -87.295898 
53.772530 -95.032936 -9.833562 
-79.725937 -175.513885 -56.537609 
49.022186 -178.532440 -30.867392 
-14.007993 -233.561447 -5.698545 
3.499217 -145.470093 -10.239210 
-18.955008 -79.378929 -8.381027 
37.284477 -205.925140 -81.822899 
-76.984955 -214.878677 -72.580147 
91.237518 -155.642639 -56.048985 
-41.164249 -177.627701 -9.845197 
42.907326 -26.137356 -83.302719 
45.532387 -20.232672 -54.454086 
-59.798462 -9.737977 -79.143295 
-20.201405 -201.852173 -6.254322 
3.303529 -10.957295 -21.374474 
-35.715542 -114.146889 -7.911432 
-65.374481 -214.814819 -42.983856 
0.409289 -176.562088 -8.854280 
-86.762833 -145.745758 -29.433496 
74.097610 -187.737869 -30.582170 
81.181656 -36.931923 -72.940224 
31.409023 -186.617813 -8.443602 
66.545700 -99.068497 -22.635973 
-61.063080 -169.149551 -14.317844 
-58.867519 -38.217556 -54.098358 
65.329605 -227.294052 -86.575020 
108.857246 -142.495026 -58.706326 
-83.750641 -189.738831 -65.914780 
-45.183910 -233.399521 -72.878288 
-97.160912 -167.152603 -99.988258 
-36.958340 -33.810432 -29.778517 
-7.564456 -23.741919 -34.617580 
116.640190 -129.903351 -86.279678 
81.939720 -45.916073 -56.442139 
-89.166626 -113.701874 -44.228882 
85.515442 -81.310143 -46.280598 
51.522099 -233.470932 -46.011692 
44.329941 -193.594589 -57.979568 
98.256012 -167.843628 -99.985718 
78.243828 -174.166885 -100.007629 
64.421288 -177.373352 -86.943748 
-56.950665 -207.515778 -31.778378 
32.151386 -231.794983 -100.261459 
28.012754 -153.760178 -23.050543 
73.995514 -200.189377 -85.330597 
-111.511230 -141.576508 -58.638119 
-41.493095 -220.590912 -8.978327 
-57.247269 -233.463974 -47.987324 
104.752571 -142.669708 -88.524292 
-55.408325 -107.710526 -3.879563 
-55.513336 -109.535278 -7.104404 
38.009933 -155.886566 -9.398316 
84.207848 -190.069717 -75.350624 
35.161495 -144.265671 -5.019775 
-0.161001 -48.165287 -3.641417 
74.885658 -201.556519 -95.714218 
-51.910198 -113.177063 -8.195956 
8.474163 -38.218090 -22.922659 
-47.520679 -28.171930 -94.076767 
-104.069748 -148.879990 -58.674000 
111.692482 -106.034897 -51.241871 
-10.903232 -65.971062 -2.695771 
-86.985428 -141.509216 -59.752815 
5.217105 -196.120529 -15.986027 
39.392124 -24.422504 -88.094582 
73.102631 -209.011032 -88.528572 
-46.708912 -213.869766 -85.262505 
-95.072983 -168.959335 -65.252213 
89.646217 -50.518799 -68.411324 
-4.231653 -7.305642 -35.117023 
-61.418556 -56.387630 -25.518215 
-93.872948 -166.197922 -70.077179 
0.227121 -193.562164 -8.044614 
-40.787392 -49.546677 -22.911058 
-96.825478 -112.309952 -37.508190 
33.851696 -180.810577 -24.035652 
-27.886995 -53.569874 -10.501923 
37.828575 -140.651138 -23.049789 
54.477253 -223.207718 -29.924931 
-32.466946 -181.776154 -8.728705 
41.994465 -31.020559 -42.962063 
-63.325485 -126.415611 -11.263947 
51.712444 -178.702759 -35.266850 
-39.330502 -231.174545 -69.471756 
-84.204910 -87.378967 -37.117821 
59.988651 -38.026237 -65.951279 
-46.182709 -28.492500 -61.961987 
-82.840782 -127.867439 -31.447561 
-80.575157 -149.265106 -18.902115 
55.634300 -141.805481 -22.751436 
-13.138041 -125.210922 -2.714009 
41.012478 -230.824219 -62.941383 
26.075556 -29.170162 -30.486631 
-79.712837 -156.727142 -60.535412 
-87.553223 -82.468338 -21.545954 
108.399323 -130.345078 -58.614250 
-46.495453 -233.518387 -36.927334 
48.265846 -152.528198 -10.652454 
47.974724 -176.228302 -12.525065 
112.280075 -65.562988 -95.932350 
5.050692 -87.997070 -0.605176 
-73.499542 -165.783844 -59.477020 
-82.950523 -108.612228 -10.560781 
40.743053 -202.283524 -63.619354 
-51.857609 -96.770493 -22.848639 
-79.142006 -30.473568 -72.483955 
-41.046078 -25.488312 -25.136915 
86.385201 -145.226547 -86.349487 
-93.198692 -109.866028 -64.543976 
37.047211 -215.551315 -100.159340 
67.498390 -153.284988 -25.036821 
-4.242915 -53.284214 -23.151394 
13.389412 -25.655586 -31.739134 
86.570297 -73.326950 -88.393456 
-66.418472 -43.376869 -79.782349 
55.743484 -85.460274 -22.794521 
45.315479 -58.671047 -9.433619 
-77.931198 -232.209030 -100.317619 
79.773567 -169.521713 -45.780003 
53.216835 -3.190838 -99.259415 
-80.911522 -183.577759 -50.374126 
-69.545502 -172.010269 -84.559212 
87.769463 -147.087540 -33.723515 
-69.841362 -158.777267 -33.204704 
-5.035791 -18.647251 -48.669159 
-75.087639 -40.863495 -21.476183 
86.769264 -91.739693 -41.710438 
21.499205 -70.049431 -1.807486 
69.612404 -169.293137 -43.407772 
-72.496834 -219.839691 -99.341225 
-88.946983 -65.565819 -43.731937 
-96.186081 -81.227524 -46.778149 
-83.209610 -66.468430 -81.120468 
45.501915 -233.380783 -74.228554 
13.307867 -0.118434 -59.209976 
12.044047 -158.785461 -23.180571 
42.935417 -27.494886 -55.639950 
23.574512 -134.931427 -0.096382 
68.349945 -173.061676 -76.813606 
96.292534 -59.754162 -92.674911 
-59.762589 -8.115246 -81.565071 
75.014275 -179.932709 -34.627193 
-99.534821 -77.085091 -58.389736 
-25.873564 -32.709534 -25.113630 
-54.745087 -7.411868 -58.154766 
-90.936272 -130.038956 -69.654327 
-39.833416 -43.092556 -11.899137 
-36.287697 -89.255898 -24.357182 
-59.130821 -45.930401 -9.795236 
13.385850 -186.414642 -8.582623 
75.695328 -130.033707 -12.433967 
6.346592 -88.273605 1.992653 
-64.265724 -226.529175 -52.469021 
35.008896 -68.759163 -23.067249 
36.324581 -220.174713 -35.790802 
65.160858 -116.334938 -11.301101 
53.784370 -101.063393 -7.258194 
42.145462 -18.824869 -50.338333 
24.498739 -188.539291 -26.859846 
59.150116 -201.429596 -30.803135 
-65.149544 -55.309422 -13.318464 
92.306908 -117.634041 -25.228771 
95.084976 -95.105278 -99.811089 
59.299999 -7.464388 -60.139313 
59.225094 -32.265415 -99.387741 
-72.472771 -218.245804 -100.141296 
-33.695580 -168.507172 -9.191014 
61.423882 -179.551453 -100.603806 
-21.094452 -80.793076 -11.852199 
5.357978 -74.302010 -9.337233 
-49.771744 -233.388245 -58.798302 
-79.329231 -208.331833 -53.265690 
-29.391586 -20.734196 -78.011169 
-23.496571 -29.056667 -29.053686 
-12.061720 -18.462805 -52.408253 
63.927551 -206.400406 -82.876595 
-118.381462 -143.479630 -89.083282 
-66.213219 -20.615784 -95.125603 
110.222557 -135.175980 -79.652527 
-37.564121 -203.715637 -74.552406 
-71.586151 -96.804230 -11.795818 
38.265999 -194.654556 -68.794098 
95.841721 -136.902817 -45.770546 
74.856941 -202.603302 -91.379471 
-105.542313 -110.047310 -67.621071 
-20.025314 -53.389099 -23.124563 
-56.104374 -190.199554 -81.471176 
68.646011 -170.895172 -54.482948 
-41.888767 -12.592966 -92.049362 
-62.094532 -192.757507 -79.170883 
41.693375 -200.890915 -9.274686 
-63.182133 -40.173367 -82.217804 
-3.863183 -145.450516 -13.404879 
56.518951 -233.437119 -57.555408 
-92.071190 -92.295013 -86.729256 
93.513542 -115.516014 -76.395027 
-33.399971 -214.417572 -81.406372 
-27.130690 -73.714462 -0.509336 
79.578651 -37.398235 -46.261768 
-86.072495 -100.691093 -6.143403 
14.849741 -26.877535 -12.550073 
83.181725 -177.891418 -43.105492 
72.686363 -98.420357 -22.551214 
43.914539 -0.017012 -96.768105 
79.297890 -149.989120 -39.229698 
93.264587 -50.780411 -61.504307 
-22.181295 -138.086441 -6.423083 
-40.424721 -233.260712 -90.912971 
-39.355171 -64.949745 -23.046677 
106.327087 -111.414803 -82.731766 
2.853233 -164.846085 -23.095543 
75.289680 -216.591171 -100.190979 
37.191105 -206.487564 -79.011978 
-14.532509 -37.016552 -11.470259 
38.715408 -205.923752 -40.895748 
98.987137 -130.988663 -50.743912 
98.795921 -58.487320 -98.237839 
23.453840 -229.883347 -21.924314 
-67.322151 -89.622810 -11.433773 
0.610850 -19.143881 -46.779861 
35.327671 -116.482018 -9.868331 
-74.910538 -30.683870 -59.658829 
-0.204857 -233.638351 -10.575292 
-104.728172 -75.828850 -80.723930 
104.574211 -100.389091 -52.632290 
-59.219437 -14.054853 -85.383598 
-47.501072 -2.923587 -99.266884 
38.610126 -232.310471 -71.327377 
35.642540 -212.110016 -78.175430 
-93.758499 -100.456459 -23.685556 
-49.934486 -179.687073 -14.478608 
42.570744 -190.480576 -85.046623 
41.398529 -202.975510 -54.391514 
-33.069340 -21.542877 -26.282021 
94.468567 -64.527092 -91.822769 
-37.400215 -221.075363 -74.503845 
-62.454735 -32.047119 -42.786606 
-14.924026 -16.878454 -61.792709 
-62.695858 -91.743423 -22.655558 
-33.627411 -179.884338 -23.607153 
93.856384 -72.997162 -99.558197 
110.454300 -124.805099 -80.721153 
-30.556221 -128.706100 -10.758280 
8.388088 -46.518059 -10.722815 
-93.712280 -107.600456 -91.730591 
72.851273 -145.738449 -25.813166 
-107.493996 -65.418495 -58.533844 
24.790194 -186.643936 -8.491813 
112.853905 -150.321655 -81.736595 
-24.581184 -130.562576 -5.563894 
26.547274 -231.921051 -11.406211 
-101.703552 -51.320072 -58.333176 
-97.280281 -85.563850 -46.650368 
-58.353989 -181.095779 -82.534912 
93.264626 -146.691605 -48.963032 
71.514175 -44.591858 -22.667831 
79.682419 -112.177650 -12.569199 
-52.802898 -84.565590 -10.219977 
10.660069 -205.376328 -5.599025 
72.402199 -165.264404 -51.837170 
-34.817112 -159.630325 -22.821779 
-8.040330 -150.773102 -0.116656 
88.664726 -145.998322 -34.945995 
17.422316 -10.510983 -45.322197 
83.468239 -177.762863 -89.779701 
-85.716515 -232.414764 -74.557884 
46.643715 -85.080513 -8.373385 
-108.608505 -100.226280 -81.800232 
-82.184135 -193.952164 -71.127304 
-54.572533 -82.718307 -22.824965 
-80.852180 -191.508286 -48.068325 
-98.289276 -108.520782 -24.051315 
46.127357 -37.531525 -32.893295 
-67.589470 -71.782448 -23.209616 
86.272141 -232.400406 -94.976105 
-24.049486 -182.211044 -22.989595 
36.121647 -217.026062 -100.171082 
-94.431946 -64.445633 -91.433388 
-96.271912 -59.620060 -69.071991 
-62.914856 -195.679871 -57.349964 
-69.009178 -172.295624 -25.045033 
-92.294289 -84.584526 -33.203190 
78.307343 -58.157566 -77.904274 
-17.913559 -205.752991 -18.708757 
-31.673096 -197.666534 -29.561676 
4.115407 -145.417496 -16.113625 
87.624649 -141.629745 -78.196609 
62.092392 -22.800356 -92.799385 
-70.868996 -229.855499 -73.288193 
8.527140 -182.972702 -8.786192 
84.007065 -46.912064 -72.052841 
-51.564045 -154.714798 -22.722382 
-43.602993 -22.418255 -36.834068 
78.265709 -58.638866 -65.845474 
-103.086388 -151.713425 -71.244499 
68.173607 -173.642288 -99.881081 
72.359657 -153.769196 -13.680409 
-94.267067 -49.890381 -78.764671 
-88.461510 -185.193481 -93.881218 
-11.110307 -6.838584 -53.130215 
71.618202 -183.239197 -100.038651 
63.736164 -68.892097 -11.840482 
-34.687561 -15.146611 -46.324009 
-54.730591 -148.035660 -22.707745 
-39.902637 -232.655258 -67.814590 
-48.843227 -229.740128 -86.811485 
73.562485 -190.733795 -100.071457 
-68.763908 -200.395294 -36.320404 
-73.426567 -220.780991 -75.612007 
-74.263031 -209.537369 -100.163078 
-1.967458 -73.866051 -23.086264 
78.447990 -208.978790 -48.858387 
10.392291 -62.642086 -3.768308 
-105.463982 -74.857849 -63.087608 
68.362755 -30.075914 -83.413651 
37.351089 -214.343979 -4.647272 
82.587280 -170.029327 -54.455353 
-74.089104 -206.344788 -92.823959 
88.917709 -81.443817 -67.285408 
-81.337700 -32.252316 -88.524361 
-109.411217 -53.422829 -95.205521 
-77.931961 -74.934349 -32.302704 
66.713158 -173.311890 -44.173641 
59.578842 -9.958855 -68.084602 
-70.210861 -171.348907 -90.509842 
83.771812 -55.652626 -43.960094 
-34.238892 -145.890106 -23.112305 
8.048704 -87.842705 2.404115 
23.257097 -124.083099 0.094532 
15.394518 -38.594093 -11.317731 
65.846558 -183.940140 -86.804207 
-43.172810 -122.826500 -1.964791 
-91.460999 -127.814133 -69.791809 
-95.897522 -49.562614 -77.465004 
-32.187855 -70.611427 -4.047196 
-97.072578 -154.512405 -87.439804 
98.348404 -118.433937 -42.847919 
85.992851 -55.942871 -99.489212 
49.601231 -210.685120 -22.039490 
9.107284 -35.311260 -22.920990 
87.005493 -74.853844 -80.295044 
48.270699 -233.505905 -33.215118 
-59.341938 -46.171139 -4.065196 
-30.956995 -21.515514 -74.053192 
91.217911 -80.482101 -102.111710 
80.207527 -145.906570 -38.442253 
61.405323 -181.851669 -87.025368 
-93.753883 -111.129868 -94.088135 
-18.359154 -30.733547 -24.867472 
81.752922 -155.151199 -96.106400 
-41.477192 -191.337219 -85.145554 
55.792648 -69.628181 -11.303389 
-50.829521 -31.164738 -64.788040 
-42.277523 -13.143504 -90.858894 
23.787086 -63.598629 -7.386418 
32.681454 -94.833786 -15.669251 
-47.245884 -233.410019 -18.712095 
-36.311031 -172.711899 -9.192927 
-101.054138 -169.197906 -93.355148 
-60.180477 -14.667231 -93.491898 
87.843018 -91.960121 -44.916626 
87.828384 -125.215042 -44.160095 
-77.827232 -50.350246 -38.326084 
-41.320648 -220.917633 -52.597225 
-62.572914 -207.008240 -38.978333 
-86.340462 -48.247799 -82.814560 
-18.397247 -103.978111 -4.012537 
-18.834543 -188.977386 -8.372222 
-72.732040 -169.961761 -28.562229 
-34.628544 -100.003609 -20.420971 
84.852341 -51.923725 -52.300129 
82.920113 -221.906693 -89.847687 
55.904942 -181.944473 -38.114113 
-65.947479 -32.829662 -47.553642 
-62.978806 -145.414825 -22.681101 
70.362053 -120.274910 -11.781446 
81.207901 -37.431400 -80.917717 
86.877304 -172.672272 -85.009827 
-60.744198 -180.367310 -67.445213 
-23.951408 -229.635727 -18.262875 
-117.711845 -131.576187 -77.564102 
-47.497353 -0.028898 -85.908577 
38.311626 -192.829559 -84.665680 
-47.769871 -191.206787 -39.042221 
105.097229 -131.461380 -58.577400 
-105.959534 -122.173309 -69.286674 
-55.711273 -226.348465 -31.865635 
-64.518044 -139.735123 -22.727226 
69.603600 -31.712399 -73.975784 
-25.495628 -232.226181 -20.637985 
-18.042385 -95.780571 -5.128814 
-83.170822 -124.725685 -30.782644 
15.655274 -42.713726 -22.958189 
103.905487 -76.475449 -73.150299 
73.937798 -170.150055 -31.869419 
-16.399477 -27.604763 -28.286789 
-18.297514 -2.163294 -59.927376 
1.808772 -190.112137 -22.604458 
-74.647354 -179.005707 -36.937580 
34.107395 -28.472324 -39.575317 
-35.088783 -23.936613 -22.177498 
50.192547 -128.805145 -9.484453 
44.367039 -193.567596 -52.908615 
-31.324175 -163.579407 -9.107304 
-48.044075 -87.445290 -22.884991 
37.156528 -198.317001 -75.800980 
-98.523422 -173.622635 -74.142517 
-80.399490 -37.451275 -62.630157 
0.000000 -153.896225 -23.716444 
59.287930 -41.957546 -45.835094 
86.098839 -129.874756 -41.836231 
-69.781349 -30.592447 -90.679214 
-78.985298 -41.474941 -58.700958 
-29.802284 -221.740845 -100.212967 
13.429966 -143.781464 -24.583492 
43.141693 -194.800735 -11.257098 
83.734489 -181.967819 -83.092850 
36.791927 -233.397751 -36.902042 
-63.483334 -136.438461 -22.735956 
98.782158 -57.661655 -99.320297 
-99.191879 -49.553104 -70.740242 
30.443209 -21.948011 -22.586557 
48.976845 -65.554222 -3.731329 
79.627655 -42.180363 -63.004726 
-83.429840 -44.398727 -89.622147 
-63.370438 -42.031445 -15.825807 
83.010445 -53.615761 -45.248329 
-8.095164 -127.220833 -4.810435 
-116.305153 -146.401657 -65.917923 
-77.663170 -46.401875 -44.964363 
-26.768236 -47.207531 -22.996416 
95.616158 -59.741573 -58.328743 
46.350590 -28.895344 -58.779789 
85.412292 -74.883347 -22.679201 
7.100837 -29.050161 -25.037527 
110.843269 -56.393265 -78.173950 
81.852142 -64.178162 -78.040169 
59.276516 -118.234131 -22.799147 
112.762901 -126.282738 -78.895317 
5.516521 -231.496994 -15.258438 
74.734436 -197.776154 -96.080841 
-19.035200 -19.714991 -20.040167 
-21.840391 -211.000427 -20.743464 
30.647648 -192.510330 -35.614574 
23.828934 -230.491486 -4.226943 
-65.779289 -84.099678 -11.429693 
107.295479 -133.175461 -85.628372 
34.243736 -120.752899 -15.979856 
-28.754654 -69.067436 -3.895579 
-48.317410 -190.168137 -65.696800 
37.921333 -23.804173 -78.745033 
-75.034416 -160.028915 -19.876095 
63.597229 -233.258499 -68.488281 
5.177753 -17.381844 -13.300090 
64.687439 -202.776413 -34.231541 
-118.877464 -133.839188 -66.146919 
-95.298286 -122.028030 -101.726334 
30.123175 -199.135895 -27.744162 
-26.669962 -11.038718 -99.291702 
-65.392159 -42.328865 -80.113174 
-93.129097 -168.239120 -99.990601 
-85.362755 -146.420731 -65.061363 
-13.470614 -167.399643 -22.976347 
92.905121 -101.638565 -4.194388 
43.761345 -152.302811 -9.935343 
-10.609893 -56.043671 -9.060516 
54.088741 -74.946823 -10.857992 
46.621838 -195.016495 -67.793678 
-35.311680 -63.185307 -23.114218 
-79.703331 -99.201050 -24.659285 
43.836529 -33.367596 -39.435394 
-18.609705 -104.736763 -4.682326 
-93.740715 -105.857826 -96.434814 
-58.434113 -16.072611 -65.346390 
81.860291 -64.282196 -76.834724 
-111.288422 -57.726509 -60.937744 
-48.666576 -233.495804 -23.983931 
32.744122 -21.560423 -98.004852 
35.581989 -226.291718 -77.799614 
96.306000 -131.463470 -99.821739 
80.848412 -233.318558 -85.283615 
-90.380028 -160.935104 -68.178726 
-102.392189 -78.061127 -70.572670 
102.012154 -49.827400 -69.868706 
53.051586 -51.751396 -8.258683 
-86.623039 -68.647263 -33.385239 
-73.328560 -32.281437 -39.613495 
-44.717579 -70.816422 -8.251026 
89.984650 -172.087738 -63.877117 
83.553932 -151.114349 -78.404762 
-72.600441 -33.220768 -32.853321 
-86.147224 -107.727341 -34.764748 
99.242088 -121.805405 -99.766022 
25.518232 -153.563110 -23.111004 
17.698748 -187.030701 -23.822525 
38.908501 -56.048851 -10.982572 
-50.448555 -103.544250 -3.871526 
25.106325 0.009354 -66.578987 
-43.662399 -16.992800 -99.326889 
30.502075 -20.797821 -89.642891 
-103.002319 -152.017700 -77.395370 
60.299946 -33.799145 -34.873539 
111.115120 -69.049896 -76.240242 
-96.206696 -47.267292 -97.274994 
107.092621 -123.133629 -72.352165 
83.283783 -187.636444 -100.068810 
-50.031559 -189.668198 -57.379784 
98.006325 -107.738304 -102.612488 
-71.171745 -118.610504 -22.658810 
-2.446813 -219.426819 -14.924515 
-96.342552 -135.578262 -45.996834 
38.548389 -227.974228 -40.850067 
86.706299 -77.014336 -58.414005 
53.511715 -188.170135 -85.371704 
67.116768 -48.241879 -48.838585 
-82.256172 -233.341995 -76.869911 
101.468697 -152.633545 -86.831528 
-74.048264 -134.009811 -23.522457 
-26.950470 -139.308167 -24.573360 
8.283722 -154.118683 -23.499889 
-41.262825 -182.666306 -9.807364 
39.362385 -64.896370 -7.547986 
-16.917614 -41.219345 -11.141290 
-26.668705 -151.182510 -5.011121 
-16.168608 -222.712158 -4.192152 
95.412201 -88.352829 -39.568321 
-42.577950 -171.345688 -22.704727 
-54.295231 -232.562897 -68.203148 
-54.764080 -210.842789 -84.342926 
-9.447022 -192.153015 -22.953028 
-78.451492 -152.397934 -18.179682 
44.807598 -114.186920 -0.505702 
-82.814346 -221.734573 -79.344208 
109.075157 -54.136135 -64.941101 
81.874161 -177.839325 -100.028366 
-25.109880 -19.440023 -70.146492 
-83.520439 -182.690231 -100.050026 
-40.301853 -211.371429 -7.053339 
28.764156 -39.506287 -11.633631 
-0.371262 -152.178574 -0.207717 
34.957111 -22.819546 -77.651085 
-59.739090 -133.095428 -22.741495 
-74.846680 -198.843414 -95.253113 
-78.062599 -180.899414 -48.826763 
-19.255547 -111.617935 -3.671767 
22.053431 -5.709156 -99.119415 
-39.548771 -25.726879 -22.709196 
-82.867661 -132.068924 -34.187260 
67.344040 -113.009087 -11.472775 
-14.756371 -229.181381 -17.577427 
-2.545209 -193.212540 -21.113590 
-75.829201 -27.009130 -99.344734 
-17.414795 -141.198166 -14.861950 
-76.981590 -153.928528 -17.313057 
76.912140 -195.286224 -100.104111 
-89.984726 -124.172462 -21.366327 
42.164253 -125.697098 -1.391056 
-45.662579 -204.444778 -73.986603 
-109.266907 -150.768433 -62.106102 
49.422668 -18.483171 -58.196289 
-25.863848 -130.539322 -5.570543 
-74.712883 -233.321396 -81.692451 
83.528038 -45.947800 -77.026558 
-94.156479 -143.721924 -57.900780 
48.894726 -214.038742 -85.250992 
-59.313049 -64.586357 -11.812682 
-38.440037 -24.047642 -84.321381 
-57.263092 -72.653015 -11.223643 
18.640789 -114.951584 -2.770090 
-29.994419 -146.616714 -23.189161 
44.882416 -227.016861 -14.569112 
50.350800 -185.798340 -69.865700 
-66.189850 -184.142868 -93.822556 
-78.410049 -38.340874 -38.494362 
-118.950523 -141.583771 -88.660042 
-112.281898 -59.811317 -86.479843 
60.839489 -43.514866 -14.744787 
39.876106 -231.150986 -5.300440 
-69.271774 -216.289902 -91.464958 
-103.650436 -113.613525 -64.992554 
20.629372 -227.519684 -4.216241 
-8.183353 -134.782211 -5.322908 
70.732460 -161.438980 -15.873013 
-60.571438 -56.584167 -24.913788 
-34.452427 -99.188019 -6.108648 
-66.291122 -174.583618 -59.382393 
-39.885170 -227.431854 -6.466780 
-1.439931 -185.427612 -8.733061 
-111.611961 -57.913700 -99.502930 
81.576981 -43.820263 -75.675247 
-74.957397 -39.966755 -99.421562 
-99.584900 -85.140114 -57.987019 
15.078628 -8.374935 -50.981468 
63.101131 -139.673416 -22.738438 
-110.094200 -70.819824 -86.330772 
-89.449593 -62.996098 -51.313393 
100.645302 -119.970795 -50.224808 
-35.847660 -106.422028 -7.022290 
64.351509 -161.157410 -27.066231 
59.419422 -13.253702 -91.202873 
-79.723869 -208.747543 -60.426746 
-89.615677 -50.225563 -77.402679 
45.449272 -215.827866 -15.504711 
93.119514 -49.786751 -85.567047 
21.470522 -13.499590 -39.004333 
66.901505 -218.336975 -65.449692 
-71.910088 -35.896671 -18.460012 
10.470378 -171.762161 -22.974413 
34.556190 -176.222168 -22.659168 
-80.426422 -176.355881 -62.084690 
-6.505234 -229.683365 -15.405879 
-15.968737 -14.947053 -67.593697 
89.574173 -63.357357 -55.567539 
-45.197319 -163.160248 -22.687387 
101.813683 -92.358505 -56.184624 
96.654541 -175.673218 -87.910011 
-81.713943 -202.626740 -83.683769 
43.343521 -26.358427 -25.919525 
112.375969 -60.968540 -71.124153 
70.519417 -231.228806 -90.890358 
35.107597 -230.113144 -34.122440 
-115.003014 -127.981827 -84.816696 
-83.246239 -45.954079 -73.333481 
73.854439 -165.436554 -60.382397 
-116.039474 -129.044266 -90.715912 
-78.608505 -171.653412 -46.282887 
-25.194967 -135.398041 -14.933051 
-72.843605 -58.601059 -42.692131 
-78.286766 -57.368927 -101.166267 
-107.790985 -108.185043 -38.667320 
-46.867443 -1.290971 -99.257668 
-119.338722 -139.310593 -69.767662 
-106.858116 -69.068504 -58.624439 
-41.341801 -190.518265 -37.898952 
-84.417709 -68.360420 -101.703247 
86.044594 -145.862732 -80.890839 
-105.757866 -120.309456 -86.816597 
1.170411 -136.747147 -5.323422 
-82.131348 -50.075317 -99.462776 
66.749924 -161.324814 -30.770037 
-20.013063 -69.304939 -1.812183 
-7.960063 -46.498131 -23.034618 
-83.804909 -135.065292 -15.643965 
-82.971382 -52.770798 -46.509193 
65.242577 -38.827965 -101.688828 
4.408016 -74.167450 -9.284470 
63.575111 -231.278931 -62.714607 
-53.276043 -213.197189 -85.000412 
-52.169804 -180.341293 -37.502895 
-59.372093 -233.381699 -69.763100 
39.671291 -24.608635 -77.388428 
67.272423 -88.631805 -22.632729 
77.209122 -41.315216 -50.404186 
32.870834 -215.114441 -4.180448 
55.311432 -127.992729 -22.871572 
-61.810837 -35.679642 -100.613747 
-19.867083 -139.368500 -5.674655 
-39.211460 -224.856766 -70.026184 
-0.050688 -226.549042 -14.880873 
-107.312805 -51.638527 -87.852211 
-17.852470 -213.645828 -4.163527 
-78.978279 -233.409943 -98.681847 
-119.135757 -135.789200 -81.941376 
-45.144161 -213.941315 -85.309479 
101.445198 -49.581532 -72.226349 
-60.216248 -154.350388 -22.782343 
-40.010872 -152.718689 -9.462472 
45.277912 -76.779907 -9.685623 
5.273000 -22.001648 -6.966617 
56.716270 -82.609032 -22.803410 
-29.187344 -19.590754 -99.983368 
13.753051 -66.762894 -1.872787 
-79.460938 -139.387970 -31.701420 
-64.994446 -221.943527 -71.641930 
-39.446712 -196.710342 -8.112113 
101.527916 -82.248688 -78.327225 
-78.852913 -226.730728 -91.264290 
91.041260 -156.675278 -56.945015 
-15.578918 -49.714695 -23.104910 
15.849268 -57.163326 -23.177288 
78.239723 -184.348328 -30.890194 
82.601944 -181.530746 -78.436798 
-22.922729 -68.750977 -23.370638 
-24.120512 -10.290685 -50.373661 
-112.085114 -66.472534 -81.193336 
101.701454 -139.960083 -84.057945 
-65.327751 -191.141342 -30.420588 
-32.776344 -40.715294 -11.708030 
-29.061626 -12.526381 -47.871422 
-39.542324 -19.613224 -39.320473 
-60.355297 -212.760269 -39.804485 
40.866688 -159.371216 -22.718185 
14.184345 -213.233932 -17.236015 
7.959692 -167.284897 -23.076355 
-102.813889 -115.834305 -55.249844 
100.570053 -165.057510 -99.974136 
-81.630875 -195.908859 -63.305542 
-72.801529 -214.568817 -69.366943 
-71.145882 -50.620277 -23.030426 
-96.981728 -163.110687 -99.963264 
-82.484962 -64.387444 -96.918556 
-52.234871 -28.430534 -99.357231 
-84.314667 -45.967129 -86.239197 
6.657771 -169.333939 -8.933206 
76.896866 -55.658520 -88.279320 
18.172840 -14.481604 -34.102264 
66.745384 -43.373734 -91.662849 
89.751335 -126.200920 -21.799862 
0.000000 -73.530220 0.135796 
-90.105171 -131.532257 -58.943661 
71.132111 -60.190731 -35.772705 
-27.969664 -21.214518 -58.000889 
-86.791855 -83.403069 -48.102470 
103.499062 -93.580124 -89.199799 
-34.715542 -68.905731 -6.261237 
93.420906 -106.713913 -84.952065 
-5.377245 -131.415146 1.851251 
80.680824 -101.170265 -5.146327 
-105.769417 -151.087387 -60.731533 
82.788750 -221.322708 -93.016090 
-105.704613 -100.332779 -56.422459 
33.896187 -213.470795 -4.179729 
11.335985 -48.079979 -10.559482 
91.017029 -127.708755 -26.067303 
90.579330 -94.664764 -22.294020 
-45.116192 -198.660110 -80.549103 
-84.560745 -192.268677 -98.333679 
-16.291784 -26.196888 -31.519835 
-96.670357 -126.100136 -41.366737 
68.790863 -172.999207 -99.278877 
-38.743149 -145.105927 -23.008963 
81.422043 -32.882286 -75.738510 
-45.823715 -203.047485 -57.754383 
15.667289 -25.100660 -13.233774 
55.532028 -211.503662 -85.693924 
5.105229 -220.632690 -4.192308 
-85.362106 -72.113258 -65.128983 
40.084480 -24.694010 -82.770500 
-47.530704 -118.833595 -3.979069 
-101.528481 -100.164642 -26.221067 
-78.168716 -57.366219 -91.665268 
-76.686874 -67.035103 -38.703815 
58.876640 -41.187527 -17.726274 
74.126472 -45.805077 -37.224297 
57.674904 -57.865753 -7.118402 
-53.028660 -181.237473 -37.764950 
55.758389 -155.836090 -11.892409 
-41.335663 -218.583328 -59.883663 
-50.156651 -189.642044 -44.538849 
-99.185417 -93.898346 -47.676453 
-43.961754 -70.684380 -22.889032 
-75.543892 -42.893299 -99.431511 
-76.634010 -56.101643 -66.636879 
98.132637 -100.239479 -20.770525 
-32.103386 -70.104828 -5.004304 
-56.355190 -116.825073 -10.219800 
48.128761 -191.037460 -56.969822 
38.064529 -23.912483 -88.994926 
84.324570 -57.036350 -99.490852 
-31.321857 -167.553833 -22.734810 
-96.830513 -123.924706 -40.733570 
-7.379992 -152.089417 -24.482304 
-40.393265 -197.590103 -46.348629 
89.351631 -119.714302 -18.483618 
-38.271271 -223.572464 -72.496346 
-90.744583 -53.784725 -58.395973 
55.106155 -195.129669 -55.438469 
-22.540842 -15.905188 -32.830956 
76.357536 -39.667221 -26.167803 
-60.495281 -180.531754 -65.073555 
33.257030 -94.560699 -24.396206 
73.249542 -214.476044 -58.549652 
32.961823 -187.909103 -8.313258 
76.039513 -207.363708 -44.640743 
34.807564 -233.613068 -11.979698 
-28.835239 -37.103474 -11.825671 
68.912582 -214.730652 -88.573799 
96.208183 -166.734238 -82.810875 
83.163452 -150.311890 -59.267727 
-100.448471 -117.293785 -48.789490 
-91.179047 -129.698410 -79.870110 
53.420807 -145.498169 -22.755514 
47.701061 -218.965424 -19.234770 
49.236774 -206.165054 -56.980862 
69.530495 -49.686714 -51.718052 
-92.914764 -148.037582 -54.688942 
62.734684 -199.529449 -31.114685 
-33.603489 -97.054390 -22.539356 
10.761506 -20.705894 -43.859020 
59.394363 -36.692181 -100.565994 
-20.483433 -151.488571 -23.281357 
98.853996 -171.589691 -70.587387 
101.948341 -87.181938 -74.029060 
50.234570 -13.409532 -57.936329 
-73.103531 -197.658218 -39.949261 
32.734173 -21.579222 -99.523766 
41.954086 -192.575150 -85.154533 
57.050114 -100.455765 -22.763760 
-76.505569 -161.704590 -60.177532 
67.802513 -76.797234 -11.826999 
89.377060 -85.463036 -24.202185 
-59.445885 -181.281052 -92.520393 
95.187111 -66.365005 -58.450768 
91.174881 -89.652504 -71.109093 
-81.709373 -182.799637 -36.083393 
-111.133919 -102.013626 -49.052738 
8.741489 -220.552094 -15.749947 
61.178810 -143.800735 -11.781835 
73.936203 -183.316833 -30.161629 
-86.445831 -143.682693 -26.509212 
-45.050079 -199.112976 -79.312057 
12.903006 -84.074318 0.083793 
-78.247421 -138.707077 -13.230152 
-52.480122 -52.311337 -6.997787 
65.858253 -52.179371 -37.928272 
-58.864029 -99.491447 -10.107932 
-32.420708 -125.289986 -11.425764 
-101.189552 -155.902908 -99.930138 
82.050751 -54.690254 -41.275204 
-94.797981 -49.976814 -73.292435 
-102.909233 -151.139023 -99.914352 
-80.700027 -151.060440 -21.068293 
104.367584 -63.183567 -92.196960 
80.466202 -230.956955 -73.234596 
56.207294 -63.034653 -22.820749 
-110.794289 -108.232552 -67.957397 
-109.418816 -134.293991 -96.734818 
-53.359501 -190.366623 -80.721596 
3.798209 -12.345912 -18.602133 
59.854954 -55.598259 -5.186313 
-5.061875 -38.954567 -9.042466 
-78.029709 -113.562035 -12.417867 
57.885147 -36.332802 -68.093689 
18.831287 -51.854160 -23.100222 
96.808823 -109.120567 -32.075615 
72.255608 -110.680313 -11.463193 
101.155205 -137.215744 -77.717430 
-75.736237 -178.660568 -44.107037 
-64.247139 -92.702133 -11.079992 
-13.821443 -76.837158 -7.296358 
7.318063 -213.180939 -15.479407 
-41.924263 -194.830505 -39.190510 
-52.757912 -190.500473 -75.330971 
4.138055 -21.151672 -40.861320 
-101.527344 -151.128677 -61.132908 
-63.477837 -41.096870 -64.800583 
-68.021164 -191.276962 -85.200378 
75.180077 -160.577972 -49.808842 
34.977692 -118.270798 -6.528723 
-101.430748 -94.715591 -53.898296 
-10.402064 -189.266235 -23.194908 
45.012127 -80.999031 -8.730930 
-21.455448 -233.497299 -20.665623 
-83.433296 -172.821823 -65.186096 
72.594101 -50.600254 -70.523491 
5.188745 -74.222450 -18.457417 
63.380257 -56.650814 -27.017300 
-54.485382 -23.833801 -48.634857 
91.907822 -85.957298 -31.075592 
-116.138107 -146.763031 -70.603798 
41.380730 -205.567169 -53.480434 
-43.306355 -233.214264 -92.864532 
110.600479 -139.670410 -74.680481 
-81.483482 -155.276825 -87.029411 
80.242203 -207.780136 -63.626144 
-46.349506 -135.967545 -9.152802 
-57.148159 -231.106766 -33.979252 
-73.594200 -164.634338 -22.956545 
16.803719 -69.497093 -24.278337 
-51.711777 -54.163364 -3.633758 
-46.027763 -218.739273 -87.910225 
5.614157 -3.824178 -54.298386 
44.701752 -224.412735 -14.264993 
11.242318 -196.021194 -18.561312 
-53.790501 -126.908073 -10.271241 
17.297338 -123.859840 0.282280 
-84.300789 -60.978874 -37.503880 
14.940188 -130.292801 1.056281 
90.719971 -161.734055 -74.850533 
-77.854057 -158.512314 -23.847128 
65.869667 -217.970810 -87.631584 
34.701336 -15.067079 -57.149937 
29.317875 -130.948044 -24.438770 
48.417000 -28.696333 -96.816483 
-102.344093 -153.181549 -90.405411 
-79.852890 -142.284866 -14.575571 
12.980724 -3.772399 -71.781059 
-68.335541 -45.037418 -90.908836 
-33.141365 -156.060425 -8.973218 
45.533100 -197.046295 -85.074539 
-76.631348 -68.060310 -14.540550 
-103.395721 -100.434822 -26.974226 
87.685455 -111.146812 -39.231205 
-80.840462 -75.164230 -39.116997 
-37.695843 -229.530396 -38.944164 
84.671600 -156.304993 -37.703514 
-44.302200 -201.795593 -85.592049 
30.258545 -216.499512 -100.186142 
102.352669 -83.443108 -90.935974 
-74.441559 -165.757477 -78.888916 
69.733727 -210.340775 -85.355446 
-45.617813 -149.144150 -10.125300 
99.468727 -65.442993 -90.328812 
51.889061 -233.414764 -58.290554 
-35.633934 -215.639862 -77.737938 
57.781952 -210.601532 -80.367432 
58.238811 -176.326065 -16.598936 
-74.206299 -122.275711 -22.767340 
-56.567074 -168.258560 -13.164137 
48.889938 -206.934677 -20.783146 
-76.711456 -55.098076 -93.642372 
41.410023 -8.761556 -62.408405 
-40.863186 -207.637604 -48.915985 
-81.081871 -79.529442 -35.289238 
-34.101006 -69.379982 -23.088747 
63.970188 -65.893745 -12.034158 
78.487122 -33.367352 -35.872009 
-24.278597 -48.650806 -10.745360 
-73.377678 -42.667538 -18.881607 
10.010698 -200.312271 -6.707854 
93.713257 -74.093277 -56.002590 
-38.138592 -201.458267 -6.768349 
-78.099762 -40.260437 -53.895603 
-27.056505 -19.878769 -25.231876 
-70.396248 -51.726097 -49.541580 
56.283760 -190.271194 -69.969460 
-49.162991 -126.627121 -22.987856 
-14.178148 -124.423592 -2.683786 
24.602594 -182.260666 -8.718164 
60.395630 -180.515366 -68.290260 
49.070122 -26.539753 -33.390877 
-36.399639 -170.262177 -22.645716 
-25.238230 -75.734268 -24.308390 
73.847931 -51.517838 -84.720078 
24.234917 -184.076523 -8.676724 
81.576256 -35.522449 -62.224564 
-18.493847 -140.584732 -15.932845 
-61.328667 -104.612770 -3.878083 
91.959236 -152.012543 -51.776688 
-45.565281 -192.255508 -38.562283 
39.854370 -17.718731 -54.892574 
88.677925 -135.776978 -56.878906 
45.262089 -117.410652 -23.331778 
-99.969841 -137.984894 -99.833618 
80.778587 -155.865463 -70.654419 
63.258484 -109.211220 -6.091486 
96.623413 -141.427460 -58.618446 
-85.235535 -147.617371 -78.040642 
-78.003693 -153.454651 -42.512482 
35.916321 -233.391525 -84.254356 
-76.763779 -73.392868 -31.287350 
109.720352 -71.034622 -98.263748 
-75.240578 -40.024323 -19.194933 
-63.401329 -230.695755 -56.785515 
81.189934 -211.188202 -86.283798 
-26.948870 -232.961212 -10.591142 
-59.257298 -210.191269 -75.830055 
-60.869438 -88.955803 -22.693106 
-117.918007 -143.814499 -69.792770 
-118.805542 -141.821671 -72.364799 
-51.111073 -73.454826 -10.734561 
70.876740 -167.837631 -53.542057 
104.611862 -151.122086 -60.552582 
74.824684 -202.821854 -88.145790 
108.356384 -123.051720 -87.961624 
34.476173 -117.526352 -0.038420 
41.870201 -204.219666 -85.143478 
-102.270790 -162.659500 -94.265251 
56.368092 -100.041489 -9.307040 
-82.400894 -151.568848 -58.257889 
23.249178 -133.243622 -5.571544 
-91.562988 -91.364845 -72.510590 
48.753689 -76.325157 -22.871702 
-70.750168 -215.314987 -50.656509 
-70.721069 -223.953781 -77.717575 
-60.071449 -109.641609 -8.721697 
95.613091 -120.106598 -35.397057 
86.979553 -174.814346 -92.808701 
-85.703743 -172.381592 -73.634605 
-6.088964 -156.752579 -23.300556 
95.203011 -122.720840 -101.356705 
-48.734688 -192.543167 -66.738258 
74.632446 -197.092743 -98.203026 
63.062145 -39.814899 -93.844955 
-55.644398 -130.497803 -22.848043 
37.154663 -197.852585 -79.000626 
59.483662 -24.827084 -54.156578 
-43.960987 -35.900776 -33.558781 
12.326300 -10.728105 -42.762943 
88.661354 -136.943390 -61.282070 
8.574748 -185.599396 -8.686446 
0.626887 -160.487442 -23.185360 
-74.674805 -197.398590 -94.821945 
14.058651 -196.004700 -19.533018 
58.438286 -44.705463 -37.638016 
-78.259727 -160.588120 -83.463959 
9.401779 -20.178329 -44.955769 
91.124229 -86.985008 -99.854118 
-59.570690 -36.796196 -98.806686 
-51.488972 -76.388237 -10.551983 
-13.648641 -127.399521 0.353176 
106.869949 -108.307961 -36.049603 
46.224632 -131.370926 -22.953642 
93.526314 -164.910934 -86.428223 
-14.621833 -76.850693 -24.018391 
-9.527220 -53.686584 -9.700039 
-15.078628 -8.374935 -50.981468 
-41.083614 -223.793518 -62.592346 
-65.238800 -93.879852 -22.644142 
-52.007759 -173.355087 -13.254045 
-89.310989 -122.772926 -47.267834 
-78.905785 -183.994308 -32.212036 
-70.308960 -79.951233 -22.848814 
-95.674866 -153.872620 -73.417961 
60.565258 -32.083572 -39.277618 
40.618233 -220.070175 -97.427605 
38.377926 -196.660034 -85.249107 
54.020916 -122.024757 -9.959543 
46.894531 -75.816032 -10.042392 
-84.477180 -149.247803 -78.346581 
58.411701 -18.329762 -77.176918 
-0.476096 -166.943680 -8.981096 
21.510925 -129.994797 -5.287110 
49.525764 -53.138359 -11.151023 
25.432858 -156.204651 -23.022499 
31.841755 -48.071011 -22.977535 
51.158787 -192.190277 -23.842587 
-28.415916 -200.740982 -6.430663 
-26.420280 -19.809574 -72.241058 
-67.443146 -232.133850 -72.774406 
87.592712 -153.415466 -41.430408 
71.067894 -58.865391 -37.782669 
93.327721 -98.296837 -102.154343 
-43.192219 -49.180904 -22.795427 
48.672432 -208.496368 -79.801712 
66.097946 -174.928391 -61.917961 
5.286312 -11.134647 -35.276428 
-80.289856 -153.850021 -53.128674 
97.424797 -147.151337 -58.647873 
81.108200 -196.402328 -56.419460 
14.493096 -162.877960 -23.044132 
73.380753 -45.668995 -35.077251 
60.791588 -23.592693 -77.843231 
86.735054 -73.851349 -83.977654 
48.280468 -45.178329 -12.202977 
-11.818769 -225.426743 -16.553385 
-89.950394 -129.259323 -24.068216 
110.218880 -58.911736 -99.504059 
63.143524 -44.315590 -3.573466 
32.484859 -95.469742 -5.413779 
51.284737 -0.091504 -79.025131 
80.911522 -183.577759 -50.374126 
-38.816051 -233.273804 -90.768089 
81.249535 -204.509476 -67.943207 
-42.101048 -196.048325 -58.593624 
-49.670807 -130.132141 -9.498816 
-7.000267 -165.144592 -8.911482 
-11.430068 -50.385944 -23.097708 
81.317192 -155.550934 -85.637634 
61.421097 -31.673805 -41.708412 
-11.671837 -32.544411 -23.494461 
-3.602426 -17.372835 -53.170174 
54.136963 -194.306107 -55.944511 
83.436111 -172.085373 -41.081844 
2.664167 -158.222031 -23.261965 
91.241966 -155.684738 -57.052666 
30.925772 -21.147825 -82.957077 
34.061344 -223.075516 -32.175518 
-109.978577 -106.362778 -40.403923 
85.629219 -77.835587 -50.406536 
-92.974121 -97.967003 -84.314453 
52.293560 -33.724304 -21.459463 
-1.322872 -67.689278 -24.275238 
-52.014606 -137.078262 -22.879202 
16.544113 -218.920090 -4.182279 
80.027603 -56.292824 -33.778049 
59.640621 -181.382706 -57.149559 
110.907959 -138.563217 -95.648018 
30.916323 -205.710037 -5.327144 
47.135895 -44.836281 -24.605377 
46.634468 -194.922958 -76.772171 
-40.059658 -55.503113 -23.002060 
41.225697 -191.073227 -76.189125 
91.508835 -181.056183 -95.656311 
85.661789 -85.055519 -43.253189 
59.395824 -204.839462 -55.639633 
65.839432 -48.708927 -44.958931 
31.319582 -231.465637 -17.831337 
-84.778557 -74.145050 -21.794878 
-78.900017 -58.284874 -97.261131 
49.481136 -13.448687 -91.794769 
-5.108850 -4.146975 -66.647682 
-90.589622 -50.189716 -81.664757 
-23.901461 -140.762711 -0.113568 
28.187130 -167.057083 -22.773567 
31.694952 -77.570442 -1.241642 
117.243813 -130.901474 -97.793663 
-104.373253 -62.349766 -92.196327 
41.677357 -176.802567 -24.183838 
-23.730240 -231.075317 -22.136705 
-63.385532 -150.517334 -12.215123 
61.958599 -233.381683 -71.862709 
112.796761 -153.844818 -96.677101 
-90.468849 -133.569504 -93.105003 
-46.805878 -29.701546 -54.903835 
-48.346699 -91.557373 -7.632308 
-23.634289 -97.628021 -5.152121 
70.788795 -226.262253 -84.080132 
67.053642 -43.754265 -89.194588 
29.703188 -23.089273 -49.955711 
31.952972 -126.251152 -19.555420 
-85.407364 -187.669571 -59.872128 
-92.650635 -109.838013 -56.868362 
-23.138765 -2.068678 -68.006920 
-92.311897 -109.185562 -20.454472 
35.858467 -16.206924 -44.617214 
101.504875 -139.604782 -75.711922 
-37.186142 -211.839294 -4.754925 
