-0.050556 -0.099663 0.044386
-0.063113 -0.345062 -0.355048
-0.082545 -0.312756 -0.190942
-0.059728 -0.001889 0.449295
-0.048421 -0.111799 -0.495681
-0.113547 -0.124312 -0.500372
0.033439 0.270442 -0.052438
0.028913 0.264001 -0.482022
-0.048883 -0.110581 0.489216
-0.086799 -0.103984 0.499535
-0.111641 -0.066085 0.499532
0.020212 0.252204 0.325777
0.111560 -0.431735 0.467083
-0.040686 -0.154254 0.041730
0.140383 -0.414193 0.058785
0.133431 -0.409161 -0.211882
0.048639 -0.326545 0.102424
-0.058295 -0.051929 -0.318748
0.007914 -0.266471 -0.286877
-0.042110 0.113344 -0.493257
0.016191 0.245889 0.285902
0.057397 0.454603 -0.012497
-0.133751 -0.193187 -0.025234
0.121448 0.371805 -0.415580
0.035521 -0.308711 -0.007288
-0.116518 -0.241932 0.452103
0.046142 0.446579 -0.473321
0.109657 -0.431216 0.436124
-0.153362 0.082509 -0.210802
-0.037511 -0.378413 -0.149376
-0.097951 0.257608 0.317657
-0.157021 -0.086147 -0.211802
-0.035613 0.220352 -0.500330
0.091978 -0.373666 -0.426470
-0.037930 -0.378248 -0.166837
0.115950 0.359999 0.312253
-0.000784 0.216247 0.414029
-0.158747 -0.061967 -0.296256
-0.051581 -0.362372 0.302472
-0.059388 -0.038076 -0.272238
-0.005713 0.207279 -0.341248
-0.032490 0.143838 0.057380
-0.050226 -0.364152 -0.200845
0.035358 -0.406524 -0.384120
-0.032488 0.362379 -0.293219
0.027036 0.429390 -0.313652
-0.001897 -0.392277 0.377066
-0.144880 0.125653 -0.424715
-0.104702 0.243707 0.395055
0.104265 -0.429764 0.477343
0.038087 -0.312283 0.240660
-0.057804 -0.055395 -0.024454
-0.058987 -0.048981 0.463817
-0.113607 0.034795 -0.500362
-0.037963 0.126389 -0.375805
-0.046417 -0.124753 -0.034295
-0.104230 -0.160794 -0.500373
0.120647 -0.405358 -0.500338
0.079995 -0.361756 0.121213
-0.157560 -0.078295 -0.329807
-0.016217 -0.386765 0.484643
-0.019886 -0.211642 -0.090226
-0.133899 -0.192449 -0.278523
0.137127 -0.438504 -0.403963
-0.063387 -0.344872 0.135325
-0.059489 -0.043944 0.199596
-0.059498 -0.043228 0.223757
-0.128042 -0.213169 0.234608
0.005869 -0.395298 0.484389
-0.095354 -0.288998 0.210602
0.037626 0.276426 0.406734
-0.115957 -0.243041 0.044838
-0.013189 0.191398 0.137629
-0.058603 -0.050113 -0.279008
-0.026906 0.160178 0.056257
-0.042794 -0.375202 -0.020402
-0.061624 -0.347593 0.406130
0.110161 0.386208 0.157845
0.189599 -0.452681 -0.469147
-0.155754 -0.094889 -0.290634
-0.059486 -0.008796 -0.355078
-0.107623 0.237538 0.033305
-0.028047 -0.192069 -0.160504
0.034999 0.387025 0.499598
0.089355 -0.425717 0.381027
0.094618 -0.376097 -0.065278
-0.132399 -0.198326 0.486190
0.117940 -0.396898 0.300462
0.020332 0.422519 0.409370
0.026666 0.260961 -0.253505
-0.031720 0.363361 -0.327064
0.010158 0.235393 0.416536
-0.097262 -0.285470 0.291214
-0.043195 -0.145108 0.411220
0.077359 0.428567 0.483335
-0.134807 0.166367 0.082591
0.099588 0.400082 -0.329374
0.045068 -0.321831 0.455825
-0.019577 0.176605 -0.327687
0.089680 0.335945 -0.478250
-0.005452 0.211463 -0.500324
-0.073458 -0.329682 -0.339152
-0.044220 0.347396 0.263390
-0.112584 0.227378 0.234499
-0.160775 0.000047 0.462199
-0.011261 -0.388643 0.297346
-0.044420 0.105721 0.008559
0.038152 0.277120 0.306286
-0.095813 -0.078847 0.499535
0.014410 0.242494 -0.323916
-0.119673 0.208078 -0.263380
-0.045097 0.102844 0.305044
-0.034979 0.136034 0.018355
-0.151687 0.094437 -0.333869
0.088833 0.335206 -0.345574
0.159151 -0.444465 -0.370068
-0.014850 -0.387221 0.117883
0.001907 0.403241 -0.228419
-0.091360 0.270969 -0.296294
0.169791 -0.434907 0.106665
-0.147649 0.114445 -0.407874
-0.017259 0.379973 0.499585
-0.026234 -0.197719 0.093853
0.064949 -0.345339 0.332268
0.010471 0.235878 0.280546
-0.095890 0.261746 0.021925
0.082208 -0.364275 0.441788
-0.128737 0.182869 -0.467927
-0.160340 -0.040634 -0.080123
0.150229 -0.421208 -0.132758
-0.146431 -0.147441 -0.035338
-0.029643 0.152736 0.068322
0.055622 0.454676 0.456483
-0.057654 -0.056639 0.178568
-0.145221 0.124884 0.289785
-0.160216 0.015053 0.160662
0.108620 0.388116 0.396662
0.072702 0.434663 0.309481
0.180173 -0.450207 -0.011705
0.019383 0.250968 0.093304
-0.151853 0.094209 0.272701
-0.131544 -0.200518 -0.360449
-0.119275 0.209261 -0.118576
0.084005 0.420219 -0.210521
-0.151340 0.097037 -0.283490
0.045396 -0.322014 -0.254990
0.120818 -0.434227 0.399134
-0.055919 0.042183 -0.310660
-0.027837 0.368517 0.435288
0.172459 -0.448079 -0.273899
-0.116994 -0.240445 -0.021673
-0.159942 -0.046413 0.001592
-0.160187 0.012414 -0.339044
-0.005380 0.395699 0.077318
0.000798 0.402065 -0.358847
-0.158292 -0.070471 0.365997
0.145781 -0.440849 -0.376875
-0.122301 -0.227567 0.240792
0.201721 -0.453027 -0.065748
0.044032 0.444896 0.450862
0.117256 -0.396269 0.211211
-0.016101 -0.386693 -0.113718
-0.031554 0.146422 -0.354301
-0.036240 0.357667 0.264884
-0.139250 0.148962 0.147587
-0.044368 -0.137650 0.218732
0.081910 0.422996 -0.383760
0.094798 0.406255 -0.246963
-0.153090 0.084758 -0.037180
0.051734 -0.412876 -0.256965
-0.031080 0.147932 -0.317270
-0.152375 0.090118 0.075024
-0.125041 -0.095962 -0.500373
0.002944 0.263162 -0.500319
-0.102068 0.249171 0.469757
0.070536 -0.420149 -0.214674
0.112954 0.382509 0.382388
-0.147169 0.073300 0.499534
-0.058788 0.014355 -0.083505
-0.014090 -0.224243 -0.381001
-0.073731 -0.062229 -0.500359
-0.139097 0.149408 -0.054825
0.045824 -0.410602 -0.209878
-0.013210 -0.387843 0.056837
0.052856 -0.413420 0.312011
-0.047539 0.343123 0.250302
-0.155908 -0.095109 0.482550
-0.059332 -0.038996 -0.468778
-0.048342 0.087124 0.198437
-0.044899 -0.134358 0.184195
0.174212 -0.437469 0.419062
-0.028303 -0.191746 0.395785
0.045980 -0.410797 0.484618
-0.043592 -0.329379 -0.500371
0.109941 0.354526 0.257530
0.047188 0.289511 -0.142030
-0.093720 -0.291926 -0.034456
-0.139870 -0.172120 0.082808
-0.043012 -0.145367 -0.116581
-0.026622 0.370076 0.414631
-0.075868 -0.325346 -0.011550
-0.117392 -0.239486 0.004760
0.104987 0.392929 0.106376
0.138237 -0.438906 0.214377
0.038607 0.440292 0.206213
0.053773 -0.361498 0.499550
0.108358 -0.388269 -0.190607
-0.151000 0.100599 0.406448
-0.042473 0.112467 -0.179694
-0.059456 -0.025864 -0.204828
-0.031485 -0.182248 0.471663
-0.050155 0.078739 0.456506
-0.042655 -0.375249 -0.383456
0.010417 -0.270973 0.221997
0.028024 -0.298376 -0.459217
-0.056048 0.168526 0.499561
-0.161282 -0.027217 -0.192400
-0.050242 -0.101692 0.114572
-0.057788 0.025539 0.405195
-0.054276 -0.358080 -0.414812
0.106852 0.351633 -0.109003
-0.074430 0.301166 0.393419
-0.142290 0.136126 -0.453429
-0.030801 0.364639 0.132266
-0.035633 0.134029 0.064729
-0.097767 -0.284471 0.187877
0.147700 -0.441389 -0.243457
-0.025853 0.162703 0.278247
0.051352 -0.412740 -0.195653
0.076118 0.430415 -0.163960
-0.149588 0.106766 -0.197024
-0.028117 -0.192041 0.067625
-0.151218 -0.120975 0.202975
-0.002632 -0.248551 -0.171607
-0.036703 0.130494 -0.171897
-0.159174 -0.057011 -0.008576
0.052381 -0.331385 -0.299443
-0.040113 0.119720 -0.322286
0.063586 -0.417571 0.337528
0.121568 0.371493 0.003130
0.084304 0.419912 -0.428741
-0.050280 0.078012 0.357530
0.089969 -0.371887 -0.403726
-0.059608 -0.015019 0.201086
0.037864 0.276493 -0.322761
0.078111 0.427693 0.216186
0.093283 0.408196 -0.190425
-0.139567 -0.173529 0.484469
-0.159829 0.026867 0.150179
0.169773 -0.447422 0.152308
-0.059498 -0.031087 0.033566
-0.036540 0.131539 0.483820
0.034496 -0.406284 0.095125
0.159885 -0.444681 -0.263167
-0.061855 0.321203 -0.326284
0.021782 -0.290070 -0.022137
-0.157892 -0.076236 0.431956
0.084323 -0.424259 -0.215357
0.096993 -0.427718 -0.010484
-0.057842 0.024273 0.125104
-0.046742 0.094742 0.146315
-0.154428 -0.102128 -0.419696
-0.059637 0.003521 0.024144
-0.040987 0.117048 -0.250905
-0.005269 0.208031 -0.392863
-0.161176 -0.018311 -0.392393
0.017770 0.248442 -0.167587
-0.159765 0.030433 0.375206
0.006086 0.407689 0.420475
-0.156478 0.060252 -0.022781
-0.045638 0.243968 0.499569
0.049714 0.292825 0.344383
0.110230 0.386229 -0.138186
0.147080 -0.418892 -0.433188
-0.156906 -0.089461 0.439636
-0.145800 0.121954 -0.392572
0.071855 0.435813 0.167692
0.059205 0.452441 -0.499424
0.078700 -0.422790 0.097588
0.109825 0.354272 -0.379145
0.037444 0.439314 0.235385
-0.071928 -0.332399 0.442773
0.011891 0.413695 0.172144
0.098662 -0.428155 -0.098894
0.075311 -0.356699 0.365023
-0.083655 -0.310937 0.298619
0.147647 -0.419326 -0.290828
-0.043745 0.347911 -0.199921
0.102483 0.347591 -0.419190
-0.096986 -0.285876 0.083406
-0.151951 0.093599 0.336360
-0.125452 0.192478 0.458584
-0.058205 -0.052711 -0.175139
0.069558 -0.419757 -0.287831
-0.161075 -0.031064 0.102749
0.064368 0.309234 0.296747
-0.041365 0.240156 -0.500330
-0.038597 0.354631 0.253120
-0.047885 0.089110 0.036199
-0.011642 0.195076 0.414181
0.116332 -0.432888 -0.370138
-0.148757 0.110607 0.355835
0.016456 0.418453 0.211294
0.053632 0.452918 -0.296790
0.021638 0.254214 0.405696
-0.045730 0.098865 -0.439185
-0.160015 -0.044838 -0.169087
-0.049230 -0.365555 -0.353929
-0.055573 0.331464 0.204962
-0.137826 -0.178820 -0.326550
0.020854 -0.288470 -0.406156
-0.074096 0.301640 0.168657
0.046464 0.446939 0.367142
-0.051010 0.073999 -0.042261
-0.047467 0.343068 -0.452961
-0.017993 -0.215583 -0.481227
-0.154671 0.073949 0.362929
-0.156985 0.057302 0.428250
0.022690 -0.291270 -0.109301
-0.082649 0.287871 0.169062
0.050087 -0.328318 -0.415958
-0.160895 -0.009791 -0.407439
0.058216 0.302169 -0.289630
0.015611 -0.279761 0.087132
-0.146052 -0.150216 0.432119
-0.024755 0.165248 0.360480
0.036383 0.274486 -0.178930
0.093225 0.408158 0.111879
0.088807 -0.370941 -0.053554
-0.065486 0.315474 0.083927
0.019727 0.421833 0.031245
0.131702 -0.408043 0.396332
-0.057491 -0.057271 -0.043950
-0.013196 -0.226356 -0.143560
-0.056840 -0.060500 -0.498300
0.054731 0.298381 0.118669
0.120487 0.373001 -0.282487
-0.067408 -0.339066 0.432437
-0.079856 -0.317794 -0.179511
-0.031684 0.146587 0.340889
-0.090155 0.273567 -0.008804
0.104129 0.349081 -0.448773
0.055202 0.298896 0.073956
0.084672 -0.366746 -0.325119
-0.037409 -0.378490 0.041737
-0.013269 -0.226463 0.308541
0.156447 -0.425769 0.418085
0.115884 0.378881 -0.069023
0.170497 -0.447630 0.226223
-0.138328 0.152953 0.445202
0.082101 -0.363998 -0.097761
0.058184 -0.415359 -0.302236
-0.015074 -0.222305 0.005256
0.122046 -0.400483 0.046325
-0.056427 0.036707 -0.479252
-0.083302 0.286665 -0.379133
0.006069 -0.263243 -0.469923
-0.081009 -0.315517 -0.404517
-0.110765 -0.255976 0.287435
0.076064 -0.422044 -0.111021
-0.155512 0.067641 0.226493
0.087120 0.333747 0.073155
0.028632 -0.299518 0.406485
-0.059383 -0.036362 -0.316300
-0.098827 0.063919 0.499544
0.036464 -0.309831 -0.440257
0.066385 -0.346858 0.154141
-0.083667 0.286075 -0.393473
0.089149 -0.425531 -0.415111
-0.132345 -0.198317 0.269649
-0.055959 0.043219 0.233102
0.107727 0.352395 -0.255840
-0.074296 0.301352 0.287472
-0.012513 0.192582 -0.451081
-0.158662 0.044363 -0.067191
0.007168 -0.265409 0.165465
0.052271 -0.331310 -0.143583
-0.015925 0.184813 -0.477465
-0.042450 0.349625 0.028024
0.138468 -0.412903 0.470391
0.136305 -0.438367 0.114088
-0.132107 -0.198511 -0.430330
-0.116699 -0.241151 -0.054987
-0.037253 -0.378586 0.227556
-0.082234 -0.313561 0.232414
0.121194 -0.399736 0.090894
0.046618 -0.323632 -0.362787
-0.157420 0.053717 0.160047
-0.124095 0.055247 -0.500362
-0.059177 0.009562 -0.438387
0.002154 -0.256600 -0.405648
0.100441 0.398973 -0.316128
0.042817 -0.318745 0.367911
-0.158847 0.042986 -0.093504
-0.117179 0.214931 -0.362383
0.169573 -0.447384 0.248112
-0.128108 0.185002 0.237607
-0.102520 0.034014 0.499541
-0.031501 0.146629 -0.304187
0.088110 0.414660 0.442017
0.087657 0.415446 -0.093430
-0.009846 0.199021 0.184336
-0.083269 0.286723 -0.362707
0.194662 -0.449048 0.142629
-0.062529 -0.290278 0.499528
0.096861 -0.427626 -0.352424
0.169008 -0.434486 0.264435
0.204866 -0.455255 0.012222
-0.159644 0.033838 0.335670
-0.045808 0.099334 0.227928
-0.101725 -0.276897 -0.125658
-0.049942 0.078831 -0.281067
0.193915 -0.448589 -0.077002
0.062363 -0.417112 0.403378
-0.089197 -0.300497 0.166549
-0.133574 -0.194024 0.223597
-0.161117 -0.010660 0.431489
-0.024842 -0.200720 -0.089340
-0.116159 0.218103 0.265086
0.031667 -0.303449 -0.101315
-0.107128 -0.130691 0.499529
0.068312 -0.348779 -0.486353
-0.156025 0.064069 0.316141
0.015260 0.417189 0.077820
-0.056557 -0.063235 0.126263
-0.122032 0.201687 -0.012078
0.179770 -0.440490 -0.453155
-0.019951 0.378519 -0.266236
-0.053805 0.334331 0.275043
-0.140936 0.142308 0.360763
-0.136593 0.159739 0.157488
0.151616 -0.442559 0.428914
0.083654 -0.365813 0.288592
-0.149281 0.018621 0.499529
-0.011895 0.194547 0.491556
-0.002833 0.398349 0.063078
-0.099204 0.254933 0.091416
-0.004386 0.396741 0.128082
-0.014295 -0.387381 -0.161742
0.059302 -0.339014 -0.136154
0.030189 -0.404617 0.080797
0.092630 -0.374359 0.047102
-0.126817 -0.216478 0.273538
0.038987 -0.313560 0.393747
0.045239 0.445876 0.094847
-0.091471 0.240154 -0.500342
-0.035776 0.358256 0.226257
-0.137949 0.154471 0.425403
-0.057258 -0.059128 0.225419
-0.160635 0.001926 0.121313
0.195451 -0.453697 -0.319094
-0.128573 0.183441 -0.255640
-0.158966 0.042295 0.013904
0.104230 0.366973 -0.500287
0.070805 0.316286 -0.258998
0.066423 0.442736 0.465754
0.071504 -0.420563 -0.010080
-0.082612 0.266408 0.499562
-0.027607 -0.193144 -0.465320
-0.043456 -0.374261 0.064033
-0.149559 -0.129537 -0.312130
0.109141 0.387753 -0.445041
0.061842 -0.416904 0.371456
-0.126803 -0.216162 -0.251471
0.024347 -0.402307 -0.188175
-0.061684 0.226752 0.499564
-0.154097 0.077406 -0.075845
0.110643 -0.431379 -0.194758
-0.111460 0.229661 0.139408
0.124482 -0.402519 -0.474165
0.175014 -0.437856 -0.009238
-0.087777 -0.303324 0.484745
-0.054216 0.058890 0.185363
0.027550 0.430027 0.360600
0.076423 -0.422120 -0.235863
0.123980 0.368441 -0.188637
0.167536 -0.446857 0.394637
-0.100574 0.251926 -0.371268
0.001007 -0.393383 0.297997
-0.108942 -0.260527 0.384426
0.133200 -0.437441 -0.416388
0.092730 0.338944 0.494632
0.040830 0.280900 0.470944
-0.022198 0.375719 0.170636
-0.152559 0.088397 -0.166477
-0.157774 -0.077164 0.221384
0.158625 -0.444426 0.258605
0.014296 0.242241 -0.438357
0.162515 -0.430113 0.408045
-0.046848 -0.369188 -0.086377
0.093881 0.407404 -0.144692
-0.082087 -0.313603 -0.211512
0.184852 -0.443484 0.215702
-0.030376 0.365137 -0.098969
0.097392 0.402766 0.099550
-0.041979 0.192043 0.499566
-0.110556 0.231433 -0.094635
-0.129884 -0.206843 0.282940
-0.051904 -0.091666 0.176757
-0.010406 0.197427 -0.356438
-0.001898 0.399387 0.489161
-0.046755 0.094063 -0.340278
-0.158840 -0.060010 -0.496395
0.128032 -0.405390 0.272173
0.002952 0.404306 -0.372536
-0.036996 0.129832 0.139190
-0.143843 0.130259 0.042587
-0.055456 -0.069271 -0.290851
-0.042938 -0.145556 -0.276468
0.090071 0.336488 0.327661
-0.000144 0.401113 -0.167765
0.012723 0.239868 0.391405
0.070588 -0.379135 0.499553
-0.041450 -0.376485 -0.285691
0.158199 -0.426931 -0.053361
0.024497 0.257981 -0.157172
0.041412 0.358075 -0.500303
0.066744 0.442393 0.268972
0.113710 0.381638 0.089268
-0.013475 -0.225876 0.085382
0.046786 0.289160 0.433190
0.162166 -0.445272 -0.420821
-0.102649 0.247638 -0.384229
-0.055497 -0.356520 0.137543
-0.141680 -0.165581 -0.223328
-0.124550 0.194959 0.428817
0.005972 0.227947 0.150469
-0.140184 -0.171058 0.108125
-0.011542 -0.229849 -0.400986
-0.159848 0.023435 -0.252554
0.087806 -0.369945 -0.490430
-0.087977 0.278018 -0.122474
-0.079090 -0.319323 0.001097
0.045144 0.445767 -0.191688
-0.076058 -0.324968 -0.055116
0.049497 0.292460 -0.076461
0.036873 0.438776 -0.296851
-0.042582 0.349349 -0.479498
0.052464 -0.331576 0.036291
0.051472 0.451099 -0.259365
-0.049408 -0.105805 -0.482857
-0.057330 0.028280 -0.281660
-0.152556 -0.113631 0.309265
-0.082914 0.287513 0.403809
0.036774 0.275097 0.003956
-0.156890 -0.088274 -0.118785
-0.045528 -0.129833 -0.243192
0.171205 -0.447801 0.099167
0.035836 -0.309078 -0.173047
-0.158782 -0.062932 0.136681
-0.159508 0.032157 -0.496318
-0.150677 0.102855 0.387064
-0.024574 0.336141 0.499581
0.170169 -0.447577 0.446211
-0.054909 -0.258493 0.499532
-0.131143 0.128960 -0.500359
-0.028702 -0.190581 0.437925
-0.012933 0.387602 -0.020205
-0.048287 0.087071 -0.049786
0.011236 -0.272284 0.039390
-0.127983 -0.213464 0.336101
0.097427 -0.427886 0.298260
-0.159477 -0.051239 -0.481348
-0.029414 0.153024 -0.453440
-0.058429 -0.170128 -0.500363
-0.006722 -0.390403 0.330820
0.057534 0.454354 0.180791
0.021666 0.254039 -0.183528
0.097297 -0.378597 0.432378
-0.084094 -0.309971 0.022760
-0.160469 0.005602 -0.076951
-0.158450 -0.065561 -0.452671
-0.118774 -0.236301 0.328948
-0.067268 -0.338973 -0.254895
-0.005389 -0.243367 -0.471639
-0.016459 0.183776 -0.181190
-0.136475 0.154160 0.499542
-0.033848 0.139794 0.299404
0.076922 0.323170 -0.153284
-0.078886 -0.319537 -0.317082
-0.159784 -0.047819 -0.235048
0.002181 -0.393828 0.252723
0.136443 -0.411311 -0.249068
-0.054735 0.054130 -0.228986
-0.082222 0.117653 -0.500348
-0.024337 0.166237 0.427662
-0.131534 -0.200903 0.028990
0.041303 -0.390517 -0.500354
-0.022276 0.170859 0.324322
-0.154360 -0.103753 0.466972
-0.012883 0.191981 -0.049559
0.022399 -0.290996 0.221208
-0.161284 -0.028218 0.118155
0.030006 0.432456 -0.491728
0.175866 -0.438337 -0.036080
-0.001265 0.400027 0.365368
-0.105065 -0.269688 -0.178497
-0.048867 0.083839 -0.401448
-0.047559 -0.117562 -0.179920
-0.011889 0.194549 0.468063
-0.059462 -0.032775 -0.075144
-0.057029 -0.059535 -0.382452
0.002507 0.222036 0.486636
-0.157204 -0.085430 0.333589
0.178918 -0.440041 -0.229097
0.056704 0.300626 0.233119
-0.020642 0.218476 -0.500327
-0.097547 -0.284752 -0.058286
-0.087791 -0.114105 -0.500365
-0.076068 -0.324878 -0.189231
-0.159687 0.026844 -0.469885
-0.159698 0.032899 0.432601
-0.043327 0.109966 0.020792
0.107732 -0.387737 -0.092386
-0.018604 0.380312 0.018814
-0.063361 -0.267653 -0.500371
-0.101000 0.251195 0.008415
-0.159077 -0.031607 -0.500377
-0.055084 0.050364 -0.348908
-0.073212 -0.330280 -0.067325
-0.116240 -0.142811 0.499526
0.080653 0.424522 -0.109306
-0.073441 -0.329873 -0.041654
-0.137833 -0.145931 -0.500380
0.031175 0.433733 -0.088847
-0.078137 -0.321254 0.279613
-0.160791 -0.035653 0.301213
0.109961 -0.431161 -0.399496
0.009970 0.234934 0.134194
-0.160021 0.019330 -0.081295
0.060309 0.385034 0.499604
-0.054798 0.054822 0.272398
0.003294 -0.258551 -0.389297
0.124396 -0.435115 -0.082762
-0.153045 0.084962 -0.111439
0.116574 0.377809 0.413709
0.056205 0.455077 -0.411937
0.046058 0.287862 -0.361676
0.033369 -0.405866 0.187759
0.029043 0.264512 0.434984
-0.023921 0.373542 0.366220
0.011246 -0.397205 -0.396294
-0.006081 0.206895 0.233001
0.005165 0.226425 -0.091620
0.044875 0.286454 0.292318
0.090562 -0.372467 -0.180960
-0.001779 0.214428 0.243550
0.113425 -0.392724 -0.377179
-0.058449 0.019023 0.416296
-0.019562 -0.237189 0.499542
0.089521 -0.425696 -0.024810
0.106070 -0.386387 0.424082
-0.140042 -0.171195 -0.279597
-0.011089 -0.351052 -0.500364
0.061611 0.306039 -0.066383
-0.099019 0.137421 0.499549
-0.103622 -0.273031 -0.487143
0.049327 -0.412032 0.183097
-0.005135 0.395880 -0.421749
-0.081820 0.208099 0.499558
-0.155922 0.064960 0.407121
-0.050771 -0.363451 0.036635
0.022206 0.424461 0.347601
0.022220 0.424424 0.001828
-0.087381 0.279127 -0.434034
0.107281 -0.430484 -0.108193
-0.070368 0.307475 -0.410705
0.049895 0.292795 -0.457497
-0.161180 -0.016492 -0.119381
-0.072270 0.304439 -0.322291
0.063704 -0.417594 0.219326
0.073802 0.433521 -0.449208
0.086014 -0.424822 0.429977
0.095691 0.405035 -0.075339
-0.048239 -0.114409 0.429517
-0.060198 -0.349649 0.297662
-0.054897 0.051865 -0.482830
-0.052587 -0.087246 0.017765
0.099072 -0.428295 0.080961
0.028391 -0.298888 -0.419870
0.117331 -0.433298 0.484117
-0.128985 0.182529 0.156635
0.098432 -0.428077 -0.197769
-0.075107 0.103730 -0.500348
0.062831 -0.417168 -0.231872
-0.094059 -0.291481 0.324034
-0.059074 -0.351221 0.094168
-0.081022 -0.024239 -0.500357
-0.143313 -0.160019 -0.129575
-0.054773 -0.357601 0.166331
0.098843 0.344489 0.457536
0.077247 -0.422394 0.077656
-0.052596 -0.086756 -0.251299
-0.053140 -0.359939 0.002068
0.043625 -0.409767 -0.129804
-0.038090 0.355319 0.419893
-0.159853 0.023898 -0.164647
-0.160582 -0.036515 -0.311738
-0.143585 0.131133 -0.153558
-0.059663 -0.000881 0.190608
-0.121496 0.014836 -0.500364
0.018782 0.339778 0.499590
-0.071531 -0.301807 0.499525
-0.019353 0.379321 -0.108695
-0.067198 -0.339273 0.197281
0.058608 -0.415557 -0.130399
-0.038930 0.165851 0.499565
-0.059623 -0.024224 0.399299
-0.015371 0.186143 -0.359760
0.101905 0.397066 -0.286483
-0.160599 0.003749 0.225255
0.119000 0.375001 -0.484432
0.004331 -0.260506 0.018279
-0.018250 0.380697 -0.315694
-0.029293 0.153880 0.129977
0.118350 -0.433490 -0.028994
-0.050382 0.076728 -0.269298
0.004378 0.405802 -0.296839
-0.147801 -0.139929 0.075342
0.099344 0.400320 -0.118006
-0.035181 0.135211 -0.215123
0.106326 0.351261 0.341541
-0.070260 0.175112 0.499559
0.080329 0.424790 0.299284
0.194724 -0.453573 -0.372454
0.111231 0.385029 -0.392942
0.007687 0.409246 -0.309107
0.057392 -0.336996 0.114300
-0.087876 -0.303090 0.396150
0.096247 0.342107 0.358041
-0.142747 -0.162235 0.157458
0.045538 -0.322480 0.488593
-0.088563 0.276856 0.002782
-0.142082 0.136931 -0.498837
0.056506 -0.336038 0.152532
-0.157931 -0.073190 -0.318545
-0.007359 0.204410 -0.255019
0.099335 0.400337 -0.132256
0.098800 -0.379896 0.281029
-0.055093 0.052274 0.416372
-0.131303 -0.201760 0.090892
-0.151584 0.095126 -0.373674
-0.130569 0.178060 0.009249
-0.157648 -0.078814 0.190937
-0.112402 0.151713 0.499547
-0.019486 0.379180 0.032328
-0.076618 -0.324029 0.152868
-0.090114 -0.298925 0.439132
-0.155956 0.064088 0.012772
-0.068703 -0.337045 0.183357
-0.160977 -0.011834 -0.338661
0.106055 -0.386355 0.346745
-0.155114 -0.098544 -0.238574
0.015752 -0.280047 0.186521
0.107653 -0.387570 -0.492541
0.017753 -0.283163 -0.457185
-0.059453 -0.025404 -0.221743
0.079344 -0.422956 0.047592
0.022471 -0.401668 0.254589
-0.026205 0.161504 -0.392945
-0.104264 -0.271472 -0.456306
-0.159110 -0.058120 0.057572
0.051261 0.294335 -0.425692
-0.039592 -0.157587 0.096986
0.138968 -0.413190 0.112596
-0.160063 0.021626 0.424919
-0.153139 0.083948 -0.322841
-0.104964 -0.270204 0.224308
-0.053553 0.061388 -0.355523
0.023196 -0.401869 -0.156335
0.016786 0.246800 0.004067
0.020687 0.422867 0.257675
-0.124099 -0.222794 -0.283221
-0.059300 0.009729 0.090395
-0.132234 -0.198251 -0.232095
-0.145637 0.123131 0.211355
0.019077 -0.285764 0.291910
0.087033 -0.369472 0.387723
-0.056674 0.036403 0.337220
-0.048627 0.300462 0.499572
-0.066954 0.313030 -0.203963
0.149892 -0.442026 0.020031
-0.144884 -0.154508 -0.215633
-0.092394 -0.294373 -0.099699
0.029052 -0.299964 0.069829
-0.033670 -0.175598 0.368393
0.024575 0.258042 -0.290602
-0.028610 0.156124 0.264020
0.025938 0.428345 0.335372
0.048587 -0.326467 0.082985
0.123857 -0.402127 0.195821
-0.090870 0.272076 -0.052123
-0.048424 0.086780 0.237464
-0.154614 -0.101324 -0.250475
-0.154821 0.071492 -0.493619
0.106679 -0.386869 0.184205
0.092494 0.409050 0.261453
-0.111214 -0.254829 0.224219
-0.147115 -0.142970 -0.491890
-0.007792 -0.238195 -0.262620
0.109833 -0.431169 -0.136134
-0.059534 0.003028 -0.357782
0.034772 0.436988 -0.451760
-0.058852 0.013240 -0.266092
-0.022466 -0.384272 0.086069
0.014467 -0.277545 -0.496733
-0.158176 -0.071985 0.337147
0.116816 0.377632 0.045653
-0.158259 0.047360 -0.015832
-0.049048 -0.108830 0.030298
0.074284 0.373138 -0.500294
0.101211 -0.428787 -0.448787
-0.157587 0.052265 0.003138
0.073514 0.319317 -0.272641
0.171092 -0.447762 0.046692
0.085948 0.417757 -0.356465
0.056413 -0.335910 0.066494
-0.079016 -0.261544 -0.500374
-0.043672 0.109206 0.407813
0.163199 -0.430450 -0.366409
0.154550 -0.424266 -0.312860
-0.115891 0.218702 0.009390
0.079825 0.326410 -0.203666
-0.040683 -0.153998 -0.286199
-0.013689 -0.225631 0.467945
-0.034616 -0.379577 0.086739
-0.058571 -0.050162 -0.370084
-0.045758 -0.129568 0.458486
-0.062729 0.319749 -0.485158
-0.056712 -0.061912 -0.108738
0.034030 0.271190 -0.255704
0.059786 -0.416106 0.354558
-0.139705 0.146861 -0.152386
-0.055049 -0.072030 -0.116353
0.107377 0.352233 0.410503
-0.065526 0.315274 -0.397077
0.189319 -0.445967 -0.139151
0.000285 -0.253535 -0.142679
-0.159966 0.023061 0.204927
0.090144 0.412185 0.015059
0.105116 -0.385434 -0.010370
-0.024936 -0.286028 -0.500363
0.035843 0.273980 0.497194
-0.043705 0.347981 -0.113223
-0.115670 0.219200 -0.198997
-0.069203 0.309585 0.415861
-0.053678 -0.081108 0.328722
-0.059506 0.325108 0.116432
0.090293 0.411817 0.483402
0.047403 -0.411254 0.006095
-0.033196 0.141819 0.284319
-0.101419 0.123939 -0.500353
-0.152280 -0.115002 0.186441
0.074331 0.320433 0.419645
-0.112501 -0.117438 0.499529
-0.060652 -0.348931 0.187793
0.015743 -0.398998 -0.111304
-0.132860 -0.195892 -0.442344
-0.153993 -0.105623 0.334457
-0.142399 -0.163115 -0.203709
0.009909 -0.270213 0.457264
-0.110885 -0.091425 -0.500370
-0.056117 -0.355388 -0.355366
-0.122430 0.200782 0.344190
-0.057096 0.329007 0.182242
-0.151512 0.095750 -0.308222
0.055819 0.454798 0.030300
-0.044431 -0.136478 -0.266045
-0.051969 -0.091101 0.070094
-0.157859 0.051066 0.486044
-0.059502 0.008447 0.363642
-0.153774 0.079460 -0.252481
0.015219 0.244170 0.248411
-0.044585 -0.135796 -0.108122
-0.076332 0.297993 0.002358
-0.005648 0.395356 -0.347103
-0.129820 -0.206821 0.012312
0.022199 -0.290742 0.269198
-0.035204 0.359016 0.345278
0.030374 0.432881 -0.213293
-0.056897 0.032534 -0.298098
0.144773 -0.417257 -0.348190
-0.085916 -0.211974 0.499528
0.153154 -0.442932 0.171465
-0.051003 0.338534 -0.373249
-0.059430 -0.015154 -0.467522
0.102821 -0.383322 -0.313861
0.134742 -0.437968 0.254528
-0.017477 -0.259721 -0.500359
-0.100680 0.251677 -0.446863
-0.008769 -0.362487 0.499536
0.009238 0.233507 -0.186670
-0.145963 -0.028131 -0.500373
-0.038791 0.124383 0.328532
-0.140378 -0.169860 -0.474062
0.075948 -0.422015 -0.090789
0.122141 0.370639 0.306923
-0.000400 -0.392748 -0.174321
0.078336 0.427466 0.045229
-0.101171 -0.278032 0.058441
-0.153344 0.083491 0.321089
0.122314 0.365429 -0.297946
0.027443 -0.365613 -0.500357
0.018292 -0.284213 -0.172348
0.109992 0.386476 0.029572
-0.024654 0.372579 0.272183
0.035165 0.272987 0.354508
-0.035460 -0.169603 -0.399402
-0.059451 -0.040844 0.008714
-0.153077 -0.110147 -0.095340
0.116989 0.377239 0.499538
0.112375 0.383417 -0.045995
0.202018 -0.454809 0.096138
-0.059339 0.010181 0.406872
0.090776 -0.372633 -0.281139
-0.137093 0.157349 -0.266300
-0.160171 0.015683 0.051229
0.081812 0.328832 0.468262
0.099010 -0.380122 0.445618
-0.144600 0.127548 0.465658
-0.109456 0.111006 -0.500355
0.021111 0.253421 0.237213
-0.114372 0.223016 0.203891
0.141732 -0.415195 0.239294
-0.038700 0.124430 0.037832
-0.046492 -0.124603 0.154976
0.188130 -0.445262 -0.325062
-0.124106 -0.223195 0.344474
0.041415 0.281377 -0.454774
-0.030312 0.150720 0.154220
-0.006576 0.205961 0.084292
0.144522 -0.440558 -0.076581
0.037993 0.276618 -0.471830
-0.050202 0.339603 -0.189139
0.137890 -0.412400 0.019129
0.060155 -0.416160 -0.100615
-0.038854 -0.377984 0.461166
-0.114075 -0.247780 0.206229
0.065220 0.444318 0.401359
-0.158649 -0.063711 -0.181422
0.087118 0.416138 -0.080140
-0.065901 0.064364 -0.500348
0.037355 0.439212 -0.016302
-0.103779 -0.273068 0.148742
-0.047628 0.090220 -0.062970
-0.017887 0.180904 0.442670
0.077725 0.324023 -0.317908
0.061999 -0.341938 -0.237237
-0.161063 -0.015205 -0.443193
-0.154298 0.075860 -0.134611
0.008515 -0.267629 0.000416
0.027620 -0.297851 -0.392751
0.188621 -0.445537 -0.342067
-0.056972 0.329159 0.015105
-0.006052 -0.241916 -0.455795
0.083222 -0.424022 0.157343
-0.071542 -0.332916 0.323145
0.111387 0.384861 -0.486478
-0.148676 -0.134578 -0.242600
-0.061109 -0.348300 0.284308
-0.099657 -0.197098 -0.500374
0.143426 -0.416283 -0.393314
0.013202 0.415000 -0.222935
-0.089505 0.274970 0.146564
0.090815 0.337057 -0.129728
-0.059541 -0.044715 0.406128
-0.058272 -0.352239 -0.283546
-0.089910 -0.030899 0.499540
0.082329 -0.364164 -0.374553
0.044532 -0.410087 -0.288431
-0.059576 -0.005682 -0.065819
-0.059605 -0.033081 0.469517
0.116944 -0.433124 0.061776
-0.059634 -0.000497 0.075676
0.087648 0.415313 0.295088
-0.146018 -0.149850 0.036649
0.077412 0.428817 -0.374413
-0.035887 0.132839 -0.418083
-0.114187 0.223400 -0.025629
-0.061216 0.292950 0.499569
-0.005240 0.208123 -0.302540
0.049917 0.449837 0.216520
0.028264 -0.403945 0.450344
-0.044993 0.102854 -0.083451
-0.014856 0.187520 -0.009896
-0.010942 0.196432 0.018859
0.095490 0.341393 0.244984
-0.047162 -0.368920 0.358203
-0.161210 -0.018121 -0.219340
0.011727 0.413561 0.409838
-0.035840 -0.169102 0.397557
-0.018754 0.380068 -0.220570
-0.131640 0.174894 -0.353654
-0.033848 -0.379822 -0.183182
-0.152674 0.088295 0.291158
-0.016871 0.183222 0.461169
0.129915 -0.406736 0.259621
0.051798 -0.412993 0.215819
-0.056006 0.041507 -0.241281
0.114703 0.380257 0.343206
-0.155361 0.068661 0.178925
-0.146872 0.117767 -0.208461
-0.106192 0.240414 -0.160302
0.084292 0.419792 -0.063806
0.157831 -0.444124 -0.274703
0.147695 -0.441399 -0.174271
-0.141367 0.139994 -0.306093
-0.004210 -0.391255 -0.276830
-0.147646 -0.140944 0.182273
-0.051227 0.072630 -0.303000
-0.110429 0.231856 0.313833
-0.007708 0.203900 0.218971
0.165603 -0.432225 -0.093999
-0.019408 0.177241 0.099022
-0.123418 0.197982 0.227391
-0.034417 0.138156 0.466671
-0.117297 0.215027 0.398907
-0.005616 0.207655 0.111911
-0.147646 -0.140390 -0.210415
0.081057 0.327799 -0.175060
0.011511 0.237476 -0.205909
0.004951 -0.394825 -0.122698
-0.027203 0.159342 -0.215447
0.133792 -0.409383 -0.398588
-0.019489 0.177133 0.226287
-0.051396 0.072600 0.316223
0.011185 -0.323767 0.499543
-0.134862 0.165909 -0.466369
0.042884 -0.409598 0.468170
-0.150290 -0.126461 0.412267
-0.141045 0.141524 -0.043683
-0.084115 -0.309847 -0.136483
-0.033844 -0.174977 0.247226
-0.101373 -0.277375 -0.469125
-0.051972 -0.361656 -0.015629
0.020620 0.252480 -0.480484
-0.034915 0.136222 0.004444
-0.123020 0.198689 -0.486435
0.020995 0.253302 0.354312
0.013974 -0.276714 -0.473006
-0.073133 -0.330374 -0.120321
-0.068171 0.310995 -0.470096
0.011023 -0.305627 -0.500356
0.037833 0.439623 0.054707
0.069871 0.438262 0.489186
0.079269 0.325954 0.372730
-0.136526 0.159898 0.026843
0.018903 -0.400278 0.192922
0.149132 -0.441765 -0.315052
-0.003556 -0.391553 -0.048680
0.102208 0.396471 0.256604
0.169412 -0.447260 -0.242809
0.080302 0.327036 0.117712
-0.059598 0.000592 -0.076695
-0.037485 0.356043 0.163423
-0.007148 0.393845 -0.006652
-0.108207 -0.262222 0.214007
-0.147275 -0.142155 -0.436865
-0.047338 0.091844 0.118434
-0.153556 0.082054 0.382405
0.016726 0.418665 -0.252390
-0.044994 -0.133689 0.128095
-0.027394 0.159261 0.378697
0.004841 -0.261403 0.081242
-0.148198 -0.137834 0.168730
-0.040595 0.351945 -0.297741
0.073329 0.433890 0.203332
-0.009450 0.391428 -0.149862
0.100860 0.346174 -0.174814
-0.098521 0.256184 -0.315024
-0.130744 -0.203613 -0.000147
-0.057901 0.327601 -0.202912
-0.045576 -0.370919 -0.425619
0.072775 0.318446 -0.419599
-0.024950 -0.200779 0.412742
0.005603 -0.395183 0.419961
-0.159786 0.026025 -0.152759
-0.058387 0.017696 -0.325068
0.019479 0.251200 0.369345
-0.094194 0.265409 0.441928
-0.139488 0.148260 0.457673
0.169745 -0.447343 -0.288129
0.116966 -0.395917 -0.173041
0.005319 -0.394935 -0.290247
0.065555 -0.345985 0.272231
-0.100011 -0.280162 -0.017930
-0.059560 0.325094 0.369515
-0.052098 0.069419 0.465444
0.029846 0.350114 0.499594
-0.044810 -0.134872 0.169392
0.123984 -0.402118 -0.302546
0.090224 -0.425865 -0.155395
-0.046383 -0.124643 -0.231163
0.050497 0.312333 0.499596
0.133395 -0.409196 0.099348
-0.049720 0.080852 0.472834
0.122214 0.370700 -0.109124
0.120119 -0.398758 -0.009302
0.073934 0.319927 0.205115
0.167423 -0.446757 -0.032492
-0.029966 0.151358 -0.382717
-0.033608 0.284354 0.499575
-0.028940 0.155177 0.366876
-0.054973 0.052318 -0.021460
-0.034996 -0.176988 0.499542
0.138594 -0.438924 -0.270823
0.143349 -0.440246 -0.046985
-0.125469 -0.219288 -0.487878
0.069398 0.314760 -0.081678
-0.109305 -0.013913 0.499537
0.097108 -0.427804 0.325557
0.102472 -0.429138 -0.386332
0.084007 -0.366093 -0.065888
0.147100 -0.418909 -0.419383
0.123994 -0.402119 -0.338496
-0.017701 -0.216735 0.378476
-0.157457 0.052831 -0.230788
-0.119215 -0.234883 -0.170282
-0.038575 -0.160489 -0.092808
-0.159096 0.041243 -0.054195
0.000105 0.401466 0.448887
-0.118023 0.212616 -0.318387
-0.158215 -0.070065 -0.079071
0.060761 0.305246 0.489547
0.021323 0.423500 0.068885
0.010842 0.236399 0.000526
-0.059107 0.011712 0.115469
-0.058729 0.326253 -0.259026
-0.029608 -0.187626 0.147320
-0.046686 0.094925 0.076507
0.122243 -0.434581 0.207912
-0.042411 0.349689 0.092987
-0.054574 0.055294 -0.396208
0.170734 -0.435494 0.433978
-0.019227 0.177708 0.191254
0.071169 -0.352130 0.260102
0.091689 0.410108 0.217236
0.016063 0.394889 0.499594
0.044264 -0.410127 0.449089
0.072991 0.434502 -0.264961
-0.093884 -0.291676 0.071964
-0.079401 0.292982 -0.247816
-0.098047 -0.284049 0.380850
-0.159766 0.026361 -0.193740
0.145219 -0.440712 -0.287619
0.092508 -0.374216 -0.094782
-0.159627 -0.049226 -0.462693
0.099740 -0.380610 -0.213949
0.106213 0.391240 0.378216
-0.036746 -0.166126 0.081392
-0.032261 0.362656 -0.366498
-0.102902 0.247239 -0.071708
-0.159500 0.036507 0.086069
-0.041819 0.114541 -0.140187
0.021515 -0.376192 -0.500358
-0.032813 0.142923 0.171478
-0.160192 0.016842 0.308893
-0.084108 0.285420 -0.194586
-0.058247 0.019276 -0.251586
-0.160555 0.001353 -0.305670
-0.157818 -0.074956 -0.262888
0.126318 -0.435569 -0.486712
0.036953 -0.310580 -0.205650
0.101192 -0.381870 -0.334344
-0.018125 -0.215446 -0.221098
-0.063084 -0.035312 -0.500354
-0.034031 0.138955 -0.029210
-0.092912 -0.293709 0.477095
0.016232 0.356349 -0.500308
-0.037207 -0.378599 0.201076
-0.160502 0.002858 -0.324324
-0.014122 -0.224433 0.057608
0.067227 -0.403477 -0.500349
0.050958 0.450680 -0.115756
-0.054500 -0.075275 -0.179483
-0.096045 0.261528 0.286702
-0.057923 -0.054569 -0.087092
0.098803 -0.428260 0.312861
0.138598 -0.438997 0.171051
-0.156340 -0.092590 0.411651
-0.079384 0.064649 -0.500351
-0.059378 -0.045259 -0.198824
-0.143445 -0.159340 -0.373650
-0.108868 0.234986 0.078662
-0.161267 -0.015628 0.381294
-0.082965 -0.312314 0.459661
0.047487 -0.324940 -0.012250
-0.024028 0.166747 0.104113
-0.018916 -0.214121 0.486804
-0.124409 -0.222147 -0.107551
-0.145292 0.124605 0.303583
-0.047584 -0.118440 0.454625
-0.159337 0.038750 -0.301421
0.091580 -0.426212 -0.272847
0.092579 -0.374325 0.092512
-0.142671 0.134746 -0.260177
-0.017994 -0.215597 -0.454901
0.006791 0.229289 -0.048168
0.090749 0.336980 -0.203757
-0.124438 0.195114 0.148952
-0.100016 0.253142 -0.206856
-0.056644 -0.062744 0.150256
0.057222 -0.336849 0.244826
-0.012109 -0.320125 -0.500363
-0.099355 0.254495 -0.232459
-0.050131 0.077657 -0.490444
-0.119028 0.210280 0.483874
-0.148770 0.110627 0.439083
-0.049095 0.341116 0.229133
-0.019814 -0.211905 0.084848
0.003230 -0.258600 -0.046932
-0.059416 -0.038909 -0.152861
-0.030424 0.150086 -0.189284
-0.156843 -0.088479 -0.249834
-0.010560 0.197383 0.156797
0.092919 0.408450 0.393778
-0.145673 -0.152305 0.407779
-0.136331 -0.184342 0.062672
-0.045785 0.098570 -0.460532
-0.099413 -0.281026 -0.498700
-0.039866 0.120515 -0.294355
0.022963 0.255790 -0.325708
0.088935 -0.425551 0.056631
-0.128752 0.183314 0.407370
-0.059483 -0.005771 -0.411266
-0.124947 0.193368 -0.457611
-0.152653 -0.112888 0.163732
-0.136818 -0.182456 -0.163483
-0.138384 -0.177001 -0.205496
0.021488 0.253844 -0.038701
-0.139112 -0.174602 -0.072383
-0.046967 -0.120873 -0.362669
0.093738 0.407350 0.499184
-0.002685 -0.248347 -0.417732
-0.160401 0.006556 -0.240956
-0.065171 0.316000 0.151749
-0.135083 0.165807 0.451240
0.064937 -0.418021 -0.035532
-0.100857 0.251600 0.292413
0.059249 0.303317 -0.323127
-0.009575 0.199333 -0.325722
-0.130963 -0.202818 -0.038428
0.107422 -0.430575 0.214322
-0.038662 0.354532 0.179081
-0.055472 -0.322595 -0.500373
-0.039271 -0.158607 0.166145
0.022139 -0.401447 -0.222761
0.055488 -0.414320 -0.288713
0.066809 0.311870 -0.041601
0.130988 -0.436979 0.413398
0.059897 0.304029 -0.371232
-0.003734 -0.246893 0.309298
-0.041550 0.115846 0.426819
0.116663 0.377675 0.463884
-0.032739 -0.177740 -0.446458
-0.060046 0.324091 -0.408150
0.044708 0.286193 0.210661
0.069680 0.438685 0.015000
-0.057578 0.025329 -0.469884
-0.020950 -0.209552 0.339173
0.015621 0.417541 -0.078235
-0.037198 -0.164952 0.310054
-0.146866 0.118245 0.320650
-0.088879 -0.300805 -0.375709
-0.150407 -0.125324 0.067184
0.083049 0.421462 -0.225871
-0.147947 0.113398 -0.222264
-0.052552 -0.086676 -0.464673
0.127537 -0.404911 -0.355230
-0.045516 0.101079 0.497931
-0.160151 -0.043656 0.039788
-0.059657 -0.071431 0.499544
-0.038741 -0.160350 0.354374
-0.085421 0.283379 0.098867
0.061029 0.374590 -0.500297
0.201135 -0.452677 -0.176422
-0.094063 0.265463 -0.109012
0.077402 0.323611 -0.492972
0.079319 0.365164 0.499607
0.019434 0.374882 -0.500307
0.138227 -0.412700 0.318109
-0.003152 -0.247703 -0.086778
0.158067 -0.444248 0.093198
0.112411 -0.431838 -0.306168
-0.015094 0.384908 0.398181
0.049947 0.449831 -0.083384
-0.032725 0.362199 0.308864
-0.056813 0.329501 0.322771
-0.094478 -0.290712 0.353862
0.130332 -0.436705 -0.171790
0.182890 -0.450898 -0.278488
-0.030025 0.151663 0.212721
-0.046664 -0.369589 0.209136
-0.143811 -0.158260 -0.167628
-0.012684 0.192602 0.236405
-0.036897 0.356670 -0.459925
-0.113065 0.226369 0.191193
0.113887 -0.432279 -0.054105
-0.151229 -0.121006 0.270436
-0.160743 -0.033796 -0.458153
0.087157 0.333665 -0.425220
0.083212 0.330292 0.480695
-0.125651 0.191445 -0.411572
-0.025296 0.163898 0.157366
-0.005562 -0.243314 0.080671
0.017083 0.419126 0.337331
-0.019491 -0.385419 0.072680
-0.084335 -0.309562 0.100794
0.102116 -0.429136 0.184283
-0.160941 -0.033162 0.176608
-0.056876 0.034552 0.394480
-0.161366 -0.025747 -0.283637
0.056363 0.300088 -0.305455
0.169188 -0.447223 -0.098528
-0.080140 -0.317229 -0.244165
-0.150906 -0.122512 0.053333
-0.083203 -0.311429 -0.371265
0.181205 -0.450520 0.192281
-0.050383 0.076482 -0.461908
-0.160103 0.015925 -0.208630
-0.004027 0.210322 -0.133736
-0.012512 -0.228146 0.333171
-0.050978 -0.096863 -0.097332
-0.056673 0.035552 0.009702
-0.080210 0.291873 0.436398
-0.127971 -0.213183 -0.024398
0.080465 0.327280 0.324598
0.203660 -0.455092 0.245867
0.062546 0.306983 -0.423740
0.111367 -0.431610 0.024373
0.026824 -0.296933 0.042928
-0.049929 -0.102796 -0.382152
-0.013654 0.190203 -0.092015
0.189664 -0.452751 -0.151167
0.193277 -0.448190 -0.307811
-0.045420 -0.371432 0.221318
0.020103 -0.400773 0.353551
0.075524 0.321643 -0.020972
-0.057028 0.033233 0.465568
-0.035850 -0.379090 0.029579
0.034906 0.272539 0.108698
-0.137411 0.156204 -0.098156
-0.153359 -0.108034 -0.478140
0.026932 -0.297136 0.200182
-0.010984 -0.369749 -0.500365
-0.130753 0.177538 -0.014349
0.020557 0.252723 0.433721
0.115395 0.379377 0.300215
-0.035373 0.134672 -0.139940
0.012539 0.239400 0.072488
0.085393 -0.424552 -0.189708
-0.012706 0.387994 0.462129
-0.156765 -0.089255 -0.268554
-0.029474 -0.187870 -0.048242
-0.148279 0.112120 -0.144046
-0.053769 -0.079807 -0.129002
-0.013631 0.386709 0.004353
0.073256 -0.354460 0.408637
0.084448 0.419694 -0.342372
0.079559 -0.407382 -0.500347
0.122723 -0.434725 0.292642
-0.033382 0.240006 0.499572
-0.028031 -0.191891 -0.438562
-0.049656 -0.245578 0.499534
-0.034719 -0.362394 0.499530
-0.010707 0.196784 -0.285880
-0.157123 0.056139 0.328429
0.098740 -0.379822 0.197061
-0.143902 0.130049 0.081440
0.029631 -0.300809 0.231517
0.042190 0.282493 -0.349944
0.122550 0.365713 0.294487
-0.055226 0.048664 -0.457900
-0.078964 -0.319508 -0.097727
0.072599 -0.353643 0.081288
-0.125274 -0.219850 -0.362571
-0.019815 0.176012 -0.414835
0.072108 -0.353219 0.464207
-0.112590 -0.251405 0.165135
-0.116200 -0.242671 0.385623
-0.037682 0.335510 0.499578
0.118793 0.375251 -0.437857
0.019335 0.421490 0.465807
0.188813 -0.445695 -0.039778
0.135599 -0.410824 0.349951
-0.047265 -0.120021 0.233970
0.014173 0.242380 0.336213
-0.094928 0.263635 -0.222605
0.106153 0.391499 -0.106865
-0.141108 0.141152 -0.178065
-0.161434 -0.022461 0.140010
-0.000375 0.400826 -0.483741
-0.152560 -0.113708 0.379867
-0.160537 0.000899 -0.451250
0.095567 0.341434 0.125186
-0.044283 -0.137056 -0.464154
-0.086559 -0.305093 -0.475718
-0.024229 0.166064 -0.273294
0.069336 0.314631 -0.286239
-0.099802 -0.062674 0.499535
-0.143192 0.132648 -0.247516
-0.159811 0.026678 0.045241
0.009667 0.234186 -0.342130
-0.042087 -0.310825 -0.500369
-0.136862 0.158631 0.138849
-0.045073 0.346279 0.172321
0.096891 -0.378044 -0.359350
-0.052284 0.336658 -0.148164
0.066264 0.443285 -0.457610
0.092670 0.408814 0.281370
-0.034033 -0.174560 0.431918
-0.031101 0.364301 0.365642
0.072050 -0.420727 -0.252307
-0.135484 -0.187576 0.398849
-0.087957 0.278280 0.443259
-0.052773 0.065236 -0.276614
0.059716 -0.339363 -0.487105
-0.045830 -0.127936 -0.277292
0.160670 -0.428708 -0.017553
-0.018397 0.236689 -0.500325
-0.059565 -0.041181 0.443821
0.061719 -0.341671 -0.106494
-0.137574 0.155266 -0.423662
0.014995 -0.278742 0.150901
-0.082125 -0.313741 0.186394
-0.137207 -0.181032 -0.249618
-0.012275 -0.284457 -0.500360
0.004643 -0.394808 0.400777
-0.050196 0.312929 0.499573
-0.050119 0.078128 -0.164824
0.095491 -0.376968 0.325141
-0.007217 0.393847 0.475684
0.032345 0.268928 -0.039323
-0.051260 0.073105 0.200124
0.040248 -0.315057 -0.184900
-0.149456 0.107668 0.228243
0.074543 0.432578 -0.495320
0.099961 -0.394836 -0.500342
0.108373 0.388494 0.240924
-0.153823 0.080208 0.437283
0.130358 -0.436785 0.267842
-0.007104 0.393855 -0.248992
-0.059330 -0.041881 -0.433393
-0.125225 -0.220463 0.377538
-0.062709 0.141236 0.499558
0.037517 -0.407458 0.129406
-0.014460 -0.387357 0.043367
-0.158750 -0.062263 -0.195949
-0.050725 -0.099226 0.408114
-0.006643 0.394407 0.219785
-0.044449 -0.372770 0.006985
-0.160382 0.012310 0.489949
-0.022443 0.170004 -0.477028
0.074213 0.320082 -0.339390
0.119418 -0.433825 0.256159
-0.053442 -0.082166 0.097608
-0.033324 0.141117 -0.086158
0.124214 0.367899 0.455778
-0.055475 0.048611 0.462049
0.092471 -0.426532 0.214710
0.018649 0.420695 -0.067157
0.161078 -0.429090 0.441170
-0.146813 -0.145112 -0.169784
-0.021830 0.171641 -0.065965
-0.123979 -0.223248 -0.043028
-0.059404 0.009262 0.302928
0.115605 -0.394806 0.229645
0.139780 -0.439328 0.240889
0.108839 -0.388838 0.389432
-0.160083 -0.045643 0.357318
-0.158446 -0.067122 -0.000678
-0.137594 0.155398 -0.173869
-0.108094 -0.262622 0.398974
-0.038841 0.354263 -0.004859
-0.158489 -0.067887 0.406079
-0.100285 -0.279682 0.042540
0.192855 -0.453374 0.377815
0.054582 -0.413999 -0.143405
-0.048571 0.341756 0.066975
-0.073680 -0.085249 0.499539
-0.010402 -0.388911 -0.031652
0.189087 -0.445864 0.050890
-0.157875 0.049505 -0.416853
-0.135550 0.163693 -0.161369
0.043256 0.444184 -0.092602
0.084709 -0.424475 0.466722
-0.152312 0.090369 -0.050505
-0.155979 0.064326 0.267816
-0.024628 0.165367 0.074802
-0.022576 -0.205750 -0.030364
-0.005483 0.395616 0.243780
-0.057697 -0.056722 0.390724
-0.008858 -0.235999 -0.002171
0.023095 -0.291760 -0.268258
0.055680 -0.334973 -0.385591
-0.089321 0.275134 -0.405967
-0.056444 0.037479 -0.122765
-0.090259 0.273213 -0.367235
-0.087241 -0.116913 0.499535
-0.103048 -0.028578 -0.500363
-0.059541 0.006381 -0.277355
-0.064838 0.316461 -0.109697
0.062673 -0.342682 -0.217416
-0.043639 -0.141820 0.052905
-0.123059 -0.225711 0.254574
-0.154325 0.075730 -0.089634
0.082790 -0.364856 0.252529
-0.092387 0.268787 -0.456554
-0.033844 0.360645 -0.240005
-0.059974 0.324435 0.399594
-0.126377 -0.217697 0.480812
-0.158654 -0.065421 0.354099
-0.055686 0.044840 -0.178043
-0.055906 0.042284 -0.324594
-0.059403 -0.035763 -0.251410
0.123822 0.366560 -0.164542
0.034604 -0.406253 -0.277287
0.024850 0.258572 0.120225
-0.021334 -0.208469 -0.059166
-0.045852 0.099089 0.201900
-0.056661 0.036139 0.185448
-0.154750 0.072122 -0.422745
0.018539 -0.284852 0.305384
0.104124 0.349220 0.168677
0.012816 0.414680 0.318667
0.114532 -0.393916 0.485477
0.061212 0.305648 0.128469
0.099440 0.400084 0.180557
-0.087777 -0.302900 -0.314745
0.016886 0.418885 0.095978
0.098346 0.401429 0.375353
-0.004996 0.396134 0.313844
0.023501 0.256499 -0.432862
-0.011759 0.388971 -0.498147
-0.006781 -0.390290 -0.131325
-0.105627 0.241781 0.352540
-0.050569 -0.363536 -0.450403
-0.027888 -0.192431 -0.303974
0.090521 -0.372382 -0.385805
-0.149109 -0.133040 0.388071
0.029631 0.335986 -0.500307
0.204255 -0.455223 0.499430
0.000346 -0.253573 -0.290435
-0.010816 0.390070 0.282969
0.034513 0.271776 -0.493739
-0.032194 -0.180052 0.392827
-0.159304 0.039274 -0.345147
-0.026688 0.160486 -0.258674
-0.155472 0.068054 0.303199
-0.025445 -0.207643 0.499542
-0.023940 -0.202661 -0.169516
-0.079998 -0.317820 0.368370
0.174311 -0.437477 0.118418
0.178234 -0.449661 -0.147315
-0.023742 -0.203085 -0.186594
-0.018358 0.179648 0.132363
-0.059479 -0.002668 -0.475903
-0.030862 0.148876 0.000311
0.061829 -0.416841 0.076614
-0.052972 -0.085191 0.197294
0.043543 0.444436 -0.000334
-0.127075 0.187682 -0.086619
-0.089385 0.274975 -0.476658
0.046136 -0.410786 0.120231
-0.153105 0.085297 0.367452
-0.075005 -0.326812 -0.293429
-0.031011 0.364243 -0.470880
0.124852 0.367305 -0.222717
-0.026349 0.370300 -0.197008
-0.055288 0.048887 -0.140435
0.076740 0.429517 0.086306
-0.064677 0.316853 0.354382
0.047181 0.447542 0.349334
-0.034910 0.136428 0.237478
-0.089328 -0.290926 -0.500379
-0.013564 -0.225356 -0.461691
0.064325 -0.344619 0.207613
0.015681 -0.279933 0.199113
-0.112094 -0.252533 0.030167
-0.158749 0.043244 -0.371542
-0.084054 0.285573 0.033512
-0.053105 -0.084743 0.418520
0.053777 0.297260 -0.064105
0.024510 0.258047 -0.026397
-0.054706 0.056052 0.392766
0.106338 0.391050 0.452237
0.014369 -0.398568 0.410791
0.037522 0.439368 0.125027
0.086925 0.333636 0.354556
0.096316 -0.377612 -0.038075
-0.040451 0.119051 0.147947
-0.102482 0.248037 -0.245682
-0.123426 -0.224621 -0.023038
-0.059562 -0.018208 0.077766
-0.151591 0.086976 0.499534
-0.058871 -0.049637 0.432056
-0.159571 0.035430 0.239060
-0.015114 0.187040 0.167012
-0.014657 -0.223505 0.479776
-0.121623 0.202996 0.305620
-0.051594 0.071241 -0.007431
-0.114247 -0.247344 0.187931
0.062377 -0.416945 -0.481451
0.014507 0.243020 0.457603
-0.056935 0.297730 -0.500330
0.120716 0.372692 -0.251170
0.016984 -0.282009 -0.115321
-0.159282 -0.054386 -0.349142
-0.024525 -0.383550 0.462076
-0.152898 0.086103 -0.062434
-0.148195 0.112194 -0.455439
-0.013837 0.189654 -0.318446
0.013669 0.241392 0.102665
0.062048 -0.341986 -0.256897
-0.116799 0.216357 0.314604
-0.146131 -0.149238 0.051195
0.165010 -0.446039 -0.432779
-0.038517 -0.377945 -0.467794
0.028805 0.264156 0.365397
-0.005353 -0.244015 0.488266
-0.023955 -0.202554 -0.296192
0.075669 0.321744 -0.230672
-0.035112 0.264302 0.499573
0.148040 -0.441535 0.083432
0.042296 0.282831 0.178127
0.007337 0.230254 -0.025281
0.017018 0.419049 0.280280
0.098953 -0.379854 -0.451265
0.033121 0.435661 0.182385
-0.152904 0.086160 -0.003243
0.054119 -0.333312 -0.221902
-0.161456 -0.022237 0.266702
0.055466 0.299286 0.398217
-0.017112 0.260279 0.499577
-0.073133 -0.242440 -0.500371
0.044600 0.285925 -0.115410
-0.039039 -0.237342 0.499538
-0.018741 -0.214361 0.238515
-0.032020 -0.180126 -0.167914
-0.037916 0.126753 -0.112078
-0.076481 0.297672 -0.284559
-0.056793 0.329309 -0.468122
0.113837 0.381486 0.057316
0.098444 0.344068 0.201894
-0.028985 0.190173 -0.500331
0.064450 -0.417808 -0.162971
0.144990 -0.440648 -0.301062
-0.036334 0.132138 0.430156
-0.008825 -0.338088 -0.500363
-0.150268 -0.126670 0.471344
-0.107467 0.238040 0.496160
0.142714 -0.415852 0.006075
0.087095 0.416014 0.336910
0.022741 -0.401770 0.239478
-0.138370 0.152219 -0.212994
-0.111899 -0.253155 0.238247
-0.072588 -0.176507 -0.500367
0.099820 0.399656 0.008534
-0.010052 0.198280 -0.273556
0.153515 -0.423665 0.394190
0.189657 -0.446181 0.004864
-0.027517 0.158622 -0.228321
0.088007 0.334580 0.185281
-0.122240 -0.227755 0.301348
0.163758 -0.445707 -0.392641
-0.015044 -0.222535 0.283500
-0.106508 0.239693 -0.336827
-0.096941 0.259457 -0.282024
-0.125612 0.191827 0.081225
0.023923 -0.402105 -0.385378
0.058924 0.303031 -0.053686
-0.149429 -0.131308 0.431881
-0.119287 0.209281 -0.024667
0.086045 -0.424744 -0.100170
-0.159681 0.032377 0.285956
-0.021733 -0.207333 -0.491433
-0.161114 -0.015025 -0.196992
