0.025000 -0.394538 -0.281603
-0.025000 0.691813 -0.108407
-0.025000 0.093958 -0.456835
-0.025000 0.645970 0.304075
-0.025000 -0.844165 0.541956
-0.025000 -0.240701 0.031499
-0.025000 -0.399952 0.446911
-0.025000 0.125995 0.155657
0.025000 0.665590 0.296623
-0.025000 0.339004 -0.698225
0.025000 -0.782900 0.091176
0.025000 0.846602 0.653609
-0.025000 -0.508959 0.629494
0.025000 -0.745073 0.049553
0.025000 0.255623 -0.258828
0.025000 -0.118852 0.566574
0.025000 0.835674 -0.430487
0.025000 -0.644663 0.081753
-0.025000 0.627780 -0.714179
-0.025000 0.677013 0.642935
0.025000 -0.828004 -0.119305
-0.025000 -0.504324 -0.432700
0.025000 0.332359 -0.612030
0.025000 0.553348 -0.035903
0.025000 0.399654 0.769340
-0.025000 -0.294561 -0.107906
0.025000 -0.101101 -0.131772
-0.025000 -0.113874 0.525158
-0.025000 0.626157 0.007222
-0.025000 -0.435543 -0.123917
0.025000 0.093665 -0.856778
-0.025000 0.416383 -0.509346
0.025000 0.702442 0.787933
0.025000 0.662525 0.082517
0.025000 -0.151778 0.080508
-0.025000 -0.107420 -0.814351
-0.025000 -0.749558 -0.404126
-0.025000 -0.486096 -0.472582
0.025000 -0.035466 0.698515
0.025000 0.539609 0.096685
0.025000 0.442742 0.517818
-0.025000 -0.070470 0.796118
-0.025000 -0.762489 0.229685
-0.025000 0.009418 0.795643
0.025000 -0.006902 -0.713333
-0.025000 0.517542 0.053801
0.003773 -0.038106 -0.859891
-0.025000 -0.110736 -0.585863
0.025000 -0.790482 -0.145192
-0.025000 0.675771 0.052805
-0.025000 0.300485 0.241016
0.025000 0.548405 0.133456
-0.025000 0.306697 0.610846
-0.025000 0.704975 -0.496065
0.025000 -0.595594 -0.620096
-0.025000 0.237484 -0.175858
-0.025000 0.720308 -0.452728
-0.025000 -0.582723 0.615310
-0.025000 -0.130285 0.367345
-0.003813 -0.859891 0.415408
-0.025000 -0.097575 0.333249
0.025000 0.461913 -0.615009
0.025000 -0.428369 0.247298
-0.025000 0.631294 0.123997
0.025000 0.604010 -0.796244
-0.025000 -0.838834 -0.330543
-0.025000 0.466644 0.222408
-0.025000 -0.550289 0.772589
-0.025000 0.699411 0.600427
0.025000 0.654023 -0.815986
0.025000 -0.415224 -0.111718
-0.025000 0.695719 -0.063210
-0.025000 -0.273836 0.745211
-0.025000 0.541139 -0.469139
0.025000 -0.200373 0.598317
0.025000 -0.129792 0.371304
-0.025000 -0.783499 0.071110
-0.025000 -0.327460 0.256403
-0.025000 0.779248 0.128272
-0.025000 -0.593607 -0.534945
0.025000 -0.851188 -0.058391
-0.025000 -0.063054 -0.505978
-0.025000 -0.004328 -0.825460
0.025000 0.333746 -0.297151
0.025000 0.179401 0.501022
0.025000 -0.126517 -0.290773
0.025000 0.214381 -0.178084
-0.025000 -0.783705 -0.204724
-0.025000 0.378070 0.401724
-0.025000 0.719450 0.249671
-0.025000 0.167296 0.834391
-0.025000 -0.044134 0.085819
0.025000 -0.673479 0.813085
0.025000 0.551835 -0.416728
0.025000 0.268675 -0.226010
-0.025000 0.012591 -0.794361
-0.025000 -0.601925 0.285767
0.025000 0.139050 0.695429
-0.025000 0.052245 0.700661
0.025000 -0.857424 0.714704
0.025000 -0.604580 0.811162
0.025000 0.166445 -0.230561
0.025000 0.160684 0.418396
-0.025000 -0.299559 0.351129
0.025000 -0.276654 -0.284075
-0.025000 -0.282952 0.121385
-0.025000 -0.317330 -0.618316
-0.025000 -0.090515 0.251037
-0.025000 0.375362 -0.807919
-0.025000 -0.087627 0.163776
0.025000 0.653492 -0.149458
-0.025000 0.262817 0.801789
0.025000 0.221073 -0.844849
-0.025000 0.306007 0.514365
0.025000 0.356897 -0.566140
0.025000 0.432766 0.007101
-0.025000 0.108641 -0.379517
-0.025000 -0.671247 -0.236534
0.025000 0.685143 -0.232111
0.025000 0.034880 -0.591926
-0.025000 0.449176 0.783679
0.025000 0.218369 -0.637228
0.025000 -0.181833 -0.695302
-0.025000 -0.642834 0.327599
-0.025000 -0.388585 0.645667
0.025000 -0.161398 -0.151972
-0.025000 0.712968 -0.847704
0.025000 0.331212 -0.739693
0.025000 0.645163 0.460486
-0.025000 -0.112753 0.226407
0.025000 -0.472239 0.076021
-0.025000 0.054271 0.325099
-0.025000 0.857016 -0.026497
-0.025000 -0.125503 -0.659031
0.025000 -0.729227 0.559651
-0.025000 -0.063992 0.476812
-0.025000 0.429946 -0.609553
0.025000 -0.776620 -0.499728
-0.025000 0.685018 0.307885
0.025000 0.294395 -0.497701
-0.025000 0.587933 -0.295979
0.025000 -0.635969 0.670474
-0.025000 0.697343 0.743507
0.011690 -0.859891 0.455507
0.025000 -0.607067 0.391907
-0.025000 -0.553547 0.222843
0.025000 -0.218408 -0.532302
0.025000 -0.062371 -0.010538
0.025000 0.195032 0.524598
-0.017745 -0.091924 0.859891
-0.025000 0.465606 -0.627660
0.025000 -0.026323 -0.546798
0.025000 0.090773 0.580225
0.025000 0.214875 -0.859033
-0.025000 -0.433685 -0.204905
0.025000 -0.485457 0.493245
-0.025000 0.337094 0.770503
-0.025000 -0.423058 -0.571694
0.025000 0.298748 -0.746197
-0.025000 -0.193336 0.737702
-0.025000 0.483255 -0.858084
-0.025000 -0.646052 0.228085
0.025000 -0.531166 -0.368623
-0.025000 -0.741375 0.038093
0.025000 0.281917 0.515950
-0.025000 -0.269119 -0.342886
-0.025000 0.487960 -0.497919
0.025000 0.543556 0.806844
-0.025000 0.280182 -0.287817
0.025000 0.005239 0.536456
-0.025000 0.128722 0.573655
-0.025000 -0.690243 0.199510
-0.025000 0.677584 -0.188047
-0.025000 -0.059512 -0.848546
-0.025000 0.337507 -0.342479
0.025000 -0.140207 0.202453
-0.025000 -0.392054 -0.058313
-0.025000 0.129174 -0.226478
0.022786 -0.413046 -0.859891
0.025000 -0.153920 -0.618769
-0.025000 0.368853 0.056001
0.025000 -0.315323 -0.528692
0.025000 0.482352 -0.132434
-0.025000 -0.232722 0.640659
0.001876 -0.740375 -0.859891
0.025000 -0.291249 -0.755315
-0.025000 -0.618122 0.709762
-0.025000 0.711406 -0.059789
-0.025000 -0.022640 0.219021
-0.025000 -0.345801 0.615747
0.025000 0.310262 0.088407
-0.025000 -0.558724 0.598112
-0.025000 -0.187602 -0.387796
-0.025000 0.321788 -0.111836
0.025000 0.733521 0.090062
-0.025000 -0.455306 0.037495
0.025000 0.435799 0.155150
-0.025000 -0.094921 0.575109
0.025000 -0.708455 -0.213743
0.025000 -0.007755 0.428215
-0.025000 -0.849111 0.698584
-0.025000 -0.775158 -0.759981
0.025000 0.783606 -0.795748
-0.025000 -0.725698 -0.299065
0.025000 0.243924 -0.378842
0.025000 -0.538832 -0.119861
-0.025000 0.447352 0.819886
-0.025000 -0.614923 0.234397
0.025000 0.261158 -0.826309
-0.025000 -0.589862 -0.516189
-0.025000 0.079991 0.580690
0.025000 -0.195241 0.391361
0.025000 0.736512 -0.636670
-0.025000 0.685614 0.123728
-0.025000 -0.208790 0.126291
0.025000 -0.734436 -0.539787
-0.025000 0.098684 -0.090753
-0.025000 0.076471 0.268239
-0.025000 0.487172 0.815529
-0.025000 -0.189344 -0.751371
0.025000 -0.176061 -0.069072
0.025000 0.727262 0.300575
-0.025000 -0.819104 -0.209510
0.025000 0.127361 0.044314
0.025000 -0.817035 0.416072
0.025000 -0.333533 -0.624943
-0.025000 0.171603 -0.688609
0.025000 0.055740 0.645526
0.025000 0.134307 0.063490
0.025000 0.505563 0.388837
-0.025000 0.397878 0.789605
0.025000 0.085749 -0.139882
0.025000 -0.113360 -0.480015
0.025000 -0.695676 0.625407
-0.025000 0.260210 0.045629
0.025000 0.579370 0.091796
-0.025000 -0.627947 -0.337589
0.025000 -0.456706 0.618082
-0.025000 -0.115938 0.673876
-0.025000 0.207229 -0.795240
0.025000 -0.363160 -0.281847
0.025000 -0.460459 -0.321434
-0.025000 -0.073393 0.278026
0.025000 0.636675 0.537767
0.025000 -0.478832 -0.442990
-0.025000 -0.397491 0.630761
-0.025000 -0.755259 -0.612741
0.025000 -0.325072 -0.722989
-0.016443 -0.859891 -0.070047
-0.012659 -0.011497 0.859891
-0.025000 0.116025 0.505506
0.025000 -0.567330 0.338233
0.025000 0.498970 -0.087304
0.025000 0.141171 0.095195
-0.025000 0.243548 0.689702
0.025000 -0.105625 0.075700
-0.025000 -0.798453 0.514110
0.025000 0.538549 -0.409112
0.025000 -0.524759 0.015268
-0.025000 0.283824 0.748041
-0.025000 0.689455 0.496802
0.025000 -0.598888 0.405633
-0.025000 -0.114186 0.413986
-0.025000 0.134580 -0.704093
-0.025000 0.646629 0.466548
0.025000 0.815199 -0.003852
0.017431 0.859891 0.654326
-0.025000 -0.428758 -0.602183
-0.025000 -0.159852 0.781256
-0.025000 -0.808326 -0.754050
-0.025000 -0.506809 -0.738732
0.025000 0.715039 -0.405634
-0.025000 -0.598524 -0.574549
0.025000 -0.004982 0.029345
-0.025000 0.382579 -0.552673
-0.024595 -0.859891 -0.488148
-0.025000 -0.388070 -0.386393
-0.025000 0.205524 -0.369042
0.021514 0.859891 0.426606
-0.025000 0.540846 -0.671715
-0.025000 0.833164 0.837472
0.025000 0.200257 -0.215592
-0.025000 0.456352 -0.218027
0.025000 0.427607 0.602902
-0.025000 -0.514852 0.787890
0.025000 -0.116240 0.374446
-0.025000 0.239520 -0.841855
-0.025000 -0.821325 0.662864
0.025000 0.259824 0.036351
0.025000 0.617099 0.453783
-0.025000 -0.286129 0.486319
0.025000 -0.512093 0.043788
-0.025000 -0.391478 0.243127
-0.025000 -0.697869 -0.065790
-0.025000 0.657819 0.295453
0.025000 0.502891 -0.715964
-0.025000 0.225889 -0.166462
0.025000 0.060395 -0.728626
-0.025000 0.461925 0.445980
-0.025000 -0.229031 0.420927
-0.025000 -0.014975 -0.252526
-0.025000 0.669146 0.332534
0.025000 0.745147 0.689268
0.025000 0.578386 0.662815
-0.025000 -0.643180 -0.131292
0.025000 -0.697822 0.743418
-0.025000 0.527452 -0.482771
-0.025000 0.551656 0.803589
0.025000 -0.037764 0.559792
-0.025000 0.348753 0.546716
0.025000 -0.643985 -0.077053
-0.025000 0.580526 0.188414
0.025000 0.462631 0.362267
0.025000 -0.178862 -0.421199
-0.025000 -0.662596 -0.319052
0.025000 0.739929 -0.222726
-0.025000 -0.353359 -0.282537
-0.025000 0.247470 0.311961
-0.025000 0.391117 0.626310
-0.025000 0.086718 0.775234
0.025000 -0.685439 0.492580
0.025000 -0.346256 0.644875
-0.025000 0.107055 0.805192
0.025000 -0.614413 0.115144
0.025000 0.560355 -0.184960
0.025000 -0.183069 -0.771886
0.025000 0.242611 0.061783
-0.005940 0.226905 -0.859891
-0.000886 0.859891 0.799111
-0.025000 -0.043977 -0.133343
0.025000 -0.440434 0.803618
0.025000 0.389346 -0.560979
-0.025000 0.327311 0.687389
0.025000 -0.187738 -0.849083
0.025000 -0.638575 0.485193
0.025000 0.465011 -0.150499
0.025000 0.171166 -0.744683
-0.025000 0.106616 0.376042
-0.025000 0.554521 0.502281
0.025000 -0.850906 0.434602
0.025000 -0.411625 -0.058470
-0.025000 -0.839746 0.213258
-0.025000 0.532018 0.842404
0.025000 -0.821966 -0.799215
-0.017155 0.294898 0.859891
-0.025000 0.692463 0.799510
-0.025000 0.613689 -0.827323
0.025000 -0.195688 0.786058
-0.025000 -0.008969 0.343689
0.025000 0.087544 0.181731
-0.025000 -0.499125 0.458312
-0.025000 0.306745 0.291312
-0.025000 0.398547 -0.485429
-0.025000 -0.001892 0.207880
0.005868 -0.859891 0.612528
0.025000 -0.096436 -0.031839
-0.025000 0.746030 -0.195067
-0.025000 -0.499068 -0.416450
0.025000 -0.325553 0.366301
0.025000 0.089785 0.490331
-0.025000 0.365144 -0.005673
0.025000 -0.480514 -0.201938
0.025000 -0.319474 0.297761
-0.025000 0.716151 -0.419563
0.025000 0.337414 -0.118800
0.025000 -0.676659 -0.451397
0.025000 0.797861 0.582530
-0.025000 -0.411693 0.240118
-0.025000 -0.010398 0.155343
0.025000 -0.581266 0.244065
0.025000 0.350624 0.269859
-0.025000 -0.043425 -0.026081
0.025000 0.038005 0.061769
0.025000 -0.477218 -0.428899
0.025000 0.278872 -0.625559
0.025000 -0.142592 -0.835235
-0.025000 -0.698908 0.576294
-0.025000 -0.474063 0.477992
0.025000 0.084771 0.530087
0.025000 0.640914 -0.283710
-0.025000 0.397624 -0.501033
-0.025000 -0.419591 0.169146
0.025000 -0.034992 0.010554
-0.025000 -0.378693 0.844126
0.025000 -0.011381 -0.323964
-0.025000 0.182910 0.827821
0.025000 -0.476731 0.024035
0.025000 -0.838242 -0.674527
0.025000 0.396040 0.645492
0.025000 0.556872 0.590595
-0.017705 0.859891 0.544951
0.025000 -0.519921 -0.814502
0.025000 0.077031 -0.242542
-0.025000 -0.167318 0.497357
-0.000627 -0.859891 0.334219
-0.025000 -0.140752 -0.304634
0.025000 0.380038 -0.252822
-0.025000 -0.550491 0.557325
0.025000 -0.624515 -0.703609
-0.025000 0.538640 0.071732
0.025000 -0.529948 -0.033371
-0.025000 0.409994 -0.476274
-0.025000 -0.159217 0.439174
-0.025000 0.673898 0.299609
0.025000 -0.818895 -0.321396
-0.025000 -0.406764 0.179712
-0.025000 -0.768132 0.075508
0.025000 0.598645 0.373875
-0.025000 -0.257879 -0.609680
0.025000 -0.732361 0.236301
0.025000 0.477509 -0.025669
-0.022567 -0.359534 -0.859891
-0.025000 -0.201018 -0.325022
0.025000 0.635505 -0.043800
0.025000 0.529488 0.469982
0.025000 -0.402031 -0.198240
-0.025000 -0.337756 -0.084613
0.025000 0.423444 0.406654
0.025000 0.254628 0.612160
0.025000 0.284101 0.098565
-0.025000 -0.637710 -0.462763
-0.025000 0.764793 0.739223
0.025000 0.424967 0.069755
-0.025000 -0.001225 -0.045051
0.025000 -0.112948 0.679573
-0.025000 -0.394613 0.073218
-0.025000 -0.679281 -0.659137
0.025000 0.709081 -0.523467
0.025000 -0.366974 0.488915
-0.025000 0.768262 -0.050147
0.025000 0.418490 0.087123
0.025000 -0.709980 -0.582429
-0.025000 -0.379848 -0.019055
-0.025000 0.111031 -0.773992
0.025000 -0.191484 0.062268
-0.025000 -0.713259 0.536539
-0.025000 0.698289 0.330005
0.025000 0.426514 -0.638648
0.025000 0.785441 0.071278
-0.025000 0.597631 0.191716
0.025000 -0.078028 0.142655
-0.025000 0.299074 -0.232108
0.025000 0.434446 0.437581
0.025000 -0.266840 -0.314631
0.025000 0.734816 -0.517950
0.025000 0.057774 0.507479
-0.025000 0.332113 0.635554
-0.025000 -0.828735 0.446584
0.025000 -0.719028 -0.322335
-0.006283 -0.021666 -0.859891
-0.014309 -0.674585 0.859891
-0.025000 -0.526806 0.450314
0.025000 -0.856045 0.257583
-0.025000 -0.267040 0.212804
-0.025000 -0.582014 -0.786261
-0.025000 -0.779189 0.772262
0.025000 0.555523 0.188837
0.025000 -0.703230 -0.138916
-0.025000 0.600489 -0.158001
0.025000 -0.646147 0.433121
0.025000 -0.500548 0.815720
0.025000 0.472580 0.810671
-0.025000 -0.584019 0.318915
0.025000 -0.338059 -0.654939
0.013187 0.370253 -0.859891
0.025000 -0.477025 -0.218783
0.025000 0.397231 -0.202679
0.025000 -0.467893 -0.593159
0.025000 0.848266 -0.469384
-0.025000 0.148951 -0.641489
0.025000 0.070180 -0.775127
0.025000 -0.082812 -0.052750
0.025000 -0.228100 0.018395
0.025000 -0.520176 -0.833162
0.025000 0.346398 -0.857621
-0.025000 0.292302 0.215144
0.025000 -0.677899 -0.746886
-0.025000 -0.445364 -0.763634
-0.025000 -0.395485 -0.245908
-0.025000 0.830421 -0.667950
0.025000 0.565749 -0.755122
0.025000 -0.557473 -0.179823
0.025000 -0.679317 -0.178950
-0.025000 0.289064 -0.166721
-0.025000 0.485751 0.745921
0.025000 -0.751319 0.140233
-0.025000 -0.583695 0.506982
0.025000 0.577308 -0.522711
-0.025000 0.327846 0.078147
0.025000 -0.697248 0.144139
0.025000 -0.317892 0.578972
0.025000 -0.663718 -0.749487
-0.025000 -0.539527 0.497404
0.025000 0.349228 -0.105430
-0.025000 0.364335 -0.723926
0.025000 -0.417160 -0.618446
0.025000 -0.307010 -0.389380
0.025000 0.616970 0.554560
-0.025000 -0.236797 0.380230
0.025000 -0.269132 -0.643238
-0.020449 -0.859891 0.579589
0.018663 -0.859891 -0.374641
-0.025000 -0.389040 -0.509920
-0.025000 0.176603 0.765697
0.025000 0.574043 -0.177948
-0.025000 0.268336 0.154683
-0.025000 0.858676 0.584952
-0.025000 0.289708 0.762564
-0.005414 -0.346631 -0.859891
-0.025000 0.016097 -0.761544
0.025000 0.122846 -0.834871
0.025000 0.063367 -0.436320
0.025000 -0.438625 0.461343
-0.025000 0.802242 -0.010069
-0.025000 0.083944 0.708589
0.025000 -0.683948 -0.465835
0.025000 0.443921 -0.790116
0.025000 0.246678 -0.415634
0.025000 0.470499 0.141143
0.025000 -0.682994 0.692082
0.025000 0.741281 -0.383353
-0.018947 0.319493 0.859891
0.025000 -0.742076 0.086146
-0.025000 -0.832529 -0.635292
-0.025000 0.658646 0.584747
0.025000 -0.407526 0.523899
-0.025000 0.721197 -0.837118
-0.025000 0.425527 -0.228453
-0.025000 -0.538667 -0.662619
-0.025000 0.108437 -0.574443
0.025000 -0.263661 -0.774131
-0.025000 0.106546 0.342646
-0.025000 -0.047911 -0.257949
-0.025000 0.092184 -0.191508
0.025000 -0.604258 0.378375
-0.025000 -0.791426 -0.678062
-0.025000 0.526284 -0.385672
-0.025000 -0.820381 -0.697500
0.025000 0.151570 -0.070394
0.025000 -0.427260 -0.324322
-0.025000 -0.409539 0.344622
0.025000 -0.200003 0.315104
0.025000 -0.332624 0.511552
-0.025000 0.500810 0.228872
0.025000 0.676009 0.133144
0.018413 0.176943 0.859891
-0.025000 0.395983 -0.350864
0.025000 -0.591412 0.593958
0.025000 0.254257 -0.769274
-0.025000 -0.695589 0.842656
0.025000 -0.565281 -0.771148
-0.025000 0.029344 0.628026
-0.025000 0.170419 0.074769
0.025000 0.286209 -0.151942
0.025000 -0.539412 -0.458274
0.025000 0.578415 0.318261
0.025000 0.699893 0.196845
-0.017295 0.710778 -0.859891
0.025000 0.026725 -0.215488
-0.025000 0.583259 -0.412907
0.025000 0.820923 0.034272
0.025000 -0.717820 0.315785
0.025000 -0.057325 0.430993
-0.025000 0.152980 0.744606
0.025000 0.255397 -0.303664
0.025000 -0.575101 0.030691
0.025000 0.711983 0.531605
0.025000 0.415688 0.389173
0.025000 -0.778859 0.216547
0.025000 0.098003 0.810042
-0.025000 -0.343919 -0.000296
0.025000 -0.814307 -0.569125
0.025000 0.410890 0.006051
-0.025000 0.824887 -0.134465
-0.025000 0.026601 0.426798
0.025000 -0.226534 0.047842
-0.025000 0.730031 0.221195
0.010224 0.317738 0.859891
-0.025000 -0.256026 0.156529
-0.025000 0.627089 0.272023
-0.025000 0.460621 0.618126
-0.025000 0.559332 -0.043912
0.025000 0.174807 0.696552
-0.025000 0.375272 0.689643
0.025000 -0.476306 -0.804296
0.025000 0.555755 0.682681
-0.025000 -0.186641 -0.194101
0.025000 0.837863 0.447148
0.025000 0.680092 -0.640307
0.025000 0.124795 0.348656
0.025000 0.299852 -0.019016
-0.025000 -0.035848 0.073413
0.025000 -0.376575 0.153031
-0.006356 0.859891 0.460867
0.025000 0.197375 -0.295314
-0.025000 -0.243037 -0.732115
0.025000 -0.452548 0.848421
0.025000 -0.716674 0.565602
-0.025000 0.218299 0.782782
0.025000 0.252630 0.713232
-0.025000 0.523257 0.729701
0.025000 0.515465 0.418604
0.025000 -0.692868 0.559439
-0.025000 -0.317852 -0.771518
-0.025000 -0.458470 -0.034204
0.025000 0.844369 -0.549520
-0.025000 0.791445 0.445814
-0.025000 -0.424106 0.662798
0.025000 -0.486566 -0.232438
0.025000 -0.620845 0.325683
0.025000 0.095301 0.241530
-0.025000 0.666980 0.014065
-0.025000 0.740672 -0.552505
-0.025000 0.102788 0.260911
0.025000 0.059011 -0.832587
0.025000 0.308714 -0.456376
0.025000 0.291786 0.463899
0.025000 0.599772 -0.042940
0.025000 0.092722 0.145248
-0.025000 -0.349623 -0.447353
-0.025000 -0.500620 -0.329547
0.025000 -0.757923 -0.567292
-0.007757 -0.859891 0.253004
0.025000 -0.269203 0.080448
0.025000 0.500463 -0.699898
-0.025000 0.195307 -0.553551
0.025000 0.671027 -0.099817
0.025000 -0.285181 0.684207
-0.025000 -0.559101 0.625567
0.025000 -0.321612 -0.657081
0.009868 0.859891 0.113648
0.025000 -0.203783 0.262049
0.025000 -0.620335 0.819208
-0.025000 0.025323 -0.308692
0.025000 0.355366 0.058587
0.025000 0.282251 -0.749666
-0.025000 -0.457037 0.705070
-0.025000 -0.294912 0.039897
0.025000 -0.662859 0.210442
0.025000 -0.016580 -0.822574
-0.025000 0.819305 0.149166
-0.025000 0.820830 -0.456822
-0.025000 -0.759707 -0.859463
-0.025000 0.161852 -0.832225
-0.025000 -0.440567 0.708712
0.025000 0.207408 -0.120271
0.025000 0.756441 0.333055
-0.025000 0.328207 -0.259857
0.025000 -0.590671 0.527392
0.025000 0.840350 -0.194029
0.025000 -0.043478 -0.078444
-0.025000 -0.193770 0.329961
0.025000 0.090019 -0.211502
-0.025000 -0.442627 0.155772
-0.025000 0.044230 0.271801
0.025000 -0.807391 0.799006
-0.025000 0.421773 0.534566
-0.025000 -0.191575 -0.609834
0.025000 0.415890 -0.659705
0.025000 0.762777 -0.728508
-0.025000 0.220015 -0.518401
0.025000 0.229865 -0.696397
0.025000 0.278187 -0.080042
-0.025000 -0.323336 0.337786
0.025000 0.127106 -0.358977
0.025000 0.777742 -0.168382
0.025000 0.171334 -0.104734
-0.025000 0.708991 -0.560929
-0.025000 0.507537 -0.729175
0.025000 0.546386 0.081384
0.011765 0.859891 -0.695938
0.025000 -0.039188 -0.207371
0.025000 0.087906 -0.253172
0.025000 -0.341657 0.586833
-0.025000 -0.776563 -0.319495
0.025000 0.292187 -0.452480
0.025000 -0.449764 -0.336993
-0.000267 -0.859891 0.544975
0.025000 0.400252 -0.274210
-0.025000 0.238617 0.414667
0.025000 -0.236870 -0.071391
0.025000 -0.130241 -0.469158
-0.025000 0.368467 -0.179328
-0.025000 0.565315 -0.715240
-0.025000 -0.050264 -0.395551
0.025000 -0.622572 -0.807574
0.025000 0.625633 0.061053
0.005931 0.859891 -0.271909
0.025000 -0.455338 -0.215585
0.025000 -0.324018 0.443301
0.025000 0.856676 0.033174
-0.025000 -0.853249 0.034652
-0.025000 0.824856 0.790666
0.025000 -0.621244 -0.274583
0.025000 -0.522598 0.285711
-0.025000 -0.613647 -0.662652
-0.025000 -0.635414 -0.541589
-0.025000 -0.593762 0.628263
-0.025000 -0.037865 -0.060041
0.025000 -0.098348 0.542167
-0.025000 0.654710 0.495167
0.025000 0.297393 -0.604436
-0.025000 -0.158486 -0.621293
-0.025000 0.280541 0.559038
0.008840 0.859891 -0.374931
0.025000 -0.626666 0.355092
0.025000 0.147065 -0.254815
-0.025000 -0.433810 -0.662616
-0.025000 0.334783 0.489485
0.025000 0.528965 0.635526
0.025000 0.536957 0.144068
-0.025000 -0.245290 -0.322457
0.025000 -0.596194 -0.605537
-0.025000 -0.753586 -0.085727
-0.025000 -0.491461 0.797359
0.025000 0.432240 -0.810351
0.025000 -0.817885 0.593934
0.025000 0.207421 0.754305
0.025000 -0.355191 0.409304
0.025000 0.376396 0.697891
0.025000 0.151852 -0.396545
0.025000 -0.575598 0.275178
-0.025000 -0.669398 0.656674
-0.025000 -0.596765 -0.698555
-0.025000 -0.088554 -0.484190
-0.025000 0.562162 -0.691568
-0.025000 -0.782723 -0.258001
0.025000 0.288778 -0.377346
-0.025000 -0.269433 -0.129473
0.025000 0.534601 -0.818562
-0.025000 -0.340853 -0.767146
-0.025000 0.605830 -0.671479
-0.025000 -0.349713 -0.694861
0.025000 0.857934 -0.608266
0.025000 -0.524680 -0.092413
0.025000 0.159856 -0.263609
-0.025000 -0.733521 0.828272
0.025000 0.415331 -0.049112
0.025000 -0.272764 0.060834
0.001755 -0.257053 -0.859891
0.025000 0.761833 -0.690476
-0.023407 -0.859891 0.592867
0.025000 -0.525758 0.707361
0.025000 -0.204092 -0.362779
-0.025000 0.421407 0.165345
0.025000 0.718289 -0.112277
-0.025000 0.056958 -0.769033
0.025000 0.129572 0.026891
0.008336 0.859891 0.590117
0.025000 -0.062586 -0.109755
0.025000 0.749769 -0.327187
0.025000 -0.004953 -0.609964
-0.025000 -0.192431 -0.801332
0.025000 -0.657611 0.180255
-0.025000 0.207187 -0.509643
-0.024766 -0.859891 -0.057978
-0.025000 0.161629 0.269175
-0.025000 -0.748344 0.311761
-0.025000 0.160529 0.438410
0.025000 0.819623 -0.629546
-0.025000 0.852642 0.163773
-0.025000 -0.067557 -0.716605
-0.025000 -0.457069 0.010955
0.025000 0.685553 -0.008337
-0.025000 -0.774815 -0.488855
-0.025000 -0.254542 0.698834
-0.025000 -0.356621 0.258745
0.025000 0.143960 0.731369
-0.025000 0.045128 -0.372513
0.025000 0.820961 -0.143111
0.025000 0.101124 0.330498
-0.025000 -0.000056 0.692663
-0.025000 0.218038 -0.462066
0.025000 -0.612780 0.099327
0.025000 -0.546939 0.780432
0.025000 -0.354677 -0.501694
-0.025000 -0.318003 -0.587894
-0.025000 0.006871 0.192704
0.025000 0.708645 -0.230454
0.025000 -0.740502 -0.700721
-0.025000 -0.109757 0.345236
0.025000 0.763380 -0.078740
0.010340 -0.088609 -0.859891
-0.025000 -0.798901 0.165327
-0.025000 0.846631 -0.368308
0.025000 0.645699 -0.754149
0.025000 -0.334919 -0.163262
-0.025000 0.820204 -0.738632
-0.025000 -0.002966 0.466608
-0.025000 -0.275807 0.037477
-0.025000 -0.849822 -0.778475
-0.025000 0.137794 0.769953
-0.025000 -0.698170 0.534714
-0.025000 0.565801 -0.637053
-0.025000 -0.445678 0.850685
-0.025000 -0.677492 -0.712358
-0.025000 0.017277 -0.097979
-0.025000 -0.724673 -0.692661
-0.025000 0.802063 0.739691
0.025000 -0.347297 0.516482
0.025000 0.104569 0.133956
0.025000 -0.418753 0.802168
-0.025000 -0.012900 -0.518299
0.025000 -0.419486 0.309819
-0.025000 0.718158 0.820109
0.025000 -0.605717 0.554009
-0.025000 0.502030 -0.164857
-0.025000 -0.187450 -0.655764
0.014232 0.759095 0.859891
-0.025000 0.625718 -0.444588
0.025000 0.759437 0.487980
-0.013740 0.270291 -0.859891
0.025000 0.712776 -0.772771
0.025000 0.298776 -0.791700
0.025000 0.683570 0.556630
-0.025000 -0.699392 -0.020664
0.025000 0.665950 -0.615534
-0.025000 0.688379 0.658994
0.025000 0.512344 -0.637821
-0.000237 0.859891 -0.241252
0.025000 0.047915 0.834256
-0.010235 0.859891 0.762551
-0.025000 -0.553642 -0.220277
-0.008990 -0.449537 0.859891
-0.025000 -0.321153 -0.365364
0.025000 0.654089 0.594209
0.025000 -0.412174 -0.381129
0.010721 0.664998 -0.859891
-0.025000 0.223897 -0.774890
0.025000 0.599337 0.453160
-0.025000 -0.547614 0.420556
0.025000 0.295359 0.625864
0.025000 -0.547474 -0.320097
0.025000 -0.544049 -0.173128
-0.025000 0.142341 -0.050711
-0.025000 -0.322067 0.541801
0.025000 -0.761392 0.645326
-0.025000 0.068976 -0.829039
-0.025000 -0.715724 -0.750140
0.025000 0.331094 0.535970
-0.025000 0.368197 0.493490
0.025000 -0.106877 -0.401067
0.025000 -0.503859 -0.834007
0.025000 -0.313361 -0.675561
0.025000 -0.119731 -0.785681
0.025000 0.303027 0.272023
0.025000 0.481769 -0.517924
-0.025000 0.199321 0.263508
-0.025000 -0.716831 -0.711551
0.025000 -0.467701 0.847199
0.025000 -0.318744 0.097041
-0.025000 0.249127 -0.671559
0.025000 0.633571 -0.417128
0.025000 0.157142 -0.016026
0.025000 -0.850652 0.088881
-0.025000 -0.814969 -0.057441
-0.025000 -0.429558 -0.013378
-0.025000 -0.297783 0.560341
0.025000 -0.157296 -0.216329
-0.025000 0.154761 0.065903
0.011341 -0.859891 0.841488
0.025000 -0.133000 0.157139
0.025000 0.645337 0.420267
0.025000 -0.263624 0.626295
0.025000 -0.399474 -0.239275
0.025000 0.340329 -0.758895
0.025000 -0.481009 -0.765138
-0.025000 0.082223 0.504333
-0.025000 -0.697934 0.341416
0.025000 0.305771 0.608635
-0.025000 0.385978 -0.515198
-0.025000 0.828709 0.078472
0.025000 -0.245550 -0.083977
0.025000 -0.137197 0.091157
0.025000 0.407149 0.835708
0.025000 0.804502 0.671226
0.014529 -0.025967 -0.859891
0.025000 -0.576036 -0.557985
0.025000 0.311478 -0.220935
0.012230 -0.170450 0.859891
-0.025000 -0.395829 0.194627
-0.025000 0.262664 0.689204
0.023905 0.859891 0.467660
-0.025000 -0.515694 0.216286
-0.025000 0.462652 0.589473
-0.025000 -0.751779 -0.373913
0.025000 -0.020901 -0.433332
0.025000 -0.768058 0.523818
-0.025000 0.716985 0.418072
0.025000 -0.140310 0.841543
-0.025000 -0.539978 -0.629959
-0.025000 0.021420 -0.414474
-0.025000 -0.194081 -0.151414
0.025000 0.553584 -0.783355
-0.025000 0.713754 0.085933
-0.025000 -0.011538 -0.093391
0.025000 0.276590 -0.137483
0.025000 -0.449135 -0.571139
0.005266 0.859891 -0.709922
0.025000 -0.851391 -0.407924
0.025000 0.391203 0.318186
0.025000 -0.788621 -0.301216
0.025000 -0.064275 -0.215724
-0.025000 0.808775 0.329630
0.025000 0.729685 0.599450
0.025000 0.322983 0.011007
0.025000 -0.550494 0.543304
0.025000 0.337819 -0.525361
0.025000 -0.205843 0.730843
-0.025000 0.805978 0.103186
-0.025000 0.035008 -0.794665
0.025000 -0.071423 0.084685
0.025000 0.300979 -0.145754
0.025000 0.021127 0.171293
-0.019687 -0.139055 -0.859891
0.025000 0.223652 -0.390165
0.025000 0.553021 0.354363
0.025000 -0.432857 0.434575
-0.025000 0.504547 0.151268
-0.025000 0.368167 -0.610341
0.025000 0.160708 0.609373
-0.025000 -0.035209 -0.714180
0.025000 -0.284508 0.025489
0.025000 0.598456 -0.493615
-0.001453 0.570152 -0.859891
0.025000 -0.271805 -0.001060
0.025000 -0.512960 -0.256789
0.025000 0.536562 0.568280
0.025000 0.604368 -0.268568
0.025000 0.728156 -0.804007
-0.025000 -0.683454 -0.553991
-0.025000 0.154444 0.248465
0.025000 -0.816174 0.110000
-0.025000 -0.310062 0.516380
-0.025000 -0.145497 0.374736
0.025000 0.628472 0.469149
-0.025000 0.234562 0.170247
0.025000 0.110412 -0.855572
-0.025000 -0.212878 0.083518
-0.025000 0.658638 0.622351
0.025000 0.059353 0.741426
0.025000 -0.626378 -0.395513
0.025000 0.536725 -0.672413
-0.025000 0.638582 -0.571016
-0.025000 0.043982 0.062857
-0.025000 -0.116834 -0.006564
0.025000 -0.714226 0.483445
-0.025000 -0.843375 -0.173659
0.025000 0.418251 0.256336
0.025000 -0.803547 0.482976
0.025000 0.145199 0.077802
-0.025000 0.820347 -0.003191
0.025000 -0.722257 -0.732677
0.025000 -0.188043 0.705843
-0.025000 0.230682 0.360858
0.025000 -0.093810 -0.341473
-0.025000 -0.534976 0.427899
-0.025000 -0.296296 0.169462
-0.025000 -0.153595 0.195741
-0.025000 0.625161 0.780462
0.025000 0.266660 0.153216
-0.002089 -0.594887 -0.859891
0.025000 0.449007 0.532794
0.025000 -0.782199 0.077806
-0.025000 -0.236070 0.711986
0.025000 -0.219877 0.734783
-0.025000 -0.532873 0.224451
-0.025000 -0.533973 0.074986
0.025000 -0.174173 0.205343
-0.025000 -0.710382 0.072928
0.025000 0.377104 -0.196288
-0.025000 -0.248186 -0.501055
0.011513 -0.859891 -0.117439
-0.025000 0.068072 -0.450721
0.011721 0.859891 -0.448406
-0.025000 -0.613001 -0.776287
0.025000 0.418711 -0.185477
-0.025000 -0.518297 0.578302
0.025000 -0.823282 -0.515436
-0.016111 0.859891 0.332543
0.025000 -0.458991 0.538282
0.025000 0.451700 -0.516411
-0.025000 -0.426751 -0.786845
0.025000 -0.192813 -0.552078
-0.025000 0.546333 0.577428
0.025000 0.166434 -0.091510
-0.025000 0.194051 -0.846616
-0.025000 -0.230008 -0.553935
-0.025000 -0.348537 0.633127
-0.025000 -0.101361 0.510681
-0.025000 -0.589972 0.084145
0.025000 0.464815 0.561734
0.025000 -0.174241 -0.549457
0.025000 0.670172 -0.524961
-0.025000 -0.420942 -0.746876
0.025000 0.093005 0.782576
-0.025000 -0.249403 0.594690
-0.025000 0.269050 0.737740
-0.025000 0.303617 -0.485809
0.025000 0.011757 -0.648281
0.025000 -0.082894 -0.023367
0.025000 -0.618277 -0.241037
-0.025000 0.039022 -0.292642
0.025000 -0.098381 -0.531390
0.025000 0.521028 0.708925
0.025000 0.479506 -0.666494
-0.025000 0.136787 0.700857
0.025000 -0.400232 0.382332
0.025000 0.782320 0.410073
0.025000 -0.067660 0.199899
0.011937 -0.859891 0.170809
-0.025000 0.618424 0.697620
0.025000 -0.617146 0.176360
-0.025000 -0.095947 -0.499754
0.025000 0.155805 -0.829740
0.025000 0.409063 0.048680
0.025000 -0.001136 -0.017419
0.025000 -0.273883 -0.813744
-0.025000 -0.085535 0.801633
0.025000 0.186410 0.169882
-0.025000 0.117400 0.735753
-0.025000 0.808191 -0.024183
0.025000 0.345054 -0.512367
0.025000 0.176119 0.719402
-0.025000 -0.698137 -0.500364
-0.025000 -0.761927 -0.553423
0.025000 -0.679988 0.289541
0.025000 -0.237505 -0.616923
-0.025000 -0.165446 -0.214189
0.025000 -0.485997 0.173682
-0.025000 0.529107 -0.550457
0.025000 -0.157256 -0.075965
0.025000 -0.793823 -0.126175
-0.025000 0.482195 0.578308
-0.025000 0.610089 0.209082
0.009462 -0.508389 0.859891
-0.025000 -0.815347 -0.500380
0.000577 -0.859891 0.307423
0.025000 0.785587 0.613006
-0.025000 -0.289917 0.454187
0.025000 -0.545076 -0.053638
0.025000 0.782468 0.735574
0.025000 -0.543379 -0.562116
-0.025000 0.446609 0.029477
-0.025000 -0.622414 0.366558
-0.025000 -0.354686 0.139324
-0.025000 0.340805 0.290768
0.025000 0.490780 -0.275929
0.025000 -0.110926 0.763763
0.025000 0.659779 -0.859083
0.025000 -0.201235 0.013387
0.025000 0.168097 -0.660720
0.025000 -0.524488 0.001966
0.025000 0.549277 0.769800
-0.025000 0.672631 -0.357840
0.025000 0.448786 0.257983
-0.025000 0.714497 0.847093
-0.025000 -0.275574 -0.817843
0.025000 -0.124658 0.523691
-0.025000 0.470254 0.756213
-0.025000 -0.764986 -0.645824
0.025000 -0.083998 0.493673
-0.025000 0.726813 -0.199888
0.025000 -0.755828 0.618029
-0.025000 -0.635194 0.762985
-0.025000 -0.437826 -0.033725
-0.025000 -0.359935 -0.612162
-0.025000 -0.218919 0.098342
0.025000 -0.728608 -0.210453
0.025000 0.828836 0.770255
0.025000 0.112964 0.245074
0.010173 0.088175 -0.859891
-0.025000 0.613514 -0.283790
-0.025000 0.537495 -0.820762
0.025000 -0.228988 0.119990
0.025000 0.023797 0.662741
-0.025000 -0.355007 -0.490583
-0.017392 -0.859891 0.369497
0.025000 0.314881 -0.443426
0.025000 0.186548 0.446131
0.025000 0.282833 -0.573536
0.025000 0.409612 0.033152
0.025000 -0.127759 -0.832722
0.025000 -0.683481 -0.019676
-0.025000 -0.733737 -0.477149
0.025000 0.056298 0.721197
0.025000 0.772312 -0.806969
0.025000 0.333760 -0.350300
0.025000 -0.693566 0.664359
-0.025000 0.168073 -0.297550
0.025000 0.288847 0.250880
0.025000 0.270158 -0.703762
0.025000 -0.319516 0.789298
0.025000 -0.085722 -0.433047
0.025000 0.372404 -0.423550
-0.025000 -0.817921 0.403499
0.025000 0.024678 0.359781
-0.025000 -0.198594 0.563941
0.025000 0.079926 0.112983
0.025000 -0.248766 0.226974
0.025000 -0.708786 -0.003001
-0.025000 0.612705 0.594587
-0.025000 0.121509 0.212962
-0.025000 0.020755 0.755989
-0.025000 -0.467625 -0.140974
0.025000 -0.334991 0.493235
0.025000 0.035304 -0.760925
-0.025000 0.393269 0.566712
0.025000 -0.215572 -0.705832
-0.025000 -0.656416 -0.073753
-0.025000 0.142262 -0.778995
0.025000 0.283276 0.697804
-0.025000 0.721835 0.833497
0.025000 0.413081 0.104866
-0.025000 -0.062136 0.289672
-0.025000 -0.226481 0.196584
-0.025000 0.773944 -0.022677
0.025000 -0.839579 0.381967
-0.025000 -0.694724 0.102782
0.025000 0.016914 0.649088
0.025000 0.401450 0.114003
0.025000 -0.076345 -0.391965
-0.025000 -0.787155 -0.655355
0.025000 -0.467888 0.476226
-0.025000 -0.407438 0.527255
0.025000 0.723531 -0.329453
0.025000 0.810550 0.429060
-0.025000 0.028329 0.485543
-0.025000 0.208686 -0.315319
-0.025000 0.453059 -0.669395
-0.025000 -0.028205 -0.810220
-0.002882 0.859891 0.174627
0.023292 0.859891 0.838558
0.025000 -0.621763 -0.226112
0.025000 -0.356893 0.117844
-0.025000 -0.858794 0.331160
-0.025000 -0.194003 0.186838
-0.025000 0.380378 0.608437
0.025000 -0.810958 -0.466876
-0.025000 0.370889 -0.342932
-0.025000 0.373483 0.816268
-0.025000 0.138667 0.182505
0.025000 -0.764369 0.122686
0.025000 0.504604 -0.731648
0.025000 -0.023151 0.436013
0.025000 0.121922 -0.568053
0.025000 0.245336 -0.666039
-0.025000 0.620144 -0.160014
-0.025000 -0.610417 -0.534272
-0.025000 0.134190 -0.167370
0.025000 -0.366347 -0.487518
-0.025000 -0.033120 -0.627779
-0.025000 -0.512127 0.728700
0.025000 0.679815 0.342798
-0.025000 0.545788 0.609846
-0.025000 -0.711186 0.666419
0.025000 -0.625578 0.240334
-0.025000 -0.641878 0.191757
0.025000 0.220850 -0.621821
0.025000 -0.558233 0.090980
0.025000 0.559231 0.458614
0.025000 0.360371 -0.022727
0.025000 0.564165 0.832995
0.025000 -0.223727 0.322718
-0.025000 -0.581842 -0.036117
0.025000 0.854910 -0.172228
-0.025000 0.156950 -0.662687
0.025000 0.748754 -0.395274
0.025000 -0.657254 -0.282892
0.025000 -0.019333 0.290484
0.025000 0.446836 -0.609292
-0.025000 -0.844324 0.579513
-0.025000 -0.380050 0.204961
0.025000 0.430866 -0.479764
-0.025000 -0.382751 0.385006
-0.025000 0.464318 -0.753795
-0.025000 -0.113176 -0.437731
-0.025000 -0.642923 -0.213180
0.025000 -0.015927 -0.338974
-0.025000 -0.533481 0.128899
-0.025000 -0.560722 0.345215
-0.025000 -0.013077 -0.638565
0.025000 -0.780443 -0.569084
-0.025000 -0.616305 0.109039
-0.025000 -0.634846 0.727237
0.025000 0.254581 -0.683272
-0.025000 -0.027363 -0.480416
-0.025000 -0.675405 -0.787589
-0.025000 0.210425 -0.836830
0.025000 0.845977 -0.780292
-0.025000 -0.659091 -0.817891
0.025000 0.522959 0.434162
-0.025000 -0.824495 -0.333570
0.025000 -0.567023 0.753509
0.025000 -0.349814 -0.667231
0.025000 -0.076612 0.468062
0.025000 -0.088990 -0.593029
0.025000 0.431516 -0.531117
0.025000 0.552023 0.369991
0.025000 -0.191909 0.129348
-0.025000 -0.561388 -0.008398
-0.025000 -0.408385 -0.826265
-0.025000 -0.817267 0.014753
0.003219 -0.859891 -0.777860
0.025000 0.306372 -0.130939
-0.025000 -0.463562 -0.681726
0.025000 -0.858716 -0.584183
-0.025000 -0.037715 0.324756
0.025000 0.214419 0.431319
-0.025000 0.073716 -0.089485
-0.025000 0.354790 0.487199
-0.025000 0.327031 -0.013605
0.025000 -0.325873 0.283321
0.025000 -0.395456 0.783691
-0.025000 0.580135 0.160871
0.025000 -0.068952 -0.320371
0.025000 0.743040 -0.649448
-0.025000 0.275809 0.762040
0.025000 -0.667117 0.828644
-0.025000 0.460951 -0.073362
0.025000 -0.703653 0.106999
0.025000 -0.222818 -0.345840
0.025000 -0.286942 -0.136935
-0.025000 -0.560509 -0.064991
0.025000 0.451793 -0.134093
-0.025000 -0.582267 0.739503
0.008501 0.063382 -0.859891
0.025000 -0.284792 0.650554
-0.025000 -0.171342 0.479892
-0.025000 -0.549673 -0.651202
-0.025000 0.231530 -0.728828
-0.025000 -0.661813 -0.832670
-0.025000 0.602704 0.701001
0.025000 -0.757856 -0.214849
0.025000 -0.271444 0.651631
-0.025000 0.131101 0.094229
-0.025000 0.487211 0.731637
-0.025000 0.476396 -0.435970
0.025000 -0.745241 -0.578877
-0.025000 0.363200 -0.835034
0.025000 -0.094934 -0.821657
-0.025000 0.465543 -0.679479
0.025000 0.071646 0.690322
-0.025000 -0.503363 -0.521102
0.025000 -0.184608 -0.503074
-0.025000 0.240738 -0.155240
0.025000 -0.228930 -0.169650
0.025000 -0.540215 0.501493
0.025000 -0.670824 -0.821417
-0.025000 0.166647 -0.231008
-0.025000 0.728271 -0.307021
0.025000 0.187032 -0.393116
0.025000 0.152407 0.342291
-0.025000 -0.208497 -0.203834
-0.025000 0.157016 -0.784591
0.025000 0.818615 -0.445195
-0.014852 0.016060 0.859891
0.025000 -0.604220 -0.778871
-0.025000 -0.794666 0.262239
0.016075 -0.859891 -0.733633
-0.025000 -0.299253 -0.701181
-0.025000 0.308626 -0.262447
0.025000 -0.511389 0.652187
0.025000 -0.836731 0.606087
0.025000 0.422121 0.477483
-0.025000 0.672814 -0.036023
0.025000 0.299948 -0.688416
-0.018490 -0.859891 0.071700
-0.025000 -0.750913 -0.646083
0.025000 -0.226280 -0.717558
-0.025000 0.597942 -0.541985
0.025000 -0.159613 0.485358
0.025000 0.643772 -0.239715
-0.025000 -0.427655 0.103810
0.025000 -0.319825 -0.515249
0.025000 0.016271 0.497113
0.025000 0.350298 0.475140
-0.025000 -0.679097 -0.177646
-0.025000 -0.023644 0.646143
0.025000 -0.280033 -0.780452
0.025000 0.191171 0.108361
0.025000 -0.437544 0.283046
-0.025000 0.789099 0.621586
0.025000 -0.254122 -0.505567
-0.025000 -0.350265 -0.161077
0.025000 0.251416 -0.484991
-0.025000 0.253553 -0.575993
0.025000 0.576258 -0.420678
-0.025000 -0.829901 -0.499168
0.025000 -0.582565 0.504870
-0.025000 -0.575916 0.524839
0.025000 -0.043510 0.170764
-0.025000 -0.784262 -0.276067
0.025000 -0.226246 0.449149
0.025000 0.093679 -0.655673
0.025000 -0.260899 0.802994
0.025000 0.731684 -0.538854
0.025000 0.131781 0.118430
-0.025000 0.205660 0.731216
0.025000 -0.749626 0.122794
0.025000 -0.543718 0.125265
0.025000 -0.114962 -0.201537
-0.025000 -0.827173 0.027142
0.025000 0.098021 -0.240162
0.025000 0.101790 -0.843280
-0.021923 0.859891 -0.395671
-0.025000 -0.665337 0.716859
0.025000 0.714766 0.128647
0.025000 0.624694 -0.279534
-0.025000 0.426585 0.393770
-0.025000 -0.051138 0.685578
0.025000 0.413249 0.463018
0.025000 0.378888 -0.834486
-0.025000 0.479860 -0.760434
0.025000 0.203056 -0.087245
0.025000 -0.623084 0.130823
-0.025000 -0.400240 0.167134
0.025000 0.236929 0.853885
-0.025000 0.643709 -0.762594
0.025000 0.274345 0.856684
-0.025000 0.283599 -0.337088
0.025000 -0.338837 0.529378
0.025000 0.316428 0.245741
-0.025000 0.084926 0.414774
-0.025000 -0.458748 -0.281981
0.025000 -0.449691 -0.527329
0.025000 -0.493639 0.637891
0.025000 -0.236018 -0.151098
0.025000 -0.724816 0.656730
-0.025000 -0.840862 -0.188062
0.025000 0.246047 -0.544769
0.025000 -0.368900 -0.084656
-0.025000 0.427736 0.552695
-0.025000 0.030364 -0.742355
0.025000 0.808637 -0.434093
-0.025000 0.525038 0.445654
0.025000 -0.441911 -0.319585
0.025000 0.011831 0.681746
-0.025000 -0.662978 0.248681
-0.025000 -0.444034 0.397969
0.025000 0.211452 -0.017628
-0.012743 0.401321 -0.859891
-0.025000 0.206266 -0.285905
-0.025000 0.287598 -0.808991
-0.025000 -0.838061 0.463001
-0.025000 -0.590369 0.249712
0.025000 0.046699 0.190523
0.025000 0.821609 -0.692266
-0.025000 -0.026408 0.666540
0.025000 0.708584 0.144088
-0.025000 -0.069963 0.523867
0.025000 0.346705 -0.028234
0.025000 0.260215 0.671791
-0.024545 -0.637173 0.859891
-0.025000 -0.208222 0.391145
0.025000 0.216676 0.405292
-0.025000 -0.686464 -0.380475
-0.025000 0.079961 0.059784
0.025000 -0.057773 0.786172
0.025000 -0.133305 -0.451731
-0.025000 0.804540 -0.645159
-0.025000 -0.754703 -0.131521
-0.025000 0.542223 -0.532707
0.025000 -0.695953 -0.725643
0.025000 -0.760623 -0.281534
0.025000 0.809070 -0.797036
0.025000 0.700428 -0.008780
-0.025000 0.794541 -0.597486
0.025000 -0.151000 -0.521281
-0.025000 0.440750 0.574467
0.025000 -0.793772 0.327741
0.025000 0.214099 -0.543667
0.025000 -0.759637 0.361216
-0.025000 0.815850 -0.297172
-0.025000 -0.536484 0.524519
0.025000 0.394826 0.293560
-0.025000 -0.801677 -0.843181
0.025000 -0.520271 -0.300814
0.025000 -0.058909 -0.142891
0.025000 0.853623 -0.016417
-0.025000 -0.578731 -0.829548
0.025000 -0.293422 -0.331539
-0.025000 -0.425655 0.843730
-0.025000 -0.315344 -0.069807
0.025000 0.017739 -0.772810
-0.025000 0.132596 -0.646417
-0.025000 -0.183332 0.399928
-0.025000 0.615426 0.132085
0.025000 -0.632203 0.172695
-0.025000 -0.327723 0.560162
0.025000 -0.189701 0.816677
0.025000 -0.203539 -0.471966
0.025000 -0.676077 -0.423281
0.025000 -0.534015 -0.838511
-0.019286 -0.103782 -0.859891
-0.025000 -0.737170 0.086068
-0.025000 0.304423 0.836506
-0.025000 -0.678141 -0.681520
0.025000 -0.597282 0.637307
-0.025000 -0.845348 -0.828753
-0.025000 -0.322749 0.201668
-0.025000 0.272483 0.262301
-0.025000 0.782731 0.665754
-0.025000 -0.423262 0.690088
0.025000 -0.289039 0.825261
-0.025000 -0.112581 0.360047
0.025000 -0.847786 0.172069
0.025000 -0.416109 -0.310896
-0.025000 0.043153 -0.386855
-0.025000 -0.359620 0.810037
0.025000 0.587064 0.240662
0.025000 -0.021961 0.816415
0.025000 -0.512669 -0.582657
-0.025000 0.159306 0.146292
-0.025000 -0.732414 0.396641
-0.025000 0.701732 0.578875
0.025000 -0.102729 -0.312363
0.025000 0.129267 0.523554
0.025000 0.341950 -0.405888
-0.008781 -0.859891 -0.166790
0.025000 0.699869 0.254321
-0.017740 0.601829 0.859891
-0.025000 -0.460361 0.818271
0.025000 -0.261086 0.404974
-0.009513 -0.366917 -0.859891
0.025000 -0.085230 -0.625449
0.025000 -0.264639 0.223709
0.025000 -0.248005 -0.179708
-0.025000 0.606925 0.386869
-0.025000 0.274543 0.721025
-0.025000 0.238316 0.482221
-0.025000 0.005392 -0.692190
-0.025000 0.345495 -0.817920
0.025000 0.507386 0.702263
0.025000 -0.253651 0.823222
-0.025000 -0.132401 -0.488229
0.025000 -0.184527 0.501719
0.006211 0.859891 0.406277
0.025000 -0.688251 -0.243418
-0.025000 -0.739868 0.602392
-0.025000 0.574972 -0.626435
0.025000 -0.641187 0.096305
-0.025000 -0.222618 -0.851789
0.025000 0.201171 -0.249554
-0.025000 0.639144 -0.434867
0.025000 -0.849134 0.686941
0.025000 0.664339 0.660965
-0.025000 0.822971 0.534032
0.025000 0.494125 0.730331
0.025000 0.161149 -0.413516
-0.025000 -0.421039 -0.162765
-0.025000 0.426090 0.128509
-0.025000 0.276803 -0.378582
-0.025000 0.077126 0.115097
0.025000 0.083640 -0.695843
0.025000 -0.729658 -0.241859
0.025000 0.612318 -0.204823
0.025000 0.813940 0.608071
0.025000 0.773425 0.523006
0.025000 0.229734 -0.544713
0.025000 -0.613428 -0.087434
0.025000 -0.512209 -0.558160
0.025000 0.149893 -0.381778
0.025000 -0.498385 0.758517
0.025000 -0.485599 0.394168
-0.025000 0.463996 0.194414
-0.025000 0.365394 0.557131
-0.025000 0.818297 -0.800426
-0.025000 -0.186354 0.057145
0.025000 0.774149 0.128588
-0.025000 -0.097629 -0.405305
0.025000 -0.027122 0.800096
-0.025000 -0.120122 -0.044240
-0.025000 0.104676 -0.709427
-0.025000 -0.211263 -0.590036
-0.025000 0.350314 0.085650
0.025000 0.583292 -0.039175
-0.025000 -0.000918 0.271996
0.025000 -0.096075 0.143684
0.025000 0.190378 -0.595850
0.025000 0.037103 -0.137410
-0.006916 0.544797 0.859891
0.025000 0.845831 0.830914
0.025000 0.695385 0.550418
0.021441 0.859891 -0.241931
-0.025000 -0.585335 -0.501424
-0.025000 0.726897 -0.252407
-0.025000 0.315340 0.068354
0.025000 -0.241278 -0.518667
0.025000 0.667177 -0.280304
-0.025000 -0.135275 -0.629880
-0.025000 0.380627 0.083567
-0.025000 -0.301120 0.592136
0.025000 0.432259 -0.298450
0.025000 0.535555 0.194568
-0.025000 0.836319 0.537631
0.025000 0.281272 0.621549
-0.025000 -0.500051 0.028583
0.025000 0.814736 0.511248
0.015941 0.859891 -0.003619
-0.025000 0.826820 0.820658
-0.025000 0.617705 -0.698599
0.025000 -0.249004 -0.452675
-0.025000 -0.673602 -0.842548
-0.025000 0.097690 -0.811208
-0.025000 -0.022546 -0.340513
0.025000 -0.761981 0.508694
0.025000 -0.558352 0.205272
0.025000 0.161268 0.505692
0.025000 -0.836938 0.716736
0.025000 -0.358882 -0.406965
-0.025000 0.803514 -0.726475
-0.025000 -0.248534 -0.565347
0.025000 -0.803773 -0.079896
-0.025000 -0.440936 -0.471262
-0.025000 0.748779 -0.624053
-0.025000 0.089997 0.470578
-0.025000 0.550342 0.054406
0.025000 0.333987 0.322920
-0.025000 0.505665 0.427884
0.025000 -0.450890 -0.048078
-0.025000 -0.774082 -0.816748
-0.025000 -0.798655 0.022177
-0.025000 -0.097779 -0.353789
-0.025000 -0.366387 0.297854
-0.025000 -0.795837 -0.040333
0.025000 -0.758029 -0.455584
0.025000 -0.310856 0.654141
0.025000 -0.361755 0.145097
-0.017661 0.859891 0.638300
0.025000 0.067370 -0.560428
0.025000 -0.261351 -0.190625
0.025000 0.297634 -0.815921
0.025000 -0.600318 0.089221
0.025000 -0.169996 0.369023
0.025000 -0.792439 0.175097
-0.025000 -0.039934 -0.199904
0.025000 0.018837 0.702206
0.025000 0.283131 -0.518804
0.025000 -0.121596 -0.737941
-0.023869 -0.859891 -0.404701
-0.025000 -0.003593 0.374157
0.025000 -0.314217 0.713923
-0.025000 -0.501817 -0.193603
0.025000 0.205836 -0.517957
-0.025000 0.213862 0.005463
0.025000 -0.031626 -0.260074
-0.025000 -0.330167 0.590356
0.025000 -0.168340 -0.263901
0.025000 0.060101 0.611839
-0.025000 0.435975 -0.779912
-0.025000 -0.773354 -0.634184
0.025000 -0.243065 0.666826
0.025000 -0.176617 0.348950
0.025000 -0.214336 0.788306
-0.025000 0.740289 -0.605892
0.025000 -0.834348 0.167740
0.025000 0.563274 -0.406430
0.025000 0.505638 0.550800
0.025000 0.694765 0.007699
-0.025000 -0.376134 0.106870
-0.025000 -0.030071 0.256745
0.025000 -0.596795 0.331787
-0.025000 -0.165484 -0.300889
0.025000 -0.339851 0.629311
0.025000 -0.185288 -0.469872
0.025000 -0.590276 -0.022009
-0.025000 -0.742832 -0.196250
-0.025000 -0.590938 0.205848
0.025000 -0.455037 -0.782050
-0.013942 0.015415 -0.859891
0.025000 0.240451 0.520888
0.025000 -0.357905 0.319385
-0.025000 0.159924 -0.255499
-0.025000 0.668391 0.030096
-0.025000 0.822740 -0.108388
0.025000 0.656306 -0.630420
0.025000 0.241422 0.200928
-0.025000 -0.689909 -0.537910
0.025000 0.110371 0.209802
0.025000 -0.622942 0.019268
-0.025000 -0.238972 -0.832894
-0.025000 0.429680 -0.662254
0.025000 0.604675 0.546367
0.025000 0.327706 0.038192
-0.025000 0.823777 0.432951
-0.025000 0.401411 0.100535
0.025000 -0.495054 0.052496
-0.025000 0.354149 -0.106456
0.025000 -0.091669 0.748270
-0.025000 0.379611 0.763612
-0.025000 0.713708 0.608833
-0.025000 -0.077324 0.036423
0.025000 -0.779439 0.852685
0.025000 -0.804651 0.157983
-0.025000 -0.705285 0.176979
0.025000 0.586905 0.637315
-0.025000 -0.724797 -0.608547
-0.025000 0.451922 0.184965
-0.025000 0.763100 -0.168861
0.025000 0.062591 -0.597959
0.025000 0.327792 -0.832964
-0.025000 0.812535 0.051683
-0.025000 -0.513240 -0.766677
0.025000 -0.777232 0.187495
0.025000 -0.229863 -0.027344
0.025000 0.025445 -0.521656
0.017919 0.518394 -0.859891
-0.025000 0.803048 0.669171
0.025000 0.578375 0.203450
-0.025000 -0.352163 0.407465
-0.025000 -0.232103 -0.478874
-0.025000 0.120849 0.340584
-0.025000 0.034634 0.689498
-0.025000 -0.685393 0.675060
0.025000 -0.697837 0.408528
-0.025000 0.002551 -0.188190
0.025000 -0.071014 0.838938
-0.025000 0.063148 -0.179574
0.025000 0.419998 -0.078193
0.011362 -0.348282 -0.859891
-0.025000 -0.099195 0.618291
0.025000 0.036048 -0.486008
-0.025000 0.594090 0.818251
-0.009558 0.474272 -0.859891
0.025000 -0.509649 -0.540035
0.025000 0.407817 0.068844
0.025000 0.647285 0.525163
-0.010333 -0.279431 0.859891
0.025000 0.661367 0.172105
0.025000 -0.117944 0.360054
-0.025000 -0.103631 -0.051232
0.025000 0.405214 0.542368
-0.025000 -0.372898 -0.170552
0.025000 0.013205 -0.468512
0.025000 -0.185473 -0.439581
-0.025000 -0.405456 0.119422
0.025000 -0.830523 0.538231
-0.025000 0.217100 0.654495
-0.025000 -0.536482 -0.748181
-0.025000 -0.652963 0.062344
-0.025000 -0.410081 -0.280273
0.025000 -0.451412 -0.720120
0.025000 0.535624 -0.742498
-0.025000 -0.762372 0.705520
-0.025000 -0.484285 0.247250
0.025000 0.100742 -0.014128
-0.025000 0.525164 -0.803710
0.025000 0.165726 -0.305524
0.025000 0.776722 -0.086221
-0.021702 0.859891 -0.703861
0.025000 -0.692113 -0.223594
-0.025000 -0.613941 0.592287
-0.025000 -0.220938 0.743232
-0.025000 0.201196 0.142866
0.025000 0.559832 0.630762
0.025000 0.744492 -0.505265
0.025000 -0.723784 0.397530
0.025000 0.820727 0.081398
0.010118 -0.503622 -0.859891
0.025000 0.783480 -0.744878
0.025000 -0.328263 -0.014931
0.012157 -0.826946 0.859891
0.025000 -0.327864 -0.428230
0.025000 0.690132 -0.080693
0.025000 0.021649 -0.062595
0.025000 0.274330 -0.060339
-0.025000 -0.554536 -0.166197
-0.025000 -0.042042 -0.802650
0.025000 0.255334 -0.321537
-0.025000 0.554491 0.071162
0.025000 -0.036042 0.528781
-0.025000 0.425065 -0.332154
0.025000 0.308432 0.557920
-0.025000 0.165333 0.507438
0.025000 0.259093 0.009233
0.025000 -0.119842 -0.008036
-0.025000 0.266556 0.275647
0.025000 -0.693368 -0.097439
0.025000 -0.627376 -0.251926
0.025000 0.822718 0.319073
0.025000 -0.776964 -0.286575
-0.025000 0.273614 -0.681802
-0.025000 0.587226 0.446064
0.025000 0.454903 -0.775300
