13.358367 -29.413300 50.897576
21.268169 -10.100711 47.702802
-12.536327 3.381580 18.043659
8.048254 -18.521995 44.287642
10.480411 -22.073024 47.363865
16.433953 -13.416887 45.999045
21.805636 -20.395105 52.335033
12.871763 -16.157813 46.661235
8.169121 -12.784752 42.097300
11.870582 -23.592635 48.920058
12.747233 -15.798343 44.440896
1.647391 -21.470661 39.166876
17.942167 -21.682075 52.329942
18.650056 -29.205172 54.563683
12.045602 -17.199969 46.507180
-10.330967 -3.417431 21.927064
-2.102515 -20.252329 38.006812
9.166972 -11.181271 39.920768
21.037493 -16.568450 50.328221
-5.939614 -4.139079 25.387464
-12.951373 -12.345654 27.265555
7.224551 -2.319523 35.428783
22.241335 -9.958654 48.295781
-6.590284 -18.134794 33.798847
1.337691 -9.367101 33.479182
-12.853251 -7.219261 24.413865
12.770886 -21.204459 46.560543
-1.138957 -17.639744 37.632903
18.349038 -25.814248 54.246486
4.995134 -24.214889 44.448013
18.061503 -22.172611 52.606210
-12.375306 3.128451 18.319790
21.402783 -22.137548 52.741554
23.200776 -11.945747 49.987425
-17.103429 5.139727 13.739022
-0.457291 -1.010752 29.260925
8.335335 -3.331817 36.400485
-3.410814 -3.017961 28.483873
15.304439 -23.944582 51.416159
-5.490020 -6.074536 26.848973
-13.756959 1.151385 16.781646
13.138467 -4.217312 40.748215
24.679490 -15.760259 54.563683
13.304291 -5.486093 39.976143
-2.093364 -6.086131 29.201467
-4.665612 -17.282236 33.282041
-7.733871 0.536792 21.854856
23.437701 -8.152731 49.268930
-12.606776 1.053024 17.630951
1.283554 -4.310113 32.569628
3.355714 -15.156118 37.861083
25.846710 -16.669698 53.609041
-1.510734 -2.729409 27.575670
2.320457 -18.630458 40.399646
1.706488 -10.488019 34.365357
-4.007112 -13.099370 33.865444
15.919069 -28.680756 53.714613
10.787069 -12.952337 43.960395
2.612689 -16.710987 39.839644
-0.031499 -13.540406 36.768651
13.265450 -22.991719 47.589365
-7.016714 -7.385348 28.612464
6.888232 -15.882178 42.445536
12.004963 -23.082860 48.810293
-16.959316 1.310543 15.412999
-11.312314 -3.736753 21.439978
14.456803 -29.984741 51.654346
1.899771 -9.650078 34.030029
6.983098 -5.510055 35.112832
-7.480702 -1.144412 22.503308
4.118597 -6.035895 33.458629
0.074157 -2.248785 28.365140
19.504959 -7.047726 45.867005
-5.114544 -10.197460 29.476316
15.691950 -7.545404 42.340833
12.085545 -20.287375 47.757929
16.772869 -23.021575 49.964990
-2.734712 -17.706757 34.748666
12.950276 -28.532896 49.533199
-3.102719 -15.119107 33.493685
-11.658369 0.984113 18.323726
-1.477592 -3.216292 27.898700
4.669275 -13.622780 38.118127
8.988249 -6.842868 37.299935
-12.221988 -14.554710 28.804251
3.337262 -17.554139 40.671003
21.410549 -11.411358 48.524971
-6.074838 -13.488638 30.615776
12.421074 -5.059508 39.732893
13.474178 -12.467791 43.595787
-8.627787 -10.060564 29.024620
-8.051806 -7.272828 27.819415
0.998883 -15.557874 36.428912
-10.700518 -12.159180 26.690869
-12.528103 -5.897268 23.857276
-17.054266 3.000561 15.142181
-13.662295 -1.492545 20.372393
16.898580 -12.477017 45.946468
5.734450 -23.185212 44.547411
10.102687 -24.624101 46.092873
10.246060 -25.728751 46.619364
9.993458 -21.011924 44.613630
23.604777 -18.701839 52.888749
-7.101670 -15.780369 31.055705
13.404974 -10.312607 42.374643
-8.181329 -6.678195 27.375280
0.728450 -11.848879 36.595685
-3.934669 -18.957314 36.236280
18.378244 -24.856411 51.761013
4.029128 -8.955851 35.108672
-9.361131 -14.427441 28.840490
21.228704 -14.650234 51.799228
-12.101937 -9.002365 23.962012
1.980811 -12.195443 37.616774
-1.110793 -4.819863 31.211119
7.113877 -20.663382 42.537157
16.667092 -5.437030 43.942278
5.544507 -5.832660 34.318829
11.634245 -4.775080 40.076756
-0.231564 -12.498660 34.127296
24.161370 -14.763034 53.856605
-5.417799 -19.986297 33.848908
7.883254 -10.364409 38.576953
25.770277 -10.102238 53.114026
8.710259 -15.126807 43.396685
-8.562314 2.254768 21.527072
-17.097847 4.490513 14.080297
11.476407 -27.700759 48.215996
5.942756 -24.821286 43.365803
26.734133 -10.982935 51.979938
22.019030 -16.441490 53.051384
-7.259955 -6.775067 28.079934
1.987591 -3.683668 32.669301
-11.809819 -3.954837 21.226514
0.042946 -21.649761 38.155171
8.218711 -14.286557 42.726400
22.228593 -8.990129 47.715624
-2.493021 -7.574353 29.796985
-11.499782 -8.245028 25.963222
6.049460 -19.290592 43.220419
3.468910 -12.806933 38.880346
16.185109 -26.696488 53.110960
12.094493 -7.834183 40.034040
-1.883116 -14.172885 35.748501
3.800486 -24.573654 42.712364
15.608063 -26.438309 52.612636
29.609135 -11.230388 54.563683
8.580031 -10.227472 38.983457
3.977846 -3.732297 31.958234
20.417273 -13.243759 50.685052
2.362120 -10.353083 34.744464
13.327193 -29.016351 52.068788
12.325636 -8.997216 43.145656
-7.174308 -1.733970 23.077743
-8.451817 -0.403520 23.318436
3.762092 -16.756166 40.646378
13.127431 -16.829617 45.098454
14.769454 -9.647138 42.942559
-6.373582 -7.366166 26.991425
9.932451 -23.143847 45.402115
-14.042554 2.384137 17.650224
18.861769 -7.055786 44.759641
-14.681111 -6.313637 20.631209
-7.994872 -4.447147 26.161582
11.509007 -20.153889 45.301221
1.823298 -17.817569 37.863894
4.005522 -20.136085 42.152683
-10.349591 -9.204521 25.291166
12.464997 -4.865091 40.711740
0.506417 -17.104154 36.698700
-7.385091 -8.168795 28.810449
13.148592 -5.761249 39.499294
19.408373 -22.713981 51.621628
2.887696 -16.163802 39.811567
9.813380 -8.222983 40.928622
-15.227288 -9.145207 21.878765
13.910901 -14.615894 46.763431
0.685403 -3.234181 31.478982
7.073241 -7.395977 38.512029
-15.428074 -4.702133 21.107191
14.118225 -27.990278 52.205107
29.800768 -11.918521 54.425236
20.322585 -15.215827 51.401468
-4.406261 -7.028223 30.234373
-2.544786 -1.605518 26.172134
-14.127727 -10.363988 23.323003
-12.026204 -9.317343 24.194255
7.004535 -25.269824 46.245061
11.220855 -19.839051 46.986853
12.788437 -27.944305 51.274260
-17.090039 4.030451 14.295758
-7.592241 -7.180108 26.039953
7.178521 -15.168961 40.442659
-1.231890 -19.201584 38.187978
-6.232152 -17.467713 32.298366
11.572381 -26.048939 49.688675
-0.262796 -15.492995 35.553291
11.023088 -5.761734 40.277521
-13.842422 -14.204348 25.805749
2.587047 -6.888777 32.909594
-12.275629 -0.914427 20.978888
23.220254 -18.044917 54.511114
-10.256039 -17.313113 29.913646
12.737783 -18.390323 45.443155
-8.982265 0.893685 20.724827
6.085269 -19.833867 41.521081
21.260263 -23.119271 54.563683
-11.770984 -3.348504 20.892211
12.663199 -17.190989 44.926183
-11.132459 1.698262 18.778500
-4.053930 -4.187001 28.762509
-16.450163 1.634861 16.455210
24.637471 -18.424035 54.563683
24.653578 -8.872325 49.309422
7.967723 -12.072972 41.677050
12.495528 -15.376050 46.093264
4.462273 -3.982583 34.583569
1.122575 -21.281181 38.739416
7.610821 -16.640506 41.306659
18.344241 -28.124572 53.009849
27.516535 -11.210616 52.610189
14.761278 -13.713493 46.989481
14.110786 -6.442701 40.580111
-6.103454 -15.971423 33.564735
-6.787508 -4.192109 24.833887
7.348229 -25.466709 44.564251
19.054050 -7.509686 46.977905
-16.477146 0.164889 15.525170
-2.117393 -18.356067 35.417409
-7.812040 -1.583974 24.514058
28.923295 -11.722488 53.757535
20.025254 -13.146242 50.377370
23.386636 -14.634065 51.158812
-1.582680 -11.111851 34.565964
-7.573211 -4.304453 26.369574
-13.715516 -0.487479 17.821431
18.585065 -21.164521 52.566089
9.441724 -8.592788 40.883086
20.370561 -15.774699 51.655838
9.434434 -14.288776 41.620638
-6.285400 -5.098826 27.757680
18.457590 -16.338336 50.566303
14.904102 -14.980375 47.589482
-0.695620 -10.565350 34.886380
-0.356040 -0.253124 28.838059
-12.009560 -4.332287 21.313459
14.817165 -6.166905 43.178660
3.198148 -16.873168 38.423047
2.907785 -22.891457 40.569265
9.885875 -21.168839 46.597567
19.833993 -27.855028 54.563683
10.039032 -21.864285 46.978238
-0.061925 -9.892630 32.807812
21.815513 -19.648246 52.051062
5.008747 -15.676596 41.074191
20.712623 -9.230285 49.174744
10.619158 -22.512361 45.619224
-1.882511 -21.667097 37.723480
-12.927689 -1.737110 19.122169
25.602460 -10.594308 50.984654
-10.296691 -5.488098 23.182156
-4.719280 -5.411607 26.987518
13.545149 -18.158896 45.897265
14.201256 -27.520908 52.076110
-3.352734 -5.561479 30.094790
11.728030 -20.473408 45.573179
-0.678919 -20.865860 39.226924
-3.128439 -18.956936 36.789443
-0.667959 -2.426684 30.022796
-10.215411 -0.990467 20.533372
22.239077 -13.313233 49.871374
3.849564 -16.187239 38.595183
23.043229 -13.337734 52.524475
25.176700 -8.671592 51.979370
9.382952 -9.675604 39.227837
6.914930 -21.066196 42.559816
-14.422494 -10.954514 23.448043
9.689255 -27.142571 46.794242
19.309862 -10.568349 48.864948
19.526028 -21.402305 53.306087
23.270815 -19.127564 54.563683
0.681066 -2.876931 31.248327
8.371529 -18.092041 42.384219
5.021880 -3.290375 32.428017
19.936995 -18.814513 50.460503
-6.800095 -5.256480 25.459092
21.772813 -23.995141 53.713808
11.398025 -8.485199 39.936528
13.558058 -8.699535 41.555626
21.938256 -14.755483 50.229849
8.917271 -17.190487 42.401226
0.432391 -3.856814 29.601773
-6.978135 -18.327543 33.267533
-1.439960 -12.672236 33.384696
-6.786977 -2.710728 25.934552
21.446081 -16.134175 52.536402
-1.479665 -21.490455 37.066937
0.448603 -21.205040 38.255528
18.101520 -21.212077 52.253077
11.717552 -7.638437 39.657323
-3.489329 -16.535516 33.784283
2.826698 -11.800459 38.040798
19.514774 -10.524188 46.726755
2.895730 -13.279344 38.674160
-6.157054 -2.237036 26.078033
-0.277592 -10.136045 34.936361
24.848297 -13.139657 51.562448
1.319916 -3.208457 29.812314
-9.183010 -2.174169 21.964126
8.658587 -13.385800 42.671375
17.591115 -24.611132 53.249609
12.343540 -24.434509 47.529435
-9.230720 -4.210546 25.151226
7.244222 -13.054318 39.597741
2.024775 -15.664444 39.021483
5.938479 -8.562933 36.205639
10.965244 -12.331715 41.788327
23.924174 -19.761174 54.563683
-11.012412 2.823703 18.887165
-8.780483 -0.244379 22.988290
25.269002 -16.707991 54.563683
-13.229911 -2.003326 19.075839
22.623919 -16.266443 51.279953
11.073612 -16.770209 45.669820
13.934461 -14.307391 44.660908
6.267167 -20.623403 41.950916
-5.338022 0.897881 24.023546
-7.998163 -12.585110 28.794503
-15.222896 -9.611200 23.401493
23.584585 -19.189947 53.065080
-12.807309 2.927501 18.151562
-14.783637 -6.374351 22.559276
8.314960 -26.541155 47.418621
-7.108658 -2.124108 23.361041
0.352956 -1.854502 28.751248
-15.987873 2.728337 16.078582
11.300092 -4.625862 39.084143
21.854241 -17.571967 51.269213
-9.478578 -5.012868 23.465498
21.893377 -25.899278 54.536034
-14.493819 -4.654794 19.791060
23.439938 -9.179743 48.664235
15.503734 -15.668633 48.273720
-11.015233 -12.967064 28.968137
-0.037393 -0.476473 28.821604
-9.557435 0.841713 21.754632
-2.019213 -3.695043 29.878986
23.617402 -11.226143 52.081843
-10.345046 -15.409688 30.431163
0.026379 -14.611865 35.405318
-9.995422 -1.290264 22.805959
16.893352 -6.891423 45.082625
-0.244352 -6.271065 30.587670
26.402923 -10.394503 53.664015
0.593195 -1.867174 29.119088
8.901643 -25.950741 45.799608
13.428916 -28.560519 49.866552
12.223248 -13.824630 45.291673
-3.185814 -17.773317 34.470524
-4.932396 -0.839389 24.061782
-12.692032 1.902522 17.366795
11.947464 -9.473285 40.888668
-3.270977 -4.991612 29.803292
-11.875607 -7.266075 25.128224
11.450923 -17.690571 44.303511
-14.957552 1.882368 15.506780
-8.162758 -14.334432 31.502808
3.312986 -9.554265 37.129546
16.179786 -6.274479 42.520604
7.856164 -24.833653 46.656707
-1.961539 -10.084913 31.598600
9.183490 -12.752705 42.780761
11.380655 -12.306368 44.111816
-14.044311 -10.931981 23.697560
-1.007164 -7.702471 33.020728
-0.864904 -10.808030 32.761828
-9.969107 1.327852 19.831550
-14.405918 2.828639 15.815409
17.148361 -15.450309 47.271831
7.632981 -20.237550 44.682403
0.979551 -22.157727 40.821754
-16.010978 -6.101695 21.094454
-2.097328 -8.232717 32.563807
17.851207 -9.704322 45.109781
-10.124483 1.967824 20.632647
21.541273 -7.493653 47.996886
13.626204 -26.944401 49.370638
14.043361 -12.521584 44.017985
-6.618983 0.717947 22.864038
-7.035462 -15.124790 30.818747
13.344784 -10.959199 42.693512
5.243370 -13.070380 40.202540
25.503034 -13.622621 52.191680
26.735699 -12.582366 54.563683
1.360066 -15.097277 38.340564
0.143585 -17.238768 36.506533
-4.013394 -5.850869 27.736279
-14.720737 4.325502 15.917760
-9.641966 -5.101557 25.407422
3.669860 -15.874123 38.352218
13.979577 -29.723563 51.481292
20.072183 -28.006459 54.128523
-6.566467 -4.845936 25.375824
8.473985 -22.616055 46.202027
15.128181 -10.534980 45.979928
-2.965253 -0.118494 26.171344
-11.270474 1.431608 20.186820
1.904624 -20.124183 40.706126
9.680613 -18.802868 45.519218
9.203423 -27.264893 47.876689
16.780727 -11.188798 47.375052
5.933651 -22.662093 42.519450
15.722460 -19.177162 49.814031
-14.435897 -2.754735 18.699443
16.535912 -6.419781 42.696625
-10.906256 2.553288 19.710687
16.173398 -26.298203 52.945109
-3.023848 -2.887500 28.672433
-10.722984 -2.334347 21.001754
-0.061736 -4.903679 31.997148
-3.437316 -4.279441 29.250944
2.767373 -5.491260 32.200690
23.960427 -15.879221 52.030081
14.094286 -25.821806 51.329454
-0.371374 -17.114325 37.951505
-2.268414 -16.063350 36.233139
-4.384136 -15.130407 32.634405
17.187437 -30.378697 54.563683
-5.177729 -19.620457 33.846755
18.795754 -18.092661 49.410407
16.222903 -8.015979 45.305110
-17.085139 3.552839 13.989489
4.720822 -7.062432 34.485604
17.791825 -29.617130 53.218325
16.285080 -30.573762 52.575034
14.336058 -11.727416 43.798485
4.732725 -25.038389 43.598836
18.726157 -28.128299 53.268711
7.053157 -16.683421 42.876203
-5.514621 -3.838115 27.525960
-11.400206 -15.187645 29.504530
-0.022077 -15.703629 37.632261
5.076349 -13.369359 38.265333
8.082638 -17.207808 43.790514
15.819944 -5.918255 43.717229
5.119501 -19.845485 40.874673
-12.411310 -15.991145 27.990006
1.519963 -4.612669 32.923941
15.197371 -8.267098 42.433265
9.747454 -15.582632 42.335098
-9.803230 1.388750 21.231740
19.616993 -27.432233 54.563683
9.866603 -13.794814 41.719704
7.606677 -2.863225 36.046989
-8.801396 -14.404104 29.215262
17.858965 -17.797929 50.733809
15.698411 -5.120792 43.115837
-7.283665 -8.711099 27.133143
16.022689 -25.431668 50.397217
17.491285 -11.478129 45.848437
17.764933 -19.500413 51.343858
-2.024712 -14.765947 35.886315
2.424441 -6.968429 34.993293
-6.904972 -8.347056 27.187653
10.403424 -20.668961 46.754691
8.413035 -16.397306 43.696115
13.451309 -5.701181 41.931545
0.985192 -9.311513 33.203293
3.951965 -7.943348 36.646325
-13.979412 -12.004507 26.355345
12.762625 -10.095751 44.076480
-6.564202 -12.567373 29.778141
-10.763285 -6.472051 25.439687
16.755147 -23.454129 50.121366
17.494441 -24.011101 52.945509
-9.235087 -0.304689 20.781580
6.832681 -14.322998 39.880369
5.683228 -10.471694 37.112154
-15.850576 -2.091316 17.326046
6.617958 -5.671672 37.145448
-9.593809 -17.858170 30.184542
12.192967 -22.633390 48.761224
0.449412 -7.372525 33.848552
11.596746 -26.143743 47.691217
-11.078008 -14.374911 27.625152
14.048818 -21.048736 49.406996
-6.655325 1.913054 23.069162
19.077569 -16.350382 48.922371
9.824989 -27.589236 48.293040
5.860969 -14.400044 39.255415
2.661696 -5.931712 32.391127
-6.406687 0.630476 24.075724
21.915993 -21.303991 52.763093
-9.716619 2.597137 20.060099
-9.421663 -3.091341 22.356733
12.180866 -25.181351 49.762509
21.071072 -19.150517 51.355624
16.664504 -28.297912 51.945155
11.094276 -20.799160 47.280411
-13.117517 -12.748718 27.371535
6.324538 -25.187265 45.699310
-10.137250 -5.490154 25.292091
-8.415607 -4.579924 25.948170
23.485075 -12.201148 50.278428
7.079135 -23.237406 43.515382
10.081230 -24.557842 48.074478
6.847887 -7.507930 36.218882
-5.140073 -5.861371 26.964974
-13.604251 1.997378 16.474306
-3.614058 -0.846846 25.007443
18.100860 -17.100562 48.555988
6.691508 -23.498324 43.355654
-4.043467 -15.010677 34.597819
3.723813 -23.528970 41.367347
21.499139 -9.352986 49.797230
21.243434 -11.056143 48.217907
16.708039 -23.228386 52.095665
16.177893 -16.761184 49.169299
12.283091 -12.155573 44.671406
-9.913718 2.541022 20.405568
15.892081 -12.030477 45.036307
2.805929 -19.778777 41.187828
24.968372 -16.067698 54.563683
-1.088747 -14.121317 36.273241
-6.310235 -17.749827 34.127487
-6.367455 -5.475866 27.929677
11.612554 -28.472337 50.089696
12.414822 -15.694512 44.176446
-6.083688 -16.437488 31.997534
6.843365 -7.206080 38.237143
23.417383 -13.429846 52.817753
7.860891 -15.623599 41.079493
3.281508 -22.682294 42.664689
13.685454 -13.080178 46.000204
12.941724 -5.357575 39.740282
-4.155080 -15.408505 32.897007
9.044504 -9.500358 41.127284
11.174889 -22.478040 48.000965
17.289005 -6.588870 43.472147
21.456118 -12.327144 48.959937
-9.979437 -4.787868 22.985838
6.331761 -15.487555 41.907268
-5.362225 -16.456419 32.491168
4.476107 -14.169231 40.111372
4.369553 -21.717728 43.029218
5.166934 -3.177420 33.002127
-6.035674 -7.866236 27.515325
12.737926 -13.763420 45.620642
15.410599 -23.897567 49.387695
-6.104940 -15.270046 31.528918
9.809313 -20.452587 46.261219
23.213849 -14.949715 53.280293
4.543265 -9.121768 37.748600
5.658716 -7.582302 37.630528
8.215439 -25.863287 45.303074
16.977708 -22.700345 49.978049
-13.189651 -13.906926 25.916522
-4.615743 -18.864590 35.732120
-1.398616 -14.750295 36.309802
-1.760954 -9.201734 31.238510
10.953520 -10.888643 43.244266
2.258630 -0.675388 30.922318
10.147840 -13.258807 41.700679
17.309262 -26.540404 51.695817
3.965413 -18.827101 39.700527
-11.288470 -10.921075 25.601289
-1.699406 -13.802929 33.808692
2.752819 -5.953358 34.610794
10.218803 -9.338197 41.860531
10.977020 -6.171483 40.501670
-12.746761 2.015546 18.786813
20.463819 -20.012645 53.399061
8.865184 -12.410469 42.426703
4.828004 -9.318476 38.060447
1.298609 -12.884292 37.421526
19.273915 -8.398376 45.323332
9.156218 -4.930623 38.452888
6.736975 -16.353990 42.528676
-1.013507 -21.540064 38.782867
-13.671539 -14.681523 26.595374
17.810801 -27.034228 52.226018
15.078746 -21.059204 48.059521
11.036310 -20.891112 45.269502
15.885284 -20.527205 50.460710
13.291665 -17.743622 45.564818
-16.645382 -1.932690 17.934368
19.077324 -6.238074 46.123988
3.746311 -24.339382 41.697870
-8.316880 -1.889487 22.387256
-3.075440 -13.853207 32.883603
4.801512 -9.699198 38.258061
-11.227528 -2.300030 20.633756
-0.065617 -11.099180 33.478103
25.270314 -9.035765 49.833244
0.983340 -2.830146 29.347752
26.731783 -13.461309 54.563683
21.587979 -21.211996 52.506212
3.430535 -7.978963 34.130239
-3.268998 -3.460506 26.814343
-4.752153 -10.197541 29.727499
11.963618 -12.445236 44.566927
-0.094992 -11.489431 33.672784
-6.282897 -11.533424 31.498823
4.639124 -5.240820 35.494577
11.445557 -13.091322 44.467384
-3.433983 -10.395686 32.865381
9.048891 -3.301963 37.330552
22.189474 -8.270549 47.248210
-7.057157 -3.695519 24.350486
0.090406 -14.212623 35.263823
28.386177 -11.833377 54.563683
-0.983334 -17.496239 35.847178
12.923605 -25.967278 50.583660
5.455780 -24.572176 44.905723
-14.203617 0.972388 16.586071
13.152652 -20.364427 46.490969
-9.093533 -16.570072 30.020486
-11.210613 -17.052274 28.897974
-7.195541 -0.838379 22.509652
7.094907 -7.730378 38.727159
-4.190306 -11.246693 30.701936
-5.859218 -5.934190 28.560433
17.059745 -12.793116 46.178099
-0.622892 -8.990396 34.041839
18.793915 -13.769810 49.779384
14.460435 -6.908537 41.106816
20.308685 -17.658891 52.359955
-0.846729 -9.867241 34.383678
14.199689 -19.845494 46.994739
7.508103 -3.168119 35.651686
21.483977 -10.540098 50.345845
-4.418486 -20.011168 35.503239
12.293934 -23.966373 47.313833
2.881857 -22.671143 42.385991
10.673121 -12.008691 41.414252
-4.446864 -2.179278 25.222781
7.478632 -7.729607 36.784730
-11.358918 -16.203877 29.115357
17.445406 -11.249515 47.855279
-14.317549 -12.805994 25.917929
-8.257921 -11.501086 30.094308
-3.512461 -12.444218 33.945328
4.113480 -8.508834 34.911766
7.619529 -23.751760 44.079762
20.260942 -10.942861 47.475710
17.964373 -24.108553 51.191046
-4.080835 -8.802745 29.403900
-1.490023 -15.603721 34.769225
15.361341 -7.801114 42.268592
16.769586 -13.057758 46.085513
-16.842723 0.027280 17.201207
13.205334 -13.522541 43.864063
-2.015485 -19.049721 35.756020
-0.700674 -22.028769 38.934464
15.684067 -15.320901 48.259698
20.416963 -8.050606 48.265829
-6.170642 -7.238935 29.121677
-4.817831 -11.502916 32.510586
13.678655 -5.623084 40.207152
1.257354 -22.895184 39.458321
24.710555 -15.336764 54.460841
11.747080 -5.963142 38.663266
25.873348 -13.170063 54.400341
5.685933 -3.865018 33.211249
7.650822 -9.477072 40.134520
24.675612 -11.251313 50.698427
21.001503 -10.041368 49.817110
13.833120 -5.510261 42.075162
-9.935194 -0.434034 20.381563
8.382840 -23.283785 44.412130
6.665952 -3.499068 34.589340
-2.243282 -8.013981 30.226222
21.730123 -21.781290 54.563683
3.656206 -2.136236 32.165000
14.721013 -25.321945 49.477188
14.255871 -4.594680 41.775201
16.502705 -10.663369 44.716993
21.163608 -10.689998 47.961871
-3.998298 0.760219 25.658068
-9.163530 -12.936562 28.178490
2.562335 -14.308709 36.996588
11.654144 -23.096797 46.544231
2.683569 -14.182078 38.886248
-2.031276 -13.373629 33.351562
7.605220 -8.871294 39.754856
13.428016 -22.036615 47.327271
-6.540459 -14.940624 32.856382
-10.117627 -7.706870 26.620731
21.639079 -25.476907 54.563683
18.508038 -17.078881 50.894355
25.466944 -12.380104 51.683849
-5.102269 -13.784702 33.385393
18.313421 -6.876169 44.359862
3.865930 -4.205738 32.174128
9.917523 -13.213194 43.466988
18.910962 -9.979326 46.000792
-6.427161 1.323009 23.610969
-5.951168 -13.057789 30.469613
22.583146 -17.136217 53.713810
16.594286 -6.128549 44.389946
26.735068 -9.226866 51.690280
14.317592 -19.647690 49.036312
10.357783 -8.620979 39.296236
-10.290747 -11.485475 26.607462
7.065569 -3.104039 35.829190
-4.814055 -18.332988 35.385380
13.219428 -9.408673 44.009525
15.066187 -21.605321 48.263569
17.057117 -6.341405 43.803660
12.041487 -7.303958 39.681680
7.505567 -16.453305 43.095511
-7.902161 -12.281346 30.775056
-1.829278 -1.215834 26.938024
-3.065138 0.250889 26.635262
11.655854 -11.604550 41.875089
0.686673 -10.802081 33.833762
19.541406 -26.662669 53.247863
11.851293 -6.471196 39.046021
-0.532423 -8.704477 31.805624
13.265421 -24.479134 48.168149
-15.942690 -6.357807 20.786358
7.004037 -2.646907 35.489180
14.305162 -7.538225 43.671701
26.045784 -15.298869 53.209780
15.087541 -24.301240 51.408622
5.726906 -9.207978 36.428553
17.803133 -20.292603 49.597452
-15.316917 -9.226126 22.312997
-5.657584 -12.614423 30.431744
18.591273 -10.982746 48.535981
12.735981 -6.220355 39.500185
22.302556 -19.185405 54.333200
22.200953 -7.840773 48.095385
13.163971 -19.898769 46.317394
15.291930 -18.472580 47.196664
-10.628025 -8.805678 24.870652
-16.704835 -1.503872 16.976701
-16.143414 -5.351926 19.460965
21.559424 -10.762097 48.276380
-8.868620 -18.194741 31.138785
1.242551 -15.076394 36.405784
-4.771242 -13.414218 31.477964
6.751136 -25.544036 44.191900
3.661326 -15.313153 38.128173
-2.266288 -8.716087 30.611286
-0.183741 -8.548841 31.958302
8.374722 -20.737175 45.389427
-0.037045 -17.602769 38.374493
-15.023374 -9.497045 22.218853
15.484122 -25.215306 52.042980
-16.246311 3.847956 14.149511
-9.975496 -13.585025 27.968875
3.637943 -3.932458 31.848925
9.340260 -5.543172 36.753694
-7.843352 -16.502108 32.580924
11.495602 -6.848867 41.282070
6.958341 -24.147557 43.788138
16.781126 -19.492152 48.597135
-2.122938 -9.219624 33.118887
19.475116 -18.717924 52.207503
11.108822 -5.275034 40.030568
7.033598 -20.207771 42.305755
-4.377265 -14.203643 34.048960
5.245120 -7.487194 37.283352
22.756206 -10.688112 49.064497
-11.792575 -9.561746 26.516965
-10.510168 -1.605096 22.643518
-1.667556 -12.790189 35.348567
13.560152 -7.379895 43.053017
-9.629596 -6.111846 26.020107
3.352164 -12.323606 38.608713
7.182710 -11.722820 40.999555
-11.452332 -6.481677 22.962522
3.093930 -3.003493 33.006983
24.565627 -20.030795 54.563683
4.696756 -3.368055 34.354298
15.065741 -7.132120 43.955855
18.468779 -16.083568 48.408218
1.424417 -17.682543 39.409100
-1.407380 -11.858182 32.964344
13.438938 -25.369569 48.631599
17.237083 -10.999658 47.613305
10.258087 -9.341633 39.643373
-1.650423 -9.825042 31.669284
-2.446008 -6.071465 28.949361
-8.807081 -9.107463 26.304188
-6.001419 -0.716702 23.253082
15.108913 -17.217655 48.616531
4.820700 -22.010837 43.454979
-4.113465 -13.107668 31.769707
21.185123 -22.261529 54.563683
11.745557 -8.494130 42.444618
19.988274 -14.483506 50.881861
23.286144 -22.619185 54.198365
22.048033 -11.556270 49.042715
3.296804 -22.701445 40.757523
15.901193 -29.056326 53.851158
17.147101 -8.699694 46.360537
11.960050 -23.354047 46.850517
21.921272 -8.632906 49.673790
2.819413 -17.062061 38.241283
7.211648 -15.244529 42.414837
16.634179 -18.651827 50.231585
23.693662 -10.091100 51.684437
11.450474 -17.132580 46.072043
13.633873 -23.065661 47.866455
-12.167467 -10.695061 26.897149
-4.437605 -1.502130 24.810606
13.722334 -8.469355 43.819391
23.835954 -8.244688 49.671633
5.963316 -5.071818 34.145091
15.224647 -22.044264 50.608427
27.856022 -10.106220 54.547046
-10.701457 -9.575692 27.291770
15.499238 -11.902486 44.696742
18.837089 -27.477961 53.090410
25.315764 -18.488925 53.959106
-2.312448 -10.221029 31.431325
-0.603805 -19.121095 38.587139
-15.765645 0.979079 15.511082
-3.043415 -0.702126 26.100593
18.135737 -12.470041 48.812665
-14.173266 0.632467 16.816972
23.035400 -15.350025 53.316440
-1.520415 -7.971549 30.701455
14.356882 -25.494420 49.298879
-0.528056 -8.569905 33.863277
0.681611 -23.004626 39.918145
5.484392 -13.641155 40.594114
27.106045 -11.115813 54.432374
14.097704 -28.676407 50.362413
-7.874888 -14.970146 30.156170
13.886392 -23.720332 48.291409
8.826287 -19.183678 43.115521
12.708120 -13.146331 43.382544
-10.318478 -13.956112 29.873440
0.433871 -14.350463 37.409005
11.190516 -25.335882 47.103049
11.230538 -15.573667 45.303407
24.446718 -10.174331 52.234237
19.736871 -24.195420 52.419515
-13.634837 -7.023649 23.750519
-5.982561 -18.233591 32.764619
-14.318198 -8.750690 24.277401
-10.316742 -13.194032 27.519762
10.334602 -11.148487 42.935120
2.574892 -8.070241 35.752556
24.046705 -11.550069 50.403610
10.678471 -20.842426 45.009372
-6.010897 -12.066860 31.984431
-12.860938 -15.772723 27.133016
-10.739382 -14.302549 29.721844
17.490320 -30.482449 53.351835
15.877276 -27.137234 53.074334
3.240367 -7.003111 33.428564
17.210516 -17.982931 48.299254
2.886360 -17.764837 40.445035
-3.420816 -19.651175 35.042871
9.091681 -15.859350 42.000787
-1.983308 -7.604884 32.277815
-3.138002 -19.933845 35.343485
14.304993 -8.405395 44.191567
21.580352 -23.650651 53.450036
23.362791 -21.192804 53.694971
-0.747708 -20.281346 37.089772
19.557095 -23.284630 51.943926
-6.669596 -13.318327 30.113724
16.569903 -29.043538 52.171543
6.653475 -3.103163 34.878088
-6.399715 -2.615984 26.145660
-1.704338 -7.243290 32.259509
-15.886425 -0.082666 17.937641
-0.993006 -3.186557 30.277376
13.836736 -9.738681 44.630825
-0.081584 -1.196710 28.781603
9.444393 -4.427339 36.561978
14.836614 -18.393213 48.895449
27.487659 -14.358351 53.815619
-3.715402 -18.078806 34.232457
-14.183712 -5.604480 20.561496
2.033750 -14.402493 38.527614
12.896357 -22.688565 49.265822
20.176264 -7.776266 47.928157
26.246596 -16.936412 54.563683
6.044520 -9.721501 39.144368
-14.448744 1.808230 15.901417
19.822795 -28.756381 54.252255
13.283748 -23.410755 49.817843
9.459449 -15.846003 42.243469
12.634294 -15.118735 44.100315
23.724270 -14.194190 51.215207
15.800903 -23.193648 49.376842
-4.746699 -8.568965 28.809248
0.215360 -4.053266 31.663180
-14.414861 -5.426818 22.251647
18.051939 -15.924847 48.065504
21.612036 -17.966965 51.259674
4.209436 -14.648020 40.118069
-14.604347 0.511699 18.455800
10.120163 -6.929331 40.367990
-6.495615 -17.192985 32.013884
-12.066121 3.377464 18.371750
22.605312 -14.332227 50.514742
22.855457 -13.632230 50.410947
-0.363064 -1.535565 28.475552
15.153572 -25.474872 49.828242
26.470613 -10.762750 51.679077
-6.861130 -3.294266 24.241765
5.289525 -4.468567 33.312523
8.077616 -25.256907 44.974217
-2.400104 -5.243739 28.488084
3.502128 -23.806180 43.029719
5.967434 -25.364128 43.593675
-5.333413 -0.128698 24.027718
-4.330205 -5.209195 29.194595
22.773321 -8.657550 50.286601
0.628908 -4.951258 30.401431
-14.093806 -2.775602 18.947959
17.162089 -29.388428 52.704886
4.728168 -25.070335 43.181752
13.499583 -27.409042 49.466103
-13.788109 -5.587828 22.787842
18.801524 -21.796592 52.965093
3.249281 -19.958902 39.658276
3.961474 -18.139793 39.430417
-7.128805 -12.930006 31.655925
17.261633 -16.789095 49.924127
13.591593 -11.384905 45.264062
9.759053 -25.812057 46.323538
4.821684 -19.219428 40.430323
-3.002382 0.621321 26.437678
17.898124 -12.989418 48.855387
18.694420 -17.362629 51.134699
25.761770 -15.026469 52.912354
25.047175 -18.974030 53.966848
20.089746 -18.147321 50.303830
1.230885 -13.069479 35.446614
2.637393 -1.483679 31.710347
10.212536 -13.622758 43.831737
13.583807 -15.205630 46.772621
-7.768585 -6.820122 25.707948
-4.091480 -17.353507 35.493177
20.886709 -10.473021 47.648978
-15.671799 -5.013644 21.122349
-4.434252 -17.945708 35.492584
-1.412511 -5.254099 31.265556
18.527563 -26.697207 52.577971
10.080091 -19.864631 44.225569
12.165192 -26.075089 50.105881
13.418408 -7.881902 40.976137
17.036086 -13.956811 46.614986
9.060062 -25.506444 47.749522
25.312711 -11.178656 53.226514
28.016452 -9.600914 54.456929
5.049444 -1.937663 33.426140
23.501669 -15.014668 51.384450
0.284191 -16.343187 36.252801
-15.284838 -7.363760 20.822066
-0.541519 -3.724483 30.929084
-14.351301 -0.162941 19.059634
19.122839 -13.822128 50.025854
-10.883513 -16.028894 28.603446
-2.110268 -4.229690 28.078608
0.135552 -6.892639 33.341344
20.805139 -15.568281 49.782414
-0.696624 -12.166773 35.767897
-4.214276 -16.838188 35.204716
9.153268 -18.355623 44.980088
24.957540 -8.402473 51.101097
22.952430 -17.690240 54.186772
8.267167 -26.840841 46.471490
11.465788 -13.372917 42.633383
14.642557 -6.580900 43.316943
14.724668 -15.614591 47.717636
-2.037519 -3.291400 29.613713
-4.904904 0.847146 24.974081
-1.175303 -10.062943 32.131213
14.717890 -22.362482 48.323454
8.307441 -23.676265 46.507820
5.059813 -16.394344 41.393634
18.112950 -28.497635 52.999130
16.349865 -25.289317 50.562340
-11.115983 -8.988767 26.666657
7.792181 -3.436876 35.908829
-0.759824 -18.887631 36.539263
14.341441 -17.230464 46.072682
1.314795 -6.278452 33.801897
17.683710 -30.082504 53.326548
3.517423 -6.398023 33.259406
-11.796004 -15.429976 28.942709
16.646941 -14.196753 46.446072
21.673217 -14.400931 52.005514
-13.204967 -7.032466 22.071619
-1.932942 -4.534854 28.385888
18.886784 -8.620286 45.189794
9.024062 -16.623326 42.252501
5.121131 -11.135605 39.285789
2.181778 -13.705767 36.441628
-1.101772 -15.174271 34.863793
9.390388 -27.338984 48.285050
5.461658 -15.214049 39.303036
5.544354 -21.453065 41.786588
23.735410 -16.858740 54.394660
18.533775 -19.112430 51.717780
-14.867066 -3.765127 19.003624
19.710168 -16.068381 49.239007
9.673505 -10.914900 40.124594
5.696193 -6.887522 35.054572
9.880174 -15.251205 44.248885
-17.112168 3.386054 13.517801
5.124467 -3.628971 32.680442
-3.810996 -9.757052 30.134080
-1.630258 -15.000712 34.440055
4.325355 -2.609156 32.770705
-8.021241 -12.166525 28.550769
-0.670639 -13.990673 36.508422
17.424692 -17.862472 50.461343
25.776002 -16.892267 54.563683
16.110737 -13.522945 45.822467
-10.609156 -0.376991 21.801330
-3.487761 -4.565247 27.333376
-3.440869 0.043523 26.510152
0.341494 -12.085222 34.299299
3.621163 -5.786772 35.117010
22.109317 -20.064379 54.548861
27.232084 -9.155329 52.736595
12.223956 -23.710299 49.209200
8.544635 -11.562659 41.870779
22.636213 -8.845849 47.908504
-6.886029 -12.202861 31.445125
20.694882 -19.640985 53.410374
4.655767 -12.260788 37.383267
-5.012448 -6.165589 27.232422
20.031702 -22.973741 54.275787
-2.910008 -20.506052 37.034625
7.652383 -17.685111 43.684355
8.763339 -5.174746 38.332649
6.218946 -18.869989 43.170080
-3.944484 -8.636742 31.501289
24.818466 -10.532547 52.631304
9.342111 -8.619086 38.592615
21.448780 -16.408868 50.543330
10.155539 -5.305387 39.386362
16.131677 -11.501880 44.919576
1.767820 -10.742061 36.714079
24.151747 -20.259476 53.863539
-0.159859 -8.194467 33.903097
13.099248 -5.211982 40.430665
3.513863 -21.248047 40.338255
3.043963 -23.069535 42.655100
3.925326 -6.392325 33.537521
17.820131 -6.551110 45.512144
17.904294 -25.117881 51.543317
9.226642 -25.500593 45.843490
16.455266 -11.339719 45.055492
19.890545 -13.586947 48.394970
-16.533230 -2.822426 18.115025
12.505852 -20.237382 48.026576
21.174140 -25.612183 53.939548
13.976006 -14.681785 44.834599
-4.451663 -14.023156 32.021827
-2.983368 -11.583394 33.843002
22.419012 -21.483176 54.563683
27.945581 -14.009434 53.988483
-9.853317 -8.648801 27.355769
-2.803561 -10.124916 31.037382
-12.718485 -9.708331 25.949451
11.501162 -10.179180 43.236896
7.184958 -3.026383 35.359179
9.422700 -22.378071 44.760553
-2.646743 -21.333424 36.897530
5.129795 -21.509639 41.529190
-6.177935 -9.222861 28.191139
-1.258244 -9.600350 31.814239
-3.004515 -14.207799 33.120643
19.387357 -16.068077 49.021314
25.677569 -11.835345 53.737118
-0.247357 -20.201832 37.396068
15.121113 -27.241077 50.493656
-0.325172 -20.863600 39.468805
20.458161 -17.505330 50.302322
15.856797 -16.652050 46.868954
-0.241657 -9.081363 32.222147
-9.687264 -12.410824 29.593261
-5.287096 -14.647978 33.600605
19.491159 -17.695653 49.724622
-16.347186 -1.530129 16.643643
6.066003 -17.119264 40.451750
-13.881343 -7.370342 23.779456
14.072083 -10.019890 42.672288
-11.697078 0.681413 20.369107
17.529111 -19.269980 51.090708
4.185171 -6.867082 36.168610
1.986095 -9.274084 33.875207
23.713692 -14.706721 53.527051
18.528954 -12.707357 47.134977
27.821409 -10.969879 54.563683
3.036949 -21.044046 39.937430
23.764446 -13.497532 53.082762
1.735884 -10.330904 36.462190
-10.647455 -13.073356 27.225022
-16.934642 0.986097 15.895453
0.362690 -21.690221 38.386424
-6.444118 -8.903391 29.900117
1.046571 -14.462985 37.874085
5.971870 -19.695668 43.327675
16.205088 -24.349398 52.194674
17.571536 -21.600405 52.043219
3.227286 -20.512848 41.767868
-12.536896 -1.787806 19.421842
-8.591193 -7.477360 27.559625
17.278170 -26.216227 53.670829
-0.711045 -11.972880 33.509093
8.267976 -20.268262 45.130368
17.018884 -8.555112 43.861879
22.492227 -22.012022 53.426995
7.009871 -3.613530 34.834800
1.840074 -4.295981 30.836982
-9.082951 -7.567969 25.234375
20.326582 -11.863523 50.075913
22.005166 -17.186424 51.220909
19.918986 -12.295634 49.967399
20.348098 -19.559490 53.140086
-9.624234 -14.998997 30.763125
-6.166957 -3.198066 26.672279
12.839389 -12.944578 45.365822
0.666876 -12.317811 34.651236
-7.890714 -10.465838 29.772844
3.421210 -3.452416 33.521167
2.098248 -4.824271 31.335351
-12.373035 -13.835499 26.443473
-9.736474 2.239583 20.724358
11.232481 -20.255155 47.159706
-12.666737 -1.186129 18.967221
6.790531 -11.919878 40.808485
18.491415 -26.884870 54.563683
6.606749 -19.655825 41.803277
1.436406 -12.734062 35.410760
10.675678 -8.422214 39.400149
-13.417520 -3.655975 19.938998
8.587556 -26.363902 47.764997
7.337152 -24.119393 44.032498
2.652473 -1.303666 31.256435
0.550347 -14.871785 35.859617
16.913516 -6.400595 43.388923
9.012392 -6.440428 37.073969
17.714022 -16.748180 48.158134
15.555711 -24.142127 51.666880
20.822687 -25.595677 53.696246
15.406181 -7.012290 44.119932
0.789829 -4.286048 32.209871
-15.488375 -6.292910 20.060750
2.289415 -9.503525 34.216265
11.571098 -10.126802 41.000142
-0.717119 -14.862605 35.001770
-4.583627 -8.778826 31.134975
17.982361 -21.082038 50.025449
12.767214 -7.930700 42.828478
6.509635 -22.785213 44.920925
9.635815 -27.544716 47.512598
4.754105 -7.822752 34.954582
8.741491 -18.981337 44.945416
12.350597 -5.208380 39.179623
11.943584 -6.638569 41.467123
-5.455040 -0.294657 25.332833
-10.407672 -0.310250 19.981147
15.392893 -12.381679 46.895246
18.808931 -15.706824 50.557201
24.773418 -13.775974 53.885545
17.465489 -6.228161 44.664977
17.830952 -10.846508 47.960193
-14.966198 -8.430543 23.635311
19.960573 -23.418412 54.403166
16.935367 -26.213996 53.434680
6.249992 -22.720558 42.755415
7.327420 -12.950616 41.585364
14.555984 -10.260555 45.426615
3.772654 -17.859426 39.194051
22.082387 -18.314675 53.837086
11.415172 -5.818066 38.346059
20.443835 -24.918617 54.563683
-8.268182 -9.891926 29.181587
-3.924745 -15.661642 34.937233
15.739595 -25.249964 50.135704
7.918185 -5.789119 38.126900
11.118165 -15.588785 43.261355
10.537319 -14.603177 42.486329
21.717982 -14.901622 52.234627
26.616394 -11.003954 54.052005
-1.221542 -7.486027 30.624905
10.343379 -20.542629 44.666858
-3.756453 -13.225484 32.079794
-15.319348 -1.527621 19.237429
26.515671 -9.816477 53.512360
-13.111401 -12.449936 25.179078
-12.477550 0.690002 17.943914
22.305602 -23.250295 53.783064
7.615444 -12.192112 39.396034
-6.661471 -13.612826 32.247213
6.425399 -13.078636 41.017035
14.676492 -25.172266 51.471651
9.789968 -16.383962 42.675578
-11.715428 -6.017073 24.499341
0.157853 -4.473027 31.885605
-9.929925 0.528425 21.695619
8.311175 -26.827265 46.941745
-16.690406 -1.642643 18.271700
16.266337 -30.172540 52.406272
8.373405 -17.591026 42.190522
6.528677 -24.782907 43.745780
-6.800036 0.174580 24.097981
7.299429 -6.762901 36.086799
17.110052 -27.959118 52.113619
3.549420 -18.709350 41.274340
-2.792082 -1.186973 27.754270
1.137596 -4.574859 30.522933
10.034427 -23.438394 47.598794
-1.447930 -0.298300 27.544805
-8.446810 -5.052663 24.201255
28.889507 -12.329973 53.971155
19.750387 -21.733201 53.591177
6.960343 -5.305469 37.155623
17.098395 -15.974203 49.489209
9.998171 -27.759788 47.441813
-3.406095 -8.193989 31.621460
-7.964102 -3.047244 23.332871
18.963512 -10.372128 46.259929
19.104097 -20.677056 52.729149
7.941329 -11.701547 41.511764
-11.681834 1.396694 18.052637
-17.095701 2.647038 13.689477
-8.288542 -18.437382 31.289686
-8.702149 -7.559301 25.493190
30.367768 -11.228387 54.538840
11.869143 -28.258992 50.768041
8.117698 -24.229249 44.601336
10.072077 -23.032499 47.463803
-0.995869 -2.127740 29.603923
-14.527907 -7.543624 21.449020
-10.902672 -8.646917 26.617215
-8.895777 -5.422605 24.111729
16.304058 -30.885173 53.657639
17.473967 -22.599769 50.273391
16.143146 -8.812647 45.720857
-0.299697 -16.595133 37.794975
5.078733 -24.149080 42.521872
-6.483623 -18.952274 32.706567
27.546774 -10.456632 52.254845
0.117411 -2.922881 30.885708
-14.458019 -9.930995 24.853295
-12.452939 -8.457271 23.407754
-14.735180 -11.419677 24.889109
-3.318383 -15.750099 33.593868
-10.274061 0.685411 21.356091
-7.307327 -11.679851 30.860454
5.452875 -4.380573 35.524599
27.160942 -14.381223 53.604311
5.693598 -7.621367 35.486911
-3.849372 -3.789848 26.614947
22.590911 -23.891335 54.224814
10.937620 -14.328056 44.608824
-11.217828 1.215549 18.482697
21.250170 -17.275195 50.746584
-10.947713 -15.671241 28.402511
12.943130 -23.285629 47.486490
16.394086 -19.361165 50.347874
5.254555 -23.939480 44.516927
14.967308 -5.883599 41.618308
6.035028 -21.279386 42.049720
-3.945369 -4.928845 27.234108
3.826062 -5.164467 34.879160
15.424538 -21.581914 48.495990
20.216011 -7.877162 45.652158
-14.121502 -13.404926 25.816409
-3.973845 -4.876861 29.240793
-10.059522 -8.087774 24.854652
16.704870 -24.271011 50.405356
17.164140 -27.575235 52.000692
17.223174 -30.186495 53.056612
-16.335434 0.013007 17.564310
-0.602034 -12.601519 36.005075
-15.254681 1.008186 17.686605
3.118918 -9.278179 36.836343
-0.979510 -5.484616 31.709896
16.263497 -17.377707 47.425449
4.050348 -9.601337 37.674531
8.134804 -22.272545 43.851445
-15.476641 -3.447340 20.309659
12.975238 -28.067893 49.369075
18.445722 -6.797081 46.104200
-4.932675 -8.325281 30.625189
17.368451 -29.835608 54.563683
-10.221108 -8.206990 26.839654
3.071986 -7.858157 33.811755
-4.340230 -20.530820 34.785056
-2.581523 -9.755377 30.985178
25.163931 -14.850575 52.440963
9.407063 -3.687749 37.370598
11.317285 -23.135436 46.332223
4.703317 -16.084267 41.026108
10.135732 -25.938692 48.659023
-0.556448 -13.285605 34.324971
-5.274624 -16.822624 34.470835
16.994470 -18.651975 48.413987
20.106084 -27.555124 53.975742
16.401248 -23.298195 49.822159
11.915511 -24.030121 49.124240
2.108022 -16.150749 39.271306
-15.697214 5.004290 14.646545
-9.488856 0.448131 20.142314
-10.223035 -0.388484 22.077168
11.167736 -19.510272 44.820751
-10.841769 -12.599212 26.832444
-12.894512 -4.868787 21.022239
24.602766 -18.993095 54.563683
11.841863 -5.065830 40.406750
-14.746886 -1.593553 19.678348
7.631087 -11.723102 39.151685
-14.959712 1.360696 17.666671
-3.581038 -0.579354 25.613944
2.042554 -13.259355 38.080707
2.284258 -5.130385 31.649183
26.213600 -13.591588 52.658527
1.036617 -10.700345 34.019540
14.545979 -20.818287 49.656884
2.093363 -21.731160 39.568831
11.690874 -19.800698 47.294229
-0.009233 -2.261541 30.375430
-2.752808 -1.618733 28.057224
3.002518 -8.331883 34.040098
15.715233 -13.406677 47.522606
-8.505446 -0.877085 21.635566
-14.668499 -2.958272 20.576351
9.185500 -26.820839 48.304924
-4.951046 -16.305691 32.709650
17.587832 -18.242732 48.654664
9.798749 -18.784198 43.615511
13.589771 -20.816065 46.961336
21.569076 -12.581741 51.213217
5.636558 -14.776627 39.250703
17.619516 -23.554325 52.850358
9.240717 -21.371777 44.246312
2.205918 -6.900079 32.653296
11.259499 -14.418123 42.901069
-9.889065 -9.628930 25.850502
18.904953 -7.515050 44.529549
-11.949474 -6.543191 24.649598
18.720116 -19.626745 49.956392
8.282495 -13.676732 42.528542
7.914034 -18.449465 42.214953
12.099962 -18.997349 45.249477
16.807260 -15.773248 49.209778
-7.397140 -2.531408 23.409817
-15.902398 -5.208304 19.141574
15.590646 -13.819527 47.600688
-7.517231 -11.139882 30.414835
12.130939 -14.347807 43.461059
-16.056251 -5.823577 19.433008
2.630083 -21.684876 39.912571
9.476918 -14.211925 43.560333
-15.957473 -1.870833 19.006600
-9.326528 0.032050 22.432103
-12.399924 -12.383456 27.673603
4.201090 -9.905278 37.953104
22.260333 -7.586999 49.261101
6.624227 -18.950831 43.480255
7.374165 -8.716327 37.288167
7.454364 -22.740959 45.551755
-11.678154 -8.724177 26.117284
-3.939948 -2.957646 26.047392
8.549643 -13.043904 40.495122
4.695855 -23.955548 44.139859
-0.309807 -14.751470 35.233053
26.236732 -8.782534 52.147392
-4.396002 -0.839174 26.416896
6.852166 -26.130005 45.191527
-12.995849 -6.229762 21.747929
12.252558 -15.742686 46.071788
1.366624 -12.090160 35.012080
5.411589 -11.112521 37.281272
10.684082 -17.661405 45.755609
6.777136 -18.464980 41.454720
14.525721 -8.003989 41.813040
27.881811 -13.753230 54.563683
8.048241 -17.366046 41.883813
19.601021 -14.591975 48.590921
24.061072 -20.134096 54.563683
-3.992035 -6.281803 30.078883
-0.261767 -17.703308 36.414094
17.194266 -5.578511 44.448872
19.252301 -26.422099 54.563683
-11.363861 -0.165420 21.141453
9.234367 -17.008959 44.502152
7.257926 -3.599413 36.282986
21.017603 -7.876711 46.201413
-7.276482 -15.099190 32.414081
4.762579 -2.998110 32.844094
3.986619 -12.858044 39.255900
10.351935 -8.010558 38.936046
13.928827 -17.749776 48.017485
14.723347 -27.361447 52.371236
-0.578176 -5.756363 30.050753
-17.053565 2.304929 14.313274
-12.486087 -13.670164 28.272513
-10.815288 -1.897633 22.613484
6.972187 -18.608236 43.583312
22.201584 -17.684171 51.546986
3.801492 -20.002669 40.047498
5.520508 -1.801343 33.912331
5.445441 -14.480582 40.899991
-1.230689 -15.087594 36.558699
7.203437 -13.718208 41.804421
5.107460 -16.889989 41.622726
24.793694 -13.039013 53.607450
16.229024 -9.422174 43.824690
14.700892 -28.992923 53.002273
1.296975 -22.112963 41.077120
-2.621365 -10.768590 33.647112
11.972302 -12.752093 42.707726
-2.011273 -5.294851 28.786869
-8.093010 -11.825308 28.315402
7.673918 -18.579696 44.053599
23.372912 -13.937523 52.988392
4.480498 -19.134352 40.167257
7.530256 -25.168296 46.565634
-2.368127 -4.535298 30.156361
-3.965429 -19.553281 36.223940
0.946730 -10.785275 36.161465
16.260257 -21.501866 49.028117
14.393489 -12.101040 46.098159
-8.374495 0.844221 22.574805
3.015326 -12.925580 36.604547
-16.897371 1.899417 14.166394
-15.351728 -9.041703 22.714659
11.926948 -15.764714 45.857051
-7.341277 -19.015638 32.161906
11.650128 -16.796141 46.075757
-7.969554 -0.139569 21.547114
7.317131 -15.722333 42.676552
18.846892 -16.037136 48.644999
-8.988165 -17.027468 30.269493
-14.319360 -2.661780 20.639427
17.379501 -23.945459 50.733375
13.326914 -6.953877 40.354395
-13.870332 -2.709691 20.983236
20.313965 -20.667202 53.555574
19.145881 -28.240596 53.595304
2.224757 -17.268603 37.920856
20.337278 -14.556592 51.150340
-11.627731 -12.837793 28.466704
1.093262 -19.615794 38.071600
-5.801280 -2.891297 26.735688
-0.611128 -21.470024 37.644382
5.696230 -9.026818 38.503970
-14.498192 -8.273690 21.886319
-3.687604 -5.527938 27.768794
-4.520987 -12.584741 31.202901
6.301782 -19.687206 43.550739
0.409951 -19.999286 39.630847
15.703610 -6.100660 42.225519
7.675023 -21.722708 45.299727
12.354457 -19.869075 47.776738
10.511101 -6.391414 38.075435
16.424940 -20.735366 48.840842
-14.659008 -9.457896 22.449528
13.625864 -18.606576 48.149056
14.242655 -17.274398 48.044504
11.788312 -7.632560 41.963115
-5.038865 -19.342795 35.073292
14.822285 -20.519690 47.676722
30.491875 -10.830286 54.563683
21.097486 -19.576099 51.539036
-3.799765 -2.417385 27.836637
-7.742602 1.177740 21.846953
1.803561 -8.876141 33.521631
-6.902466 -13.669167 30.139049
15.182317 -12.561179 44.822455
5.839302 -13.389348 40.737913
-8.741069 0.474913 20.638408
-12.567238 -12.778160 25.734597
18.544417 -24.983209 54.051287
9.107139 -19.619325 43.474341
19.140689 -30.025116 54.286223
10.011293 -23.995003 45.786469
25.593701 -8.307628 52.037475
17.384558 -13.316434 48.632503
16.197442 -18.900006 50.030190
5.886214 -11.994693 40.217498
1.885536 -1.955532 30.562213
6.550836 -17.205765 40.812189
16.807657 -11.739659 47.611805
-8.830215 -13.121534 28.510016
21.130503 -24.018463 53.289966
-11.489064 -3.080750 20.927311
18.406108 -30.641137 54.030829
0.447459 -18.193262 38.940980
-12.033189 -7.487686 23.145062
24.488615 -10.660492 50.249662
-0.841666 -5.526081 29.731764
14.327656 -29.805947 52.911673
-16.645655 3.209382 15.311779
-9.485198 0.796971 19.929216
12.456320 -25.584328 50.111225
-4.598051 -17.742425 33.506653
20.745862 -8.027068 48.481776
6.018424 -24.476958 45.254136
3.294251 -15.954343 38.130273
22.670515 -15.150675 50.877176
18.451623 -24.320201 51.601812
-7.553565 -16.125695 32.630655
22.254553 -24.042890 54.563683
20.115326 -11.361975 47.602880
10.746739 -24.688704 48.583067
16.952028 -22.121631 49.735544
-2.044078 -2.054605 28.828330
11.056983 -11.716318 41.521071
8.407774 -8.405015 40.046956
9.239668 -19.930147 43.684617
-14.760706 1.085635 17.980660
-3.541084 -20.441077 35.269188
-1.444001 -9.459741 33.732448
-4.097159 -13.619968 34.009924
12.344157 -21.239601 46.286602
12.077546 -25.532828 47.777548
3.058000 -1.467571 31.623512
-3.238658 -21.013578 36.436426
8.448678 -18.331982 44.487163
-3.234138 -9.599950 32.553897
-14.639354 -10.336374 22.953044
-7.556582 -1.037602 24.345774
3.979870 -2.817059 32.053579
10.306634 -19.351291 44.178501
-14.952012 2.350744 15.234549
0.769334 -19.902176 39.839013
-10.096686 -8.996071 27.387248
7.657128 -12.943385 41.808777
1.624185 -18.334489 37.930843
8.642689 -25.141340 45.310107
16.599015 -27.521264 53.721828
12.502930 -23.073270 47.107159
-16.149098 3.540858 15.439758
-9.294942 -9.121515 28.022376
4.532566 -5.819796 33.614728
4.607604 -17.567257 39.643117
16.767478 -20.741720 51.151155
24.363393 -16.712853 52.626075
-8.092139 -6.641768 25.380094
13.412502 -20.768169 48.859123
6.227162 -2.046694 34.492195
-10.426434 2.646905 19.981845
3.071856 -22.176526 40.401644
-6.992383 -8.838653 27.407707
16.185537 -23.354457 51.787027
19.565967 -13.102679 47.987759
12.012825 -28.792936 49.010013
7.314230 -14.485168 42.184354
20.535770 -22.451339 54.414735
19.418646 -26.002831 54.563683
9.464711 -26.312736 48.346712
23.671407 -13.303487 50.832974
-2.663448 -20.053476 37.514283
-5.781951 -19.081169 34.326592
14.727997 -9.871779 45.332647
10.116644 -22.236304 47.178910
-8.200816 -2.288650 24.683427
26.802962 -11.854446 52.379776
-4.852202 -16.738301 34.727330
-7.100649 -14.242643 30.305998
18.339153 -9.005950 45.041375
21.618309 -19.095562 53.828005
-0.519694 -1.706132 29.665883
10.309113 -11.587261 43.091484
20.156101 -12.723558 50.299688
-1.461362 -4.882182 31.003729
15.755802 -29.112632 51.649724
-15.693314 -7.676423 22.641976
6.590903 -12.572126 38.890238
