-63.661392 39.557991 -22.727539 
-79.260712 14.003216 -3.254602 
-55.059830 35.946571 -17.525969 
-38.484875 51.708618 -24.182487 
-39.179256 65.527206 -33.837654 
-46.553535 38.297451 -18.909832 
-54.911591 31.995861 -14.856745 
-37.516697 64.670532 -31.528204 
-65.095451 33.022156 -16.862661 
-42.535156 44.039021 -20.568926 
-36.136696 65.875107 -31.759714 
-15.257292 64.676361 -24.984259 
-44.139000 52.716881 -26.240923 
-36.438080 52.517750 -24.147125 
-81.674477 22.834518 -11.873792 
-18.889009 62.107811 -25.094868 
-69.136536 29.665100 -14.842119 
-73.702667 14.049626 -3.154759 
-56.108109 44.553947 -23.614923 
-68.510384 26.903391 -12.700045 
-32.255909 44.451866 -18.692200 
-47.060699 50.266354 -26.612957 
-61.044712 42.028999 -22.806828 
-34.587273 52.476051 -24.803183 
-63.946442 18.822552 -7.627389 
-48.475922 32.703979 -15.624517 
-25.981491 74.649811 -33.627033 
-33.863953 58.884438 -28.184008 
-33.639484 43.196487 -18.291025 
-49.031639 64.138382 -35.167023 
-35.007889 45.176670 -20.801254 
-57.144939 28.212879 -13.716578 
-32.842850 53.253906 -24.782101 
-75.106827 32.250122 -18.859257 
-20.250145 68.710091 -28.589598 
-86.921318 32.522320 -20.642900 
-47.817192 57.689884 -30.457800 
-51.425377 53.789818 -30.058779 
-51.064186 26.355278 -11.836943 
-89.882683 14.018000 -3.774359 
-88.717247 10.413383 -0.358095 
-30.516188 47.016640 -20.846090 
-76.549599 26.839336 -13.410122 
-75.759666 31.211378 -16.825802 
-85.873543 23.067215 -11.096293 
-58.098724 25.118347 -11.714446 
-18.899691 74.997101 -29.800190 
-43.423424 44.265396 -22.044756 
-43.856457 72.098640 -38.545124 
-64.000526 25.481762 -12.481647 
-44.857578 52.722092 -27.702360 
-62.540638 37.991711 -20.135309 
-64.092041 50.034260 -30.153734 
-86.480507 27.555670 -16.306812 
-16.279535 69.420738 -27.403061 
-25.338816 70.315399 -30.173077 
-79.857452 32.605030 -19.786745 
-85.391602 16.267038 -6.605486 
-40.286545 56.594013 -27.564699 
-88.473640 13.686678 -4.521034 
-32.642372 71.428146 -33.655006 
-22.231834 64.379112 -26.119450 
-24.463596 65.731735 -27.543488 
-30.245903 67.852196 -30.745567 
-78.797752 16.644896 -6.634772 
-56.776814 53.254776 -31.159170 
-70.372948 35.493172 -20.726488 
-28.108521 72.978745 -33.884766 
-33.125877 67.295532 -32.733791 
-26.813908 55.975487 -24.557491 
-66.709213 34.357769 -18.086609 
-71.615715 30.773354 -15.980461 
-70.492401 26.772667 -12.787315 
-39.796005 71.107155 -37.610718 
-78.544151 31.854544 -18.976751 
-28.840290 55.355026 -24.796402 
-49.936207 65.577415 -37.691311 
-80.075203 17.871553 -6.415407 
-43.130066 56.334297 -29.407558 
-77.494400 32.025314 -17.729597 
-50.556953 30.277149 -14.355062 
-44.686340 51.214958 -26.664391 
-58.151680 49.291073 -27.459427 
-41.835785 60.001137 -30.098854 
-80.639679 35.832558 -22.573719 
-53.879730 55.977036 -32.251930 
-87.875282 18.623169 -8.728727 
-45.610455 45.353615 -21.972986 
-63.460007 24.205698 -11.531960 
-74.119629 31.406284 -16.755184 
-25.908539 64.847588 -27.605553 
-35.045506 51.604996 -23.301846 
-49.248047 36.030506 -16.747711 
-26.170265 68.990036 -29.804634 
-57.091072 45.518063 -24.494114 
-18.756496 71.340569 -28.040386 
-41.424698 56.132973 -28.795565 
-27.767097 74.662933 -34.332233 
-64.924789 37.945847 -20.457609 
-38.787468 74.921768 -38.487690 
-36.149284 69.655151 -35.226906 
-47.081532 29.722927 -12.386610 
-46.664253 58.667076 -31.938950 
-88.035660 15.373820 -4.643469 
-80.613121 22.618420 -10.329325 
-37.770248 48.849998 -22.389767 
-85.165375 15.026249 -5.556320 
-55.295204 51.227844 -28.134993 
-35.762733 66.490463 -33.231075 
-44.555885 65.503738 -35.728004 
-88.427628 28.407642 -16.980337 
-49.645370 32.475899 -14.516595 
-84.135033 16.862894 -5.741583 
-36.176796 71.139488 -36.153660 
-61.352158 45.523533 -26.627518 
-63.508205 32.270374 -17.352890 
-40.922359 53.770615 -26.050486 
-71.835327 14.838552 -3.718113 
-66.423874 17.588945 -5.611816 
-80.768646 18.674652 -8.386493 
-25.525375 61.819553 -27.123178 
-61.316612 47.147972 -26.636702 
-64.069443 27.170687 -12.459210 
-61.042835 37.381439 -20.680864 
-46.155983 51.657967 -26.090841 
-58.770439 52.225262 -30.968622 
-71.959633 28.792557 -14.488953 
-41.926437 67.850372 -35.070583 
-64.784203 34.387695 -17.837692 
-67.071976 47.154835 -28.845005 
-49.237656 50.246361 -27.127609 
-33.028137 56.285248 -26.525450 
-46.324692 57.122482 -30.827770 
-71.607132 43.340836 -26.415318 
-73.341934 19.200115 -8.401752 
-28.547991 53.497631 -23.746422 
-51.514458 52.698128 -28.150707 
-54.437317 44.154850 -24.183969 
-73.411819 41.913609 -25.491579 
-31.058792 70.771942 -33.859638 
-18.058979 69.332085 -28.037615 
-32.524445 72.087982 -35.215019 
-55.111641 45.937244 -24.367678 
-70.367744 21.516666 -8.793628 
-78.252731 34.622002 -19.949795 
-83.778915 29.703571 -16.566521 
-52.647499 50.691845 -28.309467 
-82.419586 22.363482 -10.243478 
-87.306839 27.258175 -14.810366 
-74.272133 37.778015 -23.161251 
-89.473564 18.489410 -8.691093 
-24.214867 53.028229 -22.360491 
-38.614929 47.467308 -21.776854 
-44.412651 64.381958 -33.744797 
-35.061043 68.722328 -34.253094 
-34.677086 73.136803 -35.509804 
-48.143059 53.479141 -28.999556 
-47.973419 64.665771 -36.391006 
-48.254715 38.766048 -19.487862 
-31.053349 49.713066 -22.420681 
-62.209801 25.038506 -10.790367 
-54.287106 25.203039 -10.187955 
-46.135113 50.249943 -25.184801 
-37.695568 52.589554 -25.662823 
-87.670143 12.557703 -3.534144 
-74.231133 22.869617 -10.068341 
-12.318356 71.846603 -25.682238 
-34.906609 41.845852 -17.774734 
-59.749481 54.800583 -31.789394 
-53.627670 43.641254 -22.498755 
-76.249901 33.351646 -18.636568 
-42.042809 62.639839 -31.813755 
-76.771843 29.953339 -17.210609 
-40.900734 36.247242 -15.579603 
-52.618309 33.851059 -16.924101 
-66.293922 39.039299 -22.777714 
-59.425964 23.215574 -9.263909 
-32.693714 64.077927 -29.515747 
-66.335815 37.391273 -21.562065 
-65.219788 19.864166 -7.243611 
-70.472565 15.863872 -5.718116 
-56.540375 22.569885 -8.562527 
-62.138931 40.032112 -21.535713 
-69.488647 23.386951 -11.375251 
-38.378162 60.680599 -29.442297 
-84.111847 32.374771 -18.864941 
-12.303835 72.697083 -27.145523 
-64.949127 47.978104 -28.018642 
-39.058243 47.966896 -23.347668 
-43.248348 63.515800 -32.789623 
-42.790604 72.578468 -39.741234 
-58.591263 44.652035 -25.388077 
-46.397713 53.002510 -27.019329 
-49.966396 45.380238 -24.163952 
-74.803558 26.616989 -13.069280 
-84.407486 24.931515 -12.522943 
-88.071465 10.870826 -2.072268 
-28.889927 59.299446 -26.915546 
-69.630486 37.042107 -20.587719 
-36.472034 40.479023 -18.461920 
-23.252598 57.870205 -24.486217 
-32.701500 62.106861 -29.675112 
-72.902229 26.919661 -13.125081 
-53.917934 34.600933 -17.616331 
-78.604454 36.910374 -21.862627 
-71.695221 41.482758 -24.378613 
-24.415051 58.960716 -24.223379 
-63.180416 44.600510 -26.334908 
-83.855545 14.359650 -3.627260 
-58.209019 23.271408 -10.415261 
-37.975101 63.055908 -31.994480 
-33.045509 73.598747 -35.101330 
-75.827850 37.962601 -22.288862 
-56.701328 35.662785 -18.791471 
-29.615448 60.879452 -26.783186 
-77.851944 26.936256 -14.877164 
-69.295372 42.335007 -24.621107 
-37.252869 41.912601 -18.289227 
-54.657108 54.501656 -31.419098 
-69.189209 25.048456 -12.600499 
-69.795135 19.891006 -8.745028 
-38.891861 41.834030 -18.576351 
-78.862045 34.874367 -21.530815 
-71.679825 22.380709 -9.521734 
-53.558311 31.890121 -15.775016 
-46.414059 60.277142 -32.929291 
-49.497280 27.708132 -12.566709 
-85.578300 33.266930 -19.782074 
-81.864784 16.759291 -5.577372 
-89.441856 12.367399 -3.380534 
-55.033371 32.628941 -16.463482 
-31.149082 44.991611 -19.905014 
-40.318214 49.496986 -24.518749 
-65.822449 40.610271 -22.667530 
-31.145918 72.718872 -33.787724 
-48.187187 47.909904 -24.158859 
-49.003227 43.250217 -22.566856 
-39.985298 59.639015 -29.312115 
-73.479927 29.092770 -14.893492 
-67.812698 18.237309 -6.175034 
-71.967979 20.814896 -8.348772 
-72.023445 19.526592 -7.362576 
-49.281685 30.753832 -13.345795 
-61.467972 50.940098 -29.424829 
-37.646778 61.628517 -31.024818 
-56.593971 41.315678 -22.690781 
-86.547928 12.162685 -1.867187 
-43.535385 70.556602 -37.452045 
-62.091427 49.377697 -29.648281 
-79.845085 34.439438 -20.019478 
-70.336975 28.687479 -14.226246 
-46.109837 71.197861 -39.760647 
-53.051846 30.247231 -14.660984 
-72.314644 25.388355 -13.142728 
-77.797340 17.650063 -7.382518 
-75.378922 13.944133 -3.112755 
-65.997192 31.644779 -17.209782 
-83.148499 15.912428 -4.908808 
-63.811165 34.648960 -19.119493 
-38.827530 67.251694 -33.534966 
-28.704596 67.608978 -30.038538 
-21.673857 68.297607 -27.813774 
-34.634014 58.094501 -26.800182 
-57.261265 30.153511 -15.048800 
-31.148964 60.815418 -27.236139 
-56.096840 31.513641 -15.847233 
-51.207176 44.092754 -22.306593 
-45.646297 72.737816 -39.700756 
-60.013954 53.105244 -31.889341 
-79.189438 30.049419 -17.552523 
-16.592295 68.363220 -25.930035 
-49.661366 37.614769 -18.990892 
-25.150589 57.706383 -24.965729 
-57.318188 37.187229 -18.725849 
-68.096405 46.539948 -27.585587 
-50.091270 40.232738 -20.785076 
-85.238434 29.121517 -16.210316 
-51.251945 60.322544 -33.283173 
-62.133854 19.146198 -6.521085 
-72.034622 23.153225 -11.423145 
-36.836292 39.412064 -16.753433 
-32.736073 61.464745 -28.106260 
-52.488831 33.024700 -15.245089 
-39.317650 72.564194 -37.018494 
-82.580818 31.314711 -19.067574 
-24.884693 59.389606 -25.698969 
-31.227184 63.928436 -30.162716 
-23.694353 64.066025 -27.623116 
-22.466366 65.139801 -27.734518 
-78.236305 24.816954 -11.934774 
-60.651604 30.413811 -14.409146 
-70.210815 19.346252 -7.139428 
-76.421616 38.373268 -23.996651 
-81.592339 32.508492 -18.662802 
-24.735666 74.233292 -31.881737 
-56.748863 57.733673 -33.909687 
-17.287664 72.155655 -27.832994 
-57.462322 31.821310 -15.033747 
-62.034649 36.452271 -18.938564 
-41.974552 73.585716 -38.782871 
-49.092186 34.250660 -15.592106 
-47.279465 61.319828 -33.891220 
-19.813189 72.482666 -28.997139 
-23.175442 59.402008 -25.201994 
-78.322472 22.988018 -11.771645 
-39.966629 68.412994 -34.677246 
-89.377151 21.677732 -10.133060 
-69.594551 31.052473 -17.235117 
-35.342579 59.377590 -27.729261 
-80.290588 24.657063 -13.276647 
-56.355560 27.904995 -12.256786 
-46.190948 30.991001 -13.097821 
-61.699265 32.549118 -16.086233 
-18.061533 67.621101 -26.160368 
-82.219086 30.290443 -16.890251 
-55.975254 42.946854 -23.695423 
-66.490601 41.715347 -23.635525 
-73.847794 32.699814 -17.770153 
-38.932545 58.181648 -28.114365 
-54.595249 28.046432 -13.340502 
-44.177120 62.666378 -33.767162 
-22.731560 60.818413 -24.592152 
-84.432373 11.224140 -1.018794 
-56.721149 39.876499 -20.489986 
-63.301590 20.403940 -7.521827 
-31.742727 57.237717 -26.653582 
-51.602821 31.610363 -15.340155 
-85.667557 12.360083 -3.340281 
-53.272987 57.406010 -31.885944 
-14.739409 74.999229 -28.012316 
-63.167774 49.110035 -28.476357 
-52.512924 44.374870 -23.970877 
-20.509880 74.559784 -30.246536 
-40.780201 65.725288 -33.333958 
-41.745384 34.624428 -15.895301 
-54.744362 41.421608 -22.406139 
-84.276871 34.351791 -20.606174 
-67.150330 44.870888 -27.400614 
-46.641983 44.264465 -22.774593 
-50.562782 29.691666 -12.814075 
-27.967800 60.709381 -26.178398 
-61.564644 19.959370 -8.304190 
-41.880630 71.440369 -38.636799 
-42.122791 74.819061 -40.076073 
-86.239929 13.509828 -4.332146 
-58.723366 44.127331 -23.856010 
-37.861797 71.087479 -35.514977 
-65.375626 44.761208 -26.944218 
-82.515701 11.309141 -1.082287 
-39.347324 70.590652 -35.815586 
-48.791756 29.349344 -12.365726 
-39.103611 40.265644 -18.841158 
-66.035294 26.982718 -12.499833 
-19.199116 67.232117 -27.534832 
-44.411160 73.078537 -40.701771 
-80.594727 15.496292 -5.793072 
-76.872299 19.079330 -7.230104 
-60.724808 22.563110 -10.126835 
-73.077988 20.877489 -9.726683 
-60.351593 21.024282 -8.998888 
-29.654678 73.153290 -34.640507 
-89.228958 22.404642 -11.766815 
-22.892946 54.632988 -22.790880 
-30.306297 49.184273 -20.826120 
-69.826523 37.913265 -22.519489 
-59.250710 48.774212 -28.566784 
-40.075222 60.152645 -30.907944 
-33.112522 51.819431 -24.061230 
-24.782171 54.386501 -23.172947 
-72.656281 29.414196 -16.348801 
-76.270538 24.745575 -12.989845 
-49.365459 44.837936 -22.429111 
-77.647087 13.757397 -3.017236 
-81.072784 33.329464 -20.561539 
-80.406853 29.828411 -16.280037 
-21.612974 70.250412 -28.640652 
-50.050560 55.021461 -30.511700 
-32.307152 69.817734 -32.620579 
-39.318649 64.043747 -31.767441 
-59.015266 30.446020 -14.272892 
-28.805267 56.989445 -24.522640 
-65.122620 39.213051 -21.466595 
-18.093981 72.741798 -29.598873 
-60.765892 49.194561 -27.992559 
-86.638290 24.438354 -13.620779 
-57.283485 33.222752 -15.964135 
-80.487328 19.958481 -9.418921 
-42.884003 33.571201 -15.433181 
-34.376987 71.323593 -35.516426 
-78.141335 25.208729 -13.520754 
-81.552383 25.761280 -12.981728 
-60.536308 52.409653 -30.260479 
-67.391556 27.162613 -14.017193 
-9.129314 74.805908 -26.215698 
-63.710327 18.387117 -6.051789 
-41.913776 58.378311 -29.115692 
-67.611954 31.583763 -16.115026 
-40.643654 46.764362 -22.947868 
-31.599333 74.738220 -35.772049 
-65.185326 49.071430 -29.453968 
-36.940041 50.830536 -24.451633 
-20.701998 63.259674 -26.237896 
-52.353062 59.997757 -34.596180 
-56.517338 26.381378 -11.221235 
-56.094608 46.254261 -26.034985 
-46.310516 67.379410 -37.630829 
-50.004829 52.374187 -28.720457 
-56.054237 49.447628 -28.321339 
-67.974869 40.512383 -24.191376 
-42.983166 39.256447 -18.900038 
-82.220940 14.374408 -3.596039 
-49.740524 41.810654 -20.534676 
-70.532990 29.074429 -15.861061 
-75.259041 40.385704 -24.126017 
-33.895386 44.872086 -19.283112 
-40.192776 63.947975 -33.263184 
-52.928024 58.274094 -33.623474 
-38.238228 37.629051 -17.121309 
-62.276527 47.650742 -28.410381 
-35.220871 50.041855 -22.485857 
-40.143852 69.085541 -36.408070 
-15.205988 69.432175 -25.848789 
-83.927048 22.813168 -12.042453 
-72.901230 17.882526 -7.344163 
-79.408928 27.007296 -13.808785 
-54.291508 60.415043 -35.346207 
-17.495268 63.097557 -23.898815 
-52.183788 25.761925 -10.366131 
-35.224258 68.031815 -32.690758 
-28.502254 65.387634 -29.928215 
-24.661297 63.407635 -26.523033 
-27.072859 66.937286 -30.235901 
-68.726349 38.329224 -21.434853 
-40.080170 39.514862 -17.408485 
-37.024681 65.299393 -32.975536 
-88.734421 19.639389 -9.654497 
-65.358742 25.463175 -11.350324 
-43.802898 67.466225 -35.542068 
-51.842163 40.647484 -21.375584 
-40.028824 36.784145 -16.936804 
-73.965027 24.300381 -11.179922 
-31.735382 54.661236 -24.138805 
-52.718639 35.668030 -16.990788 
-39.173737 45.233044 -21.733620 
-40.120113 44.465836 -20.344872 
-83.855225 21.534573 -10.973843 
-43.520954 51.351707 -25.236032 
-34.581905 60.090939 -29.087513 
-42.293575 52.760254 -25.786472 
-69.729141 40.906902 -23.599567 
-34.423164 48.651909 -22.594452 
-67.372391 41.797501 -25.074490 
-70.415588 22.258070 -10.606599 
-37.463638 73.023544 -37.852188 
-47.943756 67.689117 -37.176414 
-52.883778 39.390846 -20.725435 
-23.441175 68.650780 -29.767612 
-74.631516 18.968998 -7.054886 
-38.620083 55.934563 -27.868385 
-82.662857 18.961718 -8.736819 
-43.497375 42.740658 -21.133617 
-60.020706 32.677979 -17.159500 
-58.299343 40.870106 -22.708324 
-86.288116 31.763973 -18.567415 
-51.985756 29.311514 -13.916398 
-65.533173 23.499451 -11.191234 
-23.565636 72.958717 -31.957428 
-84.368492 28.113537 -15.265924 
-69.810944 34.553482 -18.651281 
-34.913006 74.478363 -37.586830 
-53.466797 38.822910 -19.222641 
-47.691235 48.790867 -25.791729 
-59.956326 47.382698 -27.709158 
-81.719437 20.934027 -9.018070 
-22.869825 56.833092 -22.720142 
-37.804173 44.548969 -21.047092 
-66.201736 18.638330 -7.613669 
-46.755852 43.785530 -21.225950 
-22.070118 59.398090 -23.695021 
-27.433880 64.896095 -28.158752 
-75.389687 20.303919 -8.114376 
-79.374306 12.442080 -1.980267 
-55.189274 39.593967 -20.028618 
-68.728691 32.508797 -16.958897 
-58.368057 39.730751 -20.682808 
-74.833450 36.440327 -22.179306 
-82.376007 34.140697 -21.417721 
-45.262009 67.629524 -36.192314 
-70.882591 36.807266 -21.816002 
-34.111694 70.340263 -33.601158 
-36.842796 59.570702 -28.298916 
-67.642990 28.960079 -14.148836 
-87.069565 22.643978 -12.161884 
-81.179779 35.116360 -20.754248 
-37.186024 55.337166 -27.139641 
-86.070602 19.775719 -8.329785 
-57.449677 35.266014 -17.411852 
-86.172112 26.102592 -15.007769 
-52.763107 53.555225 -29.086319 
-59.104687 21.603384 -8.092513 
-36.335735 44.852669 -19.802231 
-54.217693 48.898247 -27.485756 
-37.106785 63.341721 -30.612282 
-18.903942 59.878143 -24.080345 
-81.340363 24.435583 -11.870352 
-49.550793 56.610050 -30.272078 
-68.495651 18.723347 -7.803760 
-67.360359 25.051222 -11.204459 
-43.242340 61.573116 -32.768635 
-75.848000 21.628386 -9.194189 
-20.194695 59.503124 -23.155416 
-53.668884 50.341751 -27.091354 
-70.627319 25.353142 -11.714422 
-62.494743 43.651711 -24.310169 
-15.978030 66.091217 -24.708305 
-45.684566 70.556534 -38.259972 
-42.704971 66.272667 -35.564171 
-71.974808 37.726959 -22.732258 
-83.295113 20.641237 -8.863651 
-54.075466 54.116680 -29.827641 
-34.698475 56.466496 -25.898190 
-33.367535 48.749634 -21.331902 
-45.388683 38.785709 -17.879726 
-59.346378 46.243736 -26.730858 
-24.194696 71.812912 -30.470104 
-74.449898 35.458794 -20.092028 
-64.585846 31.711105 -15.835392 
-30.138599 57.918636 -26.543434 
-83.446129 11.404164 -2.465523 
-54.349197 26.725462 -11.244770 
-84.863564 29.589226 -17.906103 
-54.541252 48.002808 -25.662651 
-88.498444 23.910471 -12.004608 
-45.707279 58.762123 -30.532625 
-44.056511 49.753357 -24.384483 
-49.494980 49.014992 -25.180836 
-57.618668 52.180618 -29.394024 
-29.461889 47.535336 -19.734043 
-57.416000 54.716740 -31.123390 
-79.984909 23.831280 -11.281674 
-48.325626 41.129345 -21.031784 
-34.365982 62.627792 -30.539175 
-34.714958 54.855202 -26.218918 
-16.812813 64.533447 -24.310545 
-70.462509 44.124161 -27.393496 
-45.649433 68.774422 -38.305523 
-53.715744 36.532887 -18.888744 
-66.186035 46.943966 -27.509014 
-26.915754 68.922203 -31.266811 
-59.731941 28.512428 -14.207075 
-14.755131 67.495911 -24.836037 
-82.899277 23.989954 -11.622541 
-36.452236 74.711563 -37.161354 
-58.077469 33.288242 -17.346889 
-65.821411 29.032993 -14.009296 
-32.241348 59.743462 -28.159954 
-81.524460 12.381929 -1.956299 
-69.152481 44.430382 -26.193033 
-46.206497 62.742809 -33.295525 
-30.491961 70.450722 -32.246094 
-52.733238 55.134766 -31.319822 
-52.938473 28.834488 -12.515387 
-29.186972 69.516792 -31.231073 
-23.806898 55.880592 -23.673223 
-88.907593 24.346321 -13.749174 
-19.391516 73.341827 -30.411839 
-47.238968 36.974258 -18.206139 
-78.781181 14.717985 -5.115836 
-44.588486 59.135963 -31.621395 
-89.829437 15.879706 -5.162289 
-23.927303 61.732262 -26.563316 
-50.897511 50.709915 -27.844141 
-14.777528 73.389343 -27.293789 
-88.184822 15.733038 -6.278169 
-88.301895 27.053968 -16.051498 
-57.616592 56.806530 -32.665794 
-19.221409 64.206291 -24.997808 
-67.416046 34.603901 -19.628088 
-45.504303 64.249245 -35.244152 
-61.824566 30.297512 -15.694374 
-49.794460 46.800053 -25.068348 
-67.619171 22.623919 -10.663273 
-25.598255 65.648262 -29.047318 
-27.002947 54.249973 -23.709932 
-20.122225 61.029091 -23.875572 
-44.564667 40.042896 -18.519968 
-46.610920 65.954895 -35.530769 
-64.882767 20.324703 -8.799138 
-73.088219 36.658707 -22.060404 
-87.015846 28.994787 -17.612820 
-34.806908 43.583141 -19.898689 
-60.859489 34.069164 -17.057446 
-52.905678 62.645924 -35.647499 
-87.237488 22.210340 -10.483053 
-30.504797 62.086468 -28.876457 
-45.147484 48.551662 -23.885183 
-71.013832 33.994980 -19.659569 
-44.422577 37.334587 -17.955421 
-37.290863 67.612518 -33.186619 
-51.112141 61.096004 -34.959629 
-73.912285 39.557293 -23.258701 
-42.417603 45.442013 -22.527414 
-35.590240 46.835915 -20.770088 
-56.211399 51.040421 -29.503126 
-22.834991 71.274284 -29.646536 
-27.111279 62.261032 -26.711872 
-33.245995 47.361565 -20.527174 
-18.966877 65.889023 -25.708473 
-41.250854 48.230721 -22.782480 
-48.666946 52.866909 -27.499960 
-37.145756 46.016926 -20.628860 
-58.256611 37.997948 -20.657955 
-36.469368 47.007244 -22.171440 
-62.649143 33.611217 -16.968178 
-27.026514 59.355484 -26.343748 
-63.137463 30.105892 -14.488938 
-75.871529 22.199833 -10.982979 
-47.410576 63.365273 -35.323895 
-55.452053 34.370842 -16.494158 
-67.896713 36.306206 -21.001179 
-60.564903 38.911255 -21.702129 
-69.931915 39.523167 -22.563202 
-77.806770 21.382584 -9.135427 
-60.279053 43.030186 -24.586178 
-58.935181 24.708309 -10.282110 
-36.818371 69.036789 -33.866199 
-51.120743 46.851944 -24.131723 
-44.207439 54.264542 -28.481285 
-67.358139 16.515757 -4.833655 
-81.488884 17.137327 -7.169208 
-53.879951 33.803432 -15.930585 
-81.433350 27.146902 -14.157731 
-64.720917 41.750957 -23.329144 
-34.482521 65.680496 -32.331490 
-38.381607 39.873962 -17.311686 
-28.211636 49.079041 -21.408222 
-67.094040 22.247938 -9.134674 
-35.701424 63.994438 -31.777134 
-73.123352 27.498062 -14.882114 
-80.974472 14.163034 -4.705295 
-72.719894 31.370962 -17.867725 
-51.231133 62.550461 -36.035336 
-70.476746 32.382965 -18.354265 
-43.522549 65.686668 -34.271599 
-35.752934 72.984489 -37.111294 
-54.083767 40.712029 -20.593027 
-55.128605 57.739944 -33.875881 
-64.215492 36.666100 -19.420277 
-40.737724 55.231171 -26.872759 
-72.066147 15.750379 -5.682454 
-31.918409 48.140816 -21.752274 
-63.378361 21.801910 -8.547785 
-30.461521 65.947083 -30.980312 
-43.942570 35.903400 -17.009209 
-70.730682 42.027046 -25.902302 
-23.177227 62.924515 -25.790428 
-47.230148 35.940655 -16.393274 
-26.256472 60.705688 -25.639645 
-10.696115 73.536652 -25.684071 
-47.888359 42.630302 -20.705515 
-36.064407 61.426865 -30.382036 
-34.258305 64.193939 -30.124035 
-47.310093 55.442234 -30.079620 
-62.915344 41.991570 -24.370609 
-44.824631 61.319405 -33.106903 
-48.325119 46.042622 -24.265774 
-51.157482 48.334843 -25.122192 
-55.768883 53.671246 -29.949915 
-51.030655 38.535583 -18.605225 
-75.166466 27.879107 -15.398443 
-47.591976 51.485271 -27.547676 
-41.790413 61.000900 -31.964540 
-63.882439 22.918440 -10.645246 
-56.962605 24.906189 -10.245046 
-80.259239 27.931229 -15.938199 
-47.240486 40.110870 -20.145699 
-53.213116 27.131113 -12.594670 
-42.938705 35.809448 -15.646067 
-46.522209 47.454758 -24.706614 
-26.905212 63.286880 -28.291348 
-36.052944 43.249485 -18.817608 
-47.956657 59.620026 -31.809261 
-22.613735 73.262436 -30.453403 
-68.785355 15.882145 -5.662625 
-60.353058 25.357313 -10.862210 
-60.992550 23.847847 -11.058214 
-32.958626 58.743233 -26.643040 
-49.334690 57.454136 -31.967220 
-49.439186 54.708183 -28.940990 
-84.993004 17.921949 -6.669332 
-40.249607 62.020210 -30.841892 
-43.014977 37.712685 -16.828926 
-41.934628 48.773411 -24.443481 
-41.816574 53.870594 -27.556538 
-29.559570 51.459465 -22.973110 
-64.392159 44.467110 -25.297604 
-29.982080 54.219990 -24.524488 
-25.360830 51.526661 -21.933603 
-78.071335 30.007454 -16.140263 
-60.584999 45.445553 -25.223450 
-58.777702 26.616247 -11.601610 
-13.178216 71.093712 -26.843102 
-66.641876 20.955463 -8.141863 
-23.815187 70.117241 -30.634504 
-28.761620 58.583454 -25.360653 
-13.492547 69.519119 -25.215345 
-82.271973 18.659534 -7.162054 
-73.662468 40.834507 -24.210623 
-41.274033 44.611588 -21.785915 
-67.967163 29.760511 -16.044270 
-67.088188 25.456711 -12.740501 
-89.767242 12.093039 -1.819381 
-47.568714 69.616692 -38.714882 
-55.044033 23.778454 -9.279473 
-67.627312 44.200737 -25.734592 
-77.680374 19.544273 -8.924491 
-15.765152 74.400673 -29.349670 
-74.638382 14.274168 -4.603973 
-43.796078 32.566837 -13.751085 
-69.638725 17.359371 -5.589050 
-44.463039 57.659241 -29.438387 
-41.837395 64.864601 -34.362495 
-45.941402 53.731438 -28.632504 
-31.501085 51.503555 -23.483807 
-59.873428 40.341896 -21.376276 
-77.396004 21.687744 -10.658544 
-56.487507 23.187628 -10.214233 
-47.285042 30.812675 -14.277760 
-86.039848 17.932053 -8.037554 
-74.865982 34.090168 -19.044277 
-44.617203 41.793633 -19.597612 
-72.743774 32.785866 -18.967701 
-38.341255 54.800327 -25.975029 
-68.500099 20.682602 -9.261730 
-43.564423 68.425194 -37.285831 
-17.426882 74.948715 -29.134796 
-59.872322 51.169174 -29.209854 
-68.980659 27.329563 -14.348909 
-65.534920 35.559101 -18.810280 
-41.975418 38.224045 -18.115248 
-79.848633 21.423145 -9.296310 
-39.345631 54.347740 -27.129272 
-28.098915 52.724892 -22.152260 
-42.708488 55.904911 -27.848072 
-43.393360 58.267601 -30.698574 
-39.475212 53.363441 -25.429569 
-45.440353 35.755962 -16.011782 
-43.442284 48.137032 -24.406351 
-33.472897 50.295731 -23.289688 
-48.814774 61.785091 -33.503929 
-62.323586 34.902683 -17.854160 
-40.550915 62.438457 -32.463295 
-39.890453 57.826889 -29.365513 
-50.425148 42.092907 -22.080402 
-88.984276 17.325003 -7.654694 
-60.874855 35.550606 -18.103724 
-57.385006 47.420818 -25.936239 
-58.403584 50.158089 -29.387611 
-73.101692 17.169498 -5.593782 
-27.323654 73.355118 -32.517578 
-71.994446 35.685375 -21.108902 
-51.945217 58.921818 -32.532993 
-62.253902 27.039234 -12.216158 
-62.960686 27.323740 -13.689484 
-50.525330 34.963566 -16.243635 
-83.227859 25.931948 -13.276377 
-29.073042 62.556744 -27.480158 
-40.826790 74.899963 -39.137878 
-88.233002 25.830563 -14.976900 
-46.967354 32.499840 -14.175185 
-63.082584 47.087143 -26.965233 
-55.873970 56.226303 -33.004433 
-55.452255 37.518745 -18.658777 
-74.337021 15.696080 -5.693056 
-59.679619 37.682350 -19.449030 
-64.714493 42.317036 -24.964165 
-28.498158 72.172615 -32.386902 
-60.133301 40.708618 -22.929947 
-52.911514 42.157497 -22.568876 
-52.195927 49.524044 -26.141817 
-59.466854 36.263496 -18.404430 
-61.530495 25.583530 -12.332294 
-30.165951 56.182583 -25.612663 
-14.730691 70.465103 -27.236507 
-72.967606 34.354565 -20.219681 
-71.878700 39.901253 -24.443058 
-32.523018 45.926266 -19.574242 
-52.061192 37.421516 -18.042534 
-58.185448 21.898460 -9.440808 
-65.435593 22.640242 -9.307156 
-45.052849 43.428215 -20.657637 
-51.952965 42.334679 -21.292976 
-36.435760 55.028309 -25.570541 
-75.862846 29.776043 -15.691783 
-19.739262 70.476410 -29.172932 
-28.677288 70.403900 -32.751892 
-62.668732 23.375364 -9.645031 
-44.208778 46.191711 -22.207830 
-62.168808 28.546616 -14.482472 
-73.012810 14.529519 -4.769392 
-44.035549 46.764660 -23.708647 
-76.460342 35.887478 -21.993353 
-31.926136 67.508682 -31.160480 
-76.715683 24.087696 -11.217039 
-26.425789 58.785156 -24.771820 
-21.561186 71.807098 -30.548592 
-34.829376 61.830372 -28.974422 
-55.408806 59.727230 -34.190540 
-31.679352 56.501133 -25.073515 
-86.786758 20.924143 -9.360647 
-68.700974 45.037315 -27.839493 
-63.065956 38.264038 -21.672787 
-52.067680 27.585257 -11.577339 
-41.010426 43.266270 -20.926880 
-24.476570 57.336426 -23.466118 
-64.315773 29.351360 -15.304224 
-52.870071 47.962990 -26.490406 
-49.946049 64.000847 -36.613899 
-75.294487 17.088346 -5.604348 
-87.747009 18.348032 -7.164413 
-45.836014 56.855812 -29.302042 
-30.247522 68.791397 -32.461159 
-88.217361 30.469587 -17.750397 
-62.849373 41.486870 -22.759531 
-30.037880 53.471878 -23.055792 
-21.082798 60.190857 -24.917482 
-65.752304 27.425589 -14.029599 
-33.086815 54.674805 -25.652971 
-54.573669 52.525764 -28.841145 
-45.504765 40.468105 -20.060747 
-30.661276 65.277878 -29.490755 
-52.282108 45.999130 -25.008745 
-74.636337 29.728210 -16.795135 
-41.189575 70.880562 -36.731186 
-17.684921 64.355629 -25.683086 
-40.394051 72.625992 -38.829399 
-57.505943 26.810001 -12.802870 
-36.103958 48.787209 -21.971163 
-42.811985 59.602730 -31.395023 
-43.234463 41.120121 -18.942949 
-78.529526 28.605911 -15.026822 
-41.317684 46.194103 -21.601717 
-23.121820 74.520973 -32.556358 
-86.740768 16.222349 -5.306113 
-67.723816 39.772549 -22.366606 
-58.321556 54.512253 -32.439339 
-20.954712 57.112190 -23.411602 
-50.248131 37.081055 -17.560078 
-66.004883 30.122454 -16.072538 
-41.994591 50.486729 -25.530216 
-26.445091 70.800133 -32.053276 
-58.639915 42.821785 -22.896805 
-55.570625 24.972212 -11.341109 
-69.000664 22.791563 -9.654541 
-79.432899 37.325924 -23.359898 
-84.475868 31.157057 -17.874569 
-33.196651 66.312836 -30.954838 
-19.896252 65.266312 -26.860630 
-27.326464 51.268734 -22.313515 
-40.851704 39.873924 -18.924335 
-20.903624 66.512314 -27.824642 
-32.603531 50.110237 -21.889595 
-36.366791 58.053761 -28.488657 
-29.779696 74.992500 -34.473763 
-58.508888 28.239243 -12.699021 
-37.914104 57.259033 -27.281275 
-67.171219 33.031620 -17.147438 
-36.014435 53.415466 -25.716795 
-56.458328 37.717316 -20.172493 
-80.717026 31.241310 -17.498123 
-88.039040 20.754665 -10.589882 
-72.307533 39.492622 -22.942461 
-50.617706 32.984936 -16.084623 
-51.512260 64.339066 -36.485828 
-48.622772 66.267204 -36.444725 
-39.370636 51.638798 -25.534292 
-59.124973 34.439144 -18.308256 
-38.773251 43.783604 -19.677794 
-76.176376 34.290817 -20.653214 
-78.214088 16.265450 -5.048423 
-61.162811 28.372833 -13.044776 
-17.634968 61.403816 -24.344645 
-76.720718 28.651855 -14.875969 
-83.153152 27.308586 -14.461562 
-50.057804 62.622166 -34.456871 
-46.343571 42.121017 -21.298925 
-51.759918 39.834236 -19.596945 
-48.702652 40.618992 -19.561260 
-64.211296 46.519459 -27.997276 
-42.412548 41.679123 -20.276630 
-76.560638 16.684906 -6.566829 
-10.763121 74.934883 -26.490734 
-31.294020 52.933960 -24.201893 
-85.411369 20.309700 -10.070614 
-15.897275 71.739975 -27.101620 
-59.975067 32.153183 -15.575944 
-36.595921 49.451756 -23.585928 
-12.646667 74.704170 -27.983196 
-45.527069 60.452961 -31.564896 
-33.463329 74.829407 -36.400089 
-44.480736 33.057137 -15.334596 
-67.357277 19.731747 -7.270137 
-83.445747 12.734760 -3.565193 
-48.956871 59.758007 -33.378029 
-40.760040 52.431969 -25.195972 
-46.859390 55.037632 -28.428032 
-61.702702 22.009590 -8.580893 
-52.116158 38.043835 -19.662977 
-79.553123 19.416224 -7.643685 
-15.900486 72.637634 -28.642799 
-45.935459 46.856026 -22.999283 
-85.213531 21.967194 -10.122950 
-74.457581 24.728714 -12.821176 
-26.423775 53.489212 -22.062084 
-51.812214 56.481964 -30.832132 
-78.024918 38.282917 -24.108332 
-82.128159 27.497490 -15.789579 
-71.193611 17.520664 -7.018556 
-38.725468 49.903252 -24.371443 
-39.560852 42.286873 -20.079391 
-49.654774 59.097092 -31.954479 
-44.759800 69.480408 -37.184574 
-28.453077 63.754150 -29.025013 
-26.213308 67.132797 -28.855110 
-68.757889 36.067097 -19.678202 
-23.026077 67.004158 -27.680880 
-45.189392 31.609367 -14.529478 
-25.414574 73.093002 -32.816883 
-58.346252 47.393578 -27.361694 
-62.948761 51.226486 -30.613369 
-67.118744 36.196812 -19.510853 
-71.099716 27.141743 -14.410713 
-24.426430 67.282532 -29.480167 
-44.605854 56.002377 -28.427597 
-56.091347 47.685246 -27.064398 
-55.639851 40.253372 -21.789351 
-46.295834 39.890167 -18.709686 
-54.888161 57.366489 -32.305794 
-41.057739 42.396454 -19.312862 
-87.126793 10.573690 -0.492411 
-25.723736 72.205795 -31.288227 
-43.747314 74.672997 -41.017555 
-48.598549 37.706734 -17.711119 
-77.543541 37.025829 -23.081425 
-55.827576 29.115747 -14.184315 
-25.500299 55.975788 -23.053978 
-76.532021 13.886931 -4.372437 
-41.220512 37.889889 -16.643629 
-86.959412 16.776890 -7.099974 
-88.006042 31.668215 -18.844130 
-46.100586 33.241039 -15.671651 
-30.565922 59.290237 -27.412174 
-65.758568 43.456993 -26.043022 
-61.580112 51.835457 -31.342552 
-60.465813 26.985491 -12.018245 
-20.661423 62.573494 -24.759796 
-84.386467 25.571205 -14.382277 
-47.572376 45.942848 -22.762184 
-38.153244 69.110886 -35.655476 
-84.213051 32.677879 -20.431524 
-33.388668 64.696342 -31.395142 
-54.642414 30.091677 -14.733322 
-42.174381 69.557602 -37.505081 
-80.240341 12.615226 -3.425674 
-27.362852 57.284016 -25.392424 
-65.458832 36.030075 -20.394997 
-44.215534 34.669006 -15.144078 
-30.121527 63.763218 -28.466118 
-27.164986 50.414825 -20.681816 
-50.735645 50.281239 -26.303526 
-78.656670 22.516628 -10.101530 
-37.883835 58.658413 -29.303761 
-51.128609 28.170845 -13.058084 
-41.706959 63.240082 -33.319729 
-42.783432 47.316265 -22.581230 
-58.531303 36.529457 -19.686466 
-64.075081 28.530275 -13.448899 
-83.595840 17.877808 -7.877974 
-50.893875 57.228138 -32.297249 
-34.909901 54.085243 -24.629103 
-89.916862 10.077629 -1.392569 
-47.411770 34.167072 -15.296908 
-76.956970 15.427931 -5.599174 
-21.435949 74.238861 -31.703466 
-84.420715 19.322983 -9.163546 
-58.552105 31.542030 -16.171015 
-82.382767 24.249517 -13.109189 
-29.958055 50.677567 -21.543354 
-68.393654 34.041779 -18.068214 
-81.844810 12.771381 -3.574183 
-57.291733 50.766453 -28.296707 
-51.211140 35.890259 -18.071110 
-64.291122 46.052563 -26.460146 
-36.078518 56.599594 -27.593113 
-75.418449 23.575018 -12.008955 
-17.006256 65.956772 -26.168194 
-75.696922 15.661041 -4.492493 
-51.383202 45.472187 -23.261560 
-84.463104 12.636769 -2.199338 
-43.952290 61.005772 -31.404829 
-82.677727 33.468380 -19.596378 
