0.789554 1.067711 0.321840
0.804279 0.506694 0.839154
0.940353 0.444734 1.043228
0.857198 1.140827 0.365642
0.805155 0.301115 1.048599
0.828796 1.019105 0.420886
0.775028 1.211659 0.239699
0.748314 0.901566 0.422992
0.753057 0.443684 0.849608
0.641928 0.282416 0.875038
0.500361 -0.016983 1.196100
0.870055 0.270609 1.158612
0.828017 0.504711 0.837146
0.685571 0.217280 1.019072
0.579458 0.654559 0.429196
0.691508 0.800256 0.410896
0.694936 0.112935 1.190746
0.785537 0.534674 0.788416
0.616481 0.532889 0.588424
0.737868 0.565070 0.673456
0.626604 0.347219 0.806845
0.690997 0.826599 0.388927
0.640706 0.737191 0.431525
0.566753 0.348124 0.693106
0.701243 0.619647 0.579512
0.858166 0.901952 0.510874
0.880175 0.429850 0.975617
0.775256 0.201656 1.185563
0.884510 0.472278 0.932240
0.630582 0.684064 0.464644
0.787266 0.289942 1.076771
0.897308 0.715077 0.732463
0.531519 0.299756 0.737465
0.674374 0.739755 0.469180
0.731214 0.509386 0.753020
0.832300 0.660824 0.715265
0.873665 0.356450 1.085156
0.664269 0.804807 0.403929
0.575290 0.255191 0.821019
0.834911 0.287251 1.100645
0.930567 0.476523 0.975380
0.679092 0.591946 0.608454
0.705542 0.205204 1.098007
0.787894 0.192716 1.177543
0.752810 1.248319 0.196033
0.865878 0.229834 1.225939
0.658259 0.589100 0.585400
0.881493 0.522986 0.903012
0.609570 0.820204 0.329314
0.705981 1.182635 0.188251
0.768539 1.203411 0.238413
0.691008 0.947731 0.326174
0.805293 1.113157 0.307182
0.921752 0.852031 0.614272
0.917610 1.156594 0.406901
0.747000 0.746170 0.546513
0.891974 0.747579 0.672328
0.790602 0.778071 0.539186
0.697460 0.358777 0.882718
0.821385 0.633851 0.729107
0.665179 0.828062 0.386549
0.680090 0.546025 0.654843
0.471855 -0.030560 1.177582
0.664260 0.944224 0.272753
0.859515 0.563440 0.809045
0.770130 0.467909 0.812476
0.809440 0.949299 0.451691
0.690674 0.928755 0.313114
1.005962 1.072927 0.527936
0.581105 0.395842 0.656679
0.591615 0.483601 0.607274
0.535331 0.225514 0.840600
0.828079 0.812787 0.578202
0.698684 0.120115 1.184229
0.780650 0.627066 0.662559
0.764617 0.352397 0.939757
0.904393 0.746697 0.685369
0.809312 0.619033 0.730873
0.752554 1.037271 0.304304
0.867896 1.128745 0.384436
0.820950 0.243057 1.177636
0.897439 0.808293 0.625785
0.540482 0.209583 0.834016
0.736340 0.829508 0.466100
0.860768 0.334272 1.068550
0.655197 0.759337 0.402076
0.639725 0.762256 0.409699
0.757369 1.065875 0.290064
0.736460 0.282475 0.993021
0.758556 0.940923 0.377522
0.704300 0.600107 0.601555
0.849889 0.595361 0.796110
0.715527 0.881611 0.402498
0.723435 0.549239 0.672160
0.835510 0.347338 1.055925
0.765050 0.196835 1.146720
0.714997 0.113377 1.213267
0.861136 0.999239 0.467685
0.770041 1.094975 0.309368
0.912394 1.096465 0.448776
0.735241 0.592411 0.643750
0.648614 0.269291 0.936222
0.767699 1.141066 0.251542
0.829622 0.350190 1.015091
0.712119 0.757663 0.469691
0.757383 0.322261 0.967099
0.872224 0.627403 0.761130
0.945838 1.133750 0.450112
0.904775 1.118429 0.401999
0.741859 0.544650 0.728823
0.683826 1.091855 0.221389
0.791110 0.306404 1.025470
0.851969 0.891319 0.512646
0.706757 0.340682 0.884562
0.711597 0.719485 0.529800
0.725130 1.108169 0.254224
0.942004 0.771794 0.727917
0.635306 0.281804 0.901916
0.901752 0.980869 0.520206
0.649697 0.116604 1.163858
0.815525 0.375704 0.999607
0.895991 0.759943 0.691405
0.614732 0.885264 0.286652
0.562521 0.226297 0.876788
0.845241 0.317092 1.104209
0.733239 0.222013 1.070336
0.746854 0.449430 0.836020
0.745189 0.589771 0.657699
0.930264 0.627476 0.820968
0.660291 0.994299 0.233942
0.920902 0.430499 1.016862
0.505940 0.040445 1.049796
0.738949 0.808030 0.459078
0.874941 1.137498 0.359354
0.511762 0.134262 0.902579
0.614778 0.439675 0.684032
0.764206 1.224666 0.221083
0.719296 0.435266 0.819550
0.829242 0.902907 0.507486
0.846152 0.466209 0.898994
0.611159 0.046638 1.194041
0.739652 0.521376 0.750307
0.680649 0.185751 1.095249
0.678749 0.125367 1.148658
0.936341 0.836950 0.667110
0.855679 0.513027 0.858060
0.652946 0.228429 0.962853
0.763641 0.449153 0.825309
0.614197 0.118058 1.076516
0.721698 0.960500 0.324165
0.823547 0.593638 0.770253
0.762595 0.861031 0.469603
0.585918 0.047839 1.158239
0.748878 0.590245 0.691289
0.840072 0.335590 1.044532
0.795211 0.797305 0.528588
0.698054 0.347391 0.865632
0.705135 0.419031 0.820814
0.609005 0.368642 0.757669
0.882659 0.683479 0.720015
0.900654 0.856944 0.614941
0.470521 -0.045279 1.159913
0.829508 0.357546 1.006029
0.847133 0.318581 1.073425
0.776501 1.120793 0.299022
0.623574 0.143117 1.087568
0.590140 0.418385 0.675525
0.753730 0.337216 0.977326
0.773083 0.424174 0.895062
0.902083 0.452592 1.001463
0.676523 0.328931 0.893699
0.648772 0.777171 0.408161
0.725444 0.248566 1.060462
0.697429 0.962799 0.322620
0.642698 0.710023 0.456827
0.778049 0.319385 1.028120
0.761332 1.228923 0.190850
0.666507 0.092381 1.189090
0.791379 0.290460 1.080613
0.761984 0.840290 0.458131
0.863008 0.710527 0.674455
0.759456 0.604994 0.659399
0.590209 0.751341 0.361033
0.894818 0.935999 0.521778
0.805901 0.975945 0.402300
0.862562 0.888019 0.552429
0.530105 0.065987 1.081881
0.872723 0.539111 0.877564
0.813464 0.699175 0.632022
0.616806 0.706032 0.429574
0.849507 0.821010 0.566412
0.639930 0.881257 0.290738
0.841860 0.485106 0.902249
0.580767 0.520703 0.555802
0.697261 0.784095 0.430801
0.650007 0.442460 0.726392
0.789646 1.010829 0.360131
0.760647 1.259771 0.197238
0.965639 0.786634 0.711679
0.567737 0.063644 1.101225
0.928667 0.434793 1.049460
0.659717 0.070667 1.215772
0.959326 0.732748 0.761735
0.549100 0.256263 0.782922
0.856527 0.505916 0.866767
0.588109 0.502651 0.582917
0.885897 0.920997 0.550090
0.738284 1.227555 0.193619
0.605887 0.717771 0.406701
0.835154 0.527956 0.819435
0.811678 0.974866 0.435328
0.873180 0.422985 0.976100
0.621282 0.636589 0.466538
0.689287 0.303161 0.942828
0.928296 0.922218 0.590625
0.665913 0.960755 0.289443
0.968778 1.101057 0.473885
0.837551 1.089720 0.380995
0.814467 0.543863 0.781556
0.795177 0.845269 0.489308
0.756636 1.248320 0.174909
0.924483 0.727518 0.749121
0.691279 0.670362 0.520896
0.696983 0.987589 0.279278
0.653900 0.782010 0.382087
0.719407 1.074576 0.243726
0.907860 0.253176 1.221934
0.788468 0.247792 1.134891
0.769055 0.545836 0.728879
0.654640 0.651871 0.522371
0.791343 0.814662 0.537594
0.623623 0.689266 0.451863
0.770764 0.463042 0.818419
0.674090 0.842880 0.385296
0.677454 0.871822 0.339908
0.670556 0.909643 0.331025
0.520752 0.226894 0.818103
0.800113 0.511541 0.799384
0.756808 0.810449 0.476500
0.682954 0.679548 0.531657
0.734501 1.183487 0.190887
0.893223 0.650907 0.787449
0.797090 0.319529 1.049375
0.693371 0.139379 1.183072
0.899316 0.657419 0.761027
0.716617 0.143812 1.167338
0.619552 0.503830 0.591800
0.728119 0.298522 0.962654
0.614325 0.493977 0.625374
0.511984 0.004011 1.170083
0.683433 0.497019 0.709015
0.621535 0.872789 0.303440
0.693359 0.785366 0.453301
0.729983 0.583993 0.675730
0.815858 0.346806 1.035064
0.909030 0.624422 0.801847
0.948924 0.903609 0.599568
0.725277 0.959007 0.355876
0.884997 0.428882 0.981903
0.628944 0.834978 0.312404
0.820304 0.688196 0.677744
0.883141 0.758504 0.654091
0.869188 0.741554 0.680138
0.868684 0.522568 0.861722
0.849310 1.043293 0.424638
0.725498 1.115156 0.250252
0.865877 0.645690 0.737792
0.913921 1.123515 0.407441
0.870254 0.779969 0.621773
0.746177 0.301530 1.013738
0.873698 0.667643 0.751680
0.699658 0.534560 0.659125
0.620156 0.136496 1.056110
0.880092 0.619735 0.803764
0.695063 0.208083 1.080866
0.924682 0.782432 0.701120
0.570886 0.234213 0.877563
0.882316 0.924548 0.543878
0.883311 0.875169 0.583047
0.701452 0.676602 0.527108
0.644939 0.693488 0.473604
0.823108 0.888529 0.484313
0.724532 0.271814 1.027441
0.893375 0.744213 0.676603
0.667426 0.542657 0.612006
0.630024 0.044375 1.223831
0.525220 0.194400 0.870413
0.851441 0.252751 1.196131
0.582220 0.396655 0.689447
0.851642 0.610453 0.783238
0.852024 0.786522 0.624342
0.686924 0.469102 0.710642
0.536706 0.059659 1.062998
0.735668 0.168935 1.152664
0.548218 0.247388 0.828403
0.876363 0.407748 0.997190
0.680248 0.225627 1.037362
0.519048 0.176539 0.850173
0.587937 0.575596 0.482058
0.699953 0.458449 0.770334
0.822912 0.936086 0.448807
0.662549 0.843172 0.344142
0.777665 0.281586 1.077075
0.914314 0.873929 0.589468
0.677997 0.346457 0.873797
0.695827 1.147361 0.199222
0.770743 1.059054 0.334176
0.657274 0.614745 0.531586
0.760593 0.283322 1.019962
0.837701 0.775029 0.592025
0.612879 0.314954 0.796447
0.598090 0.038954 1.189904
0.896534 0.290076 1.193376
0.655049 0.193790 1.051635
0.882808 0.892729 0.543027
0.552541 0.167086 0.948738
0.742608 0.808075 0.489998
0.994114 1.008921 0.562947
0.521214 0.067761 1.066667
0.488296 -0.021091 1.138386
0.599572 0.262300 0.879352
0.641996 0.452777 0.673995
0.783601 0.606082 0.686210
0.915778 0.828708 0.627196
0.667071 1.055577 0.226950
0.564534 0.324076 0.752081
0.558693 0.047885 1.116362
0.843710 0.232601 1.181347
0.850407 0.934755 0.477990
0.896740 0.710064 0.709657
0.783647 0.510382 0.781340
0.623422 0.643892 0.462615
0.671511 0.515622 0.645129
0.606930 0.254301 0.899777
0.725200 0.617701 0.608790
0.891119 0.290084 1.155459
0.885095 0.364464 1.056979
0.631586 0.660662 0.457851
0.606432 0.721783 0.403966
0.834765 1.109915 0.364396
0.682371 0.223878 1.006395
0.635416 0.961975 0.255317
0.938818 0.591057 0.892977
0.652177 0.136019 1.099660
0.552794 0.386085 0.630443
0.882206 0.904214 0.559285
0.700891 0.311843 0.946054
0.945050 0.917217 0.611045
0.629523 0.467180 0.672858
0.738599 0.569540 0.669910
0.720132 0.254927 1.045192
0.850416 0.847108 0.572887
0.624337 0.080692 1.192326
0.807564 0.310945 1.071594
0.458767 -0.060476 1.220517
0.621700 0.665419 0.470411
0.593069 0.528016 0.563947
0.716714 0.515142 0.698608
0.761314 1.166346 0.228910
0.892561 0.901834 0.545761
0.844807 0.310588 1.081193
0.617190 0.720176 0.418042
0.683566 0.685857 0.498454
0.944161 0.536072 0.925854
0.593304 0.282539 0.811577
0.817015 0.669552 0.691337
0.657215 0.223092 0.976002
0.880106 0.965800 0.485376
0.924546 0.953148 0.563395
0.693576 1.114006 0.217551
0.937181 0.849453 0.657506
0.579931 0.240843 0.847074
0.693814 1.106278 0.196853
0.513883 0.145087 0.926968
0.902926 0.631246 0.816369
0.738447 1.171110 0.228649
0.627016 0.315739 0.846548
0.632467 0.256180 0.932788
0.906948 0.275597 1.221971
0.839003 1.154355 0.313931
0.848918 1.151671 0.350169
0.888753 0.435113 0.978691
0.959929 0.930270 0.615470
0.840503 1.214144 0.280829
0.625091 0.199142 1.003847
0.481343 -0.040989 1.169996
0.667103 0.957588 0.292978
0.821104 0.795338 0.557751
0.900385 0.475155 0.974999
0.875472 0.830066 0.611606
0.744437 0.624351 0.624290
0.813296 0.496211 0.830479
0.576672 0.614708 0.461395
0.607621 0.728676 0.371401
0.893434 0.548754 0.889141
0.637028 0.237492 0.965053
0.771934 1.248289 0.215091
0.855119 0.870148 0.532568
0.562439 0.121654 1.034398
0.783011 0.186563 1.180930
0.681076 0.959538 0.280677
0.932748 0.572014 0.906076
0.572480 0.161095 0.987974
0.704003 0.498442 0.700759
0.567686 0.564849 0.496663
0.823959 1.173447 0.312288
0.772725 0.540377 0.768253
0.749412 0.592718 0.659737
0.620058 0.100952 1.111797
0.751701 0.217204 1.135874
0.686767 0.520985 0.688290
0.936690 0.513132 0.942272
0.689570 0.786610 0.419802
0.596889 0.294439 0.833266
0.818102 1.042191 0.393818
0.637124 0.474613 0.674534
0.704188 0.637393 0.566148
0.686189 0.876716 0.372918
0.923000 0.815824 0.671302
0.807570 0.582942 0.764142
0.630136 0.552323 0.586239
0.736758 0.165102 1.194512
0.781579 0.720116 0.607106
0.695548 0.130972 1.161311
0.636818 0.155361 1.085665
0.538362 0.098740 0.998590
0.690674 0.497643 0.716964
0.911830 0.666740 0.791732
0.725576 0.489723 0.767193
0.720068 0.968483 0.317132
0.617246 0.060081 1.219320
0.691334 0.967333 0.286644
0.515210 0.149642 0.884714
0.887956 0.322024 1.143142
0.713118 0.724113 0.527499
0.652711 0.650875 0.491876
0.900006 1.043230 0.448650
0.834427 1.167055 0.326407
0.855843 0.455623 0.920705
0.635388 0.501708 0.644122
0.577053 0.194230 0.943873
0.770697 0.255408 1.069585
0.913874 0.340547 1.115720
0.894705 0.776067 0.650584
0.885178 0.526059 0.903691
0.706865 0.233738 1.058723
0.578565 0.169963 0.982669
0.799590 0.367566 0.992167
0.727646 0.226878 1.056827
0.917840 0.561760 0.872147
0.769229 0.668395 0.640004
0.582640 0.247427 0.841948
0.659577 0.452736 0.695454
0.545106 0.081624 1.077584
0.935903 0.620664 0.860851
0.789207 1.001333 0.366059
0.528729 0.045933 1.075128
0.608319 0.361572 0.765279
0.791864 0.290314 1.047205
0.691076 0.128189 1.160128
0.815764 0.969833 0.443164
0.763370 0.883055 0.426273
0.649630 0.497573 0.636347
0.682295 0.782171 0.414973
0.659767 0.178492 1.079452
0.857357 0.990987 0.470048
0.728268 1.120487 0.249855
0.643065 0.684480 0.451372
0.676014 0.986492 0.282561
0.684947 1.058644 0.244020
0.644743 0.436530 0.695085
0.725456 0.318629 0.934815
0.645340 0.535294 0.622224
0.623315 0.612510 0.520184
0.693597 0.824694 0.393341
0.604453 0.042363 1.192456
0.727296 0.552870 0.703502
0.630528 0.828235 0.346987
0.725560 1.076500 0.249007
0.950034 0.860155 0.661536
0.591975 0.473035 0.588112
0.722451 0.561879 0.688754
0.740000 0.452123 0.825041
0.694050 0.558950 0.658449
0.531789 0.317075 0.716510
0.720340 0.788829 0.453765
0.964639 1.096666 0.472968
0.667947 0.649142 0.541071
0.624475 0.633331 0.502508
0.584540 0.474339 0.577045
0.706308 1.045123 0.275744
0.730349 0.537471 0.722785
0.669687 0.776229 0.433198
0.689646 0.605317 0.579577
0.733641 0.354805 0.931481
0.766884 0.703874 0.576930
0.704361 1.167595 0.195748
0.957996 0.939003 0.580810
0.493604 -0.021787 1.195155
0.851384 0.273159 1.136401
0.870681 0.614826 0.798724
0.880669 0.545532 0.849580
0.975764 1.011119 0.569610
0.908493 1.067735 0.439872
0.748747 0.822355 0.485264
0.712476 1.008574 0.306988
0.963847 1.046285 0.507129
0.593276 0.565522 0.527477
0.490494 -0.051332 1.227333
0.762167 0.232787 1.090520
0.959905 1.071809 0.485309
0.936567 0.750568 0.713870
0.944268 0.994742 0.551154
0.691042 0.487891 0.727926
0.858524 0.241189 1.218333
0.693538 0.839786 0.381699
0.901544 0.298673 1.155191
0.896760 0.745832 0.678560
0.548150 0.350877 0.697901
0.833178 0.412435 0.945482
0.752757 0.332071 0.950591
0.767122 0.595334 0.677878
0.860633 0.753446 0.661256
0.660948 1.011474 0.249457
0.719263 0.788121 0.480646
0.707534 0.649572 0.558517
0.822107 0.628488 0.707058
0.890836 0.847836 0.587314
0.820628 0.789795 0.561718
0.670787 0.346100 0.865221
0.776524 0.764706 0.563183
0.562195 0.060791 1.098233
0.732447 0.149585 1.213949
0.554467 0.125083 0.979916
0.651499 1.038162 0.221692
0.920251 1.010773 0.491599
0.704095 0.454989 0.779062
0.735571 0.330080 0.932667
0.858653 1.111014 0.361409
0.907467 0.590163 0.832738
0.587344 0.453319 0.633421
0.907915 0.288517 1.206567
0.946344 1.133767 0.436865
0.930932 0.788191 0.676014
0.946473 0.673821 0.820816
0.566642 0.239426 0.864996
0.654701 0.747136 0.411338
0.898298 0.813199 0.648557
0.852270 0.763223 0.617289
0.584862 0.127692 1.019773
0.670701 0.153102 1.133126
0.553491 0.204734 0.895716
0.679922 0.469476 0.734477
0.853121 0.968565 0.482277
0.590049 0.469106 0.589723
0.794117 0.950537 0.435092
0.713513 1.038083 0.288243
0.744887 0.458519 0.823557
0.673900 0.932045 0.318454
0.744502 0.289106 0.993740
0.657231 0.413332 0.768612
0.849839 0.731547 0.642224
0.772242 1.161093 0.243295
0.914333 0.640890 0.791720
0.845661 1.043194 0.421066
0.673199 0.190830 1.042776
0.690716 0.697173 0.525360
0.606158 0.541738 0.537720
0.677113 0.910290 0.311248
0.791342 0.368162 0.951011
0.493688 0.024729 1.058949
0.488170 -0.017394 1.176462
0.861669 1.023384 0.450638
0.930542 0.695322 0.784563
0.541534 0.150064 0.922007
0.642146 0.434235 0.725241
0.675236 0.311529 0.881200
0.747066 1.170784 0.211700
0.640659 0.221283 0.992475
0.817070 0.836066 0.520123
0.831496 0.953112 0.471438
0.947577 0.593994 0.870722
0.818598 0.453415 0.911947
0.637357 0.457639 0.662946
0.606912 0.469601 0.611087
0.892706 0.277535 1.205464
0.705597 0.692497 0.518174
0.628083 0.194900 1.014283
0.868083 0.835449 0.573968
0.789390 0.468759 0.863460
0.835375 0.875541 0.535108
0.824577 0.871607 0.526846
0.768152 1.050639 0.311330
0.529688 -0.006758 1.221483
0.541254 0.291408 0.726836
0.559292 0.125199 0.986929
0.671291 0.766473 0.443037
0.719061 0.693392 0.532720
0.562521 0.095977 1.039468
0.636749 0.358254 0.806706
0.600678 0.554631 0.518381
0.892123 0.614609 0.821112
0.647356 0.493320 0.668068
0.922604 0.884031 0.615105
0.703005 0.355829 0.861028
0.946483 1.082688 0.490836
0.631080 0.270492 0.911074
0.635709 0.054823 1.225759
0.557002 0.227397 0.832958
0.835620 0.660121 0.691700
0.915422 0.329317 1.161778
0.570803 0.092739 1.056487
0.684581 0.708688 0.479648
0.879952 0.327746 1.096711
0.746056 0.484165 0.765238
0.620302 0.527325 0.569445
0.824309 0.697679 0.644911
0.795315 0.362554 0.961910
0.593732 0.166408 0.972887
0.800436 0.497141 0.815225
0.805501 0.702249 0.620765
0.719628 0.622600 0.626564
0.536767 0.153048 0.948033
0.814953 0.227726 1.157494
0.675143 0.833138 0.366008
0.532145 0.158007 0.933355
0.622384 0.113633 1.133117
0.685350 0.963713 0.308711
0.769175 0.390944 0.929168
0.732212 0.384538 0.893933
0.844616 0.808879 0.598022
0.605028 0.104757 1.123301
0.785955 0.472908 0.854911
0.932826 0.514850 0.965514
0.829984 0.792198 0.597267
0.909001 1.075956 0.459532
0.712096 0.893210 0.389789
0.691934 0.937058 0.334728
0.857690 0.407081 0.977980
0.903585 0.389339 1.076821
0.648667 0.202459 0.993643
0.687575 0.281883 0.933742
0.892715 0.963543 0.499535
0.831183 0.769887 0.617519
0.900148 1.043669 0.473119
0.888903 0.767435 0.677831
0.680999 0.773020 0.449004
0.540783 0.154533 0.951586
0.941080 0.523525 0.961984
0.714274 0.732295 0.493868
0.904713 1.147334 0.407711
0.674272 0.415079 0.756400
0.607800 0.187945 0.959749
0.963269 0.760503 0.738170
0.953601 0.810028 0.679935
0.811996 0.821405 0.554069
0.556686 0.073589 1.106844
0.753500 1.199473 0.225794
0.739123 0.592935 0.647642
0.741003 1.044343 0.313245
0.576664 0.485412 0.555249
0.689936 0.230396 1.006706
0.660195 0.432616 0.750538
0.665304 0.323016 0.854497
0.734743 0.823323 0.469258
0.564054 0.124477 0.995162
0.772396 0.816806 0.488285
0.679491 0.822213 0.407615
0.765558 0.652049 0.622475
0.692615 0.608346 0.608831
0.664367 0.089459 1.228810
0.713782 0.491109 0.719548
0.799207 1.006116 0.400234
0.788808 0.576168 0.721801
0.502538 0.038785 1.047501
0.760271 0.698860 0.573948
0.668221 0.765694 0.412082
0.781812 0.320167 1.031522
0.895990 1.063399 0.430938
0.934888 0.445451 1.043740
0.802399 0.661595 0.654355
0.920676 0.280156 1.230274
0.668040 0.959917 0.266044
0.756392 0.906916 0.427562
0.791555 0.204761 1.164622
0.849424 0.828504 0.560300
0.621314 0.434346 0.698273
0.959355 0.962578 0.590295
0.547452 0.284945 0.744085
0.702757 0.557004 0.670474
0.552777 0.146346 0.982591
0.726495 0.333504 0.917409
0.958449 0.789272 0.722098
0.871547 0.467641 0.923938
0.678774 1.045003 0.246359
0.746837 0.134635 1.218100
0.606489 0.158953 1.001650
0.720479 0.449912 0.804575
0.717641 0.478014 0.737327
0.882392 1.072820 0.411113
0.584631 0.171398 0.989344
0.862388 0.504321 0.874875
0.612106 0.201462 0.981508
0.673690 0.671376 0.527813
0.946387 0.787841 0.718404
0.826602 0.449663 0.895686
0.790941 0.382990 0.964022
0.844706 1.161863 0.314764
0.725054 0.139048 1.222039
0.637394 0.458790 0.692307
0.816748 1.056597 0.382628
0.803595 0.491713 0.854236
0.887990 0.451161 0.959249
0.642399 0.503855 0.620494
0.766777 0.984948 0.354031
0.795921 1.045129 0.369339
0.812731 1.078228 0.338395
0.692124 0.719616 0.507317
0.744691 0.212542 1.097982
0.767467 1.172427 0.257011
0.889594 1.171347 0.352289
0.737319 0.810382 0.482307
0.914108 0.532931 0.926920
0.797774 0.393504 0.928239
0.638045 0.607404 0.514468
0.813815 0.804718 0.569614
0.775133 0.464341 0.821944
0.753807 0.842537 0.447570
0.699308 1.099889 0.206622
0.873752 1.167772 0.339188
0.837463 1.068558 0.369586
0.634670 0.177821 1.011903
0.845462 0.706984 0.658961
0.753977 0.661951 0.600169
0.836594 1.207317 0.278528
0.826397 1.123689 0.320963
0.662806 0.545478 0.634000
0.547624 0.110410 1.031595
0.676503 0.551128 0.614993
0.782968 0.237736 1.108903
0.910434 0.741844 0.695508
0.888119 0.993154 0.473444
0.654330 0.497470 0.672612
0.890504 0.971163 0.491800
0.875933 0.640003 0.779991
0.510119 0.047860 1.083277
0.650088 0.459121 0.708306
0.811171 0.762863 0.602272
0.786746 0.429414 0.904787
0.713763 0.709559 0.540831
0.894093 0.324558 1.115435
0.730567 0.487124 0.743083
0.475339 0.010146 1.101291
0.823058 0.976481 0.445819
0.661926 0.259814 0.966455
0.773003 0.315080 1.027742
0.917849 0.534335 0.901786
0.914395 0.661168 0.799575
0.900445 0.851380 0.594105
0.811800 0.629102 0.723715
0.561297 0.352747 0.680271
0.847536 0.344121 1.041994
0.918346 0.541642 0.922087
0.570418 0.138552 0.982612
0.706717 0.417568 0.824457
0.471152 -0.039796 1.148735
0.688642 0.101652 1.228362
0.751485 0.403704 0.893897
0.811037 0.796435 0.573430
0.661937 0.210654 1.035631
0.677521 0.948416 0.310873
0.675546 0.580022 0.615619
0.655194 0.436186 0.708593
0.579670 0.164470 0.955830
0.636313 0.446966 0.703824
0.832141 0.518866 0.826119
0.738892 1.226235 0.170145
0.638051 0.797242 0.351591
0.681718 0.111694 1.213855
0.878890 0.300239 1.130197
0.828351 0.670574 0.702096
0.836515 0.877448 0.507166
0.594064 0.342205 0.769396
0.912672 0.361261 1.119172
0.711317 0.811154 0.425017
0.559007 0.366944 0.660471
0.899543 0.557535 0.856917
0.714635 0.577091 0.664672
0.670830 0.901775 0.310452
0.848532 0.954204 0.461887
0.733409 1.085997 0.251091
0.943154 0.763435 0.736366
0.744078 0.867545 0.417463
0.682853 0.206198 1.031454
0.662675 0.999742 0.259172
0.646448 0.375877 0.765623
0.859955 0.414583 1.000683
0.854726 0.811049 0.579808
0.827838 0.634934 0.707234
0.708243 0.152806 1.180338
0.767061 0.704880 0.604692
0.896257 0.376800 1.053621
0.839739 0.368872 1.033091
0.859350 0.447621 0.962561
0.746901 0.905335 0.418612
0.679647 0.684391 0.495066
0.704767 0.439059 0.797729
0.622793 0.323822 0.798224
0.676951 0.856763 0.377822
0.759525 0.781175 0.502871
0.638711 0.602055 0.520471
0.749826 0.895246 0.402540
0.742498 1.192586 0.219107
0.957146 0.837936 0.687290
0.538196 0.010014 1.201039
0.630196 0.541048 0.597509
0.746184 0.553470 0.694606
0.620705 0.340949 0.773825
0.567934 0.189305 0.903113
0.594395 0.024401 1.210839
0.689510 0.395295 0.829318
0.724333 0.933353 0.373538
0.848519 0.415505 0.987127
0.739999 1.220954 0.199174
0.720166 0.192999 1.133420
0.568511 0.199740 0.889104
0.786433 0.471101 0.827415
0.615402 0.198095 0.955622
0.620458 0.124748 1.074895
0.695690 0.122649 1.175790
0.832389 1.174652 0.319718
0.619699 0.345179 0.800073
0.588267 0.349349 0.753317
0.844895 1.048248 0.390930
0.797286 0.441526 0.871400
0.574650 0.264312 0.842204
0.612450 0.035908 1.214608
0.856651 0.494672 0.907549
0.704175 1.054108 0.267543
0.788034 0.356003 0.993629
0.585172 0.460645 0.592241
0.688887 0.160910 1.107259
0.769040 0.355557 0.941134
0.856940 0.491170 0.883364
0.919465 0.450170 0.993945
0.633781 0.207326 1.003552
0.663655 0.831427 0.354339
0.936655 0.938950 0.586034
0.705066 0.307455 0.923889
0.803243 0.403023 0.953581
0.671959 1.093835 0.207580
0.764998 0.272766 1.074153
0.749665 0.489045 0.764063
0.732777 1.101397 0.266719
0.550740 0.363879 0.652868
0.613702 0.862792 0.302022
0.874324 0.365058 1.045079
0.734859 1.000945 0.336890
0.760871 0.454724 0.816206
0.705517 0.647404 0.587057
0.893464 0.886836 0.583870
0.908893 0.280736 1.217372
0.736635 0.406676 0.872921
0.694494 0.292806 0.962631
0.702285 0.908147 0.340932
0.960025 1.020052 0.522489
0.708468 1.053284 0.272668
0.864794 0.273433 1.183135
0.729569 0.472970 0.790102
0.812354 1.201450 0.283663
0.765395 0.483518 0.819887
0.493582 0.030991 1.047583
0.870864 0.362616 1.075050
0.755077 0.341863 0.941448
0.737247 1.158890 0.235130
0.820556 1.169211 0.311614
0.683215 0.431478 0.748526
0.879443 0.412950 0.994449
0.854148 1.088916 0.398102
0.895051 0.730222 0.690265
0.725612 0.257708 1.012634
0.791233 0.908935 0.436128
0.842253 0.541839 0.842359
0.774052 0.258474 1.069414
0.863483 0.939813 0.487636
0.656923 0.333705 0.830460
0.756417 0.747725 0.527733
0.597638 0.329983 0.757454
0.735641 0.411057 0.834677
0.622357 0.167480 1.010580
0.939727 0.830474 0.675942
0.721237 1.003068 0.294797
0.718078 0.729919 0.528039
0.877077 0.655429 0.766443
0.736391 0.226959 1.103498
0.670003 0.937343 0.284064
0.511770 0.116954 0.969284
0.763082 0.314314 0.983212
0.847198 0.616375 0.772929
0.867200 0.562477 0.847050
0.870047 0.861340 0.555121
0.683640 0.398353 0.787201
0.727019 0.862406 0.429974
0.541857 0.078050 1.078812
0.732531 0.302160 0.963242
0.610247 0.506866 0.576932
0.589952 0.310892 0.771309
0.732097 0.867936 0.431213
0.700386 0.465149 0.730894
0.874481 0.300157 1.156327
0.781250 1.135017 0.269095
0.634358 0.749337 0.413898
0.909947 0.587314 0.838016
0.840798 1.005526 0.442939
0.616068 0.398339 0.701086
0.732219 0.600902 0.632407
0.581489 0.318348 0.750027
0.882506 0.459050 0.944223
0.958932 0.828563 0.669928
0.686985 0.446879 0.735432
0.771616 0.319381 1.020593
0.744358 0.343718 0.926172
0.872124 0.901039 0.551847
0.713230 0.465723 0.778366
0.925726 0.487329 0.987872
0.563089 0.331399 0.741294
0.592083 0.366685 0.705669
0.610017 0.583342 0.531259
0.521724 -0.004684 1.158380
0.787420 0.389479 0.920783
0.909901 0.673623 0.756783
0.821453 0.754174 0.592872
0.808693 0.256102 1.145556
0.684956 1.010164 0.250704
0.523263 0.066636 1.071398
0.795289 0.445817 0.895696
0.955967 0.880839 0.624367
0.617908 0.366638 0.739584
0.779850 0.966657 0.408203
0.932468 0.295313 1.190860
0.937700 0.335343 1.176759
0.756886 1.029790 0.313763
0.554869 0.510538 0.533475
0.890227 0.654443 0.780902
0.751501 0.294061 1.029563
0.516151 0.014138 1.156872
0.847177 0.985739 0.463822
0.579689 0.368724 0.718786
0.678834 0.167884 1.120480
0.737795 0.745739 0.509072
0.836162 0.595373 0.753955
0.706791 0.339712 0.917779
0.736588 0.215033 1.121152
0.890508 0.914473 0.559577
0.941901 0.766406 0.732504
0.865608 0.385238 1.041042
0.695009 0.404661 0.793937
0.808360 0.908379 0.481384
0.607105 0.391406 0.697055
0.530248 0.217529 0.808105
0.782360 0.243925 1.133593
0.841489 0.907664 0.516624
0.607724 0.840540 0.311690
0.780011 0.846898 0.471859
0.614002 0.435239 0.656115
0.944006 0.521041 0.941378
0.888111 0.570220 0.861065
0.798191 0.220620 1.149547
0.884607 0.929201 0.516760
0.646125 0.551680 0.577758
0.636407 0.666065 0.459082
0.813222 0.223523 1.161518
0.578248 0.160687 0.959632
0.814282 0.286509 1.079435
0.713998 0.370704 0.855647
0.649217 0.606143 0.529749
0.793062 0.548442 0.754172
0.711863 0.523310 0.715537
0.603084 0.531758 0.543205
0.691024 0.324888 0.916858
0.804525 0.330906 1.042975
0.686001 0.211491 1.027599
0.803977 0.322209 1.020376
0.598435 0.698792 0.385302
0.791753 0.953077 0.430741
0.810635 0.890918 0.497293
0.560410 0.153931 0.981654
0.888908 1.057767 0.427811
0.632565 0.234726 0.927061
0.920864 0.499452 0.969348
0.864259 0.521636 0.857942
0.823938 0.200368 1.227055
0.697712 0.112148 1.194948
0.893564 0.639948 0.798418
0.754859 0.587493 0.700671
0.634135 0.391159 0.732672
0.864938 0.977533 0.461653
0.932278 1.124296 0.448952
0.731012 0.917418 0.392895
0.634956 0.603420 0.514426
0.809535 1.009331 0.408380
0.882540 0.611613 0.814058
0.553067 0.160621 0.959963
0.673313 0.629984 0.565150
0.952135 0.744127 0.760378
0.723096 1.144059 0.203997
0.855185 0.637912 0.760394
0.766084 0.913587 0.432864
0.827774 0.556651 0.811835
0.815115 1.164564 0.309217
0.827576 0.247330 1.178934
0.909938 0.715119 0.745354
0.644180 0.659614 0.502679
0.673609 0.979520 0.258751
0.881011 0.727609 0.678620
0.737038 0.182850 1.133387
0.692079 0.121096 1.173623
0.706939 0.489227 0.745624
0.685224 0.731289 0.489139
0.722157 1.241573 0.169446
0.635259 0.524745 0.620073
0.706033 0.855690 0.383848
0.786906 0.181815 1.191870
0.721879 1.025425 0.280130
0.769653 0.152321 1.216957
0.717505 1.086172 0.234314
0.586665 0.324130 0.781735
0.750670 0.437713 0.822983
0.803693 0.469497 0.878544
0.917390 0.433835 1.038982
0.689349 0.571668 0.640413
0.583909 0.281659 0.832184
0.724488 0.123304 1.226146
0.911955 0.274097 1.229747
0.886961 0.601700 0.828689
0.858027 0.580504 0.790681
0.475476 -0.035031 1.193391
0.928925 0.858206 0.642060
0.685555 0.651227 0.531381
0.706654 0.736930 0.481206
0.726560 0.179031 1.161875
0.854343 1.194857 0.303499
0.706103 0.335813 0.921776
0.853232 0.958188 0.489930
0.641368 0.460725 0.664791
0.665204 0.396845 0.765946
0.793015 0.593437 0.737600
0.759074 0.574185 0.689289
0.709748 1.094472 0.247015
0.714312 0.639638 0.604402
0.774950 1.197385 0.222856
0.892046 1.080910 0.439996
0.723659 0.640451 0.614424
0.670527 0.869684 0.333689
0.611731 0.513420 0.572169
0.578343 0.093111 1.105092
0.823682 0.284853 1.091756
0.591070 0.336298 0.740820
0.748708 0.347312 0.926919
0.941379 0.552017 0.906960
0.826684 0.924359 0.488189
0.805841 0.932289 0.460617
0.551809 0.049543 1.102806
0.934489 0.977575 0.529399
0.775567 0.997113 0.354888
0.534499 0.315027 0.722704
0.824252 1.207036 0.291741
0.678524 0.985066 0.286262
0.798971 1.001772 0.375808
0.769692 1.151632 0.272452
0.930971 0.486677 0.964348
0.565028 0.456754 0.601448
0.892954 0.901364 0.571972
0.695349 0.113303 1.227734
0.672488 0.656553 0.539852
0.680194 0.402629 0.778032
0.543826 0.154462 0.918961
0.636032 0.362838 0.800036
0.708389 0.682942 0.558283
0.564738 0.243989 0.821108
0.578542 0.430504 0.647143
0.723754 1.062384 0.282971
0.869492 0.259199 1.172440
0.921863 0.503570 0.937263
0.928249 0.764199 0.693947
0.728827 0.268949 1.036381
0.912225 1.030731 0.469380
0.930278 1.089160 0.470890
0.622268 0.703765 0.409667
0.927515 0.416318 1.069247
0.576360 0.654226 0.425761
0.759970 0.352030 0.934604
0.811782 1.052038 0.380700
0.723118 0.648927 0.605860
0.696267 0.762840 0.475631
0.662679 0.876108 0.347050
0.750240 0.778669 0.494825
0.741022 0.853302 0.452322
0.853684 0.589697 0.777373
0.781916 1.092122 0.323314
0.949313 0.662093 0.827117
0.756231 1.250644 0.198100
0.522692 0.073832 1.016121
0.649666 0.319734 0.871665
0.503486 0.043365 1.040776
0.496906 -0.030277 1.219046
0.745573 1.139374 0.255826
0.760054 0.859474 0.440387
0.472878 -0.022978 1.162837
0.664438 0.111981 1.152464
0.702865 0.890139 0.381714
0.617962 0.159362 1.053446
0.709672 0.466396 0.740894
0.675114 0.656288 0.514213
0.648323 0.838090 0.331915
0.599093 0.540448 0.559170
0.571563 0.049385 1.133195
0.939432 0.944342 0.584648
0.726963 0.655223 0.575726
0.656662 0.629434 0.516634
0.675101 0.878585 0.359133
0.766427 1.097068 0.278434
0.714817 0.535963 0.675314
0.675451 0.804948 0.388389
0.706367 0.282515 0.957417
0.579314 0.062938 1.161744
0.795046 0.334321 1.028217
0.900491 0.970359 0.502299
0.943941 1.114473 0.441588
0.827345 0.913254 0.497484
0.886956 0.912016 0.557978
0.595044 0.183281 0.949357
0.821714 0.223657 1.203790
0.682491 1.030386 0.234318
0.614299 0.750995 0.389275
0.739797 0.868188 0.439290
0.561012 0.417852 0.638344
0.729582 0.644554 0.588649
0.508050 0.089491 1.007957
0.583255 0.372211 0.719427
0.570374 0.071880 1.090879
0.707045 0.211968 1.090103
0.494581 0.065718 1.029428
0.698696 0.888516 0.378241
0.622593 0.095857 1.163180
0.732223 0.949330 0.343435
0.623247 0.348545 0.800627
0.641650 0.142455 1.076986
0.511009 0.108987 0.941218
0.714830 0.624544 0.619216
0.786359 0.392381 0.947314
0.877540 0.417515 0.987114
0.643411 0.175958 1.062635
0.747091 1.148542 0.251587
0.808689 0.658968 0.692287
0.640433 0.532333 0.619016
0.853180 1.015566 0.422107
0.823691 0.885734 0.514977
0.691730 0.379718 0.818628
0.748126 0.182171 1.182991
0.884123 0.853127 0.601571
0.839940 0.822796 0.555104
0.547269 0.446046 0.590006
0.671678 0.376129 0.797562
0.894543 0.363460 1.068171
0.950239 1.083602 0.493810
0.894009 1.059348 0.431754
0.792118 1.245254 0.228902
0.919964 0.728780 0.716304
0.823721 0.809025 0.576642
0.580171 0.210033 0.926068
0.739834 0.232206 1.100073
0.531239 0.013557 1.138414
0.650668 0.455949 0.712515
0.636448 0.621137 0.499200
0.656892 0.395906 0.788456
0.690848 0.645174 0.572353
0.648768 0.345035 0.838841
0.909283 1.030245 0.491503
0.539038 0.187916 0.899840
0.735015 0.229052 1.098865
0.841858 0.642866 0.715186
0.798523 0.956575 0.435125
0.832342 0.965753 0.436905
0.585951 0.387413 0.673027
0.638842 0.652232 0.502833
0.687863 1.028321 0.267159
0.763936 0.540390 0.758370
0.746475 0.300509 0.981316
0.784024 1.118612 0.308066
0.509539 -0.020428 1.218881
0.674237 0.121382 1.187944
0.622953 0.145778 1.082456
0.699855 0.365410 0.877609
0.677722 0.898225 0.320835
0.842763 0.947357 0.460868
0.690875 0.434709 0.754240
0.823904 1.061851 0.386301
0.952721 0.695670 0.779393
0.711070 0.824640 0.413702
0.671280 0.316279 0.870350
0.608144 0.191283 0.955532
0.692878 0.957484 0.321361
0.873860 0.941003 0.523054
0.884167 0.450065 0.956430
0.638565 0.558629 0.562073
0.616913 0.654767 0.445124
0.692343 0.127323 1.201441
0.668900 0.852138 0.372237
0.653307 0.070193 1.207651
0.676897 0.152599 1.105051
0.689776 0.877098 0.376664
0.778512 0.229328 1.115126
0.845093 0.234677 1.212983
0.926902 0.409507 1.046629
0.803614 0.855936 0.489516
0.611976 0.206834 0.938841
0.685282 0.503767 0.673620
0.693427 0.257519 0.975459
0.665227 0.096392 1.218647
0.511091 0.021315 1.092378
0.784854 0.196711 1.201773
0.622718 0.224985 0.927676
0.801893 0.254635 1.140090
0.920301 1.025682 0.505433
0.895977 0.999366 0.501148
0.776839 0.303114 1.047603
0.709610 0.874626 0.401173
0.628281 0.219946 0.977638
0.867935 0.641436 0.770268
0.696275 0.844873 0.380896
0.616629 0.264705 0.899192
0.616256 0.584250 0.509395
0.664401 0.550585 0.630921
0.719658 1.075978 0.269504
0.727763 0.201114 1.094403
0.864643 0.796183 0.628825
0.591788 0.271667 0.856178
0.532804 0.241660 0.814646
0.762980 1.230067 0.216715
0.835167 0.531540 0.815523
0.651624 0.120591 1.122273
0.734061 0.851280 0.446370
0.868866 0.752307 0.644347
0.885410 1.143007 0.365984
0.706279 0.411881 0.799503
0.652707 0.900099 0.318165
0.752288 0.898438 0.429646
0.967350 1.069321 0.519962
0.903992 1.063354 0.463347
0.918080 0.601811 0.860934
0.787005 1.123855 0.307681
0.762585 0.538345 0.728686
0.702420 0.406188 0.832427
0.797586 0.816997 0.542352
0.648577 0.716086 0.458640
0.745561 0.313091 0.998056
0.598628 0.270652 0.867111
0.651789 0.687761 0.486870
0.725457 0.160628 1.188958
0.895921 1.008288 0.470186
0.957170 0.764527 0.740858
0.870716 0.718429 0.702227
0.842462 1.013166 0.439105
0.853582 1.103420 0.387568
0.828307 0.508014 0.863253
0.834550 0.831957 0.542066
0.755959 0.402049 0.901046
0.901322 0.688848 0.733984
0.931300 0.324193 1.184497
0.797988 0.309454 1.063244
0.695052 0.976275 0.310530
0.560949 0.041251 1.132126
0.906612 0.288796 1.172845
0.911467 0.652215 0.805194
0.758416 0.338980 0.980531
0.514598 0.167682 0.894680
0.601407 0.270279 0.871348
0.780686 0.937273 0.430747
0.841221 0.704276 0.656909
0.826622 0.995832 0.409385
0.475519 -0.052209 1.229448
0.762364 0.676026 0.625529
0.672808 0.350757 0.862080
0.714217 0.698222 0.523063
0.880223 1.098041 0.391734
0.735471 0.453380 0.787659
0.750792 0.313096 1.004283
0.834743 0.383869 0.980372
0.764064 0.999457 0.368534
0.925195 0.838679 0.654412
0.820340 0.683609 0.681899
0.913743 1.016780 0.481034
0.897111 0.347068 1.090551
0.934100 1.107882 0.436819
0.572774 0.486549 0.580182
0.876130 0.302308 1.124770
0.871612 0.813543 0.595226
0.633465 0.382908 0.773092
0.730797 1.015843 0.296312
0.891816 0.792142 0.633933
0.834526 0.921529 0.498592
0.661093 0.246401 0.983958
0.582248 0.110860 1.082102
0.584107 0.528043 0.552711
0.746472 0.937038 0.367385
0.571178 0.144163 0.974961
0.713980 0.520864 0.689636
0.519041 0.230077 0.811264
0.623388 0.505579 0.624799
0.587803 0.137764 1.008073
0.565062 0.226045 0.880809
0.831608 0.667605 0.680062
0.723112 0.613914 0.609971
0.684557 0.995783 0.285464
0.637277 0.232440 0.972439
0.691512 1.065114 0.246705
0.900788 0.817024 0.622021
0.901512 0.436744 0.990453
0.866724 0.326254 1.115587
0.713383 0.280178 0.969193
0.647261 0.308466 0.883022
0.592539 0.722925 0.386675
0.796218 0.257493 1.097653
0.746297 0.602404 0.676607
0.955188 0.681920 0.794339
0.669412 0.588149 0.600096
0.899618 0.709782 0.712824
0.877248 0.387405 1.050519
0.836377 0.692423 0.662513
0.878190 0.607658 0.785756
0.922940 0.608066 0.831803
0.733233 1.147016 0.238552
0.584235 0.700916 0.395369
0.641203 0.712325 0.453106
0.709775 0.218098 1.084564
0.837600 0.307250 1.109026
0.828781 0.537231 0.802959
0.776070 0.727800 0.594413
0.867219 0.803994 0.624875
0.839405 0.827730 0.550583
0.652197 0.654225 0.488265
0.519269 0.048013 1.056885
0.775643 0.689896 0.627521
0.662077 0.465835 0.716425
0.616361 0.699674 0.434440
0.695755 0.515418 0.704705
0.659634 0.858229 0.356960
0.838781 0.521939 0.859673
0.795876 0.303977 1.034093
0.992927 1.032190 0.544955
0.950685 0.956474 0.560555
0.744806 0.520304 0.726011
0.631344 0.097152 1.134025
0.657032 0.065112 1.222429
0.886529 1.018037 0.478469
0.777379 0.331287 1.012047
0.870198 1.031635 0.452850
0.519335 0.100073 0.968089
0.898742 0.847064 0.595916
0.801296 1.194312 0.251283
0.707419 0.394774 0.852038
0.769978 1.099125 0.306571
0.779325 1.182879 0.262295
0.556301 0.408111 0.610657
0.788903 0.764145 0.576992
0.749498 0.257067 1.041583
0.811891 0.383285 0.956006
0.597271 0.643355 0.431405
0.687443 0.387045 0.804909
0.767555 0.416806 0.897291
0.871841 0.749784 0.675686
0.682270 0.812069 0.418981
0.931262 0.806823 0.660470
0.686894 0.662006 0.552437
0.760416 0.185538 1.158048
0.691542 0.567775 0.617303
0.653288 0.254591 0.926522
0.854320 0.960007 0.463677
0.765819 0.497742 0.773942
0.656589 0.365136 0.790681
0.981451 0.947173 0.607555
0.562195 0.250242 0.809147
0.683195 0.653449 0.526535
0.872664 0.975093 0.471184
0.797931 0.759958 0.562757
0.699866 0.580513 0.644009
0.864580 0.699869 0.712603
0.858150 0.712832 0.694384
0.901824 1.130714 0.390693
0.698412 0.793805 0.424199
0.808305 0.329426 1.049010
0.519252 0.116089 0.941937
0.730789 0.560610 0.699811
0.579099 0.248095 0.835924
0.894142 0.846412 0.591850
0.752218 0.339181 0.973201
0.751740 0.436874 0.855658
0.846815 0.246033 1.165989
0.867189 0.688006 0.699984
0.878829 0.920629 0.543459
0.809427 0.438591 0.919179
0.687438 0.955460 0.290485
0.579479 0.535776 0.508870
0.739174 0.957946 0.371794
0.924200 0.628300 0.841134
0.799171 1.240838 0.239225
0.808377 0.815628 0.527664
0.832284 0.385570 1.005843
0.715655 0.482394 0.730552
0.571533 0.001666 1.224678
0.958992 0.713322 0.769469
0.713811 0.255884 1.001293
0.624700 0.725917 0.422088
0.724235 0.720719 0.515143
0.943523 0.914458 0.585786
0.880433 0.443262 0.989324
0.738019 0.412691 0.867501
0.737202 0.312390 0.956396
0.494507 0.089387 0.988225
0.713930 0.662693 0.553824
0.739270 0.472815 0.769954
0.653878 0.767480 0.393944
0.665380 0.853417 0.339820
0.694145 1.094599 0.230501
0.785821 1.122152 0.281916
0.709142 0.959968 0.337477
0.606759 0.259694 0.892465
0.847805 0.573815 0.786658
0.626188 0.489318 0.645325
0.834491 1.134558 0.347501
0.747682 1.143863 0.229524
0.975823 0.897870 0.639272
0.670786 0.199743 1.062557
0.554399 0.116141 1.031833
0.724200 0.150769 1.202065
0.678458 0.886576 0.330229
0.843377 1.141838 0.351344
0.849928 0.878666 0.547209
0.626096 0.197213 1.008104
0.630689 0.561310 0.549710
0.671423 0.833675 0.361395
0.664491 0.870999 0.325941
0.623077 0.708172 0.406769
0.699632 0.653065 0.546019
0.828573 1.101358 0.338204
0.715010 1.104840 0.245746
0.820337 0.673085 0.691475
0.895893 0.539583 0.872617
0.958183 0.983496 0.547511
0.929298 0.496455 0.981567
0.732856 0.888453 0.389221
0.880000 0.935459 0.533289
0.957536 0.945338 0.601606
0.923556 0.806053 0.653479
0.989585 1.073638 0.537625
0.873811 0.485158 0.935672
0.698768 0.842002 0.414092
0.765799 0.986641 0.379329
0.795920 0.491586 0.816103
0.789689 0.644197 0.685089
0.802908 0.540880 0.772346
0.625148 0.585417 0.547960
0.791948 0.275645 1.101185
0.795946 0.434821 0.877090
0.532608 0.210398 0.857359
0.953325 0.994702 0.560003
0.680654 0.140481 1.127964
0.584507 0.115840 1.077259
0.786512 0.563230 0.732173
0.679730 0.203421 1.068431
0.889625 0.266976 1.215782
0.615051 0.040844 1.226295
0.833601 1.033631 0.415421
0.824921 0.548016 0.817455
0.618932 0.756088 0.362465
0.880048 0.389772 1.021517
0.759376 1.024109 0.320135
0.935337 0.634260 0.819360
0.730942 0.812660 0.473565
0.511797 0.142897 0.889688
0.714622 0.978236 0.330645
0.738071 1.253001 0.178662
0.604772 0.797292 0.341469
0.858044 0.483368 0.921227
0.663617 0.670348 0.488265
0.760067 0.726173 0.550130
0.712925 0.716836 0.533586
0.538084 0.173043 0.920454
0.672395 0.646296 0.520160
0.812472 0.442617 0.917812
0.785437 0.883087 0.476959
0.925388 0.825970 0.665231
0.741837 1.002979 0.342769
0.613741 0.155274 1.017499
0.798705 1.034146 0.353775
0.609847 0.195226 0.952270
0.549838 0.336209 0.684190
0.663510 0.282184 0.902577
0.817131 1.085779 0.337567
0.716169 0.485956 0.727541
0.931982 0.854254 0.648299
0.823132 0.878274 0.520172
0.819830 0.928070 0.478185
0.785445 0.572815 0.749530
0.887004 1.067937 0.418990
0.947791 0.785749 0.721656
0.536743 0.085738 1.017648
0.939845 1.077020 0.462981
0.636210 0.820633 0.359297
0.938512 0.968229 0.540053
0.882922 0.811971 0.608162
0.693293 0.847967 0.403236
0.605919 0.661564 0.454833
0.648416 0.059557 1.220749
0.675970 0.318385 0.873675
0.612698 0.617202 0.502852
0.666862 0.673612 0.489273
0.747339 0.425021 0.864043
0.603698 0.773340 0.358933
0.893324 0.612064 0.824939
0.846242 0.713933 0.653724
0.845332 0.314091 1.108350
0.652081 0.848766 0.355694
0.869081 0.254715 1.211037
0.840226 0.355187 1.020493
0.839409 0.968486 0.468371
0.905744 0.376173 1.094516
0.766204 0.851937 0.453054
0.896090 0.337774 1.132070
0.702980 0.950437 0.311108
0.677307 0.673398 0.530379
0.617583 0.478389 0.645764
0.662602 0.279029 0.905560
0.749209 0.210837 1.142009
0.659468 0.150050 1.123567
0.585939 0.238736 0.892011
0.467156 -0.068385 1.227588
0.783710 0.218636 1.170918
0.523744 0.225163 0.824730
0.574773 0.233293 0.850078
0.729526 0.400246 0.839399
0.792251 1.153677 0.268222
0.915250 0.896682 0.572154
0.596991 0.561500 0.507108
0.973367 1.093166 0.509086
0.566953 0.453674 0.575790
0.734364 0.892958 0.414610
0.741843 1.236712 0.191842
0.827014 1.031902 0.384347
0.807845 0.796042 0.543178
0.848963 0.391590 1.016667
0.702584 0.955810 0.306944
0.928272 0.744745 0.737544
0.697589 1.063064 0.228231
0.632347 0.245121 0.912156
0.811200 0.435417 0.924755
0.724073 0.209772 1.076790
0.674656 0.892338 0.348524
0.836682 0.722330 0.636291
0.535992 0.131076 0.982378
0.931618 0.680573 0.799299
0.808528 0.284717 1.074935
0.863170 1.117864 0.387202
0.771697 1.086746 0.316556
0.630674 0.855263 0.299424
0.954515 0.894920 0.638203
0.556773 0.111200 1.005785
0.892350 0.568858 0.837807
0.929359 0.808475 0.683865
0.700278 0.923087 0.354268
0.736411 0.613650 0.654431
0.810473 1.113908 0.337771
0.751225 1.181259 0.209175
0.964323 0.838106 0.684697
0.969232 0.902054 0.620599
0.656328 0.707835 0.474813
0.809794 1.147459 0.289895
0.937025 0.892314 0.596823
0.832597 0.325053 1.049636
0.879641 1.002936 0.482818
0.734366 1.069324 0.263416
0.797598 0.497682 0.811446
0.827933 0.321230 1.049304
0.824390 1.224689 0.263977
0.986003 0.988192 0.570714
0.798428 0.976693 0.420425
0.577718 0.313038 0.751436
0.801385 0.833178 0.505829
0.701616 0.101958 1.215902
0.790442 0.255067 1.094002
0.859250 1.035990 0.413482
0.609443 0.088381 1.118319
0.708075 0.351396 0.904889
0.825606 0.205678 1.199790
0.800046 0.511712 0.829360
0.749843 0.340495 0.968884
0.746503 0.462410 0.821118
0.692564 0.153309 1.123260
0.594710 0.061353 1.184607
0.648339 0.637300 0.498691
0.951084 1.071726 0.477093
0.809523 1.093446 0.350265
0.902688 0.800680 0.637361
0.676534 0.546519 0.650181
0.785194 0.851879 0.501060
0.657539 0.972996 0.271766
0.780393 0.920674 0.416208
0.653309 0.721932 0.430750
0.763826 1.215658 0.201068
0.759767 0.790535 0.495641
0.813519 0.194151 1.227879
0.661551 0.073829 1.212411
0.901319 1.115271 0.400753
0.535632 0.252548 0.804187
0.708195 0.461046 0.745236
0.636569 0.727261 0.434993
0.946259 0.780581 0.697703
0.827243 1.222910 0.272034
0.766456 0.277831 1.033918
0.650688 0.593547 0.571807
0.586814 0.195801 0.920213
0.609389 0.514854 0.567719
0.769240 0.650070 0.656910
0.496375 -0.053362 1.225538
0.660382 0.501096 0.676532
0.811993 0.419887 0.943542
0.723085 0.483802 0.770560
0.892751 1.057413 0.456639
0.805313 0.702477 0.648699
0.747268 0.714738 0.545905
0.581217 0.207513 0.931006
0.719414 1.235190 0.170412
0.941478 0.342409 1.157234
0.825694 0.772536 0.581629
0.654849 0.922722 0.304108
0.775808 0.488003 0.826966
0.815909 0.263599 1.111523
0.892169 1.120728 0.413620
0.864967 1.054135 0.432354
0.669803 0.433277 0.729937
0.898761 0.778177 0.678607
0.740604 0.312607 0.959884
0.671808 1.001275 0.267989
0.609068 0.139630 1.035502
0.645953 0.356208 0.787620
0.920503 0.981494 0.537915
0.966487 0.972464 0.589767
0.774212 0.544991 0.765248
0.652277 0.403433 0.742009
0.641623 0.187048 1.044082
0.700417 0.694975 0.510153
0.625057 0.515240 0.587102
0.725153 0.241523 1.069685
0.862941 0.773988 0.619235
0.879503 0.717594 0.711975
0.862717 0.489716 0.919380
0.748899 0.172561 1.163452
0.484034 -0.019054 1.173103
0.687385 0.870083 0.352345
0.877396 0.752609 0.653126
0.739288 0.402371 0.848113
0.704243 0.851578 0.384847
0.911419 0.997528 0.517356
0.750457 0.854274 0.461796
0.924236 0.421121 1.060433
0.873461 0.748730 0.652327
0.668184 0.123112 1.177129
0.819241 0.202664 1.197164
0.584188 0.508865 0.571819
0.933458 0.449984 1.007850
0.805312 0.669564 0.650222
0.707008 0.392410 0.822448
0.689158 0.348402 0.885326
0.514993 0.158369 0.871306
0.858071 0.625546 0.748428
0.735754 0.931394 0.359987
0.804512 0.774407 0.557535
0.543444 0.161767 0.908058
0.643333 0.392612 0.774595
0.701549 0.687404 0.546482
0.817244 0.248371 1.165996
0.674510 0.329905 0.889996
0.754939 0.152133 1.199827
0.620649 0.491503 0.605854
0.566115 0.568500 0.491305
0.798846 0.735591 0.584865
0.706007 1.022986 0.264718
0.521364 0.178570 0.888288
0.854114 0.862523 0.537759
0.757568 0.443342 0.824707
0.788211 1.238781 0.236773
0.823073 0.490209 0.847663
0.579499 0.690726 0.398410
0.918080 0.299974 1.170338
0.873520 0.770236 0.659924
0.861182 0.769918 0.620895
0.522071 0.199142 0.858880
0.634002 0.552492 0.562342
0.761129 1.017110 0.326635
0.787241 0.784979 0.557615
0.798751 0.647532 0.692007
0.762949 0.368098 0.949714
0.513732 0.196032 0.851507
0.883549 1.179063 0.366612
0.659385 0.323973 0.878672
0.644783 0.861421 0.310790
0.798032 0.828916 0.505766
0.620384 0.433590 0.666289
0.873351 0.880757 0.542837
0.555094 0.089575 1.039011
0.596802 0.479730 0.617932
0.539116 0.121270 0.963066
0.892184 0.989528 0.480115
1.002902 1.039786 0.548955
0.728168 0.595877 0.662003
0.749911 0.381269 0.885774
0.925908 0.279373 1.204367
0.948777 0.557929 0.908230
0.677940 0.238307 1.015779
0.712787 0.177029 1.148487
0.832816 1.060406 0.396319
0.743060 0.257178 1.033620
0.636549 0.274805 0.877802
0.914167 0.303607 1.193644
0.614462 0.084214 1.133832
0.786683 0.507042 0.788926
0.829586 0.675479 0.670666
0.641289 0.295019 0.858692
0.925935 0.355762 1.140035
0.670893 0.957618 0.270765
0.697855 1.116411 0.194716
0.651179 0.113160 1.171567
0.876526 1.074393 0.404262
0.515636 -0.020209 1.226231
0.851513 0.382563 0.999831
0.911826 0.954052 0.525152
0.704615 0.297838 0.935175
0.830097 0.658234 0.687379
0.947978 0.470591 1.000713
0.911655 0.797005 0.675580
0.647251 0.525882 0.633993
0.675978 0.715557 0.463368
0.744772 0.969236 0.342131
0.625036 0.448170 0.687977
0.920044 1.112213 0.420766
0.746517 1.238166 0.195649
0.582457 0.406021 0.647184
0.720036 0.950388 0.329672
0.933683 0.304577 1.211657
0.582697 0.040165 1.209737
0.655647 0.351282 0.840291
0.591615 0.511028 0.578982
0.800971 0.720622 0.600134
0.775956 0.970260 0.374600
0.955172 0.941351 0.576294
0.536534 0.357772 0.674448
0.706532 0.163952 1.124383
0.698907 0.614211 0.610570
0.772488 0.549353 0.758893
0.615658 0.664941 0.463557
0.834962 0.782695 0.582629
0.947858 0.852958 0.665356
0.620890 0.645710 0.457925
0.725144 0.274759 0.989909
0.793471 0.967110 0.395593
0.595323 0.306378 0.784173
0.654468 0.111289 1.140494
0.707156 0.271408 0.973366
0.781696 0.758770 0.573815
0.698663 1.016777 0.286554
0.478192 -0.039989 1.208734
0.734780 1.022533 0.295974
0.622053 0.642942 0.490891
0.751467 0.330342 0.983118
0.934630 1.007742 0.507442
