-0.006759 0.242581 -0.437363 2.000000
0.237260 -0.353611 0.348007 2.000000
-0.198301 -0.456748 -0.199387 2.000000
0.214821 0.458596 -0.197592 2.000000
0.184180 -0.315764 -0.386842 2.000000
0.097610 -0.029944 -0.499249 2.000000
0.106048 0.383876 -0.320086 2.000000
-0.127348 0.109443 -0.488104 2.000000
-0.010884 -0.477138 -0.143134 2.000000
-0.115769 0.082884 -0.493382 2.000000
-0.270077 0.458895 0.192342 2.000000
0.010192 0.428667 0.252154 2.000000
-0.042551 -0.214414 0.447025 2.000000
-0.110337 -0.456041 -0.201083 2.000000
-0.284591 0.172389 -0.469618 4.000000
0.090174 -0.449172 -0.216124 2.000000
-0.181054 -0.496590 -0.032631 2.000000
-0.178558 -0.229907 0.439391 2.000000
0.170941 0.466137 -0.178639 2.000000
-0.239259 0.484022 -0.121245 2.000000
0.074079 -0.476923 0.139293 2.000000
-0.168020 -0.491560 0.074443 2.000000
-0.202820 0.461542 -0.190885 2.000000
0.220324 0.321879 0.378429 2.000000
-0.188441 0.365685 -0.340739 2.000000
-0.143243 0.205908 -0.456025 2.000000
0.210818 0.056289 0.492633 2.000000
0.163975 0.498510 -0.000973 2.000000
0.230900 -0.495097 0.046203 2.000000
0.231844 0.341758 0.360566 2.000000
0.225683 -0.230587 0.439056 2.000000
-0.249558 0.431998 0.246346 2.000000
-0.175413 0.104165 -0.489210 2.000000
-0.150088 -0.149211 -0.477094 2.000000
-0.012685 -0.364413 -0.341158 2.000000
0.200090 0.440772 0.230897 2.000000
0.001550 -0.434601 -0.244373 2.000000
-0.212795 0.335033 0.366657 2.000000
0.053961 0.203808 0.452371 2.000000
-0.137623 -0.132318 -0.482249 2.000000
-0.131973 -0.488250 0.093669 2.000000
-0.039809 -0.019475 0.495482 2.000000
0.254775 0.174461 0.464391 2.000000
-0.287992 0.249795 -0.433227 4.000000
-0.260932 -0.318526 0.380189 2.000000
-0.119316 -0.497019 0.018047 2.000000
0.160280 0.267210 0.418409 2.000000
-0.102120 0.274096 0.414118 2.000000
-0.095325 -0.494642 0.050410 2.000000
0.195104 0.145212 0.474273 2.000000
0.044604 0.463255 -0.186319 2.000000
-0.037993 -0.482227 -0.124702 2.000000
-0.116113 0.472152 -0.162608 2.000000
-0.239575 0.486123 0.108263 2.000000
0.168193 -0.467300 0.168455 2.000000
-0.006595 -0.005018 -0.500295 2.000000
0.258849 -0.385517 0.312389 2.000000
0.002272 0.229547 0.439973 2.000000
0.182242 -0.455719 -0.201855 2.000000
0.217936 0.240676 -0.438456 2.000000
0.021860 -0.283154 -0.411420 2.000000
-0.081505 -0.288701 0.403380 2.000000
-0.025240 0.497527 -0.033925 2.000000
-0.265109 -0.397110 0.297849 2.000000
0.066488 0.009351 -0.500036 2.000000
-0.270589 0.438186 -0.239712 2.000000
-0.087002 0.436930 0.237745 2.000000
-0.216437 -0.466793 0.169805 2.000000
-0.043305 -0.494480 0.051904 2.000000
0.155710 -0.148884 -0.477194 2.000000
-0.144037 -0.475547 -0.148898 2.000000
-0.009080 0.498227 0.014711 2.000000
0.242414 -0.398574 -0.299968 2.000000
-0.205961 0.490125 0.089164 2.000000
-0.188011 -0.380443 0.318752 2.000000
-0.249287 0.220071 -0.449096 2.000000
0.049571 -0.011435 -0.500080 2.000000
-0.067189 -0.160848 -0.473468 2.000000
0.099325 0.251084 0.428239 2.000000
-0.146787 0.489989 0.089810 2.000000
0.046791 -0.354664 -0.351171 2.000000
-0.131705 0.420226 0.265853 2.000000
0.267643 -0.058824 0.492361 2.000000
-0.168181 -0.496929 -0.028442 2.000000
0.066705 -0.490378 -0.086725 2.000000
-0.202922 0.086455 0.488291 2.000000
-0.107446 -0.481033 0.125157 2.000000
0.033103 0.278905 -0.415049 2.000000
-0.186866 0.063283 0.491877 2.000000
-0.196826 0.249968 -0.433127 2.000000
0.083614 0.459108 0.191831 2.000000
0.073494 -0.373244 -0.331249 2.000000
-0.251936 0.365441 -0.341009 2.000000
-0.048094 -0.243123 0.432111 2.000000
-0.223777 -0.304141 -0.396110 2.000000
-0.277459 -0.438366 0.233071 2.000000
-0.287707 -0.250936 -0.432058 4.000000
0.228038 0.444892 -0.226976 2.000000
0.071678 0.330730 0.370555 2.000000
0.011955 0.059324 0.492305 2.000000
0.014524 -0.403455 0.289033 2.000000
-0.027025 -0.231117 -0.442960 2.000000
-0.097650 0.366501 0.335713 2.000000
-0.002407 0.436882 -0.242189 2.000000
0.043668 0.110788 0.483422 2.000000
-0.216045 0.381354 0.318639 2.000000
0.283029 -0.429924 0.248362 1.000000
0.040437 -0.106659 0.484119 2.000000
-0.006231 -0.483364 -0.120582 2.000000
-0.205100 0.421755 0.263537 2.000000
-0.243847 -0.041466 0.493992 2.000000
0.009806 0.134449 0.477557 2.000000
-0.203422 -0.375465 -0.328661 2.000000
0.173239 0.106898 -0.488637 2.000000
-0.227508 -0.230461 0.439118 2.000000
0.220697 0.409798 0.281649 2.000000
-0.126099 0.391091 0.306891 2.000000
-0.080897 -0.282858 -0.411627 2.000000
0.270510 -0.317665 0.380928 2.000000
0.120590 0.353530 -0.353437 2.000000
-0.107446 0.494372 -0.066743 2.000000
-0.208330 -0.218299 -0.449710 2.000000
0.232355 -0.286354 0.405102 2.000000
-0.272094 -0.330029 0.370320 2.000000
0.072132 0.355858 -0.351170 2.000000
0.259333 0.227325 0.441143 2.000000
0.267231 -0.194258 -0.460550 2.000000
0.080397 -0.212211 -0.452494 2.000000
-0.165951 0.436861 0.237866 2.000000
0.043026 0.008590 0.495900 2.000000
0.125646 0.165981 0.467573 2.000000
0.280870 -0.346303 0.355121 2.000000
-0.094926 -0.106442 -0.488565 2.000000
-0.249647 -0.351458 -0.354464 2.000000
0.049326 -0.130456 -0.482817 2.000000
0.064827 -0.366903 -0.338600 2.000000
0.107800 0.382588 0.317200 2.000000
0.053444 0.480289 0.131080 2.000000
-0.097635 0.193608 -0.461153 2.000000
0.125142 -0.470358 -0.164113 2.000000
-0.151558 -0.051170 0.493206 2.000000
-0.268771 0.162263 0.468968 2.000000
-0.027637 -0.480571 0.127103 2.000000
0.090805 0.437721 -0.240596 2.000000
-0.058882 0.496962 -0.042774 2.000000
0.271110 -0.005584 0.495732 2.000000
0.272733 -0.290200 0.402250 2.000000
0.268107 -0.378139 0.321504 2.000000
0.151238 -0.307164 -0.393699 2.000000
0.102654 0.483749 0.118545 2.000000
0.035179 -0.496152 0.036440 2.000000
0.167059 0.318623 -0.385339 2.000000
0.228671 -0.363747 -0.341842 2.000000
0.259636 0.332533 0.368922 2.000000
0.094722 -0.230014 0.439338 2.000000
-0.132426 0.184972 0.460447 2.000000
-0.262664 0.127220 0.479517 2.000000
-0.116581 -0.497479 -0.003720 2.000000
-0.080527 0.022037 -0.499808 2.000000
0.094489 -0.384165 -0.318522 2.000000
0.175801 -0.432506 -0.248026 2.000000
0.029033 -0.486761 0.101055 2.000000
0.093770 0.455316 0.200927 2.000000
-0.045085 0.155736 0.471062 2.000000
0.048734 -0.489198 0.088162 2.000000
-0.006081 0.036589 -0.498823 2.000000
0.092151 0.291108 -0.406691 2.000000
0.036923 0.102505 0.485391 2.000000
0.239256 0.493300 -0.074645 2.000000
-0.036915 -0.023820 -0.499524 2.000000
-0.059963 0.272425 0.415229 2.000000
0.109441 0.419209 0.267393 2.000000
-0.087546 0.368690 0.333398 2.000000
-0.156827 0.046367 -0.498031 2.000000
0.136734 0.476409 0.145134 2.000000
0.226567 -0.360744 0.340711 2.000000
-0.193303 0.080019 -0.493796 2.000000
-0.041986 0.466328 -0.178128 2.000000
-0.118354 -0.230214 -0.443436 2.000000
0.203471 0.157587 0.470498 2.000000
0.238751 0.473231 0.154403 2.000000
0.105951 -0.039916 -0.498645 2.000000
-0.145531 0.166134 -0.471776 2.000000
-0.035790 -0.086759 0.488288 2.000000
-0.128556 -0.376639 0.323161 2.000000
-0.161186 -0.473109 -0.156138 2.000000
-0.030389 -0.256141 0.424646 2.000000
-0.051225 0.498410 0.004532 2.000000
-0.204846 -0.025765 0.495264 2.000000
0.155535 0.386466 0.312681 2.000000
0.138170 0.137727 -0.480861 2.000000
-0.273190 0.415574 -0.277524 2.000000
-0.025701 -0.455040 0.198880 2.000000
-0.069536 0.423839 -0.264378 2.000000
0.250436 0.202617 -0.457397 2.000000
0.214124 0.263073 -0.425501 2.000000
-0.113889 -0.488581 -0.095994 2.000000
0.235631 -0.490091 -0.088706 2.000000
0.166024 -0.461063 0.185077 2.000000
-0.000450 -0.033852 -0.499074 2.000000
-0.154725 0.485243 0.112467 2.000000
-0.278641 0.371519 0.330100 2.000000
-0.083528 0.491410 0.082321 2.000000
0.090927 0.365516 -0.340926 2.000000
0.119393 -0.299858 0.394964 2.000000
0.034933 -0.092647 0.487054 2.000000
-0.027759 -0.315795 -0.386818 2.000000
0.273397 0.130542 -0.482844 2.000000
-0.015867 -0.473872 -0.153926 2.000000
0.121730 -0.023821 -0.499524 2.000000
-0.066793 -0.471368 0.157501 2.000000
0.171235 -0.381459 0.317479 2.000000
0.116751 -0.004791 -0.500291 2.000000
-0.130252 0.253893 -0.430876 2.000000
0.130312 0.425606 0.257493 2.000000
0.028044 -0.453224 0.202927 2.000000
0.266794 -0.497552 0.000371 2.000000
0.212235 0.427898 -0.257719 2.000000
-0.243718 -0.495133 -0.050608 2.000000
0.164832 -0.188478 0.458511 2.000000
-0.010594 0.404822 -0.292898 2.000000
-0.216051 -0.401197 0.292263 2.000000
0.189362 -0.272178 0.414460 2.000000
-0.219815 -0.252446 -0.431138 2.000000
0.250576 0.056182 -0.497236 2.000000
-0.149981 0.025469 0.495143 2.000000
-0.208548 0.306153 0.390969 2.000000
0.235528 -0.427532 -0.256701 2.000000
-0.137467 -0.257761 -0.427898 2.000000
0.129743 0.201076 0.453597 2.000000
0.215024 0.435871 -0.244109 2.000000
0.153766 0.379184 0.321168 2.000000
-0.099085 0.311508 0.386699 2.000000
0.027176 0.190343 -0.462514 2.000000
0.262660 0.488716 -0.101269 2.000000
-0.211614 0.408962 0.282914 2.000000
0.188234 0.104318 0.484960 2.000000
0.208154 -0.462659 -0.185211 2.000000
0.213030 -0.486634 0.101587 2.000000
-0.178858 0.200081 0.454043 2.000000
0.151610 0.465409 -0.180580 2.000000
0.030224 -0.005212 -0.500299 2.000000
0.252748 -0.483770 -0.118958 2.000000
-0.171576 -0.401171 -0.296525 2.000000
-0.201674 0.354358 0.348185 2.000000
0.286064 -0.235707 0.436364 1.000000
-0.224746 0.350605 -0.356285 2.000000
-0.235414 0.375226 0.325780 2.000000
0.230293 -0.439990 0.229988 2.000000
0.182489 0.493494 0.067919 2.000000
-0.175125 -0.436086 0.237402 2.000000
-0.023795 -0.119625 -0.485432 2.000000
0.253439 -0.489195 0.088181 2.000000
-0.269848 -0.413614 0.274507 2.000000
0.196567 -0.301930 -0.397873 2.000000
0.046931 0.309810 -0.392582 2.000000
0.025118 -0.479661 -0.133997 2.000000
0.019506 0.287465 0.404769 2.000000
-0.154948 -0.430702 -0.251172 2.000000
0.070360 -0.410967 -0.282680 2.000000
0.135142 0.498444 -0.013474 2.000000
0.104998 -0.220677 0.443939 2.000000
-0.102971 0.481657 0.126125 2.000000
0.062989 -0.438343 -0.237848 2.000000
-0.116846 0.427383 -0.258564 2.000000
0.248729 -0.172457 0.464888 2.000000
0.132413 -0.454174 0.200809 2.000000
-0.142316 -0.469597 0.162333 2.000000
-0.239168 0.480987 -0.133686 2.000000
-0.006911 0.074546 0.490341 2.000000
0.246525 -0.050052 0.493296 2.000000
0.044721 0.279833 -0.414436 2.000000
-0.202432 -0.490695 -0.084534 2.000000
0.056742 0.415889 -0.277073 2.000000
-0.274653 0.218316 0.445861 2.000000
-0.253779 -0.457287 -0.198095 2.000000
0.143421 0.250214 0.428770 2.000000
-0.272219 -0.421359 -0.266939 2.000000
0.128151 0.462164 -0.189227 2.000000
-0.288271 0.450647 0.210856 4.000000
0.030596 -0.448858 0.212655 2.000000
-0.149044 -0.334124 -0.370906 2.000000
-0.177174 -0.008745 -0.500200 2.000000
0.072206 0.198117 -0.459273 2.000000
0.061092 0.019551 -0.499853 2.000000
0.285420 0.265031 -0.424209 1.000000
0.146882 0.071419 -0.495040 2.000000
0.169103 0.427331 0.254485 2.000000
-0.038007 -0.365816 0.335110 2.000000
0.066261 -0.180807 0.461709 2.000000
0.018120 0.092628 0.487228 2.000000
0.169439 0.439873 -0.236509 2.000000
0.135803 0.314307 -0.389043 2.000000
0.167141 0.336715 -0.369807 2.000000
0.120731 0.444514 0.223302 2.000000
0.092707 0.216928 -0.450645 2.000000
0.257202 0.466173 0.174864 2.000000
0.245349 -0.411766 -0.281469 2.000000
-0.148028 0.497516 0.029493 2.000000
0.184461 0.307240 0.390103 2.000000
-0.111283 -0.098273 0.485876 2.000000
-0.064855 0.496856 0.037647 2.000000
-0.290094 0.459130 0.191780 4.000000
-0.165893 0.018327 -0.499875 2.000000
0.180765 -0.492701 0.067817 2.000000
0.044085 0.163091 0.468657 2.000000
-0.119465 0.215130 0.447290 2.000000
-0.235374 -0.489078 -0.093621 2.000000
-0.194190 0.453697 -0.208509 2.000000
-0.139266 0.385847 0.313402 2.000000
-0.089486 -0.459090 0.189856 2.000000
0.264744 -0.326946 0.372965 2.000000
0.056060 -0.447765 -0.218978 2.000000
0.220195 -0.261036 0.421816 2.000000
0.197122 -0.203601 0.452206 2.000000
-0.034757 0.480438 0.130539 2.000000
-0.062219 0.072313 0.490725 2.000000
-0.220164 0.454477 0.202940 2.000000
0.095152 0.201877 0.453238 2.000000
0.286589 0.043552 -0.498259 1.000000
-0.154874 -0.028655 0.495030 2.000000
0.043108 0.415519 0.272983 2.000000
0.042779 -0.439969 0.230028 2.000000
-0.180922 -0.489666 0.085443 2.000000
0.101651 -0.100053 0.485503 2.000000
0.046949 0.481492 -0.131891 2.000000
-0.228494 0.409183 -0.286663 2.000000
0.020495 0.392199 0.305423 2.000000
0.159913 0.122628 0.480609 2.000000
0.094392 -0.497523 0.006825 2.000000
-0.280081 0.425240 0.258130 2.000000
-0.099329 -0.479380 0.131240 2.000000
-0.273557 -0.355023 0.346632 2.000000
-0.040927 0.182406 -0.465823 2.000000
0.055333 -0.428737 0.250309 2.000000
0.023371 0.406185 -0.290949 2.000000
0.253926 0.258292 0.423845 2.000000
-0.006718 0.282755 0.408062 2.000000
-0.057054 -0.298942 -0.400255 2.000000
0.034459 0.464139 0.179765 2.000000
0.092003 -0.022869 0.495421 2.000000
0.286956 -0.164786 -0.471990 1.000000
0.258938 0.431769 -0.251369 2.000000
0.051709 -0.042387 -0.498378 2.000000
-0.286894 -0.172634 -0.469045 4.000000
-0.172198 -0.446618 0.217400 2.000000
-0.230635 0.428891 0.251764 2.000000
0.209186 -0.222874 -0.447301 2.000000
0.218032 0.495742 -0.054066 2.000000
0.115951 0.496080 0.047220 2.000000
-0.276777 0.142222 0.475186 2.000000
0.147345 0.201936 -0.457681 2.000000
0.222410 0.483994 -0.121363 2.000000
0.020194 -0.458763 -0.194554 2.000000
0.108678 0.290956 -0.406806 2.000000
0.105544 0.408768 -0.287256 2.000000
-0.128872 0.498064 -0.021961 2.000000
-0.176483 -0.038910 -0.498754 2.000000
0.011293 -0.497065 0.017022 2.000000
-0.265175 -0.497547 0.006281 2.000000
0.244431 -0.487587 0.097522 2.000000
-0.114666 0.391341 0.306560 2.000000
0.022808 -0.291577 0.401211 2.000000
0.031111 0.401103 -0.298216 2.000000
0.267424 0.401790 0.292709 2.000000
-0.117971 0.400246 -0.299441 2.000000
-0.119193 -0.120944 -0.485119 2.000000
0.086263 0.431151 -0.252383 2.000000
-0.097347 0.305502 -0.395832 2.000000
0.114239 -0.466519 0.170536 2.000000
-0.290272 -0.127081 0.479163 4.000000
-0.253353 0.182019 -0.465985 2.000000
-0.184301 -0.475415 -0.149379 2.000000
-0.076807 -0.442708 0.224825 2.000000
0.073639 0.262020 -0.426196 2.000000
0.197398 0.112384 0.483043 2.000000
0.163894 0.483120 -0.125042 2.000000
0.132854 0.106020 0.484556 2.000000
0.152660 0.458300 0.193768 2.000000
0.178840 -0.412040 0.276758 2.000000
0.245262 0.438421 0.235145 2.000000
0.068911 -0.380240 -0.323096 2.000000
0.284861 -0.354445 0.347195 1.000000
0.209652 -0.333192 0.367605 2.000000
-0.053476 0.479168 -0.139647 2.000000
0.179367 0.128540 -0.483397 2.000000
0.230694 -0.401026 -0.296718 2.000000
0.232318 0.390346 0.307879 2.000000
-0.256619 0.091250 -0.491915 2.000000
-0.289460 -0.353439 -0.352429 4.000000
0.083987 -0.486637 -0.105273 2.000000
0.137492 -0.439507 0.230904 2.000000
-0.262782 0.412295 -0.282213 2.000000
0.030874 -0.467280 -0.173036 2.000000
-0.128896 0.349508 0.353166 2.000000
-0.258553 -0.231971 -0.442511 2.000000
0.201042 -0.317149 0.381371 2.000000
-0.008631 -0.486730 -0.104829 2.000000
-0.276447 -0.493708 -0.063706 2.000000
0.055197 0.470709 0.161714 2.000000
0.112093 -0.496577 -0.032794 2.000000
0.094667 0.463247 -0.186339 2.000000
-0.259061 -0.003890 -0.500275 2.000000
0.221973 -0.462293 0.181797 2.000000
0.140730 0.172861 -0.469456 2.000000
0.137254 -0.404770 -0.291755 2.000000
0.172880 0.354679 0.347855 2.000000
-0.072939 -0.362602 0.338658 2.000000
-0.118137 0.439935 -0.236392 2.000000
0.154632 -0.473748 -0.154287 2.000000
-0.268106 -0.254916 0.425349 2.000000
0.085004 0.451242 0.209648 2.000000
-0.256592 -0.054209 0.492959 2.000000
0.085926 0.116814 -0.486560 2.000000
-0.258225 -0.115047 0.482362 2.000000
-0.223156 -0.496828 -0.029691 2.000000
0.110423 0.440281 -0.235734 2.000000
0.171566 0.455535 -0.204414 2.000000
0.221747 -0.151340 -0.476444 2.000000
-0.050021 0.305413 -0.395899 2.000000
-0.209297 0.116538 -0.486618 2.000000
-0.183183 0.050432 0.493266 2.000000
0.019394 -0.375135 0.324821 2.000000
0.244025 0.466645 0.173495 2.000000
0.025168 0.484560 0.115608 2.000000
0.268522 -0.247678 -0.434044 2.000000
-0.273661 0.496485 0.042215 2.000000
-0.088180 -0.464453 -0.180906 2.000000
0.117918 0.299507 -0.400355 2.000000
-0.064720 0.196589 -0.459910 2.000000
0.024734 -0.270485 0.415578 2.000000
0.001881 0.494337 -0.067071 2.000000
0.165989 0.491824 -0.083216 2.000000
-0.287567 0.012447 -0.499981 4.000000
-0.143202 0.133956 -0.481902 2.000000
0.036202 0.498406 0.004768 2.000000
-0.190633 0.496399 0.043277 2.000000
-0.290071 0.423624 0.260706 4.000000
0.018336 -0.095018 0.486558 2.000000
0.260789 0.076830 -0.494258 2.000000
0.189949 0.396052 -0.304816 2.000000
0.210335 -0.163797 0.467875 2.000000
-0.010418 0.264071 -0.424842 2.000000
-0.197405 -0.131935 -0.482365 2.000000
-0.205016 0.456873 -0.201432 2.000000
-0.285098 -0.045531 0.493663 4.000000
-0.073436 -0.476381 0.141070 2.000000
-0.253495 0.496313 -0.048785 2.000000
-0.056075 -0.497076 0.016785 2.000000
-0.038504 -0.484744 -0.114307 2.000000
0.187676 0.293722 -0.404719 2.000000
-0.245677 -0.344745 0.356638 2.000000
0.284796 0.462125 -0.189330 1.000000
0.028280 0.082504 -0.493437 2.000000
-0.204542 0.185146 0.460382 2.000000
0.058949 0.489177 -0.098593 2.000000
-0.070582 0.445351 0.221604 2.000000
-0.289672 0.478919 0.136044 4.000000
0.142969 0.229538 0.439978 2.000000
-0.192037 -0.254456 -0.429913 2.000000
0.069846 -0.376352 0.323478 2.000000
-0.114293 0.339140 -0.367446 2.000000
-0.250251 -0.258288 0.423415 2.000000
-0.160705 -0.328148 0.371934 2.000000
-0.227400 -0.482562 0.118724 2.000000
0.096959 0.430816 -0.252932 2.000000
-0.009072 -0.298186 -0.400858 2.000000
0.064123 0.470804 -0.166200 2.000000
0.194943 0.000852 -0.500190 2.000000
-0.041273 0.107501 0.484204 2.000000
-0.136013 -0.494458 -0.058524 2.000000
0.220253 -0.229438 -0.443845 2.000000
0.167905 0.454698 0.202409 2.000000
-0.171895 0.466000 -0.179003 2.000000
-0.054660 -0.348344 -0.357663 2.000000
-0.246133 -0.493948 -0.062044 2.000000
0.061168 0.498317 0.009721 2.000000
-0.074437 0.257905 0.424081 2.000000
0.031820 -0.290001 -0.406631 2.000000
-0.275527 0.479990 0.132164 2.000000
0.132721 -0.277802 0.410747 2.000000
0.187218 0.071684 0.490834 2.000000
-0.152084 -0.467728 0.167313 2.000000
-0.288624 -0.309005 -0.392232 4.000000
-0.235404 0.048881 0.493433 2.000000
-0.142542 0.095113 -0.491106 2.000000
0.234914 0.197869 0.455036 2.000000
-0.088063 0.246851 -0.434915 2.000000
-0.019090 -0.242580 -0.436925 2.000000
0.073677 -0.252313 -0.431219 2.000000
-0.198579 0.391704 0.306079 2.000000
0.175661 0.484152 -0.120700 2.000000
0.022052 0.469401 -0.169940 2.000000
0.069685 -0.078292 0.489545 2.000000
-0.006787 -0.409494 -0.284910 2.000000
0.060273 -0.061767 0.491935 2.000000
-0.166055 0.161180 -0.473485 2.000000
-0.130999 0.048528 -0.497856 2.000000
0.072923 -0.127803 0.478964 2.000000
-0.038934 0.006418 -0.500089 2.000000
-0.131196 0.493248 0.069617 2.000000
0.102869 0.472975 0.155146 2.000000
-0.269056 -0.447302 -0.219919 2.000000
0.104874 0.035036 0.494714 2.000000
0.158440 0.312042 -0.390898 2.000000
-0.056616 0.382537 0.317260 2.000000
-0.128017 0.439655 0.232992 2.000000
-0.243540 0.204523 0.452050 2.000000
-0.069938 -0.494600 -0.057195 2.000000
0.152190 -0.229388 0.439647 2.000000
0.104763 -0.021620 0.495443 2.000000
-0.254525 0.128313 -0.483459 2.000000
-0.073615 0.310784 0.387277 2.000000
0.275284 -0.013247 -0.499998 1.000000
0.111901 -0.287455 0.404321 2.000000
-0.176678 0.230662 0.439386 2.000000
0.228173 0.098702 0.486182 2.000000
-0.289713 -0.445828 -0.222910 4.000000
0.211417 -0.317619 -0.385363 2.000000
0.196586 0.407366 -0.289261 2.000000
-0.203970 -0.104455 0.484581 2.000000
-0.096283 -0.463801 0.177779 2.000000
0.021957 0.458344 -0.198154 2.000000
0.274347 -0.087499 0.488133 2.000000
0.188497 0.331471 0.369884 2.000000
-0.052859 -0.387612 -0.314497 2.000000
0.142766 0.028918 -0.499445 2.000000
-0.102733 -0.202626 -0.456795 2.000000
-0.061450 -0.157162 0.470164 2.000000
-0.057102 0.403962 -0.294127 2.000000
0.175274 -0.028948 -0.499294 2.000000
0.137354 0.006301 -0.500091 2.000000
-0.141923 -0.483498 0.114786 2.000000
0.127916 -0.490820 -0.083671 2.000000
-0.193706 -0.417757 -0.272394 2.000000
0.132494 0.485296 -0.115883 2.000000
-0.246925 -0.454652 0.199744 2.000000
-0.124907 -0.064534 0.491535 2.000000
-0.142211 0.287855 -0.409140 2.000000
0.027766 -0.022619 0.495425 2.000000
0.098825 -0.463142 0.179536 2.000000
-0.025956 -0.495291 0.044400 2.000000
0.048517 -0.480589 0.127024 2.000000
0.124557 0.204405 -0.456651 2.000000
-0.114969 -0.244939 -0.435683 2.000000
0.285408 -0.063055 0.491749 1.000000
0.235440 0.310266 0.387690 2.000000
-0.162089 0.240669 -0.438459 2.000000
0.169733 -0.090827 0.487436 2.000000
-0.210994 0.426715 0.255558 2.000000
-0.093977 -0.405608 -0.290644 2.000000
0.030714 0.421697 0.263625 2.000000
0.193379 0.494776 0.059056 2.000000
-0.135962 0.076231 -0.494344 2.000000
0.229054 -0.348257 -0.357752 2.000000
-0.168186 -0.215588 -0.450978 2.000000
0.151397 0.165746 -0.471910 2.000000
-0.160669 -0.382432 -0.320542 2.000000
-0.191356 0.464799 0.178182 2.000000
0.005036 -0.374224 0.325827 2.000000
-0.226948 0.154248 0.471517 2.000000
0.210628 0.468970 0.166755 2.000000
-0.036214 0.387097 -0.316046 2.000000
-0.090804 0.403788 0.290061 2.000000
-0.239379 0.494715 -0.063575 2.000000
-0.196723 -0.483423 -0.120369 2.000000
-0.076529 0.083861 -0.493240 2.000000
-0.130434 -0.468156 -0.170496 2.000000
-0.252636 -0.124430 0.479895 2.000000
0.276128 -0.267416 0.417604 2.000000
0.037580 -0.339961 0.361296 2.000000
0.127359 0.412651 -0.281704 2.000000
0.086968 0.009871 -0.500027 2.000000
-0.170129 0.473773 -0.157331 2.000000
-0.185190 0.093355 0.487103 2.000000
-0.057450 0.492150 0.077204 2.000000
0.098177 -0.475977 0.142394 2.000000
-0.092501 0.136280 -0.481260 2.000000
0.242670 -0.155921 -0.475047 2.000000
0.187960 -0.470162 -0.164681 2.000000
-0.097509 0.466725 0.173263 2.000000
0.157242 -0.014537 0.495571 2.000000
0.043546 -0.490925 -0.082943 2.000000
-0.212926 0.489077 -0.099173 2.000000
0.185191 -0.362263 0.339033 2.000000
-0.091761 -0.411453 0.277597 2.000000
0.139266 -0.133413 -0.481914 2.000000
0.025901 -0.488893 0.089937 2.000000
0.152966 0.300148 0.395758 2.000000
-0.014090 -0.452697 -0.208969 2.000000
0.142559 0.430653 0.248692 2.000000
-0.187836 -0.272575 -0.418819 2.000000
0.015062 -0.216914 0.445793 2.000000
-0.211483 -0.438718 -0.237193 2.000000
-0.073154 -0.127961 -0.483451 2.000000
-0.210281 -0.485355 -0.111391 2.000000
0.286749 0.061656 -0.496453 1.000000
-0.219894 0.191083 0.458082 2.000000
-0.202654 0.160026 -0.473883 2.000000
-0.036667 -0.493033 -0.068370 2.000000
-0.160183 0.497328 -0.038366 2.000000
-0.260582 -0.485935 0.104528 2.000000
-0.241772 0.287740 -0.409216 2.000000
0.164834 0.292399 -0.405717 2.000000
0.144561 -0.381241 0.317751 2.000000
0.070518 0.370095 -0.335871 2.000000
-0.237349 0.235277 -0.441552 2.000000
0.207554 0.485220 0.112578 2.000000
0.016634 -0.162494 0.468325 2.000000
-0.176821 -0.360320 -0.345362 2.000000
0.200871 -0.354729 -0.351105 2.000000
-0.275280 -0.496579 -0.032768 2.000000
-0.233902 0.474628 0.150354 2.000000
0.107118 0.259663 -0.427567 2.000000
-0.274789 -0.073473 -0.494703 2.000000
-0.194801 0.215795 -0.451203 2.000000
-0.250306 -0.484223 0.111733 2.000000
0.237439 0.420618 -0.269661 2.000000
0.251337 -0.392697 -0.307758 2.000000
-0.033032 0.459013 -0.196664 2.000000
-0.016027 -0.344371 -0.361625 2.000000
-0.035374 0.387655 0.311295 2.000000
0.082854 -0.453696 -0.206708 2.000000
-0.282344 -0.277235 -0.415559 4.000000
-0.145114 -0.264005 -0.424091 2.000000
-0.139149 0.026168 -0.499668 2.000000
0.035981 -0.185491 -0.464221 2.000000
0.165666 -0.290278 -0.406438 2.000000
-0.002188 -0.453557 -0.207042 2.000000
-0.153127 0.158982 -0.474243 2.000000
-0.150930 0.418929 0.267817 2.000000
-0.119105 -0.047797 0.493479 2.000000
0.084743 -0.333705 0.367165 2.000000
-0.273901 0.493922 0.064960 2.000000
0.117732 -0.274991 -0.417129 2.000000
0.284955 -0.250644 0.427799 1.000000
-0.140706 -0.092770 -0.491381 2.000000
0.132354 0.392234 0.305376 2.000000
0.139977 0.452899 -0.210287 2.000000
0.021506 0.418515 -0.273110 2.000000
0.241945 0.418610 0.268302 2.000000
-0.233855 0.490152 0.089032 2.000000
-0.107017 -0.453497 0.202318 2.000000
-0.255139 0.286048 -0.410333 2.000000
0.148752 0.496017 -0.051518 2.000000
0.153497 0.032912 -0.499121 2.000000
0.178571 0.143758 -0.479196 2.000000
0.031743 0.394182 -0.307160 2.000000
-0.087494 -0.446210 -0.222134 2.000000
0.131557 -0.183975 -0.464790 2.000000
0.171906 -0.481189 -0.128462 2.000000
-0.110901 -0.497371 0.010208 2.000000
-0.092260 -0.482545 -0.123550 2.000000
-0.229066 0.280711 0.409492 2.000000
0.198405 0.288986 -0.408292 2.000000
0.132942 0.035270 0.494703 2.000000
0.216055 0.352976 0.349604 2.000000
0.137954 0.491798 -0.083368 2.000000
0.012195 -0.495609 -0.044738 2.000000
-0.195254 0.234255 -0.442107 2.000000
0.018506 -0.487673 -0.100328 2.000000
0.219233 -0.088747 -0.492073 2.000000
0.283894 -0.086008 -0.492545 1.000000
-0.111478 0.478680 0.136909 2.000000
0.143884 0.384017 0.315535 2.000000
0.257465 -0.493907 0.057213 2.000000
-0.061399 0.381912 -0.322549 2.000000
0.227987 0.459606 -0.195343 2.000000
-0.058166 0.494186 0.063136 2.000000
0.279697 -0.382821 0.315771 2.000000
0.139409 -0.450760 -0.212900 2.000000
-0.216949 -0.294106 -0.403760 2.000000
-0.182353 0.181514 0.461744 2.000000
0.286591 0.494987 -0.061050 1.000000
-0.069443 -0.211045 -0.453017 2.000000
0.009016 -0.159244 -0.474033 2.000000
0.078627 -0.109391 -0.487864 2.000000
-0.223891 0.412143 0.278097 2.000000
-0.172153 -0.361065 0.340355 2.000000
-0.003441 0.221477 -0.448403 2.000000
0.163771 -0.497388 -0.008747 2.000000
-0.067174 -0.281107 0.408565 2.000000
-0.130013 0.494790 -0.062878 2.000000
0.102500 0.313594 0.385036 2.000000
-0.035066 -0.039404 0.494159 2.000000
0.048367 0.002563 -0.500159 2.000000
-0.151550 -0.087769 -0.492242 2.000000
0.135790 0.132450 0.478167 2.000000
0.221662 0.356392 -0.350651 2.000000
0.254813 0.280156 0.409880 2.000000
0.140879 -0.346103 0.355316 2.000000
-0.079292 -0.470308 0.160439 2.000000
-0.027530 0.422202 0.262860 2.000000
0.143382 -0.028196 0.495067 2.000000
0.196447 -0.480222 -0.131965 2.000000
0.175224 0.039509 -0.498587 2.000000
-0.219609 -0.359233 -0.346478 2.000000
0.212255 0.498313 0.009956 2.000000
0.233123 0.498276 0.011980 2.000000
0.273689 -0.061755 -0.496285 1.000000
-0.108448 0.096221 -0.490874 2.000000
-0.017491 0.472993 0.155093 2.000000
-0.162828 0.375479 0.325485 2.000000
-0.122648 0.386131 -0.317258 2.000000
0.104593 0.469063 0.166485 2.000000
-0.176498 -0.235503 -0.440651 2.000000
0.271044 -0.257240 -0.428215 2.000000
-0.206948 -0.479625 -0.134127 2.000000
0.047012 0.418894 -0.272490 2.000000
-0.209409 0.058123 0.492435 2.000000
0.138703 0.330343 -0.375283 2.000000
0.080583 0.463094 0.182272 2.000000
0.109913 0.080730 0.489276 2.000000
0.103591 0.498388 0.005757 2.000000
0.183923 0.468960 -0.171115 2.000000
-0.004376 0.485717 -0.114111 2.000000
-0.208133 -0.151201 -0.476487 2.000000
0.095283 0.497119 0.034397 2.000000
0.075544 -0.304053 0.391799 2.000000
-0.154438 -0.457608 0.193157 2.000000
-0.159912 0.422831 0.261907 2.000000
0.262201 0.051591 0.493141 2.000000
-0.269919 -0.079527 0.489366 2.000000
0.015510 0.223411 0.443204 2.000000
0.040181 0.497364 -0.037556 2.000000
0.051427 0.272002 -0.419606 2.000000
-0.197622 -0.410390 0.279118 2.000000
-0.270778 0.055757 0.492690 2.000000
-0.229833 0.488230 0.098209 2.000000
0.187529 -0.484001 0.112667 2.000000
0.148097 -0.493124 -0.067743 2.000000
0.019364 -0.387795 0.309532 2.000000
-0.169886 0.495159 0.056410 2.000000
-0.252873 -0.182385 -0.465386 2.000000
-0.064701 -0.170620 -0.469801 2.000000
0.154895 -0.449224 0.211840 2.000000
0.101236 -0.434619 -0.244341 2.000000
0.094771 0.494887 0.058289 2.000000
0.006968 0.175619 0.463956 2.000000
-0.076164 0.387322 -0.315764 2.000000
-0.194425 -0.056662 -0.496835 2.000000
0.087681 -0.250651 0.427794 2.000000
-0.243654 -0.276351 -0.416178 2.000000
-0.247472 -0.453043 -0.208268 2.000000
0.155099 -0.044790 -0.498118 2.000000
-0.243825 0.222146 0.443870 2.000000
0.193554 -0.457251 0.193953 2.000000
0.271319 0.414505 0.274519 2.000000
0.225126 -0.119531 0.481248 2.000000
0.163664 -0.264915 -0.423537 2.000000
0.130617 0.231472 0.438960 2.000000
-0.236049 0.466878 -0.176664 2.000000
-0.133838 -0.496430 0.031188 2.000000
-0.063671 -0.456080 -0.200991 2.000000
-0.223731 0.401312 -0.297916 2.000000
0.286498 -0.462210 -0.186286 1.000000
-0.149485 -0.299087 -0.400140 2.000000
-0.081575 0.186530 0.459862 2.000000
0.271993 -0.449766 0.210633 2.000000
-0.094811 0.358960 -0.348150 2.000000
-0.076941 0.356812 -0.350242 2.000000
-0.060370 0.171306 -0.469992 2.000000
-0.049383 -0.104185 -0.489101 2.000000
-0.231843 0.385808 0.313448 2.000000
0.144457 0.454409 0.203103 2.000000
-0.167674 0.394357 0.302562 2.000000
0.154074 0.442732 -0.231079 2.000000
-0.116332 -0.302915 0.392657 2.000000
0.130249 -0.482755 0.117910 2.000000
-0.189061 -0.495539 0.042109 2.000000
-0.060209 -0.357712 0.344014 2.000000
-0.256533 0.019937 -0.499846 2.000000
-0.269990 -0.453546 0.202210 2.000000
0.220627 -0.112040 -0.487235 2.000000
0.257613 -0.424095 0.257923 2.000000
0.223684 0.193797 -0.461074 2.000000
0.143788 -0.132579 0.477646 2.000000
0.201332 0.154935 -0.475639 2.000000
0.240497 0.109866 0.483641 2.000000
-0.170751 0.497996 -0.023460 2.000000
-0.113061 0.200226 0.453978 2.000000
-0.030546 0.322261 0.378125 2.000000
-0.120193 0.449354 -0.218189 2.000000
0.052079 0.287116 -0.409628 2.000000
-0.009905 -0.468801 0.164454 2.000000
-0.160603 0.349536 0.353139 2.000000
-0.215381 0.334733 -0.371516 2.000000
0.165543 0.223914 -0.447202 2.000000
0.017202 -0.067675 -0.495645 2.000000
0.049636 -0.435273 0.238946 2.000000
-0.106077 0.110311 0.483536 2.000000
0.149420 -0.494848 0.048501 2.000000
-0.023789 0.309302 0.388458 2.000000
-0.006884 -0.414679 0.272985 2.000000
0.130025 -0.053078 0.493051 2.000000
-0.182278 -0.118941 0.481410 2.000000
-0.068742 -0.330141 -0.374514 2.000000
0.135716 0.403845 0.289986 2.000000
0.005894 -0.126384 -0.483826 2.000000
-0.030505 -0.479371 -0.135048 2.000000
0.109459 0.179301 -0.467118 2.000000
0.205907 -0.029788 0.494938 2.000000
-0.276626 -0.204295 0.451916 2.000000
-0.110947 0.295847 0.398906 2.000000
-0.137444 -0.492072 0.071472 2.000000
0.096041 0.238384 0.435321 2.000000
0.149800 -0.452418 -0.209537 2.000000
-0.145152 0.121468 -0.485349 2.000000
0.149758 -0.293169 0.400010 2.000000
0.200017 -0.309426 0.387745 2.000000
-0.040262 -0.493245 0.063337 2.000000
-0.124590 0.489958 -0.094058 2.000000
0.042070 0.448234 -0.220629 2.000000
0.284442 0.258169 0.423920 1.000000
-0.013823 0.338661 -0.367912 2.000000
-0.080994 -0.055060 0.492890 2.000000
0.018827 -0.479484 0.130902 2.000000
-0.287079 -0.180822 0.461703 4.000000
-0.289368 -0.326470 -0.377838 4.000000
0.167769 -0.039102 0.494183 2.000000
0.005222 0.217287 0.446322 2.000000
-0.082689 0.109205 -0.488154 2.000000
0.285581 0.439581 0.233122 1.000000
0.178494 0.395936 0.300469 2.000000
0.262432 0.064891 -0.495985 2.000000
0.161151 -0.331399 0.369144 2.000000
0.262877 0.496137 0.046521 2.000000
-0.118105 0.076956 0.489926 2.000000
0.269118 -0.482594 0.118586 2.000000
0.148054 0.494478 -0.065759 2.000000
-0.259643 0.460527 -0.193291 2.000000
0.229257 0.154457 0.471453 2.000000
-0.188772 -0.436138 0.237302 2.000000
0.251771 0.424401 -0.263455 2.000000
0.107648 0.373513 0.327776 2.000000
-0.008929 0.440575 -0.235175 2.000000
0.269392 -0.426119 0.254604 2.000000
0.251274 0.489205 -0.098430 2.000000
0.061632 0.216559 0.446649 2.000000
0.136975 -0.108161 0.483804 2.000000
-0.164750 0.058030 -0.496978 2.000000
-0.048737 -0.141471 0.475191 2.000000
-0.283902 -0.158071 0.469851 4.000000
-0.062698 0.439768 -0.236709 2.000000
0.138765 0.239774 -0.438973 2.000000
0.232342 0.280041 0.409961 2.000000
0.015967 -0.466953 -0.173984 2.000000
0.112331 0.042492 0.494124 2.000000
0.087011 -0.494558 -0.057715 2.000000
0.091813 -0.412672 0.275855 2.000000
0.249216 0.041496 -0.498426 2.000000
-0.266512 0.340165 0.362009 2.000000
0.022631 0.310138 0.387792 2.000000
0.087825 -0.288375 -0.407768 2.000000
0.053775 -0.496419 0.031425 2.000000
0.134203 -0.312129 0.385679 2.000000
0.110734 -0.070895 0.490615 2.000000
-0.277143 0.462503 0.183688 2.000000
0.267172 0.497013 0.035709 2.000000
0.136976 0.099352 -0.490218 2.000000
0.106081 0.397008 0.299048 2.000000
-0.107677 0.347305 -0.359497 2.000000
-0.008350 -0.375054 -0.329140 2.000000
0.178794 0.235811 -0.441245 2.000000
0.166818 0.382526 0.317272 2.000000
0.112177 0.390679 -0.311553 2.000000
-0.038956 -0.432670 0.243857 2.000000
-0.106866 -0.475323 0.144538 2.000000
-0.062190 0.052461 0.493047 2.000000
-0.153858 0.495754 0.051248 2.000000
-0.207651 0.185883 -0.464373 2.000000
-0.243456 0.132772 -0.482229 2.000000
-0.146495 -0.496544 0.028646 2.000000
0.195779 0.408375 0.283804 2.000000
-0.238872 0.307011 -0.394693 2.000000
-0.119408 0.414873 0.273962 2.000000
-0.115019 0.496786 -0.044405 2.000000
0.162570 0.206155 -0.455922 2.000000
-0.109497 0.419709 0.266637 2.000000
0.111825 -0.464475 -0.180854 2.000000
0.219838 0.420936 -0.269139 2.000000
-0.253451 -0.312737 -0.389256 2.000000
-0.093157 -0.380583 0.318577 2.000000
-0.092773 -0.427339 -0.257036 2.000000
0.182971 0.168903 0.466477 2.000000
0.073885 0.173877 0.464610 2.000000
-0.237506 -0.050686 -0.497481 2.000000
0.008451 0.277970 0.411409 2.000000
-0.047114 0.490284 -0.092160 2.000000
-0.141199 -0.495751 0.040147 2.000000
0.051246 0.298641 0.396952 2.000000
-0.257520 -0.173356 -0.468774 2.000000
0.177185 -0.239650 0.434103 2.000000
0.179926 0.497070 0.035005 2.000000
0.098111 0.329973 0.371240 2.000000
0.027782 0.280410 0.409702 2.000000
0.141805 0.049602 -0.497769 2.000000
-0.074481 -0.496387 0.032143 2.000000
0.015913 0.477919 0.139667 2.000000
0.070504 0.309931 -0.392491 2.000000
0.205068 -0.067851 0.491055 2.000000
0.262886 0.498480 -0.012675 2.000000
-0.269153 -0.192799 0.456709 2.000000
0.025107 -0.404519 0.287512 2.000000
-0.250366 -0.395374 -0.304210 2.000000
0.095726 0.062444 -0.496339 2.000000
0.183770 -0.003061 -0.500260 2.000000
0.100500 -0.476858 -0.144150 2.000000
-0.068566 -0.010661 -0.500114 2.000000
0.040137 -0.144843 -0.478427 2.000000
0.167978 -0.119349 -0.485498 2.000000
-0.241766 0.085011 0.488539 2.000000
0.118490 -0.475460 0.144090 2.000000
0.139468 -0.484337 0.111253 2.000000
-0.147423 0.397678 0.298160 2.000000
0.259919 0.033434 0.494785 2.000000
-0.250287 0.462297 -0.188871 2.000000
0.154037 0.484701 -0.118387 2.000000
-0.174342 -0.203313 -0.456487 2.000000
-0.025360 -0.456363 -0.200310 2.000000
-0.001586 0.476882 -0.147139 2.000000
-0.266021 -0.497053 0.017304 2.000000
-0.266065 0.329474 -0.376028 2.000000
-0.202960 0.498176 -0.019463 2.000000
-0.278829 0.048296 -0.497875 2.000000
0.250770 -0.280113 -0.413547 2.000000
-0.146840 0.488157 -0.103843 2.000000
0.046659 -0.460957 -0.189291 2.000000
0.224836 0.492226 -0.080879 2.000000
0.192581 -0.206623 -0.455001 2.000000
-0.113279 0.476137 -0.149582 2.000000
0.235247 -0.264514 0.419520 2.000000
0.270059 0.428259 -0.257127 2.000000
-0.223110 0.496751 -0.044727 2.000000
-0.269016 -0.044844 -0.498112 2.000000
-0.149182 -0.437416 0.234876 2.000000
0.000365 0.069329 -0.495343 2.000000
0.284057 -0.494967 0.047406 1.000000
0.057124 -0.474758 0.146388 2.000000
-0.211201 -0.128476 0.478778 2.000000
0.231022 0.310058 -0.392395 2.000000
-0.134637 0.037379 -0.498759 2.000000
0.035745 0.074750 -0.494559 2.000000
-0.242317 -0.189082 0.458259 2.000000
-0.199093 -0.294697 -0.403347 2.000000
0.198114 0.351479 -0.355434 2.000000
0.087591 0.473782 -0.157299 2.000000
0.131907 -0.481762 -0.126383 2.000000
0.023118 0.271665 0.415693 2.000000
-0.189680 0.434568 0.241864 2.000000
0.172410 0.194502 0.456547 2.000000
0.159418 0.478333 -0.142384 2.000000
0.265554 -0.016147 0.495542 2.000000
-0.288865 0.371639 -0.334166 4.000000
-0.032827 0.370109 -0.335855 2.000000
-0.206989 -0.237427 0.435378 2.000000
-0.203954 -0.447110 -0.220309 2.000000
-0.198754 0.321781 -0.382629 2.000000
-0.257144 0.240545 -0.438531 2.000000
0.142473 0.193774 0.456874 2.000000
0.091943 -0.305269 -0.395210 2.000000
0.098722 -0.244837 0.431129 2.000000
0.032482 0.363734 -0.342893 2.000000
-0.222087 0.223518 0.443148 2.000000
0.200292 0.446925 -0.223115 2.000000
0.126963 0.155447 -0.475463 2.000000
-0.093854 -0.073902 0.490180 2.000000
0.095786 -0.314732 -0.387665 2.000000
-0.140474 0.385610 -0.317911 2.000000
-0.196601 -0.162107 -0.472995 2.000000
0.258681 0.406926 -0.289889 2.000000
-0.078728 0.497719 -0.029646 2.000000
0.226945 0.302063 -0.398427 2.000000
-0.211648 -0.475995 0.142334 2.000000
0.169539 0.486325 0.107300 2.000000
-0.275110 -0.267230 -0.422125 2.000000
0.145178 0.474189 0.151625 2.000000
-0.208115 0.495987 -0.051799 2.000000
0.166283 -0.474867 0.146033 2.000000
-0.238942 -0.413219 0.275073 2.000000
0.031888 -0.333013 0.367759 2.000000
-0.015906 -0.449232 0.211823 2.000000
0.040227 0.289602 0.403274 2.000000
-0.248183 0.376330 0.324494 2.000000
0.134755 -0.479649 0.130360 2.000000
0.149350 -0.402903 0.289822 2.000000
0.148428 0.214755 0.447459 2.000000
0.069506 0.442976 0.226424 2.000000
0.168116 0.260947 -0.426831 2.000000
0.103386 -0.415997 0.271100 2.000000
-0.097227 -0.073310 -0.494731 2.000000
0.198487 -0.402253 0.290752 2.000000
-0.242139 0.477583 0.140882 2.000000
0.244644 -0.468003 0.166582 2.000000
0.077336 0.408689 -0.287369 2.000000
0.129254 -0.237082 0.435576 2.000000
0.187879 -0.350264 -0.355691 2.000000
0.239466 0.029285 0.494971 2.000000
0.060324 0.455268 0.201043 2.000000
-0.128655 -0.497321 -0.012479 2.000000
-0.018123 0.485107 -0.116678 2.000000
-0.275184 0.149941 -0.477362 2.000000
0.066471 0.409234 -0.286589 2.000000
-0.093627 0.227445 0.441080 2.000000
-0.122939 0.367510 0.334675 2.000000
-0.008314 0.496911 -0.043248 2.000000
0.260949 0.365292 -0.341173 2.000000
-0.165247 0.390758 -0.311455 2.000000
-0.206319 0.196554 0.455626 2.000000
-0.160531 0.429257 0.251126 2.000000
0.170943 0.476502 0.144801 2.000000
-0.008486 0.469192 0.166111 2.000000
-0.289160 -0.071252 -0.495085 4.000000
0.027647 0.494456 -0.065964 2.000000
0.134997 0.169790 0.466144 2.000000
0.138303 0.498150 0.018977 2.000000
0.093411 -0.470085 -0.164907 2.000000
0.075838 -0.188802 -0.462978 2.000000
-0.150064 0.406700 -0.290213 2.000000
0.250080 0.483581 0.119153 2.000000
-0.211823 -0.448082 0.214386 2.000000
-0.189977 0.470571 -0.166821 2.000000
0.194125 0.426382 0.256139 2.000000
0.225006 0.248233 -0.434122 2.000000
-0.044110 -0.029435 0.494967 2.000000
0.056990 -0.485597 -0.110239 2.000000
0.123533 -0.068410 0.490974 2.000000
-0.192404 0.118621 0.481561 2.000000
-0.147454 0.336592 -0.369921 2.000000
-0.131440 0.354982 -0.352023 2.000000
0.140773 0.261073 0.422150 2.000000
-0.013295 0.492744 -0.077871 2.000000
0.199579 -0.489991 -0.089262 2.000000
-0.058748 0.485601 0.110757 2.000000
0.172449 -0.259709 -0.426710 2.000000
0.075905 0.435123 -0.245531 2.000000
-0.008857 0.371028 -0.334841 2.000000
0.221379 -0.199068 -0.458391 2.000000
-0.172412 0.497497 -0.034586 2.000000
-0.196191 0.377265 -0.327955 2.000000
0.210157 0.229311 0.440098 2.000000
-0.223464 -0.420527 0.263776 2.000000
-0.179164 -0.497080 0.016689 2.000000
-0.127853 -0.343434 -0.362473 2.000000
-0.041598 0.296138 -0.402897 2.000000
0.008262 0.188737 -0.463184 2.000000
-0.275305 0.072527 -0.494880 2.000000
0.049086 0.379554 0.320736 2.000000
0.257745 0.437063 -0.241846 2.000000
0.176136 -0.355859 -0.349944 2.000000
-0.260875 0.185114 0.403053 3.000000
0.185609 0.445085 0.025263 3.000000
0.194929 -0.444270 -0.022938 3.000000
0.053001 -0.225859 -0.385547 3.000000
-0.112689 0.439720 -0.075145 3.000000
0.113549 -0.441988 -0.051896 3.000000
0.113769 -0.313720 0.313221 3.000000
-0.259590 -0.393460 0.205280 3.000000
-0.032428 -0.218105 -0.390133 3.000000
-0.050146 0.444546 -0.035676 3.000000
0.173916 -0.037032 0.441474 3.000000
-0.113370 0.385667 -0.225531 3.000000
0.190195 0.193970 0.398928 3.000000
0.001276 0.103710 -0.435311 3.000000
0.050445 0.268268 0.353583 3.000000
0.181655 0.445394 -0.019771 3.000000
0.204662 0.162075 -0.417201 3.000000
0.269933 -0.382878 0.224160 3.000000
0.043752 -0.414566 0.159234 3.000000
0.041179 -0.371096 -0.247452 3.000000
0.205757 0.427570 -0.128039 3.000000
-0.043159 -0.254903 0.362540 3.000000
0.285952 -0.087578 -0.438688 1.000000
-0.219382 -0.440998 0.056254 3.000000
0.265412 -0.400339 -0.196132 3.000000
0.083781 -0.419897 0.144426 3.000000
-0.065156 -0.436393 0.084152 3.000000
0.093699 -0.441072 0.055784 3.000000
0.039844 -0.252146 -0.368768 3.000000
-0.290008 -0.380803 0.227670 4.000000
-0.177934 0.117200 0.427546 3.000000
-0.140263 -0.328090 -0.302681 3.000000
-0.037608 -0.314540 -0.316754 3.000000
-0.145668 -0.212018 -0.393564 3.000000
0.068417 0.128470 0.424272 3.000000
0.009598 -0.343559 0.280649 3.000000
0.152566 0.036593 0.441613 3.000000
-0.288861 0.055690 -0.444161 4.000000
-0.156821 -0.290414 0.334870 3.000000
0.234223 0.340237 -0.290065 3.000000
0.157843 0.403863 -0.191119 3.000000
0.108214 0.068306 0.437851 3.000000
0.281650 0.318383 -0.313936 1.000000
-0.096280 -0.349226 0.273343 3.000000
-0.018247 0.120632 -0.430903 3.000000
0.172535 0.341607 0.284158 3.000000
0.107641 0.358288 -0.267334 3.000000
-0.013642 0.417180 -0.159174 3.000000
0.284210 0.356096 -0.270160 1.000000
-0.015734 -0.419519 -0.149831 3.000000
-0.197612 -0.431584 -0.110020 3.000000
0.154770 -0.164014 -0.416093 3.000000
-0.228303 -0.393885 -0.208799 3.000000
-0.018586 0.195259 -0.402625 3.000000
-0.270752 0.443198 0.045579 3.000000
-0.151384 -0.440689 0.058204 3.000000
-0.219819 0.445497 -0.016512 3.000000
0.001924 0.053034 -0.444412 3.000000
-0.235121 -0.410114 0.169953 3.000000
0.049989 -0.303945 -0.327293 3.000000
-0.086542 -0.173790 -0.411863 3.000000
-0.137303 0.078294 -0.440622 3.000000
-0.017135 -0.109386 0.429460 3.000000
0.006516 -0.444001 0.026246 3.000000
0.074675 0.294193 -0.336795 3.000000
-0.174971 -0.319049 0.307892 3.000000
-0.159399 -0.393392 0.205412 3.000000
-0.045335 0.190706 -0.404945 3.000000
0.232639 0.422286 -0.144991 3.000000
-0.225955 -0.352035 -0.274074 3.000000
0.115267 0.371819 -0.247895 3.000000
-0.256339 0.053094 0.440053 3.000000
-0.064678 -0.105681 0.430288 3.000000
-0.181787 -0.443115 0.035616 3.000000
-0.231557 0.385672 -0.225523 3.000000
-0.255726 0.030701 0.442170 3.000000
-0.118660 -0.444118 0.023429 3.000000
0.130260 -0.412216 -0.169449 3.000000
-0.258497 -0.441327 0.054176 3.000000
-0.092443 0.109011 -0.434126 3.000000
-0.018487 0.433332 0.102429 3.000000
-0.224763 -0.410512 0.169032 3.000000
0.218543 0.183764 0.403637 3.000000
0.144324 0.253934 -0.368249 3.000000
-0.164506 0.404060 -0.190665 3.000000
0.020345 0.278138 0.345928 3.000000
0.156543 0.429365 -0.121859 3.000000
-0.105990 0.303291 -0.328774 3.000000
0.217311 0.289406 -0.341015 3.000000
0.154318 -0.001698 0.443189 3.000000
-0.205132 -0.440214 -0.065557 3.000000
-0.100484 0.328473 0.299055 3.000000
-0.241335 0.053323 -0.444384 3.000000
0.229837 -0.178940 0.405281 3.000000
-0.206421 -0.168483 -0.414160 3.000000
0.112700 0.146231 0.418551 3.000000
-0.106321 0.260386 -0.363864 3.000000
0.184177 0.015718 0.442780 3.000000
-0.263996 0.154038 0.415741 3.000000
-0.100144 0.431011 0.111841 3.000000
0.082063 0.035730 -0.446048 3.000000
0.023829 0.177807 -0.410568 3.000000
0.031870 -0.217864 0.385922 3.000000
-0.179349 0.048008 0.440534 3.000000
0.008723 -0.422342 -0.141988 3.000000
0.211983 0.253913 0.363909 3.000000
0.280650 0.257513 -0.365817 1.000000
-0.290212 0.441689 0.058361 4.000000
-0.165461 -0.032407 -0.446265 3.000000
0.125528 -0.301825 -0.329162 3.000000
-0.131094 0.432099 -0.112302 3.000000
0.265906 -0.314490 -0.316804 3.000000
-0.082127 0.111594 -0.433529 3.000000
0.086029 0.224125 -0.387178 3.000000
0.051091 -0.295686 -0.334575 3.000000
-0.193641 0.425550 0.130639 3.000000
-0.092778 0.219828 -0.389719 3.000000
0.032796 0.409923 0.172763 3.000000
0.194346 0.438644 0.077587 3.000000
0.198929 0.137869 0.421542 3.000000
0.232919 0.042839 -0.445376 3.000000
0.043975 0.442347 0.054207 3.000000
0.174689 -0.328996 0.297300 3.000000
0.167913 0.206360 0.392616 3.000000
0.133378 0.398623 -0.201511 3.000000
-0.180005 0.297010 -0.334311 3.000000
-0.264318 -0.408179 0.174424 3.000000
0.137379 0.354443 0.267938 3.000000
-0.046603 0.335336 -0.295624 3.000000
0.286741 -0.429190 -0.118937 1.000000
-0.195438 -0.331912 0.293992 3.000000
-0.072448 -0.362105 0.256328 3.000000
0.096364 -0.370769 -0.247933 3.000000
-0.036360 0.410178 -0.176527 3.000000
-0.275494 0.361331 -0.263329 3.000000
0.145080 0.428169 0.121625 3.000000
0.038040 0.445726 -0.009210 3.000000
0.039861 -0.345138 -0.282966 3.000000
0.060315 -0.190348 0.400252 3.000000
-0.107604 0.367236 0.250286 3.000000
-0.113338 0.104958 -0.435032 3.000000
0.018887 -0.320815 0.306126 3.000000
0.018587 -0.123287 -0.429834 3.000000
0.147646 0.250448 0.366264 3.000000
0.285059 -0.183222 0.403428 1.000000
0.072878 0.431836 0.109001 3.000000
-0.221735 0.020605 -0.446980 3.000000
-0.084429 -0.388851 0.214061 3.000000
-0.195436 0.424620 -0.138192 3.000000
0.268947 0.398955 -0.200860 3.000000
-0.046621 0.061199 -0.443330 3.000000
-0.218134 0.125710 -0.429428 3.000000
-0.058397 0.360523 0.260100 3.000000
0.206544 -0.437074 0.081027 3.000000
0.210831 -0.068115 -0.442072 3.000000
0.136933 0.394733 0.204792 3.000000
0.105789 -0.363812 -0.258170 3.000000
-0.054018 -0.255719 0.361986 3.000000
0.006867 -0.336736 0.288521 3.000000
0.216447 0.426279 0.128128 3.000000
-0.285456 0.435073 -0.098996 4.000000
-0.166294 0.384609 -0.227319 3.000000
0.211835 -0.443172 -0.039363 3.000000
-0.191877 -0.154901 -0.419414 3.000000
0.194681 0.083110 0.435506 3.000000
0.170035 -0.283914 -0.344953 3.000000
0.172481 0.266144 -0.359585 3.000000
0.041499 0.074847 -0.441168 3.000000
0.004729 0.077357 -0.440771 3.000000
-0.051110 -0.433624 0.096538 3.000000
-0.176185 0.385308 -0.226138 3.000000
-0.022407 0.298306 -0.333169 3.000000
0.173399 0.331472 -0.300007 3.000000
0.246938 -0.437422 0.078831 3.000000
0.043718 -0.231239 -0.382365 3.000000
0.208496 0.229710 -0.383875 3.000000
-0.106335 0.444895 -0.031978 3.000000
0.239159 -0.115713 -0.432034 3.000000
-0.208070 -0.053822 0.439887 3.000000
-0.246327 0.319384 -0.312935 3.000000
0.154647 -0.433618 -0.100921 3.000000
0.231226 0.408508 0.176034 3.000000
-0.035962 0.407574 0.178191 3.000000
-0.272317 -0.291539 -0.338231 3.000000
-0.168691 0.203442 0.394102 3.000000
0.236435 0.159608 -0.418088 3.000000
0.100663 -0.198262 -0.400573 3.000000
0.239752 0.360113 -0.264981 3.000000
0.021049 0.371890 0.243439 3.000000
-0.129560 -0.356059 -0.268887 3.000000
-0.258117 -0.263751 0.356293 3.000000
0.080304 -0.238935 0.373392 3.000000
-0.289605 -0.324708 -0.306517 4.000000
-0.047987 0.229743 0.379503 3.000000
-0.212307 0.270335 0.351981 3.000000
-0.076127 -0.306444 0.320497 3.000000
-0.085510 0.441059 0.062340 3.000000
-0.134646 0.230292 0.379178 3.000000
0.214968 -0.337558 0.287588 3.000000
-0.084798 -0.104110 0.430640 3.000000
0.132296 0.114070 -0.432809 3.000000
0.228998 -0.207561 0.391481 3.000000
0.097937 0.390453 -0.217438 3.000000
0.252435 0.202180 0.394745 3.000000
0.265473 -0.354504 -0.270891 3.000000
0.079440 -0.429150 -0.119073 3.000000
-0.150251 -0.417017 0.152425 3.000000
0.088364 0.424110 0.135570 3.000000
0.228998 0.206206 -0.397048 3.000000
-0.096390 -0.173561 0.407609 3.000000
-0.124370 -0.376176 0.235493 3.000000
-0.247612 0.249772 -0.371077 3.000000
-0.096026 0.022719 0.442560 3.000000
-0.190296 -0.024145 0.442483 3.000000
0.227616 0.415211 0.160288 3.000000
0.005545 0.267453 -0.358570 3.000000
0.108283 -0.022128 0.442547 3.000000
0.226441 0.135539 -0.426572 3.000000
-0.159659 -0.252418 0.364229 3.000000
0.017426 -0.401858 -0.193151 3.000000
-0.000995 -0.444679 -0.009926 3.000000
0.124588 -0.312516 0.314425 3.000000
-0.244263 0.373586 0.240942 3.000000
0.084144 -0.370900 0.243387 3.000000
-0.088788 0.440151 -0.072425 3.000000
-0.185809 -0.424216 -0.136056 3.000000
0.278940 0.248617 -0.371862 1.000000
-0.015691 -0.427353 -0.125259 3.000000
0.220089 0.062022 -0.443199 3.000000
0.282737 -0.225590 -0.385706 1.000000
0.003061 0.038739 -0.445763 3.000000
