0.021341 0.310599 -0.321719 3.000000
-0.120679 0.387712 0.217719 3.000000
0.045641 0.441367 0.060393 3.000000
0.086795 -0.399275 -0.198221 3.000000
-0.114509 0.086261 0.434858 3.000000
0.003635 -0.193953 0.398415 3.000000
0.137069 -0.047838 0.440453 3.000000
-0.092393 -0.423851 -0.137313 3.000000
0.169603 0.405113 0.183877 3.000000
-0.278745 0.072318 0.437215 3.000000
-0.064282 0.121811 0.426207 3.000000
-0.189768 0.438434 -0.083268 3.000000
0.174828 -0.403907 0.184296 3.000000
0.090828 -0.394566 0.203109 3.000000
-0.246864 0.394184 0.205871 3.000000
0.215873 0.010407 -0.447301 3.000000
-0.128315 -0.444568 -0.013457 3.000000
-0.031993 0.284498 -0.345342 3.000000
0.203483 0.444646 -0.034619 3.000000
-0.092580 -0.298596 0.327656 3.000000
-0.246587 0.381741 -0.232169 3.000000
0.052534 0.415020 0.160819 3.000000
-0.121699 0.070561 -0.441847 3.000000
-0.269768 -0.261886 0.357739 3.000000
-0.178839 -0.431764 -0.109215 3.000000
-0.171334 -0.412305 -0.169244 3.000000
0.012959 -0.346551 -0.281144 3.000000
0.019123 0.157642 -0.418796 3.000000
0.075269 0.393494 -0.211577 3.000000
-0.027561 -0.270231 -0.355620 3.000000
0.032596 -0.053366 -0.444284 3.000000
-0.243088 -0.022904 -0.446876 3.000000
0.037123 -0.435041 0.090202 3.000000
-0.114490 -0.168646 0.409736 3.000000
0.217777 -0.389761 0.212523 3.000000
-0.136134 -0.296888 0.329162 3.000000
-0.143404 0.222670 0.383685 3.000000
-0.046023 -0.288311 0.336723 3.000000
0.077722 -0.257316 -0.365254 3.000000
0.073562 -0.356917 0.263427 3.000000
-0.094889 0.087137 -0.439016 3.000000
0.050712 0.016030 -0.447124 3.000000
0.084369 -0.437931 0.075619 3.000000
0.042110 -0.427520 -0.124683 3.000000
-0.287234 -0.241970 -0.375683 4.000000
-0.173586 0.265880 0.355436 3.000000
0.248260 0.445924 -0.001420 3.000000
-0.135768 -0.336121 -0.293571 3.000000
0.016235 -0.420937 0.141538 3.000000
-0.022442 -0.249989 0.365880 3.000000
-0.240293 -0.303650 0.323200 3.000000
0.066322 -0.391077 -0.214311 3.000000
0.228327 -0.083101 0.435336 3.000000
-0.019796 -0.376645 -0.239054 3.000000
0.139864 -0.258009 -0.364783 3.000000
0.152905 -0.407149 0.176805 3.000000
-0.095438 -0.107466 0.429889 3.000000
-0.071354 0.102950 -0.435481 3.000000
-0.239898 0.372356 -0.247106 3.000000
-0.085249 0.070354 -0.441880 3.000000
0.203227 -0.401124 -0.194592 3.000000
-0.214301 0.420972 0.144288 3.000000
-0.065889 -0.444822 -0.005367 3.000000
-0.091046 -0.176675 -0.410614 3.000000
0.209360 0.436460 -0.092791 3.000000
-0.003330 -0.423403 -0.138855 3.000000
0.219841 -0.444789 -0.006416 3.000000
-0.253646 -0.328107 -0.302661 3.000000
-0.145316 0.080379 -0.440292 3.000000
-0.260143 0.383364 0.225072 3.000000
0.155045 -0.398202 -0.200327 3.000000
-0.006968 0.225070 0.382266 3.000000
-0.073934 -0.417816 0.150208 3.000000
-0.180327 -0.363909 -0.258027 3.000000
0.250705 0.065605 0.438279 3.000000
-0.093601 -0.310601 -0.320693 3.000000
-0.226004 -0.410551 -0.173297 3.000000
0.020621 -0.213508 -0.392805 3.000000
-0.008975 -0.020225 -0.446960 3.000000
0.163292 0.430343 0.114140 3.000000
0.257035 0.442410 0.053808 3.000000
0.060916 0.360519 0.260105 3.000000
-0.156249 0.077281 0.436429 3.000000
-0.234485 0.258606 0.360720 3.000000
-0.130130 -0.387558 -0.220600 3.000000
-0.277378 -0.130149 -0.427840 3.000000
0.112162 -0.444804 0.001608 3.000000
-0.037303 0.377601 0.234816 3.000000
-0.274935 0.262227 0.358260 3.000000
0.216350 0.310960 -0.321359 3.000000
0.029649 0.445540 -0.015129 3.000000
-0.277372 0.008362 -0.447365 3.000000
-0.165156 0.293312 -0.337572 3.000000
0.008601 0.424995 -0.136901 3.000000
0.047900 0.140744 0.420527 3.000000
-0.181474 -0.436042 0.085723 3.000000
-0.218460 -0.421141 0.140972 3.000000
-0.275634 -0.110047 -0.433666 3.000000
0.263334 0.382512 -0.230866 3.000000
0.203839 0.095652 -0.437112 3.000000
-0.212426 -0.210461 0.390004 3.000000
-0.054168 0.366915 -0.255112 3.000000
0.025022 -0.190747 0.400048 3.000000
0.153865 -0.194805 0.397981 3.000000
0.058869 0.330761 -0.300814 3.000000
-0.092757 0.384397 0.223326 3.000000
-0.174859 -0.161919 0.412534 3.000000
0.183726 0.102045 -0.435684 3.000000
-0.258196 0.002638 0.443191 3.000000
-0.205794 -0.355590 -0.269491 3.000000
-0.053135 0.303545 -0.328550 3.000000
-0.110674 0.356253 -0.269958 3.000000
-0.117865 0.430252 0.114453 3.000000
-0.031444 0.061945 -0.443212 3.000000
0.215676 -0.100101 -0.435889 3.000000
0.220903 -0.432166 0.103062 3.000000
-0.178181 0.236326 0.375609 3.000000
0.253784 0.093039 0.433343 3.000000
-0.144992 0.355425 0.266672 3.000000
-0.017638 -0.132893 -0.427043 3.000000
0.208171 0.214255 -0.392946 3.000000
0.053654 -0.351190 -0.275164 3.000000
-0.074275 0.445887 -0.000249 3.000000
0.071728 -0.186819 0.401871 3.000000
-0.240175 -0.384078 -0.226485 3.000000
0.153324 0.023846 0.442525 3.000000
0.052375 0.265037 -0.360443 3.000000
-0.214474 0.367593 0.249761 3.000000
0.109741 0.302966 -0.329061 3.000000
-0.237587 -0.444715 0.004427 3.000000
0.047558 0.057546 -0.443908 3.000000
0.084857 0.006722 0.443063 3.000000
0.156995 0.374467 0.239646 3.000000
-0.290186 -0.419269 -0.150524 4.000000
-0.203060 0.444981 0.026722 3.000000
0.066591 -0.388704 0.214309 3.000000
-0.071364 0.404006 0.186437 3.000000
0.238916 0.428414 0.120780 3.000000
-0.081620 -0.321423 0.305517 3.000000
0.023853 0.001628 0.443223 3.000000
-0.213759 0.157410 -0.418880 3.000000
-0.197233 -0.095249 0.432620 3.000000
-0.116073 0.445342 0.017101 3.000000
0.244053 -0.425438 -0.131851 3.000000
-0.135436 0.044431 -0.445225 3.000000
-0.186099 0.043352 0.440974 3.000000
-0.148895 0.377247 0.235416 3.000000
0.125542 0.117871 0.427352 3.000000
-0.156051 -0.436400 0.084120 3.000000
0.157772 0.420740 0.144930 3.000000
0.261538 -0.427370 0.120846 3.000000
-0.010412 0.182326 -0.408612 3.000000
-0.110448 -0.272480 -0.353875 3.000000
0.056652 0.440366 0.066713 3.000000
-0.073745 0.008015 -0.447376 3.000000
-0.050063 -0.430981 0.108363 3.000000
-0.247225 -0.382414 0.224945 3.000000
-0.182013 0.221491 -0.388736 3.000000
0.085126 -0.213375 -0.392873 3.000000
0.126925 0.042259 -0.445430 3.000000
-0.208820 -0.254297 -0.367306 3.000000
-0.091930 0.442451 0.053487 3.000000
0.094340 -0.215520 -0.391661 3.000000
0.123868 0.179059 0.405673 3.000000
-0.110242 -0.418955 -0.151397 3.000000
0.015863 0.206232 0.392681 3.000000
-0.019121 0.237325 0.375018 3.000000
-0.045158 0.133538 0.422800 3.000000
-0.160084 -0.253528 -0.367829 3.000000
-0.130549 0.015990 -0.447125 3.000000
0.082053 -0.106401 0.430127 3.000000
-0.115145 0.201882 0.394897 3.000000
-0.082445 0.308174 0.319791 3.000000
-0.236744 0.221441 0.384412 3.000000
0.268014 -0.359536 -0.264404 3.000000
0.172528 -0.009335 -0.447302 3.000000
-0.222733 -0.335907 0.289461 3.000000
0.155668 -0.159550 0.413387 3.000000
0.160497 0.298182 0.328925 3.000000
0.076950 0.182737 0.404081 3.000000
0.195600 0.442407 -0.058179 3.000000
0.252253 -0.093932 0.432915 3.000000
0.282789 0.432038 -0.112574 1.000000
0.273690 -0.017105 0.442705 3.000000
0.006499 -0.427284 0.121142 3.000000
0.223253 -0.036007 -0.445925 3.000000
-0.141824 -0.019617 0.442626 3.000000
-0.033125 0.250228 0.366414 3.000000
-0.233727 -0.395967 -0.204712 3.000000
-0.018589 -0.286581 0.338249 3.000000
0.199391 0.443579 -0.045901 3.000000
-0.056448 0.129766 0.423896 3.000000
-0.089484 0.430743 0.112764 3.000000
0.017145 -0.413053 0.163162 3.000000
-0.241917 0.348996 -0.279314 3.000000
0.209272 0.442918 -0.052899 3.000000
-0.212215 -0.418976 -0.151338 3.000000
0.018190 0.062825 0.438719 3.000000
-0.173749 -0.244691 -0.373834 3.000000
0.217621 0.416473 -0.161136 3.000000
0.108589 -0.323629 -0.307664 3.000000
-0.063814 -0.108217 -0.434075 3.000000
-0.073116 0.411406 0.169335 3.000000
-0.073623 -0.303232 0.323569 3.000000
-0.060198 0.444333 0.033569 3.000000
-0.175036 0.201974 -0.399204 3.000000
0.078591 0.445458 -0.017749 3.000000
-0.041063 -0.104706 0.430506 3.000000
-0.276328 -0.427010 -0.126439 3.000000
0.180621 0.048782 0.440460 3.000000
0.189744 0.321603 0.306362 3.000000
-0.219570 -0.249512 -0.370558 3.000000
-0.200432 0.059455 0.439253 3.000000
-0.277180 -0.017409 -0.447049 3.000000
0.230185 -0.208661 0.390921 3.000000
0.056045 -0.105231 -0.434742 3.000000
-0.054335 -0.075875 0.436490 3.000000
-0.239038 0.189120 -0.405672 3.000000
-0.114355 -0.441585 -0.056156 3.000000
-0.034694 0.435020 -0.099232 3.000000
0.243542 0.374327 0.239852 3.000000
-0.007530 0.435646 0.092077 3.000000
0.273513 0.006314 -0.447429 3.000000
0.116000 -0.417727 -0.154806 3.000000
-0.117504 -0.311665 -0.319629 3.000000
-0.166092 -0.113475 0.428331 3.000000
-0.153585 -0.356605 0.263829 3.000000
-0.103361 -0.270622 0.350963 3.000000
-0.177200 -0.261671 -0.362259 3.000000
-0.112305 0.126048 0.424976 3.000000
0.257793 -0.045622 -0.445016 3.000000
0.002625 -0.348329 0.274499 3.000000
0.153634 0.219169 0.385756 3.000000
0.184309 0.245993 -0.373646 3.000000
0.255180 -0.284993 -0.344002 3.000000
-0.265119 0.418185 0.152030 3.000000
0.148407 -0.223475 0.382604 3.000000
0.069024 0.136267 0.422007 3.000000
0.047781 0.283689 0.341622 3.000000
-0.095093 0.377489 -0.239359 3.000000
-0.116879 -0.152642 0.415874 3.000000
-0.185222 -0.034753 -0.446043 3.000000
-0.216725 0.442095 -0.060153 3.000000
-0.158365 0.399194 0.196037 3.000000
0.214027 0.406292 0.181154 3.000000
0.225839 -0.183897 0.403136 3.000000
0.068864 -0.253811 0.363282 3.000000
-0.162572 -0.421400 -0.144607 3.000000
0.143857 -0.362646 0.255533 3.000000
0.083469 -0.435715 0.087186 3.000000
-0.196669 -0.249283 -0.370713 3.000000
-0.009400 -0.435856 -0.090906 3.000000
-0.166544 0.126004 -0.429342 3.000000
-0.253207 -0.369363 -0.250002 3.000000
0.050001 -0.191418 0.399707 3.000000
-0.245109 0.440370 -0.071044 3.000000
0.014435 -0.106024 0.430212 3.000000
-0.287342 0.221852 0.384169 4.000000
0.071761 0.124496 0.425427 3.000000
-0.263220 -0.349978 -0.276726 3.000000
0.218180 0.428175 0.121603 3.000000
0.212581 0.279232 -0.349433 3.000000
-0.257300 0.024274 0.442512 3.000000
0.275576 0.299346 0.327898 3.000000
0.019600 0.265870 -0.359797 3.000000
0.087407 -0.126602 -0.428871 3.000000
0.022830 0.430124 0.114896 3.000000
-0.180484 -0.414473 -0.163847 3.000000
-0.046819 0.400748 -0.197340 3.000000
-0.074555 0.435304 0.093607 3.000000
-0.051072 0.078573 -0.440578 3.000000
-0.172039 -0.301120 0.325431 3.000000
-0.049398 -0.419490 -0.149912 3.000000
-0.128111 0.245852 -0.373742 3.000000
0.197246 -0.430213 0.111061 3.000000
-0.161482 -0.178108 -0.409994 3.000000
-0.223710 0.185738 0.402782 3.000000
0.180184 0.310628 0.317337 3.000000
0.030605 0.356373 -0.269803 3.000000
-0.090558 0.416328 -0.161541 3.000000
0.079648 -0.379350 -0.234479 3.000000
-0.252744 0.298484 -0.333012 3.000000
0.235107 0.164353 0.412027 3.000000
-0.189691 -0.421612 -0.144017 3.000000
0.286577 -0.030935 -0.446404 1.000000
0.090528 -0.381296 -0.231189 3.000000
0.157653 -0.173359 0.407696 3.000000
0.079569 -0.031350 -0.446365 3.000000
0.286276 -0.166058 0.410856 1.000000
0.188396 -0.384416 -0.225913 3.000000
0.208734 0.190603 0.400644 3.000000
-0.050853 -0.435796 -0.091176 3.000000
-0.223512 0.044643 -0.445205 3.000000
0.279879 0.419612 -0.152418 1.000000
-0.041263 0.084773 -0.439544 3.000000
0.284490 0.438991 -0.079751 1.000000
-0.161999 0.162974 0.412523 3.000000
0.016212 0.444583 0.030931 3.000000
0.204054 -0.424093 -0.136481 3.000000
0.258859 0.445826 0.001692 3.000000
0.084792 0.323737 -0.308581 3.000000
0.078199 -0.229125 0.379262 3.000000
-0.083703 0.377056 0.235738 3.000000
0.125157 0.213429 0.389014 3.000000
0.221208 0.422046 -0.145658 3.000000
0.286875 -0.041379 0.441063 1.000000
0.263567 0.137170 0.421745 3.000000
0.105145 -0.302954 0.323814 3.000000
-0.289453 0.443454 -0.047228 4.000000
-0.181569 -0.157744 -0.418391 3.000000
-0.212075 0.333548 -0.297653 3.000000
0.175517 -0.123210 0.425503 3.000000
0.192731 -0.346109 -0.281714 3.000000
0.132578 -0.329503 -0.301078 3.000000
-0.289557 0.376228 0.237055 4.000000
-0.163578 -0.222516 -0.387524 3.000000
0.110006 -0.164286 -0.415976 3.000000
-0.037394 -0.430760 -0.113533 3.000000
-0.139813 -0.242215 0.371163 3.000000
0.282964 -0.213265 -0.392928 1.000000
-0.177546 0.189723 -0.405412 3.000000
0.072546 0.441503 -0.063890 3.000000
-0.081980 0.427946 0.122393 3.000000
-0.007704 0.213856 0.388796 3.000000
0.257382 0.295334 -0.335789 3.000000
-0.170710 0.379400 -0.236127 3.000000
0.168643 -0.383003 0.223949 3.000000
-0.197748 -0.340278 0.284503 3.000000
-0.166502 -0.404016 0.184044 3.000000
-0.135144 -0.109655 -0.433753 3.000000
-0.038767 0.178715 0.405822 3.000000
0.173977 0.438491 0.078552 3.000000
-0.290064 0.391739 -0.215023 4.000000
0.269731 -0.383884 0.222460 3.000000
-0.241896 0.410713 -0.175290 3.000000
0.134687 -0.203710 0.393444 3.000000
-0.029242 0.444025 -0.041185 3.000000
-0.154916 0.438369 0.079326 3.000000
-0.068104 -0.349289 -0.277615 3.000000
0.170395 0.152898 0.416151 3.000000
-0.016940 0.080250 -0.440312 3.000000
0.048763 -0.421398 -0.144610 3.000000
0.011489 0.298718 0.328452 3.000000
-0.015207 0.424754 -0.137731 3.000000
-0.219455 -0.082830 -0.439742 3.000000
-0.289168 -0.058190 -0.443644 4.000000
-0.248766 0.380278 0.230290 3.000000
-0.094464 0.378285 0.233659 3.000000
-0.143101 0.056230 -0.444110 3.000000
0.026326 -0.289568 -0.339969 3.000000
0.032575 -0.285486 0.339214 3.000000
0.251596 0.227354 -0.385269 3.000000
0.175904 0.445898 -0.000607 3.000000
0.011461 -0.078266 0.436111 3.000000
-0.284789 -0.428529 0.116859 4.000000
-0.015897 -0.263623 0.356392 3.000000
-0.286679 0.445881 -0.004283 4.000000
-0.081800 -0.153062 0.415723 3.000000
-0.252364 -0.013752 0.442810 3.000000
-0.039704 0.418990 -0.154145 3.000000
0.077458 0.430645 0.113102 3.000000
-0.035914 -0.383442 -0.227561 3.000000
0.104258 0.362602 0.257105 3.000000
0.207400 -0.388262 0.215057 3.000000
0.219989 0.088382 0.434384 3.000000
-0.127816 0.144341 -0.423585 3.000000
0.141024 0.275411 0.348043 3.000000
-0.265842 -0.092075 -0.437683 3.000000
-0.044921 -0.412778 -0.168150 3.000000
-0.270386 -0.141673 0.419823 3.000000
0.058601 0.442510 -0.057208 3.000000
-0.264933 -0.131396 0.423124 3.000000
0.084391 0.253428 0.364240 3.000000
-0.022740 0.021330 -0.446958 3.000000
-0.229315 -0.324670 0.302206 3.000000
-0.164070 -0.293430 0.332211 3.000000
0.178274 0.276549 0.347160 3.000000
0.245237 -0.343921 -0.284535 3.000000
-0.272624 0.238978 0.374041 3.000000
0.102897 -0.388026 -0.219809 3.000000
0.236919 0.105750 -0.434855 3.000000
0.042739 0.056837 0.439667 3.000000
0.202737 -0.200827 -0.399266 3.000000
-0.013339 -0.342622 -0.286197 3.000000
-0.217977 -0.322339 0.304602 3.000000
-0.193201 0.422328 0.140522 3.000000
-0.169534 -0.102565 0.430985 3.000000
0.094524 -0.260688 0.358609 3.000000
-0.183973 -0.393225 0.205741 3.000000
0.131190 -0.428433 -0.121542 3.000000
0.231403 -0.124961 0.424994 3.000000
-0.237085 0.203409 0.394119 3.000000
-0.021844 0.416823 -0.160166 3.000000
-0.078757 0.415131 0.160511 3.000000
-0.189910 0.155877 -0.419432 3.000000
-0.244351 0.142819 -0.424133 3.000000
-0.023967 0.179084 0.405662 3.000000
0.011426 0.025896 -0.446814 3.000000
-0.110558 -0.010819 0.442902 3.000000
-0.130326 -0.218022 -0.390182 3.000000
0.198088 -0.075041 0.436622 3.000000
0.225976 -0.312586 -0.318708 3.000000
-0.125382 -0.060551 0.438917 3.000000
-0.116991 -0.174353 -0.411619 3.000000
0.227030 -0.263874 -0.360550 3.000000
0.270519 -0.239929 -0.377071 3.000000
0.136462 -0.268507 -0.356957 3.000000
0.064027 -0.437048 -0.085544 3.000000
-0.228960 -0.049110 -0.444686 3.000000
0.142950 0.350674 -0.277150 3.000000
-0.085270 -0.444775 -0.006873 3.000000
0.139082 0.422574 -0.144192 3.000000
0.179470 -0.298953 -0.331695 3.000000
-0.203750 -0.045744 -0.445004 3.000000
-0.096965 0.032661 -0.446338 3.000000
0.166410 -0.432927 -0.104012 3.000000
-0.250833 0.176463 0.406796 3.000000
0.010664 0.082316 -0.439985 3.000000
0.002464 -0.336542 0.288740 3.000000
-0.205265 0.170039 0.409576 3.000000
-0.217493 0.223625 0.383121 3.000000
-0.285781 0.445399 0.015263 4.000000
-0.167743 0.003784 -0.447509 3.000000
-0.098833 0.009580 -0.447327 3.000000
0.222131 -0.444165 -0.026290 3.000000
-0.163116 0.343230 0.282316 3.000000
-0.287128 -0.441318 -0.058586 4.000000
0.257020 -0.323917 -0.307377 3.000000
-0.110728 0.179553 0.405459 3.000000
0.070685 -0.328096 0.298321 3.000000
-0.103049 0.016342 0.442761 3.000000
-0.154574 -0.301066 -0.329832 3.000000
0.038716 0.256138 0.362398 3.000000
0.129988 0.283111 -0.346424 3.000000
-0.085854 0.033777 -0.446232 3.000000
0.152627 0.237708 0.374792 3.000000
0.239520 0.300853 0.326569 3.000000
0.016911 -0.423369 -0.138972 3.000000
-0.085085 0.354949 0.267286 3.000000
-0.150780 0.295543 0.331251 3.000000
-0.015635 0.442400 -0.058225 3.000000
-0.182746 0.380862 -0.233656 3.000000
0.155265 0.345441 0.279543 3.000000
0.286568 -0.200986 0.394831 1.000000
-0.192991 0.297937 0.329140 3.000000
0.135017 0.042554 0.441049 3.000000
-0.228461 0.356266 0.265588 3.000000
0.074772 -0.373953 -0.243248 3.000000
0.177773 0.239723 0.373553 3.000000
0.167867 0.107185 0.430181 3.000000
-0.200568 -0.336640 -0.292983 3.000000
-0.137801 0.428462 0.120617 3.000000
-0.100939 0.419034 -0.154023 3.000000
0.069041 -0.201581 -0.398882 3.000000
-0.250013 -0.429633 0.113058 3.000000
0.099379 0.020987 0.442615 3.000000
0.016980 0.172835 -0.412720 3.000000
0.009126 -0.432611 0.101073 3.000000
0.254984 0.372539 -0.246837 3.000000
-0.284987 0.080329 0.435946 4.000000
0.133801 -0.434573 0.092294 3.000000
0.025400 0.311396 0.316569 3.000000
0.138486 -0.416414 -0.158455 3.000000
-0.205745 0.246851 0.368709 3.000000
-0.286864 0.371037 -0.249047 4.000000
0.259726 -0.394320 0.203591 3.000000
0.205296 0.422805 -0.143548 3.000000
-0.190143 -0.341631 -0.287321 3.000000
-0.109362 -0.194275 -0.402604 3.000000
0.186610 0.235083 -0.380698 3.000000
0.263392 0.406433 -0.185180 3.000000
0.033755 -0.121287 0.426061 3.000000
-0.131828 -0.395155 0.201953 3.000000
0.259380 0.330334 -0.301298 3.000000
-0.255025 -0.352351 0.269314 3.000000
-0.047587 0.017093 -0.447091 3.000000
-0.087347 -0.440174 0.061456 3.000000
0.090965 0.420129 0.146628 3.000000
-0.063379 -0.398305 0.195770 3.000000
-0.215692 0.118721 -0.431458 3.000000
-0.188866 0.118483 0.427174 3.000000
-0.255707 0.119987 -0.431090 3.000000
-0.118270 0.283527 0.341748 3.000000
-0.210314 -0.337736 0.287387 3.000000
0.164777 0.023769 0.442527 3.000000
-0.073700 0.298391 -0.333093 3.000000
0.284288 -0.410696 -0.172962 1.000000
0.160047 0.125161 0.425234 3.000000
-0.251025 0.442728 0.050555 3.000000
-0.289736 0.445091 -0.029424 4.000000
-0.193303 0.426453 -0.131885 3.000000
-0.088633 0.158647 0.414081 3.000000
0.241315 0.068854 -0.442117 3.000000
0.017082 -0.293437 0.332205 3.000000
-0.132564 -0.351672 0.270190 3.000000
0.218622 -0.396496 -0.203675 3.000000
-0.274779 -0.153572 -0.419893 3.000000
0.044856 -0.404158 -0.188071 3.000000
-0.199832 0.431879 -0.113208 3.000000
-0.084430 0.390391 -0.217543 3.000000
-0.089183 -0.444378 -0.019493 3.000000
-0.205782 -0.363746 -0.258268 3.000000
0.234510 0.409604 -0.177853 3.000000
-0.166594 -0.444493 0.011479 3.000000
-0.046074 0.416059 -0.162288 3.000000
-0.051321 0.326530 0.301259 3.000000
-0.062960 -0.419934 0.144324 3.000000
0.126678 -0.345009 0.278780 3.000000
0.096503 -0.325030 -0.306152 3.000000
-0.040628 0.439894 -0.074050 3.000000
0.010449 0.318797 0.309168 3.000000
0.041588 0.426287 -0.132456 3.000000
-0.277450 -0.254271 0.362970 3.000000
-0.054086 0.424990 -0.136920 3.000000
0.212447 0.378625 -0.237438 3.000000
0.264098 -0.234237 0.376239 3.000000
0.284261 -0.444363 -0.019975 1.000000
0.093530 0.413382 -0.169123 3.000000
-0.010559 -0.080827 0.435705 3.000000
-0.080286 -0.441826 -0.053610 3.000000
-0.072788 0.228879 0.380013 3.000000
0.091688 -0.423962 -0.136930 3.000000
0.025824 -0.255941 -0.366188 3.000000
0.045284 0.273676 0.349389 3.000000
-0.205669 -0.099889 0.431583 3.000000
0.115102 0.112440 0.428929 3.000000
0.039532 0.430302 -0.118634 3.000000
0.180078 0.427055 -0.129812 3.000000
-0.161111 0.440469 0.066061 3.000000
-0.281995 -0.288548 0.336514 3.000000
0.057081 -0.045395 0.440684 3.000000
-0.120624 -0.215960 0.387048 3.000000
-0.181149 0.207865 0.391849 3.000000
-0.184048 0.442516 0.052797 3.000000
-0.065670 -0.268211 -0.357186 3.000000
-0.190021 -0.251306 0.364985 3.000000
0.274294 0.322937 -0.309382 3.000000
0.067266 0.424950 0.132703 3.000000
0.112632 0.393252 0.207699 3.000000
-0.236476 -0.171544 0.408481 3.000000
-0.200268 0.220650 0.384880 3.000000
-0.102072 0.438029 0.081417 3.000000
-0.104125 -0.245931 -0.372991 3.000000
-0.231210 0.035906 0.441677 3.000000
-0.246283 0.428671 0.119896 3.000000
0.056232 0.117666 0.427411 3.000000
0.050723 0.435390 -0.097578 3.000000
-0.104809 0.296975 0.329989 3.000000
-0.200770 0.420554 -0.149802 3.000000
-0.137930 -0.280507 -0.347649 3.000000
-0.149441 -0.433517 0.097020 3.000000
0.194183 -0.092080 0.433328 3.000000
-0.104294 -0.426018 -0.129854 3.000000
-0.276858 0.127760 0.424479 3.000000
0.197184 -0.259341 0.359524 3.000000
0.284108 0.431164 0.111315 1.000000
0.273710 0.250439 0.366271 3.000000
-0.272690 -0.002723 -0.447510 3.000000
-0.037921 0.289037 0.336987 3.000000
0.061406 -0.094546 -0.437131 3.000000
-0.246440 -0.216098 -0.391320 3.000000
0.225747 0.084033 -0.439710 3.000000
-0.005271 0.283671 0.341636 3.000000
-0.120221 0.439441 -0.076907 3.000000
-0.154181 0.309127 -0.323192 3.000000
0.014148 -0.331835 -0.298433 3.000000
0.182350 0.005069 0.443115 3.000000
0.230091 0.328008 0.299583 3.000000
-0.163365 0.319006 -0.313313 3.000000
0.200044 0.415284 0.160087 3.000000
0.247627 0.192503 -0.404029 3.000000
0.007357 0.334226 -0.296883 3.000000
-0.061433 -0.052663 0.439997 3.000000
-0.241103 -0.314293 0.312647 3.000000
-0.011397 -0.441835 -0.053516 3.000000
0.273261 -0.020413 -0.446954 3.000000
0.115611 0.134559 -0.426857 3.000000
0.159033 -0.061607 -0.443103 3.000000
0.200670 0.341974 0.283742 3.000000
0.111457 0.416334 -0.161523 3.000000
0.257280 0.445084 0.025309 3.000000
-0.102812 -0.142163 -0.424000 3.000000
0.113699 -0.367188 0.248849 3.000000
-0.019010 0.125815 0.425044 3.000000
0.232395 0.257094 -0.366101 3.000000
0.073716 0.382214 -0.231370 3.000000
0.220319 0.428264 -0.125652 3.000000
-0.087215 0.123706 -0.430010 3.000000
-0.051240 0.151240 0.416748 3.000000
0.255685 0.340900 -0.289313 3.000000
0.245194 0.217014 0.387031 3.000000
-0.288514 -0.124856 -0.429378 4.000000
-0.003431 -0.293228 0.332389 3.000000
0.187559 -0.388171 0.215210 3.000000
0.132510 -0.305285 -0.326009 3.000000
0.029621 -0.194013 -0.402738 3.000000
0.175160 -0.381265 -0.231242 3.000000
0.046140 0.387670 0.217791 3.000000
-0.078677 -0.253275 -0.368000 3.000000
-0.142082 -0.431416 0.106419 3.000000
0.154073 0.359435 0.261502 3.000000
-0.247407 -0.127467 0.424266 3.000000
0.139597 0.434675 0.096421 3.000000
0.152483 0.299953 -0.331717 3.000000
0.257988 -0.190806 0.400019 3.000000
0.251219 0.298862 0.328325 3.000000
0.006508 0.147030 -0.422617 3.000000
-0.150904 0.391403 0.211329 3.000000
-0.026456 -0.139653 -0.424904 3.000000
-0.221373 0.097153 -0.436777 3.000000
0.049823 -0.016910 0.442711 3.000000
0.023698 -0.334197 -0.295754 3.000000
-0.090405 0.126166 0.424942 3.000000
0.151433 -0.269727 0.351657 3.000000
0.159613 0.402303 0.189936 3.000000
-0.239634 0.231831 0.378267 3.000000
0.145981 0.194679 0.398567 3.000000
0.092317 0.390551 -0.217272 3.000000
-0.100024 0.424559 0.134049 3.000000
0.168171 -0.174366 0.407260 3.000000
0.197518 -0.009481 -0.447298 3.000000
-0.104544 -0.380864 0.227566 3.000000
-0.032399 -0.237126 0.374530 3.000000
-0.129234 -0.344109 -0.284293 3.000000
0.131282 0.443210 0.045448 3.000000
0.063958 0.018272 -0.447054 3.000000
0.112494 0.018918 -0.447033 3.000000
0.045307 -0.441600 -0.055998 3.000000
-0.239586 -0.185681 -0.406717 3.000000
-0.166097 -0.262541 -0.361585 3.000000
0.010800 0.167002 0.410890 3.000000
-0.035798 0.397235 -0.204235 3.000000
0.230442 -0.209826 -0.394681 3.000000
-0.001315 0.376083 -0.241622 3.000000
0.183621 -0.297968 0.328209 3.000000
-0.127302 0.134858 0.422416 3.000000
-0.262010 -0.102945 -0.435253 3.000000
-0.072336 -0.422578 0.136980 3.000000
0.094837 0.286699 0.339049 3.000000
-0.142512 -0.051053 0.440149 3.000000
0.047209 -0.245499 -0.373285 3.000000
-0.166515 0.136566 -0.426274 3.000000
0.144991 0.404781 -0.188998 3.000000
0.171326 -0.023730 0.442496 3.000000
0.209396 0.334871 0.291798 3.000000
-0.132120 0.397093 0.200162 3.000000
-0.068457 0.445429 -0.018673 3.000000
-0.102538 0.125905 0.425018 3.000000
0.125831 -0.173906 -0.411813 3.000000
-0.148789 -0.137469 0.421337 3.000000
0.123445 0.005381 0.443105 3.000000
0.195144 -0.444075 -0.029143 3.000000
0.060180 0.354304 0.268118 3.000000
0.278362 0.014827 -0.447162 1.000000
-0.181719 0.241120 -0.376958 3.000000
-0.070104 0.430604 0.113241 3.000000
-0.244559 -0.133387 -0.426900 3.000000
-0.119641 0.309213 -0.323105 3.000000
0.037510 -0.337891 0.287210 3.000000
0.068652 0.007817 -0.447382 3.000000
0.024556 -0.311686 0.315254 3.000000
-0.254079 0.098121 0.432207 3.000000
-0.279987 -0.440739 0.057887 3.000000
-0.160178 0.436594 0.087835 3.000000
-0.070607 -0.094351 0.432821 3.000000
-0.172883 -0.441667 0.050940 3.000000
-0.256566 -0.212901 -0.393114 3.000000
-0.192499 0.410353 0.171769 3.000000
0.063323 0.100160 0.431751 3.000000
0.228016 0.108926 0.429792 3.000000
-0.108595 0.284380 -0.345439 3.000000
0.101809 0.263242 -0.361836 3.000000
0.114677 -0.067843 0.437762 3.000000
0.262256 0.120541 -0.430929 3.000000
-0.177625 -0.345494 -0.282508 3.000000
0.192866 0.301204 0.326261 3.000000
0.087550 0.133563 -0.427146 3.000000
-0.099169 -0.407198 0.176692 3.000000
0.003977 0.290217 0.335946 3.000000
-0.084493 -0.115132 -0.432203 3.000000
0.039967 0.265888 -0.359783 3.000000
-0.136255 -0.234555 -0.380404 3.000000
0.083391 0.035652 -0.446055 3.000000
0.217891 0.323587 -0.308732 3.000000
-0.177789 -0.142438 0.419548 3.000000
0.163041 0.346094 -0.283055 3.000000
-0.000149 0.356842 0.264845 3.000000
-0.128922 -0.272546 0.349471 3.000000
-0.070630 0.220010 0.385259 3.000000
-0.061286 0.338480 -0.292058 3.000000
0.221003 0.424736 0.133440 3.000000
-0.008321 -0.187702 -0.405843 3.000000
0.099828 0.432250 0.107272 3.000000
0.031071 -0.216521 0.386716 3.000000
-0.168432 0.429557 0.116845 3.000000
-0.027041 -0.358622 -0.265583 3.000000
0.059026 0.137096 0.421766 3.000000
-0.045033 0.055636 0.439812 3.000000
-0.047914 -0.260319 0.358859 3.000000
0.261138 -0.140665 0.420186 3.000000
0.244684 0.154280 0.415654 3.000000
0.169275 0.272141 0.350580 3.000000
-0.255947 0.172468 -0.412878 3.000000
0.068826 0.412015 -0.172282 3.000000
-0.275285 -0.183007 0.403521 3.000000
-0.178246 0.011260 0.442921 3.000000
0.234506 0.418469 0.151241 3.000000
0.007710 0.426448 0.127547 3.000000
0.250202 -0.439803 -0.068155 3.000000
-0.070787 0.112687 0.428858 3.000000
0.224965 0.369903 -0.250716 3.000000
-0.242574 0.319133 -0.313186 3.000000
0.281159 -0.268998 0.352223 3.000000
0.270588 -0.243109 0.370556 3.000000
0.172872 -0.265462 0.354966 3.000000
-0.016551 0.057053 0.439633 3.000000
0.088859 -0.126225 0.424627 3.000000
0.177306 0.119803 -0.431143 3.000000
0.232167 -0.383535 0.223050 3.000000
-0.248598 0.343344 -0.286541 3.000000
0.022085 0.412068 0.167807 3.000000
0.079918 -0.442233 0.044948 3.000000
0.001220 -0.236757 0.374748 3.000000
0.227519 0.444235 0.034611 3.000000
-0.057019 -0.272902 -0.353548 3.000000
0.156145 -0.360381 0.258865 3.000000
-0.123805 -0.135124 0.422041 3.000000
-0.229084 0.427750 0.123067 3.000000
-0.244723 -0.327914 0.298527 3.000000
0.249538 0.078580 0.436224 3.000000
-0.202242 0.010038 -0.447312 3.000000
0.203377 -0.368279 -0.251597 3.000000
-0.194754 -0.212380 0.389026 3.000000
0.083182 0.442934 0.048370 3.000000
0.042268 -0.097828 -0.436397 3.000000
0.174950 -0.436360 0.084299 3.000000
0.010072 0.327014 -0.305064 3.000000
0.286916 -0.375589 -0.240838 1.000000
-0.121862 -0.392084 0.207980 3.000000
-0.120974 0.275643 -0.352216 3.000000
-0.161906 0.245527 -0.373962 3.000000
-0.105479 -0.194487 0.398143 3.000000
0.242495 -0.435503 -0.092488 3.000000
-0.056878 -0.242996 0.370632 3.000000
-0.138685 0.319741 -0.312577 3.000000
0.233640 -0.195723 -0.401866 3.000000
0.048852 -0.051289 0.440127 3.000000
0.248688 -0.338468 0.286556 3.000000
-0.157076 0.182015 -0.408747 3.000000
-0.055202 0.104705 -0.435089 3.000000
0.239787 -0.444091 -0.028627 3.000000
0.177146 0.020887 0.442618 3.000000
0.201532 -0.229624 -0.383320 3.000000
-0.036075 0.229021 0.379929 3.000000
-0.235406 -0.419528 -0.149805 3.000000
-0.090445 0.331412 -0.300075 3.000000
-0.131490 -0.442069 0.046686 3.000000
-0.228419 -0.271561 0.350235 3.000000
0.254255 0.278512 -0.349991 3.000000
-0.218578 0.412582 0.166618 3.000000
0.062428 -0.301621 -0.329343 3.000000
-0.209820 -0.033982 0.441763 3.000000
-0.256267 -0.373350 0.239783 3.000000
0.227802 -0.440769 -0.062055 3.000000
-0.230499 -0.368060 -0.251920 3.000000
-0.151319 -0.364884 0.252239 3.000000
0.252225 0.435503 -0.097070 3.000000
-0.012473 0.445824 0.001743 3.000000
0.241390 0.118850 0.427067 3.000000
-0.213553 0.273075 -0.354208 3.000000
-0.120268 -0.019940 0.442616 3.000000
-0.069234 0.201325 0.395181 3.000000
0.021076 0.089429 0.434150 3.000000
-0.049647 0.342330 0.283338 3.000000
-0.174278 0.445934 -0.001763 3.000000
0.063218 -0.150380 -0.421042 3.000000
-0.056310 0.405759 -0.186738 3.000000
0.204216 0.365266 -0.257539 3.000000
-0.170466 -0.396203 -0.204250 3.000000
-0.260648 -0.158201 0.413873 3.000000
0.068446 0.019036 0.442676 3.000000
-0.247554 -0.001674 0.443190 3.000000
0.116380 0.155753 0.415123 3.000000
0.022662 0.436596 -0.092182 3.000000
0.015227 -0.232728 0.377131 3.000000
0.213497 -0.371343 0.242734 3.000000
-0.224186 -0.444163 0.022002 3.000000
0.165822 0.135871 -0.426475 3.000000
-0.132869 0.375594 -0.242342 3.000000
-0.269956 0.345075 -0.284369 3.000000
0.082123 0.340934 0.284922 3.000000
-0.000372 0.428297 -0.125536 3.000000
0.188696 -0.172924 -0.412238 3.000000
0.168520 -0.113788 0.428240 3.000000
-0.081304 0.225152 -0.386571 3.000000
0.078265 0.439997 -0.073396 3.000000
-0.146536 -0.233237 -0.381184 3.000000
-0.261037 -0.438456 0.072306 3.000000
-0.084893 0.389242 0.215132 3.000000
-0.025974 -0.166431 0.410694 3.000000
0.151585 -0.331450 0.294516 3.000000
-0.247739 -0.444117 0.023445 3.000000
-0.283236 -0.433540 0.096916 4.000000
0.132177 0.107207 0.430176 3.000000
0.132622 0.445179 -0.026626 3.000000
-0.040927 0.210836 0.390335 3.000000
0.132182 -0.430965 0.108434 3.000000
-0.144611 0.428149 -0.126045 3.000000
0.100403 -0.095516 -0.436914 3.000000
-0.039327 0.326595 0.301186 3.000000
0.212531 -0.345718 -0.282218 3.000000
0.121967 -0.128895 0.423851 3.000000
-0.115806 -0.242700 -0.375187 3.000000
-0.060761 0.405746 0.182416 3.000000
0.189373 0.182779 -0.408417 3.000000
-0.168842 -0.364634 -0.256960 3.000000
-0.010506 -0.369693 0.245163 3.000000
-0.087402 0.170602 0.409332 3.000000
0.131449 0.297863 -0.333560 3.000000
-0.089296 0.305994 -0.326324 3.000000
-0.149696 0.233755 0.377130 3.000000
0.015696 0.236899 0.375270 3.000000
0.182649 -0.057788 0.439354 3.000000
0.138907 -0.375683 -0.240680 3.000000
-0.239378 0.116898 -0.431988 3.000000
0.090165 -0.361587 -0.261443 3.000000
0.098580 -0.443090 -0.040238 3.000000
0.286470 0.089871 0.434051 1.000000
0.096697 -0.173757 -0.411877 3.000000
0.022000 0.126008 -0.429341 3.000000
0.147992 -0.111202 -0.433345 3.000000
0.217611 0.071772 -0.441655 3.000000
-0.274389 -0.243153 -0.374879 3.000000
-0.101995 -0.432114 0.103293 3.000000
0.082579 -0.313005 0.313935 3.000000
0.006832 0.098081 0.432216 3.000000
0.214383 0.419274 0.149002 3.000000
-0.000353 -0.444186 0.021253 3.000000
-0.289622 -0.316277 -0.315017 4.000000
-0.116933 -0.366774 -0.253812 3.000000
0.251134 -0.150501 0.416645 3.000000
0.246363 -0.265633 0.354833 3.000000
0.223491 -0.267095 0.353699 3.000000
0.256908 -0.280166 0.343560 3.000000
0.260473 0.205352 0.393129 3.000000
-0.213699 0.278180 0.345895 3.000000
0.203211 0.006446 0.443072 3.000000
-0.112958 -0.121266 -0.430421 3.000000
0.197510 -0.443042 -0.040738 3.000000
-0.000198 -0.097863 -0.436389 3.000000
0.205648 -0.362026 -0.260798 3.000000
0.052388 -0.443668 -0.034121 3.000000
0.010111 0.442072 -0.060300 3.000000
-0.267728 -0.109926 0.429339 3.000000
0.117060 -0.444620 -0.011818 3.000000
-0.046085 -0.045519 -0.445025 3.000000
0.067603 -0.074148 -0.441117 3.000000
0.061483 -0.406996 -0.181512 3.000000
-0.273385 -0.152782 0.415824 3.000000
-0.279899 -0.418001 0.149692 3.000000
-0.173569 -0.359551 -0.264385 3.000000
0.185754 -0.441787 -0.054018 3.000000
-0.067725 0.054863 0.439886 3.000000
0.085337 0.441505 -0.063880 3.000000
0.228756 0.411881 0.168239 3.000000
-0.259360 0.302425 0.325184 3.000000
0.031066 0.355389 0.266718 3.000000
0.140496 -0.102521 -0.435348 3.000000
-0.130376 0.255968 0.362513 3.000000
-0.246775 -0.403124 0.186107 3.000000
-0.033332 0.429999 0.115327 3.000000
-0.240859 0.128444 -0.428633 3.000000
-0.279510 -0.382155 -0.229736 4.000000
-0.000341 0.341204 -0.288968 3.000000
0.224573 -0.398866 0.194671 3.000000
-0.212828 -0.032260 -0.446279 3.000000
-0.199852 0.443722 0.040032 3.000000
-0.099234 -0.444551 -0.013997 3.000000
0.248228 0.326340 0.301475 3.000000
0.129541 0.225603 -0.386304 3.000000
-0.006726 0.398991 0.196436 3.000000
-0.290147 0.044378 0.440877 4.000000
0.243209 0.440528 -0.070042 3.000000
-0.235672 0.349964 0.273713 3.000000
-0.177302 0.444932 -0.031588 3.000000
-0.237636 -0.295325 0.330540 3.000000
-0.245730 -0.439638 0.064841 3.000000
0.061119 -0.272411 -0.353929 3.000000
-0.026784 0.374511 -0.243934 3.000000
0.108812 0.200669 0.395515 3.000000
0.121856 0.253829 0.363967 3.000000
-0.204146 -0.439367 0.066554 3.000000
0.100532 -0.158641 0.413714 3.000000
0.078954 0.351699 -0.275829 3.000000
0.286756 -0.013048 0.442832 1.000000
-0.284203 -0.029978 -0.446495 4.000000
-0.256514 0.159160 -0.418250 3.000000
-0.253537 -0.444417 -0.018253 3.000000
-0.287414 -0.130875 0.423276 4.000000
0.251114 0.026169 -0.446805 3.000000
0.256566 0.340465 0.285453 3.000000
0.048987 -0.087452 -0.438716 3.000000
-0.166965 0.391699 -0.215101 3.000000
-0.073273 0.090997 -0.438153 3.000000
0.220744 0.435394 -0.097561 3.000000
-0.128648 -0.105025 0.430435 3.000000
-0.279838 0.072264 -0.441577 4.000000
-0.120413 0.442823 -0.053901 3.000000
-0.018383 0.381077 -0.233292 3.000000
0.223903 -0.150667 -0.420939 3.000000
-0.092877 -0.026726 0.442402 3.000000
-0.096129 0.396441 0.201440 3.000000
0.082963 -0.224583 -0.386302 3.000000
-0.240580 -0.422665 0.136739 3.000000
0.087670 -0.306621 -0.324672 3.000000
0.212793 -0.027414 0.442381 3.000000
-0.055171 0.222927 -0.387887 3.000000
0.200545 -0.441988 -0.051887 3.000000
0.064555 -0.443769 -0.033054 3.000000
0.053362 -0.357949 0.262097 3.000000
-0.201259 -0.205661 0.392449 3.000000
0.220713 -0.410679 -0.173001 3.000000
-0.069510 -0.184690 0.402793 3.000000
-0.264854 -0.205780 0.392389 3.000000
0.006485 -0.284350 0.340216 3.000000
-0.021705 -0.370197 0.244421 3.000000
-0.202967 0.414587 -0.166337 3.000000
-0.130335 0.210909 0.390297 3.000000
0.124104 0.256565 -0.366461 3.000000
0.211863 0.050809 -0.444622 3.000000
-0.247526 0.443226 -0.049632 3.000000
-0.227446 0.224449 0.382633 3.000000
-0.169894 -0.432023 0.103704 3.000000
0.093074 0.208956 0.391293 3.000000
-0.257546 0.013233 0.442859 3.000000
-0.265065 -0.444613 0.007672 3.000000
0.136058 -0.381264 0.226890 3.000000
-0.120795 0.445920 -0.001293 3.000000
-0.275664 0.438883 -0.080434 3.000000
0.056366 -0.206736 -0.396255 3.000000
0.231399 0.437019 0.085938 3.000000
-0.110649 0.264859 -0.360582 3.000000
0.045478 -0.229578 0.378994 3.000000
-0.135803 0.189573 -0.405476 3.000000
-0.009463 0.131943 -0.427617 3.000000
-0.092010 0.292109 0.334279 3.000000
-0.163766 0.403484 0.187618 3.000000
0.267122 0.372863 -0.246359 3.000000
0.081732 -0.424122 -0.136379 3.000000
0.140678 0.338472 0.287714 3.000000
0.036340 -0.243411 -0.374704 3.000000
-0.014216 0.323069 -0.309249 3.000000
-0.243605 0.403561 -0.191818 3.000000
-0.153024 -0.442289 -0.048712 3.000000
-0.073645 0.235376 -0.380525 3.000000
0.024564 -0.393575 0.205055 3.000000
0.167573 0.342482 0.283165 3.000000
0.215375 -0.148749 0.417276 3.000000
-0.044282 0.434932 0.095273 3.000000
0.039808 -0.350272 -0.276348 3.000000
-0.008772 0.054866 -0.444239 3.000000
-0.025012 0.401623 -0.195623 3.000000
-0.222791 0.091113 0.433774 3.000000
-0.130913 0.329905 0.297431 3.000000
-0.167013 -0.443167 -0.039422 3.000000
-0.123476 0.265521 0.355714 3.000000
-0.010795 -0.442896 -0.042283 3.000000
0.199850 0.438065 -0.085598 3.000000
-0.200895 0.361687 -0.262805 3.000000
0.155011 -0.317545 -0.313748 3.000000
-0.165679 -0.339005 -0.290300 3.000000
-0.081583 0.437806 0.082417 3.000000
-0.139673 0.154636 0.415525 3.000000
0.235704 -0.116193 -0.431895 3.000000
0.156903 -0.316804 0.310136 3.000000
-0.204071 -0.390079 0.211915 3.000000
0.169577 0.301160 0.326299 3.000000
-0.154445 0.377111 -0.239998 3.000000
0.157586 0.441477 -0.064053 3.000000
-0.228452 -0.054608 0.439813 3.000000
-0.100965 0.138355 -0.425740 3.000000
-0.237622 0.165212 0.411665 3.000000
-0.263763 -0.007052 -0.447374 3.000000
0.073561 0.437265 -0.089188 3.000000
-0.123596 -0.286433 0.338380 3.000000
0.228724 0.183868 0.403592 3.000000
-0.226870 -0.258628 -0.364362 3.000000
0.276275 -0.374278 0.238416 3.000000
0.016109 0.384010 0.223979 3.000000
0.277876 -0.207362 0.391583 3.000000
-0.245951 -0.206068 -0.396596 3.000000
0.029636 0.420872 -0.148918 3.000000
0.111351 0.247563 0.368225 3.000000
-0.202321 -0.054083 0.439862 3.000000
0.140489 0.381468 -0.232631 3.000000
-0.175835 -0.211112 0.389672 3.000000
-0.247682 0.445040 -0.030451 3.000000
-0.216111 -0.408941 -0.177018 3.000000
0.255991 0.430973 -0.116325 3.000000
-0.076076 -0.293120 0.332484 3.000000
0.215782 0.065689 0.438265 3.000000
0.247596 -0.284330 0.340234 3.000000
0.185960 0.411755 0.168530 3.000000
0.132896 0.279996 0.344487 3.000000
-0.186371 0.135776 0.422150 3.000000
0.063551 0.437616 -0.087617 3.000000
-0.151462 -0.190550 0.400149 3.000000
-0.201693 0.197947 0.396902 3.000000
-0.172692 0.162515 0.412689 3.000000
-0.031173 -0.043586 -0.445208 3.000000
0.120980 0.330952 0.296244 3.000000
0.106014 -0.286502 0.338319 3.000000
0.201152 -0.408139 -0.178870 3.000000
-0.168265 0.052681 0.440092 3.000000
0.075259 -0.158307 -0.418188 3.000000
-0.178851 -0.406644 0.177971 3.000000
-0.287491 -0.411803 -0.170402 4.000000
0.153082 -0.442935 0.037518 3.000000
-0.222399 0.444413 0.032729 3.000000
0.043737 -0.379153 0.230459 3.000000
-0.038120 0.440705 0.064572 3.000000
-0.057662 -0.346125 0.277341 3.000000
-0.119495 -0.397164 -0.202364 3.000000
-0.152523 -0.103308 -0.435172 3.000000
-0.171589 -0.444047 -0.030025 3.000000
0.016906 0.416181 0.157596 3.000000
-0.006260 -0.437196 0.080259 3.000000
0.130184 0.363045 -0.260807 3.000000
0.229988 -0.438285 0.073382 3.000000
0.039212 0.201427 0.395129 3.000000
-0.120041 0.445667 -0.011091 3.000000
0.022272 -0.119444 -0.430950 3.000000
-0.225071 -0.086735 0.434523 3.000000
0.224414 -0.288591 -0.340830 3.000000
0.193254 0.336012 0.290504 3.000000
0.199967 -0.286120 -0.343009 3.000000
0.189139 -0.034265 -0.446089 3.000000
-0.079775 -0.250120 0.365791 3.000000
0.242563 0.339356 0.286711 3.000000
-0.208953 -0.262258 0.357451 3.000000
-0.042957 0.429176 0.118159 3.000000
0.147015 -0.395124 -0.206367 3.000000
-0.115859 -0.293444 -0.336551 3.000000
-0.064631 0.074952 -0.441151 3.000000
0.280799 0.051231 0.440229 3.000000
-0.034918 -0.369325 0.245705 3.000000
0.284303 -0.333602 0.292075 1.000000
-0.102317 -0.234544 -0.380410 3.000000
-0.250593 -0.256273 0.361609 3.000000
0.210225 -0.071703 0.437151 3.000000
0.152160 -0.376258 -0.239708 3.000000
0.147712 -0.444459 0.012573 3.000000
0.225670 0.403567 -0.191803 3.000000
0.097912 0.132915 -0.427334 3.000000
-0.008103 -0.279588 -0.348361 3.000000
-0.163484 0.084763 0.435193 3.000000
-0.213692 -0.336268 -0.293405 3.000000
-0.132765 0.062696 -0.443093 3.000000
-0.023388 -0.262897 -0.361308 3.000000
-0.011867 -0.386216 -0.222870 3.000000
-0.142740 -0.071706 0.437150 3.000000
-0.220078 -0.234134 0.376300 3.000000
-0.280422 -0.171492 0.408504 3.000000
-0.149432 -0.380513 -0.232513 3.000000
-0.126721 -0.367028 0.249085 3.000000
0.273518 0.122893 0.425893 3.000000
0.159858 -0.175809 -0.410989 3.000000
-0.189773 -0.220257 0.384506 3.000000
-0.200257 0.388883 0.215740 3.000000
-0.107836 0.054716 0.439899 3.000000
0.212987 -0.214674 0.387808 3.000000
0.104077 -0.441351 -0.058381 3.000000
0.073907 0.341330 -0.288826 3.000000
0.142978 -0.305283 0.321657 3.000000
0.223263 -0.092043 -0.437690 3.000000
0.009106 -0.435922 0.086260 3.000000
0.189894 -0.070370 -0.441715 3.000000
0.112647 0.106069 -0.434784 3.000000
-0.159804 -0.343191 0.281123 3.000000
0.284911 -0.318564 -0.312729 1.000000
0.085208 -0.427122 -0.126056 3.000000
0.064933 0.421790 0.142015 3.000000
-0.237888 0.445451 -0.017967 3.000000
-0.096197 0.353316 0.269391 3.000000
-0.091546 -0.247073 0.367862 3.000000
0.143164 0.431891 -0.113167 3.000000
-0.053856 0.271962 -0.355072 3.000000
0.011831 -0.015984 -0.447093 3.000000
0.071606 0.238260 0.374466 3.000000
0.270625 0.444843 -0.032530 3.000000
0.239176 0.231519 0.378452 3.000000
-0.286730 -0.175866 -0.410964 4.000000
0.156766 -0.237526 -0.378647 3.000000
-0.261677 0.105228 -0.434972 3.000000
0.202629 0.064130 0.438512 3.000000
0.211149 -0.390677 -0.215095 3.000000
-0.135837 -0.167653 0.410165 3.000000
0.106465 -0.257542 -0.365101 3.000000
-0.094705 0.428027 0.122112 3.000000
-0.191253 -0.432083 -0.107788 3.000000
0.061645 -0.305061 0.321879 3.000000
-0.273692 -0.409427 0.171541 3.000000
-0.062999 -0.212749 -0.393192 3.000000
0.174079 0.417970 -0.156979 3.000000
-0.184236 0.441064 -0.066660 3.000000
0.151257 0.175041 -0.411765 3.000000
0.273752 0.423373 -0.141973 3.000000
-0.043479 0.123142 -0.430174 3.000000
-0.273283 -0.231698 0.377740 3.000000
-0.205887 -0.265223 -0.359504 3.000000
0.156258 0.369241 -0.251689 3.000000
-0.023900 -0.202147 0.394240 3.000000
0.063544 0.079261 0.436116 3.000000
0.087035 -0.337511 0.287642 3.000000
0.001795 0.346604 0.278044 3.000000
-0.073157 -0.147170 0.417844 3.000000
0.182004 0.435349 -0.097762 3.000000
0.022701 0.388344 0.216651 3.000000
0.247401 0.244192 0.370516 3.000000
0.154324 0.310019 -0.322300 3.000000
-0.177534 -0.052685 0.439995 3.000000
-0.258574 -0.429527 -0.117778 3.000000
0.037758 -0.432339 0.102291 3.000000
0.193784 -0.335649 0.289754 3.000000
0.230263 0.306061 0.321904 3.000000
-0.135623 0.176354 0.406844 3.000000
0.159058 -0.402886 -0.191010 3.000000
-0.062399 0.046018 0.440722 3.000000
0.014605 0.445869 0.000318 3.000000
-0.065090 -0.402802 0.186850 3.000000
-0.026826 -0.165993 -0.415237 3.000000
-0.109319 0.375889 0.237554 3.000000
0.065365 0.115498 -0.432394 3.000000
-0.125435 0.247095 0.368543 3.000000
-0.265257 0.317141 0.310824 3.000000
-0.219388 -0.216451 -0.391111 3.000000
-0.131948 0.413930 -0.167856 3.000000
0.251683 -0.053166 -0.444302 3.000000
0.076969 0.097102 0.432435 3.000000
-0.002457 0.267203 -0.358763 3.000000
0.010360 -0.038166 0.441367 3.000000
0.026540 -0.204670 -0.397308 3.000000
0.153798 -0.228229 -0.384145 3.000000
-0.198834 0.096479 -0.436928 3.000000
-0.099417 0.420677 0.145108 3.000000
0.205178 -0.346749 0.276536 3.000000
0.108552 0.319529 0.308436 3.000000
-0.288700 0.442402 0.053857 4.000000
0.005513 0.191047 -0.404771 3.000000
-0.000623 -0.378034 0.232352 3.000000
0.071030 -0.262881 0.356967 3.000000
0.059342 -0.385089 -0.224775 3.000000
0.259701 0.315285 -0.317034 3.000000
0.262486 0.307239 -0.325079 3.000000
0.188344 0.443101 -0.050959 3.000000
-0.239971 -0.197110 -0.401160 3.000000
-0.268098 0.031799 -0.446419 3.000000
0.219587 0.445879 -0.004353 3.000000
0.137925 0.127183 0.424646 3.000000
-0.132270 -0.428668 0.116380 3.000000
0.214992 -0.438493 -0.076425 3.000000
-0.170093 0.441562 -0.063515 3.000000
-0.074672 -0.264819 -0.359817 3.000000
0.186096 -0.444829 -0.005152 3.000000
-0.169659 -0.319470 -0.311824 3.000000
-0.071381 0.191338 0.400269 3.000000
0.072629 -0.443554 0.030968 3.000000
-0.180045 0.342761 -0.287203 3.000000
-0.056736 0.431402 0.110495 3.000000
-0.108858 0.374468 -0.243998 3.000000
0.194071 -0.006230 0.443046 3.000000
-0.160740 0.445832 0.001491 3.000000
-0.077372 0.038386 0.441443 3.000000
0.098135 -0.437951 -0.079846 3.000000
0.103290 -0.197895 0.396406 3.000000
0.276437 -0.388221 0.215125 3.000000
-0.258264 -0.223694 0.382474 3.000000
0.256638 0.371611 0.243848 3.000000
-0.106535 -0.306317 0.320623 3.000000
0.261353 -0.080221 -0.440155 3.000000
-0.025867 0.324650 -0.307668 3.000000
-0.073924 0.267270 0.354358 3.000000
0.251819 -0.274833 -0.352050 3.000000
-0.107292 -0.251456 0.364883 3.000000
0.105910 -0.200560 -0.399402 3.000000
-0.105383 -0.045025 -0.445072 3.000000
-0.275954 0.191075 0.400403 3.000000
0.033949 -0.400948 -0.194938 3.000000
-0.189927 -0.047166 0.440516 3.000000
-0.290258 0.269398 0.352707 4.000000
-0.070234 0.313001 0.314965 3.000000
0.144406 -0.165613 0.411048 3.000000
0.122851 0.195685 0.398055 3.000000
0.111250 -0.101562 -0.435562 3.000000
0.064887 0.198771 -0.400835 3.000000
-0.015661 0.167467 -0.415043 3.000000
0.127643 0.445936 -0.002544 3.000000
-0.133922 -0.384120 0.222060 3.000000
-0.061748 0.355737 0.266270 3.000000
-0.174042 -0.443794 0.028433 3.000000
0.035420 -0.424844 -0.133895 3.000000
-0.110605 0.098656 0.432088 3.000000
0.078248 -0.042712 -0.445291 3.000000
0.019548 -0.435056 0.090132 3.000000
0.077599 -0.431430 -0.110708 3.000000
-0.085962 -0.101947 0.431123 3.000000
0.243309 0.267253 0.354371 3.000000
-0.263958 0.245527 -0.373962 3.000000
0.258680 0.240231 -0.377561 3.000000
0.248020 -0.443492 0.031632 3.000000
-0.055042 -0.201979 0.394325 3.000000
-0.101383 0.062499 -0.443124 3.000000
0.232853 -0.345153 -0.282947 3.000000
-0.073869 -0.406075 0.179287 3.000000
-0.002263 0.400619 -0.197595 3.000000
0.090720 -0.256672 -0.365692 3.000000
0.107710 -0.154727 -0.419477 3.000000
0.062488 0.104660 -0.435099 3.000000
0.117124 -0.337858 0.287248 3.000000
-0.219256 0.361208 0.259157 3.000000
-0.002969 0.445596 -0.013344 3.000000
-0.223804 -0.213574 0.388418 3.000000
0.145090 -0.188322 0.401221 3.000000
-0.167921 -0.158966 -0.417951 3.000000
0.255659 -0.299191 0.327131 3.000000
0.048032 0.359562 -0.265692 3.000000
-0.257010 -0.230118 -0.383028 3.000000
0.176966 -0.436609 -0.087538 3.000000
-0.242366 0.423132 0.138288 3.000000
-0.074918 -0.443712 -0.033657 3.000000
0.105314 -0.342717 0.281734 3.000000
-0.272832 -0.305662 -0.325632 3.000000
-0.117026 -0.190366 0.400243 3.000000
-0.164436 -0.432942 -0.103945 3.000000
-0.071811 -0.124969 -0.429345 3.000000
-0.055385 0.332254 -0.299120 3.000000
-0.114749 -0.404003 -0.188427 3.000000
0.130984 -0.006648 -0.447387 3.000000
0.168314 -0.322193 -0.309101 3.000000
-0.284674 -0.250608 -0.369813 4.000000
-0.058773 0.122353 -0.430403 3.000000
0.234582 -0.406501 -0.182656 3.000000
0.096613 0.106743 0.430280 3.000000
-0.221063 0.432573 -0.110181 3.000000
0.264562 -0.247914 -0.371644 3.000000
0.251049 0.261979 -0.362781 3.000000
-0.191610 0.204276 0.393677 3.000000
0.040436 -0.225128 -0.385979 3.000000
0.119472 -0.361605 -0.261418 3.000000
0.283937 -0.140079 0.420397 3.000000
-0.267451 0.438729 0.077049 3.000000
-0.030231 -0.004967 -0.447440 3.000000
-0.287710 0.394657 0.204942 4.000000
-0.116648 0.361741 -0.262726 3.000000
0.049631 0.393845 -0.210888 3.000000
-0.086390 0.445607 0.008663 3.000000
0.188353 -0.444323 -0.021247 3.000000
-0.105372 0.426853 0.126153 3.000000
0.053304 0.229885 -0.383772 3.000000
-0.063627 -0.209966 0.390256 3.000000
-0.273363 0.394534 -0.209537 3.000000
0.285746 -0.430857 -0.113198 1.000000
-0.102812 -0.156041 -0.419004 3.000000
0.027607 -0.146147 0.418212 3.000000
-0.038177 -0.012894 0.442837 3.000000
0.264979 -0.410758 -0.172819 3.000000
0.234286 -0.235166 0.375690 3.000000
0.020164 -0.435572 -0.092177 3.000000
0.249643 -0.027322 -0.446737 3.000000
0.185106 -0.432111 0.103308 3.000000
0.231252 -0.444484 -0.016119 3.000000
-0.076599 0.137525 -0.425995 3.000000
-0.039089 0.445669 0.006697 3.000000
-0.007621 0.427848 0.122729 3.000000
-0.053282 -0.307888 0.319052 3.000000
0.000494 0.440797 -0.068348 3.000000
0.276908 0.428941 -0.123321 3.000000
-0.190863 0.368443 0.248510 3.000000
-0.109463 -0.322568 -0.308726 3.000000
