-0.174870 0.134360 -0.426915 3.000000
-0.288079 0.278293 -0.350161 4.000000
-0.146365 -0.437760 -0.081050 3.000000
-0.170017 -0.290651 0.334660 3.000000
-0.162287 -0.420581 -0.146881 3.000000
0.059133 0.048305 -0.444859 3.000000
-0.251004 -0.405529 -0.184901 3.000000
-0.073022 0.024325 -0.446863 3.000000
-0.125273 0.352530 0.270405 3.000000
0.247347 -0.435222 -0.093744 3.000000
0.270390 0.374633 0.239403 3.000000
0.092993 -0.444696 -0.009373 3.000000
-0.165168 0.419302 -0.153279 3.000000
0.115528 0.445347 -0.021286 3.000000
-0.039431 0.225115 0.382239 3.000000
-0.183203 -0.115080 -0.432218 3.000000
-0.028280 0.358760 -0.266726 3.000000
-0.215874 -0.413929 -0.165357 3.000000
0.090713 -0.331200 0.294800 3.000000
-0.093109 0.275910 0.347656 3.000000
-0.274418 -0.201245 0.394700 3.000000
0.244470 0.071330 0.437372 3.000000
0.167834 0.183687 0.403670 3.000000
0.091266 -0.384662 -0.225498 3.000000
0.236320 -0.301033 -0.329861 3.000000
-0.078325 -0.072576 -0.441366 3.000000
-0.179935 -0.359269 0.260395 3.000000
-0.255390 0.321926 0.306039 3.000000
0.184853 0.361882 0.258165 3.000000
-0.246715 -0.286579 -0.342604 3.000000
-0.263181 -0.415499 0.156642 3.000000
-0.191577 0.445555 0.010296 3.000000
-0.142398 0.363349 -0.260359 3.000000
0.019670 0.443174 0.045832 3.000000
0.006303 -0.127264 -0.428678 3.000000
-0.069617 0.324803 -0.307516 3.000000
0.153392 0.103453 0.431015 3.000000
-0.072641 -0.444433 -0.017756 3.000000
-0.239173 0.439909 0.069598 3.000000
-0.086541 -0.018981 -0.446999 3.000000
-0.099605 0.176893 0.406610 3.000000
0.076080 0.445777 -0.007598 3.000000
-0.165420 -0.114719 -0.432323 3.000000
-0.246333 -0.433574 -0.101114 3.000000
0.231425 0.289784 0.336328 3.000000
-0.135107 -0.438315 -0.077547 3.000000
0.223913 -0.093417 0.433030 3.000000
-0.123115 0.299708 0.327579 3.000000
0.234525 -0.231780 0.377692 3.000000
-0.165456 0.384935 -0.226769 3.000000
-0.044595 -0.443802 0.028352 3.000000
0.185754 0.252221 0.365059 3.000000
0.219209 0.294207 0.332429 3.000000
-0.035021 -0.435824 0.086697 3.000000
0.115276 -0.003846 0.443121 3.000000
-0.233914 0.065760 0.438254 3.000000
-0.249043 -0.294643 -0.335495 3.000000
0.063316 0.169465 0.409825 3.000000
-0.179434 0.079733 -0.440394 3.000000
-0.269002 -0.031947 -0.446308 3.000000
0.154792 0.052008 -0.444509 3.000000
0.154083 -0.249627 0.366126 3.000000
0.022729 -0.138146 -0.425447 3.000000
-0.265540 0.193604 0.399115 3.000000
0.110017 0.434270 -0.102588 3.000000
0.259381 0.385606 0.221280 3.000000
-0.230110 0.233547 0.377253 3.000000
-0.147479 0.413622 0.164215 3.000000
0.260440 -0.133102 0.422629 3.000000
0.008013 -0.058657 0.439217 3.000000
0.181554 -0.444625 -0.011660 3.000000
-0.254426 0.445461 -0.017668 3.000000
-0.254801 0.112069 -0.433391 3.000000
-0.245893 0.207725 -0.396274 3.000000
0.139679 -0.316919 0.310021 3.000000
-0.089781 0.100116 0.431761 3.000000
-0.286813 0.033990 0.441859 4.000000
-0.106920 0.169540 -0.414145 3.000000
0.215309 -0.255703 -0.366350 3.000000
-0.016660 0.263786 0.357061 3.000000
-0.224861 -0.263909 -0.360524 3.000000
-0.052704 -0.409688 0.170938 3.000000
-0.248739 0.229571 -0.383957 3.000000
-0.116081 -0.369206 -0.250233 3.000000
0.269625 -0.017572 -0.447043 3.000000
-0.000651 -0.326497 0.300134 3.000000
0.237011 -0.420967 0.141455 3.000000
0.071368 -0.305634 0.321306 3.000000
-0.177268 0.206645 0.392470 3.000000
0.284489 0.398610 0.197184 1.000000
-0.177372 0.391276 0.211578 3.000000
-0.110045 0.210212 0.390653 3.000000
0.155914 0.072598 0.437171 3.000000
0.035316 0.276646 0.347085 3.000000
0.078068 -0.335596 -0.294166 3.000000
0.243206 -0.059593 -0.443422 3.000000
-0.009177 0.061457 -0.443289 3.000000
-0.289593 0.358978 -0.266445 4.000000
0.113838 0.348393 -0.280091 3.000000
0.274381 -0.297387 0.328723 3.000000
0.129885 -0.105490 0.430331 3.000000
0.263748 -0.143522 0.419157 3.000000
-0.171062 0.242743 -0.375854 3.000000
0.238731 0.217599 0.386684 3.000000
0.110500 -0.411279 -0.171614 3.000000
0.060314 -0.100359 -0.435831 3.000000
-0.230971 -0.213411 -0.392854 3.000000
-0.204700 -0.317757 -0.313537 3.000000
-0.094058 0.416170 -0.161978 3.000000
0.065660 0.363657 -0.259906 3.000000
0.163852 0.287057 0.338733 3.000000
-0.170614 0.159348 0.413829 3.000000
0.050044 0.008579 -0.447358 3.000000
0.268996 -0.197168 -0.401130 3.000000
0.251095 0.421106 -0.148269 3.000000
-0.254146 0.413069 0.165492 3.000000
-0.040418 0.362143 0.257780 3.000000
-0.046571 0.443473 0.042669 3.000000
-0.197610 -0.362211 0.256172 3.000000
0.100064 -0.360627 -0.262856 3.000000
0.024764 -0.434515 0.092551 3.000000
-0.151673 0.330567 0.296680 3.000000
-0.219029 -0.037408 -0.445792 3.000000
-0.044879 -0.306136 0.320804 3.000000
0.123704 -0.438551 0.071704 3.000000
0.275464 0.136052 0.422069 3.000000
-0.014886 0.179916 0.405302 3.000000
0.036999 -0.277345 0.345748 3.000000
-0.138568 0.416768 0.155965 3.000000
-0.156037 -0.330589 -0.299847 3.000000
-0.084098 0.025482 0.442474 3.000000
0.264085 -0.437388 -0.083402 3.000000
-0.078256 -0.310962 -0.320332 3.000000
-0.069724 -0.439706 -0.068766 3.000000
-0.127819 -0.289901 0.335322 3.000000
-0.148942 0.443249 -0.049391 3.000000
0.128721 -0.313645 -0.317648 3.000000
-0.181221 0.363984 -0.259425 3.000000
-0.064902 -0.370671 0.243724 3.000000
0.067833 -0.443804 0.028329 3.000000
0.151785 0.098569 -0.436461 3.000000
-0.229253 -0.419328 0.146008 3.000000
-0.128715 0.100605 -0.436005 3.000000
-0.276902 -0.366156 -0.254720 3.000000
-0.221914 0.362372 -0.261797 3.000000
0.068938 0.100227 -0.436090 3.000000
0.053021 0.435017 -0.099246 3.000000
-0.286040 0.372426 0.242649 4.000000
0.029248 -0.157057 0.414285 3.000000
-0.234594 0.315348 0.312617 3.000000
-0.110914 -0.208356 0.391076 3.000000
0.090695 -0.372335 -0.245628 3.000000
-0.076199 0.290925 -0.339676 3.000000
0.102961 0.350021 -0.277992 3.000000
-0.211961 0.293137 0.333372 3.000000
-0.160660 -0.444156 -0.026582 3.000000
0.078389 -0.428165 0.118110 3.000000
-0.027399 -0.132320 -0.427209 3.000000
0.063114 -0.444791 -0.006367 3.000000
0.142812 0.402008 -0.194868 3.000000
0.180330 -0.438787 -0.074565 3.000000
0.137397 -0.263615 -0.360751 3.000000
0.026936 -0.443309 0.033560 3.000000
-0.237477 0.444314 -0.038125 3.000000
-0.084059 -0.371182 0.242972 3.000000
-0.105062 -0.046934 0.440538 3.000000
-0.228352 0.253852 -0.368305 3.000000
-0.113382 0.404688 0.184859 3.000000
-0.279668 0.445220 0.020975 3.000000
0.209682 0.387557 0.217982 3.000000
0.236550 -0.208686 0.390908 3.000000
0.270302 -0.006740 -0.447384 3.000000
-0.030466 0.110901 -0.433704 3.000000
-0.028476 0.064168 0.438506 3.000000
-0.105764 -0.196396 0.397170 3.000000
-0.090255 0.408791 0.175380 3.000000
-0.060226 0.246797 -0.373099 3.000000
-0.285394 0.382383 -0.231085 4.000000
0.160833 -0.322078 -0.309216 3.000000
-0.131852 0.257587 0.361413 3.000000
-0.041259 -0.079352 -0.440292 3.000000
-0.258397 0.367327 -0.254506 3.000000
-0.191914 -0.154559 -0.419537 3.000000
0.271777 0.212523 0.389475 3.000000
0.094547 0.018542 -0.447045 3.000000
0.225613 -0.321880 -0.309414 3.000000
0.192807 0.331175 0.295990 3.000000
0.052261 0.238480 0.374336 3.000000
-0.114319 0.234373 -0.381118 3.000000
-0.245588 0.444017 0.036915 3.000000
0.038564 -0.135989 0.421790 3.000000
-0.253834 -0.129490 -0.428032 3.000000
-0.141822 0.154907 -0.419781 3.000000
0.218410 0.371587 0.243884 3.000000
-0.011206 0.043492 -0.445314 3.000000
0.132701 -0.176204 0.406465 3.000000
-0.141308 -0.288577 0.336489 3.000000
0.028708 0.028454 -0.446734 3.000000
0.127040 -0.406510 0.178282 3.000000
0.223830 0.412872 0.165948 3.000000
0.093098 -0.037504 -0.445783 3.000000
0.066889 0.325966 -0.306252 3.000000
-0.093531 0.033782 0.441878 3.000000
0.223573 0.001472 -0.447582 3.000000
-0.043135 0.412479 -0.171209 3.000000
0.166692 -0.394540 -0.207514 3.000000
0.144326 -0.180226 -0.409078 3.000000
-0.221021 -0.427673 -0.124157 3.000000
0.274759 -0.418771 0.147554 3.000000
0.013318 0.247049 -0.372928 3.000000
0.171512 -0.216469 -0.391100 3.000000
0.067221 -0.345331 0.278364 3.000000
-0.047166 0.063857 -0.442909 3.000000
-0.194417 0.226429 -0.385816 3.000000
0.035636 -0.269159 0.352098 3.000000
0.120591 0.109020 0.429771 3.000000
-0.287016 0.084500 -0.439605 4.000000
-0.150615 0.391360 0.211413 3.000000
-0.250374 -0.082104 -0.439857 3.000000
-0.083444 -0.290394 0.334888 3.000000
-0.221267 0.021610 0.442595 3.000000
0.246611 -0.144078 0.418957 3.000000
-0.240803 -0.317908 0.309032 3.000000
-0.261459 0.267382 -0.358625 3.000000
0.089710 0.247318 -0.372745 3.000000
0.183442 0.285316 -0.344621 3.000000
-0.105347 0.000688 0.443253 3.000000
0.259772 0.380140 -0.234876 3.000000
-0.048008 -0.444693 0.005145 3.000000
0.285587 -0.419888 -0.148806 1.000000
0.264996 0.183942 0.403560 3.000000
-0.180095 0.301709 -0.330169 3.000000
-0.136979 -0.268301 -0.357116 3.000000
0.162355 0.270127 -0.356495 3.000000
-0.229443 -0.233441 -0.381063 3.000000
-0.150835 0.121028 -0.430788 3.000000
-0.265566 -0.333708 0.291955 3.000000
-0.225082 0.254012 0.363843 3.000000
-0.127464 0.159753 0.413683 3.000000
0.086362 -0.397746 0.196869 3.000000
-0.025248 0.182319 -0.408615 3.000000
0.197957 0.394958 0.204351 3.000000
-0.131402 0.342479 -0.287522 3.000000
0.257444 -0.267716 -0.357571 3.000000
0.161372 0.422310 -0.144924 3.000000
-0.251612 0.289507 0.336573 3.000000
-0.068425 0.413817 -0.168117 3.000000
0.259929 -0.310790 -0.320504 3.000000
-0.207497 -0.185406 0.402483 3.000000
0.286679 0.443147 0.046115 1.000000
-0.084635 -0.017331 0.442698 3.000000
-0.149999 0.361862 0.258194 3.000000
0.136898 -0.431909 -0.108565 3.000000
-0.121307 -0.027459 0.442379 3.000000
-0.154614 0.350187 0.273424 3.000000
-0.072526 -0.282452 0.341787 3.000000
0.013801 -0.399250 -0.198269 3.000000
0.143522 0.069247 0.437702 3.000000
-0.198348 -0.387558 0.216248 3.000000
-0.105610 -0.247519 -0.371912 3.000000
0.143858 0.423663 0.136813 3.000000
0.197834 0.208968 -0.395640 3.000000
-0.001299 -0.188648 -0.405433 3.000000
0.041873 0.439412 0.072741 3.000000
0.267219 -0.252040 0.364486 3.000000
0.091067 0.398830 -0.201105 3.000000
-0.164084 -0.444771 0.002643 3.000000
-0.276331 0.100703 -0.435983 3.000000
0.221565 -0.437032 -0.085645 3.000000
-0.289542 0.425932 -0.133677 4.000000
-0.192981 -0.301819 0.324815 3.000000
0.285432 0.270033 -0.356568 1.000000
0.269817 -0.444841 -0.004771 3.000000
-0.114307 -0.443430 0.032281 3.000000
0.089547 -0.206410 0.392068 3.000000
0.252338 -0.298970 0.327326 3.000000
-0.065101 0.378055 -0.238403 3.000000
0.183971 0.074992 -0.441145 3.000000
0.266611 0.243773 -0.375154 3.000000
-0.233799 -0.443380 0.032816 3.000000
-0.169546 0.445553 0.010360 3.000000
0.105984 0.445069 0.025780 3.000000
0.254537 -0.172530 0.408055 3.000000
0.127303 0.186872 0.402292 3.000000
0.106895 -0.406093 -0.183600 3.000000
-0.103206 -0.419160 0.146472 3.000000
-0.066782 0.075643 0.436689 3.000000
-0.183395 0.433642 -0.105396 3.000000
0.016642 -0.405176 -0.185718 3.000000
0.226560 0.207959 -0.396154 3.000000
0.247943 -0.317954 0.308987 3.000000
0.018545 -0.099966 0.431566 3.000000
-0.184040 0.177664 -0.410630 3.000000
0.238679 0.061017 -0.443359 3.000000
-0.041445 0.438591 -0.082277 3.000000
-0.139862 0.445679 -0.010707 3.000000
-0.204941 -0.107497 -0.434236 3.000000
0.002755 -0.418399 -0.152940 3.000000
-0.197176 -0.402155 0.188216 3.000000
-0.057721 -0.055699 0.439685 3.000000
0.074967 0.381679 0.227920 3.000000
0.083374 0.406067 0.181674 3.000000
-0.011996 0.426822 0.126259 3.000000
0.026469 -0.419504 -0.149871 3.000000
0.198777 -0.304370 0.322566 3.000000
0.187189 -0.226870 -0.384949 3.000000
-0.077749 -0.380707 -0.232185 3.000000
-0.146453 0.055835 0.439794 3.000000
-0.280022 -0.264273 -0.360241 4.000000
-0.141490 0.139414 0.421006 3.000000
0.237741 -0.428475 0.117044 3.000000
0.282325 -0.340151 -0.289000 1.000000
0.022957 0.332777 -0.298527 3.000000
0.250539 -0.107685 0.429840 3.000000
0.177120 -0.444252 -0.023529 3.000000
-0.169173 -0.427204 0.121419 3.000000
0.050706 0.404835 0.184520 3.000000
0.006854 -0.233153 0.376880 3.000000
-0.253314 0.432336 -0.111242 3.000000
-0.063157 0.220797 0.384793 3.000000
-0.018674 0.445543 -0.015048 3.000000
-0.259982 -0.144023 0.418977 3.000000
0.031077 0.395094 0.204084 3.000000
0.266552 -0.015397 0.442758 3.000000
-0.199358 -0.179701 0.404951 3.000000
-0.185500 -0.271200 -0.354868 3.000000
-0.142334 0.420688 0.145075 3.000000
-0.239405 0.212132 0.389675 3.000000
-0.008225 -0.204922 -0.397180 3.000000
-0.070901 -0.194340 -0.402571 3.000000
-0.283276 0.309570 -0.322749 4.000000
0.165131 -0.141692 -0.424170 3.000000
-0.035034 -0.209613 -0.394789 3.000000
0.113511 0.127387 -0.428940 3.000000
-0.178582 0.292447 -0.338334 3.000000
0.271953 -0.430430 0.110314 3.000000
0.010240 0.018254 -0.447054 3.000000
0.133487 0.019436 -0.447017 3.000000
0.055434 0.388171 -0.221297 3.000000
-0.086570 0.142355 -0.424300 3.000000
-0.109544 0.139100 -0.425472 3.000000
-0.005555 -0.236677 0.374796 3.000000
0.214693 0.102393 -0.435606 3.000000
-0.247407 0.354681 0.267631 3.000000
-0.257119 0.353416 -0.273616 3.000000
0.130367 -0.419732 0.144884 3.000000
0.270257 -0.335291 -0.294513 3.000000
-0.234667 0.324368 0.303597 3.000000
0.185065 0.117558 0.427443 3.000000
0.059517 0.278739 -0.349815 3.000000
0.089019 -0.444815 0.001244 3.000000
-0.111198 0.352888 0.269943 3.000000
0.275640 0.445731 0.004706 3.000000
0.101568 -0.208131 0.391191 3.000000
0.105385 -0.380497 0.228186 3.000000
0.111725 -0.321073 0.305868 3.000000
0.005048 0.410094 -0.176721 3.000000
0.012769 -0.380251 0.228603 3.000000
0.199887 0.278654 -0.349881 3.000000
-0.275438 -0.133847 -0.426766 3.000000
-0.011122 0.402747 -0.193419 3.000000
-0.078234 -0.173114 -0.412156 3.000000
0.233315 -0.442842 -0.042862 3.000000
-0.190116 -0.380409 -0.232689 3.000000
-0.103892 -0.235759 -0.379692 3.000000
0.137800 -0.335660 -0.294094 3.000000
0.163970 -0.314618 0.312322 3.000000
0.258239 0.124242 0.425501 3.000000
-0.289805 -0.104572 0.430536 4.000000
-0.125538 -0.399395 0.193632 3.000000
0.143574 0.125405 -0.429516 3.000000
0.286186 0.109020 -0.434124 1.000000
0.184523 0.238029 -0.378955 3.000000
0.063975 -0.140361 0.420296 3.000000
-0.004788 0.062445 0.438779 3.000000
0.132298 -0.018519 -0.447014 3.000000
0.260225 0.423275 -0.142243 3.000000
0.159198 -0.410627 -0.173120 3.000000
0.198073 -0.425744 -0.130799 3.000000
0.044424 0.396182 -0.206302 3.000000
-0.042131 -0.341271 -0.287730 3.000000
-0.028111 0.097797 0.432280 3.000000
-0.058781 -0.394913 -0.206781 3.000000
0.060978 0.121021 -0.430790 3.000000
-0.075773 -0.444795 -0.006253 3.000000
0.002294 -0.109471 -0.433794 3.000000
0.285992 -0.270802 0.350824 1.000000
0.286399 0.341344 0.284456 1.000000
-0.220683 0.371984 0.243300 3.000000
-0.111156 0.333367 0.293504 3.000000
0.202408 -0.111086 -0.433378 3.000000
-0.224067 -0.319430 -0.311864 3.000000
-0.169734 -0.338705 0.286287 3.000000
0.165369 0.378568 -0.237535 3.000000
0.279884 0.437116 -0.089855 1.000000
0.107192 0.217480 -0.391108 3.000000
0.078396 0.375938 0.237481 3.000000
0.239055 -0.375213 0.237041 3.000000
0.105550 -0.352124 0.269606 3.000000
-0.221013 -0.167846 -0.414435 3.000000
-0.182728 0.425891 0.129466 3.000000
0.242062 -0.383752 -0.227037 3.000000
-0.192262 -0.080058 0.435827 3.000000
0.071603 -0.013289 0.442825 3.000000
-0.198927 0.443398 0.043467 3.000000
-0.223884 0.445399 -0.019625 3.000000
0.182018 0.199354 -0.400539 3.000000
0.268607 0.078446 0.436245 3.000000
-0.066192 -0.273343 -0.353206 3.000000
-0.149990 0.378088 -0.238347 3.000000
0.176734 -0.139622 -0.424915 3.000000
0.268825 -0.442802 0.038928 3.000000
-0.225421 -0.153183 -0.420033 3.000000
0.010835 0.398542 -0.201671 3.000000
0.080054 -0.187048 0.401772 3.000000
-0.003063 0.247239 -0.372799 3.000000
-0.216134 0.112020 -0.433405 3.000000
0.187206 -0.363826 -0.258149 3.000000
-0.198901 -0.138543 0.420950 3.000000
-0.258416 -0.404598 0.182699 3.000000
0.108319 -0.018559 -0.447012 3.000000
0.122743 0.445628 -0.012328 3.000000
-0.066742 0.269669 0.352497 3.000000
0.055400 -0.053732 -0.444249 3.000000
0.240934 0.283377 0.341864 3.000000
0.119720 -0.254709 0.362672 3.000000
-0.008071 0.444412 0.032737 3.000000
0.143157 -0.416672 -0.157738 3.000000
-0.078211 0.050081 0.440338 3.000000
0.032987 0.223340 -0.387643 3.000000
0.189508 0.070802 0.437455 3.000000
-0.127377 -0.233824 0.376483 3.000000
0.226774 0.218480 -0.390517 3.000000
0.162658 0.431212 0.111151 3.000000
-0.002380 -0.442822 0.038717 3.000000
0.061591 0.350563 0.272940 3.000000
-0.226767 -0.424871 0.129447 3.000000
0.096640 -0.010812 0.442902 3.000000
0.243549 -0.083192 0.435315 3.000000
-0.097780 -0.039672 -0.445578 3.000000
-0.184672 0.339393 0.286669 3.000000
0.185640 -0.431516 0.105968 3.000000
-0.289599 -0.316583 0.310357 4.000000
0.189251 -0.416024 -0.159538 3.000000
0.118069 0.368388 0.248591 3.000000
0.242490 -0.340969 -0.288072 3.000000
-0.178394 -0.444419 0.013855 3.000000
-0.053732 -0.324350 0.302570 3.000000
-0.197906 0.125825 -0.429394 3.000000
-0.260161 0.419745 -0.152049 3.000000
-0.270925 0.157069 -0.419003 3.000000
-0.105567 -0.096538 -0.436685 3.000000
-0.093404 -0.313489 0.313451 3.000000
0.017813 -0.305501 0.321439 3.000000
-0.179105 0.015319 -0.447147 3.000000
0.034254 -0.251935 0.364557 3.000000
0.197237 -0.195882 -0.401786 3.000000
0.079290 -0.094551 -0.437130 3.000000
0.110860 0.291753 -0.338946 3.000000
-0.285898 -0.430533 -0.114314 4.000000
-0.254230 0.199143 -0.400646 3.000000
-0.162837 -0.315052 -0.316242 3.000000
0.268684 -0.306984 -0.324309 3.000000
0.232576 -0.364339 -0.257395 3.000000
-0.072888 -0.131896 0.422979 3.000000
-0.054880 -0.442351 0.043695 3.000000
-0.021771 -0.113154 0.428424 3.000000
-0.095372 -0.019700 0.442623 3.000000
-0.250940 -0.376430 0.235064 3.000000
-0.015521 -0.417996 0.149706 3.000000
0.051673 0.392908 -0.212728 3.000000
0.242578 0.425484 0.130865 3.000000
0.143123 -0.294851 -0.335311 3.000000
-0.120675 -0.418837 -0.151724 3.000000
0.285232 0.413850 -0.168042 1.000000
0.186218 -0.325359 0.301425 3.000000
-0.196496 -0.204954 0.392810 3.000000
0.193559 -0.332852 -0.297280 3.000000
-0.103144 0.072435 0.437197 3.000000
0.141765 0.437377 0.084335 3.000000
-0.190964 -0.112408 0.428641 3.000000
0.159943 -0.306682 0.320258 3.000000
0.084256 0.421539 0.142712 3.000000
0.091904 -0.432648 0.100906 3.000000
-0.262255 0.417495 0.153946 3.000000
-0.229290 0.382955 0.225763 3.000000
0.053538 -0.305509 0.321431 3.000000
0.244069 -0.389758 0.212528 3.000000
-0.266124 0.393717 -0.211140 3.000000
-0.047038 0.180744 -0.409297 3.000000
0.132777 0.445870 0.000296 3.000000
0.217381 -0.086429 -0.438945 3.000000
0.013186 -0.434299 -0.097873 3.000000
0.078474 0.205836 -0.397236 3.000000
-0.078314 0.389278 0.215071 3.000000
-0.289130 -0.421088 -0.145472 4.000000
0.212684 -0.434754 0.091483 3.000000
0.224760 -0.384636 -0.225542 3.000000
-0.247138 0.190971 -0.404810 3.000000
0.137115 -0.151401 -0.420674 3.000000
-0.052524 -0.272570 -0.353805 3.000000
0.095376 0.406689 0.180236 3.000000
0.242208 0.383443 0.224939 3.000000
0.209960 0.064719 0.438419 3.000000
-0.133520 0.438750 -0.081268 3.000000
-0.083363 -0.426379 0.124257 3.000000
0.135800 -0.444035 -0.030236 3.000000
0.071194 0.435572 0.092409 3.000000
-0.115727 0.434732 -0.100520 3.000000
-0.073838 -0.076465 0.436396 3.000000
-0.032903 0.445402 -0.019540 3.000000
-0.088655 0.413954 0.163448 3.000000
-0.158548 0.296278 0.330603 3.000000
-0.227266 0.411237 0.169726 3.000000
0.205880 -0.438767 0.070341 3.000000
-0.097582 -0.440375 0.060188 3.000000
-0.265081 0.048724 -0.444819 3.000000
0.183891 -0.064833 -0.442592 3.000000
0.000613 0.439597 -0.075921 3.000000
-0.130251 0.255187 -0.367397 3.000000
0.280412 0.077935 0.436326 3.000000
-0.213694 -0.436795 -0.086709 3.000000
0.118024 -0.196570 0.397081 3.000000
0.112281 0.444353 0.033360 3.000000
-0.187379 0.131108 -0.427859 3.000000
0.100605 -0.409257 0.171935 3.000000
-0.243848 -0.444086 -0.028813 3.000000
-0.058033 -0.262752 0.357068 3.000000
0.187999 -0.419935 -0.148673 3.000000
-0.039270 0.172573 0.408480 3.000000
-0.156424 -0.053967 0.439873 3.000000
0.010809 0.105707 0.430511 3.000000
0.122647 0.074496 0.436870 3.000000
-0.241976 0.370249 -0.250207 3.000000
-0.221063 -0.310789 0.316151 3.000000
0.049743 0.126337 0.424892 3.000000
-0.208346 -0.390474 0.211140 3.000000
0.059406 0.324352 0.303613 3.000000
-0.202109 -0.435260 0.089221 3.000000
-0.058751 -0.088329 -0.438520 3.000000
0.047201 -0.441436 0.053382 3.000000
-0.180626 -0.439403 0.066325 3.000000
0.172105 -0.224442 0.382032 3.000000
-0.142334 -0.376925 0.234227 3.000000
0.285861 -0.442510 0.042018 1.000000
0.074521 0.324063 0.303902 3.000000
0.246698 0.349284 0.274589 3.000000
0.069111 0.172436 -0.412892 3.000000
0.228407 0.423412 0.137510 3.000000
0.194390 -0.117675 -0.431464 3.000000
0.182237 -0.362999 0.255013 3.000000
0.200389 0.324961 -0.307358 3.000000
-0.185482 0.330976 -0.300570 3.000000
0.122357 0.444156 0.035442 3.000000
-0.059408 0.355714 0.266300 3.000000
0.149375 0.246235 0.369127 3.000000
0.069859 -0.359065 0.260658 3.000000
0.223710 -0.162059 -0.416837 3.000000
-0.213437 -0.439308 -0.071281 3.000000
0.066506 -0.050195 -0.444583 3.000000
0.014210 0.337434 -0.293244 3.000000
-0.057189 0.414779 -0.165843 3.000000
0.172980 0.135785 -0.426501 3.000000
0.110685 0.438853 0.076270 3.000000
0.143659 0.436209 -0.093913 3.000000
0.145405 0.367058 0.250549 3.000000
0.279268 -0.444560 0.009368 3.000000
-0.261012 0.123572 -0.430049 3.000000
0.054331 0.410387 0.171689 3.000000
0.221008 0.439080 0.074836 3.000000
0.059253 0.397003 0.200338 3.000000
-0.249360 -0.428590 -0.120999 3.000000
-0.096140 0.165160 0.411687 3.000000
0.241247 0.384471 -0.227553 3.000000
-0.064673 0.427352 -0.128790 3.000000
0.184305 0.127656 0.424509 3.000000
-0.166680 -0.008125 0.442987 3.000000
0.195231 -0.403862 0.184401 3.000000
-0.026281 0.259817 0.359898 3.000000
-0.160440 0.114425 0.428352 3.000000
0.254249 0.249398 0.366978 3.000000
-0.088487 0.303203 0.324498 3.000000
-0.059300 -0.365918 0.250718 3.000000
-0.125542 -0.362415 -0.260226 3.000000
0.132964 -0.268754 0.352412 3.000000
-0.260178 0.063136 0.438670 3.000000
-0.133545 0.068344 -0.442198 3.000000
0.051022 0.137142 -0.426106 3.000000
-0.173462 -0.227187 0.380408 3.000000
0.051410 -0.076614 -0.440726 3.000000
0.177687 0.312176 -0.320143 3.000000
-0.213210 -0.379101 -0.234901 3.000000
-0.087677 -0.047140 0.440519 3.000000
0.150029 -0.389864 0.212337 3.000000
0.092975 -0.436220 -0.089279 3.000000
0.218065 0.432520 0.106063 3.000000
-0.039931 0.445843 -0.005506 3.000000
-0.041813 -0.273762 0.348527 3.000000
-0.110697 0.286377 0.339332 3.000000
0.078931 -0.372963 -0.244704 3.000000
0.122598 0.397426 0.199508 3.000000
0.145977 -0.278860 0.344573 3.000000
-0.052672 0.022037 0.442582 3.000000
0.038764 0.349817 -0.278256 3.000000
-0.253399 0.442765 -0.054514 3.000000
-0.098961 -0.087122 -0.438790 3.000000
0.195619 -0.188314 0.401225 3.000000
-0.102853 0.417986 -0.156934 3.000000
0.286943 -0.425332 -0.132215 1.000000
0.179408 0.328870 -0.302959 3.000000
-0.029764 -0.026512 -0.446763 3.000000
0.043394 -0.005840 0.443059 3.000000
0.045325 -0.026159 -0.446774 3.000000
-0.212746 -0.321682 0.305258 3.000000
0.200429 0.439612 0.071476 3.000000
-0.086401 -0.067313 0.437846 3.000000
0.230351 0.045575 0.440764 3.000000
0.107339 -0.444050 -0.029959 3.000000
0.225703 0.129111 0.424086 3.000000
-0.140303 -0.170448 0.408956 3.000000
-0.175038 -0.204874 -0.397204 3.000000
0.187719 -0.169143 0.409521 3.000000
0.279475 0.228844 0.380034 3.000000
-0.179340 -0.352225 0.269477 3.000000
-0.029708 -0.169647 -0.413656 3.000000
0.253228 -0.005043 0.443084 3.000000
-0.158936 -0.282914 -0.345782 3.000000
-0.231491 -0.415599 0.156364 3.000000
0.105634 0.438662 -0.081827 3.000000
-0.159387 0.149769 0.417277 3.000000
-0.153458 0.420149 0.146574 3.000000
0.180284 0.053625 -0.444356 3.000000
-0.120404 -0.427116 0.121722 3.000000
-0.168320 0.439893 0.069700 3.000000
-0.052526 -0.079644 -0.440246 3.000000
-0.164766 0.146730 -0.422725 3.000000
0.097760 0.300578 -0.331166 3.000000
-0.058229 -0.424236 -0.135987 3.000000
0.132700 -0.372459 0.241093 3.000000
-0.115720 -0.233415 0.376725 3.000000
-0.054820 0.442362 0.054114 3.000000
-0.206528 -0.415946 -0.159754 3.000000
-0.002488 -0.402101 0.188320 3.000000
-0.095240 0.377515 -0.239315 3.000000
-0.049938 0.215773 0.387765 3.000000
0.225080 -0.238343 -0.378148 3.000000
0.033916 0.363084 0.256395 3.000000
-0.264031 -0.276098 0.346715 3.000000
-0.101336 0.445780 0.003151 3.000000
-0.192609 0.421890 -0.146092 3.000000
-0.167159 0.107689 -0.434422 3.000000
0.068870 -0.149551 -0.421340 3.000000
-0.081774 -0.285959 -0.343150 3.000000
-0.261433 0.134661 -0.426827 3.000000
-0.197217 0.179614 0.405433 3.000000
0.122516 -0.340834 0.283872 3.000000
0.171525 -0.412438 -0.168936 3.000000
-0.149552 -0.416213 0.154659 3.000000
0.085982 -0.360979 -0.262338 3.000000
0.265842 0.430614 0.113207 3.000000
-0.011308 -0.259829 -0.363546 3.000000
-0.172966 0.373779 0.240659 3.000000
-0.006433 0.344105 -0.285619 3.000000
-0.249685 -0.122872 0.425601 3.000000
-0.037845 0.440381 -0.070973 3.000000
0.255055 0.052548 -0.444458 3.000000
-0.050418 -0.391825 -0.212842 3.000000
-0.096390 -0.443871 -0.031978 3.000000
0.095692 -0.444348 -0.020463 3.000000
0.020335 -0.110401 -0.433577 3.000000
0.021272 0.223924 -0.387297 3.000000
-0.217167 -0.392235 0.207683 3.000000
-0.167973 0.067401 -0.442347 3.000000
0.255391 -0.348090 -0.279161 3.000000
0.249984 -0.189293 -0.405143 3.000000
-0.056122 0.393398 -0.211767 3.000000
-0.280265 -0.250317 -0.370011 4.000000
0.275119 -0.443203 -0.039041 3.000000
-0.047982 0.084406 0.435273 3.000000
-0.021177 0.364881 -0.258105 3.000000
0.016038 0.319524 -0.312794 3.000000
-0.169048 0.271881 0.350781 3.000000
-0.232493 -0.012516 0.442849 3.000000
0.128353 0.163552 0.412316 3.000000
0.133267 -0.340467 0.284288 3.000000
0.025895 -0.265576 -0.359231 3.000000
-0.262575 -0.352507 0.269113 3.000000
-0.257084 -0.269597 -0.356112 3.000000
-0.019268 -0.018882 -0.447002 3.000000
-0.238850 -0.049247 -0.444673 3.000000
-0.203725 -0.382591 -0.228999 3.000000
0.049887 -0.304484 -0.326810 3.000000
0.217921 -0.341507 -0.287462 3.000000
-0.119418 0.139285 0.421052 3.000000
-0.050755 0.251998 -0.369565 3.000000
0.161946 -0.436589 0.083273 3.000000
0.188979 -0.414213 0.160214 3.000000
-0.043059 -0.402260 -0.192363 3.000000
-0.145802 0.438198 -0.084758 3.000000
-0.227723 0.293839 0.332753 3.000000
-0.109873 -0.440767 0.057709 3.000000
-0.180000 -0.347410 -0.280037 3.000000
0.024027 0.277481 0.346438 3.000000
-0.168430 -0.028480 -0.446636 3.000000
-0.253842 0.237181 -0.379457 3.000000
-0.134907 -0.016891 -0.447065 3.000000
-0.038586 -0.097327 -0.436509 3.000000
-0.264086 0.404665 0.184914 3.000000
0.015402 0.251952 0.365242 3.000000
0.033114 0.142045 0.420058 3.000000
0.217816 0.078555 -0.440581 3.000000
0.070939 0.113614 0.428588 3.000000
0.274518 0.388021 0.217197 3.000000
-0.005209 0.438469 0.078692 3.000000
-0.124025 0.277842 0.346157 3.000000
0.139148 0.275638 0.347867 3.000000
0.276342 0.098508 -0.436474 1.000000
-0.171095 0.036137 0.441656 3.000000
-0.183089 -0.432387 -0.106427 3.000000
0.042465 -0.040150 -0.445533 3.000000
-0.096282 -0.432499 -0.105927 3.000000
0.235327 -0.406903 0.177373 3.000000
0.006006 -0.202150 -0.398592 3.000000
-0.104113 0.365801 0.252398 3.000000
0.123249 -0.316481 0.310459 3.000000
0.107827 -0.192904 0.398949 3.000000
-0.139774 0.316651 -0.315668 3.000000
0.101091 -0.425409 -0.131951 3.000000
0.018240 0.078278 -0.440625 3.000000
-0.258684 -0.171887 0.408333 3.000000
0.090901 -0.136572 -0.425974 3.000000
-0.029404 0.341600 0.284166 3.000000
-0.139067 0.331121 0.296052 3.000000
-0.089382 -0.328766 -0.301914 3.000000
0.059190 0.431953 -0.112954 3.000000
0.285208 -0.295510 -0.334730 1.000000
0.041485 0.278828 -0.349746 3.000000
0.266189 -0.342565 -0.286262 3.000000
-0.157308 0.424427 0.134503 3.000000
0.093106 0.351025 -0.276698 3.000000
0.175448 0.389095 -0.219734 3.000000
0.286509 -0.237570 0.374268 1.000000
-0.055154 0.300068 0.327262 3.000000
-0.139731 -0.374393 -0.242600 3.000000
0.091449 0.122746 0.425935 3.000000
-0.210661 0.441606 0.058885 3.000000
-0.290263 -0.408967 -0.176957 4.000000
0.210394 0.340543 0.285364 3.000000
0.116485 -0.444170 -0.026115 3.000000
-0.174894 0.438587 0.077945 3.000000
-0.209487 -0.437334 0.079388 3.000000
0.015071 -0.205292 -0.396991 3.000000
-0.090048 0.405466 -0.187416 3.000000
0.181869 0.105184 -0.434982 3.000000
-0.252273 -0.094161 -0.437217 3.000000
0.042287 -0.223034 -0.387218 3.000000
-0.039271 0.377414 0.235132 3.000000
-0.277087 0.220975 0.384688 3.000000
-0.146599 -0.324360 -0.306912 3.000000
-0.077002 0.445678 0.006388 3.000000
0.031763 -0.036578 0.441517 3.000000
0.013516 0.095903 0.432703 3.000000
-0.055745 0.442359 -0.058485 3.000000
-0.046222 -0.051540 -0.444456 3.000000
0.044355 0.430199 0.114637 3.000000
0.017406 0.279916 -0.348902 3.000000
-0.181748 0.066715 0.438103 3.000000
-0.186549 -0.410729 0.168531 3.000000
-0.088683 -0.362930 -0.259468 3.000000
0.113875 -0.355307 -0.269857 3.000000
0.108203 -0.111362 0.428945 3.000000
-0.251625 -0.095691 0.432521 3.000000
0.197549 0.129249 0.424046 3.000000
0.213104 -0.440863 0.057108 3.000000
0.171815 0.009695 -0.447323 3.000000
0.023579 -0.350662 -0.275845 3.000000
-0.088405 -0.441252 0.054650 3.000000
-0.158561 0.375212 -0.242904 3.000000
-0.187543 -0.392037 -0.212426 3.000000
0.056755 -0.123954 0.425286 3.000000
0.266232 -0.056578 -0.443899 3.000000
0.177116 -0.442485 0.042283 3.000000
-0.152515 -0.389877 -0.216665 3.000000
0.235159 0.070376 -0.441876 3.000000
0.191064 -0.391627 -0.213231 3.000000
-0.217342 0.438832 0.076398 3.000000
-0.064331 0.441047 0.062418 3.000000
-0.134331 0.046733 -0.445007 3.000000
-0.264629 -0.444766 -0.007174 3.000000
0.103875 0.139894 0.420833 3.000000
-0.102937 -0.437835 -0.080576 3.000000
-0.210755 -0.232487 0.377274 3.000000
-0.104148 0.363225 -0.260542 3.000000
-0.250103 -0.424899 0.129353 3.000000
-0.033947 0.125399 0.425164 3.000000
0.079831 0.133274 -0.427230 3.000000
0.058441 -0.361397 0.257370 3.000000
0.096609 0.310187 0.317778 3.000000
0.273998 0.436757 0.087109 3.000000
0.089366 0.231629 -0.382741 3.000000
0.228138 -0.417281 -0.156047 3.000000
0.000643 -0.030458 -0.446449 3.000000
-0.176385 -0.215571 -0.391631 3.000000
-0.158287 0.445709 -0.009756 3.000000
-0.006949 0.424577 -0.138340 3.000000
-0.076299 -0.412053 0.165473 3.000000
0.093591 0.435202 0.094063 3.000000
0.040585 0.358169 0.263135 3.000000
-0.214588 0.306114 0.321851 3.000000
-0.271790 0.400072 -0.198667 3.000000
-0.184275 -0.314898 0.312042 3.000000
-0.156731 0.241771 -0.376515 3.000000
-0.185012 -0.091755 0.433401 3.000000
-0.284563 -0.397292 0.197759 4.000000
-0.288545 0.006608 -0.447420 4.000000
-0.109754 0.292513 -0.338276 3.000000
-0.190048 0.247674 0.368150 3.000000
0.123010 0.197751 -0.401355 3.000000
0.060884 0.445728 0.004816 3.000000
-0.099155 0.442786 -0.054297 3.000000
-0.290099 -0.246814 0.368038 4.000000
-0.231873 0.352530 -0.274757 3.000000
-0.227227 0.219613 -0.389847 3.000000
-0.115874 0.339599 0.286435 3.000000
-0.165526 -0.409394 0.171616 3.000000
0.071036 -0.437962 0.075425 3.000000
-0.120324 0.134910 -0.426755 3.000000
-0.229258 -0.348827 0.273858 3.000000
0.257099 0.199628 -0.400399 3.000000
-0.239040 0.162997 -0.416868 3.000000
-0.065917 -0.438279 -0.077776 3.000000
0.276537 -0.003740 0.443125 3.000000
-0.027723 0.374150 0.240113 3.000000
0.183493 -0.431201 -0.111732 3.000000
0.145685 0.191513 -0.404534 3.000000
-0.263274 0.148932 -0.421932 3.000000
-0.061915 0.066076 0.438204 3.000000
0.034974 0.156071 -0.419362 3.000000
0.036999 -0.208737 0.390882 3.000000
0.060283 0.309761 0.318204 3.000000
-0.194291 0.004953 -0.447472 3.000000
-0.160000 0.429663 -0.120835 3.000000
-0.216968 0.217660 -0.391002 3.000000
-0.040134 -0.160156 -0.417522 3.000000
0.069195 -0.336618 0.288654 3.000000
-0.011086 -0.224095 -0.386590 3.000000
-0.272435 -0.443861 0.027730 3.000000
-0.059414 0.382521 -0.230850 3.000000
0.199591 -0.295126 0.330715 3.000000
-0.264675 -0.422230 0.137946 3.000000
-0.187776 0.428119 -0.126149 3.000000
0.031934 -0.343896 0.280214 3.000000
-0.048812 0.176915 0.406601 3.000000
0.012147 0.334831 0.291844 3.000000
0.284352 -0.325545 -0.305567 1.000000
-0.272974 -0.354282 0.266825 3.000000
-0.285308 0.163897 0.412191 4.000000
0.191557 -0.347938 -0.279357 3.000000
0.037730 0.322200 -0.310119 3.000000
-0.135180 -0.230437 -0.382840 3.000000
-0.183313 -0.323462 -0.307831 3.000000
-0.010259 -0.323817 0.303123 3.000000
-0.230475 -0.250379 -0.369968 3.000000
0.023063 0.356411 0.265401 3.000000
0.159388 0.405999 -0.186184 3.000000
0.153216 -0.284860 0.339766 3.000000
0.108607 -0.198031 -0.400691 3.000000
-0.015969 -0.273113 0.349031 3.000000
0.214654 0.136846 -0.426192 3.000000
-0.274856 -0.397066 -0.202557 3.000000
-0.255480 -0.317001 0.309939 3.000000
-0.249199 0.063682 0.438583 3.000000
-0.080521 -0.237882 0.374083 3.000000
0.216891 -0.048826 -0.444713 3.000000
-0.182476 -0.265791 0.354710 3.000000
-0.223295 -0.409584 -0.175531 3.000000
0.074497 -0.058175 0.439293 3.000000
-0.147083 0.267324 -0.358669 3.000000
0.102947 0.242337 0.371777 3.000000
-0.260876 -0.305386 0.321554 3.000000
0.142275 -0.229462 0.379063 3.000000
-0.239347 0.346578 0.278077 3.000000
0.102469 0.392710 0.208763 3.000000
-0.062474 0.122410 0.426033 3.000000
0.107628 0.298220 0.328891 3.000000
-0.210543 -0.090421 -0.438053 3.000000
-0.276836 0.232227 0.378033 3.000000
-0.201690 0.442331 0.054308 3.000000
-0.093161 -0.368386 0.247085 3.000000
0.256723 0.354627 -0.272054 3.000000
-0.068014 0.213683 0.388884 3.000000
0.094772 -0.094717 -0.437093 3.000000
-0.235742 -0.292728 0.332830 3.000000
-0.242462 -0.352618 -0.273323 3.000000
-0.140091 0.250472 0.366248 3.000000
0.286803 0.133231 0.422889 1.000000
0.170117 0.440302 -0.071471 3.000000
-0.059084 -0.362474 -0.260138 3.000000
0.230384 -0.364928 0.252174 3.000000
0.028461 0.109980 -0.433910 3.000000
0.213798 0.027660 0.442405 3.000000
0.190398 0.259711 -0.364323 3.000000
-0.108981 0.325636 0.302274 3.000000
0.187573 -0.444452 0.012798 3.000000
0.237588 0.107487 0.430114 3.000000
0.105703 -0.440446 -0.064090 3.000000
0.238387 -0.161329 0.412747 3.000000
0.051872 0.159883 0.413636 3.000000
-0.240080 -0.400676 -0.195472 3.000000
0.055074 0.228180 0.380427 3.000000
-0.275089 -0.347243 0.275899 3.000000
-0.042340 -0.249759 0.366036 3.000000
0.152825 -0.332771 -0.297372 3.000000
-0.276324 0.443735 -0.044251 3.000000
0.063285 0.317406 0.310559 3.000000
0.069836 -0.313379 -0.317915 3.000000
-0.051603 0.429556 0.116849 3.000000
0.075660 0.280065 -0.348787 3.000000
0.043857 0.391371 0.211390 3.000000
-0.267350 -0.198551 -0.400426 3.000000
0.183471 -0.434738 0.091558 3.000000
-0.104413 -0.392706 -0.211113 3.000000
-0.058082 -0.247880 -0.371666 3.000000
0.048218 0.161672 -0.417345 3.000000
-0.231741 0.442837 0.049400 3.000000
-0.236134 -0.335048 0.290435 3.000000
0.262736 0.123838 -0.429971 3.000000
0.210870 -0.161437 0.412708 3.000000
-0.264397 0.381007 -0.233410 3.000000
-0.129559 0.170576 0.409344 3.000000
-0.236321 0.173226 -0.412550 3.000000
0.000965 0.074608 0.436853 3.000000
-0.253511 -0.284225 0.340326 3.000000
0.167815 0.349841 -0.278225 3.000000
-0.211837 -0.056155 0.439613 3.000000
0.113686 0.119098 0.426995 3.000000
0.282973 0.250159 0.366461 1.000000
-0.066991 -0.407788 -0.179680 3.000000
-0.150352 -0.013502 -0.447171 3.000000
0.054571 0.431862 0.108914 3.000000
0.133737 0.295878 -0.335309 3.000000
-0.250734 0.214922 0.388253 3.000000
-0.095592 0.275544 -0.352293 3.000000
-0.147157 0.246018 -0.373629 3.000000
0.223913 -0.424831 0.129587 3.000000
0.285988 -0.081814 -0.439902 1.000000
-0.009826 0.270265 -0.356388 3.000000
-0.184667 0.001838 0.443217 3.000000
0.281897 0.431572 -0.114263 1.000000
-0.106414 -0.338530 -0.290839 3.000000
0.116938 -0.441957 -0.052223 3.000000
-0.289590 -0.350674 0.271475 4.000000
0.229911 0.439608 -0.075855 3.000000
-0.220947 -0.134613 0.422190 3.000000
0.224695 -0.333145 0.292594 3.000000
-0.257781 -0.074843 -0.441007 3.000000
0.018288 0.378132 -0.238272 3.000000
-0.279294 0.444093 0.036111 3.000000
-0.011685 0.429983 0.115379 3.000000
-0.040180 -0.383300 -0.227800 3.000000
0.073660 0.413551 0.164378 3.000000
-0.115826 -0.142586 -0.423848 3.000000
0.241163 -0.308370 0.318571 3.000000
0.036584 0.165342 -0.415962 3.000000
0.148244 -0.280406 -0.347727 3.000000
-0.276958 0.388612 -0.220552 3.000000
0.267986 -0.199128 0.395778 3.000000
0.159244 -0.276501 -0.350756 3.000000
-0.099474 -0.188534 0.401129 3.000000
0.060188 -0.244280 0.369760 3.000000
0.021845 -0.280933 -0.347318 3.000000
0.184723 0.287594 0.338260 3.000000
-0.202125 -0.193228 -0.403138 3.000000
-0.207870 -0.252350 -0.368629 3.000000
0.006476 0.298353 0.328774 3.000000
0.252824 0.087067 -0.439032 3.000000
0.232969 0.226245 -0.385924 3.000000
0.089862 0.117440 -0.431830 3.000000
-0.071081 0.316880 0.311085 3.000000
0.114726 0.171647 0.408880 3.000000
-0.044029 0.008212 0.443016 3.000000
0.146087 -0.444842 0.000404 3.000000
-0.223528 0.027042 -0.446778 3.000000
-0.069068 -0.444736 0.003754 3.000000
-0.140850 -0.422684 -0.141039 3.000000
-0.280370 0.308745 0.319220 3.000000
-0.063023 0.192785 0.399532 3.000000
0.106045 0.379202 0.232109 3.000000
-0.074597 -0.441132 0.055408 3.000000
0.000919 -0.381606 0.226312 3.000000
-0.279568 -0.440740 0.057884 3.000000
0.152822 -0.110353 -0.433591 3.000000
-0.148160 -0.023572 0.442501 3.000000
-0.161468 0.410137 -0.176621 3.000000
-0.012963 -0.308842 0.318098 3.000000
0.019071 0.087893 0.434493 3.000000
-0.266273 -0.357211 -0.267402 3.000000
0.173736 -0.440029 0.062369 3.000000
0.197204 0.243298 -0.375477 3.000000
-0.186477 -0.031256 -0.446374 3.000000
0.124830 -0.232843 0.377063 3.000000
0.050083 -0.423462 -0.138652 3.000000
0.076239 0.416843 -0.160109 3.000000
-0.131158 0.349218 -0.279027 3.000000
-0.266006 -0.440057 -0.066548 3.000000
0.072725 -0.065101 -0.442549 3.000000
-0.138665 -0.031580 -0.446343 3.000000
0.090776 0.318680 -0.313639 3.000000
-0.135565 0.444301 -0.038265 3.000000
0.242275 -0.012666 0.442844 3.000000
-0.037827 -0.060575 0.438913 3.000000
-0.081273 0.444943 0.027115 3.000000
0.284380 0.443262 -0.049253 1.000000
0.266039 -0.444080 0.024633 3.000000
0.011066 -0.241493 -0.376008 3.000000
-0.141072 -0.308148 -0.323146 3.000000
-0.237702 -0.444395 -0.018980 3.000000
-0.181953 -0.253967 0.363176 3.000000
0.271927 0.349307 0.274559 3.000000
0.086715 -0.254645 -0.367069 3.000000
0.218179 -0.402792 -0.191227 3.000000
-0.015892 0.061731 0.438892 3.000000
0.149194 0.019018 0.442677 3.000000
0.210435 0.406086 -0.185984 3.000000
0.046470 0.385829 -0.225257 3.000000
0.026963 -0.015109 -0.447121 3.000000
0.132556 0.444171 0.035290 3.000000
0.153272 0.045958 0.440727 3.000000
-0.000889 -0.335785 -0.293953 3.000000
-0.132449 -0.158593 -0.418085 3.000000
0.263012 -0.429319 -0.118493 3.000000
0.067593 0.296253 -0.334978 3.000000
0.194628 -0.353828 0.267410 3.000000
0.158266 0.120281 -0.431005 3.000000
0.197710 -0.237941 -0.378402 3.000000
0.203447 -0.002958 -0.447503 3.000000
0.089021 0.325425 0.302512 3.000000
0.281961 0.360387 0.260275 1.000000
0.258367 0.209637 -0.395299 3.000000
-0.103880 -0.061156 -0.443174 3.000000
0.040990 0.160917 0.413264 3.000000
-0.080514 0.423145 -0.142605 3.000000
-0.137987 -0.417877 -0.154390 3.000000
0.002643 -0.276972 0.346037 3.000000
0.050230 -0.139210 -0.425063 3.000000
-0.172712 -0.386058 0.218784 3.000000
0.218585 0.359821 -0.265358 3.000000
-0.184595 0.285583 -0.344386 3.000000
0.055234 -0.168244 0.409910 3.000000
-0.038929 -0.355860 0.264790 3.000000
-0.201270 -0.183854 -0.407508 3.000000
-0.213128 -0.141662 -0.424181 3.000000
-0.085493 0.379002 -0.236802 3.000000
0.237908 0.444611 -0.034986 3.000000
-0.004488 -0.126602 0.424517 3.000000
0.240309 0.249089 -0.371541 3.000000
0.094537 -0.248508 -0.371240 3.000000
-0.190806 -0.055130 -0.444117 3.000000
0.242314 -0.421401 -0.144604 3.000000
0.034406 0.222439 0.383822 3.000000
-0.177587 -0.444846 0.000257 3.000000
-0.278357 0.394950 -0.208721 3.000000
-0.202638 -0.160522 -0.417390 3.000000
0.166527 0.069544 0.437655 3.000000
0.151722 0.445362 -0.020801 3.000000
-0.073365 0.351900 0.271216 3.000000
0.004443 -0.408227 0.174313 3.000000
-0.146812 0.232946 -0.381962 3.000000
-0.220686 -0.326679 0.299928 3.000000
-0.269602 -0.418877 0.147261 3.000000
-0.134139 0.433438 0.101958 3.000000
-0.023717 0.414286 -0.167034 3.000000
0.167668 -0.444918 -0.002022 3.000000
0.144025 -0.196926 -0.401253 3.000000
-0.166715 -0.322903 -0.308391 3.000000
-0.098131 0.406235 0.181284 3.000000
-0.085763 -0.407426 -0.180518 3.000000
-0.195686 0.388299 0.216726 3.000000
0.079673 -0.439353 -0.070993 3.000000
0.241673 0.049432 -0.444752 3.000000
-0.112230 0.423625 0.136918 3.000000
-0.054217 0.074015 0.436947 3.000000
0.120253 0.392983 0.208226 3.000000
-0.219565 -0.367049 -0.253407 3.000000
-0.240778 -0.418314 0.148825 3.000000
0.134652 -0.438575 0.071555 3.000000
-0.077794 -0.432857 0.099973 3.000000
0.182565 0.445937 -0.002507 3.000000
-0.034013 0.369204 0.247391 3.000000
0.056324 0.428938 0.118978 3.000000
-0.173350 -0.069934 0.437431 3.000000
0.113370 -0.438310 0.073224 3.000000
0.188808 -0.426998 0.122126 3.000000
0.195940 -0.423564 0.133946 3.000000
-0.043609 0.307551 -0.324767 3.000000
-0.162646 0.010424 0.442947 3.000000
-0.262539 -0.066138 -0.442385 3.000000
-0.145115 0.011555 -0.447265 3.000000
-0.100545 0.305230 0.322711 3.000000
-0.129621 -0.400271 -0.196267 3.000000
-0.277120 -0.432183 -0.107340 3.000000
-0.270261 -0.405131 -0.185822 3.000000
-0.021928 -0.367572 0.248284 3.000000
0.085809 -0.059982 -0.443360 3.000000
0.132521 -0.210061 0.390207 3.000000
-0.257845 -0.344867 0.278962 3.000000
-0.137213 -0.082785 -0.439749 3.000000
0.183099 -0.417994 0.149713 3.000000
-0.218710 -0.397761 0.196838 3.000000
0.197084 -0.301822 -0.329166 3.000000
0.193962 0.221289 -0.388856 3.000000
0.132850 0.282678 0.342406 3.000000
0.035969 -0.000861 -0.447569 3.000000
0.003380 0.444240 -0.038910 3.000000
-0.068968 0.145573 0.418788 3.000000
-0.082744 -0.083642 0.435215 3.000000
0.089305 0.432075 -0.112405 3.000000
-0.169861 -0.097389 -0.436495 3.000000
0.177788 -0.167725 0.410134 3.000000
-0.018710 0.137466 -0.426012 3.000000
-0.268792 -0.191874 0.399474 3.000000
-0.045483 -0.423178 0.135275 3.000000
0.112689 -0.375400 0.236766 3.000000
0.086693 -0.289360 0.335799 3.000000
0.106984 0.309509 -0.322810 3.000000
-0.154838 0.384242 -0.227940 3.000000
0.171650 0.278712 0.345483 3.000000
-0.193289 0.435713 -0.096131 3.000000
-0.226160 -0.401052 -0.194732 3.000000
0.061009 -0.438686 0.070851 3.000000
0.264024 -0.128923 -0.428196 3.000000
-0.026283 -0.384674 0.221124 3.000000
-0.047882 -0.291725 0.333714 3.000000
0.011858 -0.138809 0.420854 3.000000
0.186839 -0.435387 -0.093007 3.000000
0.149620 0.421855 -0.146187 3.000000
-0.106633 0.444777 -0.033231 3.000000
0.072427 0.428072 -0.126312 3.000000
-0.274206 -0.288977 0.336137 3.000000
-0.097784 0.031694 -0.446429 3.000000
0.165294 0.100086 -0.436122 3.000000
-0.021986 0.299473 -0.332140 3.000000
0.244535 -0.440249 -0.065334 3.000000
-0.278016 0.196148 0.397819 3.000000
0.056292 -0.426223 0.124796 3.000000
-0.288684 -0.378959 0.230787 4.000000
-0.056272 0.039450 -0.445696 3.000000
0.004177 0.251303 0.365683 3.000000
0.048686 -0.073413 0.436880 3.000000
-0.107872 -0.431335 -0.111133 3.000000
-0.004939 -0.050206 -0.444582 3.000000
0.063612 0.159953 0.413611 3.000000
0.036222 0.020757 -0.446976 3.000000
0.027652 -0.405264 -0.185513 3.000000
0.253069 -0.137099 -0.425821 3.000000
0.050326 -0.431663 0.105315 3.000000
0.285091 0.409639 0.173418 1.000000
-0.209183 -0.332603 -0.297562 3.000000
0.095505 -0.085111 0.434886 3.000000
-0.288933 0.187859 0.401865 4.000000
-0.251728 -0.438051 -0.079212 3.000000
-0.140820 -0.409860 -0.174893 3.000000
0.132336 0.440382 0.066611 3.000000
0.219997 0.192534 0.399660 3.000000
0.118270 -0.276129 -0.351044 3.000000
0.237168 -0.441495 -0.057104 3.000000
0.107941 -0.239650 -0.377260 3.000000
-0.158677 -0.016393 0.442727 3.000000
0.072009 -0.373690 0.239282 3.000000
0.221250 0.254811 -0.367653 3.000000
-0.166810 -0.327061 0.299494 3.000000
0.054495 -0.168537 -0.414136 3.000000
-0.196349 0.373485 0.241090 3.000000
-0.235543 0.445163 -0.027142 3.000000
0.200887 0.151679 -0.420943 3.000000
0.121863 0.330931 -0.300621 3.000000
-0.113561 -0.396904 0.198520 3.000000
0.133403 0.043998 -0.445266 3.000000
0.101021 0.372842 0.242038 3.000000
-0.085600 -0.317554 -0.313740 3.000000
0.051283 0.253133 0.364440 3.000000
-0.206961 -0.216368 0.386806 3.000000
-0.179739 0.151209 0.416759 3.000000
0.205948 -0.442226 -0.049378 3.000000
0.052827 -0.413789 -0.165746 3.000000
0.101420 -0.438178 -0.078414 3.000000
0.079725 0.443956 -0.041911 3.000000
0.224794 -0.120962 -0.430509 3.000000
-0.208498 -0.035265 -0.445995 3.000000
0.253659 -0.341650 -0.287300 3.000000
-0.137666 -0.315717 0.311224 3.000000
-0.044114 -0.387867 0.215724 3.000000
-0.169336 0.167996 -0.414813 3.000000
0.222497 -0.069853 0.437443 3.000000
0.158405 0.056138 0.439765 3.000000
-0.088700 -0.046865 -0.444898 3.000000
-0.206393 -0.353878 0.267345 3.000000
0.264023 0.312407 -0.319911 3.000000
0.042158 -0.200516 -0.399425 3.000000
-0.012516 0.381363 -0.232809 3.000000
-0.095238 0.248945 0.367286 3.000000
0.164131 0.270022 0.352223 3.000000
0.128255 0.443293 -0.048926 3.000000
0.101512 -0.443555 0.030965 3.000000
-0.277639 0.144911 -0.423380 3.000000
0.156647 -0.331472 0.294491 3.000000
0.207616 0.287011 0.338773 3.000000
-0.166356 -0.389172 -0.217871 3.000000
-0.033545 0.416292 -0.161641 3.000000
0.275575 -0.444228 0.019931 3.000000
-0.126374 0.271630 -0.355329 3.000000
0.276148 0.433949 -0.104025 3.000000
-0.204529 -0.365857 -0.255161 3.000000
-0.278374 0.405027 0.184076 3.000000
-0.257221 -0.441203 -0.059313 3.000000
0.003162 -0.291056 0.334304 3.000000
-0.230069 0.439012 0.075261 3.000000
0.173184 0.371623 -0.248184 3.000000
0.228506 0.383325 -0.229491 3.000000
0.257252 0.442479 0.053186 3.000000
-0.184778 0.440744 -0.068684 3.000000
-0.060332 -0.422191 0.138056 3.000000
-0.089374 -0.386282 -0.222758 3.000000
0.193954 0.385444 -0.225908 3.000000
0.037433 -0.333594 -0.296438 3.000000
0.226926 0.286276 -0.343775 3.000000
0.260787 0.172801 0.408381 3.000000
-0.243316 -0.442911 0.037778 3.000000
-0.057800 -0.224939 0.381738 3.000000
0.204854 -0.104803 0.430485 3.000000
0.105120 -0.078125 0.436133 3.000000
-0.214837 0.328955 -0.302862 3.000000
0.191316 0.424047 -0.140100 3.000000
0.186543 0.308731 0.319234 3.000000
-0.177543 -0.406251 0.178881 3.000000
0.140783 0.227949 0.380564 3.000000
0.205063 0.387972 -0.221634 3.000000
0.159638 -0.113479 0.428330 3.000000
-0.177141 0.277657 0.346301 3.000000
0.266330 0.444074 -0.040665 3.000000
0.105104 -0.444531 0.010273 3.000000
-0.197653 -0.330816 -0.299589 3.000000
0.061877 -0.375380 0.236795 3.000000
0.154008 -0.435030 0.090251 3.000000
-0.202006 -0.382805 0.224285 3.000000
-0.112308 -0.421386 0.140290 3.000000
0.273424 -0.426537 -0.128069 3.000000
-0.289801 -0.341221 -0.287787 4.000000
-0.100745 -0.399753 -0.197282 3.000000
-0.074589 -0.249924 0.365924 3.000000
-0.001378 -0.381115 -0.231496 3.000000
0.208223 0.269117 0.352925 3.000000
-0.067175 0.069176 -0.442066 3.000000
-0.012744 0.445150 0.023191 3.000000
0.174991 0.173449 -0.412454 3.000000
0.074728 0.174829 0.407503 3.000000
0.227252 -0.269064 0.352171 3.000000
-0.165725 -0.376401 -0.239466 3.000000
0.231136 -0.430630 0.109625 3.000000
0.186506 -0.001940 -0.447535 3.000000
0.132124 0.009465 -0.447330 3.000000
-0.080570 0.058553 -0.443749 3.000000
-0.073816 0.239613 -0.377981 3.000000
0.145339 0.391872 -0.214761 3.000000
0.215198 -0.298165 -0.332390 3.000000
-0.062603 0.428315 0.121120 3.000000
-0.239213 0.385758 0.221024 3.000000
-0.142873 -0.439232 -0.071755 3.000000
0.199473 0.383041 0.225618 3.000000
0.181364 0.147046 0.418258 3.000000
0.152177 -0.433720 -0.100465 3.000000
-0.015333 -0.330880 0.295163 3.000000
0.184484 -0.379013 0.230695 3.000000
-0.265568 -0.163596 -0.416274 3.000000
-0.001407 0.380025 -0.235071 3.000000
0.183657 0.278865 0.345364 3.000000
0.041870 0.348574 0.275504 3.000000
0.202490 0.422184 0.140922 3.000000
0.233255 -0.095102 -0.437006 3.000000
