0.234901 0.413619 -0.280319 2.000000
0.107032 -0.332960 -0.371960 2.000000
0.208320 0.474786 -0.154011 2.000000
-0.145101 -0.411037 -0.282574 2.000000
-0.200851 0.455713 0.199975 2.000000
0.172351 0.264434 -0.424602 2.000000
-0.002929 0.485745 0.110067 2.000000
-0.028062 0.117728 0.481773 2.000000
-0.007581 0.240217 0.434355 2.000000
0.052290 -0.353008 -0.352872 2.000000
0.024730 -0.470071 -0.164945 2.000000
-0.130982 -0.473956 -0.153682 2.000000
0.114219 -0.466808 -0.174404 2.000000
0.247925 -0.387300 0.310153 2.000000
-0.131011 0.419781 0.266528 2.000000
-0.248589 0.420525 0.265401 2.000000
-0.209477 0.489615 0.091597 2.000000
0.274732 0.497318 0.031938 2.000000
0.242707 -0.492160 -0.074410 2.000000
-0.270932 0.327123 0.373822 2.000000
0.240627 0.205941 -0.456011 2.000000
0.282919 0.012954 -0.499971 1.000000
0.153074 0.262711 -0.425740 2.000000
0.010809 -0.325220 -0.378970 2.000000
0.279451 0.409203 0.282550 1.000000
-0.014178 -0.150088 -0.476826 2.000000
-0.168861 -0.004103 0.495759 2.000000
0.163763 -0.358055 0.343679 2.000000
-0.269125 -0.119493 -0.485464 2.000000
0.093461 -0.062658 -0.496187 2.000000
-0.125907 -0.360352 0.341143 2.000000
-0.174234 -0.385107 -0.317424 2.000000
-0.008322 -0.494617 0.050643 2.000000
-0.260352 -0.451355 0.207093 2.000000
0.021992 0.496766 0.038749 2.000000
0.259435 -0.334314 -0.370733 2.000000
-0.238145 0.428954 0.251655 2.000000
0.037272 -0.393368 -0.306867 2.000000
0.284854 -0.422286 0.260891 1.000000
-0.019928 -0.357040 -0.348731 2.000000
-0.099974 0.496584 0.041001 2.000000
0.057348 0.376802 -0.328466 2.000000
0.275042 0.075884 -0.494395 1.000000
-0.173268 0.391495 -0.310530 2.000000
-0.013662 -0.488998 0.089328 2.000000
-0.024415 -0.437437 -0.239427 2.000000
0.094106 0.495771 0.051037 2.000000
0.117437 -0.495163 0.045591 2.000000
-0.242708 -0.459051 0.189942 2.000000
0.210667 -0.233838 -0.441528 2.000000
-0.205786 -0.424405 -0.262152 2.000000
-0.153520 -0.323839 -0.380221 2.000000
-0.290247 -0.201675 0.453009 4.000000
-0.041568 -0.278266 -0.414839 2.000000
0.108144 -0.429176 -0.253834 2.000000
0.117189 0.048167 0.493511 2.000000
0.277956 -0.496015 0.037706 1.000000
-0.289304 -0.323889 0.375587 4.000000
-0.168535 -0.423324 -0.263962 2.000000
0.075559 0.011895 0.495751 2.000000
-0.067143 -0.213894 -0.451739 2.000000
0.096284 -0.428508 0.250685 2.000000
0.286629 0.093611 0.487059 1.000000
-0.048062 0.013315 0.495688 2.000000
-0.199749 0.327242 0.373714 2.000000
-0.239360 0.105669 0.484639 2.000000
0.262709 -0.113149 0.482759 2.000000
-0.060995 -0.488339 -0.097150 2.000000
-0.240108 -0.143270 -0.478907 2.000000
0.222471 0.329476 -0.376027 2.000000
-0.152560 0.497274 -0.039562 2.000000
-0.197759 0.008041 0.495924 2.000000
0.225442 0.495911 -0.052500 2.000000
0.275753 -0.120387 -0.485251 1.000000
-0.237745 0.486907 0.104524 2.000000
-0.220900 0.293537 -0.404858 2.000000
-0.010684 -0.057147 0.492604 2.000000
0.151795 0.243775 0.432482 2.000000
0.043383 0.334435 -0.371771 2.000000
0.160738 -0.194678 0.455926 2.000000
-0.234631 0.132654 -0.482261 2.000000
-0.010144 0.484293 -0.120106 2.000000
0.001962 -0.217680 -0.450035 2.000000
0.097823 -0.460923 -0.189373 2.000000
0.139741 -0.299178 0.395476 2.000000
-0.076120 0.323068 -0.381525 2.000000
0.232665 -0.268742 0.416729 2.000000
0.014898 -0.328656 0.371497 2.000000
0.078631 0.026122 0.495113 2.000000
0.197427 0.073153 0.490581 2.000000
0.253668 0.479977 0.132211 2.000000
-0.018061 0.385169 0.314193 2.000000
0.134027 -0.162615 0.468283 2.000000
-0.004777 0.495958 -0.052064 2.000000
0.122191 -0.351800 -0.354114 2.000000
-0.058099 0.016519 0.495544 2.000000
0.223038 0.019374 -0.499856 2.000000
0.257711 -0.474292 -0.152709 2.000000
-0.114365 -0.365200 0.335790 2.000000
-0.070938 0.354383 -0.352606 2.000000
0.223052 -0.125148 -0.484120 2.000000
-0.104259 -0.195200 0.455708 2.000000
0.124921 0.337753 0.364193 2.000000
0.101233 -0.326527 0.373325 2.000000
-0.042526 -0.328043 -0.376413 2.000000
0.271964 0.280441 -0.414035 2.000000
0.160401 -0.490314 0.081679 2.000000
-0.031950 -0.391072 -0.309911 2.000000
-0.114911 0.475801 0.146951 2.000000
-0.167966 0.488349 -0.103035 2.000000
0.275108 -0.495503 -0.046048 2.000000
-0.037006 -0.251573 -0.431670 2.000000
-0.255865 -0.302308 -0.397571 2.000000
-0.150700 0.494434 -0.066175 2.000000
0.235503 0.067014 -0.495678 2.000000
0.024934 0.178855 0.462742 2.000000
0.272382 0.417657 -0.274518 2.000000
-0.025596 0.406228 -0.290887 2.000000
-0.128726 0.134925 -0.481634 2.000000
-0.117999 0.364632 -0.341902 2.000000
0.207914 -0.477298 0.138065 2.000000
0.214440 0.497135 -0.041180 2.000000
-0.129516 -0.069573 0.490806 2.000000
0.021564 -0.159119 -0.474071 2.000000
-0.116370 -0.247554 0.429571 2.000000
0.012333 0.488854 0.095229 2.000000
0.215760 0.416196 -0.276635 2.000000
0.166944 0.493084 -0.075900 2.000000
0.089266 -0.001828 0.495800 2.000000
-0.198598 -0.493889 0.057374 2.000000
-0.065324 0.188360 0.459176 2.000000
0.009014 -0.252374 0.426806 2.000000
0.186426 0.429600 0.250528 2.000000
0.175373 0.498478 0.000762 2.000000
-0.277247 0.485180 0.112766 2.000000
-0.071548 -0.359386 -0.346321 2.000000
-0.015606 0.492136 -0.081405 2.000000
-0.255329 0.430680 -0.253156 2.000000
-0.103621 -0.298423 -0.400669 2.000000
0.171783 0.495024 -0.060708 2.000000
0.051844 -0.497410 -0.007530 2.000000
0.140312 0.060094 -0.496679 2.000000
-0.233735 0.414995 -0.278352 2.000000
-0.101726 0.232097 -0.443170 2.000000
0.028645 0.085734 0.488415 2.000000
-0.084616 -0.454163 -0.205587 2.000000
0.270208 -0.307493 0.389204 2.000000
0.145344 0.110099 0.483586 2.000000
0.061471 0.045047 -0.498138 2.000000
-0.121145 -0.244082 -0.436134 2.000000
0.245936 0.349932 0.352731 2.000000
0.010908 0.497213 0.033239 2.000000
-0.077265 -0.448185 -0.218126 2.000000
-0.032176 0.480941 -0.133838 2.000000
-0.183190 0.070373 -0.495192 2.000000
0.198188 -0.135180 0.476928 2.000000
0.109376 0.440046 0.232311 2.000000
-0.241867 0.118862 0.481504 2.000000
-0.148878 0.495888 -0.052718 2.000000
0.240477 -0.262287 0.420990 2.000000
-0.011038 0.497191 -0.040655 2.000000
-0.014918 0.102352 0.485427 2.000000
0.068190 0.357707 -0.349370 2.000000
-0.278405 -0.448368 0.213748 2.000000
0.120379 0.390160 -0.312205 2.000000
-0.272673 -0.464202 0.176712 2.000000
0.257689 -0.456030 -0.201109 2.000000
-0.062302 -0.496606 0.027261 2.000000
0.119023 -0.045500 0.493665 2.000000
0.179434 0.481114 -0.133271 2.000000
0.116641 -0.452586 0.204349 2.000000
0.223073 0.374531 -0.330973 2.000000
0.145215 -0.466257 -0.176001 2.000000
0.210634 0.498066 -0.021920 2.000000
0.040633 -0.261279 0.421656 2.000000
0.120099 -0.231891 -0.442553 2.000000
0.284941 -0.099338 -0.490250 1.000000
0.081548 0.227069 -0.445648 2.000000
-0.083793 0.498487 -0.012526 2.000000
0.286506 -0.476274 -0.146267 1.000000
0.285792 -0.490427 -0.086385 1.000000
0.044092 -0.429805 0.248557 2.000000
0.126606 -0.198648 0.454271 2.000000
-0.163356 0.495984 -0.051828 2.000000
-0.040733 -0.402919 -0.294208 2.000000
-0.038123 0.317562 -0.386249 2.000000
0.009959 -0.165884 0.467156 2.000000
0.236189 0.391794 -0.310155 2.000000
-0.055423 -0.214099 0.447180 2.000000
-0.075459 -0.284781 0.406140 2.000000
-0.210371 -0.364869 -0.340689 2.000000
0.212806 -0.417789 -0.272346 2.000000
0.077497 -0.184953 0.459981 2.000000
0.086398 -0.001974 -0.500240 2.000000
-0.119241 -0.327464 -0.376937 2.000000
-0.027954 -0.496271 -0.036572 2.000000
-0.186972 -0.062025 0.491898 2.000000
0.236800 0.463405 -0.185918 2.000000
-0.057321 -0.447108 0.216468 2.000000
0.232064 0.423388 0.261063 2.000000
-0.136820 -0.448063 -0.218373 2.000000
-0.188864 -0.372847 -0.331712 2.000000
0.162426 -0.271442 -0.419557 2.000000
0.199199 0.477347 -0.145617 2.000000
-0.102855 -0.280957 0.408664 2.000000
-0.208400 0.493314 0.069162 2.000000
-0.252426 0.464947 -0.181810 2.000000
0.167221 0.482005 -0.129734 2.000000
0.262221 0.276671 0.412318 2.000000
0.160666 0.009890 0.495841 2.000000
-0.126539 0.093734 -0.491395 2.000000
0.246211 -0.423919 0.258211 2.000000
-0.266826 0.286916 -0.409761 2.000000
0.211198 -0.097435 -0.490578 2.000000
-0.208704 -0.476655 -0.144886 2.000000
-0.101245 -0.362864 -0.342748 2.000000
-0.052336 -0.297760 -0.401198 2.000000
-0.230641 0.028969 0.494986 2.000000
0.028261 0.489220 0.093482 2.000000
-0.246721 0.490803 -0.089148 2.000000
-0.024781 0.227336 0.441138 2.000000
0.108442 0.452509 0.207078 2.000000
-0.276662 0.388880 -0.313810 2.000000
0.076680 -0.496827 0.022327 2.000000
-0.267813 -0.351133 -0.354798 2.000000
0.069157 -0.197847 0.454605 2.000000
0.001430 -0.167783 -0.470866 2.000000
0.174193 0.498139 0.019617 2.000000
0.104952 -0.493029 -0.068397 2.000000
-0.089631 0.235749 0.436708 2.000000
-0.083212 0.256347 0.425031 2.000000
0.186171 -0.187143 -0.463601 2.000000
-0.026640 -0.393865 0.301919 2.000000
0.222114 -0.406038 -0.290073 2.000000
0.033337 -0.287715 0.404125 2.000000
0.021984 -0.383329 0.315133 2.000000
0.190404 -0.381461 -0.321673 2.000000
-0.183823 0.476004 0.146363 2.000000
-0.031503 0.007377 -0.500072 2.000000
-0.156006 0.117557 -0.486404 2.000000
-0.274343 0.313023 0.385492 2.000000
-0.223329 0.408056 -0.288274 2.000000
0.186373 -0.069501 0.490816 2.000000
-0.197118 -0.333439 0.367393 2.000000
-0.187822 -0.480133 0.128772 2.000000
-0.090773 -0.099867 0.485542 2.000000
0.132810 -0.323855 0.375617 2.000000
-0.061550 0.366383 0.335833 2.000000
-0.021810 0.409663 0.281853 2.000000
-0.142806 0.480278 -0.136010 2.000000
-0.022312 -0.432251 -0.248470 2.000000
-0.197047 -0.112642 0.482866 2.000000
0.020989 0.416868 -0.275674 2.000000
-0.117244 0.467534 -0.174917 2.000000
-0.109918 -0.320751 0.378281 2.000000
-0.198483 0.496807 0.038250 2.000000
0.279072 0.462872 -0.187341 1.000000
-0.116684 -0.170589 -0.469813 2.000000
-0.180964 0.498276 0.012004 2.000000
-0.022994 0.187994 -0.463493 2.000000
-0.215812 -0.413568 -0.278740 2.000000
0.101617 0.443256 0.225855 2.000000
0.179018 0.489411 -0.097230 2.000000
-0.141754 -0.487747 0.096595 2.000000
0.286636 0.496385 0.043451 1.000000
-0.212237 -0.494319 0.053400 2.000000
-0.219670 -0.326753 0.373130 2.000000
-0.063129 -0.466391 0.170877 2.000000
-0.057654 -0.164381 -0.472142 2.000000
-0.083477 -0.479373 0.131264 2.000000
-0.211335 0.398253 -0.302055 2.000000
-0.233494 0.287517 0.404732 2.000000
0.146175 -0.421844 0.261615 2.000000
0.027496 -0.309331 -0.391971 2.000000
0.125076 -0.458337 -0.195575 2.000000
0.274843 0.134677 -0.481703 1.000000
0.169945 0.283932 0.407239 2.000000
0.262370 -0.085891 0.488445 2.000000
0.173874 -0.481290 -0.128096 2.000000
-0.015520 0.356632 0.345849 2.000000
0.068220 0.020481 -0.499836 2.000000
0.235412 -0.009652 0.495659 2.000000
0.129489 -0.272477 -0.418887 2.000000
0.285045 0.337385 -0.369155 1.000000
0.007202 0.496092 -0.050828 2.000000
-0.224414 -0.492813 0.067163 2.000000
0.199577 -0.288212 -0.407883 2.000000
-0.145128 -0.473879 0.149270 2.000000
-0.158043 -0.455309 -0.202838 2.000000
0.243662 -0.138461 -0.480374 2.000000
-0.214338 -0.217018 0.445742 2.000000
-0.235094 0.462999 0.182498 2.000000
-0.097540 0.047736 -0.497920 2.000000
-0.244203 0.156911 0.470704 2.000000
-0.047914 0.485801 -0.113760 2.000000
0.276031 -0.385225 -0.317287 1.000000
-0.007297 0.494745 -0.063293 2.000000
-0.117908 -0.312300 0.385532 2.000000
-0.074042 -0.405010 -0.291437 2.000000
0.132133 -0.364659 -0.340905 2.000000
-0.185235 0.346169 0.356571 2.000000
0.202875 -0.301581 -0.398151 2.000000
0.203551 -0.422441 -0.265299 2.000000
0.243608 -0.288660 0.403412 2.000000
0.247963 -0.058037 -0.496687 2.000000
-0.168354 -0.357215 0.344498 2.000000
0.254542 0.384170 0.315357 2.000000
-0.091544 0.401517 0.293072 2.000000
-0.074078 0.498103 -0.021081 2.000000
-0.180771 0.305840 -0.395577 2.000000
-0.062942 0.495972 0.048549 2.000000
-0.094023 -0.411490 -0.281887 2.000000
-0.020661 0.009244 0.495870 2.000000
-0.040370 -0.318723 -0.384482 2.000000
-0.098594 0.165688 -0.471930 2.000000
-0.244363 -0.495948 -0.040558 2.000000
-0.114919 0.461211 0.186788 2.000000
-0.106462 -0.310320 0.387071 2.000000
0.278339 0.123577 -0.484767 1.000000
-0.055637 -0.443899 -0.226824 2.000000
-0.223099 0.150883 0.472543 2.000000
-0.165151 0.481706 -0.130991 2.000000
0.128245 0.494459 -0.065943 2.000000
0.226496 -0.341013 0.360271 2.000000
0.137221 -0.070789 -0.495165 2.000000
0.244325 0.400817 -0.298624 2.000000
0.007788 -0.295118 0.398540 2.000000
0.146532 -0.082218 -0.493197 2.000000
-0.171068 -0.429093 -0.253978 2.000000
0.154176 0.498603 -0.006154 2.000000
0.159636 -0.207487 0.450438 2.000000
-0.001067 0.471713 0.158803 2.000000
0.159108 -0.064393 -0.496000 2.000000
-0.258557 -0.024735 -0.499483 2.000000
0.209772 0.113642 0.482744 2.000000
0.107815 0.103055 0.485260 2.000000
-0.287476 0.039861 -0.498558 4.000000
-0.024177 0.267720 0.418097 2.000000
0.038846 -0.318525 -0.384640 2.000000
0.056721 -0.355324 0.346339 2.000000
0.192490 -0.462818 0.180398 2.000000
-0.242667 -0.496602 0.027343 2.000000
-0.128483 -0.274966 -0.417147 2.000000
-0.097648 0.484466 -0.119376 2.000000
0.045104 -0.070341 -0.495242 2.000000
0.165617 -0.385210 -0.317305 2.000000
0.261764 -0.489854 -0.089916 2.000000
0.161478 0.232501 -0.442971 2.000000
-0.164154 0.378511 0.321952 2.000000
0.072436 0.092123 -0.491732 2.000000
-0.140974 0.498406 -0.014324 2.000000
-0.032352 0.017738 0.495489 2.000000
-0.218360 0.365977 0.336250 2.000000
0.168132 -0.284979 0.406009 2.000000
0.141605 0.384673 0.314771 2.000000
0.213890 -0.472954 0.152303 2.000000
-0.005358 0.490228 -0.092490 2.000000
-0.046737 -0.420805 0.263321 2.000000
-0.247192 -0.478653 0.133625 2.000000
-0.277510 -0.375044 0.324922 2.000000
0.188715 -0.056973 -0.496802 2.000000
-0.014220 0.177294 0.463328 2.000000
-0.027614 -0.298561 -0.400559 2.000000
-0.096983 0.444136 0.224069 2.000000
-0.135412 -0.442552 -0.229558 2.000000
-0.120185 0.481808 -0.130563 2.000000
-0.050115 -0.119036 0.481384 2.000000
0.001977 0.373827 -0.331750 2.000000
0.243339 -0.450305 0.209432 2.000000
0.260801 -0.019893 -0.499700 2.000000
0.005663 0.054801 0.492794 2.000000
0.216157 0.104396 0.484941 2.000000
-0.052100 0.472401 -0.161828 2.000000
0.168922 0.451324 -0.213798 2.000000
0.059680 0.392358 0.305212 2.000000
0.032066 -0.102283 0.485036 2.000000
-0.250106 0.384480 -0.319328 2.000000
-0.218765 -0.200909 -0.457566 2.000000
-0.071996 0.466119 -0.178685 2.000000
0.048609 -0.436732 0.236174 2.000000
0.131232 -0.494024 -0.061522 2.000000
0.177740 -0.193873 0.456262 2.000000
-0.212855 0.431365 -0.252033 2.000000
0.016216 0.460946 0.187423 2.000000
0.167627 -0.464079 -0.181804 2.000000
0.162707 0.046086 -0.498054 2.000000
0.209172 -0.493341 0.062448 2.000000
-0.134585 -0.493002 0.065584 2.000000
-0.289431 -0.067984 -0.495612 4.000000
-0.082570 0.490673 0.086546 2.000000
0.268934 -0.497199 0.014048 2.000000
0.133486 -0.409859 -0.284357 2.000000
0.273306 0.250996 -0.432538 2.000000
-0.282400 0.398731 -0.301456 2.000000
0.208513 0.225082 0.442324 2.000000
0.141400 0.103276 -0.489396 2.000000
0.118870 0.498430 0.003426 2.000000
0.166991 0.495866 0.049858 2.000000
0.069672 0.380439 -0.324396 2.000000
0.006935 -0.294520 -0.403471 2.000000
0.165002 0.308182 0.389352 2.000000
0.205920 0.112171 -0.487532 2.000000
-0.084496 -0.488648 0.091356 2.000000
-0.221821 0.446291 0.219697 2.000000
0.196694 0.154728 -0.475711 2.000000
-0.173210 0.412589 -0.281792 2.000000
-0.139807 0.485420 0.111620 2.000000
-0.180545 -0.061876 -0.496272 2.000000
-0.260122 -0.280759 -0.413095 2.000000
-0.109039 0.134505 -0.481750 2.000000
0.185443 0.315957 -0.387627 2.000000
-0.130017 0.370421 0.331380 2.000000
-0.053466 -0.029499 0.494961 2.000000
-0.134502 -0.496777 -0.030322 2.000000
-0.257341 0.130939 0.478628 2.000000
-0.068692 0.399810 0.295334 2.000000
0.132912 -0.169664 -0.470160 2.000000
0.248084 -0.494817 0.048788 2.000000
-0.278484 -0.496944 -0.028258 4.000000
0.252475 -0.207574 0.450396 2.000000
0.008719 0.253155 -0.431300 2.000000
-0.100531 -0.444620 -0.225362 2.000000
0.088107 0.487751 -0.105554 2.000000
0.262615 0.460050 0.189572 2.000000
0.008927 -0.378267 -0.325396 2.000000
0.104369 0.282832 0.408008 2.000000
0.012789 0.468686 -0.171844 2.000000
-0.239751 -0.109314 0.483563 2.000000
0.097769 -0.495923 -0.040865 2.000000
0.058046 -0.400752 -0.297080 2.000000
0.171433 0.420290 -0.270199 2.000000
-0.205596 -0.057082 0.492613 2.000000
0.116148 0.197709 0.455108 2.000000
0.124621 -0.406589 0.284552 2.000000
-0.192283 -0.193387 -0.460941 2.000000
-0.204703 0.369323 -0.336723 2.000000
-0.034719 0.426929 0.255186 2.000000
0.186293 0.172988 -0.469412 2.000000
-0.214170 0.358073 0.344369 2.000000
-0.063731 0.482867 -0.126107 2.000000
0.071388 -0.014407 0.495573 2.000000
-0.195769 -0.069543 0.490810 2.000000
0.015893 -0.312349 -0.389565 2.000000
-0.076704 -0.493098 -0.067925 2.000000
0.057482 0.156544 0.470816 2.000000
0.235702 0.160715 -0.473645 2.000000
-0.051570 0.416203 -0.276625 2.000000
0.134517 0.425492 0.257691 2.000000
0.123026 -0.479170 -0.135774 2.000000
0.113253 0.315225 -0.388255 2.000000
0.271578 0.405322 0.288028 2.000000
-0.224814 0.482468 -0.127783 2.000000
0.066014 0.434837 0.241394 2.000000
0.088173 -0.218520 0.445002 2.000000
-0.259856 0.496450 -0.047515 2.000000
-0.138500 0.118250 -0.486237 2.000000
0.078225 0.083020 -0.493362 2.000000
-0.188134 -0.181144 -0.465852 2.000000
-0.288639 -0.320777 -0.382845 4.000000
-0.061546 -0.227060 0.440793 2.000000
0.144740 -0.124394 0.479905 2.000000
0.156148 0.015290 -0.499929 2.000000
-0.229325 -0.465616 0.172942 2.000000
-0.025606 0.180338 0.462186 2.000000
-0.285754 -0.122308 0.480481 4.000000
-0.155068 0.423308 0.261184 2.000000
-0.195885 0.070133 0.491101 2.000000
0.101146 -0.235748 -0.440522 2.000000
0.050325 -0.141329 0.475230 2.000000
0.250778 0.277809 0.411522 2.000000
0.225031 -0.233491 -0.441710 2.000000
-0.267917 -0.018296 -0.499772 2.000000
0.143151 0.175039 -0.468704 2.000000
0.063615 -0.466994 0.169270 2.000000
-0.122499 -0.422153 0.261109 2.000000
0.000942 -0.479651 -0.134034 2.000000
0.255273 0.240989 -0.438276 2.000000
-0.233253 0.146058 -0.478561 2.000000
0.008936 -0.477081 -0.143341 2.000000
-0.084399 -0.286003 -0.409428 2.000000
-0.029770 0.309679 -0.392680 2.000000
0.010690 0.436346 0.238763 2.000000
0.059965 0.053064 0.492981 2.000000
-0.067111 0.035611 0.494688 2.000000
0.074787 -0.177564 -0.467195 2.000000
0.276268 -0.065460 0.491401 2.000000
0.015374 0.337217 0.364679 2.000000
-0.088689 -0.494791 -0.054839 2.000000
-0.020739 0.242550 -0.437381 2.000000
0.137783 0.272741 0.415037 2.000000
0.045121 0.393996 -0.307395 2.000000
0.094235 0.333227 -0.372808 2.000000
-0.198510 -0.440179 0.229628 2.000000
-0.232372 -0.107883 -0.488223 2.000000
-0.056308 0.344603 0.357989 2.000000
0.267091 0.370579 -0.335336 2.000000
-0.170213 -0.365540 0.335414 2.000000
-0.124739 -0.469358 0.162969 2.000000
-0.289120 0.408544 -0.287576 4.000000
-0.180078 0.477379 -0.145510 2.000000
-0.233813 -0.477317 -0.142488 2.000000
-0.209812 0.493464 -0.073688 2.000000
-0.281632 -0.404392 0.287694 4.000000
-0.201239 0.483221 -0.124617 2.000000
0.275277 0.219940 -0.449160 1.000000
0.091072 -0.114144 -0.486735 2.000000
-0.270023 -0.472582 0.153522 2.000000
-0.042824 0.303858 -0.397072 2.000000
-0.235135 0.491958 -0.082438 2.000000
0.035050 -0.119016 -0.485577 2.000000
-0.281069 0.167147 0.467135 2.000000
-0.164891 -0.164266 0.467713 2.000000
-0.039389 0.224629 -0.446850 2.000000
0.022548 -0.375125 -0.329057 2.000000
-0.288959 0.422661 0.262165 4.000000
-0.063189 -0.156284 0.470467 2.000000
0.042550 0.300874 -0.399324 2.000000
-0.132272 0.273756 0.414356 2.000000
-0.041641 -0.474534 -0.152008 2.000000
-0.257593 0.461433 -0.191173 2.000000
0.188914 -0.173768 -0.468620 2.000000
-0.236838 -0.487440 0.098197 2.000000
0.120736 -0.409260 -0.285264 2.000000
-0.193744 0.243124 -0.437052 2.000000
-0.113702 -0.497604 0.003214 2.000000
0.111010 0.360490 -0.346475 2.000000
-0.164233 -0.124881 0.479770 2.000000
-0.029739 0.433079 0.244461 2.000000
-0.178816 -0.375688 -0.328401 2.000000
0.076541 0.357913 0.344533 2.000000
0.210201 -0.497475 0.007878 2.000000
-0.137122 0.071594 0.490849 2.000000
0.018921 0.106176 -0.488788 2.000000
-0.016903 -0.462925 0.180114 2.000000
-0.082513 -0.329249 -0.375321 2.000000
-0.030442 -0.322580 -0.381362 2.000000
-0.080665 -0.477854 -0.140543 2.000000
0.267424 0.381546 0.318415 2.000000
-0.111701 0.417854 0.269447 2.000000
0.230609 -0.037357 -0.498917 2.000000
-0.145089 0.463166 0.182097 2.000000
-0.034814 -0.497572 0.001475 2.000000
0.275462 0.403838 -0.294304 2.000000
0.093978 -0.474761 -0.151349 2.000000
0.061917 -0.482877 0.117398 2.000000
0.034033 0.173703 0.464675 2.000000
-0.063910 -0.192871 0.456679 2.000000
-0.161243 0.252824 0.427179 2.000000
-0.046811 0.475089 -0.153018 2.000000
0.204285 0.431880 0.246552 2.000000
-0.088833 0.370101 0.331753 2.000000
-0.073444 -0.496594 -0.032584 2.000000
-0.167723 -0.496768 -0.030433 2.000000
0.283787 0.468254 -0.172996 1.000000
0.042463 0.410127 -0.285312 2.000000
0.078930 -0.112665 -0.487086 2.000000
-0.264827 -0.213388 0.447531 2.000000
0.157846 0.453108 -0.209822 2.000000
0.035546 -0.334099 0.366827 2.000000
-0.070547 0.087152 0.488171 2.000000
0.219974 -0.274153 0.413157 2.000000
0.071530 -0.430640 0.247187 2.000000
0.248798 -0.156464 0.470405 2.000000
0.228962 -0.492255 -0.073750 2.000000
-0.263749 0.145961 0.474045 2.000000
-0.220679 -0.131027 -0.482642 2.000000
-0.205944 -0.258117 0.423513 2.000000
-0.151499 -0.261415 0.421565 2.000000
-0.193560 -0.216737 -0.450463 2.000000
0.142989 0.167147 0.467135 2.000000
0.082402 -0.326678 0.373195 2.000000
-0.011436 -0.400518 0.293233 2.000000
-0.099544 -0.370623 -0.334304 2.000000
0.257468 0.482852 0.121794 2.000000
-0.290222 0.317314 0.382070 4.000000
-0.115226 -0.421547 -0.266652 2.000000
-0.034602 0.411918 0.278438 2.000000
0.133471 -0.086814 -0.492406 2.000000
-0.217207 0.314492 0.384320 2.000000
0.040498 -0.013578 -0.499983 2.000000
-0.240547 0.042637 0.494108 2.000000
0.215858 0.343191 -0.363503 2.000000
0.182253 -0.031388 0.494808 2.000000
-0.137874 0.341205 -0.365435 2.000000
-0.193083 -0.075183 -0.494408 2.000000
-0.290125 -0.002176 -0.500244 4.000000
0.200864 -0.495813 0.039571 2.000000
0.107107 0.184446 -0.464972 2.000000
-0.019085 -0.425809 -0.259705 2.000000
-0.150696 -0.107964 -0.488203 2.000000
-0.110916 0.397810 0.297985 2.000000
-0.275437 0.071770 -0.494990 2.000000
-0.172221 -0.292018 -0.405221 2.000000
-0.158723 0.397353 0.298590 2.000000
0.012799 -0.489105 0.088704 2.000000
0.215158 0.208457 -0.454819 2.000000
-0.100476 -0.229142 0.439768 2.000000
0.025443 0.478112 0.138968 2.000000
-0.014354 -0.004461 -0.500285 2.000000
0.177602 0.480895 0.128886 2.000000
0.137602 0.309373 0.388401 2.000000
0.033803 -0.496670 -0.031642 2.000000
0.019192 0.497868 0.025148 2.000000
-0.103376 -0.098107 -0.490462 2.000000
0.109876 -0.122533 0.480419 2.000000
0.032382 0.375866 0.325035 2.000000
0.271881 0.492313 0.076078 2.000000
0.218946 -0.497353 -0.010683 2.000000
0.093447 0.384731 0.314703 2.000000
0.225084 0.263355 -0.425315 2.000000
0.252530 -0.109688 -0.487794 2.000000
-0.225208 0.485980 0.108946 2.000000
-0.139251 0.346744 0.356006 2.000000
0.256069 0.178020 -0.467652 2.000000
-0.014919 0.056000 0.492664 2.000000
0.176440 0.475885 0.146710 2.000000
0.035024 -0.151350 -0.476441 2.000000
-0.018921 0.454974 0.201748 2.000000
-0.206814 0.350891 0.351746 2.000000
0.176917 -0.491995 -0.075549 2.000000
-0.175828 0.484960 0.113816 2.000000
-0.053336 0.397475 0.298429 2.000000
-0.095237 -0.305716 -0.394854 2.000000
0.181218 -0.116961 -0.486065 2.000000
-0.149435 -0.374462 -0.329830 2.000000
0.066165 0.319573 -0.384524 2.000000
-0.095182 0.449223 -0.218480 2.000000
0.155407 -0.493613 0.059932 2.000000
0.029106 -0.039092 -0.498734 2.000000
0.273114 0.480759 0.129379 2.000000
-0.113349 0.488465 0.097084 2.000000
-0.196650 -0.495585 -0.045033 2.000000
-0.003882 0.131725 0.478389 2.000000
0.115660 -0.454537 -0.204690 2.000000
0.019092 -0.209479 0.449457 2.000000
0.199930 -0.414792 0.272823 2.000000
0.268857 -0.463231 -0.183839 2.000000
0.049055 0.059109 -0.496822 2.000000
0.128474 0.214252 -0.451963 2.000000
0.205905 0.200049 0.454058 2.000000
0.234276 -0.225600 -0.445865 2.000000
-0.100714 0.104894 0.484823 2.000000
-0.216345 -0.486360 0.102741 2.000000
0.047578 -0.491854 -0.076522 2.000000
-0.266000 -0.201270 -0.457404 2.000000
0.090151 0.193627 0.456940 2.000000
0.193650 -0.444670 0.221099 2.000000
0.158509 -0.473245 -0.155745 2.000000
-0.223627 0.348829 0.353864 2.000000
0.115570 0.438004 -0.240059 2.000000
0.032717 0.282624 -0.412594 2.000000
-0.144091 0.292544 -0.405608 2.000000
-0.126449 -0.440153 -0.234427 2.000000
-0.166286 -0.264116 -0.424024 2.000000
0.195593 -0.497481 -0.003564 2.000000
-0.276863 -0.245738 -0.435227 2.000000
0.201182 0.257444 0.424362 2.000000
0.219028 -0.419046 0.266205 2.000000
0.261956 0.331050 -0.374676 2.000000
-0.049440 -0.306304 0.390101 2.000000
0.263296 -0.428772 0.250251 2.000000
-0.271293 0.012999 0.495702 2.000000
-0.033627 0.473850 -0.157078 2.000000
0.027847 0.466008 0.175282 2.000000
-0.085926 -0.453709 0.201847 2.000000
0.197810 0.493891 -0.071196 2.000000
0.154600 -0.121524 -0.484981 2.000000
0.037307 0.081123 -0.493637 2.000000
0.069365 -0.485344 0.107015 2.000000
0.143974 -0.470801 -0.162830 2.000000
-0.019942 0.450005 -0.216736 2.000000
-0.085142 0.497763 0.026443 2.000000
-0.213816 -0.274520 -0.417458 2.000000
0.011636 -0.219036 0.444748 2.000000
0.034504 0.388673 0.310097 2.000000
-0.154654 0.316666 -0.387019 2.000000
0.259075 -0.449373 0.211509 2.000000
-0.266886 -0.496750 0.024051 2.000000
-0.008876 -0.033638 -0.499084 2.000000
-0.033805 0.060211 -0.496662 2.000000
-0.070571 -0.141329 0.475230 2.000000
-0.054314 0.351700 0.350915 2.000000
-0.185917 0.326304 0.374563 2.000000
0.221097 -0.497536 -0.000512 2.000000
0.069679 0.429966 -0.254327 2.000000
-0.223774 0.487816 -0.105281 2.000000
-0.205114 0.435096 -0.245581 2.000000
0.284611 0.021575 0.495317 1.000000
-0.027585 0.058361 0.492409 2.000000
0.108980 0.404459 -0.293416 2.000000
0.100132 -0.403685 0.288704 2.000000
-0.265340 -0.042055 -0.498414 2.000000
0.158559 -0.342539 0.358786 2.000000
0.281995 0.445950 -0.224968 1.000000
0.152673 0.225757 0.441969 2.000000
-0.073622 -0.431009 0.246582 2.000000
-0.021844 -0.473300 0.151168 2.000000
-0.285676 0.472084 0.157728 4.000000
-0.171472 -0.421122 0.262801 2.000000
-0.099281 -0.491848 -0.076561 2.000000
-0.231000 0.193283 -0.461288 2.000000
0.155615 -0.233745 -0.441577 2.000000
0.022992 -0.497135 -0.022806 2.000000
-0.248736 -0.337806 -0.367571 2.000000
-0.127097 0.408477 0.283649 2.000000
0.043079 0.067377 -0.495625 2.000000
0.079736 0.291971 0.401617 2.000000
-0.019355 -0.339359 -0.366164 2.000000
0.109408 -0.494576 -0.057484 2.000000
-0.189506 -0.365016 -0.340538 2.000000
0.114666 0.423505 -0.264926 2.000000
0.066672 -0.282149 -0.412123 2.000000
-0.223953 0.475621 -0.151273 2.000000
-0.286242 -0.331817 0.368785 4.000000
0.220336 0.485389 -0.115493 2.000000
0.221944 0.280545 -0.413967 2.000000
0.034446 0.425233 0.258142 2.000000
-0.107680 -0.481136 -0.128652 2.000000
-0.059527 0.498494 -0.000088 2.000000
-0.254519 -0.470070 0.161072 2.000000
-0.213303 -0.101941 0.485107 2.000000
0.116795 0.458498 -0.197810 2.000000
0.232106 0.179858 -0.466885 2.000000
0.133698 0.457447 -0.200154 2.000000
-0.103742 -0.407351 0.283462 2.000000
-0.088591 -0.101840 -0.489659 2.000000
-0.153706 0.345779 0.356924 2.000000
0.150403 0.175915 0.463845 2.000000
0.058516 -0.470688 -0.163156 2.000000
-0.210487 -0.466135 0.171559 2.000000
-0.197536 -0.317725 -0.385278 2.000000
-0.216548 -0.373573 0.326546 2.000000
0.136033 -0.212343 0.448046 2.000000
0.219243 0.270892 -0.420339 2.000000
-0.228635 0.476551 0.144622 2.000000
-0.099312 0.202919 -0.457271 2.000000
0.121719 0.107209 -0.488572 2.000000
0.015293 -0.233809 -0.441543 2.000000
0.089712 -0.475700 0.143303 2.000000
0.004527 0.047184 -0.497965 2.000000
-0.076618 0.498174 0.017661 2.000000
-0.079167 0.424078 -0.263986 2.000000
-0.047642 0.496436 0.042822 2.000000
-0.081369 -0.221822 0.443375 2.000000
0.183134 0.145976 0.474040 2.000000
-0.077044 0.185280 0.460331 2.000000
-0.049405 0.160139 -0.473844 2.000000
-0.067334 -0.443948 -0.226725 2.000000
0.185676 -0.456387 -0.200253 2.000000
0.003052 0.110970 0.483379 2.000000
-0.221943 -0.458768 -0.194541 2.000000
0.080836 0.326647 -0.378454 2.000000
0.235533 0.130995 -0.482719 2.000000
-0.070998 0.455162 0.201295 2.000000
-0.268702 -0.302354 0.393080 2.000000
-0.238509 -0.083341 0.488814 2.000000
0.260687 -0.390871 0.305674 2.000000
0.227602 0.461799 -0.190199 2.000000
-0.257739 0.264689 -0.424434 2.000000
-0.065743 -0.179954 0.462065 2.000000
0.035061 -0.494816 -0.054525 2.000000
-0.103051 0.299181 0.396529 2.000000
-0.105031 -0.471186 -0.161715 2.000000
0.179152 -0.495060 -0.051515 2.000000
0.090999 0.478414 -0.142119 2.000000
-0.237445 0.245757 0.431438 2.000000
-0.258919 -0.431205 -0.250294 2.000000
-0.287404 -0.240935 0.433366 4.000000
-0.278421 -0.084554 0.488639 2.000000
-0.155930 0.356852 -0.350202 2.000000
0.200406 -0.145234 -0.478308 2.000000
-0.142427 -0.045310 -0.498062 2.000000
0.252747 0.189647 -0.462804 2.000000
-0.059159 0.480904 0.128852 2.000000
-0.062946 -0.303105 -0.396936 2.000000
0.137256 0.457836 0.194882 2.000000
-0.176369 -0.456954 0.194615 2.000000
0.160840 -0.493617 -0.064336 2.000000
0.093059 -0.149959 -0.476866 2.000000
-0.125724 0.233339 -0.442558 2.000000
-0.278043 -0.338143 0.363066 2.000000
0.191762 0.497056 -0.041904 2.000000
-0.023704 -0.273949 -0.417857 2.000000
-0.120303 -0.445040 -0.224509 2.000000
0.235756 0.446785 0.218695 2.000000
0.281986 -0.472472 -0.157986 1.000000
-0.219272 0.336696 0.365151 2.000000
0.105277 0.158227 -0.474504 2.000000
-0.183631 0.315051 -0.388404 2.000000
-0.224013 0.463886 -0.184636 2.000000
0.206121 0.448672 -0.219707 2.000000
0.263031 0.068424 -0.495474 2.000000
-0.107460 0.369888 0.332001 2.000000
0.028045 -0.495703 -0.043580 2.000000
-0.133164 0.324981 0.375762 2.000000
0.259720 0.206827 -0.455622 2.000000
-0.271916 0.290574 0.402594 2.000000
0.131347 0.447944 0.216341 2.000000
-0.148783 0.117398 0.481852 2.000000
0.139313 0.392782 0.304649 2.000000
0.225334 0.396311 0.299973 2.000000
0.063473 0.416077 -0.276804 2.000000
-0.258403 -0.433705 0.241925 2.000000
0.087905 -0.377356 -0.326457 2.000000
0.096106 -0.128774 0.478696 2.000000
-0.135408 0.312103 -0.390852 2.000000
-0.098781 0.454272 0.203430 2.000000
0.054457 -0.137291 -0.480731 2.000000
-0.105651 -0.167101 0.466736 2.000000
0.248062 -0.260452 -0.426257 2.000000
-0.155442 0.362077 0.340256 2.000000
-0.140540 -0.329754 0.370555 2.000000
0.191719 -0.439333 0.231235 2.000000
0.061034 -0.095469 0.486463 2.000000
0.271928 -0.158449 0.469720 2.000000
0.131231 -0.382300 -0.320695 2.000000
-0.169090 0.384537 0.314929 2.000000
-0.168903 0.398206 0.297460 2.000000
0.182017 -0.044799 -0.498117 2.000000
-0.232876 0.091895 -0.491780 2.000000
-0.215992 -0.462543 -0.185488 2.000000
-0.103240 0.185782 -0.464416 2.000000
-0.003983 -0.490163 -0.088210 2.000000
-0.131798 -0.484073 -0.117511 2.000000
0.022380 -0.044673 0.493732 2.000000
0.001443 -0.238241 -0.439209 2.000000
0.247424 0.159856 -0.473942 2.000000
-0.041486 -0.455443 0.197981 2.000000
0.045418 -0.108581 -0.488057 2.000000
0.010367 0.336791 -0.369733 2.000000
-0.059712 0.256731 0.424797 2.000000
-0.137214 0.354292 0.348253 2.000000
0.190569 0.408691 -0.287366 2.000000
-0.238935 -0.190166 -0.462387 2.000000
-0.049783 0.238973 0.435010 2.000000
-0.195020 -0.011375 -0.500082 2.000000
0.248416 -0.093210 0.486937 2.000000
-0.288728 -0.252759 0.426586 4.000000
0.157377 -0.432812 -0.247492 2.000000
0.113112 -0.480774 0.126247 2.000000
0.248400 0.482073 -0.129447 2.000000
0.023766 -0.309745 0.387505 2.000000
-0.149095 0.413389 -0.280648 2.000000
-0.084289 0.477688 -0.144498 2.000000
0.220149 -0.494211 0.054400 2.000000
-0.040993 0.266824 0.418644 2.000000
0.125610 0.149617 -0.477474 2.000000
-0.247400 0.224912 0.442414 2.000000
-0.118939 -0.226378 0.441130 2.000000
0.167574 0.491689 0.080394 2.000000
-0.221889 0.448991 -0.218996 2.000000
-0.004061 -0.384488 0.313679 2.000000
-0.028682 -0.491623 0.074077 2.000000
-0.240886 0.368254 -0.337903 2.000000
0.205532 0.249203 -0.433566 2.000000
0.218505 -0.246680 -0.434653 2.000000
0.136910 0.493708 -0.072273 2.000000
-0.181107 -0.104330 -0.489067 2.000000
0.044005 0.089635 -0.492253 2.000000
0.040557 0.122410 0.480660 2.000000
-0.040547 -0.441675 0.226786 2.000000
0.239484 -0.075951 0.489883 2.000000
0.268845 0.431418 0.247358 2.000000
0.213346 -0.495868 -0.041542 2.000000
-0.290184 0.417368 -0.274959 4.000000
-0.197522 -0.420408 -0.268378 2.000000
-0.039385 0.004681 0.495917 2.000000
-0.045640 -0.427296 -0.257111 2.000000
0.272572 -0.116666 0.482023 2.000000
0.169817 -0.493621 0.059859 2.000000
0.285624 -0.078054 0.489579 1.000000
0.063892 -0.349369 0.352137 2.000000
0.225441 0.488611 -0.101879 2.000000
0.165128 -0.369665 -0.335420 2.000000
-0.255627 -0.233622 0.437560 2.000000
0.220777 0.008963 -0.500043 2.000000
0.162276 0.397568 -0.302915 2.000000
0.124918 0.298809 0.396825 2.000000
-0.060675 0.493698 -0.072330 2.000000
0.087481 -0.239739 0.434052 2.000000
-0.238552 -0.014990 0.495563 2.000000
-0.223403 -0.488222 0.093831 2.000000
-0.195326 -0.392692 -0.307763 2.000000
-0.036686 0.038086 0.494577 2.000000
-0.066470 0.228944 -0.444724 2.000000
0.185622 -0.300519 0.394464 2.000000
0.074727 0.476525 0.144715 2.000000
-0.118539 0.368745 0.333333 2.000000
-0.068088 -0.167999 -0.470785 2.000000
0.063862 -0.218357 -0.449679 2.000000
0.252523 0.295735 -0.403201 2.000000
0.075163 -0.234124 0.437272 2.000000
0.255157 -0.399109 0.295247 2.000000
0.271692 0.127845 0.479369 2.000000
-0.154673 -0.238372 -0.439140 2.000000
0.069613 0.320639 0.379418 2.000000
-0.069771 0.486236 -0.111927 2.000000
-0.160890 -0.264752 0.419363 2.000000
-0.174382 -0.474427 -0.152319 2.000000
0.023148 -0.457939 0.192420 2.000000
-0.062020 -0.183391 -0.465009 2.000000
-0.189486 0.389878 0.308499 2.000000
0.149444 0.042263 0.494149 2.000000
-0.090209 0.474091 -0.156289 2.000000
-0.034344 0.084495 0.488628 2.000000
0.087478 -0.050706 0.493243 2.000000
-0.191340 -0.062905 -0.496161 2.000000
0.238923 0.003040 -0.500150 2.000000
0.248086 0.199224 -0.458811 2.000000
-0.019296 0.004800 -0.500118 2.000000
0.175566 0.285322 -0.410812 2.000000
0.111043 0.104612 -0.489116 2.000000
0.145244 0.053124 0.492975 2.000000
-0.204232 -0.496208 -0.037345 2.000000
-0.101230 0.449807 0.212561 2.000000
-0.038395 0.331597 0.369769 2.000000
0.020777 -0.093418 0.486893 2.000000
0.097768 0.238812 0.435095 2.000000
0.248067 0.154640 0.471397 2.000000
-0.158893 -0.037181 -0.498925 2.000000
0.034934 -0.227125 0.440762 2.000000
0.170637 -0.445168 -0.224248 2.000000
0.224799 -0.424755 -0.261543 2.000000
-0.088511 0.462223 0.184359 2.000000
-0.268628 0.018669 -0.499868 2.000000
-0.197257 0.375223 0.325784 2.000000
-0.273446 -0.486485 0.102215 2.000000
0.211708 -0.486309 -0.106840 2.000000
-0.106768 0.381015 0.319034 2.000000
-0.049022 -0.271590 0.414848 2.000000
0.085038 -0.250542 -0.432299 2.000000
0.188807 0.458958 0.192191 2.000000
0.252820 0.352113 -0.354816 2.000000
0.170642 -0.214533 0.446966 2.000000
0.068293 0.384837 0.314579 2.000000
-0.232060 -0.344363 -0.361632 2.000000
0.196028 0.103907 -0.489263 2.000000
0.235086 0.470491 -0.167036 2.000000
-0.288203 -0.009201 0.495667 4.000000
-0.115096 0.434755 0.241538 2.000000
-0.074799 -0.497199 -0.019226 2.000000
-0.008504 -0.249115 -0.433169 2.000000
0.214948 0.233616 -0.442421 2.000000
-0.113185 0.360124 0.342263 2.000000
0.258022 -0.403714 -0.293154 2.000000
-0.086744 -0.372754 -0.331821 2.000000
0.086017 -0.175722 0.463762 2.000000
0.068100 0.305800 0.391251 2.000000
-0.162485 0.465519 -0.180286 2.000000
-0.146978 -0.496959 0.019390 2.000000
0.070946 0.172587 0.465094 2.000000
-0.254802 -0.222535 0.443023 2.000000
0.001635 -0.303666 0.392091 2.000000
-0.101613 -0.496767 -0.030441 2.000000
0.150801 0.471706 -0.163796 2.000000
-0.154000 -0.438483 -0.237604 2.000000
0.072805 -0.400089 -0.297959 2.000000
0.285018 -0.434338 -0.244831 1.000000
-0.103159 0.477932 0.139617 2.000000
-0.212963 0.467949 -0.173809 2.000000
-0.211701 -0.333306 0.367507 2.000000
0.001212 0.106798 -0.488658 2.000000
0.236634 -0.053093 -0.497221 2.000000
-0.167649 0.358316 0.344119 2.000000
-0.104682 -0.482276 0.119926 2.000000
-0.059225 -0.424489 0.257277 2.000000
0.225465 0.410453 -0.284846 2.000000
-0.206136 -0.254448 -0.429917 2.000000
-0.124623 -0.373651 -0.330775 2.000000
-0.087313 0.250558 -0.432789 2.000000
-0.183052 -0.495547 0.042031 2.000000
-0.040868 0.497752 -0.028913 2.000000
-0.214075 -0.310049 -0.391399 2.000000
-0.244294 -0.426687 -0.258173 2.000000
0.133265 -0.122992 0.480292 2.000000
0.218406 -0.348136 0.353337 2.000000
-0.011567 0.029384 -0.499407 2.000000
0.136126 -0.039272 0.494170 2.000000
-0.072303 0.138807 -0.480563 2.000000
0.036817 0.153415 0.471771 2.000000
-0.053656 -0.036959 -0.498935 2.000000
0.124091 -0.495408 -0.047220 2.000000
0.226817 0.316697 -0.386992 2.000000
-0.138832 0.494640 0.059994 2.000000
-0.209981 -0.284109 0.406584 2.000000
-0.181543 0.424691 0.259088 2.000000
0.144476 -0.253077 -0.430753 2.000000
0.260607 -0.469782 -0.165782 2.000000
0.192203 0.328020 0.373009 2.000000
-0.265310 -0.374475 0.325550 2.000000
0.172901 0.144289 0.474555 2.000000
-0.047372 0.444016 0.224314 2.000000
-0.178952 -0.386384 0.311301 2.000000
0.201786 0.487534 -0.106468 2.000000
0.274061 0.229752 0.439865 2.000000
-0.129569 0.121576 0.480859 2.000000
0.172192 -0.300791 0.394259 2.000000
-0.246894 -0.102625 -0.489472 2.000000
-0.259898 -0.487001 -0.103536 2.000000
-0.093427 -0.041961 0.493952 2.000000
0.087551 -0.110799 0.483252 2.000000
-0.062431 -0.496465 -0.034170 2.000000
-0.049034 -0.448019 -0.218464 2.000000
-0.072057 0.494201 -0.068331 2.000000
0.175460 -0.488531 -0.096231 2.000000
0.154334 -0.022380 -0.499589 2.000000
0.142234 -0.464065 0.177075 2.000000
0.151785 -0.072761 -0.494825 2.000000
0.059642 -0.084757 0.488609 2.000000
0.075077 -0.413711 0.274370 2.000000
0.246181 0.210894 0.449191 2.000000
0.086977 0.075832 0.490120 2.000000
-0.102082 -0.059799 0.492220 2.000000
0.188085 0.296217 0.398647 2.000000
-0.143846 -0.100639 -0.489944 2.000000
-0.116250 0.073410 0.490537 2.000000
-0.289818 -0.302054 -0.397774 4.000000
-0.192237 0.495820 0.050427 2.000000
-0.234149 0.386863 0.312218 2.000000
0.285550 0.066542 0.491525 1.000000
0.132137 -0.402810 -0.294352 2.000000
-0.258494 0.310947 0.387147 2.000000
-0.077265 -0.116363 0.482086 2.000000
0.013778 0.295216 0.399347 2.000000
-0.194321 0.233966 0.437647 2.000000
-0.170809 0.451893 -0.212530 2.000000
-0.264099 -0.225774 -0.445774 2.000000
-0.190210 -0.223753 0.442423 2.000000
0.206190 -0.444870 0.220719 2.000000
-0.122090 0.279976 -0.414342 2.000000
-0.143272 0.498197 0.016405 2.000000
0.246686 -0.404489 0.287555 2.000000
-0.039445 0.129443 0.478989 2.000000
-0.157619 -0.277327 0.411061 2.000000
0.146622 0.483747 0.118552 2.000000
-0.006610 -0.262154 0.421077 2.000000
0.023253 0.137949 0.476490 2.000000
-0.285188 0.226791 0.441425 4.000000
-0.272461 0.409121 -0.286750 2.000000
0.088047 0.141997 0.475255 2.000000
0.190274 -0.389247 -0.312331 2.000000
0.120995 -0.140919 -0.479624 2.000000
0.098697 0.489876 0.090349 2.000000
0.004212 -0.358026 0.343708 2.000000
0.115383 -0.040316 -0.498602 2.000000
-0.285579 0.392549 -0.309209 4.000000
-0.136574 -0.161231 0.468760 2.000000
0.046556 0.159251 0.469990 2.000000
-0.249566 0.460207 0.189195 2.000000
0.241906 0.490475 -0.091053 2.000000
-0.254451 -0.240187 -0.438185 2.000000
-0.246410 0.152349 -0.476531 2.000000
0.172048 -0.070117 0.490727 2.000000
-0.025083 0.276879 0.412172 2.000000
0.177466 0.299548 0.396236 2.000000
-0.032364 0.343023 0.359421 2.000000
-0.079276 -0.105228 0.484419 2.000000
0.208167 -0.420995 0.263008 2.000000
0.222917 -0.004496 -0.500286 2.000000
0.246032 -0.455805 -0.201649 2.000000
-0.141259 0.200731 -0.458183 2.000000
-0.036935 -0.058122 0.492463 2.000000
0.032294 0.074875 0.490284 2.000000
0.045124 0.301406 0.394755 2.000000
0.266994 -0.496372 0.032475 2.000000
-0.118146 -0.353420 -0.352449 2.000000
0.059113 -0.227685 0.440486 2.000000
-0.169459 -0.497389 -0.008671 2.000000
0.000772 -0.361760 -0.343882 2.000000
0.130407 -0.491774 0.073202 2.000000
-0.267349 -0.481964 -0.125652 2.000000
-0.083996 0.091290 0.487458 2.000000
0.241203 0.235480 -0.441435 2.000000
-0.083479 0.480808 -0.134273 2.000000
-0.070652 0.068089 0.491358 2.000000
-0.230007 0.458343 -0.198157 2.000000
-0.195449 -0.490675 -0.084668 2.000000
0.270611 0.495630 -0.055100 2.000000
-0.278969 0.051134 0.493190 2.000000
-0.004565 0.481640 -0.131269 2.000000
0.004406 -0.261729 0.421358 2.000000
0.050972 0.461713 0.185584 2.000000
-0.235211 -0.302490 -0.397426 2.000000
0.185570 -0.477462 0.137528 2.000000
0.007614 -0.461759 -0.187368 2.000000
0.266800 0.155144 -0.475567 2.000000
-0.236275 -0.214333 -0.451542 2.000000
0.283173 0.356153 -0.350883 1.000000
0.155211 -0.485235 -0.111964 2.000000
0.052081 0.185657 -0.464468 2.000000
0.220305 0.469688 -0.169175 2.000000
-0.221368 -0.105979 -0.488675 2.000000
-0.185251 0.387138 -0.315994 2.000000
0.122336 -0.497301 -0.013611 2.000000
0.151396 0.353601 0.348962 2.000000
0.274066 0.493244 -0.074966 2.000000
0.041885 -0.496752 0.024000 2.000000
-0.052674 0.392420 -0.309370 2.000000
-0.071032 -0.269378 -0.420815 2.000000
-0.085323 -0.427860 0.251747 2.000000
0.019821 -0.300839 -0.398743 2.000000
-0.065955 -0.023013 -0.499560 2.000000
0.116624 -0.191849 -0.461631 2.000000
-0.289283 -0.048822 -0.497683 4.000000
-0.265845 0.181107 -0.466364 2.000000
-0.020095 0.320646 0.379413 2.000000
0.145876 0.479601 0.133573 2.000000
-0.133434 0.443947 0.224453 2.000000
0.165736 0.390792 -0.311412 2.000000
-0.086725 -0.492357 -0.073045 2.000000
0.042545 0.193197 -0.461324 2.000000
-0.170826 -0.482503 0.118970 2.000000
-0.073911 -0.106979 -0.488438 2.000000
0.163846 0.352503 -0.354437 2.000000
-0.001631 -0.147120 -0.477732 2.000000
-0.055846 -0.429983 0.248265 2.000000
0.136538 0.266059 -0.423529 2.000000
-0.192774 0.187803 -0.463573 2.000000
0.130097 -0.457844 0.192632 2.000000
0.199214 0.296907 -0.402316 2.000000
0.162535 -0.285792 -0.409575 2.000000
-0.062895 0.415113 -0.278184 2.000000
0.267113 0.295102 0.399427 2.000000
0.269467 0.058494 -0.496910 2.000000
0.117285 -0.358426 -0.347307 2.000000
-0.050068 0.437833 -0.240384 2.000000
-0.060420 -0.438770 -0.237102 2.000000
-0.208660 0.295749 0.398974 2.000000
-0.139122 0.131471 -0.482588 2.000000
-0.239704 0.376874 -0.328386 2.000000
-0.005762 0.458846 0.192461 2.000000
-0.255278 0.228289 -0.445046 2.000000
-0.231179 0.432863 0.244838 2.000000
-0.092954 -0.212407 0.448014 2.000000
-0.047483 0.462566 -0.188155 2.000000
-0.143017 -0.421729 -0.266378 2.000000
0.198613 -0.018389 -0.499768 2.000000
-0.025792 -0.412867 0.275576 2.000000
-0.225656 -0.306027 -0.394606 2.000000
-0.095752 0.442162 -0.232162 2.000000
-0.068110 0.440066 0.232276 2.000000
0.071132 -0.108947 0.483640 2.000000
-0.121019 -0.047419 0.493510 2.000000
0.191266 0.247278 -0.434670 2.000000
0.233724 -0.063740 -0.496070 2.000000
-0.112351 -0.138361 0.476049 2.000000
0.052787 0.308184 -0.393809 2.000000
0.140486 0.297876 -0.401585 2.000000
-0.083065 0.229161 -0.444617 2.000000
0.272976 -0.460159 0.187473 2.000000
-0.095514 0.104518 -0.489136 2.000000
-0.176187 0.107825 0.484127 2.000000
-0.175984 -0.493045 0.065189 2.000000
-0.214393 -0.497401 0.009527 2.000000
0.044004 0.426192 -0.260517 2.000000
-0.094986 -0.477346 0.137906 2.000000
-0.046711 0.378224 0.322286 2.000000
0.233012 -0.490374 -0.086753 2.000000
0.208584 0.132468 -0.482313 2.000000
-0.276889 -0.111311 0.483145 2.000000
-0.039574 0.450912 -0.214715 2.000000
0.158564 -0.369131 0.331451 2.000000
-0.248770 0.076576 0.489992 2.000000
-0.083485 0.268993 0.417321 2.000000
0.055465 -0.392266 0.303925 2.000000
-0.227823 -0.224347 0.442131 2.000000
-0.271573 -0.497502 0.007294 2.000000
0.174894 -0.496740 -0.030780 2.000000
-0.237310 0.493779 -0.071860 2.000000
-0.231936 -0.264839 0.419305 2.000000
-0.110420 0.332304 0.369129 2.000000
0.086587 -0.347155 -0.358884 2.000000
-0.046215 -0.170636 0.465516 2.000000
-0.201724 0.406551 -0.290426 2.000000
-0.166270 0.297080 0.398044 2.000000
0.264576 0.495566 0.053568 2.000000
-0.150937 0.375936 0.324953 2.000000
0.251713 0.041506 -0.498425 2.000000
0.017129 0.085332 0.488484 2.000000
0.123064 0.293354 -0.404997 2.000000
0.089891 -0.497499 0.007343 2.000000
-0.014068 -0.487005 -0.103517 2.000000
-0.095777 0.482048 -0.129551 2.000000
-0.107360 -0.476261 0.141463 2.000000
-0.004155 -0.467464 0.168017 2.000000
0.283274 0.243175 -0.437023 1.000000
-0.077660 0.341354 -0.365291 2.000000
0.139076 0.430513 -0.253431 2.000000
-0.017375 -0.130742 0.478153 2.000000
0.196500 0.473504 -0.158212 2.000000
-0.194356 0.353269 -0.353691 2.000000
-0.068713 0.182627 -0.465731 2.000000
0.192593 0.306099 0.391012 2.000000
-0.274904 -0.310270 -0.391223 2.000000
0.137641 0.070185 -0.495219 2.000000
0.198753 0.307025 -0.394683 2.000000
-0.230654 -0.163500 -0.472473 2.000000
-0.148315 0.384844 0.314571 2.000000
0.144159 -0.156290 -0.474934 2.000000
-0.023361 -0.437207 0.235272 2.000000
0.286454 0.115121 -0.486914 1.000000
0.063272 -0.353446 -0.352422 2.000000
0.220350 0.494696 -0.063742 2.000000
-0.052512 -0.370577 -0.334357 2.000000
-0.195647 -0.477853 0.136245 2.000000
-0.140379 -0.209287 -0.453806 2.000000
0.186702 0.069056 -0.495382 2.000000
0.250046 0.418917 0.267836 2.000000
0.059768 0.088184 -0.492557 2.000000
0.001024 0.172630 -0.469535 2.000000
0.199554 -0.494249 0.054044 2.000000
0.212462 0.495597 -0.055405 2.000000
0.030701 -0.247642 0.429520 2.000000
0.218156 0.431507 -0.251800 2.000000
-0.253660 0.483986 0.117687 2.000000
-0.102959 0.357948 -0.349136 2.000000
0.112339 0.276801 -0.416438 2.000000
0.109908 -0.227292 -0.444974 2.000000
-0.081493 -0.420258 -0.268606 2.000000
0.143453 -0.330179 0.370191 2.000000
-0.028909 -0.200915 -0.457563 2.000000
0.154204 0.138105 0.476442 2.000000
0.163088 -0.140640 0.475421 2.000000
0.086980 -0.456113 0.196488 2.000000
-0.200107 0.120601 -0.485588 2.000000
-0.053319 -0.056037 -0.496903 2.000000
-0.137403 -0.080141 0.489277 2.000000
0.045784 -0.310613 -0.390949 2.000000
0.147281 -0.494813 -0.054558 2.000000
0.185396 0.497558 -0.033225 2.000000
0.011868 0.175538 -0.468532 2.000000
0.033554 0.422762 -0.266144 2.000000
-0.096376 0.027903 0.495033 2.000000
0.150806 0.213337 0.448095 2.000000
-0.094515 0.379085 0.321284 2.000000
0.177163 0.175519 0.463994 2.000000
-0.056052 0.197949 0.455000 2.000000
0.266091 0.425121 0.258338 2.000000
0.173838 -0.150899 0.472325 2.000000
-0.267077 0.282663 0.408126 2.000000
0.038458 -0.072386 0.490399 2.000000
-0.153715 -0.266590 -0.422515 2.000000
-0.061940 -0.044025 0.493785 2.000000
-0.138723 0.281338 0.409054 2.000000
-0.069019 -0.484841 0.109133 2.000000
0.036173 -0.489871 -0.089833 2.000000
0.172393 0.336847 -0.369678 2.000000
0.044173 0.068128 0.491354 2.000000
-0.150982 -0.476562 -0.145223 2.000000
0.281613 -0.055244 0.492876 1.000000
0.125339 0.488356 -0.103007 2.000000
0.278193 -0.073708 -0.494662 1.000000
0.217515 -0.214380 -0.451520 2.000000
0.198885 -0.437772 -0.238844 2.000000
0.270915 0.467362 -0.175375 2.000000
0.148073 0.324828 -0.380015 2.000000
-0.130998 -0.007914 -0.500238 2.000000
0.000225 0.475455 0.147956 2.000000
-0.171194 0.172930 -0.469432 2.000000
0.042591 -0.083867 0.488738 2.000000
-0.124864 0.362090 0.340243 2.000000
0.206065 -0.166871 -0.471208 2.000000
-0.041827 0.181709 0.461671 2.000000
0.134034 -0.072375 0.490401 2.000000
0.062501 -0.363075 0.338137 2.000000
-0.269218 -0.496184 -0.037642 2.000000
-0.079556 0.493637 0.066929 2.000000
0.026120 0.462294 -0.188881 2.000000
0.234021 -0.391989 0.304272 2.000000
0.219675 -0.239038 0.434454 2.000000
-0.285841 -0.417415 0.268880 4.000000
0.280723 -0.109631 -0.487807 1.000000
0.238830 -0.053912 0.492984 2.000000
0.122371 -0.115012 0.482369 2.000000
0.242764 0.005884 0.495939 2.000000
0.174855 -0.220719 -0.448435 2.000000
-0.167482 -0.416395 -0.274457 2.000000
0.170931 -0.470965 -0.162353 2.000000
