-0.290288 -0.402678 0.283392 4.000000
-0.290288 0.109167 -0.469422 4.000000
-0.290288 -0.002455 0.458888 4.000000
-0.290288 0.353353 -0.278843 4.000000
-0.290288 -0.489547 -0.013025 4.000000
-0.290288 -0.175605 -0.467113 4.000000
-0.290288 -0.382215 -0.281980 4.000000
-0.290288 0.209293 -0.427053 4.000000
-0.290288 0.339679 -0.346494 4.000000
-0.290288 0.241284 0.421876 4.000000
-0.290288 -0.204969 -0.441457 4.000000
-0.290288 -0.067719 -0.473492 4.000000
-0.290288 -0.102522 -0.479037 4.000000
-0.290288 -0.466133 0.023493 4.000000
-0.290288 -0.465903 -0.173590 4.000000
-0.290288 -0.201400 -0.413216 4.000000
-0.290288 -0.197970 0.443267 4.000000
-0.290288 0.151105 0.468718 4.000000
-0.290288 -0.138916 -0.425684 4.000000
-0.290288 0.465030 0.122291 4.000000
-0.290288 0.094956 -0.483318 4.000000
-0.290288 -0.492498 0.063283 4.000000
-0.290288 0.451297 -0.042845 4.000000
-0.290288 0.363196 0.328637 4.000000
-0.290288 0.171775 0.460285 4.000000
-0.290288 -0.441093 0.056132 4.000000
-0.290288 -0.363858 0.312032 4.000000
-0.290288 -0.439919 0.228942 4.000000
-0.290288 0.271844 0.361349 4.000000
-0.290288 -0.255882 -0.390496 4.000000
-0.290288 -0.143963 -0.478297 4.000000
-0.290288 -0.317055 -0.348692 4.000000
-0.290288 -0.440706 -0.070035 4.000000
-0.290288 -0.490721 0.071884 4.000000
-0.290288 0.436508 0.118154 4.000000
-0.290288 -0.433086 0.199991 4.000000
-0.290288 0.036416 -0.473463 4.000000
-0.290288 0.413834 0.230668 4.000000
-0.290288 0.037584 -0.456982 4.000000
-0.290288 0.493214 0.015482 4.000000
-0.290288 -0.475162 -0.082920 4.000000
-0.290288 0.423638 -0.248673 4.000000
-0.290288 0.261534 -0.397763 4.000000
-0.290288 0.484678 -0.052232 4.000000
-0.290288 -0.218643 -0.448457 4.000000
-0.290288 0.408323 0.235424 4.000000
-0.290288 -0.443864 -0.068810 4.000000
-0.290288 -0.474543 0.033377 4.000000
-0.290288 0.413490 -0.234012 4.000000
-0.290288 0.192277 -0.448362 4.000000
-0.290288 0.355467 -0.274911 4.000000
-0.290288 -0.204314 0.394469 4.000000
-0.290288 -0.288361 0.342010 4.000000
-0.290288 -0.281042 0.370100 4.000000
-0.290288 0.398413 0.224838 4.000000
-0.290288 0.352040 -0.275989 4.000000
-0.290288 -0.264189 0.360694 4.000000
-0.290288 0.436182 0.121965 4.000000
-0.290288 0.464045 -0.051671 4.000000
-0.290288 0.462759 -0.156699 4.000000
-0.290288 0.048157 -0.457881 4.000000
-0.290288 -0.444734 0.006933 4.000000
-0.290288 -0.001691 0.482073 4.000000
-0.290288 -0.184145 0.437846 4.000000
-0.290288 0.327186 0.348392 4.000000
-0.290288 0.227422 0.417691 4.000000
-0.290288 -0.088629 -0.473155 4.000000
-0.290288 -0.386078 0.289027 4.000000
-0.290288 0.189892 0.433368 4.000000
-0.290288 -0.444384 -0.102471 4.000000
-0.290288 -0.228752 0.379669 4.000000
-0.290288 0.109393 -0.457091 4.000000
-0.290288 -0.290139 -0.364229 4.000000
-0.290288 -0.381119 0.264244 4.000000
-0.290288 0.404216 0.228271 4.000000
-0.290288 0.430341 -0.165000 4.000000
-0.290288 0.215496 0.413350 4.000000
-0.290288 -0.379262 -0.321553 4.000000
-0.290288 0.345865 0.329773 4.000000
-0.290288 0.048198 0.466513 4.000000
-0.290288 -0.441875 0.167546 4.000000
-0.290288 -0.054675 0.446093 4.000000
-0.290288 -0.370293 0.274990 4.000000
-0.290288 0.111875 0.472220 4.000000
-0.290288 -0.201483 -0.444962 4.000000
-0.290288 0.448713 -0.142320 4.000000
-0.290288 -0.352460 -0.328465 4.000000
-0.290288 -0.446549 0.112066 4.000000
-0.290288 -0.449939 0.201513 4.000000
-0.290288 0.364972 -0.281335 4.000000
-0.290288 -0.170101 0.445581 4.000000
-0.290288 0.465282 -0.132000 4.000000
-0.290288 0.141650 0.438359 4.000000
-0.290288 0.427542 -0.203087 4.000000
-0.290288 -0.396556 -0.211241 4.000000
-0.290288 0.396724 0.271093 4.000000
-0.290288 0.293627 -0.389218 4.000000
-0.290288 -0.401526 -0.253573 4.000000
-0.290288 0.457875 0.017585 4.000000
-0.290288 -0.105324 0.432606 4.000000
-0.290288 0.441892 0.191544 4.000000
-0.290288 0.214708 -0.411407 4.000000
-0.290288 -0.455600 -0.104097 4.000000
-0.290288 -0.485763 0.099140 4.000000
-0.290288 -0.200967 0.409124 4.000000
-0.290288 0.456016 -0.169960 4.000000
-0.290288 0.317997 -0.355543 4.000000
-0.290288 0.436985 0.170017 4.000000
-0.290288 -0.152213 0.439060 4.000000
-0.290288 -0.124181 -0.448287 4.000000
-0.290288 -0.399861 0.257699 4.000000
-0.290288 0.424602 -0.172481 4.000000
-0.290288 0.052867 -0.447808 4.000000
-0.290288 0.131019 -0.454145 4.000000
-0.290288 0.301006 -0.395332 4.000000
-0.290288 -0.427739 0.132755 4.000000
-0.290288 0.072357 -0.482152 4.000000
-0.290288 0.421530 0.197275 4.000000
-0.290288 0.287386 -0.381409 4.000000
-0.290288 -0.041521 -0.457856 4.000000
-0.290288 0.305794 -0.326792 4.000000
-0.290288 -0.343097 -0.315358 4.000000
-0.290288 -0.213703 0.410031 4.000000
-0.290288 -0.464359 0.009171 4.000000
-0.290288 -0.279313 -0.372424 4.000000
-0.290288 0.468270 0.156274 4.000000
-0.290288 0.056997 -0.475782 4.000000
-0.290288 -0.021433 -0.466819 4.000000
-0.290288 0.106765 -0.447684 4.000000
-0.290288 -0.170736 -0.463727 4.000000
-0.290288 0.382493 0.238756 4.000000
-0.290288 0.445402 0.017543 4.000000
-0.290288 0.478705 -0.054714 4.000000
-0.290288 0.115557 0.476343 4.000000
-0.290288 0.359502 0.306680 4.000000
-0.290288 -0.225309 0.419101 4.000000
-0.290288 -0.428467 -0.123706 4.000000
-0.290288 0.489190 0.070379 4.000000
-0.290288 0.265368 0.390424 4.000000
-0.290288 -0.358776 0.316144 4.000000
-0.290288 -0.451956 0.107734 4.000000
-0.290288 -0.347156 -0.332208 4.000000
-0.290288 0.325146 0.325238 4.000000
-0.290288 -0.174098 0.464033 4.000000
-0.290288 0.279915 -0.401915 4.000000
-0.290288 -0.393763 -0.216567 4.000000
-0.290288 0.388778 -0.238442 4.000000
-0.290288 -0.080526 -0.455505 4.000000
-0.290288 0.220921 -0.416185 4.000000
-0.290288 -0.472851 0.021822 4.000000
-0.290288 -0.445406 -0.034993 4.000000
-0.290288 0.443560 0.051258 4.000000
-0.290288 -0.450264 -0.191915 4.000000
-0.290288 0.037309 -0.476431 4.000000
-0.290288 -0.068514 -0.476896 4.000000
-0.290288 -0.321375 -0.349469 4.000000
-0.290288 -0.381052 0.246105 4.000000
-0.290288 -0.188143 0.434784 4.000000
-0.290288 -0.292639 -0.399240 4.000000
-0.290288 -0.141065 0.443399 4.000000
-0.290288 -0.466126 -0.072683 4.000000
-0.290288 0.417907 0.242113 4.000000
-0.290288 0.470073 0.030416 4.000000
-0.290288 0.493546 0.046710 4.000000
-0.290288 -0.466267 -0.048755 4.000000
-0.290288 -0.462709 0.091023 4.000000
-0.290288 0.104137 0.452111 4.000000
-0.290288 0.213723 -0.395147 4.000000
-0.290288 0.469704 0.088970 4.000000
-0.290288 -0.310674 -0.346466 4.000000
-0.290288 -0.417315 -0.235936 4.000000
-0.290288 0.456064 0.010558 4.000000
-0.290288 0.198416 0.436482 4.000000
-0.290288 0.436806 -0.222084 4.000000
-0.290288 0.055091 0.481880 4.000000
-0.290288 0.379931 0.314940 4.000000
-0.290288 0.211450 0.406565 4.000000
-0.290288 -0.459335 0.126674 4.000000
-0.290288 0.043650 -0.474857 4.000000
-0.290288 -0.053418 0.441753 4.000000
-0.290288 0.064786 -0.463822 4.000000
-0.290288 -0.314130 -0.322941 4.000000
-0.290288 0.347883 0.354173 4.000000
-0.290288 0.058622 0.475100 4.000000
-0.290288 0.195341 0.402690 4.000000
-0.290288 0.292512 0.337301 4.000000
-0.290288 -0.442800 -0.122712 4.000000
-0.290288 0.403615 -0.224976 4.000000
-0.290288 0.415843 0.213874 4.000000
-0.290288 0.288541 0.391672 4.000000
-0.290288 -0.332750 0.293897 4.000000
-0.290288 0.471503 -0.013367 4.000000
-0.290288 0.034020 -0.486853 4.000000
-0.290288 0.449882 0.191915 4.000000
-0.290288 0.295482 0.362484 4.000000
-0.290288 -0.165676 0.466437 4.000000
-0.290288 0.389763 0.266836 4.000000
-0.290288 0.469021 0.136827 4.000000
-0.290288 -0.470519 0.110657 4.000000
-0.290288 0.374026 -0.315814 4.000000
-0.290288 0.446184 0.021785 4.000000
-0.290288 -0.474843 -0.007562 4.000000
-0.290288 0.478604 0.030350 4.000000
-0.290288 0.354345 -0.340051 4.000000
-0.290288 -0.459879 -0.025044 4.000000
-0.290288 -0.465541 0.102375 4.000000
-0.290288 -0.402657 0.270569 4.000000
-0.290288 0.283266 -0.407692 4.000000
-0.290288 -0.000349 0.451392 4.000000
-0.290288 0.426134 -0.164569 4.000000
-0.290288 0.403915 -0.250936 4.000000
-0.290288 -0.480899 -0.127798 4.000000
-0.290288 0.150316 -0.437804 4.000000
-0.290288 0.471795 -0.104659 4.000000
-0.290288 0.480501 -0.135064 4.000000
-0.290288 -0.158357 -0.431764 4.000000
-0.290288 0.449470 -0.204214 4.000000
-0.290288 0.219317 -0.449205 4.000000
-0.290288 -0.350223 0.294155 4.000000
-0.290288 0.086411 -0.489879 4.000000
-0.290288 -0.183060 0.407520 4.000000
-0.290288 -0.446395 -0.198709 4.000000
-0.290288 -0.452374 -0.136528 4.000000
-0.290288 0.263139 0.397686 4.000000
-0.290288 -0.295130 -0.357030 4.000000
-0.290288 -0.452087 -0.025164 4.000000
-0.290288 0.203322 0.449066 4.000000
-0.290288 -0.421504 0.169348 4.000000
-0.290288 0.345600 0.323909 4.000000
-0.290288 -0.454824 -0.153819 4.000000
-0.290288 0.463574 0.159652 4.000000
-0.290288 -0.271005 -0.406872 4.000000
-0.290288 0.484984 -0.042306 4.000000
-0.290288 0.459567 -0.190672 4.000000
-0.290288 0.460688 -0.014692 4.000000
-0.290288 -0.465357 0.012564 4.000000
-0.290288 0.377318 0.254076 4.000000
-0.290288 0.104792 0.469099 4.000000
-0.290288 -0.436790 -0.159474 4.000000
-0.290288 0.203073 -0.414964 4.000000
-0.290288 -0.298880 -0.345283 4.000000
-0.290288 0.153247 0.431729 4.000000
-0.290288 0.244270 -0.418446 4.000000
-0.290288 -0.367260 -0.266624 4.000000
-0.290288 -0.477050 -0.127762 4.000000
-0.290288 0.035468 0.462122 4.000000
-0.290288 0.471868 -0.144632 4.000000
-0.290288 0.096687 -0.461254 4.000000
-0.290288 -0.330641 0.308395 4.000000
-0.290288 0.138740 -0.463069 4.000000
-0.290288 0.450539 0.082126 4.000000
-0.290288 0.086617 0.484696 4.000000
-0.290288 -0.464885 -0.094906 4.000000
-0.290288 -0.151912 -0.428495 4.000000
-0.290288 0.050696 0.464117 4.000000
-0.290288 0.426462 0.201159 4.000000
-0.290288 -0.179735 0.412338 4.000000
-0.290288 -0.028776 -0.470868 4.000000
-0.290288 -0.412509 0.230749 4.000000
-0.290288 0.320261 -0.346419 4.000000
-0.290288 0.066500 -0.446165 4.000000
-0.290288 -0.161960 0.422603 4.000000
-0.290288 -0.162227 0.440681 4.000000
-0.290288 0.348480 -0.290956 4.000000
-0.290288 -0.459504 -0.008691 4.000000
-0.290288 0.445757 -0.106913 4.000000
-0.290288 -0.165581 0.421754 4.000000
-0.290288 0.380589 0.260979 4.000000
-0.290288 0.135573 0.450178 4.000000
-0.290288 0.105320 0.444595 4.000000
-0.290288 0.437525 -0.172341 4.000000
-0.290288 0.204223 0.394686 4.000000
-0.290288 -0.431297 0.181421 4.000000
-0.290288 -0.454437 -0.091122 4.000000
-0.290288 0.462938 -0.099508 4.000000
-0.290288 -0.253170 -0.414263 4.000000
-0.290288 -0.418092 0.235440 4.000000
-0.290288 0.459332 -0.176563 4.000000
-0.290288 -0.210796 0.425782 4.000000
-0.290288 -0.353325 -0.321018 4.000000
-0.290288 -0.449488 -0.126373 4.000000
-0.290288 -0.352781 0.271197 4.000000
-0.290288 0.042649 -0.449987 4.000000
-0.290288 0.464517 0.073252 4.000000
-0.290288 -0.474464 0.070989 4.000000
-0.290288 0.286970 0.350258 4.000000
-0.290288 -0.353458 -0.331699 4.000000
-0.290288 0.364876 -0.260078 4.000000
-0.290288 0.181329 0.424263 4.000000
-0.290288 0.235917 -0.380385 4.000000
-0.290288 0.437320 0.157757 4.000000
-0.290288 0.453905 0.048637 4.000000
-0.290288 0.143807 -0.436859 4.000000
-0.290288 -0.194989 0.445126 4.000000
-0.290288 -0.150170 -0.463993 4.000000
-0.290288 0.299624 -0.332429 4.000000
-0.290288 -0.463521 0.168655 4.000000
-0.290288 0.103225 -0.457679 4.000000
-0.290288 -0.338513 -0.339212 4.000000
-0.290288 -0.160260 0.419463 4.000000
-0.290288 -0.152135 -0.420870 4.000000
-0.290288 0.108742 0.446138 4.000000
-0.290288 -0.440549 0.194214 4.000000
-0.290288 0.285047 0.388066 4.000000
-0.290288 -0.192821 0.407520 4.000000
-0.290288 -0.154417 0.416207 4.000000
-0.290288 -0.350010 -0.279356 4.000000
-0.290288 -0.486461 0.001414 4.000000
-0.290288 -0.474475 0.091655 4.000000
-0.290288 -0.065876 -0.454940 4.000000
-0.290288 0.313439 -0.356899 4.000000
-0.290288 -0.454412 -0.081081 4.000000
-0.290288 -0.472711 0.124260 4.000000
-0.290288 0.378715 -0.243138 4.000000
-0.290288 -0.435503 0.237952 4.000000
-0.290288 0.263577 -0.364902 4.000000
-0.290288 0.180787 0.444043 4.000000
-0.290288 0.037275 -0.491981 4.000000
-0.290288 -0.384443 0.229238 4.000000
-0.290288 0.245239 -0.387298 4.000000
-0.290288 -0.224519 -0.429789 4.000000
-0.290288 -0.276283 -0.415987 4.000000
-0.290288 0.419899 -0.245065 4.000000
-0.290288 -0.102767 -0.473285 4.000000
-0.290288 0.263445 0.385399 4.000000
-0.290288 -0.332459 -0.370449 4.000000
-0.290288 0.448951 -0.014065 4.000000
-0.290288 -0.446997 0.101261 4.000000
-0.290288 -0.212525 0.413485 4.000000
-0.290288 0.169273 -0.420536 4.000000
-0.290288 -0.017406 0.486089 4.000000
-0.290288 0.436911 0.111969 4.000000
-0.290288 0.076037 -0.488213 4.000000
-0.290288 -0.041313 -0.485530 4.000000
-0.290288 0.255693 0.380104 4.000000
-0.290288 0.132203 0.441218 4.000000
-0.290288 -0.281382 0.366796 4.000000
-0.290288 0.335176 0.337151 4.000000
-0.290288 -0.159132 -0.464498 4.000000
-0.290288 0.437150 -0.091258 4.000000
-0.290288 0.306427 0.357200 4.000000
-0.290288 0.086348 -0.486107 4.000000
-0.290288 0.169920 -0.427988 4.000000
-0.290288 -0.394417 -0.256813 4.000000
-0.290288 -0.283797 -0.372826 4.000000
-0.290288 -0.055142 0.478706 4.000000
-0.290288 0.305684 -0.394895 4.000000
-0.290288 -0.447489 0.213535 4.000000
-0.290288 -0.389414 0.241507 4.000000
-0.290288 0.424319 0.204848 4.000000
-0.290288 -0.454468 -0.200349 4.000000
-0.290288 -0.452913 0.187817 4.000000
-0.290288 -0.414635 0.247412 4.000000
-0.290288 -0.465566 -0.009975 4.000000
-0.290288 -0.041546 -0.481814 4.000000
-0.290288 0.370612 -0.262913 4.000000
-0.290288 0.432410 -0.148756 4.000000
-0.290288 0.395082 0.214167 4.000000
-0.290288 -0.373701 0.301605 4.000000
-0.290288 0.245282 -0.426026 4.000000
-0.290288 0.285795 -0.360100 4.000000
-0.290288 0.062276 -0.461703 4.000000
-0.290288 0.030889 -0.486246 4.000000
-0.290288 -0.127265 0.470743 4.000000
-0.290288 0.457030 0.085358 4.000000
-0.290288 0.482303 0.077736 4.000000
-0.290288 0.457034 -0.098725 4.000000
-0.290288 0.117401 0.481498 4.000000
-0.290288 -0.472349 0.046065 4.000000
-0.290288 -0.356383 0.282903 4.000000
-0.290288 -0.350478 0.297914 4.000000
-0.290288 0.493314 -0.036530 4.000000
-0.290288 -0.303567 0.356602 4.000000
-0.290288 0.266098 0.372996 4.000000
-0.290288 -0.349642 0.308193 4.000000
-0.290288 0.101168 0.470020 4.000000
-0.290288 0.107607 -0.439068 4.000000
-0.290288 -0.492103 -0.016131 4.000000
-0.290288 -0.274047 -0.412742 4.000000
-0.290288 0.464156 0.088233 4.000000
-0.290288 0.444398 0.149511 4.000000
-0.290288 -0.475469 0.062686 4.000000
-0.290288 -0.329063 0.320114 4.000000
-0.290288 0.283984 0.378135 4.000000
-0.290288 0.354314 -0.305854 4.000000
-0.290288 0.443816 -0.112927 4.000000
-0.290288 -0.458673 0.014459 4.000000
-0.290288 0.497924 -0.007400 4.000000
-0.290288 -0.058358 0.492381 4.000000
-0.290288 0.339236 -0.320121 4.000000
-0.290288 -0.146951 -0.433421 4.000000
-0.290288 -0.283217 0.388228 4.000000
-0.290288 -0.396045 -0.268379 4.000000
-0.290288 0.233820 0.378472 4.000000
-0.290288 0.326062 0.318155 4.000000
-0.290288 -0.250708 -0.419511 4.000000
-0.290288 0.374436 0.310794 4.000000
-0.290288 0.365865 0.282536 4.000000
-0.290288 0.099356 -0.466284 4.000000
-0.290288 -0.431539 -0.241933 4.000000
-0.290288 -0.177179 0.423004 4.000000
-0.290288 0.294746 0.378850 4.000000
-0.290288 0.268873 -0.363588 4.000000
-0.290288 -0.446318 -0.163440 4.000000
-0.290288 -0.345130 0.327486 4.000000
-0.290288 -0.337763 0.308240 4.000000
-0.290288 -0.432101 -0.126284 4.000000
-0.290288 0.280382 0.407330 4.000000
-0.290288 0.448767 -0.189863 4.000000
-0.290288 -0.493519 0.009952 4.000000
-0.290288 0.090967 0.476361 4.000000
-0.290288 0.118779 -0.475453 4.000000
-0.290288 -0.256714 0.371853 4.000000
-0.290288 0.281396 -0.385038 4.000000
-0.290288 -0.023439 0.447500 4.000000
-0.290288 0.437559 0.189060 4.000000
-0.290288 0.385552 -0.255721 4.000000
-0.290288 0.483948 -0.001716 4.000000
-0.290288 0.470845 -0.022713 4.000000
-0.290288 0.085410 -0.467523 4.000000
-0.290288 -0.029784 -0.454186 4.000000
-0.290288 0.219265 -0.439527 4.000000
-0.290288 -0.033811 -0.459929 4.000000
-0.290288 -0.361805 0.287995 4.000000
-0.290288 -0.403790 0.222818 4.000000
-0.290288 0.005194 -0.488218 4.000000
-0.290288 0.126396 -0.452887 4.000000
-0.290288 0.033777 0.449175 4.000000
-0.290288 0.483049 0.118049 4.000000
-0.290288 -0.473097 -0.010705 4.000000
-0.290288 0.397993 -0.221238 4.000000
-0.290288 0.440855 -0.089003 4.000000
-0.290288 0.279389 -0.397375 4.000000
-0.290288 0.237247 0.407924 4.000000
-0.290288 0.129206 0.436955 4.000000
-0.290288 -0.034013 -0.463040 4.000000
-0.290288 0.484529 0.080668 4.000000
-0.290288 0.141003 -0.433729 4.000000
-0.290288 0.103982 -0.439257 4.000000
-0.290288 0.003895 -0.474514 4.000000
-0.290288 -0.090681 0.435306 4.000000
-0.290288 0.492074 0.002123 4.000000
-0.290288 0.472372 0.027202 4.000000
-0.290288 -0.389059 -0.236179 4.000000
-0.290288 -0.028347 -0.462894 4.000000
-0.290288 -0.223561 -0.396546 4.000000
-0.290288 0.114570 -0.448620 4.000000
-0.290288 -0.049802 -0.464528 4.000000
-0.290288 -0.131675 -0.436227 4.000000
-0.290288 0.437467 0.184694 4.000000
-0.290288 0.033826 -0.455438 4.000000
-0.290288 0.047211 0.453272 4.000000
-0.290288 -0.416226 -0.219642 4.000000
-0.290288 0.145357 -0.452597 4.000000
-0.290288 -0.357269 0.320180 4.000000
-0.290288 0.452793 -0.079396 4.000000
-0.290288 0.368175 -0.256711 4.000000
-0.290288 -0.441572 0.218691 4.000000
-0.290288 -0.262947 -0.361809 4.000000
-0.290288 0.418729 0.214988 4.000000
-0.290288 -0.143590 -0.451178 4.000000
-0.290288 0.398681 -0.288933 4.000000
-0.290288 -0.225603 0.387136 4.000000
-0.290288 -0.420149 -0.249022 4.000000
-0.290288 0.469896 0.150212 4.000000
-0.290288 -0.013534 0.479562 4.000000
-0.290288 -0.089228 -0.448077 4.000000
-0.290288 0.235846 -0.417409 4.000000
-0.290288 0.062746 0.484266 4.000000
-0.290288 0.441788 -0.231518 4.000000
-0.290288 -0.326218 -0.328602 4.000000
-0.290288 -0.242472 0.389958 4.000000
-0.290288 -0.467921 -0.116677 4.000000
-0.290288 -0.382161 -0.277646 4.000000
-0.290288 0.401959 -0.255493 4.000000
-0.290288 -0.285045 -0.353380 4.000000
-0.290288 0.338055 0.319018 4.000000
-0.290288 -0.105759 0.467079 4.000000
-0.290288 0.115229 0.440095 4.000000
-0.290288 -0.482170 0.090224 4.000000
-0.290288 0.017409 0.491271 4.000000
-0.290288 -0.122099 0.474484 4.000000
-0.290288 0.402653 -0.198636 4.000000
-0.290288 0.033891 0.480419 4.000000
-0.290288 -0.438838 0.070733 4.000000
-0.290288 0.392040 -0.288785 4.000000
-0.290288 0.456898 0.027222 4.000000
-0.290288 0.080038 0.483689 4.000000
-0.290288 0.111488 -0.435074 4.000000
-0.290288 0.292200 0.348048 4.000000
-0.290288 -0.116258 -0.450231 4.000000
-0.290288 0.256036 0.424785 4.000000
-0.290288 -0.109090 0.436801 4.000000
-0.290288 -0.459551 -0.067281 4.000000
-0.290288 -0.307662 -0.380890 4.000000
-0.290288 0.396269 0.217887 4.000000
-0.290288 0.428621 0.242307 4.000000
-0.290288 0.404660 -0.201683 4.000000
-0.290288 0.461131 -0.095267 4.000000
-0.290288 0.487417 -0.057555 4.000000
-0.290288 -0.434326 0.189182 4.000000
-0.290288 0.055145 -0.472598 4.000000
-0.290288 0.470820 0.153262 4.000000
-0.290288 0.458648 0.124298 4.000000
-0.290288 0.177200 0.437540 4.000000
-0.290288 -0.275517 -0.372236 4.000000
-0.290288 -0.413179 0.192958 4.000000
-0.290288 0.289904 0.374994 4.000000
-0.290288 -0.222291 0.385829 4.000000
-0.290288 -0.214592 0.416709 4.000000
-0.290288 -0.341859 0.357334 4.000000
-0.290288 -0.427274 0.157990 4.000000
-0.290288 0.252120 0.416581 4.000000
-0.290288 -0.406323 0.207128 4.000000
-0.290288 -0.274087 0.350311 4.000000
-0.290288 0.159104 0.446661 4.000000
-0.290288 -0.427863 -0.232699 4.000000
-0.290288 -0.464557 0.042187 4.000000
-0.290288 0.320252 0.330425 4.000000
-0.290288 0.193714 0.427274 4.000000
-0.290288 0.315236 0.341670 4.000000
-0.290288 -0.105785 -0.471761 4.000000
-0.290288 -0.183015 0.411657 4.000000
-0.290288 -0.236371 -0.391301 4.000000
-0.290288 -0.378418 0.271032 4.000000
-0.290288 -0.261818 0.404038 4.000000
-0.290288 -0.243165 0.378588 4.000000
-0.290288 -0.296481 0.396604 4.000000
-0.290288 -0.411415 -0.281118 4.000000
-0.290288 -0.190459 0.432776 4.000000
-0.290288 0.288784 0.353138 4.000000
-0.290288 0.406633 -0.197870 4.000000
-0.290288 0.444093 0.066855 4.000000
-0.290288 0.394560 -0.298241 4.000000
-0.290288 0.281102 0.394128 4.000000
-0.290288 -0.343939 0.282730 4.000000
-0.290288 0.287430 -0.409090 4.000000
-0.290288 0.445198 0.220993 4.000000
-0.290288 -0.322472 0.367490 4.000000
-0.290288 0.464352 0.168150 4.000000
-0.290288 -0.321029 0.350386 4.000000
-0.290288 -0.325892 0.366862 4.000000
-0.290288 -0.234268 0.397406 4.000000
-0.290288 -0.423499 -0.211122 4.000000
-0.290288 -0.098248 0.436638 4.000000
-0.290288 0.466673 0.037802 4.000000
-0.290288 -0.450378 0.168659 4.000000
-0.290288 -0.437941 0.168879 4.000000
-0.290288 0.128988 0.451352 4.000000
-0.290288 0.342911 -0.321382 4.000000
-0.290288 0.010122 -0.494440 4.000000
-0.290288 -0.451547 0.171688 4.000000
-0.290288 0.464184 -0.072965 4.000000
-0.290288 -0.111122 -0.465422 4.000000
-0.290288 0.408806 -0.274076 4.000000
-0.290288 -0.414070 -0.210343 4.000000
-0.290288 -0.232944 0.409006 4.000000
-0.290288 0.188550 0.458144 4.000000
-0.290288 -0.434959 -0.148936 4.000000
-0.290288 -0.001064 -0.493366 4.000000
-0.290288 0.419747 0.219146 4.000000
-0.290288 -0.443209 0.211359 4.000000
-0.290288 0.368828 -0.311025 4.000000
-0.290288 0.383369 -0.299928 4.000000
-0.290288 0.120352 -0.472395 4.000000
-0.290288 0.412129 -0.247420 4.000000
-0.290288 -0.424436 -0.175450 4.000000
-0.290288 -0.202487 0.421567 4.000000
-0.290288 -0.093095 -0.453957 4.000000
-0.290288 0.458953 -0.116675 4.000000
-0.290288 0.017506 -0.481960 4.000000
-0.290288 -0.364137 0.259603 4.000000
-0.290288 -0.433099 0.210931 4.000000
-0.290288 0.169176 -0.442382 4.000000
-0.290288 0.442026 -0.122821 4.000000
-0.290288 -0.153011 -0.448719 4.000000
-0.290288 -0.435269 0.148918 4.000000
-0.290288 -0.222167 0.399825 4.000000
-0.290288 0.304704 -0.335465 4.000000
-0.290288 0.463223 0.084817 4.000000
-0.290288 0.489097 0.045491 4.000000
-0.290288 0.149456 0.422902 4.000000
-0.290288 0.487255 -0.105829 4.000000
-0.290288 -0.073532 -0.463295 4.000000
-0.290288 0.452455 0.039593 4.000000
-0.290288 -0.474354 0.000478 4.000000
-0.290288 0.218585 -0.403259 4.000000
-0.290288 -0.182926 -0.430247 4.000000
-0.290288 0.487986 0.008954 4.000000
-0.290288 0.041082 0.489951 4.000000
-0.290288 0.482057 -0.037584 4.000000
-0.290288 -0.258380 0.390343 4.000000
-0.290288 -0.491613 -0.038457 4.000000
-0.290288 -0.064474 0.477966 4.000000
-0.290288 -0.439188 0.222135 4.000000
-0.290288 -0.232404 -0.397602 4.000000
-0.290288 0.056863 0.492021 4.000000
-0.290288 0.036062 -0.453330 4.000000
-0.290288 0.418752 0.260827 4.000000
-0.290288 -0.467774 0.107959 4.000000
-0.290288 -0.410265 -0.174371 4.000000
-0.290288 0.303871 0.390364 4.000000
-0.290288 0.324041 0.349982 4.000000
-0.290288 0.062340 -0.480179 4.000000
-0.290288 0.441364 0.079528 4.000000
-0.290288 0.190483 -0.415815 4.000000
-0.290288 0.436631 0.151286 4.000000
-0.290288 -0.410069 -0.224911 4.000000
-0.290288 0.223594 0.411288 4.000000
-0.290288 -0.399157 0.235766 4.000000
-0.290288 0.087910 0.439000 4.000000
-0.290288 0.144795 0.441534 4.000000
-0.290288 -0.400629 0.292356 4.000000
-0.290288 0.412741 -0.216668 4.000000
-0.290288 0.323237 -0.334803 4.000000
-0.290288 0.474329 0.106960 4.000000
-0.290288 0.332147 -0.319300 4.000000
-0.290288 0.467560 0.094693 4.000000
-0.290288 0.464902 -0.034851 4.000000
-0.290288 0.391129 -0.248247 4.000000
-0.290288 0.219576 -0.408070 4.000000
-0.290288 -0.025133 0.492779 4.000000
-0.290288 -0.244918 -0.424702 4.000000
-0.290288 -0.463604 0.175290 4.000000
-0.290288 0.116351 0.463634 4.000000
-0.290288 0.480787 -0.131498 4.000000
-0.290288 -0.206318 -0.403706 4.000000
-0.290288 0.402715 -0.213033 4.000000
-0.290288 0.266373 -0.374117 4.000000
-0.290288 -0.330446 -0.349577 4.000000
-0.290288 0.101686 0.461742 4.000000
-0.290288 -0.202448 -0.400762 4.000000
-0.290288 0.456321 0.000742 4.000000
-0.290288 0.349023 -0.310740 4.000000
-0.290288 -0.343332 -0.325683 4.000000
-0.290288 -0.145919 0.465989 4.000000
-0.290288 0.395560 0.206986 4.000000
-0.290288 0.452491 0.010069 4.000000
-0.290288 0.040992 0.444382 4.000000
-0.290288 0.065812 0.491256 4.000000
-0.290288 0.470551 0.081686 4.000000
-0.290288 -0.335923 -0.359535 4.000000
-0.290288 0.447832 0.199930 4.000000
-0.290288 -0.392862 -0.283138 4.000000
-0.290288 0.377356 0.295799 4.000000
-0.290288 -0.461995 -0.157629 4.000000
-0.290288 -0.353761 -0.272483 4.000000
-0.290288 0.140654 0.427871 4.000000
-0.290288 -0.363192 0.337297 4.000000
-0.290288 0.205900 0.420499 4.000000
-0.290288 -0.211491 -0.409874 4.000000
-0.290288 -0.327171 -0.307366 4.000000
-0.290288 0.174291 -0.457898 4.000000
-0.290288 -0.055991 -0.478387 4.000000
-0.290288 0.251434 -0.421543 4.000000
-0.290288 -0.439982 -0.183414 4.000000
-0.290288 -0.081311 -0.447347 4.000000
-0.290288 -0.114032 0.436768 4.000000
-0.290288 -0.219528 0.424059 4.000000
-0.290288 0.128960 0.440814 4.000000
-0.290288 -0.364152 0.332359 4.000000
-0.290288 0.368391 -0.336274 4.000000
-0.290288 -0.427255 0.212387 4.000000
-0.290288 -0.254952 -0.370509 4.000000
-0.290288 0.336433 0.297544 4.000000
-0.290288 0.243106 -0.409102 4.000000
-0.290288 0.466581 -0.176916 4.000000
-0.290288 0.374319 0.242117 4.000000
-0.290288 0.425699 0.240550 4.000000
-0.290288 -0.181068 0.434628 4.000000
-0.290288 0.131588 0.434215 4.000000
-0.290288 -0.293136 -0.340671 4.000000
-0.290288 0.173679 0.435854 4.000000
-0.290288 -0.118608 0.435657 4.000000
-0.290288 0.479464 -0.046727 4.000000
-0.290288 0.149612 -0.434289 4.000000
-0.290288 0.157759 -0.462270 4.000000
-0.290288 -0.251702 -0.386991 4.000000
-0.290288 0.411483 0.272595 4.000000
-0.290288 -0.239537 -0.395029 4.000000
-0.290288 0.434013 -0.173401 4.000000
-0.290288 0.002409 -0.463407 4.000000
-0.290288 -0.359052 -0.320677 4.000000
-0.290288 -0.075018 0.478058 4.000000
-0.290288 -0.378882 -0.246672 4.000000
-0.290288 -0.331074 0.348906 4.000000
-0.290288 -0.472057 0.049864 4.000000
-0.290288 0.407038 0.198197 4.000000
-0.290288 -0.457892 0.107772 4.000000
-0.290288 0.118641 -0.434754 4.000000
-0.290288 0.387152 0.219300 4.000000
-0.290288 -0.435181 0.152584 4.000000
-0.290288 0.324153 0.358585 4.000000
-0.290288 -0.261396 -0.412006 4.000000
-0.290288 0.070811 0.485652 4.000000
-0.290288 -0.406945 0.219374 4.000000
-0.290288 -0.321571 -0.338744 4.000000
-0.290288 -0.158238 -0.448188 4.000000
-0.290288 0.404292 0.265650 4.000000
-0.290288 0.378873 0.289834 4.000000
-0.290288 0.430846 0.193832 4.000000
-0.290288 0.449841 -0.021972 4.000000
-0.290288 -0.443284 -0.079623 4.000000
-0.290288 -0.442773 -0.180138 4.000000
-0.290288 0.477598 -0.042278 4.000000
-0.290288 0.260011 0.396157 4.000000
-0.290288 0.283882 0.354917 4.000000
-0.290288 0.046266 -0.449966 4.000000
-0.290288 -0.105770 0.444239 4.000000
-0.290288 -0.056855 0.442215 4.000000
-0.290288 0.236502 -0.426247 4.000000
-0.290288 0.406176 0.286035 4.000000
-0.290288 0.247486 0.391880 4.000000
-0.290288 -0.352658 0.291461 4.000000
-0.290288 -0.347991 0.324452 4.000000
-0.290288 0.194329 0.443463 4.000000
-0.290288 -0.402436 -0.284143 4.000000
-0.290288 0.446776 -0.073846 4.000000
-0.290288 0.473773 0.018486 4.000000
-0.290288 0.477529 -0.131719 4.000000
-0.290288 0.478998 0.033978 4.000000
-0.290288 0.294055 -0.396497 4.000000
-0.290288 0.033624 0.473444 4.000000
-0.290288 0.444366 -0.085737 4.000000
-0.290288 0.466019 -0.069972 4.000000
-0.290288 -0.326860 -0.320466 4.000000
-0.290288 0.173826 0.427897 4.000000
-0.290288 -0.332839 0.301614 4.000000
-0.290288 -0.435644 -0.200821 4.000000
-0.290288 0.425893 -0.230726 4.000000
-0.290288 -0.424232 -0.224890 4.000000
-0.290288 0.462943 -0.027309 4.000000
-0.290288 0.145035 0.460282 4.000000
-0.290288 0.363947 -0.320249 4.000000
-0.290288 -0.009020 0.474078 4.000000
-0.290288 0.418539 -0.174639 4.000000
-0.290288 -0.451140 -0.176167 4.000000
-0.290288 0.142393 -0.477427 4.000000
-0.290288 0.227282 0.433834 4.000000
-0.290288 0.178919 -0.422484 4.000000
-0.290288 0.262409 -0.377166 4.000000
-0.290288 -0.168309 0.442316 4.000000
-0.290288 -0.463304 0.149947 4.000000
-0.290288 -0.466464 -0.064228 4.000000
-0.290288 0.398548 0.247248 4.000000
-0.290288 -0.247262 0.370825 4.000000
-0.290288 -0.089058 0.438640 4.000000
-0.290288 -0.450686 -0.041767 4.000000
-0.290288 0.224340 -0.418440 4.000000
-0.290288 -0.068810 -0.456889 4.000000
-0.290288 -0.490279 -0.080937 4.000000
-0.290288 0.392318 0.216896 4.000000
-0.290288 -0.258651 0.407458 4.000000
-0.290288 -0.217289 -0.431867 4.000000
-0.290288 0.074512 -0.445424 4.000000
-0.290288 0.452445 -0.206542 4.000000
-0.290288 0.449911 0.012029 4.000000
-0.290288 0.078219 -0.457626 4.000000
-0.290288 0.135801 0.446719 4.000000
-0.290288 -0.089973 0.470422 4.000000
-0.290288 -0.411810 -0.248029 4.000000
-0.290288 -0.468492 0.098458 4.000000
-0.290288 0.324784 -0.329814 4.000000
-0.290288 0.044006 -0.479807 4.000000
-0.290288 -0.290062 0.353552 4.000000
-0.290288 0.420692 -0.177398 4.000000
-0.290288 0.312693 0.359930 4.000000
-0.290288 -0.456355 -0.160462 4.000000
-0.290288 -0.292094 0.365797 4.000000
-0.290288 -0.445145 -0.160320 4.000000
-0.290288 0.262273 0.372258 4.000000
-0.290288 -0.275764 -0.363636 4.000000
-0.290288 0.164382 -0.431153 4.000000
-0.290288 0.057360 -0.448044 4.000000
-0.290288 -0.269520 0.415492 4.000000
-0.290288 0.273074 0.369028 4.000000
-0.290288 0.235085 -0.434568 4.000000
-0.290288 -0.433314 -0.141719 4.000000
-0.290288 0.441183 -0.197979 4.000000
-0.290288 -0.457113 -0.198284 4.000000
-0.290288 -0.133688 -0.467050 4.000000
-0.290288 0.163602 0.433237 4.000000
-0.290288 0.384711 -0.252428 4.000000
-0.290288 -0.159325 -0.440043 4.000000
-0.290288 -0.415902 -0.226727 4.000000
-0.290288 0.362144 -0.291377 4.000000
-0.290288 -0.291212 0.389366 4.000000
-0.290288 -0.383520 0.295033 4.000000
-0.290288 0.452907 -0.189735 4.000000
-0.290288 -0.256382 -0.426889 4.000000
-0.290288 -0.187387 0.440322 4.000000
-0.290288 0.197011 0.406283 4.000000
-0.290288 -0.454025 -0.084422 4.000000
-0.290288 -0.393690 0.212670 4.000000
-0.290288 -0.310553 0.324094 4.000000
-0.290288 -0.220615 0.432778 4.000000
-0.290288 -0.466182 -0.060217 4.000000
-0.290288 -0.161395 -0.449425 4.000000
-0.290288 0.372563 0.296795 4.000000
-0.290288 0.434028 0.102803 4.000000
-0.290288 -0.270449 -0.419086 4.000000
-0.290288 -0.457503 -0.149579 4.000000
-0.290288 0.445294 -0.181264 4.000000
-0.290288 -0.159513 -0.436768 4.000000
-0.290288 -0.121953 -0.442496 4.000000
-0.290288 0.120502 0.440807 4.000000
-0.290288 -0.269054 -0.389031 4.000000
-0.290288 0.201421 0.441551 4.000000
-0.290288 -0.444455 -0.057466 4.000000
-0.290288 0.157529 0.436439 4.000000
-0.290288 0.388680 0.247848 4.000000
-0.290288 -0.142817 -0.425663 4.000000
-0.290288 -0.345984 0.279765 4.000000
-0.290288 -0.262627 0.394146 4.000000
-0.290288 -0.209851 0.429465 4.000000
-0.290288 0.302816 0.379816 4.000000
-0.290288 -0.096653 -0.442022 4.000000
-0.290288 0.293451 0.350984 4.000000
-0.290288 0.435061 0.192128 4.000000
-0.290288 -0.389347 -0.243906 4.000000
-0.290288 0.409046 0.249753 4.000000
-0.290288 -0.303207 -0.390883 4.000000
-0.290288 0.098837 0.482590 4.000000
-0.290288 -0.249923 0.382247 4.000000
-0.290288 -0.258591 0.419532 4.000000
-0.290288 0.162637 -0.462373 4.000000
-0.290288 0.159816 0.454713 4.000000
-0.290288 0.341372 0.334864 4.000000
-0.290288 0.405385 0.223545 4.000000
-0.290288 -0.083497 0.483935 4.000000
-0.290288 0.295403 0.370603 4.000000
-0.290288 0.409239 0.231196 4.000000
-0.290288 0.373285 -0.308803 4.000000
-0.290288 0.491722 -0.020787 4.000000
-0.290288 -0.458557 0.050380 4.000000
-0.290288 0.132172 0.459041 4.000000
-0.290288 0.445779 0.010281 4.000000
-0.290288 -0.286321 -0.378655 4.000000
-0.290288 0.443634 -0.126585 4.000000
-0.290288 -0.014702 0.447023 4.000000
-0.290288 -0.295762 -0.381258 4.000000
-0.290288 0.032613 0.493906 4.000000
-0.290288 0.358752 -0.336090 4.000000
-0.290288 0.034920 -0.463628 4.000000
-0.290288 0.463283 -0.105298 4.000000
-0.290288 0.465603 0.020125 4.000000
-0.290288 0.339596 -0.315550 4.000000
-0.290288 0.041001 0.453867 4.000000
-0.290288 0.463720 0.129222 4.000000
-0.290288 -0.076196 0.461112 4.000000
-0.290288 -0.122615 -0.479401 4.000000
-0.290288 0.368938 -0.284974 4.000000
-0.290288 -0.246923 -0.410804 4.000000
-0.290288 0.195821 0.429699 4.000000
-0.290288 -0.375933 -0.264885 4.000000
-0.290288 -0.485182 0.088389 4.000000
-0.290288 0.457175 0.004011 4.000000
-0.290288 0.050744 0.468659 4.000000
-0.290288 0.103972 0.484291 4.000000
-0.290288 0.129417 -0.472565 4.000000
-0.290288 0.418069 0.185453 4.000000
-0.290288 0.222238 0.397107 4.000000
-0.290288 0.472122 -0.159786 4.000000
-0.290288 0.428827 -0.219901 4.000000
-0.290288 -0.299410 -0.396995 4.000000
-0.290288 0.426719 0.233450 4.000000
-0.290288 -0.432213 -0.134367 4.000000
-0.290288 -0.317810 -0.315372 4.000000
-0.290288 -0.291497 -0.396061 4.000000
-0.290288 0.479929 0.109764 4.000000
-0.290288 -0.044797 0.471724 4.000000
-0.290288 0.425513 -0.245526 4.000000
-0.290288 0.359489 0.327931 4.000000
-0.290288 -0.450560 0.115241 4.000000
-0.290288 -0.178386 -0.446768 4.000000
-0.290288 -0.465187 -0.031903 4.000000
-0.290288 -0.346331 -0.316874 4.000000
-0.290288 -0.352761 0.305180 4.000000
-0.290288 0.207752 -0.454048 4.000000
-0.290288 0.460624 0.008467 4.000000
-0.290288 -0.477648 0.068450 4.000000
-0.290288 -0.438668 0.090388 4.000000
-0.290288 0.412626 -0.191983 4.000000
-0.290288 0.471250 0.130661 4.000000
-0.290288 0.494791 0.004771 4.000000
-0.290288 0.314856 0.356644 4.000000
-0.290288 0.102134 -0.451350 4.000000
-0.290288 -0.255911 0.380292 4.000000
-0.290288 0.114925 0.458620 4.000000
-0.290288 -0.409492 0.270290 4.000000
-0.290288 0.295692 -0.368388 4.000000
-0.290288 0.406773 0.210053 4.000000
-0.290288 -0.356081 -0.311880 4.000000
-0.290288 -0.179610 -0.418802 4.000000
-0.290288 0.229837 0.379923 4.000000
-0.290288 -0.284753 0.390976 4.000000
-0.290288 -0.169474 -0.438850 4.000000
-0.290288 0.278280 0.403835 4.000000
-0.290288 0.465377 -0.089476 4.000000
-0.290288 0.164241 0.419865 4.000000
-0.290288 0.106124 -0.470541 4.000000
-0.290288 -0.193831 0.452140 4.000000
-0.290288 -0.461541 0.081069 4.000000
-0.290288 -0.023686 -0.451660 4.000000
-0.290288 -0.247963 -0.432676 4.000000
-0.290288 -0.464382 0.109245 4.000000
-0.290288 0.287362 -0.392073 4.000000
-0.290288 0.053657 -0.497224 4.000000
-0.290288 0.002311 -0.489777 4.000000
-0.290288 -0.416617 -0.272959 4.000000
-0.290288 0.048391 0.472269 4.000000
-0.290288 0.491303 -0.064447 4.000000
-0.290288 0.143714 -0.423886 4.000000
-0.290288 -0.283816 -0.365373 4.000000
-0.290288 -0.175617 0.444653 4.000000
-0.290288 0.492279 0.020707 4.000000
-0.290288 -0.261725 -0.408884 4.000000
-0.290288 -0.391321 -0.308998 4.000000
-0.290288 0.197237 0.415025 4.000000
-0.290288 0.350257 0.342946 4.000000
-0.290288 -0.250242 0.412549 4.000000
-0.290288 0.423158 -0.264038 4.000000
-0.290288 -0.459085 -0.005613 4.000000
-0.290288 -0.059430 -0.488032 4.000000
-0.290288 0.138595 -0.478751 4.000000
-0.290288 0.465872 0.033047 4.000000
-0.290288 0.310273 0.322950 4.000000
-0.290288 0.401163 0.194541 4.000000
-0.290288 0.424401 0.154658 4.000000
-0.290288 -0.413675 -0.199217 4.000000
-0.290288 -0.449988 0.132306 4.000000
-0.290288 -0.315775 0.374539 4.000000
-0.290288 -0.470257 -0.067024 4.000000
-0.290288 0.179068 -0.446755 4.000000
-0.290288 -0.103880 -0.457322 4.000000
-0.290288 -0.470605 -0.001593 4.000000
-0.290288 -0.366956 0.280059 4.000000
-0.290288 -0.322499 0.374262 4.000000
-0.290288 -0.291490 -0.345350 4.000000
-0.290288 0.340419 0.321855 4.000000
-0.290288 0.406079 0.255377 4.000000
-0.290288 0.143914 0.420365 4.000000
-0.290288 0.427191 -0.236769 4.000000
-0.290288 -0.457736 0.087131 4.000000
-0.290288 -0.315694 0.321689 4.000000
-0.290288 -0.147204 0.441691 4.000000
-0.290288 0.469537 -0.092245 4.000000
-0.290288 -0.132523 -0.447080 4.000000
-0.290288 -0.369386 -0.327757 4.000000
-0.290288 0.449795 -0.148482 4.000000
-0.290288 -0.041833 -0.445956 4.000000
-0.290288 0.169426 0.436021 4.000000
-0.290288 0.003665 -0.455410 4.000000
-0.290288 -0.187634 -0.420087 4.000000
-0.290288 0.010251 -0.475000 4.000000
-0.290288 -0.382235 0.239803 4.000000
-0.290288 0.493567 0.060777 4.000000
-0.290288 0.076889 -0.466201 4.000000
-0.290288 -0.061529 -0.447794 4.000000
-0.290288 0.240546 0.406469 4.000000
-0.290288 0.097260 -0.443845 4.000000
-0.290288 -0.452461 0.020861 4.000000
-0.290288 -0.083744 -0.482797 4.000000
-0.290288 0.455585 -0.012711 4.000000
-0.290288 0.058074 -0.496309 4.000000
-0.290288 0.442702 -0.100806 4.000000
-0.290288 -0.208040 0.392281 4.000000
-0.290288 0.226761 0.411372 4.000000
-0.290288 0.373408 -0.286993 4.000000
-0.290288 -0.078971 0.473309 4.000000
-0.290288 -0.040408 0.456399 4.000000
-0.290288 -0.352839 -0.347787 4.000000
-0.290288 0.375682 -0.289354 4.000000
-0.290288 0.476317 0.110685 4.000000
-0.290288 0.222431 -0.392398 4.000000
-0.290288 -0.085240 -0.441148 4.000000
-0.290288 0.122592 0.473436 4.000000
-0.290288 0.344056 -0.286016 4.000000
-0.290288 0.226512 -0.445456 4.000000
-0.290288 -0.224930 0.407982 4.000000
-0.290288 -0.362391 -0.311878 4.000000
-0.290288 -0.421450 0.242174 4.000000
-0.290288 0.021148 -0.494845 4.000000
-0.290288 -0.257682 -0.394332 4.000000
-0.290288 -0.397982 -0.219319 4.000000
-0.290288 -0.061548 0.487718 4.000000
-0.290288 0.447590 0.024876 4.000000
-0.290288 -0.355193 0.289186 4.000000
-0.290288 0.304361 -0.342706 4.000000
-0.290288 -0.288455 -0.392930 4.000000
-0.290288 0.161845 0.417315 4.000000
-0.290288 0.073660 0.439089 4.000000
-0.290288 0.339302 0.351708 4.000000
-0.290288 -0.044409 0.486531 4.000000
-0.290288 0.023505 0.455931 4.000000
-0.290288 -0.249606 -0.393805 4.000000
-0.290288 -0.450502 -0.121901 4.000000
-0.290288 -0.488100 0.053745 4.000000
-0.290288 0.294719 0.398937 4.000000
-0.290288 0.002697 -0.480932 4.000000
-0.290288 0.014923 0.455020 4.000000
-0.290288 0.281619 0.367169 4.000000
-0.290288 0.348315 -0.349517 4.000000
-0.290288 0.482206 0.067487 4.000000
-0.290288 0.379602 -0.287250 4.000000
-0.290288 -0.444770 -0.023264 4.000000
-0.290288 0.471111 0.112851 4.000000
-0.290288 -0.331005 0.342298 4.000000
-0.290288 -0.475846 -0.116728 4.000000
-0.290288 0.439782 -0.076554 4.000000
-0.290288 -0.233684 -0.419989 4.000000
-0.290288 -0.448907 -0.109860 4.000000
-0.290288 0.384625 -0.269889 4.000000
-0.290288 -0.206124 0.451033 4.000000
-0.290288 -0.467536 0.131575 4.000000
-0.290288 -0.480834 0.045772 4.000000
-0.290288 -0.365434 0.314731 4.000000
-0.290288 -0.243406 0.385007 4.000000
-0.290288 -0.445699 -0.116359 4.000000
-0.290288 -0.272641 0.385769 4.000000
-0.290288 -0.219827 0.417025 4.000000
-0.290288 0.451849 0.060636 4.000000
-0.290288 0.477953 -0.022862 4.000000
-0.290288 0.337143 -0.317323 4.000000
-0.290288 -0.456057 0.169729 4.000000
-0.290288 0.034855 0.458748 4.000000
-0.290288 -0.351273 -0.324743 4.000000
-0.290288 -0.368986 -0.304945 4.000000
-0.290288 -0.466804 0.094623 4.000000
-0.290288 -0.287520 -0.346617 4.000000
-0.290288 0.322548 0.362022 4.000000
-0.290288 0.469679 -0.060988 4.000000
-0.290288 -0.492671 -0.027755 4.000000
-0.290288 -0.129439 0.456267 4.000000
-0.290288 -0.119098 0.431760 4.000000
-0.290288 -0.128378 0.444553 4.000000
-0.290288 0.183390 0.452798 4.000000
-0.290288 0.307095 0.327210 4.000000
-0.290288 0.413957 -0.175937 4.000000
-0.290288 0.122616 -0.482051 4.000000
-0.290288 0.454539 0.104693 4.000000
-0.290288 -0.440773 -0.114643 4.000000
-0.290288 -0.063817 -0.471878 4.000000
-0.290288 -0.213824 -0.414918 4.000000
-0.290288 -0.147240 0.426252 4.000000
-0.290288 0.367221 -0.329589 4.000000
-0.290288 0.305553 0.330904 4.000000
-0.290288 0.492544 -0.053699 4.000000
-0.290288 -0.255303 -0.402939 4.000000
-0.290288 -0.288526 0.366365 4.000000
-0.290288 0.370689 0.279417 4.000000
-0.290288 -0.290895 0.339431 4.000000
-0.290288 0.138135 -0.466364 4.000000
-0.290288 0.032527 0.489784 4.000000
-0.290288 0.459246 -0.160978 4.000000
-0.290288 -0.059859 0.475853 4.000000
-0.290288 -0.138143 -0.466351 4.000000
-0.290288 0.421014 0.147503 4.000000
-0.290288 -0.281502 -0.394099 4.000000
-0.290288 0.010660 0.495104 4.000000
-0.290288 0.310863 0.329110 4.000000
-0.290288 -0.453580 -0.192049 4.000000
-0.290288 0.142095 0.461850 4.000000
-0.290288 0.475597 -0.053887 4.000000
-0.290288 0.271715 -0.377027 4.000000
-0.290288 0.150909 0.472112 4.000000
-0.290288 0.419117 -0.236879 4.000000
-0.290288 -0.044231 -0.496756 4.000000
-0.290288 0.349457 -0.284745 4.000000
-0.290288 0.437956 -0.107898 4.000000
-0.290288 0.144198 -0.429158 4.000000
-0.290288 -0.443184 0.069494 4.000000
-0.290288 0.004637 0.484236 4.000000
-0.290288 0.280765 -0.351342 4.000000
-0.290288 0.142109 -0.470570 4.000000
-0.290288 0.435571 0.139555 4.000000
-0.290288 0.463958 -0.166327 4.000000
-0.290288 -0.476784 0.116617 4.000000
-0.290288 -0.419956 0.207403 4.000000
-0.290288 0.395967 -0.263747 4.000000
-0.290288 -0.431870 -0.147653 4.000000
-0.290288 -0.194116 -0.431416 4.000000
-0.290288 0.132947 -0.446796 4.000000
-0.290288 0.443314 -0.082244 4.000000
-0.290288 -0.209496 0.437410 4.000000
-0.290288 -0.215032 -0.402047 4.000000
-0.290288 -0.477847 0.048869 4.000000
-0.290288 -0.469784 0.152062 4.000000
-0.290288 0.470344 0.162714 4.000000
-0.290288 -0.371196 -0.249790 4.000000
-0.290288 0.469498 -0.015892 4.000000
-0.290288 -0.002731 -0.468900 4.000000
-0.290288 -0.283305 -0.388997 4.000000
-0.290288 -0.300378 -0.365409 4.000000
-0.290288 0.306373 0.385183 4.000000
-0.290288 -0.406294 -0.279735 4.000000
-0.290288 0.033057 -0.479864 4.000000
-0.290288 0.420311 -0.155278 4.000000
-0.290288 -0.447960 0.022239 4.000000
-0.290288 -0.094633 -0.477706 4.000000
-0.290288 0.271630 -0.356336 4.000000
-0.290288 -0.196169 0.429384 4.000000
-0.290288 0.298764 0.359129 4.000000
-0.290288 0.436175 -0.203319 4.000000
-0.290288 -0.431102 0.244019 4.000000
-0.290288 -0.413191 0.263733 4.000000
-0.290288 -0.436582 -0.115128 4.000000
-0.290288 -0.399883 -0.256767 4.000000
-0.290288 -0.212852 -0.447890 4.000000
-0.290288 -0.193329 0.430898 4.000000
-0.290288 0.411427 -0.210741 4.000000
-0.290288 0.379450 0.257052 4.000000
-0.290288 0.471399 -0.030546 4.000000
-0.290288 -0.439168 0.111530 4.000000
-0.290288 0.052856 -0.455759 4.000000
-0.290288 0.281268 0.387277 4.000000
-0.290288 -0.430737 0.134262 4.000000
-0.290288 0.429702 -0.242622 4.000000
-0.290288 -0.304150 -0.380026 4.000000
-0.290288 -0.457135 0.139385 4.000000
-0.290288 -0.378906 0.283925 4.000000
-0.290288 0.372580 0.290303 4.000000
-0.290288 -0.458027 0.174151 4.000000
-0.290288 0.388541 0.235053 4.000000
-0.290288 -0.370266 -0.255514 4.000000
-0.290288 0.469583 -0.068785 4.000000
-0.290288 -0.011153 0.457804 4.000000
-0.290288 0.366875 -0.314033 4.000000
-0.290288 -0.356269 -0.276741 4.000000
-0.290288 -0.433140 0.120286 4.000000
-0.290288 -0.305476 -0.340986 4.000000
-0.290288 0.481900 0.017143 4.000000
-0.290288 -0.285530 -0.359431 4.000000
-0.290288 -0.399300 0.270979 4.000000
-0.290288 -0.020746 -0.463530 4.000000
-0.290288 -0.243441 -0.413344 4.000000
-0.290288 0.355439 -0.319170 4.000000
-0.290288 -0.385814 0.281199 4.000000
-0.290288 -0.254624 0.417210 4.000000
-0.290288 0.418233 -0.273563 4.000000
-0.290288 -0.094215 0.454338 4.000000
-0.290288 0.444817 -0.210362 4.000000
-0.290288 -0.348785 0.289587 4.000000
-0.290288 0.050735 -0.467530 4.000000
-0.290288 -0.186929 -0.430607 4.000000
-0.290288 -0.478565 -0.019158 4.000000
-0.290288 -0.278086 -0.395206 4.000000
-0.290288 0.286316 0.360985 4.000000
-0.290288 -0.447221 0.190944 4.000000
-0.290288 -0.050410 -0.460963 4.000000
-0.290288 -0.451128 -0.188549 4.000000
-0.290288 0.482687 -0.078446 4.000000
-0.290288 -0.375026 0.245273 4.000000
-0.290288 0.121663 0.459335 4.000000
-0.290288 -0.455991 -0.177329 4.000000
-0.290288 -0.330183 0.325047 4.000000
-0.290288 0.466465 -0.025422 4.000000
-0.290288 -0.392757 -0.227445 4.000000
-0.290288 0.443481 -0.064761 4.000000
-0.290288 0.452082 0.045492 4.000000
-0.290288 -0.324234 0.350944 4.000000
-0.290288 0.454185 -0.176525 4.000000
-0.290288 -0.266997 0.354000 4.000000
-0.290288 0.385858 0.254965 4.000000
-0.290288 0.199274 0.450158 4.000000
-0.290288 0.273093 0.411212 4.000000
-0.290288 -0.374644 -0.322817 4.000000
-0.290288 -0.172954 0.408031 4.000000
-0.290288 -0.157665 0.445258 4.000000
-0.290288 0.411899 -0.179052 4.000000
-0.290288 -0.167549 0.428961 4.000000
-0.290288 0.428862 0.169092 4.000000
-0.290288 -0.469570 -0.020234 4.000000
-0.290288 -0.084892 -0.470577 4.000000
-0.290288 0.336955 0.343310 4.000000
-0.290288 -0.120740 0.446730 4.000000
-0.290288 -0.375058 -0.309459 4.000000
-0.290288 -0.020309 0.481563 4.000000
-0.290288 0.455431 -0.118711 4.000000
-0.290288 0.158045 -0.474090 4.000000
-0.290288 -0.285785 0.349538 4.000000
-0.290288 -0.398383 0.231108 4.000000
-0.290288 -0.443848 -0.038189 4.000000
-0.290288 0.349370 -0.357239 4.000000
-0.290288 0.376558 0.318230 4.000000
-0.290288 0.257132 0.410990 4.000000
-0.290288 0.176187 -0.440396 4.000000
-0.290288 -0.203792 -0.435043 4.000000
-0.290288 0.437619 -0.218974 4.000000
-0.290288 0.469476 -0.038054 4.000000
-0.290288 -0.467994 -0.103814 4.000000
-0.290288 -0.430279 -0.228374 4.000000
-0.290288 0.477224 -0.014091 4.000000
-0.290288 0.282863 -0.347918 4.000000
-0.290288 0.390079 -0.271044 4.000000
-0.290288 -0.115014 -0.467098 4.000000
-0.290288 0.401880 0.276670 4.000000
-0.290288 -0.332893 0.305414 4.000000
-0.290288 0.427752 -0.173168 4.000000
-0.290288 -0.170555 -0.418994 4.000000
-0.290288 0.020766 0.451252 4.000000
-0.290288 -0.404221 0.267125 4.000000
-0.290288 -0.229759 0.387890 4.000000
-0.290288 -0.371025 -0.261911 4.000000
-0.290288 0.297543 -0.398296 4.000000
-0.290288 -0.251190 -0.379270 4.000000
-0.290288 0.184585 0.427238 4.000000
-0.290288 0.474037 -0.134277 4.000000
-0.290288 0.459609 -0.136181 4.000000
-0.290288 0.489598 0.035439 4.000000
-0.290288 0.086524 0.481498 4.000000
-0.290288 0.333937 0.344240 4.000000
-0.290288 0.493131 0.035634 4.000000
-0.290288 -0.445295 -0.220981 4.000000
-0.290288 -0.038725 0.476510 4.000000
-0.290288 0.443597 -0.133032 4.000000
-0.290288 -0.375809 -0.276759 4.000000
-0.290288 -0.142100 0.470641 4.000000
-0.290288 -0.327455 -0.316974 4.000000
-0.290288 -0.215129 0.430534 4.000000
-0.290288 -0.014749 -0.474494 4.000000
-0.290288 0.129367 -0.444715 4.000000
-0.290288 -0.030890 0.464033 4.000000
-0.290288 0.463187 -0.171997 4.000000
-0.290288 0.077798 -0.454295 4.000000
-0.290288 -0.472241 0.063835 4.000000
-0.290288 -0.467173 0.115157 4.000000
-0.290288 -0.056615 -0.496578 4.000000
-0.290288 -0.343540 0.302842 4.000000
-0.290288 -0.359104 0.290047 4.000000
-0.290288 -0.340204 0.293537 4.000000
-0.290288 -0.034576 0.468454 4.000000
-0.290288 0.481422 0.105637 4.000000
-0.290288 -0.286752 0.374479 4.000000
-0.290288 0.388983 0.299209 4.000000
-0.290288 0.018674 0.445189 4.000000
-0.290288 -0.464534 -0.086391 4.000000
-0.290288 -0.474056 -0.127279 4.000000
-0.290288 0.087464 -0.470742 4.000000
-0.290288 -0.109833 -0.445699 4.000000
-0.290288 -0.464241 0.088127 4.000000
-0.290288 -0.459716 -0.052460 4.000000
-0.290288 0.038716 0.475037 4.000000
-0.290288 0.007792 0.486139 4.000000
-0.290288 -0.315845 -0.366343 4.000000
-0.290288 -0.393185 -0.265997 4.000000
-0.290288 -0.408008 0.222766 4.000000
-0.290288 -0.423000 0.213453 4.000000
-0.290288 -0.486380 -0.071447 4.000000
-0.290288 0.424204 0.150567 4.000000
-0.290288 0.140226 0.421684 4.000000
-0.290288 -0.177000 -0.410992 4.000000
-0.290288 -0.445367 -0.195531 4.000000
-0.290288 -0.430124 0.201697 4.000000
-0.290288 -0.128027 0.436575 4.000000
-0.290288 -0.436655 0.114427 4.000000
-0.290288 -0.118405 -0.446964 4.000000
-0.290288 -0.180586 -0.449156 4.000000
-0.290288 -0.353917 -0.288224 4.000000
-0.290288 0.430314 -0.120817 4.000000
-0.290288 -0.455110 -0.129171 4.000000
-0.290288 -0.076199 -0.492402 4.000000
-0.290288 -0.434274 0.214870 4.000000
