0.286960 0.461820 -0.093684 1.000000
0.286960 0.142125 -0.475327 1.000000
0.286960 -0.175886 -0.445591 1.000000
0.286960 0.165600 0.452090 1.000000
0.286960 -0.470230 -0.081022 1.000000
0.286960 0.429717 0.137365 1.000000
0.286960 0.336603 -0.358459 1.000000
0.286960 0.442518 -0.206979 1.000000
0.286960 -0.479130 -0.060555 1.000000
0.286960 -0.487654 0.056763 1.000000
0.286960 0.214538 -0.427995 1.000000
0.286960 0.298312 0.348070 1.000000
0.286960 0.320780 0.353419 1.000000
0.286960 0.216248 0.441212 1.000000
0.286960 -0.486290 -0.064506 1.000000
0.286960 0.300902 -0.339934 1.000000
0.286960 -0.456277 -0.067816 1.000000
0.286960 0.111399 -0.433903 1.000000
0.286960 0.427080 0.251981 1.000000
0.286960 0.411547 -0.278117 1.000000
0.286960 0.100662 -0.453528 1.000000
0.286960 0.211102 -0.419457 1.000000
0.286960 0.188806 0.408980 1.000000
0.286960 0.079282 -0.472514 1.000000
0.286960 0.063425 -0.466383 1.000000
0.286960 -0.380869 -0.245913 1.000000
0.286960 0.312021 0.374999 1.000000
0.286960 0.332919 -0.335462 1.000000
0.286960 0.161627 -0.460952 1.000000
0.286960 -0.375898 0.236225 1.000000
0.286960 -0.305818 0.370473 1.000000
0.286960 0.418613 -0.212934 1.000000
0.286960 -0.485344 0.001886 1.000000
0.286960 -0.389373 0.224956 1.000000
0.286960 0.144109 -0.456918 1.000000
0.286960 0.492224 0.036501 1.000000
0.286960 0.436173 -0.240410 1.000000
0.286960 0.285235 -0.353850 1.000000
0.286960 0.020585 0.449592 1.000000
0.286960 0.437562 -0.190513 1.000000
0.286960 -0.444418 -0.104360 1.000000
0.286960 -0.007380 0.472401 1.000000
0.286960 0.054903 0.486445 1.000000
0.286960 -0.322276 -0.358103 1.000000
0.286960 -0.311497 -0.367685 1.000000
0.286960 -0.328687 -0.303242 1.000000
0.286960 -0.429651 -0.245311 1.000000
0.286960 0.464614 0.013274 1.000000
0.286960 0.456924 0.080197 1.000000
0.286960 -0.090403 0.444225 1.000000
0.286960 -0.373273 -0.309097 1.000000
0.286960 0.290697 -0.387309 1.000000
0.286960 0.235784 -0.389131 1.000000
0.286960 0.376899 0.243089 1.000000
0.286960 -0.427628 0.241704 1.000000
0.286960 0.073259 0.455531 1.000000
0.286960 -0.253402 -0.402058 1.000000
0.286960 -0.342461 0.307771 1.000000
0.286960 -0.428650 -0.220253 1.000000
0.286960 0.217056 -0.442369 1.000000
0.286960 -0.467729 -0.044353 1.000000
0.286960 0.439732 -0.195091 1.000000
0.286960 0.190911 0.454315 1.000000
0.286960 0.196431 0.399059 1.000000
0.286960 -0.093249 0.433551 1.000000
0.286960 -0.438764 -0.084918 1.000000
0.286960 -0.164667 0.429086 1.000000
0.286960 0.285070 0.403322 1.000000
0.286960 0.446039 -0.067809 1.000000
0.286960 0.453412 0.043498 1.000000
0.286960 -0.437678 -0.103785 1.000000
0.286960 -0.021392 -0.493070 1.000000
0.286960 -0.458995 -0.090830 1.000000
0.286960 -0.419474 -0.152220 1.000000
0.286960 0.479409 -0.123271 1.000000
0.286960 -0.476009 0.037212 1.000000
0.286960 0.201910 0.435070 1.000000
0.286960 0.007897 0.454118 1.000000
0.286960 0.453906 -0.121969 1.000000
0.286960 -0.192555 0.418216 1.000000
0.286960 0.319918 -0.317460 1.000000
0.286960 -0.462001 0.115874 1.000000
0.286960 0.244508 -0.425186 1.000000
0.286960 0.147169 0.463626 1.000000
0.286960 -0.313331 0.349258 1.000000
0.286960 0.456016 -0.094585 1.000000
0.286960 -0.211923 -0.404869 1.000000
0.286960 0.363198 0.330363 1.000000
0.286960 -0.302865 -0.391156 1.000000
0.286960 0.260858 -0.421013 1.000000
0.286960 0.364962 0.309504 1.000000
0.286960 -0.426120 0.230951 1.000000
0.286960 -0.327363 -0.361012 1.000000
0.286960 0.361633 0.277630 1.000000
0.286960 0.477574 0.059002 1.000000
0.286960 -0.216625 -0.401504 1.000000
0.286960 0.466139 0.119055 1.000000
0.286960 -0.327429 -0.376477 1.000000
0.286960 -0.155896 0.458812 1.000000
0.286960 -0.169091 0.433743 1.000000
0.286960 -0.434065 -0.162377 1.000000
0.286960 -0.144329 -0.472854 1.000000
0.286960 0.083311 0.447815 1.000000
0.286960 -0.421160 -0.265026 1.000000
0.286960 -0.102060 0.446377 1.000000
0.286960 -0.427558 0.252097 1.000000
0.286960 -0.262837 -0.393129 1.000000
0.286960 0.482086 -0.126223 1.000000
0.286960 -0.327864 -0.354660 1.000000
0.286960 0.349554 -0.308823 1.000000
0.286960 -0.276216 -0.354834 1.000000
0.286960 -0.430082 0.215428 1.000000
0.286960 -0.320556 -0.320931 1.000000
0.286960 -0.032952 -0.459430 1.000000
0.286960 0.227934 -0.398876 1.000000
0.286960 -0.404073 -0.282111 1.000000
0.286960 -0.435968 0.154651 1.000000
0.286960 -0.147349 -0.429934 1.000000
0.286960 -0.229883 0.392011 1.000000
0.286960 0.189300 -0.452635 1.000000
0.286960 -0.246067 -0.434462 1.000000
0.286960 -0.353789 0.276733 1.000000
0.286960 -0.449978 -0.186953 1.000000
0.286960 0.124723 -0.440217 1.000000
0.286960 -0.455426 -0.087327 1.000000
0.286960 -0.064253 -0.473516 1.000000
0.286960 -0.049068 0.466035 1.000000
0.286960 0.020313 -0.495312 1.000000
0.286960 0.282255 0.372392 1.000000
0.286960 0.374882 -0.286440 1.000000
0.286960 0.445167 0.135629 1.000000
0.286960 -0.448309 -0.183233 1.000000
0.286960 0.453493 0.159518 1.000000
0.286960 -0.241484 -0.436362 1.000000
0.286960 0.047412 -0.466816 1.000000
0.286960 0.107442 -0.456140 1.000000
0.286960 -0.387720 0.301508 1.000000
0.286960 -0.263751 0.373265 1.000000
0.286960 0.231228 0.415872 1.000000
0.286960 0.022632 0.442758 1.000000
0.286960 -0.409036 -0.190525 1.000000
0.286960 -0.461694 -0.011530 1.000000
0.286960 0.402602 0.248262 1.000000
0.286960 0.312200 -0.387131 1.000000
0.286960 -0.233294 -0.410399 1.000000
0.286960 -0.378919 0.291327 1.000000
0.286960 -0.082278 -0.491142 1.000000
0.286960 0.447925 -0.040357 1.000000
0.286960 0.310276 0.344263 1.000000
0.286960 -0.386285 0.220229 1.000000
0.286960 0.148469 -0.467440 1.000000
0.286960 0.285665 -0.349593 1.000000
0.286960 -0.402588 -0.273364 1.000000
0.286960 0.423418 0.183963 1.000000
0.286960 0.120440 -0.472941 1.000000
0.286960 -0.482921 0.107050 1.000000
0.286960 -0.442549 0.211370 1.000000
0.286960 -0.229860 0.414994 1.000000
0.286960 0.307478 -0.393317 1.000000
0.286960 -0.367550 -0.253675 1.000000
0.286960 -0.238257 -0.432985 1.000000
0.286960 0.269415 -0.370038 1.000000
0.286960 0.440544 0.068633 1.000000
0.286960 0.204979 -0.449941 1.000000
0.286960 0.200674 0.442105 1.000000
0.286960 -0.396969 0.209506 1.000000
0.286960 -0.292468 -0.337916 1.000000
0.286960 -0.374703 0.252824 1.000000
0.286960 0.395148 0.293356 1.000000
0.286960 -0.475744 -0.116378 1.000000
0.286960 0.087609 0.451834 1.000000
0.286960 -0.024095 0.457235 1.000000
0.286960 -0.361615 -0.275583 1.000000
0.286960 -0.471643 -0.031053 1.000000
0.286960 -0.275545 -0.358569 1.000000
0.286960 -0.220411 -0.447469 1.000000
0.286960 -0.299046 0.349744 1.000000
0.286960 0.382781 0.282932 1.000000
0.286960 -0.485208 -0.086409 1.000000
0.286960 0.067369 0.471402 1.000000
0.286960 -0.421459 -0.219474 1.000000
0.286960 0.101977 0.455264 1.000000
0.286960 -0.001291 0.449812 1.000000
0.286960 -0.278236 -0.403486 1.000000
0.286960 -0.033687 -0.448251 1.000000
0.286960 0.381325 0.309996 1.000000
0.286960 -0.168836 0.414948 1.000000
0.286960 0.465641 -0.163587 1.000000
0.286960 0.461861 -0.115016 1.000000
0.286960 -0.300453 0.342492 1.000000
0.286960 -0.304132 0.334155 1.000000
0.286960 0.023486 0.475739 1.000000
0.286960 0.452817 -0.148956 1.000000
0.286960 -0.358708 0.280681 1.000000
0.286960 -0.438004 0.163131 1.000000
0.286960 0.435955 -0.106782 1.000000
0.286960 -0.448356 -0.069777 1.000000
0.286960 -0.356418 0.294862 1.000000
0.286960 0.222573 -0.408696 1.000000
0.286960 -0.237151 -0.387975 1.000000
0.286960 0.492443 0.021156 1.000000
0.286960 0.367661 0.262765 1.000000
0.286960 -0.415682 -0.255604 1.000000
0.286960 -0.264008 0.363093 1.000000
0.286960 0.497840 0.020398 1.000000
0.286960 -0.139176 -0.453554 1.000000
0.286960 0.458859 0.028932 1.000000
0.286960 0.075115 -0.466145 1.000000
0.286960 0.030875 -0.468699 1.000000
0.286960 0.196274 -0.435233 1.000000
0.286960 0.352098 0.344964 1.000000
0.286960 -0.114427 0.440833 1.000000
0.286960 -0.489901 0.047057 1.000000
0.286960 -0.072489 0.459017 1.000000
0.286960 0.098764 -0.461247 1.000000
0.286960 -0.467548 -0.052447 1.000000
0.286960 0.359559 0.324140 1.000000
0.286960 -0.428763 0.143868 1.000000
0.286960 0.290519 0.384847 1.000000
0.286960 0.464039 -0.122103 1.000000
0.286960 0.180862 -0.465496 1.000000
0.286960 0.070636 0.470498 1.000000
0.286960 0.427505 -0.165672 1.000000
0.286960 0.371300 0.278140 1.000000
0.286960 0.345309 0.313492 1.000000
0.286960 -0.406869 -0.246433 1.000000
0.286960 -0.061425 0.455162 1.000000
0.286960 0.080619 0.474315 1.000000
0.286960 0.383509 -0.248130 1.000000
0.286960 -0.414494 -0.263687 1.000000
0.286960 -0.285493 0.393811 1.000000
0.286960 0.346615 -0.329702 1.000000
0.286960 0.052960 -0.490268 1.000000
0.286960 0.382180 0.294470 1.000000
0.286960 0.040944 0.449772 1.000000
0.286960 -0.098177 0.479856 1.000000
0.286960 -0.123298 0.465387 1.000000
0.286960 -0.161249 0.425310 1.000000
0.286960 0.439268 0.205082 1.000000
0.286960 0.440361 -0.176264 1.000000
0.286960 0.020894 -0.447032 1.000000
0.286960 -0.117079 -0.457739 1.000000
0.286960 0.213903 -0.418016 1.000000
0.286960 0.449672 -0.121271 1.000000
0.286960 -0.287466 -0.374453 1.000000
0.286960 0.355708 0.334357 1.000000
0.286960 -0.324011 -0.360947 1.000000
0.286960 -0.437629 -0.176083 1.000000
0.286960 0.444385 0.193177 1.000000
0.286960 0.376652 0.312455 1.000000
0.286960 -0.073130 0.437788 1.000000
0.286960 -0.044663 -0.490660 1.000000
0.286960 -0.277624 0.349398 1.000000
0.286960 0.364914 0.261589 1.000000
0.286960 -0.316918 0.329973 1.000000
0.286960 -0.407823 0.208094 1.000000
0.286960 0.400310 -0.288739 1.000000
0.286960 -0.422459 0.176272 1.000000
0.286960 -0.202854 -0.415451 1.000000
0.286960 -0.434406 -0.210165 1.000000
0.286960 -0.173531 0.419706 1.000000
0.286960 -0.193109 -0.413201 1.000000
0.286960 -0.143592 0.421336 1.000000
0.286960 -0.269676 -0.373536 1.000000
0.286960 -0.042586 -0.493565 1.000000
0.286960 0.297909 -0.342389 1.000000
0.286960 0.289521 -0.352424 1.000000
0.286960 -0.374905 -0.317786 1.000000
0.286960 0.119314 0.456184 1.000000
0.286960 -0.474266 0.086336 1.000000
0.286960 0.385666 -0.281444 1.000000
0.286960 0.467879 -0.170052 1.000000
0.286960 0.417045 -0.209934 1.000000
0.286960 -0.233287 -0.428514 1.000000
0.286960 0.338422 -0.346631 1.000000
0.286960 -0.120395 0.449937 1.000000
0.286960 -0.406762 0.255842 1.000000
0.286960 -0.064742 -0.495827 1.000000
0.286960 -0.055253 0.451107 1.000000
0.286960 0.349783 0.347696 1.000000
0.286960 -0.369130 -0.323822 1.000000
0.286960 -0.494883 0.044082 1.000000
0.286960 -0.087670 -0.480098 1.000000
0.286960 0.289354 0.396376 1.000000
0.286960 -0.036135 0.476393 1.000000
0.286960 -0.447986 0.112608 1.000000
0.286960 -0.269283 -0.416926 1.000000
0.286960 -0.272101 0.399958 1.000000
0.286960 -0.272699 0.383867 1.000000
0.286960 0.174870 0.433266 1.000000
0.286960 0.127261 0.457248 1.000000
0.286960 -0.428566 -0.249311 1.000000
0.286960 -0.290557 -0.355545 1.000000
0.286960 -0.078256 0.472379 1.000000
0.286960 0.195375 0.431887 1.000000
0.286960 0.491755 -0.048284 1.000000
0.286960 0.312212 0.339493 1.000000
0.286960 0.421166 -0.223198 1.000000
0.286960 -0.216564 0.418694 1.000000
0.286960 0.347703 -0.336376 1.000000
0.286960 0.239705 0.375023 1.000000
0.286960 0.449864 0.158703 1.000000
0.286960 0.203678 0.440974 1.000000
0.286960 -0.470996 -0.005946 1.000000
0.286960 -0.342029 -0.300623 1.000000
0.286960 0.481275 0.051046 1.000000
0.286960 0.230673 0.400207 1.000000
0.286960 -0.206594 0.444366 1.000000
0.286960 0.463865 -0.057704 1.000000
0.286960 0.444347 0.214173 1.000000
0.286960 -0.333934 0.318180 1.000000
0.286960 0.290919 -0.404066 1.000000
0.286960 -0.268765 0.414301 1.000000
0.286960 0.372974 0.326664 1.000000
0.286960 0.269155 0.404063 1.000000
0.286960 -0.172849 -0.445110 1.000000
0.286960 0.174512 0.408908 1.000000
0.286960 0.482404 -0.033525 1.000000
0.286960 0.462265 -0.045337 1.000000
0.286960 -0.293784 0.369031 1.000000
0.286960 -0.330405 -0.360458 1.000000
0.286960 -0.042805 0.451246 1.000000
0.286960 0.444796 0.032539 1.000000
0.286960 0.419775 0.235958 1.000000
0.286960 0.478971 0.013486 1.000000
0.286960 -0.398764 -0.244945 1.000000
0.286960 0.121364 0.440984 1.000000
0.286960 0.255483 0.362844 1.000000
0.286960 0.220062 0.386025 1.000000
0.286960 -0.109193 -0.448237 1.000000
0.286960 0.462785 0.165100 1.000000
0.286960 0.405846 -0.242383 1.000000
0.286960 0.450324 -0.037032 1.000000
0.286960 0.149482 0.417838 1.000000
0.286960 0.369771 -0.329642 1.000000
0.286960 0.473069 0.125429 1.000000
0.286960 -0.444221 0.148570 1.000000
0.286960 -0.423358 -0.204160 1.000000
0.286960 -0.406589 0.180076 1.000000
0.286960 0.395078 0.262660 1.000000
0.286960 -0.309736 0.336468 1.000000
0.286960 0.225983 -0.442548 1.000000
0.286960 -0.036582 0.459598 1.000000
0.286960 0.040616 0.490206 1.000000
0.286960 0.390148 -0.293484 1.000000
0.286960 -0.361198 -0.300238 1.000000
0.286960 -0.227629 0.399764 1.000000
0.286960 -0.418334 -0.217509 1.000000
0.286960 0.372962 -0.327887 1.000000
0.286960 0.453530 -0.034404 1.000000
0.286960 -0.383104 0.246944 1.000000
0.286960 -0.085729 -0.487628 1.000000
0.286960 0.407145 -0.205296 1.000000
0.286960 -0.124315 0.443942 1.000000
0.286960 -0.395301 0.236533 1.000000
0.286960 0.140128 -0.451729 1.000000
0.286960 -0.053812 0.485822 1.000000
0.286960 -0.223315 -0.429078 1.000000
0.286960 0.208644 0.427986 1.000000
0.286960 -0.402010 0.263012 1.000000
0.286960 -0.072333 0.474347 1.000000
0.286960 0.438046 0.161871 1.000000
0.286960 0.448241 -0.157172 1.000000
0.286960 -0.337191 -0.293710 1.000000
0.286960 -0.451275 0.145140 1.000000
0.286960 -0.037484 -0.493766 1.000000
0.286960 0.449969 -0.070187 1.000000
0.286960 -0.208132 -0.441368 1.000000
0.286960 -0.431726 -0.165928 1.000000
0.286960 0.111206 0.464144 1.000000
0.286960 -0.023830 -0.480725 1.000000
0.286960 0.462839 0.019619 1.000000
0.286960 -0.356989 -0.291220 1.000000
0.286960 -0.080250 -0.473018 1.000000
0.286960 -0.108300 0.470005 1.000000
0.286960 -0.038934 -0.486717 1.000000
0.286960 -0.383447 0.238659 1.000000
0.286960 -0.422052 -0.200102 1.000000
0.286960 -0.130674 0.437350 1.000000
0.286960 0.396595 0.253631 1.000000
0.286960 -0.465162 -0.117821 1.000000
0.286960 -0.252682 0.384321 1.000000
0.286960 -0.278249 0.409390 1.000000
0.286960 -0.312613 0.369985 1.000000
0.286960 0.181567 -0.417742 1.000000
0.286960 -0.271841 -0.377648 1.000000
0.286960 0.447782 -0.088868 1.000000
0.286960 0.452056 -0.168133 1.000000
0.286960 -0.358850 -0.278217 1.000000
0.286960 0.241479 -0.437919 1.000000
0.286960 0.470492 0.157515 1.000000
0.286960 -0.229015 0.438469 1.000000
0.286960 0.008669 0.482023 1.000000
0.286960 -0.393205 0.207227 1.000000
0.286960 -0.001382 0.446366 1.000000
0.286960 0.285932 -0.390605 1.000000
0.286960 -0.451103 0.025006 1.000000
0.286960 -0.014144 -0.483742 1.000000
0.286960 -0.328117 0.308460 1.000000
0.286960 0.092091 0.466478 1.000000
0.286960 -0.434574 -0.114467 1.000000
0.286960 0.345490 -0.326619 1.000000
0.286960 -0.443063 0.204276 1.000000
0.286960 0.089156 0.469741 1.000000
0.286960 -0.138421 0.420998 1.000000
0.286960 -0.466543 -0.129171 1.000000
0.286960 -0.282940 -0.346575 1.000000
0.286960 0.152584 0.449820 1.000000
0.286960 -0.293616 0.337327 1.000000
0.286960 0.150272 0.443214 1.000000
0.286960 0.310276 0.352637 1.000000
0.286960 -0.425948 0.223965 1.000000
0.286960 0.394229 0.226376 1.000000
0.286960 0.451605 -0.004337 1.000000
0.286960 -0.462422 -0.047879 1.000000
0.286960 0.016891 -0.474998 1.000000
0.286960 -0.281119 -0.372152 1.000000
0.286960 0.319125 0.347199 1.000000
0.286960 0.126621 -0.474362 1.000000
0.286960 -0.472462 0.017661 1.000000
0.286960 -0.178371 -0.442486 1.000000
0.286960 -0.059279 0.440538 1.000000
0.286960 0.112604 0.480409 1.000000
0.286960 0.327837 -0.366232 1.000000
0.286960 0.412888 0.166927 1.000000
0.286960 -0.026345 -0.463914 1.000000
0.286960 -0.246216 -0.412367 1.000000
0.286960 -0.485295 0.027479 1.000000
0.286960 -0.134505 0.455623 1.000000
0.286960 -0.412217 0.257345 1.000000
0.286960 0.114087 0.443975 1.000000
0.286960 0.086429 0.465732 1.000000
0.286960 0.375460 -0.243104 1.000000
0.286960 -0.455536 -0.157366 1.000000
0.286960 -0.177930 0.457769 1.000000
0.286960 -0.101580 -0.462264 1.000000
0.286960 0.018144 0.459205 1.000000
0.286960 -0.430557 0.159908 1.000000
0.286960 -0.464570 0.112188 1.000000
0.286960 0.359249 0.263354 1.000000
0.286960 0.427442 -0.242432 1.000000
0.286960 -0.466951 0.071538 1.000000
0.286960 0.278619 0.406396 1.000000
0.286960 -0.256978 -0.381555 1.000000
0.286960 -0.273181 -0.397089 1.000000
0.286960 0.289110 0.366155 1.000000
0.286960 0.152380 -0.437888 1.000000
0.286960 0.358782 0.313003 1.000000
0.286960 0.443253 0.178952 1.000000
0.286960 -0.277830 -0.367050 1.000000
0.286960 -0.384777 0.306269 1.000000
0.286960 0.068312 0.451137 1.000000
0.286960 -0.468743 0.064103 1.000000
0.286960 0.471644 -0.003593 1.000000
0.286960 -0.427843 0.174878 1.000000
0.286960 -0.437716 -0.210315 1.000000
0.286960 0.430530 0.154232 1.000000
0.286960 0.397505 0.286501 1.000000
0.286960 -0.343685 -0.361203 1.000000
0.286960 -0.149729 -0.421743 1.000000
0.286960 -0.449993 -0.030726 1.000000
0.286960 -0.474514 0.004198 1.000000
0.286960 0.428770 0.190411 1.000000
0.286960 0.037714 -0.481017 1.000000
0.286960 -0.454811 -0.203142 1.000000
0.286960 -0.107619 0.430165 1.000000
0.286960 0.450229 0.191131 1.000000
0.286960 0.442538 -0.155203 1.000000
0.286960 -0.246552 0.369690 1.000000
0.286960 -0.467195 -0.026265 1.000000
0.286960 -0.368274 -0.313705 1.000000
0.286960 -0.440067 0.157031 1.000000
0.286960 0.432390 -0.112534 1.000000
0.286960 -0.341997 -0.345715 1.000000
0.286960 -0.114143 -0.468762 1.000000
0.286960 0.162860 0.442899 1.000000
0.286960 0.118058 0.430069 1.000000
0.286960 0.082115 0.465173 1.000000
0.286960 -0.415415 0.158236 1.000000
0.286960 -0.166226 -0.471271 1.000000
0.286960 -0.241282 0.394477 1.000000
0.286960 -0.469690 -0.002433 1.000000
0.286960 -0.487517 0.075331 1.000000
0.286960 0.404001 0.238921 1.000000
0.286960 -0.108523 -0.460765 1.000000
0.286960 0.332814 0.330572 1.000000
0.286960 -0.413401 0.241325 1.000000
0.286960 -0.291473 -0.377085 1.000000
0.286960 -0.456998 -0.125929 1.000000
0.286960 -0.251962 -0.382950 1.000000
0.286960 0.270011 0.407638 1.000000
0.286960 -0.387600 0.216872 1.000000
0.286960 0.308194 -0.355184 1.000000
0.286960 0.168024 -0.436859 1.000000
0.286960 0.443192 0.223836 1.000000
0.286960 0.458387 -0.168089 1.000000
0.286960 -0.354505 0.273601 1.000000
0.286960 0.456499 -0.066337 1.000000
0.286960 -0.107794 -0.472692 1.000000
0.286960 -0.363803 -0.327984 1.000000
0.286960 -0.441025 -0.222258 1.000000
0.286960 0.479308 0.134027 1.000000
0.286960 0.337805 -0.325795 1.000000
0.286960 -0.175882 -0.412989 1.000000
0.286960 -0.430789 -0.161761 1.000000
0.286960 -0.244292 -0.426051 1.000000
0.286960 -0.433217 0.144901 1.000000
0.286960 -0.439471 0.179293 1.000000
0.286960 0.105250 0.435438 1.000000
0.286960 -0.441492 0.058109 1.000000
0.286960 0.128331 -0.440222 1.000000
0.286960 0.301491 -0.367737 1.000000
0.286960 0.130884 -0.472999 1.000000
0.286960 0.256906 -0.415892 1.000000
0.286960 -0.421723 0.261728 1.000000
0.286960 -0.163782 -0.438225 1.000000
0.286960 0.317840 0.350115 1.000000
0.286960 0.404680 0.244100 1.000000
0.286960 0.270727 -0.416726 1.000000
0.286960 0.392914 0.300177 1.000000
0.286960 -0.042147 0.463644 1.000000
0.286960 0.070271 0.467079 1.000000
0.286960 0.355752 -0.298393 1.000000
0.286960 0.262452 0.399824 1.000000
0.286960 -0.457854 0.070359 1.000000
0.286960 -0.068393 -0.469853 1.000000
0.286960 -0.221572 0.436547 1.000000
0.286960 0.042285 -0.454774 1.000000
0.286960 0.383569 0.305682 1.000000
0.286960 0.193025 0.428522 1.000000
0.286960 0.195528 0.417305 1.000000
0.286960 0.104109 -0.435691 1.000000
0.286960 -0.189152 0.433211 1.000000
0.286960 0.391664 0.287014 1.000000
0.286960 0.221219 0.398408 1.000000
0.286960 0.210963 0.395576 1.000000
0.286960 -0.431948 0.212437 1.000000
0.286960 -0.461092 -0.007722 1.000000
0.286960 -0.172363 0.414261 1.000000
0.286960 0.323412 0.374156 1.000000
0.286960 -0.468751 0.144042 1.000000
0.286960 -0.413215 0.223992 1.000000
0.286960 -0.204159 0.398416 1.000000
0.286960 -0.051098 -0.444929 1.000000
0.286960 0.457508 -0.130682 1.000000
0.286960 0.477625 -0.008147 1.000000
0.286960 -0.414504 0.245984 1.000000
0.286960 -0.344394 0.353349 1.000000
0.286960 0.302901 -0.390484 1.000000
0.286960 -0.243064 0.403210 1.000000
0.286960 -0.295196 -0.373221 1.000000
0.286960 0.007759 -0.494627 1.000000
0.286960 0.386124 0.312167 1.000000
0.286960 0.413468 -0.249800 1.000000
0.286960 0.490059 0.064329 1.000000
0.286960 -0.301917 -0.355562 1.000000
0.286960 -0.371618 -0.326879 1.000000
0.286960 0.411311 0.171224 1.000000
0.286960 0.263536 -0.380941 1.000000
0.286960 -0.218930 -0.439850 1.000000
0.286960 -0.413374 -0.276083 1.000000
0.286960 -0.465478 -0.002752 1.000000
0.286960 -0.431828 0.195181 1.000000
0.286960 0.106746 -0.462625 1.000000
0.286960 -0.169429 0.423048 1.000000
0.286960 0.418993 -0.181004 1.000000
0.286960 0.232877 0.428794 1.000000
0.286960 -0.188420 0.448892 1.000000
0.286960 0.022181 -0.492426 1.000000
0.286960 0.293009 0.398424 1.000000
0.286960 0.400010 0.202984 1.000000
0.286960 -0.280604 -0.355579 1.000000
0.286960 0.460299 0.128970 1.000000
0.286960 0.470395 0.000728 1.000000
0.286960 -0.226382 -0.398838 1.000000
0.286960 0.079347 0.485988 1.000000
0.286960 0.185121 -0.412238 1.000000
0.286960 -0.206824 0.415275 1.000000
0.286960 0.055970 0.445515 1.000000
0.286960 0.320274 -0.383243 1.000000
0.286960 -0.030072 -0.470451 1.000000
0.286960 0.338963 0.340044 1.000000
0.286960 -0.305527 0.331129 1.000000
0.286960 -0.312487 -0.356256 1.000000
0.286960 0.452797 0.203286 1.000000
0.286960 -0.449818 -0.073079 1.000000
0.286960 -0.447716 0.124993 1.000000
0.286960 0.298031 -0.369456 1.000000
0.286960 -0.156184 -0.437668 1.000000
0.286960 -0.454468 0.034587 1.000000
0.286960 0.046999 -0.447335 1.000000
0.286960 0.340081 0.322263 1.000000
0.286960 0.223445 0.414144 1.000000
0.286960 -0.122529 -0.456422 1.000000
0.286960 0.038863 0.444008 1.000000
0.286960 -0.087743 -0.467411 1.000000
0.286960 -0.039657 0.454270 1.000000
0.286960 0.435252 0.155688 1.000000
0.286960 -0.334918 0.310956 1.000000
0.286960 -0.388392 -0.276736 1.000000
0.286960 0.187735 0.457166 1.000000
0.286960 0.415782 -0.203730 1.000000
0.286960 0.236828 0.430829 1.000000
0.286960 0.439555 -0.219156 1.000000
0.286960 0.411158 -0.205205 1.000000
0.286960 -0.304465 0.387162 1.000000
0.286960 0.016368 -0.469309 1.000000
0.286960 -0.421282 0.152737 1.000000
0.286960 -0.376352 -0.270206 1.000000
0.286960 -0.266392 0.417260 1.000000
0.286960 -0.395039 -0.281610 1.000000
0.286960 -0.468424 -0.014454 1.000000
0.286960 -0.092084 0.451088 1.000000
0.286960 0.355191 0.279159 1.000000
0.286960 -0.197171 0.409405 1.000000
0.286960 0.438224 0.169028 1.000000
0.286960 -0.454405 -0.154214 1.000000
0.286960 -0.465376 -0.038645 1.000000
0.286960 0.333353 0.366581 1.000000
0.286960 0.456468 -0.048518 1.000000
0.286960 0.228445 -0.420558 1.000000
0.286960 -0.488594 -0.051146 1.000000
0.286960 -0.299814 -0.387976 1.000000
0.286960 0.245228 0.431273 1.000000
0.286960 -0.481229 0.045764 1.000000
0.286960 -0.174396 0.442302 1.000000
0.286960 0.452643 0.105120 1.000000
0.286960 0.149067 0.450984 1.000000
0.286960 -0.265150 0.356179 1.000000
0.286960 -0.030477 0.472227 1.000000
0.286960 -0.220674 -0.435062 1.000000
0.286960 -0.267971 -0.358698 1.000000
0.286960 0.160141 0.417273 1.000000
0.286960 0.384750 0.232729 1.000000
0.286960 -0.138591 -0.462259 1.000000
0.286960 0.420512 0.171997 1.000000
0.286960 0.432976 -0.138982 1.000000
0.286960 0.103425 -0.451597 1.000000
0.286960 -0.386443 -0.295332 1.000000
0.286960 0.320879 0.365478 1.000000
0.286960 0.010297 -0.463311 1.000000
0.286960 0.449991 -0.129054 1.000000
0.286960 -0.230100 -0.402336 1.000000
0.286960 -0.029481 -0.450824 1.000000
0.286960 -0.477050 0.030127 1.000000
0.286960 0.194120 -0.442392 1.000000
0.286960 0.040371 -0.459804 1.000000
0.286960 -0.283664 0.350479 1.000000
0.286960 -0.478240 0.057709 1.000000
0.286960 0.059138 -0.468312 1.000000
0.286960 -0.041969 0.490488 1.000000
0.286960 0.443197 -0.053020 1.000000
0.286960 0.387992 0.290305 1.000000
0.286960 0.438251 -0.125040 1.000000
0.286960 -0.222501 -0.443499 1.000000
0.286960 0.438644 0.100103 1.000000
0.286960 -0.254896 -0.417637 1.000000
0.286960 -0.231939 -0.419095 1.000000
0.286960 0.485335 -0.058967 1.000000
0.286960 0.422391 0.233505 1.000000
0.286960 0.167385 -0.432820 1.000000
0.286960 0.406018 0.273862 1.000000
0.286960 -0.205557 0.411807 1.000000
0.286960 -0.428045 -0.164189 1.000000
0.286960 -0.478146 0.076999 1.000000
0.286960 0.450019 -0.136313 1.000000
0.286960 0.154918 -0.475152 1.000000
0.286960 0.264326 -0.390829 1.000000
0.286960 -0.400882 -0.288726 1.000000
0.286960 0.440987 0.123801 1.000000
0.286960 0.127704 0.454235 1.000000
0.286960 0.163303 0.412445 1.000000
0.286960 -0.411443 -0.253930 1.000000
0.286960 -0.057713 0.454108 1.000000
0.286960 -0.471616 0.098239 1.000000
0.286960 -0.099888 0.443339 1.000000
0.286960 -0.439931 0.067156 1.000000
0.286960 0.438408 -0.148770 1.000000
0.286960 0.468570 -0.100372 1.000000
0.286960 -0.441331 0.215184 1.000000
0.286960 -0.139786 -0.474608 1.000000
0.286960 0.015965 -0.492686 1.000000
0.286960 -0.386177 -0.238129 1.000000
0.286960 -0.479981 -0.078376 1.000000
0.286960 -0.150327 -0.471515 1.000000
0.286960 -0.451365 0.042690 1.000000
0.286960 0.351207 -0.336259 1.000000
0.286960 -0.412650 -0.229405 1.000000
0.286960 -0.138850 -0.426356 1.000000
0.286960 0.323592 0.315805 1.000000
0.286960 -0.427516 -0.242798 1.000000
0.286960 -0.256299 0.393715 1.000000
0.286960 -0.289980 0.373679 1.000000
0.286960 -0.134073 -0.477901 1.000000
0.286960 -0.417305 0.219693 1.000000
0.286960 0.415835 -0.174629 1.000000
0.286960 0.433528 0.152199 1.000000
0.286960 0.025881 -0.477448 1.000000
0.286960 0.457827 -0.123813 1.000000
0.286960 0.035928 0.469011 1.000000
0.286960 0.473552 0.026726 1.000000
0.286960 0.349818 -0.328344 1.000000
0.286960 -0.309739 -0.361836 1.000000
0.286960 0.136612 0.432079 1.000000
0.286960 -0.374863 -0.267310 1.000000
0.286960 -0.430431 -0.233588 1.000000
0.286960 -0.470897 -0.103846 1.000000
0.286960 -0.274760 -0.373859 1.000000
0.286960 0.432212 0.183345 1.000000
0.286960 -0.256550 -0.400532 1.000000
0.286960 0.066870 0.491453 1.000000
0.286960 -0.250132 -0.389090 1.000000
0.286960 -0.281279 0.402085 1.000000
0.286960 0.376476 -0.310136 1.000000
0.286960 -0.231206 -0.431484 1.000000
0.286960 0.317711 -0.352153 1.000000
0.286960 -0.338029 0.359755 1.000000
0.286960 0.242852 0.419573 1.000000
0.286960 -0.436728 0.233608 1.000000
0.286960 0.171026 0.453831 1.000000
0.286960 0.245278 -0.421790 1.000000
0.286960 0.486316 0.057150 1.000000
0.286960 0.454936 -0.075045 1.000000
0.286960 0.449903 -0.116707 1.000000
0.286960 0.338117 0.288646 1.000000
0.286960 0.258523 0.400951 1.000000
0.286960 0.389249 -0.288933 1.000000
0.286960 0.467698 0.076868 1.000000
0.286960 0.339314 -0.291860 1.000000
0.286960 0.404783 0.280262 1.000000
0.286960 0.111104 0.483274 1.000000
0.286960 0.227181 0.398292 1.000000
0.286960 -0.360995 0.321414 1.000000
0.286960 0.371477 0.282613 1.000000
0.286960 -0.353646 -0.336179 1.000000
0.286960 -0.314730 -0.353251 1.000000
0.286960 0.494671 -0.035355 1.000000
0.286960 0.431517 0.143297 1.000000
0.286960 0.400527 0.293835 1.000000
0.286960 -0.251774 0.426263 1.000000
0.286960 0.014062 0.463992 1.000000
0.286960 -0.361949 0.257113 1.000000
0.286960 -0.184463 -0.410497 1.000000
0.286960 -0.471109 0.153124 1.000000
0.286960 0.252397 0.403730 1.000000
0.286960 0.443453 0.138948 1.000000
0.286960 0.358870 -0.291858 1.000000
0.286960 0.427704 0.225859 1.000000
0.286960 0.480195 -0.129831 1.000000
0.286960 0.294557 -0.340525 1.000000
0.286960 0.171217 0.415266 1.000000
0.286960 -0.227178 0.390118 1.000000
0.286960 -0.488376 -0.028141 1.000000
0.286960 -0.402206 0.239442 1.000000
0.286960 -0.400435 0.199962 1.000000
0.286960 -0.447233 -0.002844 1.000000
0.286960 0.469408 0.107846 1.000000
0.286960 -0.443777 0.105279 1.000000
0.286960 0.156342 -0.460773 1.000000
0.286960 -0.392368 -0.248881 1.000000
0.286960 0.284271 0.356373 1.000000
0.286960 -0.090433 -0.484067 1.000000
0.286960 -0.028878 -0.467200 1.000000
0.286960 -0.020462 -0.477793 1.000000
0.286960 -0.028733 0.478720 1.000000
0.286960 -0.462399 0.101505 1.000000
0.286960 -0.002274 0.443431 1.000000
0.286960 0.473873 -0.151456 1.000000
0.286960 -0.475783 -0.060893 1.000000
0.286960 -0.020767 -0.456214 1.000000
0.286960 0.111784 0.429189 1.000000
0.286960 0.125031 0.429199 1.000000
0.286960 -0.070822 0.451704 1.000000
0.286960 -0.248534 -0.421109 1.000000
0.286960 -0.347050 -0.291785 1.000000
0.286960 -0.327607 -0.335140 1.000000
0.286960 0.240780 0.396857 1.000000
0.286960 -0.444376 0.120032 1.000000
0.286960 -0.455887 -0.034744 1.000000
0.286960 0.336242 -0.331924 1.000000
0.286960 -0.405687 0.234528 1.000000
0.286960 0.111821 -0.444194 1.000000
0.286960 0.400711 -0.275404 1.000000
0.286960 -0.312640 0.366353 1.000000
0.286960 -0.395909 0.285781 1.000000
0.286960 0.142430 0.443636 1.000000
0.286960 0.452015 0.082090 1.000000
0.286960 -0.042380 0.493893 1.000000
0.286960 0.201153 0.406179 1.000000
0.286960 -0.398098 -0.259789 1.000000
0.286960 0.347417 -0.288162 1.000000
0.286960 0.041079 -0.446194 1.000000
0.286960 0.377684 -0.267594 1.000000
0.286960 0.083602 0.472462 1.000000
0.286960 0.116647 0.448030 1.000000
0.286960 0.300839 -0.378877 1.000000
0.286960 0.172736 0.421160 1.000000
0.286960 0.114912 -0.467200 1.000000
0.286960 0.335664 0.360087 1.000000
0.286960 -0.282222 0.393262 1.000000
0.286960 -0.324390 0.346745 1.000000
0.286960 0.060405 0.466880 1.000000
0.286960 0.414179 0.224802 1.000000
0.286960 0.249684 0.401695 1.000000
0.286960 -0.405804 -0.215533 1.000000
0.286960 -0.357671 0.263881 1.000000
0.286960 -0.014577 0.484473 1.000000
0.286960 -0.105263 0.448093 1.000000
0.286960 0.437004 -0.213558 1.000000
0.286960 -0.365560 0.335018 1.000000
0.286960 0.013316 -0.467046 1.000000
0.286960 -0.492205 0.067939 1.000000
0.286960 0.466244 -0.118271 1.000000
0.286960 -0.449560 0.045928 1.000000
0.286960 0.479383 -0.138614 1.000000
0.286960 -0.063482 0.468480 1.000000
0.286960 0.424590 0.224846 1.000000
0.286960 -0.433093 -0.230715 1.000000
0.286960 0.479617 0.038972 1.000000
0.286960 0.318874 0.316619 1.000000
0.286960 0.092587 -0.438737 1.000000
0.286960 0.367181 -0.322039 1.000000
0.286960 0.396983 -0.249607 1.000000
0.286960 0.454014 0.110111 1.000000
0.286960 -0.294336 -0.347289 1.000000
0.286960 -0.340514 0.305214 1.000000
0.286960 0.064855 0.449253 1.000000
0.286960 0.114864 -0.450816 1.000000
0.286960 0.481657 -0.040091 1.000000
0.286960 0.338099 0.305339 1.000000
0.286960 0.452844 -0.204581 1.000000
0.286960 -0.193773 -0.421174 1.000000
0.286960 -0.481599 0.068400 1.000000
0.286960 -0.240457 0.409830 1.000000
0.286960 -0.292320 0.400178 1.000000
0.286960 0.450844 -0.109280 1.000000
0.286960 0.465327 0.037476 1.000000
0.286960 -0.454917 0.125951 1.000000
0.286960 0.262441 -0.384910 1.000000
0.286960 -0.067205 0.487235 1.000000
0.286960 0.216721 -0.393882 1.000000
0.286960 0.456395 -0.192769 1.000000
0.286960 0.355020 0.322954 1.000000
0.286960 -0.480296 0.038974 1.000000
0.286960 0.440178 0.114684 1.000000
0.286960 0.433937 0.136480 1.000000
0.286960 0.400925 -0.197700 1.000000
0.286960 -0.110619 0.481432 1.000000
0.286960 -0.320621 -0.348058 1.000000
0.286960 -0.302629 0.351150 1.000000
0.286960 -0.358130 -0.338670 1.000000
0.286960 0.225059 0.395733 1.000000
0.286960 -0.232732 -0.400838 1.000000
0.286960 -0.078970 -0.445057 1.000000
0.286960 0.359923 0.336679 1.000000
0.286960 -0.202976 0.445839 1.000000
0.286960 -0.271153 0.405878 1.000000
0.286960 0.403054 -0.203090 1.000000
0.286960 0.457584 0.190208 1.000000
0.286960 0.020021 -0.473689 1.000000
0.286960 0.420303 -0.262598 1.000000
0.286960 0.126540 -0.449869 1.000000
0.286960 -0.184008 0.441612 1.000000
0.286960 0.018725 0.481308 1.000000
0.286960 0.476726 -0.088069 1.000000
0.286960 0.478466 -0.051219 1.000000
0.286960 -0.175015 -0.466939 1.000000
0.286960 0.008120 0.495275 1.000000
0.286960 0.253262 -0.404649 1.000000
0.286960 0.436672 -0.202638 1.000000
0.286960 0.185619 0.422120 1.000000
0.286960 0.417525 0.207532 1.000000
0.286960 -0.210134 -0.412498 1.000000
0.286960 -0.446512 0.043640 1.000000
0.286960 -0.213919 -0.419215 1.000000
0.286960 -0.478886 -0.026316 1.000000
0.286960 -0.483173 -0.064028 1.000000
0.286960 -0.256096 0.424396 1.000000
0.286960 0.418790 -0.268348 1.000000
0.286960 -0.074380 0.442973 1.000000
0.286960 -0.301971 -0.340064 1.000000
0.286960 0.106141 -0.487845 1.000000
0.286960 0.472825 0.134808 1.000000
0.286960 0.174944 -0.447257 1.000000
0.286960 -0.410156 0.247523 1.000000
0.286960 0.111584 -0.452429 1.000000
0.286960 0.426194 -0.253165 1.000000
0.286960 0.493837 -0.068851 1.000000
0.286960 -0.151973 0.434783 1.000000
0.286960 0.218943 0.426160 1.000000
0.286960 0.387009 -0.295231 1.000000
0.286960 0.170991 0.442001 1.000000
0.286960 -0.397222 0.281598 1.000000
0.286960 0.423095 -0.230788 1.000000
0.286960 0.452389 0.027693 1.000000
0.286960 -0.438756 0.183744 1.000000
0.286960 -0.008476 -0.454066 1.000000
0.286960 -0.012640 -0.449176 1.000000
0.286960 -0.449439 0.198754 1.000000
0.286960 -0.253743 0.365780 1.000000
0.286960 -0.481394 -0.024177 1.000000
0.286960 0.229518 0.434446 1.000000
0.286960 -0.294651 0.342917 1.000000
0.286960 -0.319180 -0.316650 1.000000
0.286960 0.187453 0.441991 1.000000
0.286960 0.349539 -0.351982 1.000000
0.286960 0.459813 -0.096803 1.000000
0.286960 0.496681 -0.030377 1.000000
0.286960 -0.189470 0.401967 1.000000
0.286960 -0.405896 0.266364 1.000000
0.286960 -0.387521 -0.273102 1.000000
0.286960 0.469682 0.096496 1.000000
0.286960 -0.475008 -0.097404 1.000000
0.286960 -0.459003 0.137071 1.000000
0.286960 0.216823 -0.408029 1.000000
0.286960 -0.482117 -0.095246 1.000000
0.286960 0.196114 -0.423380 1.000000
0.286960 0.447954 -0.063813 1.000000
0.286960 -0.130929 -0.457121 1.000000
0.286960 0.445630 -0.123340 1.000000
0.286960 -0.469889 -0.028226 1.000000
0.286960 0.022316 0.452794 1.000000
0.286960 0.155252 0.457208 1.000000
0.286960 -0.204094 -0.451982 1.000000
0.286960 -0.281805 -0.363831 1.000000
0.286960 -0.330137 0.369027 1.000000
0.286960 -0.092818 -0.459019 1.000000
0.286960 -0.448211 -0.215940 1.000000
0.286960 -0.455293 0.093271 1.000000
0.286960 -0.050268 -0.478700 1.000000
0.286960 -0.489548 0.019716 1.000000
0.286960 -0.174768 0.410508 1.000000
0.286960 0.480636 0.017170 1.000000
0.286960 0.460918 0.172416 1.000000
0.286960 0.438096 -0.121983 1.000000
0.286960 0.136585 -0.468609 1.000000
0.286960 -0.069116 0.472689 1.000000
0.286960 0.476546 -0.147142 1.000000
0.286960 0.265224 0.385635 1.000000
0.286960 0.440123 0.180137 1.000000
0.286960 -0.078501 -0.488440 1.000000
0.286960 -0.071878 -0.447611 1.000000
0.286960 0.444390 0.159650 1.000000
0.286960 0.344014 0.358522 1.000000
0.286960 0.249067 -0.391202 1.000000
0.286960 0.374630 -0.292016 1.000000
0.286960 -0.324234 -0.330852 1.000000
0.286960 0.299097 0.383510 1.000000
0.286960 0.477355 0.098002 1.000000
0.286960 -0.468064 0.098225 1.000000
0.286960 0.369440 -0.283240 1.000000
0.286960 0.194259 0.411341 1.000000
0.286960 -0.354294 -0.282215 1.000000
0.286960 0.465643 0.141139 1.000000
0.286960 0.230091 -0.394301 1.000000
0.286960 -0.196387 0.450677 1.000000
0.286960 -0.365621 0.270357 1.000000
0.286960 0.455027 0.011401 1.000000
0.286960 0.320681 0.343053 1.000000
0.286960 -0.487520 0.090050 1.000000
0.286960 -0.327615 0.319579 1.000000
0.286960 0.118159 0.459164 1.000000
0.286960 0.478098 -0.028468 1.000000
0.286960 0.138076 0.451082 1.000000
0.286960 0.427387 -0.193816 1.000000
0.286960 0.211594 -0.437404 1.000000
0.286960 0.378669 -0.251609 1.000000
0.286960 0.194513 -0.439281 1.000000
0.286960 0.110371 0.457778 1.000000
0.286960 -0.226105 -0.422542 1.000000
0.286960 -0.365163 -0.277257 1.000000
0.286960 -0.209717 -0.398556 1.000000
0.286960 0.440536 -0.191385 1.000000
0.286960 -0.309841 0.322262 1.000000
0.286960 -0.464079 -0.164462 1.000000
0.286960 0.429671 0.205067 1.000000
0.286960 -0.449022 -0.054093 1.000000
0.286960 0.466852 0.151669 1.000000
0.286960 0.388098 -0.246928 1.000000
0.286960 -0.336070 -0.312311 1.000000
0.286960 -0.435431 0.120435 1.000000
0.286960 0.060070 0.483210 1.000000
0.286960 -0.138260 -0.450183 1.000000
0.286960 0.445208 0.123736 1.000000
0.286960 0.417856 -0.201367 1.000000
0.286960 0.173020 -0.460697 1.000000
0.286960 0.385672 -0.286018 1.000000
0.286960 -0.370010 -0.250046 1.000000
0.286960 0.379690 0.280849 1.000000
0.286960 0.481552 -0.074546 1.000000
0.286960 -0.405812 0.194767 1.000000
0.286960 0.240553 -0.394065 1.000000
0.286960 -0.330828 0.316936 1.000000
0.286960 0.290111 -0.340796 1.000000
0.286960 0.065138 -0.484115 1.000000
0.286960 0.460398 -0.042384 1.000000
0.286960 -0.433594 0.239054 1.000000
0.286960 0.422249 -0.173319 1.000000
0.286960 -0.447511 0.146863 1.000000
0.286960 -0.464892 0.131296 1.000000
0.286960 -0.345405 0.306331 1.000000
0.286960 0.412675 0.249818 1.000000
0.286960 0.277894 -0.384886 1.000000
0.286960 0.495127 -0.058069 1.000000
0.286960 0.408953 -0.262147 1.000000
0.286960 0.401979 0.286291 1.000000
0.286960 -0.101256 0.465237 1.000000
0.286960 0.310345 0.347950 1.000000
0.286960 -0.086540 -0.458272 1.000000
0.286960 0.374618 0.277626 1.000000
0.286960 -0.123131 0.437583 1.000000
0.286960 0.294921 -0.358483 1.000000
0.286960 0.491922 0.025503 1.000000
0.286960 -0.088389 0.470837 1.000000
0.286960 -0.106329 0.457954 1.000000
0.286960 -0.334897 0.337251 1.000000
0.286960 0.427340 0.165628 1.000000
0.286960 -0.354864 0.318179 1.000000
0.286960 -0.417164 0.225158 1.000000
0.286960 -0.338209 -0.306813 1.000000
0.286960 0.423284 -0.227385 1.000000
0.286960 -0.361928 0.318513 1.000000
0.286960 -0.382196 -0.296379 1.000000
0.286960 0.479989 0.020108 1.000000
0.286960 -0.252549 -0.396425 1.000000
0.286960 0.444642 -0.087363 1.000000
0.286960 0.116125 -0.438132 1.000000
0.286960 0.096382 -0.468549 1.000000
0.286960 0.225284 0.385654 1.000000
0.286960 0.360601 0.341395 1.000000
0.286960 0.196143 0.449547 1.000000
0.286960 -0.045585 0.493553 1.000000
0.286960 0.329653 0.329626 1.000000
0.286960 0.360327 -0.285024 1.000000
0.286960 0.443075 -0.105688 1.000000
0.286960 -0.461338 -0.161453 1.000000
0.286960 0.088535 0.483180 1.000000
0.286960 -0.374852 0.275832 1.000000
0.286960 0.369337 0.272949 1.000000
0.286960 -0.203724 -0.398021 1.000000
0.286960 0.174166 -0.439901 1.000000
0.286960 -0.223678 -0.387300 1.000000
0.286960 -0.071034 0.440825 1.000000
0.286960 -0.450036 0.156065 1.000000
0.286960 0.326614 0.319090 1.000000
0.286960 -0.019165 0.466711 1.000000
0.286960 -0.438288 -0.131350 1.000000
0.286960 0.011836 -0.485224 1.000000
0.286960 -0.214323 -0.430054 1.000000
0.286960 -0.410618 0.222073 1.000000
0.286960 0.378735 0.249838 1.000000
0.286960 0.265439 0.398668 1.000000
0.286960 0.172454 0.424303 1.000000
0.286960 0.157516 0.421930 1.000000
0.286960 0.402991 0.271507 1.000000
0.286960 -0.472456 -0.129901 1.000000
0.286960 -0.067927 0.438064 1.000000
0.286960 -0.434036 -0.196106 1.000000
0.286960 0.417384 -0.225071 1.000000
0.286960 -0.458332 0.164831 1.000000
0.286960 -0.008495 0.454013 1.000000
0.286960 0.398769 0.245615 1.000000
0.286960 0.461076 -0.163856 1.000000
0.286960 0.264146 0.366714 1.000000
0.286960 0.340650 -0.299903 1.000000
0.286960 0.119855 -0.463753 1.000000
0.286960 0.446173 0.206033 1.000000
0.286960 -0.034423 0.466450 1.000000
0.286960 -0.426781 0.153264 1.000000
0.286960 -0.457391 0.006787 1.000000
0.286960 0.289341 -0.348319 1.000000
0.286960 0.469086 0.086554 1.000000
0.286960 -0.314038 -0.383716 1.000000
0.286960 -0.302253 0.345064 1.000000
0.286960 -0.425130 -0.231305 1.000000
0.286960 0.184490 0.455408 1.000000
0.286960 -0.466651 -0.032037 1.000000
0.286960 0.392148 -0.287131 1.000000
0.286960 0.445401 -0.036219 1.000000
0.286960 0.452561 0.155916 1.000000
0.286960 0.248873 0.392505 1.000000
0.286960 0.171713 0.432197 1.000000
0.286960 -0.048276 -0.475585 1.000000
0.286960 0.454848 -0.101050 1.000000
0.286960 0.419476 0.186146 1.000000
0.286960 -0.293471 -0.389086 1.000000
0.286960 -0.385991 -0.287805 1.000000
0.286960 -0.276486 0.386045 1.000000
0.286960 -0.438770 -0.146795 1.000000
0.286960 -0.019997 0.495313 1.000000
0.286960 0.407331 -0.215903 1.000000
0.286960 -0.384406 0.269441 1.000000
0.286960 -0.418508 -0.263295 1.000000
0.286960 -0.295632 0.349915 1.000000
0.286960 0.465411 0.148508 1.000000
0.286960 -0.162078 0.461635 1.000000
0.286960 -0.205398 0.418307 1.000000
0.286960 -0.166369 0.425920 1.000000
0.286960 -0.025170 -0.451358 1.000000
0.286960 0.482784 -0.070614 1.000000
0.286960 0.370962 -0.295199 1.000000
0.286960 -0.442251 -0.052858 1.000000
0.286960 0.270617 0.356864 1.000000
0.286960 0.364670 0.318727 1.000000
0.286960 0.318416 0.339976 1.000000
0.286960 -0.307445 -0.383526 1.000000
0.286960 0.443612 0.079328 1.000000
0.286960 0.124302 -0.459501 1.000000
0.286960 -0.170219 0.458434 1.000000
0.286960 0.297005 -0.354838 1.000000
0.286960 -0.077066 -0.485252 1.000000
0.286960 -0.422642 0.201638 1.000000
0.286960 0.478158 -0.040575 1.000000
0.286960 0.274346 -0.395939 1.000000
0.286960 0.448023 0.174632 1.000000
0.286960 0.191062 -0.443378 1.000000
0.286960 0.354801 -0.288136 1.000000
0.286960 0.219447 -0.397524 1.000000
0.286960 0.147346 -0.454586 1.000000
0.286960 0.231019 -0.422609 1.000000
0.286960 -0.421685 0.208835 1.000000
0.286960 0.445644 0.120506 1.000000
0.286960 0.452586 -0.048696 1.000000
0.286960 -0.457381 0.035999 1.000000
0.286960 -0.315807 -0.339749 1.000000
0.286960 -0.428773 0.232794 1.000000
0.286960 -0.443996 -0.200438 1.000000
0.286960 -0.001252 -0.495361 1.000000
0.286960 -0.101111 -0.488958 1.000000
0.286960 0.174037 0.440029 1.000000
0.286960 0.476141 -0.125561 1.000000
0.286960 0.478987 0.117065 1.000000
0.286960 -0.317249 0.361110 1.000000
0.286960 -0.478336 0.085424 1.000000
0.286960 -0.318119 0.369169 1.000000
0.286960 0.250463 0.373075 1.000000
0.286960 0.039609 -0.468148 1.000000
0.286960 -0.011209 0.492801 1.000000
0.286960 0.481382 -0.019389 1.000000
0.286960 0.454981 -0.126122 1.000000
0.286960 -0.185890 0.405809 1.000000
0.286960 -0.032764 0.479400 1.000000
0.286960 -0.342022 -0.316201 1.000000
0.286960 -0.260838 0.365169 1.000000
0.286960 0.180404 0.429637 1.000000
0.286960 0.061661 -0.462316 1.000000
0.286960 -0.220026 0.402647 1.000000
0.286960 0.456499 0.155348 1.000000
0.286960 -0.437345 0.223277 1.000000
0.286960 -0.432966 0.156574 1.000000
0.286960 -0.209567 0.442668 1.000000
0.286960 0.297150 0.360000 1.000000
0.286960 0.314223 -0.377961 1.000000
0.286960 0.303661 -0.376665 1.000000
0.286960 0.398715 -0.272389 1.000000
0.286960 0.235009 0.395253 1.000000
0.286960 0.442319 -0.212394 1.000000
0.286960 0.024561 0.449773 1.000000
0.286960 0.297533 -0.400599 1.000000
0.286960 0.439254 0.088721 1.000000
0.286960 0.124125 -0.471887 1.000000
0.286960 0.239468 0.384012 1.000000
0.286960 -0.468621 0.164585 1.000000
0.286960 0.352900 -0.274659 1.000000
0.286960 0.105866 -0.465546 1.000000
0.286960 -0.252985 0.398941 1.000000
0.286960 -0.259018 0.368176 1.000000
0.286960 -0.480781 -0.008257 1.000000
0.286960 0.014588 -0.482190 1.000000
0.286960 0.491533 0.072840 1.000000
0.286960 0.463365 0.128806 1.000000
0.286960 -0.391408 -0.262368 1.000000
0.286960 0.140552 0.426661 1.000000
0.286960 -0.102471 -0.442996 1.000000
0.286960 -0.448048 -0.177684 1.000000
0.286960 -0.334302 0.326949 1.000000
0.286960 -0.004741 0.475145 1.000000
0.286960 -0.271263 -0.407929 1.000000
0.286960 0.479251 0.130839 1.000000
0.286960 -0.426934 0.159313 1.000000
0.286960 -0.458065 -0.027288 1.000000
0.286960 0.025232 -0.484727 1.000000
0.286960 -0.487943 0.063434 1.000000
0.286960 -0.476144 -0.120870 1.000000
0.286960 -0.114238 -0.445854 1.000000
0.286960 0.405292 -0.263310 1.000000
0.286960 -0.251418 -0.423217 1.000000
0.286960 0.072388 -0.474715 1.000000
0.286960 0.440499 0.172628 1.000000
0.286960 -0.088402 -0.455638 1.000000
0.286960 0.492224 0.055658 1.000000
0.286960 -0.259992 -0.403270 1.000000
0.286960 0.287825 0.358467 1.000000
0.286960 0.380459 -0.321187 1.000000
0.286960 -0.410187 -0.248694 1.000000
0.286960 -0.411999 0.275205 1.000000
0.286960 0.404345 0.202169 1.000000
0.286960 -0.344655 -0.328647 1.000000
0.286960 0.100940 -0.488168 1.000000
0.286960 -0.357947 0.277469 1.000000
0.286960 -0.382975 -0.285161 1.000000
0.286960 0.185313 0.429581 1.000000
0.286960 -0.354970 -0.323435 1.000000
0.286960 0.344733 -0.312610 1.000000
0.286960 0.409472 -0.247457 1.000000
0.286960 -0.418920 -0.170459 1.000000
0.286960 0.007080 -0.488810 1.000000
0.286960 0.445716 -0.174338 1.000000
0.286960 0.298351 -0.362183 1.000000
0.286960 0.415815 -0.170772 1.000000
0.286960 -0.356234 0.288828 1.000000
0.286960 -0.478852 -0.035644 1.000000
0.286960 0.366816 0.266399 1.000000
0.286960 0.191125 -0.405625 1.000000
0.286960 0.120888 0.480536 1.000000
0.286960 -0.402209 0.266097 1.000000
0.286960 0.152357 -0.456319 1.000000
0.286960 0.171451 -0.437514 1.000000
0.286960 0.446578 -0.009015 1.000000
0.286960 -0.447075 -0.141225 1.000000
0.286960 -0.421155 -0.149329 1.000000
0.286960 0.456233 -0.149510 1.000000
0.286960 -0.051641 -0.466305 1.000000
0.286960 -0.229168 0.379794 1.000000
0.286960 0.246375 0.388638 1.000000
0.286960 0.426390 -0.231032 1.000000
0.286960 0.241240 -0.387182 1.000000
0.286960 -0.469787 -0.127419 1.000000
0.286960 -0.429929 -0.182555 1.000000
0.286960 -0.113279 -0.475937 1.000000
0.286960 0.449887 -0.151275 1.000000
0.286960 -0.365376 -0.262707 1.000000
0.286960 0.183789 -0.453152 1.000000
0.286960 -0.291096 -0.342962 1.000000
0.286960 0.064491 0.476477 1.000000
0.286960 -0.347751 0.285794 1.000000
0.286960 -0.388510 0.284644 1.000000
0.286960 0.492689 -0.031114 1.000000
0.286960 0.353113 0.274827 1.000000
0.286960 -0.311357 0.376950 1.000000
0.286960 0.123601 -0.433923 1.000000
0.286960 -0.402987 0.196837 1.000000
0.286960 0.420122 0.157404 1.000000
0.286960 -0.462658 -0.180307 1.000000
0.286960 -0.441025 -0.163293 1.000000
0.286960 0.283682 0.368562 1.000000
0.286960 0.153550 -0.431136 1.000000
0.286960 -0.102096 0.469182 1.000000
0.286960 0.462033 0.050815 1.000000
0.286960 -0.454822 -0.051556 1.000000
0.286960 0.016848 0.449711 1.000000
0.286960 -0.407149 0.211812 1.000000
0.286960 -0.452347 -0.126810 1.000000
0.286960 -0.494921 -0.052466 1.000000
0.286960 -0.226472 0.410915 1.000000
0.286960 -0.464961 0.065572 1.000000
0.286960 -0.462220 0.016697 1.000000
0.286960 0.433708 -0.204133 1.000000
0.286960 0.318587 -0.332621 1.000000
0.286960 0.440102 0.155090 1.000000
0.286960 0.273492 -0.385156 1.000000
0.286960 0.245076 0.385939 1.000000
0.286960 0.286552 -0.343680 1.000000
0.286960 0.146011 0.442806 1.000000
0.286960 -0.496834 -0.002755 1.000000
0.286960 0.465879 -0.009166 1.000000
0.286960 -0.459466 -0.139534 1.000000
0.286960 -0.192909 -0.459177 1.000000
0.286960 -0.445947 0.108475 1.000000
0.286960 -0.469164 0.160495 1.000000
0.286960 0.426341 -0.208999 1.000000
0.286960 -0.419719 -0.197347 1.000000
0.286960 0.455160 0.038194 1.000000
0.286960 -0.075048 0.456170 1.000000
0.286960 0.417267 0.243098 1.000000
0.286960 0.460703 0.055762 1.000000
0.286960 0.475961 0.132358 1.000000
0.286960 0.357191 -0.282029 1.000000
0.286960 0.086040 -0.478831 1.000000
0.286960 0.129565 -0.482368 1.000000
0.286960 0.221706 -0.419093 1.000000
0.286960 0.404033 0.264345 1.000000
0.286960 -0.436316 -0.151080 1.000000
0.286960 0.384140 0.289733 1.000000
0.286960 0.188842 -0.424705 1.000000
0.286960 -0.196319 0.413293 1.000000
0.286960 -0.454885 -0.080060 1.000000
0.286960 -0.387488 -0.262750 1.000000
0.286960 -0.293877 0.352512 1.000000
0.286960 0.232293 0.425170 1.000000
0.286960 0.092443 0.451324 1.000000
0.286960 -0.381117 0.279362 1.000000
0.286960 0.446227 -0.181769 1.000000
0.286960 -0.414787 -0.209770 1.000000
0.286960 0.206973 -0.431994 1.000000
0.286960 -0.401613 0.193459 1.000000
0.286960 -0.045549 -0.457331 1.000000
