0.250552 0.442963 -0.052416 3.000000
0.020377 -0.271988 0.349903 3.000000
-0.140591 -0.264625 0.355615 3.000000
-0.283012 0.069711 0.437628 3.000000
0.094245 0.179350 0.405547 3.000000
-0.128713 0.220276 0.385101 3.000000
0.090616 -0.055045 0.439772 3.000000
-0.079854 -0.324902 -0.306297 3.000000
-0.038275 0.190137 0.400879 3.000000
0.262635 -0.297320 0.328781 3.000000
0.223194 0.028012 -0.446748 3.000000
0.221638 0.380684 0.229603 3.000000
0.050315 0.261316 0.358879 3.000000
-0.221725 0.166044 0.411305 3.000000
0.181329 -0.288214 0.336810 3.000000
-0.199601 0.076935 0.436484 3.000000
-0.260519 -0.022835 0.442525 3.000000
-0.040011 0.401696 -0.195480 3.000000
0.203683 -0.443293 -0.038089 3.000000
-0.150689 0.348459 0.275652 3.000000
0.285522 -0.104596 -0.434884 1.000000
-0.073421 -0.169920 0.409184 3.000000
0.214967 -0.002447 0.443165 3.000000
-0.156173 0.433913 -0.104185 3.000000
-0.227182 -0.387176 -0.221247 3.000000
-0.027978 -0.072361 0.437046 3.000000
-0.014650 0.313934 0.314031 3.000000
-0.155790 -0.077710 0.436199 3.000000
0.055514 0.275029 -0.352693 3.000000
-0.171583 0.426591 0.127055 3.000000
-0.289334 -0.298444 -0.332144 4.000000
-0.230164 0.443156 0.046027 3.000000
-0.061575 -0.403425 -0.189764 3.000000
0.128181 -0.324527 -0.306722 3.000000
-0.133969 0.280833 0.343838 3.000000
-0.032910 0.181513 0.404611 3.000000
0.062726 -0.380075 0.228900 3.000000
0.185303 -0.426154 -0.129386 3.000000
0.286761 -0.201157 -0.399098 1.000000
-0.161198 -0.312891 0.314049 3.000000
-0.188665 0.091002 -0.438152 3.000000
0.048683 -0.378441 -0.236016 3.000000
0.068633 -0.079094 0.435980 3.000000
-0.255267 -0.146871 -0.422305 3.000000
-0.247791 0.095313 0.432835 3.000000
0.091077 0.234227 0.376851 3.000000
-0.191867 0.329694 -0.302024 3.000000
0.236774 -0.059447 0.439092 3.000000
0.159872 -0.349008 0.273624 3.000000
0.109660 -0.425002 -0.133350 3.000000
0.184857 -0.095339 -0.436953 3.000000
0.105937 0.433218 0.102941 3.000000
0.180963 0.426968 0.125758 3.000000
-0.057411 -0.391031 0.210047 3.000000
-0.016343 -0.393776 0.204660 3.000000
0.283267 0.017703 -0.447072 1.000000
0.169628 0.052437 -0.444468 3.000000
0.177929 0.408427 -0.180574 3.000000
0.100871 -0.111681 -0.433206 3.000000
-0.187695 0.241561 -0.376657 3.000000
0.151637 0.325539 0.302383 3.000000
-0.103967 -0.405066 -0.185971 3.000000
-0.077357 0.266436 -0.359358 3.000000
-0.081863 -0.423298 -0.139218 3.000000
0.178652 -0.192712 -0.403401 3.000000
-0.286735 0.304097 0.323710 4.000000
-0.085046 -0.279742 -0.348242 3.000000
0.233636 -0.393299 0.205596 3.000000
-0.047832 0.420097 0.146718 3.000000
-0.170321 -0.407960 0.174931 3.000000
-0.092297 0.110533 -0.433786 3.000000
0.135718 -0.439425 0.066185 3.000000
-0.095054 0.286961 -0.343171 3.000000
-0.222173 0.393788 -0.211000 3.000000
0.195514 -0.073365 0.436887 3.000000
-0.189306 0.262059 -0.362727 3.000000
-0.234657 0.136677 -0.426241 3.000000
0.209822 -0.285890 -0.343211 3.000000
-0.020690 0.356497 0.265290 3.000000
-0.230010 0.373823 0.240594 3.000000
0.199419 0.232800 -0.382048 3.000000
-0.222394 0.159033 -0.418296 3.000000
0.076515 0.217545 0.386716 3.000000
0.204662 -0.056208 -0.443958 3.000000
-0.146732 0.183180 0.403889 3.000000
0.131536 -0.100258 -0.435854 3.000000
0.186732 0.193283 0.399278 3.000000
-0.109710 -0.379374 -0.234439 3.000000
0.271499 -0.056776 -0.443868 3.000000
0.125339 0.095050 -0.437247 3.000000
0.039675 -0.428705 -0.120604 3.000000
-0.208956 0.075848 -0.441010 3.000000
-0.247325 0.445537 0.010868 3.000000
0.157697 0.091609 -0.438016 3.000000
0.217282 0.302158 0.325419 3.000000
0.090845 0.445541 -0.015111 3.000000
-0.033582 0.445830 -0.005926 3.000000
-0.054202 0.408225 -0.181039 3.000000
-0.262042 -0.409063 -0.176735 3.000000
-0.027097 0.422449 0.140184 3.000000
-0.226863 0.086675 0.434766 3.000000
0.250023 0.431323 0.110767 3.000000
0.088604 0.129687 0.423919 3.000000
-0.136202 -0.375696 -0.240658 3.000000
-0.279398 0.441429 -0.064356 3.000000
0.161846 0.065979 -0.442573 3.000000
0.274207 0.412762 0.166201 3.000000
0.179619 -0.126271 0.424613 3.000000
-0.048421 -0.419419 0.145755 3.000000
-0.202234 -0.239216 0.373201 3.000000
-0.181289 0.357613 0.263851 3.000000
-0.015655 0.008663 -0.447356 3.000000
0.049239 -0.407258 0.176552 3.000000
-0.143739 -0.409755 -0.175136 3.000000
-0.172600 -0.384547 -0.225693 3.000000
0.036894 0.284600 0.340899 3.000000
-0.269863 0.437809 0.082401 3.000000
0.038002 0.401993 0.190543 3.000000
-0.105418 0.377290 0.235343 3.000000
-0.048084 -0.341263 0.283386 3.000000
0.071715 0.034166 -0.446195 3.000000
-0.007858 -0.412771 -0.168166 3.000000
0.017934 0.412293 -0.171639 3.000000
-0.138380 -0.424553 -0.134897 3.000000
-0.211569 -0.137386 -0.425720 3.000000
-0.242682 0.385326 -0.226108 3.000000
-0.288347 -0.359437 0.260178 4.000000
-0.029021 0.142322 0.419959 3.000000
0.140826 -0.444276 0.018388 3.000000
-0.027272 -0.186528 -0.406351 3.000000
-0.054827 -0.383667 -0.227179 3.000000
-0.027249 0.061468 0.438934 3.000000
0.274556 -0.378614 0.231370 3.000000
0.285409 0.039380 0.441349 1.000000
-0.160095 0.102683 -0.435541 3.000000
0.244684 0.311279 0.316686 3.000000
-0.236496 -0.348249 -0.278955 3.000000
-0.038987 -0.141162 0.420007 3.000000
-0.274325 0.040714 0.441223 3.000000
-0.020737 0.019260 -0.447023 3.000000
0.193305 0.347677 -0.281014 3.000000
0.032366 0.011246 -0.447274 3.000000
0.168334 -0.197190 -0.401119 3.000000
0.144123 -0.341334 -0.287659 3.000000
-0.030584 0.434535 -0.101400 3.000000
0.098144 0.362834 0.256763 3.000000
-0.107404 -0.263796 0.356258 3.000000
-0.243488 0.178156 -0.410417 3.000000
0.036393 -0.106146 -0.434538 3.000000
0.010493 0.247437 -0.372664 3.000000
0.045223 -0.401753 0.189004 3.000000
0.046209 0.328237 0.299323 3.000000
0.084812 -0.141834 -0.424119 3.000000
0.044976 0.335961 0.290561 3.000000
-0.191662 0.430411 -0.118261 3.000000
0.064961 -0.022438 -0.446891 3.000000
-0.106794 -0.019867 0.442618 3.000000
-0.028197 0.131031 0.423528 3.000000
0.042712 0.425745 -0.134320 3.000000
0.240180 -0.415743 -0.160318 3.000000
0.234929 0.116028 -0.432240 3.000000
0.070129 -0.335264 -0.294544 3.000000
-0.271417 0.074067 0.436938 3.000000
0.123505 0.427653 0.123399 3.000000
0.103498 0.445799 0.002532 3.000000
0.116534 -0.261785 -0.362171 3.000000
0.192393 -0.085714 -0.439105 3.000000
0.091389 -0.276295 0.346562 3.000000
-0.240321 0.206163 -0.397069 3.000000
0.088183 -0.170758 -0.413175 3.000000
0.066052 -0.428262 0.117775 3.000000
-0.103483 0.441354 -0.064830 3.000000
-0.040821 0.347835 -0.280810 3.000000
0.024069 -0.376944 0.234195 3.000000
0.100213 0.256584 -0.366448 3.000000
-0.254308 -0.444061 -0.029595 3.000000
-0.225546 0.430421 -0.118227 3.000000
0.098049 0.306995 -0.325324 3.000000
-0.240799 0.263428 0.357338 3.000000
0.159126 0.349193 -0.279059 3.000000
0.130872 -0.089445 -0.438271 3.000000
-0.124054 0.332775 -0.298529 3.000000
0.277108 -0.108937 0.429561 3.000000
-0.179922 0.073907 -0.441317 3.000000
-0.176593 -0.444529 0.010338 3.000000
0.198931 -0.437352 0.079271 3.000000
-0.171301 -0.299282 0.327051 3.000000
0.284975 0.202199 0.394735 1.000000
0.126905 0.199260 0.396233 3.000000
-0.038409 0.169629 -0.414107 3.000000
0.078105 0.298052 -0.333392 3.000000
0.049824 0.444309 0.033829 3.000000
0.220226 -0.444173 -0.026045 3.000000
-0.252368 -0.215806 0.387139 3.000000
-0.215138 0.052860 0.440075 3.000000
-0.057392 -0.357612 0.262532 3.000000
0.075468 -0.435718 0.087173 3.000000
-0.077522 0.419488 0.148410 3.000000
-0.264111 -0.164934 -0.415695 3.000000
0.004672 0.438604 0.077838 3.000000
-0.281336 0.421786 -0.146380 4.000000
0.079769 0.017432 -0.447080 3.000000
-0.017937 0.433507 -0.106001 3.000000
0.120195 -0.444000 0.026250 3.000000
0.107663 -0.224056 -0.386613 3.000000
0.246972 -0.080632 -0.440090 3.000000
0.031496 -0.125199 -0.429278 3.000000
0.110522 -0.234081 -0.380685 3.000000
0.128416 -0.432815 0.100157 3.000000
0.192702 0.273953 -0.353528 3.000000
-0.272786 -0.421310 -0.144856 3.000000
-0.269836 0.266513 -0.359299 3.000000
-0.272616 0.182719 -0.408442 3.000000
0.068030 0.405397 0.183221 3.000000
0.277992 -0.389176 -0.217865 1.000000
0.034337 0.387867 -0.221811 3.000000
-0.131323 0.171992 -0.413084 3.000000
0.069125 0.429313 -0.122039 3.000000
0.239599 -0.372884 -0.244821 3.000000
0.051125 -0.146694 0.418016 3.000000
0.027186 -0.362000 0.256483 3.000000
-0.116446 0.189251 -0.405616 3.000000
0.193163 -0.035077 0.441659 3.000000
-0.063328 0.208443 0.391554 3.000000
0.237962 -0.377568 0.233140 3.000000
0.145971 -0.027647 0.442361 3.000000
-0.284794 0.185218 0.403007 4.000000
0.018325 -0.432190 -0.107306 3.000000
-0.125787 0.221887 -0.388502 3.000000
0.225819 -0.440708 0.058086 3.000000
-0.156943 -0.388931 0.213925 3.000000
-0.133179 0.416529 -0.160981 3.000000
-0.079314 -0.119609 0.426549 3.000000
-0.053038 0.010428 -0.447300 3.000000
-0.190222 -0.442888 -0.042370 3.000000
-0.272782 0.385664 0.221182 3.000000
-0.209657 -0.331115 -0.299249 3.000000
0.120755 0.338748 0.287401 3.000000
-0.209262 -0.029312 -0.446557 3.000000
-0.097309 0.070929 0.437435 3.000000
-0.047475 -0.380004 0.229020 3.000000
-0.090945 -0.151811 0.416173 3.000000
0.124842 0.421449 -0.147317 3.000000
-0.196559 -0.130177 0.423479 3.000000
-0.124875 -0.275337 0.347305 3.000000
0.149507 -0.439740 -0.068549 3.000000
-0.203306 -0.319642 0.307298 3.000000
-0.089066 0.290805 0.335429 3.000000
0.120073 0.355106 -0.271436 3.000000
-0.035479 0.422195 -0.145244 3.000000
0.084483 -0.422375 -0.141897 3.000000
0.244409 0.331868 0.295205 3.000000
-0.097700 -0.436471 -0.088154 3.000000
0.072292 -0.444079 -0.029035 3.000000
-0.188199 -0.389838 -0.216742 3.000000
-0.035070 -0.202546 0.394036 3.000000
0.203815 0.348875 0.275117 3.000000
-0.022497 -0.405081 -0.185938 3.000000
0.205237 -0.444120 0.023363 3.000000
0.227410 -0.232234 -0.381777 3.000000
-0.082735 0.384284 0.223515 3.000000
-0.289429 0.438218 0.080278 4.000000
-0.163280 0.419189 -0.153592 3.000000
0.097109 0.385614 -0.225621 3.000000
0.281152 0.432547 -0.110296 1.000000
0.073027 0.409490 -0.178115 3.000000
-0.197153 -0.444345 -0.020554 3.000000
-0.288370 0.377140 0.235596 4.000000
0.031710 0.393501 -0.211565 3.000000
0.138200 0.358194 0.263102 3.000000
-0.042478 0.436557 0.088001 3.000000
0.031994 -0.142165 -0.423999 3.000000
-0.079042 -0.219197 0.385133 3.000000
-0.164600 0.341873 0.283856 3.000000
-0.016217 -0.395705 -0.205227 3.000000
-0.101770 0.435753 -0.095953 3.000000
0.286904 0.213648 0.388902 1.000000
-0.084854 0.153596 0.415900 3.000000
-0.280485 -0.258099 0.360369 3.000000
-0.060937 0.105902 -0.434821 3.000000
-0.248011 -0.429911 0.112100 3.000000
0.256516 0.433698 -0.105146 3.000000
-0.197603 0.302884 0.324779 3.000000
-0.075536 0.294506 0.332165 3.000000
0.238765 -0.215534 -0.391653 3.000000
-0.070465 0.401112 -0.196626 3.000000
-0.142296 -0.161317 0.412751 3.000000
-0.040419 -0.073837 0.436812 3.000000
0.021463 0.122474 0.426014 3.000000
0.017379 0.208306 -0.395977 3.000000
-0.082388 0.136379 0.421975 3.000000
-0.139563 -0.239715 0.372862 3.000000
0.063798 -0.136850 0.421540 3.000000
0.114871 -0.035281 0.441640 3.000000
-0.170583 -0.424118 -0.136395 3.000000
-0.019174 0.071872 -0.441639 3.000000
0.274831 0.175284 0.407306 3.000000
0.183167 -0.227983 0.379937 3.000000
-0.188335 -0.370823 -0.247853 3.000000
0.206226 -0.417975 0.149765 3.000000
-0.233062 -0.242354 0.371069 3.000000
-0.089780 0.337507 0.288809 3.000000
-0.247415 0.153675 -0.420225 3.000000
0.131821 0.408217 -0.181058 3.000000
0.228547 0.064816 -0.442757 3.000000
0.065377 0.427579 0.123654 3.000000
-0.272655 -0.443986 0.026400 3.000000
0.237550 -0.366286 0.250177 3.000000
-0.286358 -0.410317 -0.173838 4.000000
-0.205801 -0.279218 -0.348649 3.000000
-0.105978 -0.421785 0.139184 3.000000
-0.078934 -0.285256 0.339417 3.000000
-0.212364 0.419769 0.147629 3.000000
-0.248591 0.418015 0.152500 3.000000
0.173786 -0.365325 0.251591 3.000000
-0.196003 -0.125275 -0.429256 3.000000
-0.034182 0.049506 -0.444745 3.000000
0.042395 0.020469 -0.446985 3.000000
0.142001 -0.178675 -0.409749 3.000000
0.137711 0.110408 -0.433814 3.000000
-0.258415 0.139734 0.420890 3.000000
-0.113965 0.442492 -0.057400 3.000000
0.030960 -0.340447 -0.288665 3.000000
-0.038843 -0.181229 -0.408644 3.000000
0.041434 -0.441321 0.054214 3.000000
0.153183 0.151116 -0.421146 3.000000
0.131466 -0.227445 0.380255 3.000000
0.024253 0.080830 0.435867 3.000000
-0.063421 0.445943 -0.002324 3.000000
0.035967 0.367713 -0.253937 3.000000
-0.111840 0.048441 -0.444846 3.000000
-0.085382 0.049916 -0.444707 3.000000
-0.029462 0.294781 0.331923 3.000000
0.273631 -0.397201 -0.202290 3.000000
-0.038921 0.290221 -0.340297 3.000000
-0.192286 0.135147 -0.426686 3.000000
-0.200651 -0.201489 0.394575 3.000000
-0.180833 -0.428832 0.115815 3.000000
0.027185 0.428440 0.120691 3.000000
0.225774 0.119598 0.426850 3.000000
0.211262 0.374783 -0.243534 3.000000
0.057717 0.439192 0.074127 3.000000
0.225734 0.417034 -0.159580 3.000000
0.198753 -0.386609 0.217852 3.000000
-0.121805 -0.431719 0.105063 3.000000
0.188901 0.072972 0.437112 3.000000
-0.101593 0.425354 0.131312 3.000000
0.030067 -0.203821 0.393387 3.000000
0.067883 0.441720 -0.062519 3.000000
0.265105 0.335058 0.291587 3.000000
-0.087977 -0.406766 -0.182043 3.000000
0.285163 -0.391921 0.208301 1.000000
-0.039045 -0.240556 0.372290 3.000000
-0.024544 0.436726 0.087247 3.000000
0.054600 0.347598 0.276763 3.000000
0.206956 -0.262913 0.356943 3.000000
0.068492 0.115188 -0.432484 3.000000
-0.059008 0.146640 -0.422758 3.000000
0.227312 -0.409041 -0.176786 3.000000
-0.129631 -0.443658 0.029873 3.000000
-0.087496 -0.071843 0.437128 3.000000
0.142151 -0.401314 -0.194219 3.000000
-0.204342 -0.093562 -0.437351 3.000000
-0.092910 0.221295 0.384499 3.000000
0.075598 -0.345265 -0.282802 3.000000
0.207570 0.319664 -0.312655 3.000000
-0.289920 0.437407 -0.088553 4.000000
0.274867 0.383665 0.224563 3.000000
0.199159 -0.118060 -0.431352 3.000000
-0.018292 -0.413378 -0.166763 3.000000
-0.268430 -0.053761 -0.444246 3.000000
-0.128659 -0.427211 -0.125749 3.000000
-0.055524 -0.419804 -0.149040 3.000000
0.149254 0.342916 0.282674 3.000000
0.126255 0.166466 -0.415476 3.000000
0.161912 0.098022 0.432229 3.000000
-0.148228 -0.444455 -0.017044 3.000000
0.065671 -0.415715 0.156043 3.000000
0.242133 0.303871 -0.328262 3.000000
0.046849 -0.388376 -0.219218 3.000000
0.232928 0.200659 -0.399873 3.000000
0.124813 -0.080579 -0.440098 3.000000
0.284811 -0.411640 -0.170779 1.000000
0.168073 -0.444652 -0.010784 3.000000
0.281529 0.069513 -0.442013 1.000000
-0.006587 -0.301820 -0.329167 3.000000
-0.154285 0.141703 0.420181 3.000000
-0.001607 -0.231744 0.377713 3.000000
0.115314 -0.429476 -0.117951 3.000000
-0.018685 -0.444903 -0.001548 3.000000
-0.124236 -0.156702 0.414412 3.000000
0.070330 -0.105464 -0.434690 3.000000
0.145041 0.363552 0.255708 3.000000
-0.009314 0.267297 -0.358690 3.000000
-0.211490 -0.411030 -0.172191 3.000000
0.166462 -0.377713 0.232894 3.000000
-0.149938 0.187237 -0.406487 3.000000
-0.285417 0.442261 0.054747 4.000000
0.051599 0.421886 0.141747 3.000000
0.004971 -0.145080 0.418597 3.000000
0.065212 -0.335150 0.290320 3.000000
0.169591 -0.243184 -0.374858 3.000000
0.027540 0.439810 -0.074576 3.000000
-0.213530 -0.002918 -0.447504 3.000000
-0.246034 0.444882 -0.032119 3.000000
0.258037 -0.266258 0.354348 3.000000
0.230030 -0.022106 -0.446901 3.000000
0.057275 -0.286542 0.338283 3.000000
-0.185609 -0.308782 0.318158 3.000000
-0.178964 0.110444 0.429453 3.000000
0.040526 -0.165213 -0.415575 3.000000
-0.045926 -0.324933 -0.306262 3.000000
-0.218624 0.095713 -0.437099 3.000000
-0.158439 -0.166821 -0.414878 3.000000
-0.252384 -0.043912 -0.445177 3.000000
-0.077058 0.084245 -0.439662 3.000000
-0.056195 -0.270874 -0.355120 3.000000
-0.038731 0.296806 0.330138 3.000000
0.074424 -0.299798 0.326596 3.000000
-0.174789 0.266223 -0.359524 3.000000
0.022933 -0.162449 0.412344 3.000000
-0.220416 -0.120628 -0.430606 3.000000
-0.129803 0.325488 -0.306794 3.000000
-0.152042 0.275130 -0.352615 3.000000
-0.003610 -0.110337 -0.433596 3.000000
0.095626 -0.436534 -0.087875 3.000000
0.139605 0.108812 0.429817 3.000000
-0.051688 -0.165817 0.410960 3.000000
0.158259 -0.118556 -0.431208 3.000000
-0.148446 0.218755 -0.390354 3.000000
0.178707 0.080384 0.435938 3.000000
0.050277 0.444942 -0.031489 3.000000
0.011400 -0.377101 -0.238282 3.000000
-0.149565 0.374791 -0.243523 3.000000
-0.207675 -0.437758 -0.081064 3.000000
0.246097 0.389003 -0.219890 3.000000
-0.037876 -0.114778 0.427952 3.000000
-0.024866 0.385851 0.220867 3.000000
0.035851 -0.272321 0.349645 3.000000
-0.004136 -0.444327 -0.021128 3.000000
0.194574 -0.173700 -0.411902 3.000000
0.137081 0.340993 -0.289207 3.000000
-0.289267 -0.375588 0.236487 4.000000
0.023723 0.325411 0.302528 3.000000
0.134911 -0.391936 0.208270 3.000000
-0.266609 -0.320430 -0.310864 3.000000
0.065189 -0.153603 0.415528 3.000000
0.172499 -0.322374 -0.308920 3.000000
-0.278041 -0.402224 0.188079 3.000000
-0.192649 0.363423 0.255896 3.000000
0.249150 -0.438823 0.069985 3.000000
0.191666 -0.402426 0.187682 3.000000
0.125638 0.083717 -0.439763 3.000000
-0.089194 -0.261786 0.357816 3.000000
-0.241892 0.044351 0.440879 3.000000
-0.267399 -0.298720 -0.331900 3.000000
-0.153457 -0.441913 -0.052683 3.000000
-0.060823 0.442991 0.047771 3.000000
0.067508 -0.175510 -0.411118 3.000000
0.192423 -0.375289 -0.241283 3.000000
-0.038344 -0.015539 -0.447107 3.000000
-0.249809 -0.328467 -0.302254 3.000000
0.112920 0.176897 -0.410962 3.000000
0.196121 -0.364689 0.252526 3.000000
-0.008244 -0.330112 0.296034 3.000000
0.232418 -0.434750 -0.095854 3.000000
0.125874 -0.142070 -0.424034 3.000000
0.108109 0.388341 0.216656 3.000000
0.107846 -0.350878 0.271213 3.000000
-0.045467 -0.343982 -0.284456 3.000000
-0.247642 0.439653 0.071218 3.000000
0.180732 -0.254703 0.362677 3.000000
0.117803 -0.340083 -0.289077 3.000000
-0.092654 0.148241 -0.422181 3.000000
0.041216 -0.444076 -0.029112 3.000000
-0.247943 0.354652 0.267669 3.000000
-0.117003 0.237475 -0.379283 3.000000
0.284244 0.268949 -0.357409 1.000000
-0.171170 0.234385 -0.381111 3.000000
-0.183110 -0.365004 -0.256416 3.000000
0.244144 -0.344835 0.279004 3.000000
0.271110 0.309724 0.318241 3.000000
0.253759 -0.412770 0.163816 3.000000
-0.085602 -0.050997 -0.444507 3.000000
0.061421 0.065455 -0.442656 3.000000
0.178309 -0.184143 0.403029 3.000000
-0.214079 -0.424706 -0.134371 3.000000
0.043168 0.156876 -0.419072 3.000000
0.119868 -0.436584 -0.087651 3.000000
-0.158175 0.426818 -0.130629 3.000000
-0.035216 -0.298724 -0.331897 3.000000
0.238509 0.444614 -0.034958 3.000000
-0.220758 -0.442056 -0.051177 3.000000
-0.165549 0.428611 -0.124455 3.000000
-0.069415 0.109118 0.429749 3.000000
-0.029571 0.104946 0.430682 3.000000
-0.151474 -0.089857 0.433825 3.000000
-0.232108 -0.205952 0.392301 3.000000
0.030873 -0.444860 -0.004170 3.000000
-0.248751 0.198201 -0.401126 3.000000
-0.256855 -0.200845 -0.399257 3.000000
-0.105962 -0.400017 -0.196764 3.000000
0.156812 -0.143069 -0.423674 3.000000
-0.026948 0.230316 0.379164 3.000000
0.000710 0.085034 -0.439486 3.000000
0.135855 -0.444875 -0.000673 3.000000
0.133647 -0.152000 -0.420459 3.000000
0.035090 -0.383709 0.222756 3.000000
-0.246153 0.445897 -0.000570 3.000000
-0.248256 -0.335326 0.290120 3.000000
0.248768 0.445253 0.019921 3.000000
0.008436 0.325322 0.302630 3.000000
0.184312 0.295293 0.331472 3.000000
-0.153251 0.111180 -0.433642 3.000000
0.074322 0.145124 0.418950 3.000000
0.019319 -0.255113 0.362398 3.000000
0.019346 -0.413657 -0.166111 3.000000
-0.008489 -0.420795 0.141932 3.000000
-0.078413 -0.440652 0.058440 3.000000
-0.154962 0.026616 0.442438 3.000000
0.082111 0.138217 -0.425790 3.000000
0.236384 -0.352403 -0.273600 3.000000
-0.184570 0.442623 -0.056020 3.000000
-0.222133 0.168539 -0.414579 3.000000
0.005165 -0.054960 -0.444133 3.000000
0.105628 -0.304290 -0.326989 3.000000
-0.181516 -0.395152 -0.206312 3.000000
-0.154715 -0.402765 0.186936 3.000000
0.109322 -0.085022 -0.439260 3.000000
0.248835 0.192604 0.399624 3.000000
0.180528 -0.139718 -0.424881 3.000000
-0.144277 0.113770 0.428543 3.000000
0.020857 -0.211211 0.389622 3.000000
0.023893 -0.171840 0.408353 3.000000
0.029098 0.443162 0.045958 3.000000
-0.283232 -0.344609 0.279295 3.000000
-0.139592 -0.275010 0.347559 3.000000
-0.016150 -0.113486 0.428328 3.000000
0.285005 -0.375013 0.237335 1.000000
0.194187 -0.147767 -0.421983 3.000000
-0.029401 -0.210173 -0.394504 3.000000
-0.257927 -0.109436 0.429449 3.000000
-0.287630 0.445912 -0.003296 4.000000
0.104805 -0.319210 0.307730 3.000000
-0.079904 0.440553 -0.069889 3.000000
0.167578 -0.122201 0.425796 3.000000
-0.211796 0.422146 -0.145379 3.000000
0.172627 -0.101318 -0.435617 3.000000
-0.230907 0.248679 0.367467 3.000000
0.219514 0.296796 -0.334500 3.000000
-0.112814 -0.100482 -0.435804 3.000000
-0.212181 -0.015857 -0.447097 3.000000
0.232494 -0.339577 -0.289651 3.000000
0.168184 0.082737 0.435565 3.000000
-0.270133 -0.351338 -0.274974 3.000000
-0.282743 -0.436199 -0.089374 4.000000
-0.035579 0.384615 0.222957 3.000000
-0.268196 -0.443166 -0.039434 3.000000
-0.124043 0.101098 -0.435895 3.000000
0.160643 -0.435633 0.087552 3.000000
-0.145635 -0.430957 -0.112823 3.000000
0.284125 -0.118543 0.426859 1.000000
0.225384 0.424033 -0.140137 3.000000
-0.151421 -0.433040 -0.103507 3.000000
-0.021520 0.036917 0.441582 3.000000
0.245407 -0.029711 -0.446520 3.000000
-0.010766 0.316910 -0.315409 3.000000
-0.214467 -0.363324 -0.258888 3.000000
-0.274678 0.380022 0.230723 3.000000
-0.171082 0.352541 -0.274744 3.000000
0.073056 0.391130 0.211864 3.000000
-0.258976 0.054893 0.439883 3.000000
0.186132 0.213834 -0.393161 3.000000
-0.145996 0.119584 -0.431207 3.000000
0.211050 -0.311903 0.315038 3.000000
0.167418 -0.187585 -0.405893 3.000000
0.044240 0.376642 0.236438 3.000000
0.222715 0.080366 -0.440294 3.000000
-0.118290 0.166101 -0.415634 3.000000
0.265288 -0.046910 -0.444894 3.000000
0.196488 -0.380823 -0.231989 3.000000
0.062849 0.281696 0.343168 3.000000
0.087822 0.014339 0.442824 3.000000
0.216959 0.255098 -0.367458 3.000000
-0.124916 0.425981 0.129156 3.000000
-0.243917 -0.125939 0.424710 3.000000
-0.058928 0.248871 -0.371690 3.000000
0.149008 -0.313496 0.313444 3.000000
-0.262139 -0.161211 0.412789 3.000000
-0.182667 0.388703 0.216043 3.000000
0.087631 -0.274454 -0.352344 3.000000
0.060283 -0.411310 0.167188 3.000000
-0.092403 -0.071722 -0.441501 3.000000
-0.138724 0.124348 0.425470 3.000000
-0.067456 -0.290320 -0.339306 3.000000
0.036231 0.235376 0.376171 3.000000
-0.215814 0.200816 -0.399794 3.000000
-0.162280 -0.081620 -0.439933 3.000000
0.212415 0.264861 -0.360580 3.000000
0.237846 0.445636 -0.012098 3.000000
0.217481 -0.388286 0.215016 3.000000
0.000462 0.443598 -0.045699 3.000000
0.119662 -0.425683 -0.131008 3.000000
0.160909 -0.333700 -0.296317 3.000000
-0.001443 0.012449 0.442883 3.000000
0.018033 -0.433631 0.096508 3.000000
-0.070856 -0.424198 -0.136117 3.000000
-0.202899 0.421221 0.143595 3.000000
-0.183371 -0.094190 -0.437210 3.000000
-0.200135 0.312084 0.315881 3.000000
-0.211710 -0.393693 0.204822 3.000000
0.077959 0.243130 -0.375591 3.000000
0.147416 0.046356 -0.445043 3.000000
0.160296 -0.223403 0.382646 3.000000
0.121716 -0.442151 -0.050168 3.000000
0.032415 0.268117 0.353701 3.000000
-0.268927 0.047847 -0.444902 3.000000
-0.053516 -0.311607 0.315333 3.000000
0.204970 0.361443 -0.263164 3.000000
0.184457 -0.195877 0.397434 3.000000
-0.259700 0.430360 0.114084 3.000000
0.282565 -0.425013 0.128961 1.000000
0.100885 0.397248 -0.204211 3.000000
0.052428 -0.396670 0.198979 3.000000
-0.287024 -0.009517 0.442943 4.000000
-0.099934 -0.351075 0.270959 3.000000
-0.064023 -0.146675 0.418022 3.000000
0.040129 -0.444437 -0.017634 3.000000
0.209569 0.430752 0.112734 3.000000
-0.088949 -0.365605 -0.255532 3.000000
-0.239201 -0.015084 0.442768 3.000000
-0.248612 0.429677 -0.120787 3.000000
0.035276 0.312536 0.315429 3.000000
-0.189435 -0.262411 -0.361685 3.000000
0.117333 -0.408248 -0.178618 3.000000
0.136051 0.440071 0.068579 3.000000
0.229191 -0.301698 0.324921 3.000000
-0.123970 -0.069652 -0.441829 3.000000
-0.023342 0.445899 -0.003722 3.000000
0.081881 0.385599 -0.225645 3.000000
-0.081241 0.350057 0.273593 3.000000
-0.289944 0.207839 -0.396215 4.000000
-0.168325 -0.352266 -0.273776 3.000000
0.139098 0.136215 -0.426376 3.000000
0.249236 -0.425726 -0.130858 3.000000
-0.230096 -0.361182 0.257687 3.000000
0.034644 0.427779 -0.127321 3.000000
0.274713 0.240126 0.373280 3.000000
-0.009378 -0.245938 -0.372986 3.000000
0.027576 0.424533 -0.138492 3.000000
-0.269487 -0.126695 0.424490 3.000000
-0.067378 -0.320180 -0.311114 3.000000
0.171811 0.347496 0.276894 3.000000
0.187631 0.443908 -0.042421 3.000000
0.178297 -0.427112 0.121734 3.000000
0.009047 -0.211201 0.389627 3.000000
0.205493 -0.219098 0.385192 3.000000
-0.012884 -0.419203 -0.150707 3.000000
0.038350 0.038267 -0.445808 3.000000
-0.290133 0.091431 -0.438056 4.000000
0.228161 0.345191 0.279866 3.000000
-0.287646 0.330713 0.296514 4.000000
-0.224779 0.342518 0.283124 3.000000
-0.097208 -0.341257 -0.287746 3.000000
0.195536 -0.302786 0.323962 3.000000
0.078823 -0.411083 -0.172067 3.000000
0.257976 -0.175957 0.406572 3.000000
-0.063990 0.316300 -0.316018 3.000000
-0.008983 0.435941 0.090758 3.000000
0.011462 0.120245 0.426662 3.000000
-0.050599 0.445895 -0.003848 3.000000
-0.063160 0.324187 -0.308132 3.000000
-0.174501 0.181162 -0.409116 3.000000
0.144120 0.049237 0.440417 3.000000
-0.288576 -0.438251 0.073600 4.000000
0.090117 0.334559 -0.296506 3.000000
0.272694 0.416810 0.155846 3.000000
0.155594 -0.393328 0.205539 3.000000
-0.267913 -0.173976 0.407429 3.000000
0.209866 0.263545 0.357247 3.000000
-0.106387 0.445714 -0.009599 3.000000
-0.069786 -0.310821 -0.320473 3.000000
-0.049373 0.375562 -0.242389 3.000000
-0.056631 0.439927 0.069486 3.000000
-0.165800 0.123627 -0.430033 3.000000
0.256915 -0.217204 0.386312 3.000000
-0.061907 0.297434 0.329584 3.000000
-0.177140 0.363407 0.255920 3.000000
0.140936 -0.008952 -0.447314 3.000000
-0.244444 0.128840 0.424165 3.000000
-0.177512 0.062903 -0.443060 3.000000
-0.108491 0.292515 0.333921 3.000000
-0.008766 0.083726 0.435409 3.000000
0.051241 -0.415410 -0.161242 3.000000
0.089336 -0.398568 -0.199608 3.000000
0.196409 -0.259116 0.359677 3.000000
0.201551 -0.249123 0.366469 3.000000
0.152933 0.282870 0.342257 3.000000
0.242230 0.399743 -0.199313 3.000000
-0.206041 0.311396 -0.320923 3.000000
0.129461 0.086648 0.434772 3.000000
0.165532 0.395909 0.202484 3.000000
0.112018 0.441721 -0.062514 3.000000
0.263008 0.445865 0.000456 3.000000
0.132364 -0.398634 0.195126 3.000000
-0.249876 -0.027359 0.442382 3.000000
0.165299 0.386805 -0.223607 3.000000
-0.264090 0.281031 -0.348037 3.000000
0.139418 0.445699 0.005715 3.000000
0.030197 -0.440895 0.056904 3.000000
-0.049482 -0.408090 0.174631 3.000000
0.274784 -0.328708 -0.301979 3.000000
-0.001806 0.272371 0.350401 3.000000
0.077416 0.343581 0.281919 3.000000
-0.173191 0.209420 -0.395410 3.000000
-0.274271 -0.219197 -0.389487 3.000000
-0.201094 -0.206759 -0.396243 3.000000
0.158735 0.424798 0.133228 3.000000
-0.140404 0.375295 0.238428 3.000000
0.265249 0.259187 0.360326 3.000000
0.273597 0.445270 -0.023731 3.000000
0.254694 0.419092 -0.153862 3.000000
-0.105756 -0.266527 -0.358493 3.000000
0.040034 -0.342625 0.281841 3.000000
0.039793 -0.201923 0.394354 3.000000
0.213110 -0.151326 -0.420701 3.000000
0.016138 0.406572 0.180506 3.000000
-0.009329 0.290419 0.335769 3.000000
-0.078308 -0.430660 -0.113875 3.000000
-0.030060 0.142515 -0.424243 3.000000
-0.237227 0.442058 -0.060387 3.000000
-0.188685 -0.444258 0.018966 3.000000
-0.188065 -0.016143 0.442735 3.000000
-0.056758 -0.055734 -0.444033 3.000000
0.205292 0.015653 -0.447136 3.000000
0.282632 -0.229476 -0.383408 1.000000
-0.169440 0.161667 0.412994 3.000000
-0.085267 0.138138 -0.425817 3.000000
-0.005532 0.443065 0.046984 3.000000
-0.123012 -0.387886 -0.220047 3.000000
-0.116093 0.445403 0.015150 3.000000
-0.079766 -0.158630 -0.418072 3.000000
-0.189032 0.084368 0.435281 3.000000
-0.135149 0.426829 -0.130589 3.000000
0.149057 0.215793 0.387753 3.000000
0.126140 0.331291 -0.300212 3.000000
0.143705 0.420885 0.144530 3.000000
-0.100302 0.412175 -0.171912 3.000000
0.007126 -0.431541 -0.110212 3.000000
0.286321 -0.029089 0.442225 1.000000
0.164720 -0.289296 -0.340209 3.000000
-0.132418 -0.263663 -0.360714 3.000000
0.118904 -0.096694 0.432297 3.000000
0.281260 0.294710 -0.336339 1.000000
0.005631 0.195372 -0.402567 3.000000
-0.044712 -0.394988 -0.206635 3.000000
0.081112 -0.153434 0.415589 3.000000
0.187511 0.391459 0.211219 3.000000
-0.048236 0.288280 0.337654 3.000000
0.209965 0.071364 -0.441720 3.000000
0.165740 0.405917 -0.186373 3.000000
0.126580 0.445593 -0.013453 3.000000
0.002149 0.274307 -0.353253 3.000000
-0.066539 -0.218669 0.385446 3.000000
0.113727 0.445893 -0.000448 3.000000
0.136477 0.420647 -0.149544 3.000000
-0.204073 0.383786 -0.228711 3.000000
-0.200294 -0.378535 -0.235857 3.000000
0.082661 -0.081161 0.435652 3.000000
0.004697 -0.437056 -0.085498 3.000000
0.003995 -0.171924 0.408317 3.000000
-0.234925 0.010007 0.442960 3.000000
-0.209582 0.142485 0.419900 3.000000
-0.116220 0.285316 -0.344621 3.000000
-0.090536 0.405852 -0.186523 3.000000
0.065885 -0.405802 0.179917 3.000000
-0.089813 -0.430669 -0.113847 3.000000
0.015304 0.312869 -0.319450 3.000000
-0.266771 0.405031 -0.188421 3.000000
-0.095401 0.259957 0.359802 3.000000
-0.159973 -0.260177 0.358956 3.000000
0.229784 -0.111812 0.428814 3.000000
-0.040173 0.145667 0.418754 3.000000
0.096046 -0.443868 -0.032001 3.000000
-0.170362 0.385065 -0.226548 3.000000
-0.109514 0.158749 0.414044 3.000000
-0.163484 0.226817 -0.385586 3.000000
-0.178474 -0.138889 -0.425179 3.000000
-0.092094 0.311350 0.316615 3.000000
-0.100266 -0.369779 0.245036 3.000000
-0.004518 0.001177 0.443237 3.000000
-0.183655 -0.441927 0.048187 3.000000
-0.190754 -0.238755 -0.377868 3.000000
-0.067097 -0.239726 -0.377208 3.000000
-0.065904 0.355450 0.266640 3.000000
0.012463 -0.387281 0.216716 3.000000
-0.069122 0.190518 0.400688 3.000000
0.203152 -0.326500 -0.304484 3.000000
-0.254408 0.135670 -0.426534 3.000000
-0.174779 0.301196 -0.330621 3.000000
-0.077324 0.335366 0.291237 3.000000
-0.192783 -0.436605 0.083204 3.000000
0.242730 0.145714 0.418737 3.000000
-0.252565 0.436121 -0.094308 3.000000
0.035865 -0.137103 0.421466 3.000000
0.155945 0.355934 -0.270369 3.000000
0.253964 -0.300519 -0.330314 3.000000
0.079773 -0.171970 0.408297 3.000000
-0.143863 -0.299202 -0.331475 3.000000
0.154860 0.361970 0.258035 3.000000
-0.017842 -0.409144 -0.176549 3.000000
-0.235798 -0.308434 0.318506 3.000000
-0.187510 -0.249137 -0.370812 3.000000
-0.279377 0.311470 0.316495 3.000000
0.044840 -0.364016 0.253517 3.000000
-0.116204 -0.313469 0.313472 3.000000
-0.112735 0.425137 0.132061 3.000000
-0.213998 0.445718 0.005124 3.000000
-0.122668 0.042568 0.441048 3.000000
0.190910 -0.021663 0.442561 3.000000
0.159136 -0.422427 0.137400 3.000000
-0.062591 -0.408083 -0.178999 3.000000
0.272210 -0.431596 0.105610 3.000000
-0.162828 0.175118 -0.411732 3.000000
-0.263803 0.235118 0.376324 3.000000
-0.115203 -0.423300 0.134857 3.000000
0.229455 0.209450 -0.395395 3.000000
-0.067499 -0.122289 0.425770 3.000000
-0.248942 -0.271814 -0.354392 3.000000
0.119229 -0.243685 -0.374517 3.000000
0.154421 0.297481 0.329543 3.000000
-0.033683 -0.406439 0.178445 3.000000
-0.120848 0.212732 -0.393722 3.000000
-0.266354 0.444541 0.031368 3.000000
-0.076639 0.089020 0.434241 3.000000
-0.212628 -0.139407 0.420639 3.000000
0.047733 0.053735 0.439992 3.000000
-0.028341 0.344684 -0.284873 3.000000
-0.126878 -0.399625 -0.197533 3.000000
0.136632 -0.252889 0.363909 3.000000
-0.018323 -0.441235 -0.059112 3.000000
-0.287802 -0.442793 0.039024 4.000000
-0.069702 0.047528 -0.444932 3.000000
-0.080031 -0.401707 -0.193448 3.000000
0.161420 -0.085861 -0.439072 3.000000
-0.175963 -0.123660 0.425372 3.000000
0.044710 0.085432 -0.439397 3.000000
-0.278987 0.399620 0.195202 3.000000
0.160517 -0.304035 0.322861 3.000000
-0.049385 -0.422810 -0.140688 3.000000
0.249509 -0.339415 0.285482 3.000000
-0.012922 0.418339 0.151601 3.000000
0.124918 -0.401891 0.188733 3.000000
-0.289461 -0.254786 0.362620 4.000000
-0.244437 0.164681 -0.416248 3.000000
-0.194640 -0.310145 -0.321149 3.000000
0.103591 -0.404386 -0.187542 3.000000
0.110631 -0.347922 -0.279377 3.000000
0.168837 0.106838 0.430259 3.000000
0.048127 0.420007 -0.151321 3.000000
-0.044565 0.089591 -0.438467 3.000000
-0.197238 0.335049 0.291597 3.000000
0.063076 0.376464 -0.241061 3.000000
-0.112258 -0.091243 0.433516 3.000000
0.040722 -0.443055 0.036256 3.000000
0.178248 -0.440122 -0.066140 3.000000
0.016570 -0.429218 -0.118839 3.000000
-0.061849 0.134771 0.422442 3.000000
0.094196 -0.076606 0.436374 3.000000
-0.017560 -0.433168 0.098580 3.000000
-0.109289 -0.366726 -0.253883 3.000000
0.253253 -0.039558 0.441235 3.000000
0.207137 -0.090108 0.433769 3.000000
-0.270590 0.106183 -0.434759 3.000000
0.019140 0.433633 -0.105437 3.000000
-0.089622 0.071589 -0.441684 3.000000
0.244687 -0.160992 -0.417221 3.000000
-0.287203 0.171738 -0.413194 4.000000
0.128358 -0.121763 -0.430276 3.000000
-0.224144 -0.435181 0.089575 3.000000
0.104582 -0.148085 0.417515 3.000000
-0.141084 -0.171281 0.408595 3.000000
0.010872 0.428551 -0.124663 3.000000
0.285859 0.414698 0.161714 1.000000
0.284226 0.244846 0.370071 1.000000
-0.133682 0.350424 0.273119 3.000000
0.008984 -0.035515 0.441618 3.000000
-0.161889 0.206059 -0.397122 3.000000
0.141544 -0.441086 0.055696 3.000000
-0.128053 0.014478 -0.447173 3.000000
-0.013589 -0.067190 0.437865 3.000000
0.056046 -0.119187 0.426672 3.000000
-0.210379 -0.383971 0.222312 3.000000
-0.245503 -0.444240 0.019555 3.000000
0.153636 -0.442989 0.036951 3.000000
-0.194134 0.203882 -0.398232 3.000000
0.007365 0.421122 0.143870 3.000000
0.119214 0.422646 0.139639 3.000000
-0.039028 -0.091833 -0.437737 3.000000
-0.082599 -0.426712 0.123112 3.000000
0.214755 -0.443595 -0.034898 3.000000
-0.227316 -0.118000 0.427016 3.000000
0.262397 -0.438492 0.072076 3.000000
0.248412 -0.365306 0.251618 3.000000
0.179929 0.445178 0.022293 3.000000
-0.210541 -0.377516 -0.237581 3.000000
-0.020818 0.208772 -0.395740 3.000000
0.270924 0.373174 -0.245903 3.000000
0.214562 -0.444770 0.002693 3.000000
0.176669 -0.158118 0.413903 3.000000
0.265127 -0.389012 -0.218142 3.000000
0.262256 -0.420913 -0.145957 3.000000
-0.156601 -0.213851 0.388276 3.000000
-0.256183 -0.442739 -0.043944 3.000000
-0.112606 0.309663 -0.322656 3.000000
-0.164190 0.443375 -0.048058 3.000000
-0.030504 -0.258539 -0.364423 3.000000
0.140066 -0.424854 0.129506 3.000000
0.193933 0.172676 0.408435 3.000000
-0.059265 0.288385 -0.341915 3.000000
0.109396 0.419541 -0.152616 3.000000
0.048527 0.205289 0.393161 3.000000
0.000035 0.196169 0.397808 3.000000
0.214782 0.150672 0.416953 3.000000
-0.228468 0.405462 0.183071 3.000000
-0.259522 -0.269722 0.351661 3.000000
-0.148402 -0.111532 0.428895 3.000000
0.114405 -0.175433 0.406799 3.000000
0.077098 0.413921 -0.167877 3.000000
-0.227031 -0.317152 0.309788 3.000000
0.214263 -0.433463 -0.101615 3.000000
0.042218 -0.369503 -0.249796 3.000000
-0.028747 -0.073127 -0.441278 3.000000
-0.034063 0.123331 0.425765 3.000000
-0.157523 0.312848 -0.319470 3.000000
0.115588 0.076655 -0.440882 3.000000
0.204348 0.390112 -0.218014 3.000000
-0.173544 0.100987 -0.435920 3.000000
0.253810 -0.325991 -0.305062 3.000000
-0.261867 -0.444255 0.019084 3.000000
0.105009 -0.086861 0.434495 3.000000
-0.067977 0.124609 -0.429747 3.000000
-0.159673 -0.412871 0.163583 3.000000
0.200510 0.127338 0.424601 3.000000
0.100545 -0.345409 0.278264 3.000000
-0.187270 -0.218507 -0.389895 3.000000
0.081882 -0.391878 -0.212737 3.000000
-0.249254 -0.302405 0.324298 3.000000
0.241371 0.445645 0.007451 3.000000
-0.127828 -0.441902 0.048452 3.000000
-0.241397 0.441229 0.061264 3.000000
0.077835 0.105624 -0.434884 3.000000
-0.194742 -0.321263 -0.310031 3.000000
-0.154651 -0.010596 -0.447263 3.000000
0.181816 0.419732 -0.152084 3.000000
0.110370 -0.360313 -0.263318 3.000000
-0.042050 0.009034 -0.447344 3.000000
0.280449 -0.361179 0.257691 3.000000
-0.062606 -0.403294 0.185714 3.000000
-0.235225 0.439894 0.069698 3.000000
0.170200 0.162903 -0.416902 3.000000
-0.099300 -0.106357 0.430137 3.000000
0.275495 -0.009234 -0.447305 1.000000
-0.289263 0.407331 -0.183107 4.000000
0.270588 -0.313718 -0.317576 3.000000
-0.016773 0.390136 0.213620 3.000000
0.246035 0.365916 -0.256582 3.000000
-0.076358 0.147896 0.417952 3.000000
-0.080041 0.211525 -0.394337 3.000000
0.152190 -0.443470 -0.036216 3.000000
-0.091924 -0.425612 0.126899 3.000000
-0.239811 -0.444251 -0.023537 3.000000
0.227362 -0.324509 0.302390 3.000000
-0.108891 -0.389976 0.212117 3.000000
-0.046899 -0.204771 0.392903 3.000000
-0.119049 0.357707 0.263730 3.000000
0.276921 -0.127245 -0.428684 1.000000
0.286582 0.245546 -0.373949 1.000000
-0.040411 -0.433148 -0.103022 3.000000
-0.033457 0.167263 0.410777 3.000000
0.140013 -0.063504 -0.442802 3.000000
-0.015838 -0.161237 -0.417133 3.000000
-0.066935 0.087477 0.434586 3.000000
-0.047353 -0.076882 -0.440684 3.000000
-0.263698 -0.288450 0.336601 3.000000
0.051608 0.404410 0.185502 3.000000
0.105997 0.179135 0.405640 3.000000
-0.001712 -0.123084 -0.429893 3.000000
-0.200573 0.445158 -0.027282 3.000000
-0.121720 -0.346954 0.276272 3.000000
0.271509 -0.384946 -0.225017 3.000000
-0.181652 -0.429818 -0.116775 3.000000
0.042799 0.420376 0.145943 3.000000
-0.188667 0.419123 0.149422 3.000000
-0.030533 -0.444917 -0.001996 3.000000
0.240173 0.185519 0.402878 3.000000
-0.226344 0.216024 -0.391969 3.000000
0.111221 -0.293980 0.331726 3.000000
-0.182094 -0.152997 0.415746 3.000000
0.115473 -0.417891 -0.154352 3.000000
-0.025699 -0.046294 -0.444952 3.000000
-0.259426 0.177885 -0.410534 3.000000
0.155208 -0.174595 0.407161 3.000000
0.192421 0.420577 0.145386 3.000000
0.197632 0.243341 -0.375448 3.000000
-0.089592 0.393510 0.207194 3.000000
-0.065425 -0.000156 0.443237 3.000000
0.223257 -0.058528 0.439237 3.000000
0.285431 0.362976 0.256555 1.000000
0.212097 -0.300083 0.326345 3.000000
-0.227042 -0.420646 0.142347 3.000000
-0.246058 -0.298125 -0.332425 3.000000
0.282055 -0.406593 -0.182443 1.000000
0.273941 0.442396 0.053896 3.000000
-0.100834 -0.406026 0.179400 3.000000
-0.016795 0.198274 -0.401089 3.000000
-0.140852 -0.035135 -0.446007 3.000000
-0.231077 -0.392965 0.206252 3.000000
-0.270972 -0.414283 -0.164375 3.000000
-0.169745 -0.257773 -0.364943 3.000000
0.026329 -0.296881 -0.333521 3.000000
-0.158944 -0.109212 0.429499 3.000000
-0.083531 -0.358947 -0.265164 3.000000
0.236078 -0.422736 0.136540 3.000000
0.254690 -0.403470 0.185305 3.000000
0.006117 -0.080787 0.435712 3.000000
0.264680 0.419307 0.148911 3.000000
-0.116704 0.380382 -0.234467 3.000000
-0.149602 0.250745 -0.370416 3.000000
-0.178418 0.328205 -0.303713 3.000000
-0.030748 -0.441953 -0.052264 3.000000
0.023533 -0.441866 -0.053186 3.000000
0.216192 -0.431982 0.103887 3.000000
-0.136842 -0.256296 -0.365947 3.000000
0.192035 -0.272336 0.349634 3.000000
0.165692 0.431276 -0.115284 3.000000
-0.274721 0.132529 0.423093 3.000000
0.259487 -0.363524 -0.258594 3.000000
0.084850 0.393187 0.207828 3.000000
-0.188391 -0.437822 -0.080657 3.000000
0.029548 0.135259 -0.426653 3.000000
0.223117 0.216057 0.387597 3.000000
-0.212048 0.444505 0.031753 3.000000
-0.215880 -0.438574 -0.075912 3.000000
-0.135240 -0.442686 0.040157 3.000000
-0.257995 0.081763 0.435719 3.000000
-0.183444 0.110045 -0.433895 3.000000
0.099096 0.088999 -0.438600 3.000000
-0.088878 -0.441986 0.047565 3.000000
0.197481 -0.037690 -0.445765 3.000000
0.254951 -0.434994 0.090413 3.000000
-0.286861 -0.362708 -0.259795 4.000000
0.017482 -0.203552 -0.397878 3.000000
-0.155115 0.368105 -0.253361 3.000000
0.071184 0.322982 -0.309336 3.000000
-0.142146 -0.420582 -0.146877 3.000000
0.220313 -0.408347 0.174037 3.000000
-0.090669 -0.413629 0.161830 3.000000
0.116936 0.360504 0.260125 3.000000
0.249026 -0.384623 0.221210 3.000000
-0.038906 -0.001517 -0.447548 3.000000
0.245689 0.220347 -0.389413 3.000000
0.012203 0.294560 0.332118 3.000000
0.147037 0.361526 -0.263041 3.000000
0.086634 -0.305718 -0.325576 3.000000
-0.206749 -0.065688 -0.442456 3.000000
0.013412 0.392885 0.208419 3.000000
-0.277630 -0.388747 -0.218590 3.000000
0.239120 -0.122644 0.425667 3.000000
-0.156407 -0.272445 0.349549 3.000000
-0.280908 0.096100 -0.437013 4.000000
-0.026472 0.227727 -0.385048 3.000000
-0.214779 0.428607 -0.124470 3.000000
0.248774 0.346818 0.277769 3.000000
-0.157847 0.325116 0.302849 3.000000
-0.007962 0.297095 -0.334236 3.000000
0.172455 -0.307552 -0.323742 3.000000
0.239773 -0.444673 -0.010117 3.000000
-0.077522 -0.392602 0.206963 3.000000
-0.235717 0.344279 -0.285394 3.000000
0.272319 0.254072 -0.368155 3.000000
0.014076 -0.418396 0.148596 3.000000
-0.273533 0.445783 0.003056 3.000000
-0.031033 0.311471 -0.320848 3.000000
-0.072369 0.380798 0.229410 3.000000
-0.061840 -0.010741 0.442905 3.000000
0.164232 0.114543 -0.432672 3.000000
-0.267595 0.442877 0.048978 3.000000
0.052547 -0.241268 0.371807 3.000000
0.146608 -0.349389 0.273132 3.000000
-0.098570 0.346561 0.278100 3.000000
-0.273956 -0.380805 0.227665 3.000000
-0.032689 0.443902 0.038131 3.000000
0.173811 -0.274418 0.348019 3.000000
-0.252267 0.379186 0.232137 3.000000
-0.171551 0.111070 -0.433666 3.000000
-0.244368 -0.371990 -0.246137 3.000000
-0.214034 -0.094658 0.432752 3.000000
0.286488 0.418771 0.150400 1.000000
0.087485 0.115623 0.428005 3.000000
-0.227324 -0.067539 0.437810 3.000000
0.263878 -0.008693 -0.447322 3.000000
0.134494 -0.354703 0.266281 3.000000
-0.012093 -0.046931 -0.444892 3.000000
0.092845 -0.053020 -0.444316 3.000000
0.016720 0.285779 0.339859 3.000000
-0.271334 0.019012 -0.447030 3.000000
0.165782 -0.052448 0.440017 3.000000
0.242876 0.065575 -0.442637 3.000000
0.053178 0.395237 -0.208156 3.000000
-0.255209 0.394333 -0.209931 3.000000
0.057643 -0.142606 -0.423841 3.000000
-0.100245 -0.186930 0.401823 3.000000
-0.253446 0.438159 0.080649 3.000000
-0.071935 -0.338874 0.286096 3.000000
0.014497 0.243700 0.370850 3.000000
0.067333 0.223123 0.383418 3.000000
0.180965 0.386812 -0.223595 3.000000
0.012773 0.179045 -0.410032 3.000000
0.098671 -0.442951 -0.041708 3.000000
-0.049259 -0.434564 -0.096687 3.000000
-0.218417 -0.283409 -0.345398 3.000000
-0.007226 -0.232411 -0.381672 3.000000
-0.103447 0.127489 0.424557 3.000000
-0.138852 0.388092 0.217078 3.000000
0.243199 0.377615 -0.239145 3.000000
0.282673 0.401791 -0.195293 1.000000
-0.132485 0.445772 -0.007768 3.000000
0.222468 -0.256286 0.361601 3.000000
0.156209 0.208294 -0.395983 3.000000
0.095343 -0.339574 0.285302 3.000000
-0.284747 -0.391162 0.209790 4.000000
-0.153035 -0.359098 -0.264969 3.000000
0.217443 0.428721 0.119723 3.000000
-0.289311 -0.076959 -0.440671 4.000000
-0.005299 -0.095088 0.432656 3.000000
0.198973 0.207708 -0.396282 3.000000
-0.287842 -0.172873 0.407906 4.000000
0.005998 -0.280668 0.343170 3.000000
0.071442 0.128952 0.424132 3.000000
0.080693 0.174718 -0.411905 3.000000
0.041533 -0.383543 -0.227389 3.000000
0.070220 -0.247337 0.367682 3.000000
-0.171649 -0.162192 -0.416789 3.000000
0.260417 -0.047139 0.440519 3.000000
-0.271137 -0.405059 -0.185989 3.000000
0.140485 0.428867 -0.123574 3.000000
-0.054647 0.034966 -0.446120 3.000000
-0.081377 0.299456 -0.332155 3.000000
0.093681 -0.033742 0.441785 3.000000
0.217555 0.439775 -0.074797 3.000000
0.266523 0.183519 -0.408096 3.000000
-0.193205 0.433680 -0.105229 3.000000
0.217162 -0.424702 -0.134382 3.000000
0.026564 0.414644 -0.166207 3.000000
0.143793 0.300022 0.327302 3.000000
-0.130645 -0.103061 0.430874 3.000000
-0.180947 0.311794 0.316172 3.000000
-0.238483 0.437367 -0.088731 3.000000
-0.114901 0.434478 -0.101657 3.000000
-0.055751 -0.443003 0.036804 3.000000
-0.053968 0.123251 0.425789 3.000000
-0.175410 0.443738 0.039863 3.000000
-0.096783 -0.331606 -0.298692 3.000000
0.263487 0.034390 -0.446174 3.000000
0.232406 -0.439279 -0.071463 3.000000
-0.242481 0.057334 0.439589 3.000000
0.225330 0.397682 -0.203358 3.000000
0.016728 -0.290434 -0.339206 3.000000
0.211685 -0.202006 0.394312 3.000000
-0.109276 0.381973 0.227424 3.000000
0.240919 0.210474 0.390520 3.000000
-0.083353 0.435938 -0.095127 3.000000
0.208623 -0.424088 0.132143 3.000000
-0.183529 -0.140840 0.420123 3.000000
-0.128349 -0.391217 0.209681 3.000000
-0.245468 -0.412920 0.163469 3.000000
0.256507 -0.069952 -0.441781 3.000000
-0.017434 -0.045251 0.440697 3.000000
-0.280484 0.277826 0.346169 3.000000
-0.040502 -0.025596 -0.446791 3.000000
-0.041921 0.356026 0.265897 3.000000
-0.254690 0.130646 0.423640 3.000000
-0.174187 -0.236711 0.374776 3.000000
0.176059 0.266612 0.354868 3.000000
-0.123378 -0.380253 0.228599 3.000000
0.174569 0.426547 -0.131559 3.000000
-0.091488 -0.018889 0.442649 3.000000
0.273943 -0.427409 0.120711 3.000000
0.065228 0.269891 -0.356678 3.000000
0.101312 0.246349 -0.373403 3.000000
-0.143267 0.445576 0.009647 3.000000
-0.052813 -0.228583 0.379583 3.000000
-0.198870 0.150180 0.417130 3.000000
-0.113296 0.126223 0.424925 3.000000
0.091070 0.404804 0.184591 3.000000
0.169737 0.441425 -0.064379 3.000000
0.217983 -0.376145 -0.239900 3.000000
0.216527 0.425370 -0.135610 3.000000
0.216264 0.304323 -0.327864 3.000000
0.253491 0.441220 -0.065674 3.000000
0.059107 -0.036089 0.441563 3.000000
-0.145039 -0.100681 0.431406 3.000000
0.253834 0.422522 0.139983 3.000000
0.107570 0.445069 0.025776 3.000000
0.141884 -0.201768 -0.398786 3.000000
0.023911 -0.355849 -0.269157 3.000000
-0.041562 -0.401782 0.188947 3.000000
0.197326 0.305987 -0.326331 3.000000
0.209250 -0.437654 0.077366 3.000000
0.187563 0.309415 -0.322904 3.000000
-0.188973 -0.085012 -0.439262 3.000000
-0.196289 0.420495 -0.149965 3.000000
-0.120117 -0.443515 -0.035739 3.000000
0.131505 0.434960 -0.099502 3.000000
0.006705 -0.291116 -0.338604 3.000000
-0.107802 0.008983 -0.447346 3.000000
0.112153 -0.444224 0.020069 3.000000
-0.225919 -0.262597 0.357187 3.000000
0.060383 0.415902 -0.162723 3.000000
0.071082 -0.250763 -0.369707 3.000000
0.233557 0.234261 -0.381184 3.000000
0.116100 -0.227773 0.380062 3.000000
0.080071 0.377862 -0.238728 3.000000
0.199001 0.444711 -0.033927 3.000000
-0.287320 -0.419031 -0.151185 4.000000
0.227656 -0.372427 -0.245494 3.000000
0.081354 0.031373 0.442106 3.000000
-0.149392 0.414532 0.162111 3.000000
-0.036268 0.260996 0.359096 3.000000
0.028750 -0.311986 0.314955 3.000000
0.036848 -0.327762 -0.303053 3.000000
-0.039776 0.157420 -0.418876 3.000000
0.270461 0.262985 -0.362035 3.000000
0.045627 -0.428511 0.116919 3.000000
0.033905 0.416819 -0.160175 3.000000
-0.002613 -0.368868 0.246376 3.000000
0.094733 -0.040948 -0.445458 3.000000
-0.182747 0.376899 -0.240357 3.000000
0.269826 0.053456 0.440019 3.000000
0.286254 0.190841 -0.404876 1.000000
-0.255458 0.441950 -0.061064 3.000000
0.243198 -0.402873 0.186686 3.000000
0.133562 0.445390 0.015559 3.000000
-0.190838 -0.274332 -0.352439 3.000000
-0.208254 -0.357410 -0.267146 3.000000
-0.064692 0.382400 -0.231055 3.000000
-0.250310 0.443980 -0.041657 3.000000
-0.240241 -0.420528 0.142675 3.000000
0.114479 -0.075797 -0.440855 3.000000
-0.258893 0.418323 0.151646 3.000000
-0.141155 0.022486 0.442568 3.000000
-0.231835 -0.444529 -0.014700 3.000000
0.015941 -0.383638 -0.227229 3.000000
0.226809 0.426949 0.125825 3.000000
0.075446 -0.332606 0.293205 3.000000
0.135363 -0.435163 -0.094009 3.000000
0.242958 -0.396847 -0.202986 3.000000
0.121372 0.277209 -0.351002 3.000000
-0.265351 -0.237066 -0.378919 3.000000
0.264586 -0.370531 -0.248284 3.000000
0.255100 -0.177559 -0.410232 3.000000
-0.054220 0.095386 -0.437172 3.000000
-0.006193 -0.432538 -0.105750 3.000000
0.018335 -0.348332 -0.278849 3.000000
0.115978 -0.398171 -0.200388 3.000000
-0.128841 0.230391 0.379120 3.000000
-0.111264 -0.200959 0.394845 3.000000
-0.027617 -0.306004 0.320936 3.000000
-0.039121 0.441686 0.058381 3.000000
0.175967 -0.236465 -0.379274 3.000000
-0.150735 -0.125036 -0.429326 3.000000
-0.033804 -0.443081 -0.040325 3.000000
-0.179936 0.441185 -0.065896 3.000000
0.017510 -0.423952 -0.136965 3.000000
-0.025340 -0.170847 0.408783 3.000000
-0.082136 0.424290 -0.139330 3.000000
0.031130 0.422380 0.140376 3.000000
