0.286960 -0.456205 0.185643 1.000000
0.286960 0.400604 0.208011 1.000000
0.286960 -0.325494 0.312296 1.000000
0.286960 -0.066989 0.460538 1.000000
0.286960 -0.449203 0.071539 1.000000
0.286960 -0.395603 -0.244812 1.000000
0.286960 0.464642 -0.036208 1.000000
0.286960 -0.303486 -0.366809 1.000000
0.286960 -0.310427 0.333345 1.000000
0.286960 -0.457556 -0.052665 1.000000
0.286960 -0.133408 0.473423 1.000000
0.286960 0.149125 0.468423 1.000000
0.286960 0.259618 -0.372473 1.000000
0.286960 0.392426 -0.267989 1.000000
0.286960 0.357462 0.328393 1.000000
0.286960 0.032282 -0.484652 1.000000
0.286960 0.479846 0.100026 1.000000
0.286960 -0.477361 -0.064059 1.000000
0.286960 0.331628 0.329556 1.000000
0.286960 0.463528 -0.172963 1.000000
0.286960 -0.409222 0.174005 1.000000
0.286960 0.336620 0.316415 1.000000
0.286960 -0.225122 0.441648 1.000000
0.286960 -0.453667 -0.125163 1.000000
0.286960 -0.452545 0.160975 1.000000
0.286960 0.456378 -0.129928 1.000000
0.286960 0.183087 0.460980 1.000000
0.286960 -0.163323 -0.461506 1.000000
0.286960 -0.258302 0.360720 1.000000
0.286960 -0.260705 -0.373125 1.000000
0.286960 -0.333950 -0.335519 1.000000
0.286960 0.205914 -0.450637 1.000000
0.286960 -0.400840 -0.196194 1.000000
0.286960 -0.303561 -0.390238 1.000000
0.286960 0.489546 -0.049440 1.000000
0.286960 0.391505 0.227259 1.000000
0.286960 -0.418964 0.214696 1.000000
0.286960 0.161105 0.413849 1.000000
0.286960 -0.324298 -0.341634 1.000000
0.286960 0.455189 -0.037211 1.000000
0.286960 -0.486372 -0.022489 1.000000
0.286960 0.445987 0.023338 1.000000
0.286960 0.489063 0.065683 1.000000
0.286960 0.439816 -0.188774 1.000000
0.286960 -0.051801 0.456481 1.000000
0.286960 -0.476289 0.139205 1.000000
0.286960 -0.244806 0.426187 1.000000
0.286960 0.444690 0.073890 1.000000
0.286960 -0.490586 -0.033616 1.000000
0.286960 -0.049145 -0.485660 1.000000
0.286960 -0.024233 0.442731 1.000000
0.286960 0.387756 0.286665 1.000000
0.286960 0.031746 -0.446606 1.000000
0.286960 -0.462558 -0.090768 1.000000
0.286960 0.430343 0.226781 1.000000
0.286960 -0.464529 0.030172 1.000000
0.286960 0.101536 0.464839 1.000000
0.286960 -0.339419 0.285919 1.000000
0.286960 -0.458521 -0.189698 1.000000
0.286960 -0.464668 -0.009551 1.000000
0.286960 0.484249 -0.025653 1.000000
0.286960 0.336323 -0.335657 1.000000
0.286960 -0.306664 0.338044 1.000000
0.286960 0.458653 0.069413 1.000000
0.286960 -0.396852 -0.235086 1.000000
0.286960 -0.339694 -0.344719 1.000000
0.286960 0.362980 -0.287065 1.000000
0.286960 0.289104 -0.365763 1.000000
0.286960 -0.246440 0.376884 1.000000
0.286960 -0.468060 -0.040712 1.000000
0.286960 -0.433775 -0.130156 1.000000
0.286960 -0.459557 -0.092893 1.000000
0.286960 -0.136742 -0.428572 1.000000
0.286960 -0.016907 0.481232 1.000000
0.286960 -0.324659 0.365903 1.000000
0.286960 0.324450 0.363049 1.000000
0.286960 0.454336 0.157567 1.000000
0.286960 0.421079 -0.152875 1.000000
0.286960 -0.359865 0.314795 1.000000
0.286960 -0.406540 0.220677 1.000000
0.286960 -0.350849 0.305430 1.000000
0.286960 0.471962 -0.067564 1.000000
0.286960 -0.256362 -0.386463 1.000000
0.286960 0.417228 -0.263563 1.000000
0.286960 -0.411608 0.204722 1.000000
0.286960 -0.445748 0.122712 1.000000
0.286960 -0.444362 0.097091 1.000000
0.286960 -0.041550 0.488052 1.000000
0.286960 0.195750 -0.445225 1.000000
0.286960 0.470802 -0.057705 1.000000
0.286960 0.067175 -0.488164 1.000000
0.286960 -0.018094 -0.496126 1.000000
0.286960 -0.073703 -0.473297 1.000000
0.286960 -0.104482 -0.487170 1.000000
0.286960 0.201874 -0.407721 1.000000
0.286960 0.405115 0.215865 1.000000
0.286960 -0.445546 0.073146 1.000000
0.286960 -0.056576 -0.470571 1.000000
0.286960 0.267848 -0.379014 1.000000
0.286960 -0.434617 0.182967 1.000000
0.286960 0.476596 0.108861 1.000000
0.286960 -0.443689 -0.219400 1.000000
0.286960 -0.343141 -0.344360 1.000000
0.286960 -0.091836 0.446033 1.000000
0.286960 0.457174 -0.189811 1.000000
0.286960 -0.287090 0.394591 1.000000
0.286960 0.448886 -0.180968 1.000000
0.286960 0.420152 -0.238371 1.000000
0.286960 0.420017 0.151882 1.000000
0.286960 -0.268925 -0.374686 1.000000
0.286960 -0.224709 -0.403187 1.000000
0.286960 -0.457495 0.105170 1.000000
0.286960 0.496269 -0.021936 1.000000
0.286960 -0.224022 -0.425831 1.000000
0.286960 -0.360732 -0.300221 1.000000
0.286960 -0.317859 -0.338902 1.000000
0.286960 0.252907 -0.421665 1.000000
0.286960 0.118076 -0.485352 1.000000
0.286960 -0.184886 -0.443894 1.000000
0.286960 -0.427379 0.121598 1.000000
0.286960 0.359790 -0.281303 1.000000
0.286960 -0.282026 0.363006 1.000000
0.286960 -0.369507 -0.329652 1.000000
0.286960 -0.329508 0.330061 1.000000
0.286960 -0.377036 0.288000 1.000000
0.286960 -0.381278 -0.297970 1.000000
0.286960 -0.083322 0.471638 1.000000
0.286960 0.433587 -0.197316 1.000000
0.286960 0.222268 0.396319 1.000000
0.286960 0.433804 0.121914 1.000000
0.286960 0.387849 -0.270144 1.000000
0.286960 -0.362627 -0.320439 1.000000
0.286960 0.406472 0.220364 1.000000
0.286960 0.371944 0.249073 1.000000
0.286960 -0.425013 0.171613 1.000000
0.286960 0.480405 -0.066168 1.000000
0.286960 0.232315 -0.406883 1.000000
0.286960 -0.194725 0.419946 1.000000
0.286960 0.197931 0.402541 1.000000
0.286960 0.401616 -0.273708 1.000000
0.286960 -0.489357 -0.036506 1.000000
0.286960 0.415233 0.263154 1.000000
0.286960 0.151119 -0.463412 1.000000
0.286960 0.152156 -0.433410 1.000000
0.286960 0.382232 0.310021 1.000000
0.286960 -0.271572 0.387419 1.000000
0.286960 0.344437 -0.308585 1.000000
0.286960 0.311841 0.371711 1.000000
0.286960 -0.219199 0.429696 1.000000
0.286960 -0.113478 -0.486331 1.000000
0.286960 -0.205626 -0.432819 1.000000
0.286960 -0.103233 0.466460 1.000000
0.286960 0.127532 -0.461446 1.000000
0.286960 0.146632 0.444589 1.000000
0.286960 0.418660 0.253244 1.000000
0.286960 -0.156975 -0.468178 1.000000
0.286960 -0.462601 0.009860 1.000000
0.286960 -0.324218 -0.378870 1.000000
0.286960 0.479682 0.011900 1.000000
0.286960 0.336951 0.357455 1.000000
0.286960 0.478151 -0.063889 1.000000
0.286960 -0.375927 0.323588 1.000000
0.286960 0.307017 -0.394594 1.000000
0.286960 -0.229570 -0.401828 1.000000
0.286960 0.056741 0.441929 1.000000
0.286960 0.016758 0.455835 1.000000
0.286960 -0.452132 0.193009 1.000000
0.286960 -0.411158 -0.274593 1.000000
0.286960 0.475110 -0.065560 1.000000
0.286960 0.177948 0.432523 1.000000
0.286960 -0.477399 0.067988 1.000000
0.286960 -0.457414 -0.127312 1.000000
0.286960 0.457711 0.038426 1.000000
0.286960 0.418096 0.202130 1.000000
0.286960 0.207475 -0.431865 1.000000
0.286960 0.448050 -0.035454 1.000000
0.286960 0.302633 -0.358282 1.000000
0.286960 0.027876 -0.481056 1.000000
0.286960 0.296736 -0.347508 1.000000
0.286960 0.453678 0.065623 1.000000
0.286960 -0.340629 -0.326578 1.000000
0.286960 -0.009922 0.482628 1.000000
0.286960 -0.359145 -0.271935 1.000000
0.286960 -0.445590 -0.182417 1.000000
0.286960 0.445799 0.143949 1.000000
0.286960 0.336736 0.290437 1.000000
0.286960 -0.248906 0.388483 1.000000
0.286960 0.444955 -0.191556 1.000000
0.286960 0.414870 0.173172 1.000000
0.286960 -0.321008 0.341485 1.000000
0.286960 0.362519 -0.317308 1.000000
0.286960 0.106337 0.442256 1.000000
0.286960 0.405408 -0.197200 1.000000
0.286960 -0.394126 0.236588 1.000000
0.286960 -0.039168 -0.497037 1.000000
0.286960 0.350963 0.282477 1.000000
0.286960 -0.366824 -0.323924 1.000000
0.286960 0.472270 0.137246 1.000000
0.286960 0.266569 0.373049 1.000000
0.286960 -0.431615 -0.234613 1.000000
0.286960 -0.421059 0.232003 1.000000
0.286960 -0.221972 0.418816 1.000000
0.286960 0.213555 0.421714 1.000000
0.286960 0.195060 -0.428644 1.000000
0.286960 0.304611 -0.340874 1.000000
0.286960 -0.048083 0.467391 1.000000
0.286960 -0.046640 -0.496747 1.000000
0.286960 -0.314415 -0.356733 1.000000
0.286960 -0.204774 0.444868 1.000000
0.286960 -0.477385 0.084846 1.000000
0.286960 -0.418471 -0.213523 1.000000
0.286960 -0.459476 0.139097 1.000000
0.286960 -0.350871 -0.303616 1.000000
0.286960 0.333675 -0.367809 1.000000
0.286960 -0.078484 0.489197 1.000000
0.286960 0.287529 0.346342 1.000000
0.286960 0.484393 0.114423 1.000000
0.286960 -0.379292 0.319185 1.000000
0.286960 0.041769 -0.451965 1.000000
0.286960 0.436056 -0.200307 1.000000
0.286960 -0.218086 -0.441510 1.000000
0.286960 0.288579 0.352268 1.000000
0.286960 -0.170463 0.414479 1.000000
0.286960 -0.367352 0.283299 1.000000
0.286960 -0.354637 0.268919 1.000000
0.286960 0.179726 -0.431539 1.000000
0.286960 0.237171 0.422525 1.000000
0.286960 0.481258 -0.130193 1.000000
0.286960 -0.457554 -0.035256 1.000000
0.286960 -0.273828 0.373624 1.000000
0.286960 0.230574 0.439146 1.000000
0.286960 -0.416695 0.222390 1.000000
0.286960 -0.277811 0.394933 1.000000
0.286960 0.123655 0.429299 1.000000
0.286960 0.474613 0.134580 1.000000
0.286960 -0.448371 -0.124231 1.000000
0.286960 0.483862 0.036195 1.000000
0.286960 0.471141 0.104604 1.000000
0.286960 -0.082787 0.467078 1.000000
0.286960 -0.041504 -0.477183 1.000000
0.286960 0.352625 0.270941 1.000000
0.286960 -0.141654 -0.430963 1.000000
0.286960 -0.015487 0.489655 1.000000
0.286960 0.476355 0.119089 1.000000
0.286960 0.471369 -0.033015 1.000000
0.286960 -0.136871 0.469909 1.000000
0.286960 -0.065955 -0.485500 1.000000
0.286960 -0.124900 0.466717 1.000000
0.286960 0.286694 0.341686 1.000000
0.286960 -0.363896 0.275896 1.000000
0.286960 0.430218 0.232483 1.000000
0.286960 0.365355 0.311931 1.000000
0.286960 -0.126383 -0.457731 1.000000
0.286960 -0.423874 -0.239741 1.000000
0.286960 -0.450844 0.146156 1.000000
0.286960 -0.253256 -0.376120 1.000000
0.286960 -0.260317 0.406888 1.000000
0.286960 0.468563 0.016562 1.000000
0.286960 -0.483004 0.020491 1.000000
0.286960 -0.404906 0.286457 1.000000
0.286960 -0.230616 -0.431099 1.000000
0.286960 0.137351 0.425226 1.000000
0.286960 0.119097 -0.473521 1.000000
0.286960 -0.455512 -0.071718 1.000000
0.286960 -0.236951 -0.396822 1.000000
0.286960 -0.018329 0.468256 1.000000
0.286960 0.381550 -0.282121 1.000000
0.286960 -0.216164 0.438002 1.000000
0.286960 -0.327945 0.352703 1.000000
0.286960 0.005970 -0.466593 1.000000
0.286960 0.256543 -0.428322 1.000000
0.286960 -0.259179 -0.368604 1.000000
0.286960 0.368287 0.279903 1.000000
0.286960 0.023712 0.481463 1.000000
0.286960 -0.444574 0.149663 1.000000
0.286960 -0.338793 -0.314036 1.000000
0.286960 -0.054814 -0.480848 1.000000
0.286960 0.408149 0.179717 1.000000
0.286960 -0.332124 -0.365916 1.000000
0.286960 -0.332970 -0.354995 1.000000
0.286960 0.424839 -0.210457 1.000000
0.286960 -0.033665 0.478444 1.000000
0.286960 -0.440922 0.141738 1.000000
0.286960 0.156846 -0.424228 1.000000
0.286960 0.010574 0.463074 1.000000
0.286960 0.247921 0.371276 1.000000
0.286960 -0.417336 -0.272657 1.000000
0.286960 0.490013 -0.076335 1.000000
0.286960 0.395256 0.289334 1.000000
0.286960 -0.490512 -0.079820 1.000000
0.286960 -0.198163 0.447103 1.000000
0.286960 0.365124 -0.299232 1.000000
0.286960 0.443006 0.111353 1.000000
0.286960 0.154346 -0.449396 1.000000
0.286960 0.198330 -0.419930 1.000000
0.286960 0.304698 0.364665 1.000000
0.286960 -0.173343 0.411972 1.000000
0.286960 0.100203 0.470488 1.000000
0.286960 0.301673 0.344470 1.000000
0.286960 -0.394265 -0.277821 1.000000
0.286960 -0.343510 0.342012 1.000000
0.286960 -0.353978 0.316054 1.000000
0.286960 0.285844 -0.377188 1.000000
0.286960 0.166221 0.464744 1.000000
0.286960 -0.408122 -0.208589 1.000000
0.286960 -0.189741 0.434905 1.000000
0.286960 0.380482 0.297848 1.000000
0.286960 -0.399496 0.223793 1.000000
0.286960 0.424410 -0.228298 1.000000
0.286960 0.044610 0.441393 1.000000
0.286960 0.350404 -0.354760 1.000000
0.286960 -0.420039 0.189395 1.000000
0.286960 0.299745 -0.350273 1.000000
0.286960 0.016165 -0.452736 1.000000
0.286960 -0.171534 0.420710 1.000000
0.286960 0.489393 -0.091190 1.000000
0.286960 0.388784 0.230845 1.000000
0.286960 -0.403573 -0.262226 1.000000
0.286960 -0.415580 0.156598 1.000000
0.286960 -0.442492 0.178551 1.000000
0.286960 -0.495258 0.041378 1.000000
0.286960 -0.040810 0.456242 1.000000
0.286960 -0.156870 -0.441053 1.000000
0.286960 0.415390 0.270864 1.000000
0.286960 0.457051 -0.185534 1.000000
0.286960 -0.072426 -0.494468 1.000000
0.286960 -0.372561 -0.290845 1.000000
0.286960 -0.201537 -0.430710 1.000000
0.286960 0.050402 0.451811 1.000000
0.286960 0.134440 -0.481565 1.000000
0.286960 -0.074914 0.468723 1.000000
0.286960 -0.232626 0.423445 1.000000
0.286960 0.062471 0.490704 1.000000
0.286960 0.427620 0.223688 1.000000
0.286960 0.051599 0.477914 1.000000
0.286960 0.055220 0.453714 1.000000
0.286960 0.340009 -0.365889 1.000000
0.286960 -0.392239 0.245612 1.000000
0.286960 0.339812 0.306943 1.000000
0.286960 -0.333683 -0.304925 1.000000
0.286960 0.476911 -0.032843 1.000000
0.286960 0.383683 0.235203 1.000000
0.286960 -0.436228 0.086027 1.000000
0.286960 -0.428619 0.130861 1.000000
0.286960 -0.214633 0.410950 1.000000
0.286960 -0.496603 0.025897 1.000000
0.286960 -0.162403 0.467871 1.000000
0.286960 -0.450441 -0.127124 1.000000
0.286960 -0.107346 -0.441619 1.000000
0.286960 -0.056311 -0.454756 1.000000
0.286960 0.464354 -0.122519 1.000000
0.286960 -0.023660 -0.485721 1.000000
0.286960 -0.424284 -0.211112 1.000000
0.286960 0.275226 0.361128 1.000000
0.286960 -0.232671 -0.433887 1.000000
0.286960 -0.397438 -0.300384 1.000000
0.286960 0.173279 0.409771 1.000000
0.286960 -0.385703 0.257132 1.000000
0.286960 -0.434450 0.175067 1.000000
0.286960 -0.386195 0.233767 1.000000
0.286960 0.206437 0.431731 1.000000
0.286960 0.193726 0.429803 1.000000
0.286960 0.345575 -0.295728 1.000000
0.286960 -0.315765 -0.316412 1.000000
0.286960 0.197964 -0.442478 1.000000
0.286960 -0.457708 -0.074215 1.000000
0.286960 -0.445444 0.024639 1.000000
0.286960 -0.456142 -0.060011 1.000000
0.286960 -0.238043 -0.428887 1.000000
0.286960 -0.158757 -0.446415 1.000000
0.286960 -0.146850 -0.462316 1.000000
0.286960 0.448356 0.026573 1.000000
0.286960 0.098490 0.465689 1.000000
0.286960 -0.143519 -0.424509 1.000000
0.286960 0.023939 -0.494799 1.000000
0.286960 -0.401374 0.203513 1.000000
0.286960 -0.301154 0.364665 1.000000
0.286960 0.477120 0.124200 1.000000
0.286960 0.024158 0.463185 1.000000
0.286960 0.346486 -0.356062 1.000000
0.286960 0.190681 0.440287 1.000000
0.286960 -0.444464 0.136410 1.000000
0.286960 -0.330622 -0.371835 1.000000
0.286960 0.462572 0.114457 1.000000
0.286960 -0.159256 -0.438780 1.000000
0.286960 0.447160 -0.171802 1.000000
0.286960 0.415398 -0.273387 1.000000
0.286960 0.043883 -0.479017 1.000000
0.286960 0.413378 -0.220394 1.000000
0.286960 0.152071 0.470386 1.000000
0.286960 -0.064886 -0.471654 1.000000
0.286960 0.023689 -0.487726 1.000000
0.286960 0.418383 0.224651 1.000000
0.286960 0.482536 0.119990 1.000000
0.286960 -0.478892 -0.098759 1.000000
0.286960 0.105619 -0.470390 1.000000
0.286960 0.177624 0.423699 1.000000
0.286960 0.264431 0.377895 1.000000
0.286960 -0.194242 -0.451534 1.000000
0.286960 0.171057 -0.422359 1.000000
0.286960 0.311235 0.379977 1.000000
0.286960 0.401635 -0.218824 1.000000
0.286960 0.427889 -0.129043 1.000000
0.286960 -0.136236 0.457776 1.000000
0.286960 0.184895 0.432318 1.000000
0.286960 -0.390969 0.263408 1.000000
0.286960 -0.412603 -0.262104 1.000000
0.286960 -0.071468 -0.459634 1.000000
0.286960 -0.230606 -0.387039 1.000000
0.286960 0.478673 -0.090793 1.000000
0.286960 -0.109638 -0.435281 1.000000
0.286960 0.258657 -0.418312 1.000000
0.286960 -0.352345 -0.342891 1.000000
0.286960 -0.484179 0.047528 1.000000
0.286960 -0.477749 0.043957 1.000000
0.286960 -0.436216 -0.215088 1.000000
0.286960 -0.208668 -0.421310 1.000000
0.286960 0.397549 -0.294025 1.000000
0.286960 0.384468 -0.297163 1.000000
0.286960 -0.144824 -0.437237 1.000000
0.286960 -0.367532 0.270058 1.000000
0.286960 0.138183 0.428334 1.000000
0.286960 0.080202 -0.479078 1.000000
0.286960 -0.126316 -0.432977 1.000000
0.286960 0.265549 0.358844 1.000000
0.286960 -0.437054 -0.122422 1.000000
0.286960 0.268325 -0.358160 1.000000
0.286960 -0.470744 -0.161565 1.000000
0.286960 -0.439615 -0.150576 1.000000
0.286960 -0.302411 0.369659 1.000000
0.286960 -0.167673 -0.441533 1.000000
0.286960 -0.421539 -0.173684 1.000000
0.286960 -0.364311 0.259804 1.000000
0.286960 0.421339 0.226887 1.000000
0.286960 0.125886 -0.472438 1.000000
0.286960 0.091136 0.487322 1.000000
0.286960 -0.198888 -0.447175 1.000000
0.286960 -0.201318 0.435148 1.000000
0.286960 0.447096 -0.116594 1.000000
0.286960 0.322826 0.355828 1.000000
0.286960 0.002504 -0.492592 1.000000
0.286960 -0.210014 0.443165 1.000000
0.286960 0.430643 0.122628 1.000000
0.286960 -0.331382 0.362606 1.000000
0.286960 -0.465348 0.136105 1.000000
0.286960 -0.326921 -0.320403 1.000000
0.286960 -0.416707 -0.261929 1.000000
0.286960 0.340397 0.360495 1.000000
0.286960 0.257680 -0.414545 1.000000
0.286960 -0.171490 -0.430496 1.000000
0.286960 -0.345129 -0.311600 1.000000
0.286960 0.206321 0.414317 1.000000
0.286960 -0.465035 0.004255 1.000000
0.286960 0.339865 -0.353085 1.000000
0.286960 0.396917 -0.297651 1.000000
0.286960 -0.191598 -0.441684 1.000000
0.286960 0.476181 -0.101844 1.000000
0.286960 -0.352863 -0.310321 1.000000
0.286960 0.393102 0.265464 1.000000
0.286960 -0.095677 0.459388 1.000000
0.286960 0.444419 0.035808 1.000000
0.286960 -0.070685 0.452827 1.000000
0.286960 -0.491091 0.065293 1.000000
0.286960 -0.321852 0.364529 1.000000
0.286960 0.257193 0.402978 1.000000
0.286960 -0.424087 0.153626 1.000000
0.286960 0.231723 -0.410871 1.000000
0.286960 0.437802 -0.101489 1.000000
0.286960 -0.039843 0.485327 1.000000
0.286960 -0.238185 0.434840 1.000000
0.286960 0.482740 0.086022 1.000000
0.286960 0.282400 -0.397382 1.000000
0.286960 -0.353105 0.281269 1.000000
0.286960 0.242270 -0.417034 1.000000
0.286960 -0.191505 0.428100 1.000000
0.286960 0.005244 -0.455828 1.000000
0.286960 -0.134083 0.435029 1.000000
0.286960 -0.130634 -0.460616 1.000000
0.286960 0.467415 -0.121363 1.000000
0.286960 0.292569 -0.373808 1.000000
0.286960 0.178410 0.412317 1.000000
0.286960 0.162187 -0.462698 1.000000
0.286960 0.061349 0.454179 1.000000
0.286960 0.288014 0.378787 1.000000
0.286960 0.477008 0.105629 1.000000
0.286960 -0.408155 0.241028 1.000000
0.286960 0.422358 0.207679 1.000000
0.286960 0.329138 -0.372002 1.000000
0.286960 -0.469311 0.098111 1.000000
0.286960 0.255388 -0.396661 1.000000
0.286960 0.343879 0.293512 1.000000
0.286960 -0.390705 -0.235207 1.000000
0.286960 -0.441235 -0.212015 1.000000
0.286960 0.264278 0.408054 1.000000
0.286960 0.450624 0.011322 1.000000
0.286960 0.440722 -0.076474 1.000000
0.286960 0.180186 -0.442291 1.000000
0.286960 -0.073203 -0.466781 1.000000
0.286960 0.282683 0.363808 1.000000
0.286960 0.379190 -0.276412 1.000000
0.286960 0.349947 0.308784 1.000000
0.286960 0.224227 0.383242 1.000000
0.286960 0.059807 -0.444300 1.000000
0.286960 0.028512 0.478182 1.000000
0.286960 0.493213 0.036589 1.000000
0.286960 0.481360 -0.094546 1.000000
0.286960 0.278985 0.379950 1.000000
0.286960 -0.448480 -0.091827 1.000000
0.286960 -0.395931 -0.269744 1.000000
0.286960 0.239130 -0.378603 1.000000
0.286960 -0.412573 0.237938 1.000000
0.286960 -0.431665 -0.240965 1.000000
0.286960 0.274787 -0.405022 1.000000
0.286960 -0.380859 0.259238 1.000000
0.286960 -0.409217 -0.261584 1.000000
0.286960 0.012285 -0.451875 1.000000
0.286960 -0.484613 -0.069746 1.000000
0.286960 -0.107040 -0.450312 1.000000
0.286960 -0.278899 -0.398926 1.000000
0.286960 0.147091 -0.441599 1.000000
0.286960 -0.453842 -0.083990 1.000000
0.286960 0.467069 0.105570 1.000000
0.286960 0.414554 0.209349 1.000000
0.286960 -0.459191 -0.014660 1.000000
0.286960 0.471155 -0.043938 1.000000
0.286960 -0.482044 0.086718 1.000000
0.286960 0.321318 0.339966 1.000000
0.286960 0.082914 0.467179 1.000000
0.286960 0.225904 0.396294 1.000000
0.286960 0.469722 -0.047908 1.000000
0.286960 0.094999 -0.448123 1.000000
0.286960 0.246487 -0.379767 1.000000
0.286960 0.191244 0.443665 1.000000
0.286960 -0.408114 0.232355 1.000000
0.286960 0.082770 -0.442272 1.000000
0.286960 0.336527 0.329830 1.000000
0.286960 -0.148073 -0.465641 1.000000
0.286960 -0.128413 0.477798 1.000000
0.286960 -0.126811 0.439401 1.000000
0.286960 0.397462 0.297018 1.000000
0.286960 0.267393 -0.365943 1.000000
0.286960 -0.464125 -0.003384 1.000000
0.286960 -0.471217 0.145679 1.000000
0.286960 -0.459703 0.042520 1.000000
0.286960 -0.089354 -0.487228 1.000000
0.286960 -0.379112 0.303008 1.000000
0.286960 -0.035684 0.490834 1.000000
0.286960 0.406470 0.261538 1.000000
0.286960 -0.120515 -0.442713 1.000000
0.286960 0.200126 0.421427 1.000000
0.286960 -0.148128 -0.447732 1.000000
0.286960 -0.424863 0.230279 1.000000
0.286960 0.440960 0.228835 1.000000
0.286960 0.158687 0.430388 1.000000
0.286960 -0.238112 -0.381443 1.000000
0.286960 0.459807 -0.031100 1.000000
0.286960 0.209589 -0.438835 1.000000
0.286960 0.067306 -0.454344 1.000000
0.286960 -0.061835 -0.451408 1.000000
0.286960 0.020633 0.480931 1.000000
0.286960 -0.129872 0.446836 1.000000
0.286960 0.453280 -0.154952 1.000000
0.286960 0.381403 -0.307764 1.000000
0.286960 0.475807 0.027717 1.000000
0.286960 0.478619 0.035237 1.000000
0.286960 -0.063277 0.440913 1.000000
0.286960 0.151027 0.451369 1.000000
0.286960 0.177858 -0.427603 1.000000
0.286960 0.075000 0.467311 1.000000
0.286960 -0.205778 -0.451076 1.000000
0.286960 0.402502 0.289028 1.000000
0.286960 -0.417325 0.166569 1.000000
0.286960 0.045629 0.462531 1.000000
0.286960 0.186048 0.426176 1.000000
0.286960 -0.247432 0.400460 1.000000
0.286960 -0.195331 -0.441394 1.000000
0.286960 -0.266313 -0.395138 1.000000
0.286960 -0.054484 -0.445666 1.000000
0.286960 0.448533 0.152183 1.000000
0.286960 0.094569 0.441229 1.000000
0.286960 -0.448665 0.126669 1.000000
0.286960 -0.456127 0.050502 1.000000
0.286960 0.348608 -0.283377 1.000000
0.286960 -0.346261 -0.319532 1.000000
0.286960 0.252467 -0.376633 1.000000
0.286960 0.085817 0.463240 1.000000
0.286960 -0.200559 -0.422534 1.000000
0.286960 0.292272 -0.339971 1.000000
0.286960 -0.106850 -0.445013 1.000000
0.286960 0.266370 -0.374576 1.000000
0.286960 0.466536 -0.072351 1.000000
0.286960 0.448908 0.076442 1.000000
0.286960 -0.435901 -0.171344 1.000000
0.286960 0.104260 0.445897 1.000000
0.286960 0.493162 0.014479 1.000000
0.286960 0.470038 0.070260 1.000000
0.286960 -0.483722 0.092403 1.000000
0.286960 -0.434331 -0.164566 1.000000
0.286960 -0.484943 -0.103579 1.000000
0.286960 -0.436952 -0.228594 1.000000
0.286960 0.026540 0.448199 1.000000
0.286960 0.269715 -0.407340 1.000000
0.286960 -0.483966 -0.092325 1.000000
0.286960 -0.147654 -0.440440 1.000000
0.286960 -0.273718 0.350699 1.000000
0.286960 -0.077008 -0.452638 1.000000
0.286960 0.058985 0.452017 1.000000
0.286960 -0.120692 -0.447221 1.000000
0.286960 0.049590 0.440920 1.000000
0.286960 0.317597 -0.367730 1.000000
0.286960 0.167311 0.443100 1.000000
0.286960 -0.149735 0.421044 1.000000
0.286960 0.464151 0.126247 1.000000
0.286960 -0.043829 -0.451137 1.000000
0.286960 0.446181 -0.128632 1.000000
0.286960 -0.024846 -0.493589 1.000000
0.286960 -0.356757 -0.313174 1.000000
0.286960 0.251775 0.382025 1.000000
0.286960 0.120024 0.460518 1.000000
0.286960 -0.191830 -0.420010 1.000000
0.286960 -0.293475 -0.375894 1.000000
0.286960 -0.244336 0.391288 1.000000
0.286960 -0.041141 -0.454444 1.000000
0.286960 -0.041549 -0.485500 1.000000
0.286960 0.429176 0.237630 1.000000
0.286960 0.434530 -0.193219 1.000000
0.286960 -0.016961 0.460298 1.000000
0.286960 -0.193386 -0.446112 1.000000
0.286960 0.200950 0.428450 1.000000
0.286960 -0.467729 -0.030378 1.000000
0.286960 -0.264592 0.366317 1.000000
0.286960 0.468481 0.055433 1.000000
0.286960 -0.422555 0.144536 1.000000
0.286960 0.443960 -0.147730 1.000000
0.286960 0.406201 0.207267 1.000000
0.286960 -0.228288 -0.390198 1.000000
0.286960 0.480370 0.015878 1.000000
0.286960 0.367157 0.256425 1.000000
0.286960 -0.279983 -0.358711 1.000000
0.286960 -0.414535 0.232863 1.000000
0.286960 -0.183049 -0.435008 1.000000
0.286960 0.469862 -0.041183 1.000000
0.286960 -0.418034 -0.157904 1.000000
0.286960 -0.028456 -0.486285 1.000000
0.286960 0.208006 -0.454973 1.000000
0.286960 -0.241532 0.394197 1.000000
0.286960 -0.249497 -0.424905 1.000000
0.286960 -0.110030 0.455097 1.000000
0.286960 -0.439757 0.065307 1.000000
0.286960 -0.431807 -0.110087 1.000000
0.286960 -0.336881 -0.322342 1.000000
0.286960 0.417199 -0.192080 1.000000
0.286960 -0.172253 -0.458646 1.000000
0.286960 0.201071 -0.429758 1.000000
0.286960 0.020477 -0.481106 1.000000
0.286960 -0.392771 -0.265693 1.000000
0.286960 -0.225537 -0.417824 1.000000
0.286960 0.389985 0.289183 1.000000
0.286960 0.325232 0.303115 1.000000
0.286960 0.401217 0.240906 1.000000
0.286960 -0.461933 0.019056 1.000000
0.286960 -0.473606 -0.072294 1.000000
0.286960 0.046264 0.445863 1.000000
0.286960 -0.437379 -0.131361 1.000000
0.286960 -0.136222 -0.435344 1.000000
0.286960 0.472577 -0.071484 1.000000
0.286960 0.436633 0.180893 1.000000
0.286960 -0.181859 -0.464652 1.000000
0.286960 0.451050 0.180367 1.000000
0.286960 -0.445180 -0.155889 1.000000
0.286960 -0.170265 0.446580 1.000000
0.286960 -0.463212 0.105697 1.000000
0.286960 0.196812 0.422723 1.000000
0.286960 -0.485701 -0.064610 1.000000
0.286960 0.325053 0.340492 1.000000
0.286960 -0.167170 -0.449038 1.000000
0.286960 -0.441374 0.128094 1.000000
0.286960 -0.048810 0.454784 1.000000
0.286960 -0.453433 0.103586 1.000000
0.286960 0.319155 0.328278 1.000000
0.286960 -0.443081 -0.051474 1.000000
0.286960 0.346504 0.297275 1.000000
0.286960 -0.472168 0.021625 1.000000
0.286960 0.468038 -0.076075 1.000000
0.286960 0.339945 0.311175 1.000000
0.286960 -0.067214 -0.482138 1.000000
0.286960 -0.335880 0.314348 1.000000
0.286960 -0.306431 0.359216 1.000000
0.286960 -0.318050 -0.327252 1.000000
0.286960 0.000236 0.466874 1.000000
0.286960 0.402431 -0.228821 1.000000
0.286960 0.465140 -0.101413 1.000000
0.286960 0.261192 0.401942 1.000000
0.286960 0.129547 -0.432753 1.000000
0.286960 -0.446507 0.039508 1.000000
0.286960 -0.238969 -0.420670 1.000000
0.286960 -0.436877 0.180046 1.000000
0.286960 -0.372510 0.309255 1.000000
0.286960 0.168274 0.420239 1.000000
0.286960 -0.139647 0.459924 1.000000
0.286960 0.474506 0.011759 1.000000
0.286960 -0.456864 -0.027304 1.000000
0.286960 0.335333 0.293368 1.000000
0.286960 0.323308 -0.372343 1.000000
0.286960 -0.438000 -0.174906 1.000000
0.286960 -0.223392 0.410187 1.000000
0.286960 -0.353593 0.327574 1.000000
0.286960 0.481059 -0.027823 1.000000
0.286960 0.473118 0.054495 1.000000
0.286960 -0.444794 0.218066 1.000000
0.286960 0.319156 0.357954 1.000000
0.286960 0.321840 -0.368193 1.000000
0.286960 0.198907 -0.451061 1.000000
0.286960 0.272709 -0.408929 1.000000
0.286960 -0.313561 -0.327167 1.000000
0.286960 0.049941 0.486004 1.000000
0.286960 -0.098243 0.453954 1.000000
0.286960 -0.418093 0.218671 1.000000
0.286960 0.459935 -0.172077 1.000000
0.286960 0.259589 0.366529 1.000000
0.286960 -0.296981 0.385817 1.000000
0.286960 0.014006 0.458710 1.000000
0.286960 -0.009166 -0.459186 1.000000
0.286960 -0.452982 -0.015679 1.000000
0.286960 0.490991 -0.034538 1.000000
0.286960 -0.210645 0.394682 1.000000
0.286960 -0.308155 -0.342946 1.000000
0.286960 0.430917 0.113890 1.000000
0.286960 -0.104859 0.469319 1.000000
0.286960 0.371615 0.313271 1.000000
0.286960 0.212693 0.391932 1.000000
0.286960 0.424710 0.136564 1.000000
0.286960 0.456412 0.063058 1.000000
0.286960 -0.362435 -0.266122 1.000000
0.286960 0.002888 0.486128 1.000000
0.286960 0.140442 -0.463283 1.000000
0.286960 -0.419715 -0.149836 1.000000
0.286960 0.101366 0.482869 1.000000
0.286960 -0.325816 -0.305810 1.000000
0.286960 0.242054 0.394563 1.000000
0.286960 0.263202 -0.423442 1.000000
0.286960 0.284445 0.355335 1.000000
0.286960 -0.444319 -0.210773 1.000000
0.286960 -0.460859 -0.136314 1.000000
0.286960 0.224890 0.388765 1.000000
0.286960 -0.361774 0.328259 1.000000
0.286960 0.192056 -0.404574 1.000000
0.286960 0.399081 0.214691 1.000000
0.286960 -0.045893 0.480234 1.000000
0.286960 -0.377022 0.237609 1.000000
0.286960 0.438984 -0.080180 1.000000
0.286960 -0.008819 0.462646 1.000000
0.286960 0.442917 0.107679 1.000000
0.286960 -0.422473 0.185881 1.000000
0.286960 0.458613 -0.197007 1.000000
0.286960 0.248633 0.397390 1.000000
0.286960 0.094978 0.479753 1.000000
0.286960 0.380387 -0.264422 1.000000
0.286960 0.436468 -0.185948 1.000000
0.286960 -0.454140 0.145023 1.000000
0.286960 -0.440758 -0.168498 1.000000
0.286960 -0.257414 -0.374127 1.000000
0.286960 0.437616 0.229356 1.000000
0.286960 -0.140364 0.451280 1.000000
0.286960 0.452631 -0.034025 1.000000
0.286960 -0.075013 0.471857 1.000000
0.286960 0.203237 -0.432849 1.000000
0.286960 0.459956 -0.191295 1.000000
0.286960 0.485428 0.064443 1.000000
0.286960 -0.203875 -0.424208 1.000000
0.286960 0.071027 0.437955 1.000000
0.286960 -0.481049 -0.042459 1.000000
0.286960 -0.237889 0.429282 1.000000
0.286960 0.087708 -0.479594 1.000000
0.286960 0.322188 0.365301 1.000000
0.286960 0.150655 0.435600 1.000000
0.286960 0.261733 -0.415853 1.000000
0.286960 0.271122 -0.398347 1.000000
0.286960 0.379589 0.263995 1.000000
0.286960 -0.382827 -0.269814 1.000000
0.286960 0.444139 0.178577 1.000000
0.286960 0.204667 0.425118 1.000000
0.286960 -0.237683 -0.403780 1.000000
0.286960 0.075547 -0.470031 1.000000
0.286960 -0.224218 0.432678 1.000000
0.286960 0.354384 -0.279633 1.000000
0.286960 -0.330543 -0.343735 1.000000
0.286960 -0.339347 -0.337602 1.000000
0.286960 -0.430769 -0.212402 1.000000
0.286960 -0.446833 0.118891 1.000000
0.286960 -0.467349 0.118191 1.000000
0.286960 0.427754 0.190395 1.000000
0.286960 0.027399 0.488038 1.000000
0.286960 0.372757 0.310249 1.000000
0.286960 0.405803 -0.213748 1.000000
0.286960 -0.189791 0.417342 1.000000
0.286960 0.053886 -0.488698 1.000000
0.286960 -0.449683 0.203780 1.000000
0.286960 0.294514 0.360190 1.000000
0.286960 0.487381 0.017130 1.000000
0.286960 0.362511 0.268525 1.000000
0.286960 -0.152648 0.441522 1.000000
0.286960 -0.262046 0.416052 1.000000
0.286960 -0.330330 -0.334261 1.000000
0.286960 0.033760 -0.456773 1.000000
0.286960 -0.327385 -0.347917 1.000000
0.286960 -0.274741 0.358058 1.000000
0.286960 0.479522 0.108083 1.000000
0.286960 0.336211 -0.307322 1.000000
0.286960 0.440572 -0.142883 1.000000
0.286960 -0.436110 0.117801 1.000000
0.286960 0.299351 0.376336 1.000000
0.286960 0.264508 -0.367440 1.000000
0.286960 -0.497205 0.000545 1.000000
0.286960 0.363955 0.314839 1.000000
0.286960 -0.387720 -0.236101 1.000000
0.286960 0.094187 0.438029 1.000000
0.286960 0.217818 0.445843 1.000000
0.286960 0.314371 0.320087 1.000000
0.286960 0.192580 -0.446460 1.000000
0.286960 0.116086 -0.481303 1.000000
0.286960 0.178992 -0.463129 1.000000
0.286960 0.244253 -0.421690 1.000000
0.286960 -0.259302 0.397687 1.000000
0.286960 0.237233 -0.382169 1.000000
0.286960 -0.344069 -0.333714 1.000000
0.286960 0.439655 0.086163 1.000000
0.286960 0.417244 -0.239771 1.000000
0.286960 -0.162539 -0.442875 1.000000
0.286960 -0.399431 -0.232074 1.000000
0.286960 0.290205 -0.369911 1.000000
0.286960 0.425821 0.174978 1.000000
0.286960 -0.364890 0.312336 1.000000
0.286960 -0.460771 0.064803 1.000000
0.286960 0.247275 0.416156 1.000000
0.286960 0.333262 -0.322499 1.000000
0.286960 -0.319210 -0.375368 1.000000
0.286960 -0.236982 0.413987 1.000000
0.286960 0.381143 -0.254163 1.000000
0.286960 -0.162901 0.460103 1.000000
0.286960 0.440205 0.200653 1.000000
0.286960 -0.265540 -0.359918 1.000000
0.286960 0.278670 0.366180 1.000000
0.286960 0.088149 -0.456671 1.000000
0.286960 -0.261449 -0.392633 1.000000
0.286960 -0.426701 -0.152837 1.000000
0.286960 -0.097913 -0.437343 1.000000
0.286960 -0.136097 -0.480616 1.000000
0.286960 0.237893 -0.431453 1.000000
0.286960 0.276274 -0.394409 1.000000
0.286960 -0.124622 0.442605 1.000000
0.286960 0.487630 -0.073267 1.000000
0.286960 -0.391496 0.281039 1.000000
0.286960 -0.444316 -0.187542 1.000000
0.286960 -0.124043 -0.447468 1.000000
0.286960 -0.291161 -0.372999 1.000000
0.286960 0.017298 0.464021 1.000000
0.286960 -0.002503 -0.475738 1.000000
0.286960 0.451399 0.081548 1.000000
0.286960 -0.484325 0.099744 1.000000
0.286960 -0.438145 -0.158185 1.000000
0.286960 0.399649 0.284305 1.000000
0.286960 0.455138 -0.009316 1.000000
0.286960 -0.444134 -0.081204 1.000000
0.286960 0.223947 -0.417875 1.000000
0.286960 0.178148 -0.452008 1.000000
0.286960 0.349889 -0.290331 1.000000
0.286960 -0.445010 0.174108 1.000000
0.286960 0.101495 0.447677 1.000000
0.286960 0.013208 -0.480628 1.000000
0.286960 0.096463 0.457568 1.000000
0.286960 -0.482955 0.035383 1.000000
0.286960 0.447298 -0.098088 1.000000
0.286960 0.280011 0.398743 1.000000
0.286960 0.413404 0.251303 1.000000
0.286960 0.233663 -0.436580 1.000000
0.286960 0.438227 0.162713 1.000000
0.286960 0.307463 0.367894 1.000000
0.286960 -0.068911 -0.456195 1.000000
0.286960 -0.332390 0.325220 1.000000
0.286960 -0.279415 -0.384489 1.000000
0.286960 0.030378 0.470316 1.000000
0.286960 -0.290177 -0.380342 1.000000
0.286960 -0.150921 -0.475226 1.000000
0.286960 0.447677 0.032907 1.000000
0.286960 -0.014044 0.483997 1.000000
0.286960 0.489977 0.019801 1.000000
0.286960 -0.313073 0.373753 1.000000
0.286960 -0.340751 0.314909 1.000000
0.286960 -0.370929 0.293272 1.000000
0.286960 -0.067692 0.453766 1.000000
0.286960 -0.307117 0.368887 1.000000
0.286960 0.082766 0.475470 1.000000
0.286960 0.214807 -0.409702 1.000000
0.286960 -0.302133 0.374873 1.000000
0.286960 -0.016588 -0.466362 1.000000
0.286960 0.078336 0.482189 1.000000
0.286960 -0.001530 -0.478626 1.000000
0.286960 -0.080150 -0.459585 1.000000
0.286960 0.450540 0.202688 1.000000
0.286960 -0.431420 -0.138459 1.000000
0.286960 -0.427559 -0.146666 1.000000
0.286960 -0.037140 0.445704 1.000000
0.286960 -0.427524 0.187646 1.000000
0.286960 -0.289230 0.372831 1.000000
0.286960 -0.172574 -0.437494 1.000000
0.286960 -0.100631 0.484861 1.000000
0.286960 0.439109 0.203939 1.000000
0.286960 -0.122598 0.435507 1.000000
0.286960 -0.391890 0.216447 1.000000
0.286960 -0.446009 -0.214324 1.000000
0.286960 -0.069517 -0.486608 1.000000
0.286960 -0.189923 -0.416779 1.000000
0.286960 -0.239168 0.421042 1.000000
0.286960 0.184123 -0.437438 1.000000
0.286960 0.160318 -0.439363 1.000000
0.286960 -0.250430 -0.407391 1.000000
0.286960 -0.460972 0.098821 1.000000
0.286960 0.409865 -0.206318 1.000000
0.286960 0.298422 -0.343299 1.000000
0.286960 -0.355761 0.279195 1.000000
0.286960 0.240776 -0.433579 1.000000
0.286960 0.163853 0.457484 1.000000
0.286960 -0.194914 -0.427340 1.000000
0.286960 0.452236 0.131272 1.000000
0.286960 -0.188553 0.407013 1.000000
0.286960 0.394807 -0.217270 1.000000
0.286960 -0.391207 -0.215517 1.000000
0.286960 -0.483510 -0.073253 1.000000
0.286960 -0.383200 0.263648 1.000000
0.286960 -0.460712 0.107499 1.000000
0.286960 -0.488544 -0.068726 1.000000
0.286960 -0.426471 -0.175496 1.000000
0.286960 -0.429589 -0.149718 1.000000
0.286960 -0.030548 -0.459054 1.000000
0.286960 -0.253708 0.388054 1.000000
0.286960 0.478958 -0.004568 1.000000
0.286960 -0.462883 -0.006544 1.000000
0.286960 0.447088 -0.001976 1.000000
0.286960 0.390298 0.246157 1.000000
0.286960 -0.405343 0.274747 1.000000
0.286960 0.005959 0.490254 1.000000
0.286960 0.497855 0.004913 1.000000
0.286960 0.454172 0.011462 1.000000
0.286960 -0.023577 0.450823 1.000000
0.286960 -0.062228 0.460480 1.000000
0.286960 -0.183084 0.403899 1.000000
0.286960 -0.353546 -0.324410 1.000000
0.286960 0.474527 -0.026755 1.000000
0.286960 0.394790 0.230555 1.000000
0.286960 -0.405013 -0.269678 1.000000
0.286960 0.365286 0.270542 1.000000
0.286960 0.474266 -0.034747 1.000000
0.286960 -0.123357 -0.440716 1.000000
0.286960 0.213414 -0.436705 1.000000
0.286960 0.360777 0.298170 1.000000
0.286960 -0.153371 0.452914 1.000000
0.286960 0.237689 -0.413277 1.000000
0.286960 0.468746 0.150244 1.000000
0.286960 0.461938 0.164552 1.000000
0.286960 -0.421890 0.204471 1.000000
0.286960 -0.420906 -0.250800 1.000000
0.286960 0.064548 0.452392 1.000000
0.286960 0.294518 -0.370089 1.000000
0.286960 0.305870 0.346585 1.000000
0.286960 0.454077 0.169435 1.000000
0.286960 -0.421231 0.244682 1.000000
0.286960 0.389145 -0.220030 1.000000
0.286960 -0.346900 0.324734 1.000000
0.286960 -0.132003 0.444062 1.000000
0.286960 -0.206790 0.448090 1.000000
0.286960 -0.457655 -0.078951 1.000000
0.286960 -0.163987 -0.417773 1.000000
0.286960 0.349415 -0.342685 1.000000
0.286960 -0.452711 -0.029058 1.000000
0.286960 0.332605 -0.332808 1.000000
0.286960 0.385402 -0.256287 1.000000
0.286960 -0.300215 -0.377679 1.000000
0.286960 0.155313 -0.427463 1.000000
0.286960 -0.447613 0.160674 1.000000
0.286960 -0.388019 -0.228560 1.000000
0.286960 0.200129 0.411470 1.000000
0.286960 -0.070075 -0.467175 1.000000
0.286960 0.432050 -0.181009 1.000000
0.286960 0.164903 0.434718 1.000000
0.286960 -0.280300 0.398276 1.000000
0.286960 0.395467 -0.273619 1.000000
0.286960 -0.446321 0.186414 1.000000
0.286960 0.465780 0.140789 1.000000
0.286960 -0.446475 -0.178126 1.000000
0.286960 0.258529 -0.375638 1.000000
0.286960 0.297046 -0.379551 1.000000
0.286960 0.450698 0.105883 1.000000
0.286960 0.422266 -0.179383 1.000000
0.286960 -0.228769 -0.435202 1.000000
0.286960 -0.411942 -0.231222 1.000000
0.286960 -0.317176 -0.380943 1.000000
0.286960 0.189264 -0.418364 1.000000
0.286960 -0.482972 -0.044840 1.000000
0.286960 0.259462 -0.411075 1.000000
0.286960 0.107423 -0.464019 1.000000
0.286960 0.220185 -0.401377 1.000000
0.286960 -0.338885 0.302484 1.000000
0.286960 -0.178288 0.449819 1.000000
0.286960 -0.181417 -0.426254 1.000000
0.286960 0.423559 -0.158519 1.000000
0.286960 0.258378 0.409880 1.000000
0.286960 -0.337252 0.349576 1.000000
0.286960 0.476447 -0.096279 1.000000
0.286960 0.280573 0.354079 1.000000
0.286960 0.270802 0.392774 1.000000
0.286960 0.135329 -0.447116 1.000000
0.286960 0.151514 -0.425055 1.000000
0.286960 -0.029758 0.448168 1.000000
0.286960 -0.275990 -0.415370 1.000000
0.286960 -0.483788 -0.031329 1.000000
0.286960 0.069248 -0.442936 1.000000
0.286960 0.219507 0.390019 1.000000
0.286960 -0.010847 0.494076 1.000000
0.286960 -0.437559 0.213565 1.000000
0.286960 -0.306193 0.381018 1.000000
0.286960 -0.337704 -0.363141 1.000000
0.286960 0.309021 -0.324486 1.000000
0.286960 0.443027 0.171769 1.000000
0.286960 0.142638 -0.428408 1.000000
0.286960 -0.182141 -0.451767 1.000000
0.286960 0.434174 0.222335 1.000000
0.286960 -0.090837 0.467685 1.000000
0.286960 -0.398769 0.249735 1.000000
0.286960 -0.434699 0.189879 1.000000
0.286960 -0.177769 0.423781 1.000000
0.286960 0.228096 0.413890 1.000000
0.286960 0.108205 0.455451 1.000000
0.286960 0.383151 -0.276467 1.000000
0.286960 -0.031200 0.468934 1.000000
0.286960 -0.400609 -0.213349 1.000000
0.286960 0.369041 -0.293572 1.000000
0.286960 -0.410006 -0.216386 1.000000
0.286960 -0.416857 0.262144 1.000000
0.286960 -0.247164 0.404178 1.000000
0.286960 -0.483919 -0.047926 1.000000
0.286960 0.217126 -0.394926 1.000000
0.286960 -0.388845 0.302366 1.000000
0.286960 -0.400225 -0.227740 1.000000
0.286960 -0.395689 -0.232001 1.000000
0.286960 0.447464 0.186208 1.000000
0.286960 -0.411251 0.199912 1.000000
0.286960 -0.020123 0.481210 1.000000
0.286960 0.371081 0.306932 1.000000
0.286960 0.020253 -0.447352 1.000000
0.286960 -0.321698 -0.369921 1.000000
0.286960 0.482031 0.028814 1.000000
0.286960 -0.139726 0.425427 1.000000
0.286960 -0.122386 -0.460390 1.000000
0.286960 0.451766 0.127270 1.000000
0.286960 0.073655 0.449963 1.000000
0.286960 -0.003438 0.452667 1.000000
0.286960 0.395029 -0.306083 1.000000
0.286960 0.118031 -0.477741 1.000000
0.286960 -0.442378 -0.057562 1.000000
0.286960 0.218286 -0.449942 1.000000
0.286960 -0.473701 0.033008 1.000000
0.286960 0.333287 0.342974 1.000000
0.286960 -0.490744 -0.051600 1.000000
0.286960 0.127290 -0.466488 1.000000
0.286960 0.485924 0.087593 1.000000
0.286960 -0.271427 -0.384028 1.000000
0.286960 -0.121871 0.466179 1.000000
0.286960 -0.304158 -0.361858 1.000000
0.286960 0.301517 0.355731 1.000000
0.286960 0.475894 -0.043700 1.000000
0.286960 -0.493977 -0.058741 1.000000
0.286960 -0.200803 0.451811 1.000000
0.286960 -0.238333 -0.385432 1.000000
0.286960 -0.297919 -0.400717 1.000000
0.286960 0.309806 -0.378386 1.000000
0.286960 0.058290 -0.476635 1.000000
0.286960 -0.391995 -0.304375 1.000000
0.286960 0.285285 -0.398692 1.000000
0.286960 0.117987 0.452758 1.000000
0.286960 0.243360 -0.428785 1.000000
0.286960 -0.420958 0.228894 1.000000
0.286960 0.039728 0.487423 1.000000
0.286960 0.371836 -0.253055 1.000000
0.286960 0.218125 -0.438912 1.000000
0.286960 -0.488418 0.052033 1.000000
0.286960 -0.376622 -0.283884 1.000000
0.286960 -0.132194 -0.464329 1.000000
0.286960 -0.362647 0.256795 1.000000
0.286960 -0.408193 -0.268372 1.000000
0.286960 0.252468 0.372977 1.000000
0.286960 -0.425897 0.214023 1.000000
0.286960 -0.433473 0.201247 1.000000
0.286960 -0.366673 0.291892 1.000000
0.286960 -0.229845 -0.438216 1.000000
0.286960 -0.129726 0.435984 1.000000
0.286960 -0.115275 -0.450429 1.000000
0.286960 -0.389335 -0.293409 1.000000
0.286960 0.123438 0.448282 1.000000
0.286960 -0.272949 0.404358 1.000000
0.286960 0.195776 -0.449256 1.000000
0.286960 0.044964 -0.487940 1.000000
0.286960 0.020258 -0.452026 1.000000
0.286960 -0.087614 0.461367 1.000000
0.286960 -0.448028 0.108954 1.000000
0.286960 -0.458728 -0.168970 1.000000
0.286960 -0.462263 -0.139091 1.000000
0.286960 -0.194989 0.429900 1.000000
0.286960 -0.108563 -0.464478 1.000000
0.286960 -0.380183 0.249114 1.000000
0.286960 0.388891 -0.241329 1.000000
0.286960 0.100733 0.454651 1.000000
0.286960 0.489242 0.091125 1.000000
0.286960 0.454687 0.093584 1.000000
0.286960 -0.250868 0.365605 1.000000
0.286960 -0.253516 0.394125 1.000000
0.286960 0.434681 0.126179 1.000000
0.286960 -0.263079 -0.395479 1.000000
0.286960 0.450006 0.102347 1.000000
0.286960 -0.403686 0.193819 1.000000
0.286960 -0.155030 -0.426985 1.000000
0.286960 0.467264 0.119818 1.000000
0.286960 0.268944 0.397353 1.000000
0.286960 -0.397977 0.229760 1.000000
0.286960 -0.415197 0.214180 1.000000
0.286960 -0.427591 0.135827 1.000000
0.286960 0.378960 -0.280201 1.000000
0.286960 -0.213613 -0.411127 1.000000
0.286960 -0.398129 0.254578 1.000000
0.286960 -0.102062 -0.477347 1.000000
0.286960 -0.479645 0.032763 1.000000
0.286960 -0.105216 0.459158 1.000000
0.286960 0.467043 0.042184 1.000000
0.286960 0.450940 -0.071689 1.000000
0.286960 0.077648 -0.481852 1.000000
0.286960 0.432508 -0.200838 1.000000
0.286960 -0.247760 0.392388 1.000000
0.286960 0.436996 0.159111 1.000000
0.286960 0.026321 0.457503 1.000000
0.286960 -0.076718 -0.465817 1.000000
0.286960 -0.476981 -0.117785 1.000000
0.286960 0.148934 -0.466668 1.000000
0.286960 -0.375680 0.294395 1.000000
0.286960 -0.253712 -0.419006 1.000000
0.286960 -0.244608 -0.393369 1.000000
0.286960 -0.482839 -0.051055 1.000000
0.286960 -0.215990 0.431145 1.000000
0.286960 0.470261 -0.111922 1.000000
0.286960 0.450373 -0.173736 1.000000
0.286960 0.356235 -0.348042 1.000000
0.286960 0.032509 0.459731 1.000000
0.286960 0.192192 -0.417617 1.000000
0.286960 0.172385 -0.452306 1.000000
0.286960 0.123117 -0.449739 1.000000
0.286960 0.183530 -0.464772 1.000000
0.286960 0.272665 0.359227 1.000000
0.286960 0.226837 0.381740 1.000000
0.286960 -0.481426 0.103421 1.000000
0.286960 -0.292584 0.399861 1.000000
0.286960 0.443332 0.225530 1.000000
0.286960 -0.304313 0.325191 1.000000
0.286960 -0.291193 -0.366369 1.000000
0.286960 -0.392720 -0.219594 1.000000
0.286960 -0.303145 0.392444 1.000000
0.286960 -0.437714 0.130146 1.000000
0.286960 0.007452 0.478377 1.000000
0.286960 0.386952 0.279855 1.000000
0.286960 -0.427180 0.226936 1.000000
0.286960 -0.372488 0.322451 1.000000
0.286960 -0.479361 -0.005609 1.000000
0.286960 0.473545 -0.111670 1.000000
0.286960 -0.421826 0.209885 1.000000
0.286960 0.024412 -0.480600 1.000000
0.286960 -0.386492 -0.225754 1.000000
0.286960 -0.438519 -0.137562 1.000000
0.286960 -0.359420 0.260755 1.000000
0.286960 0.401166 -0.214853 1.000000
0.286960 0.266225 -0.399963 1.000000
0.286960 -0.298120 -0.383026 1.000000
0.286960 -0.110001 0.482715 1.000000
0.286960 -0.277277 -0.410094 1.000000
0.286960 -0.022918 0.476131 1.000000
0.286960 0.351238 0.275102 1.000000
0.286960 -0.417650 -0.268374 1.000000
0.286960 0.085389 0.443985 1.000000
0.286960 -0.205989 0.406128 1.000000
0.286960 0.363066 0.304435 1.000000
0.286960 -0.409480 0.271340 1.000000
0.286960 -0.405857 0.180619 1.000000
0.286960 0.070131 -0.472295 1.000000
0.286960 -0.174665 -0.421493 1.000000
0.286960 -0.070991 0.486202 1.000000
0.286960 0.472258 0.123528 1.000000
0.286960 0.273511 0.404117 1.000000
0.286960 -0.287774 -0.396653 1.000000
0.286960 -0.225514 0.436043 1.000000
0.286960 0.336928 0.309053 1.000000
0.286960 0.105701 0.452781 1.000000
0.286960 -0.445398 -0.160709 1.000000
0.286960 -0.091767 0.451299 1.000000
0.286960 -0.422229 0.213517 1.000000
0.286960 -0.249099 0.368446 1.000000
0.286960 -0.386166 -0.254380 1.000000
0.286960 0.237407 -0.419740 1.000000
0.286960 0.469560 0.164846 1.000000
0.286960 0.481209 -0.048748 1.000000
0.286960 -0.415643 -0.238131 1.000000
0.286960 -0.470194 -0.158132 1.000000
0.286960 0.446789 -0.005812 1.000000
0.286960 0.295061 0.350691 1.000000
0.286960 -0.121868 -0.437218 1.000000
0.286960 0.468141 -0.115510 1.000000
0.286960 0.200447 0.425092 1.000000
0.286960 -0.067100 0.490217 1.000000
0.286960 -0.446811 0.134086 1.000000
0.286960 0.427107 0.168246 1.000000
0.286960 -0.427295 0.154913 1.000000
0.286960 -0.377317 0.311564 1.000000
0.286960 -0.109755 0.476931 1.000000
0.286960 -0.486613 -0.100415 1.000000
0.286960 -0.216996 -0.397297 1.000000
0.286960 -0.426237 0.157853 1.000000
0.286960 0.455066 0.028547 1.000000
0.286960 -0.224046 0.406988 1.000000
0.286960 -0.412611 0.217232 1.000000
0.286960 -0.429517 0.184585 1.000000
0.286960 -0.375161 -0.258821 1.000000
0.286960 0.381984 -0.301279 1.000000
0.286960 -0.419591 -0.231853 1.000000
0.286960 0.111034 -0.436791 1.000000
0.286960 0.423315 0.139774 1.000000
0.286960 -0.260635 0.367795 1.000000
0.286960 -0.388029 0.279748 1.000000
0.286960 0.123615 0.434188 1.000000
0.286960 0.181524 0.426812 1.000000
0.286960 -0.472041 -0.013861 1.000000
0.286960 0.409937 0.229737 1.000000
0.286960 -0.214666 0.406634 1.000000
0.286960 0.442143 -0.175168 1.000000
0.286960 0.447606 -0.121585 1.000000
0.286960 0.182310 0.429936 1.000000
0.286960 -0.256303 -0.428261 1.000000
0.286960 0.431137 0.210506 1.000000
0.286960 0.331002 -0.340021 1.000000
0.286960 -0.273473 -0.358700 1.000000
0.286960 0.484187 0.046279 1.000000
0.286960 -0.043457 -0.488631 1.000000
0.286960 -0.315631 0.370259 1.000000
0.286960 -0.468314 -0.052176 1.000000
0.286960 0.327361 -0.353191 1.000000
0.286960 0.324847 0.312980 1.000000
0.286960 0.430750 -0.204669 1.000000
0.286960 0.087007 0.478689 1.000000
0.286960 -0.417146 0.170675 1.000000
0.286960 -0.247452 0.423434 1.000000
0.286960 -0.379359 -0.234592 1.000000
0.286960 0.356012 -0.290411 1.000000
0.286960 -0.373652 0.319626 1.000000
0.286960 0.068457 0.463104 1.000000
0.286960 -0.096071 0.485839 1.000000
0.286960 0.361379 -0.263260 1.000000
0.286960 0.223253 0.415867 1.000000
0.286960 0.000217 -0.462090 1.000000
0.286960 0.226851 0.386020 1.000000
0.286960 0.086811 0.467656 1.000000
0.286960 -0.231472 0.431792 1.000000
0.286960 0.453700 -0.161919 1.000000
0.286960 -0.239462 0.374398 1.000000
0.286960 0.274172 0.413105 1.000000
0.286960 0.460090 0.033675 1.000000
0.286960 -0.076728 -0.441675 1.000000
0.286960 0.254559 -0.368050 1.000000
0.286960 -0.227228 -0.420649 1.000000
0.286960 -0.441642 0.186526 1.000000
0.286960 0.192413 0.403973 1.000000
0.286960 0.485178 0.111324 1.000000
0.286960 0.017354 -0.473646 1.000000
0.286960 0.242450 0.400289 1.000000
0.286960 0.323411 0.325644 1.000000
0.286960 -0.423864 0.180994 1.000000
0.286960 0.411985 0.277393 1.000000
0.286960 -0.400762 -0.293100 1.000000
0.286960 -0.096481 -0.480550 1.000000
0.286960 0.482711 -0.061715 1.000000
0.286960 -0.374374 0.298621 1.000000
0.286960 -0.404904 0.260288 1.000000
0.286960 -0.447316 0.137806 1.000000
0.286960 -0.452734 0.125999 1.000000
0.286960 0.328202 0.311234 1.000000
0.286960 0.427771 0.198414 1.000000
0.286960 -0.063108 0.483686 1.000000
0.286960 -0.497156 0.007139 1.000000
0.286960 -0.390771 -0.301299 1.000000
0.286960 -0.142776 0.466081 1.000000
0.286960 -0.092967 0.473325 1.000000
0.286960 0.432619 -0.125502 1.000000
0.286960 0.418070 0.245265 1.000000
