0.286960 0.332805 -0.358157 1.000000
0.286960 0.489638 -0.092118 1.000000
0.286960 0.032160 -0.472104 1.000000
0.286960 0.497629 0.020390 1.000000
0.286960 0.463408 0.080578 1.000000
0.286960 -0.336133 0.316572 1.000000
0.286960 -0.446523 0.148180 1.000000
0.286960 -0.267889 0.386320 1.000000
0.286960 0.268239 -0.370565 1.000000
0.286960 -0.386005 0.280284 1.000000
0.286960 0.220721 0.432757 1.000000
0.286960 0.268521 -0.401558 1.000000
0.286960 0.390108 0.234830 1.000000
0.286960 0.359515 -0.334477 1.000000
0.286960 -0.435004 0.149001 1.000000
0.286960 0.416222 0.160272 1.000000
0.286960 -0.084081 -0.472879 1.000000
0.286960 0.116705 0.474431 1.000000
0.286960 -0.399440 0.294683 1.000000
0.286960 -0.433450 0.220101 1.000000
0.286960 -0.375067 -0.299126 1.000000
0.286960 0.187523 0.442566 1.000000
0.286960 0.469687 -0.113315 1.000000
0.286960 -0.114574 -0.444051 1.000000
0.286960 0.396979 0.258032 1.000000
0.286960 -0.040672 -0.473695 1.000000
0.286960 0.182253 0.430218 1.000000
0.286960 -0.166994 -0.421617 1.000000
0.286960 0.058352 0.478019 1.000000
0.286960 0.299884 -0.391860 1.000000
0.286960 0.432118 0.231290 1.000000
0.286960 -0.086477 -0.491248 1.000000
0.286960 -0.485532 0.104886 1.000000
0.286960 0.082402 0.479447 1.000000
0.286960 -0.460004 0.143727 1.000000
0.286960 -0.279627 0.374961 1.000000
0.286960 -0.398738 0.204798 1.000000
0.286960 -0.114338 0.470298 1.000000
0.286960 0.380892 -0.292010 1.000000
0.286960 -0.486826 -0.052225 1.000000
0.286960 0.230612 0.404876 1.000000
0.286960 0.032894 0.450115 1.000000
0.286960 -0.161549 -0.448740 1.000000
0.286960 0.466112 0.042566 1.000000
0.286960 0.196474 0.422726 1.000000
0.286960 -0.467080 0.056969 1.000000
0.286960 0.273244 0.402449 1.000000
0.286960 0.212749 0.444523 1.000000
0.286960 0.298670 -0.388534 1.000000
0.286960 -0.456974 -0.070670 1.000000
0.286960 -0.423030 0.242466 1.000000
0.286960 -0.332845 -0.320841 1.000000
0.286960 0.409391 -0.235757 1.000000
0.286960 -0.437513 -0.142615 1.000000
0.286960 -0.466583 -0.118889 1.000000
0.286960 0.478645 0.024542 1.000000
0.286960 -0.299606 0.376353 1.000000
0.286960 0.487774 0.015157 1.000000
0.286960 -0.290572 -0.341043 1.000000
0.286960 -0.379100 -0.312120 1.000000
0.286960 -0.402901 -0.257300 1.000000
0.286960 -0.221377 -0.398794 1.000000
0.286960 0.106005 -0.436242 1.000000
0.286960 -0.370470 -0.334262 1.000000
0.286960 0.405602 -0.188370 1.000000
0.286960 -0.447640 -0.110222 1.000000
0.286960 0.349744 -0.281730 1.000000
0.286960 -0.462811 -0.037997 1.000000
0.286960 0.194968 -0.407565 1.000000
0.286960 0.077677 0.460826 1.000000
0.286960 0.093823 0.454822 1.000000
0.286960 -0.204370 0.423876 1.000000
0.286960 -0.389879 -0.281360 1.000000
0.286960 0.108139 -0.479621 1.000000
0.286960 -0.398980 0.210309 1.000000
0.286960 -0.179592 0.437546 1.000000
0.286960 -0.481517 -0.032892 1.000000
0.286960 0.282093 -0.389068 1.000000
0.286960 0.062353 -0.465701 1.000000
0.286960 -0.054754 -0.495275 1.000000
0.286960 -0.447178 -0.087630 1.000000
0.286960 0.421257 -0.246880 1.000000
0.286960 -0.171754 0.459384 1.000000
0.286960 0.274626 0.383283 1.000000
0.286960 -0.461902 -0.017647 1.000000
0.286960 -0.400953 -0.240801 1.000000
0.286960 -0.276377 0.404623 1.000000
0.286960 0.079935 -0.481991 1.000000
0.286960 0.359572 0.337280 1.000000
0.286960 -0.107788 -0.459461 1.000000
0.286960 -0.147107 0.458932 1.000000
0.286960 0.096627 -0.445212 1.000000
0.286960 -0.376751 -0.321908 1.000000
0.286960 0.404004 -0.275070 1.000000
0.286960 0.182182 -0.417010 1.000000
0.286960 -0.475304 0.045190 1.000000
0.286960 0.336136 -0.313544 1.000000
0.286960 0.034977 0.442333 1.000000
0.286960 -0.485279 0.021452 1.000000
0.286960 0.332770 -0.351149 1.000000
0.286960 0.024404 0.482510 1.000000
0.286960 0.087513 -0.475243 1.000000
0.286960 0.286757 -0.377716 1.000000
0.286960 0.329803 0.303249 1.000000
0.286960 -0.223755 -0.405444 1.000000
0.286960 0.292653 0.400783 1.000000
0.286960 -0.423868 -0.215667 1.000000
0.286960 -0.155916 -0.445219 1.000000
0.286960 0.428293 0.162132 1.000000
0.286960 -0.438066 -0.235388 1.000000
0.286960 0.434158 -0.116437 1.000000
0.286960 -0.110005 0.470175 1.000000
0.286960 -0.445150 -0.220122 1.000000
0.286960 0.384657 0.308443 1.000000
0.286960 -0.194868 0.420000 1.000000
0.286960 0.392760 -0.245157 1.000000
0.286960 -0.468721 -0.024954 1.000000
0.286960 0.254165 0.415455 1.000000
0.286960 0.113253 -0.459433 1.000000
0.286960 0.490041 -0.028838 1.000000
0.286960 0.165868 -0.438540 1.000000
0.286960 -0.165461 0.425147 1.000000
0.286960 0.091003 -0.458622 1.000000
0.286960 -0.076865 0.464511 1.000000
0.286960 -0.130677 -0.432572 1.000000
0.286960 0.419253 -0.229957 1.000000
0.286960 0.294414 -0.376677 1.000000
0.286960 0.451717 0.147119 1.000000
0.286960 0.466521 0.109699 1.000000
0.286960 0.344559 -0.302476 1.000000
0.286960 -0.207386 -0.407498 1.000000
0.286960 -0.218509 -0.444379 1.000000
0.286960 0.413496 -0.250287 1.000000
0.286960 0.013072 0.482439 1.000000
0.286960 0.424993 -0.199763 1.000000
0.286960 0.480960 0.032036 1.000000
0.286960 0.285064 -0.395398 1.000000
0.286960 0.433036 -0.113000 1.000000
0.286960 -0.222421 -0.388031 1.000000
0.286960 -0.475623 -0.048172 1.000000
0.286960 -0.103418 -0.447784 1.000000
0.286960 -0.093888 -0.438640 1.000000
0.286960 -0.163254 0.461944 1.000000
0.286960 -0.385355 -0.314263 1.000000
0.286960 -0.230220 -0.399774 1.000000
0.286960 0.089761 0.486608 1.000000
0.286960 -0.326269 -0.373446 1.000000
0.286960 -0.065671 0.438222 1.000000
0.286960 0.392644 -0.232765 1.000000
0.286960 -0.307928 0.357310 1.000000
0.286960 -0.060638 -0.461225 1.000000
0.286960 -0.285915 -0.397429 1.000000
0.286960 -0.488614 -0.030525 1.000000
0.286960 -0.216077 0.394699 1.000000
0.286960 -0.459476 0.040681 1.000000
0.286960 -0.043679 0.453696 1.000000
0.286960 -0.382836 -0.318084 1.000000
0.286960 -0.401316 0.244218 1.000000
0.286960 -0.274075 -0.359819 1.000000
0.286960 0.314181 0.359299 1.000000
0.286960 0.258449 0.376948 1.000000
0.286960 0.310535 -0.329281 1.000000
0.286960 0.255037 0.404160 1.000000
0.286960 0.452876 -0.029011 1.000000
0.286960 -0.240222 0.432527 1.000000
0.286960 -0.058516 -0.444504 1.000000
0.286960 0.363003 -0.334361 1.000000
0.286960 -0.394430 0.273207 1.000000
0.286960 -0.139097 0.445677 1.000000
0.286960 -0.107058 0.449334 1.000000
0.286960 0.112198 0.440608 1.000000
0.286960 -0.496421 0.025760 1.000000
0.286960 -0.325518 -0.306226 1.000000
0.286960 -0.169946 0.430687 1.000000
0.286960 -0.227907 -0.404259 1.000000
0.286960 -0.084763 -0.476520 1.000000
0.286960 -0.492717 -0.021100 1.000000
0.286960 -0.199904 -0.415436 1.000000
0.286960 -0.415685 -0.213159 1.000000
0.286960 0.072761 0.466397 1.000000
0.286960 0.262033 -0.416769 1.000000
0.286960 0.479788 0.042418 1.000000
0.286960 0.236512 0.407620 1.000000
0.286960 -0.418968 0.151717 1.000000
0.286960 0.121212 0.444161 1.000000
0.286960 -0.376690 0.304322 1.000000
0.286960 0.476194 -0.067048 1.000000
0.286960 0.437674 -0.163619 1.000000
0.286960 -0.079985 -0.456962 1.000000
0.286960 -0.225752 -0.390478 1.000000
0.286960 0.350336 0.286444 1.000000
0.286960 -0.074995 0.455208 1.000000
0.286960 0.468673 0.144864 1.000000
0.286960 -0.487192 -0.078415 1.000000
0.286960 -0.117280 -0.466255 1.000000
0.286960 0.468801 0.026075 1.000000
0.286960 0.344582 0.332980 1.000000
0.286960 -0.447083 0.105570 1.000000
0.286960 0.341482 -0.343235 1.000000
0.286960 -0.480979 0.031936 1.000000
0.286960 0.432430 0.147594 1.000000
0.286960 0.474920 0.010005 1.000000
0.286960 0.460702 -0.165298 1.000000
0.286960 -0.431792 -0.182606 1.000000
0.286960 -0.426497 0.194566 1.000000
0.286960 -0.008393 0.452112 1.000000
0.286960 -0.230577 -0.432640 1.000000
0.286960 0.097114 -0.437279 1.000000
0.286960 -0.421094 0.235453 1.000000
0.286960 -0.002705 0.448987 1.000000
0.286960 -0.095768 -0.466590 1.000000
0.286960 -0.207656 0.404814 1.000000
0.286960 0.404173 0.218968 1.000000
0.286960 0.409974 -0.262806 1.000000
0.286960 0.428973 -0.242473 1.000000
0.286960 -0.001619 -0.472073 1.000000
0.286960 -0.436153 0.161058 1.000000
0.286960 0.280856 -0.369832 1.000000
0.286960 -0.449485 -0.125320 1.000000
0.286960 -0.330564 0.328056 1.000000
0.286960 0.264284 0.381399 1.000000
0.286960 -0.201191 0.401444 1.000000
0.286960 0.437633 0.133683 1.000000
0.286960 0.433812 0.234251 1.000000
0.286960 0.088919 0.451779 1.000000
0.286960 -0.288864 -0.357043 1.000000
0.286960 -0.339394 -0.347316 1.000000
0.286960 -0.328393 -0.361755 1.000000
0.286960 0.397093 0.217073 1.000000
0.286960 0.151715 -0.447922 1.000000
0.286960 -0.209993 -0.409387 1.000000
0.286960 -0.371131 -0.317092 1.000000
0.286960 -0.455284 0.061451 1.000000
0.286960 -0.458919 -0.013888 1.000000
0.286960 -0.446576 -0.193546 1.000000
0.286960 0.067950 -0.443148 1.000000
0.286960 0.456210 0.156266 1.000000
0.286960 0.335469 -0.303423 1.000000
0.286960 0.280490 -0.349885 1.000000
0.286960 -0.252078 0.403946 1.000000
0.286960 -0.450635 0.077119 1.000000
0.286960 -0.271974 -0.404411 1.000000
0.286960 0.359402 -0.341746 1.000000
0.286960 -0.441707 0.117384 1.000000
0.286960 -0.459203 0.139715 1.000000
0.286960 -0.346419 0.290735 1.000000
0.286960 0.100966 -0.436446 1.000000
0.286960 0.300108 0.338583 1.000000
0.286960 -0.417345 0.189613 1.000000
0.286960 0.135568 -0.457785 1.000000
0.286960 -0.409975 0.242915 1.000000
0.286960 -0.201193 0.422073 1.000000
0.286960 -0.036464 0.453682 1.000000
0.286960 -0.463854 -0.097992 1.000000
0.286960 0.047364 0.455245 1.000000
0.286960 0.139718 -0.456095 1.000000
0.286960 0.450081 0.062005 1.000000
0.286960 0.274301 -0.397660 1.000000
0.286960 0.438532 -0.157599 1.000000
0.286960 0.375603 0.300127 1.000000
0.286960 0.243407 0.407257 1.000000
0.286960 -0.440698 -0.063944 1.000000
0.286960 -0.052235 -0.447816 1.000000
0.286960 -0.440877 -0.108381 1.000000
0.286960 -0.182225 -0.456904 1.000000
0.286960 0.053809 -0.444819 1.000000
0.286960 0.404492 -0.284246 1.000000
0.286960 -0.437126 0.171261 1.000000
0.286960 0.443974 -0.159926 1.000000
0.286960 -0.036014 0.493378 1.000000
0.286960 0.444225 0.158775 1.000000
0.286960 -0.443103 -0.121916 1.000000
0.286960 -0.411252 0.181577 1.000000
0.286960 -0.187909 -0.451124 1.000000
0.286960 0.446131 0.141956 1.000000
0.286960 0.305870 0.338872 1.000000
0.286960 -0.385428 0.312429 1.000000
0.286960 0.419101 -0.235170 1.000000
0.286960 0.346412 -0.316819 1.000000
0.286960 -0.454440 0.039977 1.000000
0.286960 -0.183150 0.432643 1.000000
0.286960 -0.427049 -0.196545 1.000000
0.286960 -0.358952 -0.267025 1.000000
0.286960 -0.308092 0.383716 1.000000
0.286960 -0.182716 0.422833 1.000000
0.286960 -0.297265 0.393538 1.000000
0.286960 -0.283992 -0.409848 1.000000
0.286960 0.460467 0.087892 1.000000
0.286960 0.282360 0.356067 1.000000
0.286960 -0.376619 0.266159 1.000000
0.286960 0.357516 -0.331267 1.000000
0.286960 -0.241510 0.423396 1.000000
0.286960 -0.363706 -0.268973 1.000000
0.286960 -0.441570 -0.191164 1.000000
0.286960 -0.411926 -0.251473 1.000000
0.286960 0.431938 -0.159871 1.000000
0.286960 -0.467319 0.037047 1.000000
0.286960 0.324915 0.335123 1.000000
0.286960 0.447673 -0.173455 1.000000
0.286960 0.063514 -0.459803 1.000000
0.286960 0.318874 0.318867 1.000000
0.286960 -0.481754 0.082145 1.000000
0.286960 -0.203823 0.438722 1.000000
0.286960 -0.134448 -0.432404 1.000000
0.286960 -0.442990 -0.097741 1.000000
0.286960 -0.046292 0.488076 1.000000
0.286960 0.129147 0.466013 1.000000
0.286960 0.004772 -0.449306 1.000000
0.286960 -0.388068 0.272864 1.000000
0.286960 -0.456617 0.055853 1.000000
0.286960 -0.373492 -0.271995 1.000000
0.286960 0.428157 0.166016 1.000000
0.286960 0.496464 0.013178 1.000000
0.286960 0.356043 -0.319611 1.000000
0.286960 0.353619 -0.352145 1.000000
0.286960 0.421646 -0.164512 1.000000
0.286960 -0.317969 -0.350245 1.000000
0.286960 -0.355518 -0.349200 1.000000
0.286960 0.390794 0.247532 1.000000
0.286960 -0.013576 -0.474465 1.000000
0.286960 -0.161588 0.428556 1.000000
0.286960 0.257562 0.390543 1.000000
0.286960 -0.057794 0.476143 1.000000
0.286960 0.479574 -0.016244 1.000000
0.286960 0.446767 0.125459 1.000000
0.286960 -0.005508 0.476519 1.000000
0.286960 -0.423508 -0.233624 1.000000
0.286960 -0.212340 0.410295 1.000000
0.286960 0.038589 -0.497394 1.000000
0.286960 0.305987 -0.347059 1.000000
0.286960 -0.452894 -0.144417 1.000000
0.286960 -0.063799 -0.476554 1.000000
0.286960 0.228081 -0.397342 1.000000
0.286960 0.267798 0.398786 1.000000
0.286960 -0.309633 0.321848 1.000000
0.286960 0.298790 -0.344520 1.000000
0.286960 -0.140979 -0.465357 1.000000
0.286960 0.428079 0.153431 1.000000
0.286960 -0.312614 -0.370949 1.000000
0.286960 -0.369759 0.269193 1.000000
0.286960 0.113251 0.432999 1.000000
0.286960 -0.440813 -0.152447 1.000000
0.286960 0.408131 -0.209520 1.000000
0.286960 -0.463583 -0.085017 1.000000
0.286960 0.487899 0.039558 1.000000
0.286960 0.389297 0.238337 1.000000
0.286960 0.400868 0.218809 1.000000
0.286960 0.083933 0.451606 1.000000
0.286960 0.264738 -0.424287 1.000000
0.286960 -0.198801 0.435205 1.000000
0.286960 -0.453849 0.163938 1.000000
0.286960 -0.469544 -0.141388 1.000000
0.286960 0.201056 0.424561 1.000000
0.286960 0.036698 0.482430 1.000000
0.286960 -0.047333 -0.488609 1.000000
0.286960 0.060703 -0.488709 1.000000
0.286960 -0.430105 0.144227 1.000000
0.286960 -0.052775 0.480590 1.000000
0.286960 0.256211 0.368368 1.000000
0.286960 -0.027806 0.480474 1.000000
0.286960 0.053879 -0.455852 1.000000
0.286960 0.425800 0.151026 1.000000
0.286960 0.087718 0.463399 1.000000
0.286960 0.069172 0.453722 1.000000
0.286960 0.381813 0.263102 1.000000
0.286960 -0.459192 -0.051131 1.000000
0.286960 0.283050 -0.377904 1.000000
0.286960 -0.460026 0.122241 1.000000
0.286960 -0.086678 0.476110 1.000000
0.286960 -0.453178 -0.009897 1.000000
0.286960 0.471476 0.045464 1.000000
0.286960 -0.246673 -0.396962 1.000000
0.286960 -0.464336 0.062219 1.000000
0.286960 0.307982 0.382451 1.000000
0.286960 -0.469234 0.051981 1.000000
0.286960 -0.089297 0.436068 1.000000
0.286960 0.072611 -0.479134 1.000000
0.286960 -0.478860 -0.134771 1.000000
0.286960 -0.441302 0.060301 1.000000
0.286960 -0.450305 -0.044612 1.000000
0.286960 -0.477606 -0.117133 1.000000
0.286960 -0.349133 0.284041 1.000000
0.286960 0.331684 -0.344255 1.000000
0.286960 0.219509 -0.425193 1.000000
0.286960 -0.479148 -0.101075 1.000000
0.286960 -0.486078 -0.084688 1.000000
0.286960 0.050805 0.464799 1.000000
0.286960 -0.093373 0.451193 1.000000
0.286960 0.408132 -0.256326 1.000000
0.286960 0.473512 0.130632 1.000000
0.286960 -0.283147 -0.360110 1.000000
0.286960 -0.283175 -0.380512 1.000000
0.286960 0.078470 -0.488826 1.000000
0.286960 0.380020 0.252669 1.000000
0.286960 0.189916 -0.428874 1.000000
0.286960 0.333989 -0.370149 1.000000
0.286960 -0.029644 0.474543 1.000000
0.286960 -0.329124 -0.343121 1.000000
0.286960 -0.387783 -0.293053 1.000000
0.286960 -0.336150 -0.320428 1.000000
0.286960 0.487618 0.003777 1.000000
0.286960 0.467213 -0.016503 1.000000
0.286960 0.414772 -0.268801 1.000000
0.286960 0.421439 0.155347 1.000000
0.286960 -0.191549 -0.436321 1.000000
0.286960 -0.333746 0.337107 1.000000
0.286960 0.393981 -0.211938 1.000000
0.286960 0.267249 -0.421710 1.000000
0.286960 0.447334 -0.150501 1.000000
0.286960 0.435862 0.205564 1.000000
0.286960 0.345296 0.310332 1.000000
0.286960 -0.283470 0.349448 1.000000
0.286960 0.209464 0.442610 1.000000
0.286960 0.352926 0.328946 1.000000
0.286960 -0.365504 0.297668 1.000000
0.286960 0.106334 0.463633 1.000000
0.286960 0.470687 -0.077557 1.000000
0.286960 -0.442325 -0.126552 1.000000
0.286960 0.323829 -0.314322 1.000000
0.286960 0.241904 0.425719 1.000000
0.286960 -0.062979 -0.455291 1.000000
0.286960 -0.331685 -0.362689 1.000000
0.286960 0.129339 -0.435954 1.000000
0.286960 -0.456770 0.073647 1.000000
0.286960 0.429047 0.141914 1.000000
0.286960 0.278955 0.392655 1.000000
0.286960 0.437461 0.178570 1.000000
0.286960 0.472419 -0.006847 1.000000
0.286960 0.039153 0.450639 1.000000
0.286960 0.180946 -0.462202 1.000000
0.286960 0.473302 0.038776 1.000000
0.286960 0.418158 -0.253205 1.000000
0.286960 -0.412392 -0.171314 1.000000
0.286960 -0.369624 0.277933 1.000000
0.286960 0.465251 0.123731 1.000000
0.286960 0.393646 0.207720 1.000000
0.286960 0.173377 -0.462128 1.000000
0.286960 -0.219688 -0.409195 1.000000
0.286960 0.452994 -0.046721 1.000000
0.286960 -0.096481 0.463038 1.000000
0.286960 0.052057 0.447034 1.000000
0.286960 -0.036292 -0.467463 1.000000
0.286960 0.141835 -0.450576 1.000000
0.286960 0.176001 -0.418318 1.000000
0.286960 -0.127607 -0.482903 1.000000
0.286960 0.055642 -0.485705 1.000000
0.286960 -0.445055 -0.006790 1.000000
0.286960 -0.360954 0.324485 1.000000
0.286960 0.438499 0.208017 1.000000
0.286960 -0.332985 0.350116 1.000000
0.286960 0.369246 0.325467 1.000000
0.286960 -0.447061 0.068882 1.000000
0.286960 0.363307 0.257839 1.000000
0.286960 0.459320 0.126873 1.000000
0.286960 -0.420024 0.162529 1.000000
0.286960 -0.314661 0.316991 1.000000
0.286960 0.302424 0.375029 1.000000
0.286960 0.361854 -0.308713 1.000000
0.286960 -0.151584 -0.421333 1.000000
0.286960 -0.234105 -0.406234 1.000000
0.286960 -0.030682 -0.472883 1.000000
0.286960 -0.439944 -0.098864 1.000000
0.286960 -0.349163 -0.345467 1.000000
0.286960 -0.069126 -0.445543 1.000000
0.286960 0.127907 0.475419 1.000000
0.286960 -0.318558 0.364354 1.000000
0.286960 -0.099568 0.451929 1.000000
0.286960 -0.234652 0.376964 1.000000
0.286960 0.472713 -0.019468 1.000000
0.286960 -0.417314 -0.256978 1.000000
0.286960 -0.278367 -0.395120 1.000000
0.286960 0.101921 0.436381 1.000000
0.286960 -0.391691 0.271235 1.000000
0.286960 0.172465 -0.466023 1.000000
0.286960 -0.459897 0.093966 1.000000
0.286960 -0.377403 0.235588 1.000000
0.286960 0.206247 -0.448283 1.000000
0.286960 -0.003956 0.495340 1.000000
0.286960 -0.370681 -0.328432 1.000000
0.286960 -0.428539 0.181669 1.000000
0.286960 0.226342 -0.436017 1.000000
0.286960 -0.441151 0.092233 1.000000
0.286960 -0.451850 -0.031489 1.000000
0.286960 -0.082731 -0.446782 1.000000
0.286960 -0.438155 -0.213306 1.000000
0.286960 0.389491 -0.227937 1.000000
0.286960 0.332053 0.355958 1.000000
0.286960 -0.341442 -0.310797 1.000000
0.286960 0.117359 0.447373 1.000000
0.286960 0.434742 0.156040 1.000000
0.286960 -0.278706 0.395972 1.000000
0.286960 -0.319239 0.326756 1.000000
0.286960 0.471354 0.008916 1.000000
0.286960 0.297221 -0.355203 1.000000
0.286960 -0.020894 0.489215 1.000000
0.286960 -0.466751 0.081500 1.000000
0.286960 -0.064157 -0.445684 1.000000
0.286960 -0.408537 -0.278725 1.000000
0.286960 -0.016591 0.465726 1.000000
0.286960 0.397742 -0.238228 1.000000
0.286960 -0.190771 -0.426364 1.000000
0.286960 0.452103 -0.014126 1.000000
0.286960 0.427825 -0.175909 1.000000
0.286960 0.155993 -0.427165 1.000000
0.286960 0.149309 -0.444106 1.000000
0.286960 -0.389793 0.214958 1.000000
0.286960 -0.406011 0.193626 1.000000
0.286960 -0.399392 0.280447 1.000000
0.286960 0.309217 0.370853 1.000000
0.286960 0.450077 -0.114976 1.000000
0.286960 -0.477000 0.019255 1.000000
0.286960 0.407804 0.204776 1.000000
0.286960 -0.140330 0.452108 1.000000
0.286960 0.470214 0.029346 1.000000
0.286960 -0.447553 -0.186072 1.000000
0.286960 -0.369305 -0.310435 1.000000
0.286960 -0.491628 -0.058621 1.000000
0.286960 0.290563 -0.381088 1.000000
0.286960 0.147043 0.446250 1.000000
0.286960 -0.117919 0.481583 1.000000
0.286960 0.190080 0.409341 1.000000
0.286960 -0.428093 -0.177098 1.000000
0.286960 -0.012236 -0.460744 1.000000
0.286960 0.110128 0.433967 1.000000
0.286960 -0.343086 -0.334968 1.000000
0.286960 0.142623 0.428022 1.000000
0.286960 0.433126 -0.167475 1.000000
0.286960 0.305484 0.357860 1.000000
0.286960 -0.109627 -0.453511 1.000000
0.286960 0.363663 0.276572 1.000000
0.286960 -0.357728 -0.329791 1.000000
0.286960 0.024894 0.494357 1.000000
0.286960 0.341412 0.285045 1.000000
0.286960 -0.168454 0.441738 1.000000
0.286960 -0.293431 0.373300 1.000000
0.286960 -0.447927 -0.218426 1.000000
0.286960 0.318139 -0.378464 1.000000
0.286960 0.063093 0.445935 1.000000
0.286960 -0.411877 0.203546 1.000000
0.286960 -0.472970 0.137938 1.000000
0.286960 0.342213 -0.325135 1.000000
0.286960 0.315654 0.355106 1.000000
0.286960 -0.135955 -0.449855 1.000000
0.286960 -0.010079 -0.497305 1.000000
0.286960 0.126859 -0.473329 1.000000
0.286960 -0.405813 0.197283 1.000000
0.286960 -0.013012 0.477716 1.000000
0.286960 -0.292503 -0.337578 1.000000
0.286960 0.299914 -0.397898 1.000000
0.286960 0.355190 -0.309912 1.000000
0.286960 0.046043 0.482395 1.000000
0.286960 -0.125439 -0.434208 1.000000
0.286960 -0.371766 0.308253 1.000000
0.286960 -0.283828 0.391833 1.000000
0.286960 -0.168660 0.433563 1.000000
0.286960 -0.196948 0.397640 1.000000
0.286960 0.425173 0.160215 1.000000
0.286960 0.317459 0.327322 1.000000
0.286960 -0.361791 0.330416 1.000000
0.286960 -0.486842 0.051167 1.000000
0.286960 0.455528 -0.061714 1.000000
0.286960 0.427131 -0.129979 1.000000
0.286960 0.392525 0.251247 1.000000
0.286960 -0.285614 0.388589 1.000000
0.286960 -0.452820 -0.082477 1.000000
0.286960 -0.162230 -0.426979 1.000000
0.286960 0.210738 -0.453138 1.000000
0.286960 -0.483477 0.041413 1.000000
0.286960 0.402212 0.253232 1.000000
0.286960 -0.409847 -0.202640 1.000000
0.286960 -0.052148 0.476510 1.000000
0.286960 -0.420148 0.227533 1.000000
0.286960 -0.485212 0.072802 1.000000
0.286960 -0.098245 -0.471018 1.000000
0.286960 0.187321 -0.430750 1.000000
0.286960 0.101130 0.443596 1.000000
0.286960 0.357992 0.267855 1.000000
0.286960 -0.474346 0.056377 1.000000
0.286960 0.276872 0.351691 1.000000
0.286960 -0.263238 0.370543 1.000000
0.286960 0.276123 -0.372735 1.000000
0.286960 -0.386880 -0.258079 1.000000
0.286960 -0.484141 -0.011314 1.000000
0.286960 0.171049 -0.438730 1.000000
0.286960 -0.423927 0.201954 1.000000
0.286960 -0.350960 -0.308582 1.000000
0.286960 -0.180367 0.404770 1.000000
0.286960 0.402338 -0.230557 1.000000
0.286960 0.360692 -0.344941 1.000000
0.286960 0.470236 -0.145520 1.000000
0.286960 0.095879 -0.487495 1.000000
0.286960 0.085113 -0.447349 1.000000
0.286960 0.004283 -0.467955 1.000000
0.286960 0.428167 0.145516 1.000000
0.286960 0.360710 -0.321181 1.000000
0.286960 0.420805 -0.217983 1.000000
0.286960 -0.469860 0.115873 1.000000
0.286960 -0.489578 0.065140 1.000000
0.286960 -0.493428 -0.050426 1.000000
0.286960 -0.190305 -0.405264 1.000000
0.286960 -0.249316 -0.403201 1.000000
0.286960 -0.227786 0.385705 1.000000
0.286960 0.444644 -0.197884 1.000000
0.286960 0.347795 -0.295877 1.000000
0.286960 0.381772 -0.315203 1.000000
0.286960 -0.431781 0.243002 1.000000
0.286960 0.251391 0.412324 1.000000
0.286960 -0.208962 -0.444464 1.000000
0.286960 -0.349855 0.278633 1.000000
0.286960 -0.337775 0.346032 1.000000
0.286960 -0.346712 -0.288463 1.000000
0.286960 0.038104 0.464194 1.000000
0.286960 -0.486304 -0.102543 1.000000
0.286960 0.110228 0.437372 1.000000
0.286960 0.085870 0.475124 1.000000
0.286960 -0.339180 0.299304 1.000000
0.286960 -0.445141 -0.069388 1.000000
0.286960 -0.351430 0.341988 1.000000
0.286960 0.383994 -0.268394 1.000000
0.286960 -0.044905 -0.456542 1.000000
0.286960 -0.277632 -0.360208 1.000000
0.286960 0.338678 0.316134 1.000000
0.286960 0.239401 -0.423551 1.000000
0.286960 -0.467659 -0.168174 1.000000
0.286960 -0.107031 0.482756 1.000000
0.286960 0.343668 -0.337739 1.000000
0.286960 0.172703 0.423829 1.000000
0.286960 -0.324798 0.313434 1.000000
0.286960 -0.419847 -0.226322 1.000000
0.286960 -0.154647 -0.455597 1.000000
0.286960 0.077407 -0.452855 1.000000
0.286960 0.444947 -0.102578 1.000000
0.286960 -0.485037 0.048525 1.000000
0.286960 0.376131 0.308132 1.000000
0.286960 -0.458708 0.152564 1.000000
0.286960 0.352333 -0.284746 1.000000
0.286960 -0.441923 -0.117084 1.000000
0.286960 0.059689 0.491849 1.000000
0.286960 0.117239 0.443811 1.000000
0.286960 -0.114127 -0.452489 1.000000
0.286960 -0.475231 0.006643 1.000000
0.286960 -0.405329 -0.210573 1.000000
0.286960 0.191382 -0.461989 1.000000
0.286960 0.020665 -0.463399 1.000000
0.286960 0.111440 0.447308 1.000000
0.286960 0.413650 -0.264268 1.000000
0.286960 0.465154 0.038796 1.000000
0.286960 -0.372105 -0.252118 1.000000
0.286960 -0.481738 0.062800 1.000000
0.286960 0.450770 -0.008834 1.000000
0.286960 0.449836 -0.198574 1.000000
0.286960 0.326209 -0.338815 1.000000
0.286960 0.382629 -0.252411 1.000000
0.286960 0.468694 -0.155629 1.000000
0.286960 0.434880 0.184636 1.000000
0.286960 -0.303505 -0.327866 1.000000
0.286960 0.150899 -0.422536 1.000000
0.286960 0.164448 0.433739 1.000000
0.286960 0.356437 0.314740 1.000000
0.286960 0.386063 0.300455 1.000000
0.286960 -0.493487 0.008128 1.000000
0.286960 0.173752 -0.451296 1.000000
0.286960 -0.465057 -0.140500 1.000000
0.286960 0.215842 0.419705 1.000000
0.286960 0.276258 0.347673 1.000000
0.286960 -0.099968 0.437119 1.000000
0.286960 0.046304 -0.475560 1.000000
0.286960 0.437523 0.099058 1.000000
0.286960 -0.172062 -0.431821 1.000000
0.286960 0.081597 0.443559 1.000000
0.286960 0.372837 -0.313759 1.000000
0.286960 -0.452143 0.106437 1.000000
0.286960 0.011623 0.495482 1.000000
0.286960 0.233161 0.389095 1.000000
0.286960 -0.219076 0.438036 1.000000
0.286960 -0.228255 0.412514 1.000000
0.286960 0.195223 -0.430628 1.000000
0.286960 0.265278 -0.374800 1.000000
0.286960 0.469755 0.151499 1.000000
0.286960 0.300656 0.377646 1.000000
0.286960 -0.394846 0.248589 1.000000
0.286960 0.436745 0.114180 1.000000
0.286960 0.143306 0.435257 1.000000
0.286960 -0.390294 -0.241799 1.000000
0.286960 -0.488835 -0.022215 1.000000
0.286960 0.437809 0.183422 1.000000
0.286960 -0.418080 0.166822 1.000000
0.286960 0.456006 0.064700 1.000000
0.286960 -0.457573 0.182113 1.000000
0.286960 -0.201023 -0.432017 1.000000
0.286960 0.447651 -0.210472 1.000000
0.286960 -0.009388 0.456600 1.000000
0.286960 -0.465241 0.097960 1.000000
0.286960 -0.079914 0.436551 1.000000
0.286960 -0.410417 0.278344 1.000000
0.286960 -0.065077 0.444307 1.000000
0.286960 -0.004868 -0.482671 1.000000
0.286960 -0.242252 -0.402915 1.000000
0.286960 -0.108620 0.460012 1.000000
0.286960 -0.397535 -0.216192 1.000000
0.286960 -0.497351 0.005675 1.000000
0.286960 -0.444471 0.036450 1.000000
0.286960 0.484652 -0.055826 1.000000
0.286960 0.454475 -0.163560 1.000000
0.286960 0.184617 -0.413324 1.000000
0.286960 0.465332 -0.074633 1.000000
0.286960 -0.458018 -0.090011 1.000000
0.286960 -0.063554 -0.449091 1.000000
0.286960 -0.481067 -0.105041 1.000000
0.286960 0.455046 0.145465 1.000000
0.286960 0.459237 0.043669 1.000000
0.286960 -0.492532 -0.015528 1.000000
0.286960 0.392153 -0.266951 1.000000
0.286960 0.021639 0.450849 1.000000
0.286960 0.404173 0.207966 1.000000
0.286960 0.439720 0.221112 1.000000
0.286960 -0.467533 -0.065967 1.000000
0.286960 0.260876 0.384504 1.000000
0.286960 0.165667 -0.416399 1.000000
0.286960 -0.122738 0.440124 1.000000
0.286960 -0.425843 -0.256940 1.000000
0.286960 0.382604 -0.294675 1.000000
0.286960 0.325019 0.315255 1.000000
0.286960 -0.157547 0.418609 1.000000
0.286960 0.141769 0.448525 1.000000
0.286960 -0.216361 -0.419063 1.000000
0.286960 0.367090 0.257541 1.000000
0.286960 -0.436941 -0.221119 1.000000
0.286960 -0.441216 0.133442 1.000000
0.286960 -0.473175 0.004360 1.000000
0.286960 -0.122072 -0.479020 1.000000
0.286960 0.224053 -0.432787 1.000000
0.286960 0.451446 -0.174008 1.000000
0.286960 0.324583 0.338674 1.000000
0.286960 0.443345 -0.174327 1.000000
0.286960 -0.369016 0.262152 1.000000
0.286960 0.292239 -0.394238 1.000000
0.286960 0.381880 0.299226 1.000000
0.286960 0.180387 -0.442439 1.000000
0.286960 -0.188174 -0.423679 1.000000
0.286960 -0.459090 -0.100034 1.000000
0.286960 0.353184 -0.280344 1.000000
0.286960 0.286810 -0.409309 1.000000
0.286960 0.141410 0.438848 1.000000
0.286960 0.061645 -0.462718 1.000000
0.286960 -0.224236 0.414890 1.000000
0.286960 0.356093 0.345401 1.000000
0.286960 -0.323076 -0.344905 1.000000
0.286960 0.486734 0.087382 1.000000
0.286960 -0.430382 0.223784 1.000000
0.286960 0.210137 0.391542 1.000000
0.286960 0.445566 -0.217674 1.000000
0.286960 0.351761 0.305536 1.000000
0.286960 0.461127 0.067044 1.000000
0.286960 -0.040939 -0.483013 1.000000
0.286960 -0.448655 0.202799 1.000000
0.286960 0.417956 0.267374 1.000000
0.286960 0.415709 0.264837 1.000000
0.286960 -0.234127 0.380597 1.000000
0.286960 -0.418954 -0.246953 1.000000
0.286960 -0.073806 -0.473896 1.000000
0.286960 -0.070990 -0.462859 1.000000
0.286960 -0.373971 -0.306480 1.000000
0.286960 -0.117654 -0.438779 1.000000
0.286960 -0.428867 -0.191922 1.000000
0.286960 0.090743 0.467531 1.000000
0.286960 0.433449 -0.127382 1.000000
0.286960 0.433511 -0.235398 1.000000
0.286960 0.083319 0.488028 1.000000
0.286960 -0.432627 -0.186942 1.000000
0.286960 -0.279818 0.344860 1.000000
0.286960 0.223310 0.388873 1.000000
0.286960 -0.331589 -0.324265 1.000000
0.286960 -0.387707 -0.239636 1.000000
0.286960 -0.468840 0.030632 1.000000
0.286960 0.299133 -0.366778 1.000000
0.286960 0.342397 -0.328782 1.000000
0.286960 0.042904 0.473273 1.000000
0.286960 -0.258295 -0.376332 1.000000
0.286960 0.442872 0.066511 1.000000
0.286960 -0.081195 -0.478132 1.000000
0.286960 -0.496275 -0.028878 1.000000
0.286960 0.487519 -0.003974 1.000000
0.286960 -0.478601 -0.037619 1.000000
0.286960 -0.115172 0.461487 1.000000
0.286960 -0.488426 0.006901 1.000000
0.286960 -0.341667 -0.338095 1.000000
0.286960 0.223391 0.413469 1.000000
0.286960 -0.448838 -0.101465 1.000000
0.286960 -0.450015 -0.096737 1.000000
0.286960 -0.141038 0.468971 1.000000
0.286960 -0.278586 0.368755 1.000000
0.286960 -0.382575 0.315418 1.000000
0.286960 0.420992 -0.187190 1.000000
0.286960 0.209797 0.404791 1.000000
0.286960 -0.079850 0.445678 1.000000
0.286960 -0.092674 0.479161 1.000000
0.286960 -0.273880 0.354025 1.000000
0.286960 0.091213 0.433815 1.000000
0.286960 -0.141910 -0.441198 1.000000
0.286960 0.455682 0.021946 1.000000
0.286960 -0.151932 0.464411 1.000000
0.286960 -0.433679 0.102109 1.000000
0.286960 -0.433710 0.137305 1.000000
0.286960 0.182705 -0.438691 1.000000
0.286960 -0.380785 -0.269228 1.000000
0.286960 -0.159244 0.454236 1.000000
0.286960 0.360444 0.301044 1.000000
0.286960 0.234690 0.418084 1.000000
0.286960 0.317162 0.357957 1.000000
0.286960 -0.276399 0.399949 1.000000
0.286960 -0.160470 -0.452255 1.000000
0.286960 0.199284 0.406073 1.000000
0.286960 0.447975 -0.131070 1.000000
0.286960 0.345819 0.293742 1.000000
0.286960 -0.115574 -0.460218 1.000000
0.286960 0.409171 -0.285048 1.000000
0.286960 0.188128 -0.412577 1.000000
0.286960 -0.177816 0.454740 1.000000
0.286960 -0.300481 0.335594 1.000000
0.286960 0.191299 0.449223 1.000000
0.286960 -0.200140 0.426146 1.000000
0.286960 -0.176893 0.449865 1.000000
0.286960 0.132813 0.457767 1.000000
0.286960 0.460090 0.173609 1.000000
0.286960 -0.127760 0.477852 1.000000
0.286960 0.424060 -0.263324 1.000000
0.286960 0.365613 0.260915 1.000000
0.286960 -0.422810 -0.263206 1.000000
0.286960 0.138116 -0.449759 1.000000
0.286960 0.345498 -0.323884 1.000000
0.286960 -0.280893 0.380278 1.000000
0.286960 0.247912 0.403204 1.000000
0.286960 -0.491401 0.026841 1.000000
0.286960 0.403733 -0.237880 1.000000
0.286960 -0.231810 -0.392357 1.000000
0.286960 -0.404281 -0.277643 1.000000
0.286960 0.195994 -0.456736 1.000000
0.286960 0.371850 0.287656 1.000000
0.286960 -0.481522 -0.004185 1.000000
0.286960 -0.457655 0.124637 1.000000
0.286960 -0.456456 -0.177565 1.000000
0.286960 -0.470102 -0.105919 1.000000
0.286960 -0.490253 -0.036750 1.000000
0.286960 -0.417421 0.155538 1.000000
0.286960 -0.320489 0.376093 1.000000
0.286960 0.479957 0.117824 1.000000
0.286960 0.395991 -0.286502 1.000000
0.286960 -0.477760 -0.020747 1.000000
0.286960 0.038170 -0.490224 1.000000
0.286960 -0.401796 0.203380 1.000000
0.286960 0.092650 -0.481462 1.000000
0.286960 -0.143344 -0.433139 1.000000
0.286960 -0.205071 -0.398534 1.000000
0.286960 0.440580 -0.126292 1.000000
0.286960 0.152626 -0.451323 1.000000
0.286960 0.109716 -0.448780 1.000000
0.286960 0.339474 -0.327281 1.000000
0.286960 -0.362777 -0.332698 1.000000
0.286960 -0.374545 -0.318323 1.000000
0.286960 0.017837 -0.452556 1.000000
0.286960 0.451676 0.013045 1.000000
0.286960 0.270557 -0.420074 1.000000
0.286960 0.282192 0.406476 1.000000
0.286960 -0.209433 0.401802 1.000000
0.286960 -0.389768 0.282908 1.000000
0.286960 -0.400759 0.216865 1.000000
0.286960 0.095910 -0.466891 1.000000
0.286960 -0.446963 0.127141 1.000000
0.286960 -0.494763 0.042782 1.000000
0.286960 -0.468294 0.000145 1.000000
0.286960 0.445785 0.039132 1.000000
0.286960 -0.423430 -0.200482 1.000000
0.286960 -0.231910 -0.425676 1.000000
0.286960 -0.474944 -0.038840 1.000000
0.286960 0.019946 0.466792 1.000000
0.286960 0.467755 -0.036342 1.000000
0.286960 -0.329895 -0.353908 1.000000
0.286960 -0.473907 0.024905 1.000000
0.286960 0.209458 0.411057 1.000000
0.286960 -0.421326 -0.209576 1.000000
0.286960 0.468563 0.014745 1.000000
0.286960 0.301838 -0.364516 1.000000
0.286960 0.008364 0.483511 1.000000
0.286960 0.023405 -0.466259 1.000000
0.286960 -0.439261 0.071623 1.000000
0.286960 0.338168 0.355467 1.000000
0.286960 0.492950 -0.066154 1.000000
0.286960 -0.398382 -0.231443 1.000000
0.286960 0.371329 0.301003 1.000000
0.286960 -0.026616 0.462261 1.000000
0.286960 0.409525 -0.190153 1.000000
0.286960 0.374238 -0.295819 1.000000
0.286960 0.438380 -0.147510 1.000000
0.286960 -0.113739 -0.486219 1.000000
0.286960 -0.412879 -0.269458 1.000000
0.286960 0.222382 0.421876 1.000000
0.286960 0.066071 0.475403 1.000000
0.286960 0.412538 -0.173535 1.000000
0.286960 0.277019 0.409831 1.000000
0.286960 0.265842 0.372772 1.000000
0.286960 -0.094155 0.448032 1.000000
0.286960 0.196788 0.411069 1.000000
0.286960 0.092742 -0.440321 1.000000
0.286960 0.445973 -0.012985 1.000000
0.286960 -0.314705 -0.327063 1.000000
0.286960 -0.491303 0.069204 1.000000
0.286960 -0.433629 0.142596 1.000000
0.286960 0.004150 0.491788 1.000000
0.286960 0.424564 0.147129 1.000000
0.286960 0.473805 0.029258 1.000000
0.286960 0.445570 0.077671 1.000000
0.286960 0.448549 -0.204572 1.000000
0.286960 0.146873 0.433897 1.000000
0.286960 0.458155 0.146222 1.000000
0.286960 -0.054717 -0.480564 1.000000
0.286960 -0.359893 0.315402 1.000000
0.286960 0.382807 0.271959 1.000000
0.286960 0.461627 0.049093 1.000000
0.286960 0.462575 0.020020 1.000000
0.286960 -0.267435 0.407998 1.000000
0.286960 -0.087553 -0.486290 1.000000
0.286960 0.278359 0.378665 1.000000
0.286960 -0.212019 -0.426459 1.000000
0.286960 0.491248 0.056634 1.000000
0.286960 -0.427917 0.220265 1.000000
0.286960 0.451878 -0.212386 1.000000
0.286960 -0.039105 0.462795 1.000000
0.286960 -0.320301 0.313494 1.000000
0.286960 -0.454552 0.043465 1.000000
0.286960 -0.363365 0.291336 1.000000
0.286960 0.093055 -0.455495 1.000000
0.286960 0.314395 0.342963 1.000000
0.286960 -0.302072 0.367702 1.000000
0.286960 0.306129 0.369553 1.000000
0.286960 -0.263125 -0.423496 1.000000
0.286960 -0.244732 0.421113 1.000000
0.286960 -0.395914 0.260114 1.000000
0.286960 -0.344361 -0.324390 1.000000
0.286960 -0.084224 -0.488766 1.000000
0.286960 -0.228456 -0.420256 1.000000
0.286960 -0.357265 -0.319374 1.000000
0.286960 0.441037 -0.116878 1.000000
0.286960 0.453890 -0.019036 1.000000
0.286960 0.090527 0.471235 1.000000
0.286960 0.316004 -0.350458 1.000000
0.286960 0.311448 -0.346573 1.000000
0.286960 -0.237714 -0.404545 1.000000
0.286960 -0.469907 -0.164055 1.000000
0.286960 -0.470140 -0.152964 1.000000
0.286960 0.446118 -0.107889 1.000000
0.286960 0.318856 -0.368767 1.000000
0.286960 0.375713 0.240153 1.000000
0.286960 -0.446658 -0.056053 1.000000
0.286960 -0.339897 0.296202 1.000000
0.286960 0.440879 -0.090788 1.000000
0.286960 -0.479131 0.083735 1.000000
0.286960 -0.296934 -0.392073 1.000000
0.286960 -0.349760 0.333274 1.000000
0.286960 -0.178743 0.418671 1.000000
0.286960 -0.110904 0.478023 1.000000
0.286960 0.225251 0.396468 1.000000
0.286960 0.054280 -0.448422 1.000000
0.286960 0.315710 -0.373263 1.000000
0.286960 0.453286 -0.142303 1.000000
0.286960 -0.440268 -0.140744 1.000000
0.286960 -0.346760 -0.297304 1.000000
0.286960 0.066707 0.459557 1.000000
0.286960 0.414979 0.164841 1.000000
0.286960 0.323861 -0.327483 1.000000
0.286960 -0.003208 -0.491611 1.000000
0.286960 0.233744 0.404876 1.000000
0.286960 0.253551 -0.379482 1.000000
0.286960 -0.330999 0.365006 1.000000
0.286960 -0.190684 -0.410223 1.000000
0.286960 -0.416757 0.207951 1.000000
0.286960 -0.475830 -0.006974 1.000000
0.286960 -0.326514 0.300494 1.000000
0.286960 0.261801 0.358561 1.000000
0.286960 0.468986 0.037698 1.000000
0.286960 -0.377098 -0.263941 1.000000
0.286960 -0.343343 -0.298885 1.000000
0.286960 0.134952 -0.448116 1.000000
0.286960 0.202595 0.434315 1.000000
0.286960 -0.416729 -0.182062 1.000000
0.286960 -0.449840 0.009637 1.000000
0.286960 -0.485187 -0.111161 1.000000
0.286960 -0.368141 -0.302108 1.000000
0.286960 0.009268 -0.486441 1.000000
0.286960 -0.206153 0.429380 1.000000
0.286960 -0.256232 0.402611 1.000000
0.286960 -0.458051 -0.057993 1.000000
0.286960 -0.422686 0.222138 1.000000
0.286960 0.471088 0.109785 1.000000
0.286960 0.375373 0.286734 1.000000
0.286960 -0.366668 0.319438 1.000000
0.286960 -0.254663 0.378767 1.000000
0.286960 -0.443308 0.049347 1.000000
0.286960 0.250717 -0.371913 1.000000
0.286960 0.175245 0.430305 1.000000
0.286960 0.295771 0.384506 1.000000
0.286960 -0.159855 0.424869 1.000000
0.286960 -0.043032 0.472101 1.000000
0.286960 -0.192822 -0.441109 1.000000
0.286960 0.247550 -0.384315 1.000000
0.286960 -0.031727 -0.495748 1.000000
0.286960 0.442187 -0.059969 1.000000
0.286960 -0.266261 -0.378687 1.000000
0.286960 -0.456618 -0.022285 1.000000
0.286960 -0.229628 -0.428335 1.000000
0.286960 0.287499 -0.371277 1.000000
0.286960 0.466005 0.062226 1.000000
0.286960 -0.463955 -0.020578 1.000000
0.286960 0.316082 -0.366144 1.000000
0.286960 0.458379 -0.138806 1.000000
0.286960 -0.247633 -0.433462 1.000000
0.286960 0.455447 -0.002027 1.000000
0.286960 0.397577 -0.280485 1.000000
0.286960 -0.375832 -0.303984 1.000000
0.286960 -0.483983 -0.041936 1.000000
0.286960 0.454005 0.079715 1.000000
0.286960 -0.464228 0.115970 1.000000
0.286960 -0.120401 -0.453215 1.000000
0.286960 0.228960 0.408598 1.000000
0.286960 0.408066 0.177610 1.000000
0.286960 0.443270 0.162585 1.000000
0.286960 -0.335859 0.309183 1.000000
0.286960 0.180683 -0.435458 1.000000
0.286960 -0.029509 0.466293 1.000000
0.286960 -0.009180 -0.461714 1.000000
0.286960 -0.088538 0.449327 1.000000
0.286960 -0.003716 -0.456795 1.000000
0.286960 -0.261397 0.359735 1.000000
0.286960 0.054055 0.452212 1.000000
0.286960 0.466903 -0.119195 1.000000
0.286960 -0.039462 0.454489 1.000000
0.286960 -0.200854 0.430040 1.000000
0.286960 -0.430552 -0.234320 1.000000
0.286960 -0.382745 -0.274653 1.000000
0.286960 0.489596 0.018914 1.000000
0.286960 -0.460200 -0.130963 1.000000
0.286960 -0.372113 -0.321357 1.000000
0.286960 -0.386392 -0.267206 1.000000
0.286960 -0.476851 0.074999 1.000000
0.286960 -0.077656 -0.467856 1.000000
0.286960 0.204780 0.412109 1.000000
0.286960 0.322696 -0.330485 1.000000
0.286960 0.463333 -0.059944 1.000000
0.286960 -0.358390 -0.339879 1.000000
0.286960 -0.333450 -0.327375 1.000000
0.286960 0.325979 -0.364382 1.000000
0.286960 -0.475466 0.000132 1.000000
0.286960 -0.320904 -0.364602 1.000000
0.286960 -0.346370 -0.335109 1.000000
0.286960 0.454210 -0.008528 1.000000
0.286960 0.435190 -0.172553 1.000000
0.286960 0.081221 -0.470478 1.000000
0.286960 0.319054 -0.314234 1.000000
0.286960 -0.035950 0.475983 1.000000
0.286960 0.453371 -0.167442 1.000000
0.286960 -0.224918 0.425058 1.000000
0.286960 0.133473 -0.474762 1.000000
0.286960 0.456418 0.001284 1.000000
0.286960 0.478903 0.134944 1.000000
0.286960 -0.464378 -0.094233 1.000000
0.286960 0.417513 0.228463 1.000000
0.286960 -0.273979 0.357093 1.000000
0.286960 -0.483396 -0.119024 1.000000
0.286960 -0.147103 -0.434566 1.000000
0.286960 0.450813 -0.076062 1.000000
0.286960 -0.496429 0.031166 1.000000
0.286960 0.144522 -0.448967 1.000000
0.286960 0.425106 -0.248062 1.000000
0.286960 -0.120720 0.434469 1.000000
0.286960 -0.259258 -0.367996 1.000000
0.286960 0.392167 -0.309325 1.000000
0.286960 0.446543 -0.009155 1.000000
0.286960 -0.294874 -0.367760 1.000000
0.286960 -0.439299 -0.163618 1.000000
0.286960 0.286736 -0.349906 1.000000
0.286960 0.140610 0.444621 1.000000
0.286960 0.077444 0.480093 1.000000
0.286960 -0.405241 0.285257 1.000000
0.286960 0.098209 0.481694 1.000000
0.286960 0.404338 0.204638 1.000000
0.286960 -0.011507 0.490476 1.000000
0.286960 0.456363 -0.202007 1.000000
0.286960 -0.477869 -0.128926 1.000000
0.286960 0.399356 0.227739 1.000000
0.286960 0.273058 -0.393455 1.000000
0.286960 -0.320091 -0.337833 1.000000
0.286960 -0.415025 -0.235203 1.000000
0.286960 0.456225 0.004497 1.000000
0.286960 -0.098443 -0.452190 1.000000
0.286960 0.397043 -0.275507 1.000000
0.286960 -0.221482 -0.415153 1.000000
0.286960 0.493733 0.047069 1.000000
0.286960 0.458555 0.180181 1.000000
0.286960 -0.322857 0.351297 1.000000
0.286960 -0.491002 0.020567 1.000000
0.286960 -0.404165 0.252260 1.000000
0.286960 0.035913 0.489411 1.000000
0.286960 -0.006538 0.444805 1.000000
0.286960 -0.059475 -0.454902 1.000000
0.286960 0.294855 0.380045 1.000000
0.286960 -0.315371 0.340689 1.000000
0.286960 0.392881 -0.219037 1.000000
0.286960 0.123287 -0.470138 1.000000
0.286960 0.186680 0.459584 1.000000
0.286960 0.206124 0.441720 1.000000
0.286960 -0.181094 -0.449687 1.000000
0.286960 -0.034234 0.449433 1.000000
0.286960 -0.425561 -0.193226 1.000000
0.286960 -0.297983 0.332516 1.000000
0.286960 0.411306 -0.192748 1.000000
0.286960 0.231590 -0.427542 1.000000
0.286960 -0.030221 -0.455805 1.000000
0.286960 -0.474212 0.062416 1.000000
0.286960 0.385149 -0.301076 1.000000
0.286960 0.433147 -0.203461 1.000000
0.286960 -0.233629 -0.386323 1.000000
0.286960 -0.089582 0.463008 1.000000
0.286960 -0.371049 0.291210 1.000000
0.286960 -0.414074 0.195011 1.000000
0.286960 0.205047 -0.414339 1.000000
0.286960 -0.329505 -0.339243 1.000000
0.286960 -0.158205 0.446188 1.000000
0.286960 0.071124 -0.442066 1.000000
0.286960 -0.225526 0.436984 1.000000
0.286960 0.231710 0.380279 1.000000
0.286960 0.227734 0.393838 1.000000
0.286960 -0.216877 0.427051 1.000000
0.286960 -0.098221 -0.437288 1.000000
0.286960 0.145581 0.472140 1.000000
0.286960 0.416337 0.181128 1.000000
0.286960 -0.263025 0.390300 1.000000
0.286960 0.175111 -0.448139 1.000000
0.286960 0.367376 -0.325022 1.000000
0.286960 -0.387816 0.298475 1.000000
0.286960 0.451791 0.037418 1.000000
0.286960 0.389273 -0.257921 1.000000
0.286960 0.471564 0.065292 1.000000
0.286960 -0.329101 -0.304989 1.000000
0.286960 -0.050621 -0.471447 1.000000
0.286960 -0.408848 0.232841 1.000000
0.286960 -0.473701 -0.083974 1.000000
0.286960 0.291409 0.375309 1.000000
0.286960 -0.443038 -0.156469 1.000000
0.286960 -0.279263 -0.407995 1.000000
0.286960 0.203447 -0.402107 1.000000
0.286960 0.086921 0.434821 1.000000
0.286960 0.365059 0.266032 1.000000
0.286960 0.443122 0.135754 1.000000
0.286960 0.232317 0.407906 1.000000
0.286960 -0.050735 -0.477814 1.000000
0.286960 0.168384 0.463544 1.000000
0.286960 -0.123148 -0.430414 1.000000
0.286960 0.417344 0.242908 1.000000
0.286960 0.247853 -0.400142 1.000000
0.286960 0.028125 0.445882 1.000000
0.286960 -0.233924 -0.382893 1.000000
0.286960 -0.178773 -0.435003 1.000000
0.286960 -0.144642 0.455042 1.000000
0.286960 -0.136675 -0.458833 1.000000
0.286960 -0.463751 0.112107 1.000000
0.286960 -0.425110 -0.221966 1.000000
0.286960 0.255038 -0.394475 1.000000
0.286960 0.237353 0.401672 1.000000
0.286960 0.370103 0.262679 1.000000
0.286960 -0.151823 0.441802 1.000000
0.286960 -0.446102 0.053717 1.000000
0.286960 -0.365732 -0.339373 1.000000
0.286960 -0.339350 -0.364655 1.000000
0.286960 -0.005051 -0.447999 1.000000
0.286960 -0.451775 0.145912 1.000000
0.286960 -0.447330 0.075976 1.000000
0.286960 -0.373667 0.256150 1.000000
0.286960 -0.393638 -0.257271 1.000000
0.286960 0.165038 -0.432668 1.000000
0.286960 -0.454774 -0.155740 1.000000
0.286960 0.443963 -0.095542 1.000000
0.286960 -0.364631 -0.294167 1.000000
0.286960 -0.037733 -0.474496 1.000000
0.286960 0.054840 0.470586 1.000000
0.286960 -0.144114 0.424591 1.000000
0.286960 0.433160 -0.246630 1.000000
0.286960 0.441176 0.176670 1.000000
0.286960 -0.017495 -0.463954 1.000000
0.286960 0.141751 -0.436770 1.000000
0.286960 0.355235 0.279953 1.000000
0.286960 0.390181 0.275980 1.000000
0.286960 -0.347462 -0.304975 1.000000
0.286960 0.141373 -0.446811 1.000000
0.286960 -0.383164 0.278097 1.000000
0.286960 -0.482373 -0.046701 1.000000
0.286960 -0.313625 -0.336963 1.000000
0.286960 -0.319169 0.359259 1.000000
0.286960 -0.445090 0.116711 1.000000
0.286960 -0.122478 0.475791 1.000000
0.286960 0.312182 0.355814 1.000000
0.286960 -0.356283 0.291818 1.000000
0.286960 -0.005780 0.488027 1.000000
0.286960 0.442190 -0.070172 1.000000
0.286960 -0.373393 0.300767 1.000000
0.286960 -0.433146 -0.227551 1.000000
0.286960 0.335735 0.365455 1.000000
0.286960 0.117061 0.458238 1.000000
0.286960 -0.287633 -0.373911 1.000000
0.286960 -0.283582 0.382371 1.000000
0.286960 0.155397 0.456486 1.000000
0.286960 0.098265 -0.481528 1.000000
0.286960 -0.457413 0.099726 1.000000
0.286960 0.378893 -0.294805 1.000000
0.286960 0.184223 0.425369 1.000000
0.286960 0.477805 -0.073281 1.000000
0.286960 0.059363 0.451555 1.000000
0.286960 0.271675 0.377956 1.000000
0.286960 0.265119 0.376963 1.000000
0.286960 -0.298969 -0.399479 1.000000
0.286960 0.317896 0.350101 1.000000
0.286960 -0.083409 0.461673 1.000000
0.286960 0.069895 -0.468152 1.000000
0.286960 -0.366835 0.271217 1.000000
0.286960 0.056351 0.449575 1.000000
0.286960 0.336178 -0.336081 1.000000
0.286960 -0.369042 0.293560 1.000000
0.286960 0.190228 -0.456540 1.000000
0.286960 -0.423511 0.212095 1.000000
0.286960 -0.129045 0.436204 1.000000
0.286960 0.440817 -0.144381 1.000000
0.286960 0.227686 -0.391684 1.000000
0.286960 -0.027405 0.484538 1.000000
0.286960 -0.195653 0.447478 1.000000
0.286960 -0.445412 0.209276 1.000000
0.286960 0.476718 0.000983 1.000000
0.286960 0.386314 0.311259 1.000000
0.286960 0.479130 -0.001339 1.000000
0.286960 0.163983 -0.458885 1.000000
0.286960 0.027619 0.464155 1.000000
0.286960 0.243055 0.413916 1.000000
0.286960 -0.435327 0.233246 1.000000
0.286960 0.181983 0.437203 1.000000
0.286960 -0.394022 0.287711 1.000000
0.286960 0.445206 -0.142565 1.000000
0.286960 0.020038 0.475023 1.000000
0.286960 0.432225 0.192977 1.000000
0.286960 -0.112882 0.453039 1.000000
0.286960 0.495640 -0.043565 1.000000
0.286960 -0.275266 0.395348 1.000000
0.286960 0.211480 0.426293 1.000000
0.286960 -0.466357 0.118719 1.000000
0.286960 0.263819 -0.394718 1.000000
0.286960 -0.353765 0.298103 1.000000
0.286960 0.461197 0.095235 1.000000
0.286960 0.257442 -0.382359 1.000000
0.286960 0.457764 -0.035059 1.000000
0.286960 0.289399 -0.400383 1.000000
0.286960 0.123318 0.474454 1.000000
0.286960 -0.373037 -0.292560 1.000000
0.286960 -0.330864 -0.335826 1.000000
0.286960 0.404340 -0.288102 1.000000
0.286960 0.405363 -0.210812 1.000000
0.286960 -0.061593 -0.470430 1.000000
0.286960 0.471816 0.145790 1.000000
0.286960 -0.396506 0.295946 1.000000
0.286960 0.126744 -0.442149 1.000000
0.286960 -0.401014 0.285181 1.000000
0.286960 0.218578 0.421842 1.000000
0.286960 -0.450165 0.174249 1.000000
0.286960 -0.122090 0.470966 1.000000
0.286960 -0.252169 0.419378 1.000000
0.286960 0.330226 0.310561 1.000000
0.286960 -0.306344 0.376619 1.000000
0.286960 -0.232754 0.429000 1.000000
0.286960 -0.420150 -0.214353 1.000000
0.286960 -0.330035 -0.318974 1.000000
0.286960 -0.423676 -0.239710 1.000000
0.286960 0.186616 0.445524 1.000000
0.286960 0.376108 0.312387 1.000000
0.286960 -0.082519 0.487628 1.000000
0.286960 -0.467577 -0.091242 1.000000
0.286960 0.340517 -0.339424 1.000000
0.286960 -0.179582 -0.425770 1.000000
0.286960 -0.491418 -0.002039 1.000000
0.286960 -0.365601 0.277693 1.000000
0.286960 0.354178 0.342850 1.000000
0.286960 0.370839 0.277329 1.000000
0.286960 -0.475198 -0.063116 1.000000
0.286960 0.417692 -0.245107 1.000000
0.286960 0.204569 -0.441520 1.000000
0.286960 -0.465147 -0.076096 1.000000
0.286960 -0.084462 -0.443137 1.000000
0.286960 0.070312 -0.458709 1.000000
0.286960 -0.429283 0.154713 1.000000
0.286960 0.394643 0.262505 1.000000
0.286960 0.064956 0.450825 1.000000
