-0.290288 0.249771 0.402254 4.000000
-0.290288 0.010231 -0.497138 4.000000
-0.290288 0.326743 -0.340014 4.000000
-0.290288 0.244562 0.425326 4.000000
-0.290288 0.329414 -0.310020 4.000000
-0.290288 0.115651 -0.481397 4.000000
-0.290288 -0.247395 0.385389 4.000000
-0.290288 0.132560 -0.463878 4.000000
-0.290288 0.479703 0.010011 4.000000
-0.290288 0.301266 0.337374 4.000000
-0.290288 -0.461643 0.182316 4.000000
-0.290288 0.176909 0.439655 4.000000
-0.290288 -0.341897 0.295091 4.000000
-0.290288 -0.466598 -0.164155 4.000000
-0.290288 0.427311 -0.203572 4.000000
-0.290288 -0.032612 0.449569 4.000000
-0.290288 0.473433 0.132874 4.000000
-0.290288 -0.056395 -0.456307 4.000000
-0.290288 -0.197167 -0.428208 4.000000
-0.290288 -0.465795 -0.140339 4.000000
-0.290288 -0.327270 0.363857 4.000000
-0.290288 -0.401814 0.215832 4.000000
-0.290288 -0.465478 0.020996 4.000000
-0.290288 0.155794 0.449067 4.000000
-0.290288 -0.082113 -0.468763 4.000000
-0.290288 0.244523 0.431433 4.000000
-0.290288 -0.421241 0.198760 4.000000
-0.290288 -0.354567 -0.324101 4.000000
-0.290288 0.107364 -0.488078 4.000000
-0.290288 0.168171 -0.459742 4.000000
-0.290288 0.254551 -0.397203 4.000000
-0.290288 -0.433971 0.187610 4.000000
-0.290288 0.273400 -0.396116 4.000000
-0.290288 0.336763 -0.350948 4.000000
-0.290288 0.195770 -0.411778 4.000000
-0.290288 -0.400505 -0.266388 4.000000
-0.290288 -0.341914 -0.334053 4.000000
-0.290288 -0.259699 -0.412877 4.000000
-0.290288 0.408400 -0.257676 4.000000
-0.290288 0.443405 0.204891 4.000000
-0.290288 0.443258 -0.059303 4.000000
-0.290288 -0.349938 0.345358 4.000000
-0.290288 0.191026 -0.419194 4.000000
-0.290288 -0.457146 -0.142159 4.000000
-0.290288 0.392807 0.247713 4.000000
-0.290288 -0.322162 -0.350371 4.000000
-0.290288 -0.312225 -0.356217 4.000000
-0.290288 -0.096497 -0.441041 4.000000
-0.290288 0.482649 -0.039949 4.000000
-0.290288 -0.431824 0.183878 4.000000
-0.290288 0.321327 0.318651 4.000000
-0.290288 0.034431 -0.468011 4.000000
-0.290288 0.112288 0.430262 4.000000
-0.290288 -0.478829 -0.084787 4.000000
-0.290288 -0.430441 0.156221 4.000000
-0.290288 -0.193915 0.409729 4.000000
-0.290288 0.241895 0.380123 4.000000
-0.290288 -0.426461 0.214811 4.000000
-0.290288 -0.291123 -0.362890 4.000000
-0.290288 0.341372 0.311245 4.000000
-0.290288 0.105090 0.448450 4.000000
-0.290288 -0.018020 -0.481839 4.000000
-0.290288 0.089502 -0.471560 4.000000
-0.290288 -0.391395 -0.250362 4.000000
-0.290288 0.025409 0.489048 4.000000
-0.290288 -0.001027 0.488806 4.000000
-0.290288 0.439050 -0.236873 4.000000
-0.290288 -0.475387 0.062830 4.000000
-0.290288 -0.310737 0.361721 4.000000
-0.290288 0.339514 0.295587 4.000000
-0.290288 0.015908 -0.484331 4.000000
-0.290288 0.229342 0.426907 4.000000
-0.290288 -0.282734 0.367933 4.000000
-0.290288 -0.439785 0.166471 4.000000
-0.290288 0.473857 0.065465 4.000000
-0.290288 0.130600 0.436458 4.000000
-0.290288 0.360986 -0.274894 4.000000
-0.290288 0.455290 0.041902 4.000000
-0.290288 0.101096 0.448077 4.000000
-0.290288 -0.478276 0.020386 4.000000
-0.290288 0.450664 -0.024826 4.000000
-0.290288 -0.346345 -0.307757 4.000000
-0.290288 0.011418 -0.492958 4.000000
-0.290288 -0.392286 -0.220168 4.000000
-0.290288 0.183540 0.460201 4.000000
-0.290288 0.366796 0.304533 4.000000
-0.290288 -0.046628 -0.447318 4.000000
-0.290288 0.170973 -0.442254 4.000000
-0.290288 -0.462403 -0.112891 4.000000
-0.290288 0.267074 0.403756 4.000000
-0.290288 -0.097369 0.481591 4.000000
-0.290288 -0.061440 -0.454507 4.000000
-0.290288 0.406234 0.277457 4.000000
-0.290288 -0.449991 0.126000 4.000000
-0.290288 0.461804 0.042042 4.000000
-0.290288 -0.473247 -0.035191 4.000000
-0.290288 -0.192699 0.412931 4.000000
-0.290288 -0.002834 0.459764 4.000000
-0.290288 -0.424569 -0.189874 4.000000
-0.290288 0.456332 -0.092434 4.000000
-0.290288 0.447588 0.038722 4.000000
-0.290288 0.236965 -0.399297 4.000000
-0.290288 -0.291862 -0.394789 4.000000
-0.290288 -0.259923 0.376596 4.000000
-0.290288 0.390736 -0.277996 4.000000
-0.290288 0.139946 -0.466569 4.000000
-0.290288 0.125647 0.467212 4.000000
-0.290288 0.352563 -0.286929 4.000000
-0.290288 -0.240040 0.390544 4.000000
-0.290288 -0.015438 0.495202 4.000000
-0.290288 0.443656 0.201303 4.000000
-0.290288 0.206458 0.433919 4.000000
-0.290288 0.482423 0.050033 4.000000
-0.290288 -0.309392 0.372952 4.000000
-0.290288 -0.012529 -0.463326 4.000000
-0.290288 -0.438695 -0.088596 4.000000
-0.290288 -0.479138 0.083620 4.000000
-0.290288 0.453513 -0.164601 4.000000
-0.290288 -0.148852 -0.472779 4.000000
-0.290288 -0.286772 0.389771 4.000000
-0.290288 0.397499 0.258161 4.000000
-0.290288 -0.463648 0.166303 4.000000
-0.290288 -0.477564 0.043280 4.000000
-0.290288 -0.427174 -0.231985 4.000000
-0.290288 0.034039 -0.471436 4.000000
-0.290288 0.134247 0.443016 4.000000
-0.290288 0.458490 0.188836 4.000000
-0.290288 -0.245528 0.390854 4.000000
-0.290288 0.284946 0.388915 4.000000
-0.290288 -0.208363 -0.395796 4.000000
-0.290288 0.333827 -0.363419 4.000000
-0.290288 0.437951 -0.106347 4.000000
-0.290288 -0.475683 0.099817 4.000000
-0.290288 -0.456331 0.143723 4.000000
-0.290288 -0.451233 0.059396 4.000000
-0.290288 -0.428308 0.117824 4.000000
-0.290288 0.122673 -0.454559 4.000000
-0.290288 -0.341683 0.351106 4.000000
-0.290288 0.403166 0.284299 4.000000
-0.290288 -0.294684 0.355280 4.000000
-0.290288 0.047602 -0.479832 4.000000
-0.290288 0.109282 -0.473777 4.000000
-0.290288 -0.062956 0.483406 4.000000
-0.290288 -0.159029 0.418504 4.000000
-0.290288 0.456690 0.019111 4.000000
-0.290288 -0.354033 0.339440 4.000000
-0.290288 0.353244 0.335918 4.000000
-0.290288 0.237450 0.425722 4.000000
-0.290288 0.371591 -0.283503 4.000000
-0.290288 -0.440358 0.119001 4.000000
-0.290288 -0.480813 0.123808 4.000000
-0.290288 -0.271765 0.351216 4.000000
-0.290288 -0.306920 0.337112 4.000000
-0.290288 -0.399837 0.221643 4.000000
-0.290288 0.353853 0.299800 4.000000
-0.290288 0.339058 -0.306296 4.000000
-0.290288 0.330482 0.362984 4.000000
-0.290288 0.364012 -0.268760 4.000000
-0.290288 0.446881 0.161449 4.000000
-0.290288 0.370716 0.253813 4.000000
-0.290288 0.389753 0.236714 4.000000
-0.290288 0.450446 -0.071311 4.000000
-0.290288 0.188086 0.428500 4.000000
-0.290288 0.178259 -0.436478 4.000000
-0.290288 -0.284913 -0.362437 4.000000
-0.290288 0.148421 -0.474477 4.000000
-0.290288 -0.145377 -0.473602 4.000000
-0.290288 -0.459580 -0.032603 4.000000
-0.290288 0.067749 0.444868 4.000000
-0.290288 -0.139035 0.451097 4.000000
-0.290288 0.400055 -0.215642 4.000000
-0.290288 -0.075648 -0.462646 4.000000
-0.290288 -0.341523 -0.349025 4.000000
-0.290288 -0.233976 0.400654 4.000000
-0.290288 0.473385 0.039591 4.000000
-0.290288 -0.225164 0.441519 4.000000
-0.290288 0.279565 0.406587 4.000000
-0.290288 -0.370504 -0.305453 4.000000
-0.290288 0.275741 -0.362658 4.000000
-0.290288 0.290738 -0.385309 4.000000
-0.290288 -0.050138 0.484138 4.000000
-0.290288 0.448745 -0.038146 4.000000
-0.290288 -0.088345 0.484431 4.000000
-0.290288 -0.272806 -0.410045 4.000000
-0.290288 -0.269143 0.412212 4.000000
-0.290288 0.454903 -0.141699 4.000000
-0.290288 0.465803 -0.120317 4.000000
-0.290288 0.406719 -0.220132 4.000000
-0.290288 0.264528 0.408926 4.000000
-0.290288 -0.237243 0.415944 4.000000
-0.290288 0.266417 -0.363059 4.000000
-0.290288 -0.472338 0.010967 4.000000
-0.290288 -0.472185 0.015341 4.000000
-0.290288 0.325859 0.362273 4.000000
-0.290288 0.034398 0.459955 4.000000
-0.290288 -0.398839 0.284055 4.000000
-0.290288 -0.283923 0.343212 4.000000
-0.290288 -0.222661 0.406427 4.000000
-0.290288 0.218954 -0.435480 4.000000
-0.290288 -0.478006 0.056883 4.000000
-0.290288 -0.151229 0.416821 4.000000
-0.290288 -0.456836 -0.180333 4.000000
-0.290288 -0.471491 0.140847 4.000000
-0.290288 0.344890 0.310396 4.000000
-0.290288 -0.260592 -0.385857 4.000000
-0.290288 -0.349948 -0.324449 4.000000
-0.290288 0.344283 -0.352408 4.000000
-0.290288 -0.398498 -0.281081 4.000000
-0.290288 -0.065714 -0.463893 4.000000
-0.290288 -0.417922 0.173269 4.000000
-0.290288 -0.392619 -0.246015 4.000000
-0.290288 0.156062 -0.425543 4.000000
-0.290288 -0.237560 -0.420194 4.000000
-0.290288 0.481615 0.100792 4.000000
-0.290288 0.496845 -0.023540 4.000000
-0.290288 -0.456856 -0.067858 4.000000
-0.290288 -0.434263 0.228598 4.000000
-0.290288 -0.216084 0.411211 4.000000
-0.290288 0.412278 0.216221 4.000000
-0.290288 0.424711 0.255371 4.000000
-0.290288 0.466847 0.040845 4.000000
-0.290288 -0.363446 -0.305272 4.000000
-0.290288 0.294436 -0.339462 4.000000
-0.290288 -0.407561 0.270676 4.000000
-0.290288 0.098038 0.433280 4.000000
-0.290288 0.427699 0.158901 4.000000
-0.290288 0.105753 -0.459007 4.000000
-0.290288 0.187875 0.434169 4.000000
-0.290288 0.215656 -0.395155 4.000000
-0.290288 -0.481557 -0.061665 4.000000
-0.290288 0.221964 0.443704 4.000000
-0.290288 0.209772 -0.405040 4.000000
-0.290288 0.453953 0.142121 4.000000
-0.290288 -0.463795 -0.055794 4.000000
-0.290288 -0.496927 0.011445 4.000000
-0.290288 0.421867 0.204499 4.000000
-0.290288 0.345362 0.325725 4.000000
-0.290288 0.002779 -0.482527 4.000000
-0.290288 0.486215 0.050222 4.000000
-0.290288 -0.361005 -0.317427 4.000000
-0.290288 0.461353 -0.009299 4.000000
-0.290288 0.474993 -0.153154 4.000000
-0.290288 -0.174979 0.444076 4.000000
-0.290288 -0.363717 0.290240 4.000000
-0.290288 -0.184408 0.451957 4.000000
-0.290288 0.314440 -0.333940 4.000000
-0.290288 0.060549 -0.495737 4.000000
-0.290288 -0.459735 -0.139000 4.000000
-0.290288 0.375790 0.283433 4.000000
-0.290288 -0.427648 -0.248267 4.000000
-0.290288 0.002426 0.450634 4.000000
-0.290288 -0.376529 0.244966 4.000000
-0.290288 0.449727 0.064048 4.000000
-0.290288 -0.456883 0.078570 4.000000
-0.290288 0.026709 0.491962 4.000000
-0.290288 0.196560 -0.407925 4.000000
-0.290288 0.027305 -0.475021 4.000000
-0.290288 -0.294122 0.369372 4.000000
-0.290288 0.053097 -0.468606 4.000000
-0.290288 0.315092 -0.382487 4.000000
-0.290288 0.246025 0.419646 4.000000
-0.290288 -0.042814 -0.446568 4.000000
-0.290288 0.447800 -0.096405 4.000000
-0.290288 -0.285084 0.405894 4.000000
-0.290288 -0.464135 0.151816 4.000000
-0.290288 0.193912 -0.451829 4.000000
-0.290288 -0.471422 0.120785 4.000000
-0.290288 0.421831 -0.258841 4.000000
-0.290288 0.429813 0.170678 4.000000
-0.290288 0.208071 -0.449996 4.000000
-0.290288 -0.467099 -0.093235 4.000000
-0.290288 -0.151822 0.443045 4.000000
-0.290288 0.360759 -0.333557 4.000000
-0.290288 -0.039909 -0.458012 4.000000
-0.290288 -0.098466 -0.471748 4.000000
-0.290288 -0.435309 -0.221898 4.000000
-0.290288 0.308461 0.365409 4.000000
-0.290288 0.309496 -0.328170 4.000000
-0.290288 -0.398476 0.218023 4.000000
-0.290288 0.357729 0.284511 4.000000
-0.290288 -0.017240 -0.475399 4.000000
-0.290288 0.040313 0.457185 4.000000
-0.290288 -0.112679 0.436159 4.000000
-0.290288 -0.455114 0.107082 4.000000
-0.290288 -0.145520 -0.461383 4.000000
-0.290288 -0.140268 -0.478371 4.000000
-0.290288 0.305163 -0.345479 4.000000
-0.290288 -0.127266 -0.471333 4.000000
-0.290288 0.495041 -0.058911 4.000000
-0.290288 -0.435733 -0.189486 4.000000
-0.290288 0.184667 -0.438957 4.000000
-0.290288 0.189061 0.401730 4.000000
-0.290288 -0.238068 0.380867 4.000000
-0.290288 0.084709 0.481624 4.000000
-0.290288 0.049348 0.480824 4.000000
-0.290288 0.165316 0.456179 4.000000
-0.290288 0.477384 -0.104901 4.000000
-0.290288 0.019323 -0.453522 4.000000
-0.290288 -0.258391 0.385479 4.000000
-0.290288 0.292072 -0.399539 4.000000
-0.290288 0.430975 -0.228246 4.000000
-0.290288 -0.317876 -0.366397 4.000000
-0.290288 0.427117 -0.157630 4.000000
-0.290288 0.166024 -0.469854 4.000000
-0.290288 -0.285247 0.359710 4.000000
-0.290288 -0.053110 0.445095 4.000000
-0.290288 -0.275603 -0.366158 4.000000
-0.290288 -0.404571 -0.291902 4.000000
-0.290288 -0.442474 -0.106857 4.000000
-0.290288 0.476291 0.025191 4.000000
-0.290288 -0.489302 0.036146 4.000000
-0.290288 -0.270852 0.408251 4.000000
-0.290288 -0.467723 0.071939 4.000000
-0.290288 0.206568 -0.403971 4.000000
-0.290288 0.313152 -0.350349 4.000000
-0.290288 -0.370450 0.319591 4.000000
-0.290288 -0.384724 0.232400 4.000000
-0.290288 -0.016834 0.471745 4.000000
-0.290288 -0.374630 0.320195 4.000000
-0.290288 0.396815 0.204834 4.000000
-0.290288 -0.126397 0.439892 4.000000
-0.290288 -0.469760 -0.126981 4.000000
-0.290288 -0.433305 0.119245 4.000000
-0.290288 0.285512 -0.410424 4.000000
-0.290288 0.450204 0.167511 4.000000
-0.290288 0.492629 0.016960 4.000000
-0.290288 -0.351731 -0.353644 4.000000
-0.290288 -0.454703 -0.136555 4.000000
-0.290288 0.415990 -0.178948 4.000000
-0.290288 0.392113 -0.230009 4.000000
-0.290288 0.223266 -0.431302 4.000000
-0.290288 -0.125906 -0.483657 4.000000
-0.290288 -0.350941 -0.293536 4.000000
-0.290288 0.338803 -0.367174 4.000000
-0.290288 -0.294535 0.387629 4.000000
-0.290288 0.268035 -0.378585 4.000000
-0.290288 0.126236 0.479740 4.000000
-0.290288 0.364595 -0.317593 4.000000
-0.290288 -0.430099 -0.174068 4.000000
-0.290288 -0.149506 -0.425027 4.000000
-0.290288 0.254556 -0.426183 4.000000
-0.290288 -0.095153 0.452980 4.000000
-0.290288 -0.363714 0.268531 4.000000
-0.290288 -0.439981 0.170812 4.000000
-0.290288 -0.374003 0.295196 4.000000
-0.290288 -0.193166 -0.408949 4.000000
-0.290288 -0.423784 0.251345 4.000000
-0.290288 0.233660 0.418314 4.000000
-0.290288 0.200161 -0.458373 4.000000
-0.290288 0.423933 0.139392 4.000000
-0.290288 -0.335211 -0.297460 4.000000
-0.290288 -0.372358 -0.294215 4.000000
-0.290288 0.200529 0.428277 4.000000
-0.290288 -0.223683 0.402802 4.000000
-0.290288 0.012835 -0.499588 4.000000
-0.290288 0.430191 -0.162471 4.000000
-0.290288 -0.268825 0.353288 4.000000
-0.290288 -0.072302 -0.477178 4.000000
-0.290288 -0.379108 -0.257400 4.000000
-0.290288 -0.440414 -0.191737 4.000000
-0.290288 -0.066502 0.479861 4.000000
-0.290288 -0.021819 0.455711 4.000000
-0.290288 0.322222 -0.352077 4.000000
-0.290288 0.468543 0.167458 4.000000
-0.290288 -0.417558 0.152194 4.000000
-0.290288 -0.459297 -0.010125 4.000000
-0.290288 0.109624 -0.438567 4.000000
-0.290288 -0.453794 0.200505 4.000000
-0.290288 -0.435669 0.223663 4.000000
-0.290288 0.406570 0.227947 4.000000
-0.290288 -0.427609 0.154715 4.000000
-0.290288 -0.091783 -0.472376 4.000000
-0.290288 -0.387973 -0.313753 4.000000
-0.290288 0.020443 0.451259 4.000000
-0.290288 -0.032875 -0.455005 4.000000
-0.290288 0.493371 -0.023295 4.000000
-0.290288 0.218300 0.442479 4.000000
-0.290288 0.319171 0.377151 4.000000
-0.290288 -0.260131 0.404572 4.000000
-0.290288 -0.260820 0.421081 4.000000
-0.290288 0.020361 0.457632 4.000000
-0.290288 -0.497037 -0.002784 4.000000
-0.290288 -0.302308 0.365929 4.000000
-0.290288 0.363619 0.304590 4.000000
-0.290288 0.481507 -0.029226 4.000000
-0.290288 -0.453112 -0.074331 4.000000
-0.290288 0.206437 0.418992 4.000000
-0.290288 0.465601 -0.167868 4.000000
-0.290288 0.134854 -0.467156 4.000000
-0.290288 -0.371818 0.277654 4.000000
-0.290288 -0.388407 0.238259 4.000000
-0.290288 0.487528 0.096611 4.000000
-0.290288 0.180252 0.417937 4.000000
-0.290288 0.413209 0.198199 4.000000
-0.290288 -0.368088 -0.337103 4.000000
-0.290288 -0.033806 -0.476856 4.000000
-0.290288 0.484435 0.093631 4.000000
-0.290288 0.000578 -0.457484 4.000000
-0.290288 0.122722 -0.442045 4.000000
-0.290288 -0.361455 -0.272632 4.000000
-0.290288 0.194030 -0.428086 4.000000
-0.290288 -0.128568 -0.468281 4.000000
-0.290288 0.398622 0.254163 4.000000
-0.290288 0.459520 0.177307 4.000000
-0.290288 0.077480 -0.469947 4.000000
-0.290288 0.455035 -0.185902 4.000000
-0.290288 0.490509 -0.031508 4.000000
-0.290288 -0.480680 0.043231 4.000000
-0.290288 0.070750 0.469023 4.000000
-0.290288 0.231455 -0.436479 4.000000
-0.290288 0.421355 -0.205035 4.000000
-0.290288 0.111224 -0.487729 4.000000
-0.290288 0.065382 0.447767 4.000000
-0.290288 0.154115 -0.465696 4.000000
-0.290288 0.434296 -0.154492 4.000000
-0.290288 0.236356 0.391049 4.000000
-0.290288 0.102097 0.438311 4.000000
-0.290288 -0.286709 -0.398477 4.000000
-0.290288 -0.409208 -0.230167 4.000000
-0.290288 -0.376281 0.273622 4.000000
-0.290288 -0.422964 0.209604 4.000000
-0.290288 0.232671 -0.432296 4.000000
-0.290288 0.406781 0.234706 4.000000
-0.290288 0.478984 -0.077805 4.000000
-0.290288 -0.101204 0.443743 4.000000
-0.290288 -0.186897 -0.418968 4.000000
-0.290288 -0.052884 0.481199 4.000000
-0.290288 0.376300 -0.299508 4.000000
-0.290288 0.285511 -0.396748 4.000000
-0.290288 -0.133961 0.471983 4.000000
-0.290288 -0.447215 -0.079562 4.000000
-0.290288 0.418201 -0.250211 4.000000
-0.290288 -0.098043 -0.490274 4.000000
-0.290288 0.158633 -0.459186 4.000000
-0.290288 -0.182318 -0.454947 4.000000
-0.290288 -0.171708 -0.468412 4.000000
-0.290288 -0.240133 0.422089 4.000000
-0.290288 -0.491505 0.073741 4.000000
-0.290288 0.298190 0.397230 4.000000
-0.290288 -0.187059 0.430384 4.000000
-0.290288 -0.213736 0.399884 4.000000
-0.290288 -0.445092 -0.221937 4.000000
-0.290288 -0.495962 -0.006464 4.000000
-0.290288 -0.041835 -0.490674 4.000000
-0.290288 -0.118027 -0.441174 4.000000
-0.290288 0.447635 -0.019910 4.000000
-0.290288 0.153379 -0.451839 4.000000
-0.290288 -0.167538 0.422723 4.000000
-0.290288 -0.098155 0.477801 4.000000
-0.290288 0.421279 -0.224336 4.000000
-0.290288 -0.074732 -0.441694 4.000000
-0.290288 0.383646 -0.235860 4.000000
-0.290288 0.242409 -0.387024 4.000000
-0.290288 0.122770 0.470877 4.000000
-0.290288 0.004078 0.445252 4.000000
-0.290288 -0.202130 0.424481 4.000000
-0.290288 -0.313169 0.352387 4.000000
-0.290288 0.172659 0.436718 4.000000
-0.290288 0.380459 -0.306734 4.000000
-0.290288 0.482349 0.021334 4.000000
-0.290288 -0.277350 -0.387032 4.000000
-0.290288 0.452214 0.044241 4.000000
-0.290288 0.146528 0.433976 4.000000
-0.290288 -0.131859 0.477544 4.000000
-0.290288 0.451283 0.026427 4.000000
-0.290288 0.470141 -0.074575 4.000000
-0.290288 0.130999 0.466584 4.000000
-0.290288 -0.357261 0.321350 4.000000
-0.290288 -0.391217 0.266733 4.000000
-0.290288 0.413878 0.184151 4.000000
-0.290288 -0.449139 0.151964 4.000000
-0.290288 0.423792 -0.251860 4.000000
-0.290288 0.343345 -0.361790 4.000000
-0.290288 -0.492508 0.064149 4.000000
-0.290288 0.342775 0.321177 4.000000
-0.290288 -0.244041 -0.422791 4.000000
-0.290288 -0.176713 0.417047 4.000000
-0.290288 0.433980 -0.129509 4.000000
-0.290288 -0.487864 0.053661 4.000000
-0.290288 0.441029 -0.113820 4.000000
-0.290288 0.239894 -0.437936 4.000000
-0.290288 0.444304 0.091272 4.000000
-0.290288 -0.348312 0.326678 4.000000
-0.290288 -0.115173 0.432885 4.000000
-0.290288 0.485546 -0.029845 4.000000
-0.290288 -0.456444 0.092980 4.000000
-0.290288 -0.360775 -0.312416 4.000000
-0.290288 0.453982 0.193128 4.000000
-0.290288 0.372687 -0.253079 4.000000
-0.290288 0.162200 -0.457828 4.000000
-0.290288 -0.003820 0.486779 4.000000
-0.290288 -0.262619 0.387598 4.000000
-0.290288 -0.221795 0.442835 4.000000
-0.290288 0.481643 -0.062332 4.000000
-0.290288 0.006309 -0.482553 4.000000
-0.290288 -0.279512 -0.349020 4.000000
-0.290288 -0.375450 0.286526 4.000000
-0.290288 0.226956 -0.427349 4.000000
-0.290288 -0.424837 0.195384 4.000000
-0.290288 0.468135 -0.037620 4.000000
-0.290288 0.422083 -0.149686 4.000000
-0.290288 0.459104 -0.076481 4.000000
-0.290288 -0.435066 -0.096003 4.000000
-0.290288 -0.408890 -0.275570 4.000000
-0.290288 -0.493745 -0.018071 4.000000
-0.290288 -0.437324 0.188573 4.000000
-0.290288 -0.450779 0.010548 4.000000
-0.290288 -0.482315 0.098629 4.000000
-0.290288 0.283684 0.356213 4.000000
-0.290288 0.304013 0.381520 4.000000
-0.290288 -0.437946 -0.169973 4.000000
-0.290288 0.338108 -0.299221 4.000000
-0.290288 -0.315382 0.324493 4.000000
-0.290288 -0.334015 -0.317598 4.000000
-0.290288 0.461141 -0.121886 4.000000
-0.290288 0.406752 -0.281912 4.000000
-0.290288 -0.309603 0.376452 4.000000
-0.290288 0.017054 0.472047 4.000000
-0.290288 0.089460 -0.459995 4.000000
-0.290288 0.005185 -0.475495 4.000000
-0.290288 0.417674 -0.274001 4.000000
-0.290288 -0.317936 -0.357754 4.000000
-0.290288 -0.450113 0.062311 4.000000
-0.290288 0.247970 -0.393340 4.000000
-0.290288 0.312030 0.322920 4.000000
-0.290288 0.449262 -0.203068 4.000000
-0.290288 -0.420348 -0.166380 4.000000
-0.290288 -0.369965 0.250508 4.000000
-0.290288 0.339169 0.352770 4.000000
-0.290288 0.443456 -0.166803 4.000000
-0.290288 0.018554 -0.495167 4.000000
-0.290288 0.476696 -0.136184 4.000000
-0.290288 -0.299151 0.371701 4.000000
-0.290288 0.467940 0.008644 4.000000
-0.290288 -0.224162 -0.397056 4.000000
-0.290288 0.322685 0.361127 4.000000
-0.290288 0.050961 -0.454712 4.000000
-0.290288 -0.253900 -0.404968 4.000000
-0.290288 0.431991 0.132936 4.000000
-0.290288 -0.353458 -0.287874 4.000000
-0.290288 -0.176048 0.422488 4.000000
-0.290288 0.298638 -0.389564 4.000000
-0.290288 0.414507 -0.191520 4.000000
-0.290288 -0.142948 -0.430078 4.000000
-0.290288 0.471487 -0.034902 4.000000
-0.290288 -0.370011 -0.308800 4.000000
-0.290288 0.421505 -0.215615 4.000000
-0.290288 -0.368059 -0.260758 4.000000
-0.290288 0.277695 0.388826 4.000000
-0.290288 -0.293410 -0.392018 4.000000
-0.290288 -0.204682 -0.445162 4.000000
-0.290288 0.362567 -0.287009 4.000000
-0.290288 -0.462023 -0.040414 4.000000
-0.290288 0.083577 -0.454288 4.000000
-0.290288 -0.443833 -0.034790 4.000000
-0.290288 -0.181823 -0.449388 4.000000
-0.290288 0.470676 0.139013 4.000000
-0.290288 -0.450189 -0.033136 4.000000
-0.290288 0.369494 -0.326627 4.000000
-0.290288 -0.381639 0.276106 4.000000
-0.290288 -0.373740 -0.280961 4.000000
-0.290288 -0.174089 -0.452941 4.000000
-0.290288 -0.142852 -0.452861 4.000000
-0.290288 -0.079979 0.476691 4.000000
-0.290288 -0.452237 -0.208866 4.000000
-0.290288 0.462627 -0.115363 4.000000
-0.290288 0.079561 -0.489208 4.000000
-0.290288 0.004557 -0.459969 4.000000
-0.290288 -0.445770 -0.188235 4.000000
-0.290288 0.278400 -0.356558 4.000000
-0.290288 -0.064461 0.446266 4.000000
-0.290288 -0.163882 0.435718 4.000000
-0.290288 -0.446873 -0.048196 4.000000
-0.290288 -0.041419 -0.449301 4.000000
-0.290288 -0.139816 -0.427522 4.000000
-0.290288 0.285921 0.363279 4.000000
-0.290288 -0.440972 0.057049 4.000000
-0.290288 -0.459044 0.132780 4.000000
-0.290288 0.101571 -0.480735 4.000000
-0.290288 0.027596 -0.486021 4.000000
-0.290288 -0.356917 0.341046 4.000000
-0.290288 -0.401149 0.190479 4.000000
-0.290288 0.045663 -0.492736 4.000000
-0.290288 0.337770 0.289033 4.000000
-0.290288 0.238285 0.408040 4.000000
-0.290288 0.341785 -0.299378 4.000000
-0.290288 -0.191618 -0.443366 4.000000
-0.290288 -0.471474 -0.043421 4.000000
-0.290288 0.447428 -0.148938 4.000000
-0.290288 0.229553 -0.420339 4.000000
-0.290288 -0.001131 -0.496695 4.000000
-0.290288 0.107542 -0.456255 4.000000
-0.290288 -0.493216 -0.050337 4.000000
-0.290288 0.247596 -0.405511 4.000000
-0.290288 0.447512 -0.091933 4.000000
-0.290288 -0.448421 0.144833 4.000000
-0.290288 -0.330426 -0.332581 4.000000
-0.290288 -0.490247 0.077467 4.000000
-0.290288 -0.448134 -0.127950 4.000000
-0.290288 0.366164 0.279677 4.000000
-0.290288 -0.110996 -0.478124 4.000000
-0.290288 -0.451806 -0.191439 4.000000
-0.290288 -0.080909 -0.493312 4.000000
-0.290288 0.459008 0.106517 4.000000
-0.290288 -0.472725 -0.156071 4.000000
-0.290288 -0.298122 0.387231 4.000000
-0.290288 0.324329 0.335528 4.000000
-0.290288 0.450189 -0.042897 4.000000
-0.290288 0.435979 -0.140530 4.000000
-0.290288 0.188728 -0.411516 4.000000
-0.290288 0.220329 0.437779 4.000000
-0.290288 0.074022 0.467682 4.000000
-0.290288 0.094860 0.461981 4.000000
-0.290288 -0.393503 -0.214607 4.000000
-0.290288 0.458502 -0.184599 4.000000
-0.290288 0.260756 0.361400 4.000000
-0.290288 0.390303 -0.226599 4.000000
-0.290288 0.483621 -0.077560 4.000000
-0.290288 0.497471 -0.007330 4.000000
-0.290288 -0.398538 0.271862 4.000000
-0.290288 -0.463607 -0.078601 4.000000
-0.290288 0.316185 0.343450 4.000000
-0.290288 -0.399021 -0.284470 4.000000
-0.290288 0.419713 -0.196028 4.000000
-0.290288 0.169320 0.442850 4.000000
-0.290288 -0.007139 0.471893 4.000000
-0.290288 0.462406 0.086011 4.000000
-0.290288 -0.160734 -0.448698 4.000000
-0.290288 0.218982 -0.444243 4.000000
-0.290288 -0.438464 0.072523 4.000000
-0.290288 0.461041 -0.025863 4.000000
-0.290288 0.305525 0.334504 4.000000
-0.290288 0.372609 0.249755 4.000000
-0.290288 0.255536 -0.378011 4.000000
-0.290288 0.407369 -0.200899 4.000000
-0.290288 0.188380 0.451983 4.000000
-0.290288 -0.096646 -0.457007 4.000000
-0.290288 0.093367 -0.474652 4.000000
-0.290288 -0.405582 0.192321 4.000000
-0.290288 -0.173728 -0.464644 4.000000
-0.290288 0.437420 0.117708 4.000000
-0.290288 -0.245965 -0.435062 4.000000
-0.290288 0.417318 0.234404 4.000000
-0.290288 0.005175 0.494335 4.000000
-0.290288 -0.136250 0.431767 4.000000
-0.290288 0.030086 0.469027 4.000000
-0.290288 0.034270 0.464800 4.000000
-0.290288 -0.291738 -0.376226 4.000000
-0.290288 0.363949 -0.260953 4.000000
-0.290288 -0.450170 0.019593 4.000000
-0.290288 0.119460 0.450428 4.000000
-0.290288 -0.494335 0.050005 4.000000
-0.290288 0.053325 0.479357 4.000000
-0.290288 -0.368255 0.271932 4.000000
-0.290288 0.413286 0.250791 4.000000
-0.290288 -0.008740 -0.493810 4.000000
-0.290288 0.234675 -0.441445 4.000000
-0.290288 -0.373595 -0.291358 4.000000
-0.290288 0.478752 -0.119878 4.000000
-0.290288 0.404350 -0.199256 4.000000
-0.290288 -0.116956 -0.482582 4.000000
-0.290288 -0.029894 0.463078 4.000000
-0.290288 0.182617 -0.421398 4.000000
-0.290288 -0.469701 0.092084 4.000000
-0.290288 -0.346530 -0.292121 4.000000
-0.290288 -0.475907 -0.135932 4.000000
-0.290288 0.030947 0.465986 4.000000
-0.290288 0.318733 0.332219 4.000000
-0.290288 0.270906 0.352230 4.000000
-0.290288 0.200400 0.450024 4.000000
-0.290288 -0.407191 -0.194357 4.000000
-0.290288 0.117820 0.433183 4.000000
-0.290288 -0.486039 -0.036163 4.000000
-0.290288 -0.414151 0.164657 4.000000
-0.290288 0.178228 -0.430694 4.000000
-0.290288 0.403850 0.204469 4.000000
-0.290288 0.432266 -0.231947 4.000000
-0.290288 0.027473 0.450515 4.000000
-0.290288 0.494965 -0.005456 4.000000
-0.290288 -0.322920 0.332426 4.000000
-0.290288 -0.167116 0.433938 4.000000
-0.290288 -0.079009 -0.442998 4.000000
-0.290288 -0.425798 -0.155708 4.000000
-0.290288 -0.017710 -0.466379 4.000000
-0.290288 -0.339384 0.360349 4.000000
-0.290288 0.277980 -0.403435 4.000000
-0.290288 -0.096449 -0.483088 4.000000
-0.290288 0.350413 -0.289585 4.000000
-0.290288 0.438286 -0.168843 4.000000
-0.290288 0.106358 -0.472790 4.000000
-0.290288 0.034076 0.456123 4.000000
-0.290288 -0.466384 0.136255 4.000000
-0.290288 -0.022175 -0.472440 4.000000
-0.290288 0.445352 0.112570 4.000000
-0.290288 0.318458 -0.361517 4.000000
-0.290288 -0.058284 0.456888 4.000000
-0.290288 -0.421631 -0.227101 4.000000
-0.290288 -0.084536 0.438744 4.000000
-0.290288 -0.370244 0.256361 4.000000
-0.290288 0.060237 0.483337 4.000000
-0.290288 0.356946 -0.339198 4.000000
-0.290288 0.107320 0.474832 4.000000
-0.290288 -0.493967 0.034005 4.000000
-0.290288 -0.253732 0.393802 4.000000
-0.290288 0.476287 -0.089532 4.000000
-0.290288 0.410832 -0.280868 4.000000
-0.290288 -0.022326 -0.459655 4.000000
-0.290288 0.117381 0.479599 4.000000
-0.290288 0.359984 0.287896 4.000000
-0.290288 -0.041769 -0.453041 4.000000
-0.290288 0.347213 -0.346727 4.000000
-0.290288 -0.411976 0.185841 4.000000
-0.290288 0.163163 0.450911 4.000000
-0.290288 -0.295019 -0.357100 4.000000
-0.290288 0.480321 0.114344 4.000000
-0.290288 0.472435 -0.160493 4.000000
-0.290288 0.314993 0.338210 4.000000
-0.290288 0.158134 0.444581 4.000000
-0.290288 0.350837 -0.301597 4.000000
-0.290288 -0.347906 0.299712 4.000000
-0.290288 0.424725 0.165658 4.000000
-0.290288 -0.456008 -0.032872 4.000000
-0.290288 0.131716 -0.446601 4.000000
-0.290288 0.012690 0.472225 4.000000
-0.290288 -0.158814 -0.465481 4.000000
-0.290288 -0.037321 -0.451146 4.000000
-0.290288 -0.303416 -0.343743 4.000000
-0.290288 -0.440956 0.199673 4.000000
-0.290288 0.415321 -0.219816 4.000000
-0.290288 0.310455 -0.322797 4.000000
-0.290288 -0.219969 0.411463 4.000000
-0.290288 -0.042902 -0.456452 4.000000
-0.290288 -0.417629 0.232097 4.000000
-0.290288 -0.045211 -0.479386 4.000000
-0.290288 -0.450760 0.198248 4.000000
-0.290288 -0.393357 0.291904 4.000000
-0.290288 -0.437447 0.094884 4.000000
-0.290288 0.418242 0.205838 4.000000
-0.290288 0.439416 0.205478 4.000000
-0.290288 -0.066332 -0.474432 4.000000
-0.290288 -0.464257 -0.000038 4.000000
-0.290288 0.460569 0.125097 4.000000
-0.290288 -0.425246 0.254775 4.000000
-0.290288 0.143021 -0.432738 4.000000
-0.290288 0.412081 0.239328 4.000000
-0.290288 0.475905 -0.070345 4.000000
-0.290288 0.085933 -0.492602 4.000000
-0.290288 0.001241 -0.487109 4.000000
-0.290288 -0.481230 0.107111 4.000000
-0.290288 -0.493887 0.025697 4.000000
-0.290288 -0.365063 -0.339955 4.000000
-0.290288 0.360117 0.325055 4.000000
-0.290288 -0.219006 0.417854 4.000000
-0.290288 -0.392687 -0.270427 4.000000
-0.290288 0.448681 -0.138194 4.000000
-0.290288 -0.143531 0.444440 4.000000
-0.290288 -0.110740 0.466801 4.000000
-0.290288 0.455963 -0.118829 4.000000
-0.290288 0.274139 0.395792 4.000000
-0.290288 -0.182374 0.434713 4.000000
-0.290288 -0.384926 -0.288556 4.000000
-0.290288 -0.184374 0.415628 4.000000
-0.290288 -0.252626 0.419725 4.000000
-0.290288 0.120609 0.443072 4.000000
-0.290288 -0.163076 -0.445301 4.000000
-0.290288 0.469842 0.163339 4.000000
-0.290288 0.380353 -0.318684 4.000000
-0.290288 -0.415263 -0.259399 4.000000
-0.290288 -0.397485 0.250713 4.000000
-0.290288 -0.000341 -0.481219 4.000000
-0.290288 0.443704 -0.158641 4.000000
-0.290288 0.226151 -0.437949 4.000000
-0.290288 0.447012 -0.212733 4.000000
-0.290288 -0.455282 0.131059 4.000000
-0.290288 -0.383190 0.306304 4.000000
-0.290288 0.253372 -0.409328 4.000000
-0.290288 0.444267 0.103017 4.000000
-0.290288 -0.211246 -0.428848 4.000000
-0.290288 0.297358 0.344149 4.000000
-0.290288 0.049322 0.441803 4.000000
-0.290288 0.399633 -0.240908 4.000000
-0.290288 0.492674 -0.065550 4.000000
-0.290288 -0.491226 -0.042600 4.000000
-0.290288 -0.211483 -0.444906 4.000000
-0.290288 0.202526 0.438561 4.000000
-0.290288 -0.461538 -0.081980 4.000000
-0.290288 -0.375793 -0.248115 4.000000
-0.290288 -0.234230 -0.386869 4.000000
-0.290288 0.085448 0.442781 4.000000
-0.290288 0.487733 0.088070 4.000000
-0.290288 0.486956 0.000354 4.000000
-0.290288 -0.306230 0.377569 4.000000
-0.290288 -0.076255 0.484070 4.000000
-0.290288 -0.025482 -0.493501 4.000000
-0.290288 0.346804 0.322264 4.000000
-0.290288 0.477487 0.028783 4.000000
-0.290288 0.411429 0.174647 4.000000
-0.290288 -0.433078 -0.148048 4.000000
-0.290288 -0.446899 0.215669 4.000000
-0.290288 0.319504 -0.336005 4.000000
-0.290288 0.483298 0.041048 4.000000
-0.290288 -0.363872 0.253862 4.000000
-0.290288 0.311389 0.362740 4.000000
-0.290288 0.451109 -0.144213 4.000000
-0.290288 -0.380364 0.260565 4.000000
-0.290288 0.339237 0.291717 4.000000
-0.290288 -0.403416 0.205230 4.000000
-0.290288 0.264146 -0.395322 4.000000
-0.290288 0.450280 0.164113 4.000000
-0.290288 0.330741 -0.372776 4.000000
-0.290288 0.080009 0.468807 4.000000
-0.290288 -0.424638 -0.214363 4.000000
-0.290288 -0.473125 -0.108961 4.000000
-0.290288 0.413559 0.245558 4.000000
-0.290288 0.055884 -0.467395 4.000000
-0.290288 0.026659 0.468502 4.000000
-0.290288 -0.279325 0.353382 4.000000
-0.290288 -0.403957 -0.287745 4.000000
-0.290288 0.217753 0.412294 4.000000
-0.290288 -0.475384 -0.113047 4.000000
-0.290288 -0.380602 -0.291075 4.000000
-0.290288 -0.226092 0.418206 4.000000
-0.290288 -0.481653 0.080747 4.000000
-0.290288 -0.493748 -0.054854 4.000000
-0.290288 -0.380688 -0.276057 4.000000
-0.290288 -0.049776 0.464040 4.000000
-0.290288 -0.089973 -0.444514 4.000000
-0.290288 0.359445 -0.267270 4.000000
-0.290288 0.330184 0.350569 4.000000
-0.290288 0.280583 -0.367152 4.000000
-0.290288 0.321153 -0.342217 4.000000
-0.290288 -0.341470 0.284380 4.000000
-0.290288 0.363056 0.297789 4.000000
-0.290288 0.269273 -0.375463 4.000000
-0.290288 0.099079 -0.451314 4.000000
-0.290288 -0.360151 -0.287994 4.000000
-0.290288 0.065826 0.454130 4.000000
-0.290288 -0.350854 -0.333864 4.000000
-0.290288 -0.433280 -0.216186 4.000000
-0.290288 0.365990 0.300388 4.000000
-0.290288 0.043617 0.487762 4.000000
-0.290288 -0.142401 -0.475854 4.000000
-0.290288 0.435981 -0.103335 4.000000
-0.290288 0.467938 -0.097764 4.000000
-0.290288 -0.422249 0.244695 4.000000
-0.290288 -0.384643 0.298438 4.000000
-0.290288 0.416965 0.265855 4.000000
-0.290288 -0.434966 -0.229174 4.000000
-0.290288 -0.079374 -0.483026 4.000000
-0.290288 -0.178856 0.420483 4.000000
-0.290288 -0.184219 -0.460614 4.000000
-0.290288 0.462930 -0.103399 4.000000
-0.290288 -0.391771 0.238225 4.000000
-0.290288 -0.473946 0.043633 4.000000
-0.290288 -0.087884 0.447222 4.000000
-0.290288 -0.407604 0.263210 4.000000
-0.290288 -0.024499 0.451444 4.000000
-0.290288 0.425143 -0.143090 4.000000
-0.290288 0.473024 -0.106896 4.000000
-0.290288 -0.342362 0.335648 4.000000
-0.290288 -0.488400 0.060479 4.000000
-0.290288 -0.031855 0.482372 4.000000
-0.290288 0.406703 -0.232681 4.000000
-0.290288 -0.473545 0.102660 4.000000
-0.290288 0.308638 0.370899 4.000000
-0.290288 0.413607 -0.185215 4.000000
-0.290288 -0.343020 -0.311234 4.000000
-0.290288 -0.071971 0.483688 4.000000
-0.290288 -0.134739 0.450228 4.000000
-0.290288 0.393717 -0.293830 4.000000
-0.290288 -0.436392 0.184636 4.000000
-0.290288 0.457819 -0.067382 4.000000
-0.290288 -0.443955 -0.031475 4.000000
-0.290288 -0.092647 0.445554 4.000000
-0.290288 0.267662 -0.391963 4.000000
-0.290288 -0.201633 0.446508 4.000000
-0.290288 0.447403 -0.060739 4.000000
-0.290288 0.139407 0.463186 4.000000
-0.290288 -0.456979 -0.147292 4.000000
-0.290288 0.415041 0.209987 4.000000
-0.290288 0.037032 0.491082 4.000000
-0.290288 -0.437664 -0.199566 4.000000
-0.290288 0.393236 -0.247624 4.000000
-0.290288 -0.117529 0.460246 4.000000
-0.290288 -0.415865 0.190525 4.000000
-0.290288 0.158662 0.458285 4.000000
-0.290288 0.295146 0.386719 4.000000
-0.290288 0.332250 0.319571 4.000000
-0.290288 -0.231080 0.438645 4.000000
-0.290288 -0.042618 0.482131 4.000000
-0.290288 -0.269139 -0.405627 4.000000
-0.290288 -0.219977 0.434049 4.000000
-0.290288 0.447908 -0.086054 4.000000
-0.290288 0.222195 -0.443718 4.000000
-0.290288 -0.485132 -0.052035 4.000000
-0.290288 0.408281 -0.206687 4.000000
-0.290288 -0.051815 -0.482681 4.000000
-0.290288 0.225543 -0.404042 4.000000
-0.290288 0.455459 0.054175 4.000000
-0.290288 -0.000782 0.456714 4.000000
-0.290288 0.457505 0.180660 4.000000
-0.290288 -0.469310 0.160153 4.000000
-0.290288 -0.429367 -0.125484 4.000000
-0.290288 0.320822 -0.355583 4.000000
-0.290288 -0.347595 0.314252 4.000000
-0.290288 -0.354344 -0.319730 4.000000
-0.290288 -0.333768 0.311243 4.000000
-0.290288 0.244480 0.413149 4.000000
-0.290288 -0.286347 0.386501 4.000000
-0.290288 -0.448242 -0.159034 4.000000
-0.290288 -0.433754 0.234997 4.000000
-0.290288 0.417226 0.270236 4.000000
-0.290288 0.192633 -0.415607 4.000000
-0.290288 -0.268943 0.360717 4.000000
-0.290288 0.300733 0.388891 4.000000
-0.290288 0.444746 -0.155137 4.000000
-0.290288 -0.436172 0.111246 4.000000
-0.290288 -0.346276 -0.352938 4.000000
-0.290288 -0.105870 -0.447083 4.000000
-0.290288 0.476213 0.004760 4.000000
-0.290288 -0.067322 0.467671 4.000000
-0.290288 -0.448544 -0.003685 4.000000
-0.290288 -0.326689 -0.326605 4.000000
-0.290288 0.416040 0.203116 4.000000
-0.290288 -0.027599 -0.466812 4.000000
-0.290288 -0.352860 0.335947 4.000000
-0.290288 0.294054 -0.358013 4.000000
-0.290288 0.455494 0.121650 4.000000
-0.290288 0.143582 -0.429526 4.000000
-0.290288 -0.481175 -0.065665 4.000000
-0.290288 0.442477 -0.149592 4.000000
-0.290288 0.434011 0.100806 4.000000
-0.290288 -0.450720 0.007445 4.000000
-0.290288 -0.379097 -0.262025 4.000000
-0.290288 0.389102 0.276073 4.000000
-0.290288 -0.131597 -0.478167 4.000000
-0.290288 0.360167 -0.338187 4.000000
-0.290288 -0.440894 -0.217880 4.000000
-0.290288 0.229657 0.430548 4.000000
-0.290288 0.242070 -0.432332 4.000000
-0.290288 -0.443188 -0.062782 4.000000
-0.290288 -0.131672 0.448664 4.000000
-0.290288 -0.010517 0.481062 4.000000
-0.290288 -0.331459 -0.341787 4.000000
-0.290288 0.157329 -0.464501 4.000000
-0.290288 -0.002523 -0.447924 4.000000
-0.290288 -0.444384 0.159046 4.000000
-0.290288 0.419728 0.154452 4.000000
-0.290288 -0.244115 0.394782 4.000000
-0.290288 0.447770 -0.145447 4.000000
-0.290288 0.129809 -0.438919 4.000000
-0.290288 0.226855 -0.440972 4.000000
-0.290288 -0.370610 -0.269741 4.000000
-0.290288 -0.238836 -0.412426 4.000000
-0.290288 0.403361 0.197931 4.000000
-0.290288 -0.421066 0.239864 4.000000
-0.290288 0.057201 0.479600 4.000000
-0.290288 0.262295 -0.367481 4.000000
-0.290288 0.468732 0.117519 4.000000
-0.290288 -0.466902 0.168480 4.000000
-0.290288 -0.045816 0.441864 4.000000
-0.290288 -0.169803 -0.418493 4.000000
-0.290288 -0.374744 0.279474 4.000000
-0.290288 0.391697 -0.307383 4.000000
-0.290288 -0.326687 -0.309678 4.000000
-0.290288 0.193714 0.419683 4.000000
-0.290288 0.232211 0.421109 4.000000
-0.290288 -0.392655 -0.266279 4.000000
-0.290288 -0.454230 -0.205189 4.000000
-0.290288 0.397577 0.270773 4.000000
-0.290288 0.037701 -0.446025 4.000000
-0.290288 0.190459 0.425312 4.000000
-0.290288 -0.159820 0.441492 4.000000
-0.290288 -0.347910 -0.313883 4.000000
-0.290288 -0.177014 -0.450933 4.000000
-0.290288 0.095935 -0.482272 4.000000
-0.290288 -0.351011 -0.315086 4.000000
-0.290288 -0.237191 -0.406539 4.000000
-0.290288 0.412903 -0.206983 4.000000
-0.290288 -0.297544 -0.334337 4.000000
-0.290288 -0.468555 0.075136 4.000000
-0.290288 -0.253288 -0.408764 4.000000
-0.290288 -0.321844 0.375411 4.000000
-0.290288 -0.467387 -0.124973 4.000000
-0.290288 0.381205 0.269318 4.000000
-0.290288 0.423734 0.211936 4.000000
-0.290288 -0.446020 -0.218286 4.000000
-0.290288 0.438412 -0.149217 4.000000
-0.290288 0.471044 -0.082301 4.000000
-0.290288 0.440938 0.072407 4.000000
-0.290288 -0.408554 0.233047 4.000000
-0.290288 0.462377 0.105434 4.000000
-0.290288 0.251382 0.387072 4.000000
-0.290288 -0.384699 0.283963 4.000000
-0.290288 -0.424672 0.165972 4.000000
-0.290288 0.049785 -0.458031 4.000000
-0.290288 0.464112 0.054993 4.000000
-0.290288 0.047682 0.464435 4.000000
-0.290288 -0.448771 -0.024734 4.000000
-0.290288 -0.180977 -0.412448 4.000000
-0.290288 -0.133417 -0.431363 4.000000
-0.290288 0.377413 0.309550 4.000000
-0.290288 -0.325650 0.306896 4.000000
-0.290288 0.473023 0.020422 4.000000
-0.290288 0.497530 0.026054 4.000000
-0.290288 -0.368731 0.328434 4.000000
-0.290288 0.170995 -0.431108 4.000000
-0.290288 0.392997 0.264029 4.000000
-0.290288 0.464005 -0.095220 4.000000
-0.290288 -0.029403 0.442516 4.000000
-0.290288 -0.372661 0.241736 4.000000
-0.290288 -0.320755 -0.361494 4.000000
-0.290288 0.311153 0.325978 4.000000
-0.290288 -0.119726 0.455680 4.000000
-0.290288 0.480067 0.111083 4.000000
-0.290288 0.128804 0.449715 4.000000
-0.290288 -0.207538 -0.448080 4.000000
-0.290288 0.258091 0.394792 4.000000
-0.290288 0.221581 -0.437653 4.000000
-0.290288 -0.014130 -0.448802 4.000000
-0.290288 -0.377181 -0.314124 4.000000
-0.290288 0.421477 0.176532 4.000000
-0.290288 0.403055 -0.231574 4.000000
-0.290288 0.468456 0.142323 4.000000
-0.290288 0.020318 0.481986 4.000000
-0.290288 -0.280628 -0.380162 4.000000
-0.290288 -0.072823 0.438322 4.000000
-0.290288 0.304554 0.355029 4.000000
-0.290288 -0.136977 -0.441414 4.000000
-0.290288 0.279611 -0.377839 4.000000
-0.290288 0.439732 -0.138747 4.000000
-0.290288 0.063697 -0.443356 4.000000
-0.290288 0.132090 -0.475527 4.000000
-0.290288 0.044325 0.464044 4.000000
-0.290288 -0.343323 -0.344788 4.000000
-0.290288 0.459002 0.021403 4.000000
-0.290288 0.270722 -0.381284 4.000000
-0.290288 -0.178256 0.411194 4.000000
-0.290288 -0.126962 0.425514 4.000000
-0.290288 0.249950 0.378318 4.000000
-0.290288 -0.318016 -0.330833 4.000000
-0.290288 -0.123751 0.473400 4.000000
-0.290288 -0.365364 0.313030 4.000000
-0.290288 0.239120 -0.410932 4.000000
-0.290288 0.453364 0.166498 4.000000
-0.290288 -0.331703 0.308687 4.000000
-0.290288 -0.175850 -0.442330 4.000000
-0.290288 -0.204616 0.438707 4.000000
-0.290288 0.338800 0.360413 4.000000
-0.290288 0.397424 -0.233997 4.000000
-0.290288 -0.452103 0.150555 4.000000
-0.290288 0.433028 -0.187479 4.000000
-0.290288 0.349231 0.287338 4.000000
-0.290288 -0.283364 -0.394590 4.000000
-0.290288 0.327908 -0.307125 4.000000
-0.290288 0.435741 -0.237749 4.000000
-0.290288 -0.450057 0.132138 4.000000
-0.290288 -0.444827 -0.125227 4.000000
-0.290288 0.255566 0.388400 4.000000
-0.290288 0.444208 -0.091003 4.000000
-0.290288 0.430802 -0.213567 4.000000
-0.290288 0.474027 -0.059013 4.000000
-0.290288 0.381005 0.238342 4.000000
-0.290288 0.460487 -0.172521 4.000000
-0.290288 -0.412125 0.218949 4.000000
-0.290288 -0.474618 0.077720 4.000000
-0.290288 0.062785 -0.477913 4.000000
-0.290288 -0.444636 0.059077 4.000000
-0.290288 -0.395312 -0.290805 4.000000
-0.290288 0.044800 -0.462648 4.000000
-0.290288 0.122872 0.455598 4.000000
-0.290288 -0.444967 0.199561 4.000000
-0.290288 0.166678 -0.431095 4.000000
-0.290288 0.376009 -0.292939 4.000000
-0.290288 -0.073013 -0.469830 4.000000
-0.290288 0.321637 -0.332375 4.000000
-0.290288 -0.489771 0.082687 4.000000
-0.290288 0.121655 0.480137 4.000000
-0.290288 0.444462 0.116061 4.000000
-0.290288 -0.327972 0.310369 4.000000
-0.290288 -0.415567 0.180985 4.000000
-0.290288 0.380053 -0.281425 4.000000
-0.290288 -0.367428 -0.282194 4.000000
-0.290288 0.225412 -0.387535 4.000000
-0.290288 0.287280 -0.347562 4.000000
-0.290288 0.377598 -0.310831 4.000000
-0.290288 -0.138207 -0.472474 4.000000
-0.290288 -0.037685 0.481511 4.000000
-0.290288 -0.429409 -0.220367 4.000000
-0.290288 0.232529 -0.409483 4.000000
-0.290288 -0.172401 0.454360 4.000000
-0.290288 -0.248989 0.410896 4.000000
-0.290288 -0.224019 0.426594 4.000000
-0.290288 -0.424803 -0.201205 4.000000
-0.290288 -0.417802 -0.207009 4.000000
-0.290288 -0.257374 0.374653 4.000000
-0.290288 0.473317 -0.144423 4.000000
-0.290288 0.418846 -0.226577 4.000000
-0.290288 -0.117716 0.451470 4.000000
-0.290288 -0.447347 -0.031745 4.000000
-0.290288 -0.305907 -0.338579 4.000000
-0.290288 0.485798 -0.041244 4.000000
-0.290288 0.302182 0.366790 4.000000
-0.290288 0.230907 -0.443670 4.000000
-0.290288 -0.231308 -0.427270 4.000000
-0.290288 0.179179 -0.445066 4.000000
-0.290288 -0.358361 0.307437 4.000000
-0.290288 -0.208064 -0.428097 4.000000
-0.290288 0.416006 -0.271276 4.000000
-0.290288 0.354088 0.284038 4.000000
-0.290288 -0.362450 0.315083 4.000000
-0.290288 0.409820 -0.234061 4.000000
-0.290288 -0.470870 -0.087420 4.000000
-0.290288 0.430337 -0.171381 4.000000
-0.290288 -0.476446 -0.077671 4.000000
-0.290288 0.300534 0.382373 4.000000
-0.290288 0.187844 0.459129 4.000000
-0.290288 0.136130 -0.461495 4.000000
-0.290288 -0.143713 -0.448181 4.000000
-0.290288 0.450074 -0.046724 4.000000
-0.290288 -0.120696 -0.437593 4.000000
-0.290288 -0.452606 0.159429 4.000000
-0.290288 -0.057166 0.484893 4.000000
-0.290288 0.238840 0.387804 4.000000
-0.290288 0.411591 -0.266182 4.000000
-0.290288 -0.419939 -0.153442 4.000000
-0.290288 0.251924 0.393874 4.000000
-0.290288 0.439259 0.129753 4.000000
-0.290288 -0.396050 -0.220694 4.000000
-0.290288 0.460289 -0.165470 4.000000
-0.290288 -0.329059 0.367651 4.000000
-0.290288 0.453757 0.087013 4.000000
-0.290288 0.160822 -0.470685 4.000000
-0.290288 -0.389322 -0.304979 4.000000
-0.290288 0.380132 -0.268817 4.000000
-0.290288 0.396917 0.234024 4.000000
-0.290288 -0.462591 0.131143 4.000000
-0.290288 -0.462947 0.089616 4.000000
-0.290288 -0.482611 0.084573 4.000000
-0.290288 0.029876 -0.463247 4.000000
-0.290288 0.011739 -0.464480 4.000000
-0.290288 0.291804 0.386339 4.000000
-0.290288 -0.377188 -0.317794 4.000000
-0.290288 0.290475 -0.366284 4.000000
-0.290288 0.460210 -0.127534 4.000000
-0.290288 -0.463582 -0.145094 4.000000
-0.290288 0.146417 0.468382 4.000000
-0.290288 0.159881 0.418481 4.000000
-0.290288 -0.455482 0.047796 4.000000
-0.290288 -0.300270 -0.395405 4.000000
-0.290288 -0.048189 0.451407 4.000000
-0.290288 -0.308560 -0.381460 4.000000
-0.290288 -0.326518 -0.347308 4.000000
-0.290288 0.165923 0.416296 4.000000
-0.290288 -0.455191 0.075263 4.000000
-0.290288 0.307585 -0.381199 4.000000
-0.290288 -0.476754 0.139207 4.000000
-0.290288 -0.386444 -0.281077 4.000000
-0.290288 -0.336166 0.354650 4.000000
-0.290288 -0.020418 0.469110 4.000000
-0.290288 0.208101 0.450108 4.000000
-0.290288 0.459955 0.010461 4.000000
-0.290288 -0.010703 0.465405 4.000000
-0.290288 0.135982 0.438284 4.000000
-0.290288 0.427660 0.198435 4.000000
-0.290288 0.130222 -0.453045 4.000000
-0.290288 0.011111 -0.468848 4.000000
-0.290288 0.403502 -0.218126 4.000000
-0.290288 0.429836 -0.131487 4.000000
-0.290288 0.353206 0.346906 4.000000
-0.290288 0.137054 -0.440357 4.000000
-0.290288 -0.305691 -0.391860 4.000000
-0.290288 -0.366433 -0.276537 4.000000
-0.290288 0.433937 0.169496 4.000000
-0.290288 0.463769 0.091690 4.000000
-0.290288 0.471775 0.125613 4.000000
-0.290288 -0.073645 -0.459821 4.000000
-0.290288 0.145125 0.424826 4.000000
-0.290288 -0.196033 -0.431479 4.000000
-0.290288 -0.396340 0.203698 4.000000
-0.290288 -0.234921 -0.421845 4.000000
-0.290288 0.079397 0.449952 4.000000
-0.290288 -0.282429 0.364126 4.000000
-0.290288 -0.394135 -0.256535 4.000000
-0.290288 -0.188603 0.446952 4.000000
-0.290288 -0.346423 0.288680 4.000000
-0.290288 -0.035114 -0.490668 4.000000
-0.290288 0.401660 0.275776 4.000000
-0.290288 0.468193 -0.128637 4.000000
-0.290288 0.318279 0.365865 4.000000
-0.290288 -0.378591 0.279879 4.000000
-0.290288 -0.402256 -0.193847 4.000000
-0.290288 0.202781 -0.433440 4.000000
-0.290288 0.130567 0.428444 4.000000
-0.290288 0.495564 -0.045438 4.000000
-0.290288 0.282711 -0.352131 4.000000
-0.290288 0.102369 0.457797 4.000000
-0.290288 0.374960 0.265334 4.000000
-0.290288 -0.466793 -0.018449 4.000000
-0.290288 -0.389824 -0.273386 4.000000
-0.290288 0.382802 -0.290431 4.000000
-0.290288 -0.461622 -0.160845 4.000000
-0.290288 0.485085 -0.082821 4.000000
-0.290288 -0.436745 0.119512 4.000000
-0.290288 0.279861 0.375082 4.000000
-0.290288 0.489114 0.052849 4.000000
-0.290288 -0.408634 0.185917 4.000000
-0.290288 -0.216495 0.395920 4.000000
-0.290288 0.341098 -0.316723 4.000000
-0.290288 0.235715 -0.432588 4.000000
-0.290288 -0.186938 0.413495 4.000000
-0.290288 0.434884 0.179846 4.000000
-0.290288 0.447752 0.181106 4.000000
-0.290288 0.005124 0.463200 4.000000
-0.290288 0.134999 0.477324 4.000000
-0.290288 0.250753 -0.386390 4.000000
-0.290288 0.239706 -0.429691 4.000000
-0.290288 0.206597 -0.438319 4.000000
-0.290288 -0.111351 -0.487158 4.000000
-0.290288 -0.003556 -0.499701 4.000000
-0.290288 -0.281754 0.378462 4.000000
-0.290288 -0.396068 -0.274767 4.000000
-0.290288 -0.139813 -0.467558 4.000000
-0.290288 0.424181 -0.235972 4.000000
-0.290288 0.207749 0.400597 4.000000
-0.290288 0.375114 0.246707 4.000000
-0.290288 -0.232054 -0.391950 4.000000
-0.290288 0.005189 -0.470232 4.000000
-0.290288 -0.482603 -0.070670 4.000000
-0.290288 -0.469241 -0.109982 4.000000
-0.290288 -0.203998 0.442346 4.000000
-0.290288 0.175631 -0.454811 4.000000
-0.290288 0.469390 0.064527 4.000000
-0.290288 0.472932 -0.066682 4.000000
-0.290288 -0.470462 -0.079845 4.000000
-0.290288 -0.303051 0.384050 4.000000
-0.290288 0.364543 -0.306300 4.000000
-0.290288 0.395230 -0.269074 4.000000
-0.290288 -0.414045 0.267027 4.000000
-0.290288 0.293265 -0.378964 4.000000
-0.290288 0.445125 -0.078200 4.000000
-0.290288 0.132340 0.450649 4.000000
-0.290288 0.474281 -0.111270 4.000000
-0.290288 -0.413465 0.232670 4.000000
-0.290288 -0.447222 0.129215 4.000000
-0.290288 0.426006 -0.245422 4.000000
-0.290288 0.470764 -0.039643 4.000000
-0.290288 -0.228370 -0.443599 4.000000
-0.290288 0.237510 -0.435413 4.000000
-0.290288 0.255207 0.425567 4.000000
-0.290288 -0.046004 0.481194 4.000000
-0.290288 0.403689 -0.258735 4.000000
-0.290288 0.461944 0.160216 4.000000
-0.290288 0.458420 -0.196230 4.000000
-0.290288 0.455449 -0.170717 4.000000
-0.290288 -0.203915 -0.455530 4.000000
-0.290288 0.470780 -0.109265 4.000000
-0.290288 0.392751 -0.213701 4.000000
-0.290288 -0.416085 0.184913 4.000000
-0.290288 -0.407235 -0.287266 4.000000
-0.290288 0.391445 -0.219846 4.000000
-0.290288 0.475587 -0.016537 4.000000
-0.290288 0.423592 0.258841 4.000000
