-0.290288 0.144394 0.443311 4.000000
-0.290288 -0.486257 0.005696 4.000000
-0.290288 -0.406256 0.271566 4.000000
-0.290288 0.281812 0.363823 4.000000
-0.290288 0.226060 -0.411311 4.000000
-0.290288 0.039511 0.477352 4.000000
-0.290288 0.215320 0.398671 4.000000
-0.290288 0.178608 -0.426149 4.000000
-0.290288 -0.236690 0.423054 4.000000
-0.290288 0.466262 -0.169444 4.000000
-0.290288 0.118498 0.449993 4.000000
-0.290288 0.451643 -0.097450 4.000000
-0.290288 0.467671 0.065287 4.000000
-0.290288 0.105130 -0.469756 4.000000
-0.290288 -0.349004 -0.279563 4.000000
-0.290288 -0.356641 0.306326 4.000000
-0.290288 -0.293739 -0.388384 4.000000
-0.290288 0.053891 0.492729 4.000000
-0.290288 -0.439624 0.097031 4.000000
-0.290288 -0.379098 0.298966 4.000000
-0.290288 0.019325 -0.479506 4.000000
-0.290288 -0.203951 0.419131 4.000000
-0.290288 0.342592 0.338670 4.000000
-0.290288 0.457491 0.068669 4.000000
-0.290288 0.181683 0.405331 4.000000
-0.290288 -0.201197 -0.430903 4.000000
-0.290288 -0.266853 -0.361086 4.000000
-0.290288 0.419382 -0.258996 4.000000
-0.290288 -0.478778 -0.024372 4.000000
-0.290288 -0.497140 0.003586 4.000000
-0.290288 0.442190 0.176380 4.000000
-0.290288 0.343954 -0.315810 4.000000
-0.290288 0.122385 -0.463181 4.000000
-0.290288 0.301105 -0.344326 4.000000
-0.290288 -0.144318 0.474299 4.000000
-0.290288 0.234860 0.388780 4.000000
-0.290288 -0.110043 0.478710 4.000000
-0.290288 -0.202059 -0.423415 4.000000
-0.290288 -0.125135 0.432168 4.000000
-0.290288 0.417659 -0.240783 4.000000
-0.290288 0.301769 0.374523 4.000000
-0.290288 -0.412992 -0.168138 4.000000
-0.290288 0.335534 0.297767 4.000000
-0.290288 -0.121973 -0.435548 4.000000
-0.290288 -0.468838 0.004096 4.000000
-0.290288 0.322814 -0.333151 4.000000
-0.290288 0.217627 0.418502 4.000000
-0.290288 -0.456612 -0.197607 4.000000
-0.290288 -0.455071 0.069056 4.000000
-0.290288 0.393952 -0.264195 4.000000
-0.290288 -0.279420 0.359495 4.000000
-0.290288 -0.180414 0.431320 4.000000
-0.290288 0.485372 0.016147 4.000000
-0.290288 -0.333140 0.331069 4.000000
-0.290288 0.449192 -0.172710 4.000000
-0.290288 0.456219 0.009447 4.000000
-0.290288 -0.023090 0.448461 4.000000
-0.290288 0.201835 0.451918 4.000000
-0.290288 0.449702 0.043770 4.000000
-0.290288 -0.223305 0.390920 4.000000
-0.290288 -0.443327 -0.105981 4.000000
-0.290288 0.488856 0.059070 4.000000
-0.290288 -0.176947 -0.433721 4.000000
-0.290288 0.263596 0.389905 4.000000
-0.290288 0.121192 0.437689 4.000000
-0.290288 0.493035 -0.041059 4.000000
-0.290288 -0.465937 -0.066230 4.000000
-0.290288 0.457788 0.150052 4.000000
-0.290288 -0.419838 0.171655 4.000000
-0.290288 0.088869 0.478586 4.000000
-0.290288 0.375379 0.243488 4.000000
-0.290288 -0.421040 0.141903 4.000000
-0.290288 0.456802 -0.048211 4.000000
-0.290288 -0.075615 0.463224 4.000000
-0.290288 -0.265522 -0.379861 4.000000
-0.290288 -0.422757 0.170725 4.000000
-0.290288 -0.047060 0.481746 4.000000
-0.290288 0.377980 -0.287459 4.000000
-0.290288 0.442244 -0.087801 4.000000
-0.290288 0.325442 -0.359078 4.000000
-0.290288 -0.477109 -0.105161 4.000000
-0.290288 -0.468429 0.073573 4.000000
-0.290288 0.343956 0.346005 4.000000
-0.290288 0.062569 0.451934 4.000000
-0.290288 -0.441326 -0.069194 4.000000
-0.290288 -0.199117 0.425146 4.000000
-0.290288 -0.269785 0.400318 4.000000
-0.290288 -0.471694 -0.024000 4.000000
-0.290288 -0.292799 0.356416 4.000000
-0.290288 -0.485620 -0.041005 4.000000
-0.290288 0.240343 -0.392150 4.000000
-0.290288 0.449221 -0.114307 4.000000
-0.290288 -0.295499 -0.393204 4.000000
-0.290288 -0.383263 0.287585 4.000000
-0.290288 0.395317 -0.236599 4.000000
-0.290288 0.189656 0.458450 4.000000
-0.290288 -0.397905 0.293051 4.000000
-0.290288 -0.125321 -0.455016 4.000000
-0.290288 -0.140707 -0.450688 4.000000
-0.290288 -0.382871 0.302405 4.000000
-0.290288 -0.453670 -0.127578 4.000000
-0.290288 -0.412432 -0.214173 4.000000
-0.290288 0.018789 0.495076 4.000000
-0.290288 0.375889 -0.289916 4.000000
-0.290288 -0.432104 -0.120459 4.000000
-0.290288 -0.358839 0.339785 4.000000
-0.290288 0.082344 0.451521 4.000000
-0.290288 0.187126 -0.440878 4.000000
-0.290288 -0.427001 0.239497 4.000000
-0.290288 -0.411954 -0.249877 4.000000
-0.290288 0.311933 -0.321142 4.000000
-0.290288 -0.079953 0.465751 4.000000
-0.290288 -0.338588 0.318332 4.000000
-0.290288 -0.336791 0.359072 4.000000
-0.290288 -0.314889 -0.330196 4.000000
-0.290288 0.080690 -0.488638 4.000000
-0.290288 -0.231179 -0.418552 4.000000
-0.290288 0.344187 -0.362236 4.000000
-0.290288 0.317477 -0.350881 4.000000
-0.290288 0.199871 0.411823 4.000000
-0.290288 -0.458158 0.165697 4.000000
-0.290288 0.423228 0.195624 4.000000
-0.290288 -0.253057 0.382882 4.000000
-0.290288 0.402630 0.189565 4.000000
-0.290288 0.432972 0.134109 4.000000
-0.290288 -0.477021 0.081187 4.000000
-0.290288 0.326714 0.317844 4.000000
-0.290288 0.460558 -0.059740 4.000000
-0.290288 0.406420 -0.201228 4.000000
-0.290288 0.014112 0.468501 4.000000
-0.290288 -0.366107 0.263140 4.000000
-0.290288 -0.152368 -0.456112 4.000000
-0.290288 -0.416631 -0.172148 4.000000
-0.290288 -0.478499 -0.008098 4.000000
-0.290288 -0.343113 -0.330749 4.000000
-0.290288 -0.199435 -0.400124 4.000000
-0.290288 -0.367030 -0.318203 4.000000
-0.290288 0.316640 -0.334922 4.000000
-0.290288 -0.071308 0.443243 4.000000
-0.290288 -0.087124 0.441255 4.000000
-0.290288 0.466347 0.149711 4.000000
-0.290288 0.446914 -0.017783 4.000000
-0.290288 -0.237084 0.386672 4.000000
-0.290288 0.195012 0.420267 4.000000
-0.290288 0.014737 0.475763 4.000000
-0.290288 0.476271 0.121164 4.000000
-0.290288 -0.320922 -0.331402 4.000000
-0.290288 0.463525 -0.099795 4.000000
-0.290288 -0.340392 -0.347298 4.000000
-0.290288 -0.016085 0.468338 4.000000
-0.290288 -0.319785 -0.338347 4.000000
-0.290288 0.431479 0.200881 4.000000
-0.290288 -0.394703 0.262083 4.000000
-0.290288 0.472882 -0.074831 4.000000
-0.290288 0.417090 0.263252 4.000000
-0.290288 0.142700 0.451632 4.000000
-0.290288 -0.238406 -0.425925 4.000000
-0.290288 0.252696 0.421107 4.000000
-0.290288 0.230244 0.434901 4.000000
-0.290288 -0.271380 -0.393343 4.000000
-0.290288 0.456279 -0.124139 4.000000
-0.290288 0.356873 0.287300 4.000000
-0.290288 -0.115145 -0.450025 4.000000
-0.290288 0.454170 0.075017 4.000000
-0.290288 0.256449 0.419440 4.000000
-0.290288 0.002487 0.458339 4.000000
-0.290288 -0.400743 0.218732 4.000000
-0.290288 0.468503 -0.025223 4.000000
-0.290288 0.385463 -0.318052 4.000000
-0.290288 0.137409 0.460204 4.000000
-0.290288 0.187309 -0.444130 4.000000
-0.290288 0.478297 -0.101893 4.000000
-0.290288 0.176256 -0.443745 4.000000
-0.290288 0.133541 0.456847 4.000000
-0.290288 0.230554 0.419557 4.000000
-0.290288 -0.137957 0.466191 4.000000
-0.290288 -0.336774 -0.358599 4.000000
-0.290288 -0.453577 -0.003855 4.000000
-0.290288 0.476238 0.011273 4.000000
-0.290288 -0.085692 0.481026 4.000000
-0.290288 -0.437097 0.091262 4.000000
-0.290288 -0.471621 -0.100487 4.000000
-0.290288 -0.399687 -0.198281 4.000000
-0.290288 0.024383 -0.447209 4.000000
-0.290288 0.467153 0.138726 4.000000
-0.290288 -0.279242 0.388571 4.000000
-0.290288 -0.451685 -0.077464 4.000000
-0.290288 -0.050955 -0.478593 4.000000
-0.290288 0.370499 -0.305578 4.000000
-0.290288 0.309564 -0.362857 4.000000
-0.290288 0.114396 -0.445678 4.000000
-0.290288 0.347413 0.352033 4.000000
-0.290288 0.246019 -0.430389 4.000000
-0.290288 -0.357287 -0.314813 4.000000
-0.290288 -0.289621 -0.399713 4.000000
-0.290288 0.248543 0.415473 4.000000
-0.290288 0.142659 0.439855 4.000000
-0.290288 -0.302054 0.334309 4.000000
-0.290288 -0.206379 -0.406192 4.000000
-0.290288 0.354522 0.313750 4.000000
-0.290288 -0.389294 -0.262498 4.000000
-0.290288 -0.248465 0.374529 4.000000
-0.290288 0.453757 0.019768 4.000000
-0.290288 0.081053 -0.449603 4.000000
-0.290288 -0.409816 0.207274 4.000000
-0.290288 0.304408 0.323864 4.000000
-0.290288 0.314764 -0.372218 4.000000
-0.290288 -0.356228 0.312257 4.000000
-0.290288 0.050606 -0.492550 4.000000
-0.290288 0.166096 0.416788 4.000000
-0.290288 0.462135 -0.067899 4.000000
-0.290288 0.271222 -0.385478 4.000000
-0.290288 0.301182 0.383298 4.000000
-0.290288 -0.323054 -0.360998 4.000000
-0.290288 -0.447517 -0.058603 4.000000
-0.290288 -0.030857 -0.458093 4.000000
-0.290288 -0.116889 -0.461549 4.000000
-0.290288 -0.389309 0.236087 4.000000
-0.290288 -0.336520 -0.361795 4.000000
-0.290288 0.431088 -0.142808 4.000000
-0.290288 0.227445 0.429609 4.000000
-0.290288 0.184294 0.409971 4.000000
-0.290288 -0.464446 0.172616 4.000000
-0.290288 -0.460991 -0.167879 4.000000
-0.290288 0.023037 0.469010 4.000000
-0.290288 -0.488787 0.050779 4.000000
-0.290288 0.062973 -0.447550 4.000000
-0.290288 0.461301 0.045416 4.000000
-0.290288 0.219608 -0.390559 4.000000
-0.290288 0.448459 0.128078 4.000000
-0.290288 0.390741 0.292159 4.000000
-0.290288 0.366199 0.279415 4.000000
-0.290288 0.351918 0.286282 4.000000
-0.290288 -0.351919 0.330563 4.000000
-0.290288 0.480835 0.103266 4.000000
-0.290288 0.457214 -0.147962 4.000000
-0.290288 0.305187 0.337402 4.000000
-0.290288 0.372782 -0.287228 4.000000
-0.290288 -0.157390 0.425729 4.000000
-0.290288 0.425866 0.177855 4.000000
-0.290288 -0.281596 0.344513 4.000000
-0.290288 -0.446010 0.000432 4.000000
-0.290288 0.264604 -0.411558 4.000000
-0.290288 -0.428525 0.129992 4.000000
-0.290288 -0.249362 -0.413588 4.000000
-0.290288 -0.057659 0.487016 4.000000
-0.290288 -0.435247 -0.175356 4.000000
-0.290288 -0.272641 0.389704 4.000000
-0.290288 0.472872 -0.107260 4.000000
-0.290288 0.323097 0.377434 4.000000
-0.290288 -0.462807 0.147396 4.000000
-0.290288 0.405613 -0.230890 4.000000
-0.290288 -0.364748 -0.284085 4.000000
-0.290288 -0.426625 0.226437 4.000000
-0.290288 -0.240593 0.423053 4.000000
-0.290288 -0.270201 0.408828 4.000000
-0.290288 0.427992 -0.156995 4.000000
-0.290288 -0.316531 0.359286 4.000000
-0.290288 0.024513 -0.498582 4.000000
-0.290288 0.321359 -0.353720 4.000000
-0.290288 -0.452471 0.113174 4.000000
-0.290288 0.213492 -0.402854 4.000000
-0.290288 -0.468159 0.165156 4.000000
-0.290288 -0.145914 -0.452340 4.000000
-0.290288 0.229320 0.412368 4.000000
-0.290288 -0.001999 -0.482871 4.000000
-0.290288 -0.459979 -0.104271 4.000000
-0.290288 0.107309 0.473758 4.000000
-0.290288 0.140386 -0.426175 4.000000
-0.290288 0.369539 0.300348 4.000000
-0.290288 0.345921 0.355840 4.000000
-0.290288 -0.293003 0.383802 4.000000
-0.290288 -0.460636 0.142694 4.000000
-0.290288 -0.387297 0.269944 4.000000
-0.290288 -0.449415 -0.086716 4.000000
-0.290288 -0.285868 -0.402692 4.000000
-0.290288 0.034596 -0.497863 4.000000
-0.290288 0.468406 -0.083213 4.000000
-0.290288 -0.401010 0.292106 4.000000
-0.290288 0.473184 0.035628 4.000000
-0.290288 0.337098 -0.297215 4.000000
-0.290288 -0.024880 -0.488640 4.000000
-0.290288 0.408575 -0.251303 4.000000
-0.290288 0.082322 -0.461295 4.000000
-0.290288 0.102073 -0.452328 4.000000
-0.290288 -0.485621 -0.006841 4.000000
-0.290288 -0.034162 -0.449379 4.000000
-0.290288 0.149359 0.451043 4.000000
-0.290288 0.277277 0.397849 4.000000
-0.290288 -0.378529 -0.322081 4.000000
-0.290288 0.189976 0.442829 4.000000
-0.290288 -0.091402 0.435760 4.000000
-0.290288 0.447572 -0.035487 4.000000
-0.290288 -0.042433 -0.450631 4.000000
-0.290288 -0.051695 -0.452258 4.000000
-0.290288 0.154602 0.467904 4.000000
-0.290288 0.037438 -0.480275 4.000000
-0.290288 0.436915 -0.126274 4.000000
-0.290288 -0.148094 -0.473668 4.000000
-0.290288 0.366343 0.299745 4.000000
-0.290288 0.357868 -0.343395 4.000000
-0.290288 0.088030 -0.491239 4.000000
-0.290288 0.170074 0.411526 4.000000
-0.290288 -0.134444 -0.458365 4.000000
-0.290288 -0.066759 0.463764 4.000000
-0.290288 -0.314582 0.318964 4.000000
-0.290288 0.452205 -0.075334 4.000000
-0.290288 -0.352810 0.312486 4.000000
-0.290288 0.392444 -0.219238 4.000000
-0.290288 -0.088065 0.456992 4.000000
-0.290288 0.167957 0.428688 4.000000
-0.290288 -0.332067 0.317943 4.000000
-0.290288 0.108283 0.463514 4.000000
-0.290288 0.473064 -0.004804 4.000000
-0.290288 -0.242009 0.409254 4.000000
-0.290288 0.457294 0.088786 4.000000
-0.290288 -0.040002 0.451380 4.000000
-0.290288 -0.393693 -0.224619 4.000000
-0.290288 -0.128026 -0.429940 4.000000
-0.290288 0.305739 0.366580 4.000000
-0.290288 -0.192841 0.433000 4.000000
-0.290288 -0.055298 -0.455697 4.000000
-0.290288 0.404711 -0.191466 4.000000
-0.290288 -0.163862 -0.441529 4.000000
-0.290288 0.351460 -0.295648 4.000000
-0.290288 -0.495749 -0.012970 4.000000
-0.290288 -0.420002 -0.248556 4.000000
-0.290288 -0.353303 -0.315046 4.000000
-0.290288 0.129309 0.449256 4.000000
-0.290288 0.345870 0.319841 4.000000
-0.290288 0.310339 -0.367776 4.000000
-0.290288 0.348104 -0.314505 4.000000
-0.290288 -0.455500 -0.114872 4.000000
-0.290288 -0.470608 0.054656 4.000000
-0.290288 0.053044 -0.469932 4.000000
-0.290288 0.218626 0.432538 4.000000
-0.290288 -0.008650 0.456290 4.000000
-0.290288 0.136430 0.452992 4.000000
-0.290288 -0.085645 -0.485472 4.000000
-0.290288 -0.449743 0.175539 4.000000
-0.290288 -0.299696 0.394456 4.000000
-0.290288 0.475200 0.019515 4.000000
-0.290288 0.422133 -0.201864 4.000000
-0.290288 -0.292928 0.338560 4.000000
-0.290288 -0.228227 0.389662 4.000000
-0.290288 -0.462685 -0.097478 4.000000
-0.290288 0.251704 -0.420376 4.000000
-0.290288 0.172237 0.437370 4.000000
-0.290288 -0.386860 -0.224589 4.000000
-0.290288 -0.444851 -0.222666 4.000000
-0.290288 0.373792 -0.313560 4.000000
-0.290288 -0.459893 0.133530 4.000000
-0.290288 0.432767 -0.247361 4.000000
-0.290288 -0.414851 -0.251568 4.000000
-0.290288 0.441430 0.149733 4.000000
-0.290288 0.273536 -0.388961 4.000000
-0.290288 -0.446695 -0.208383 4.000000
-0.290288 0.284996 0.341439 4.000000
-0.290288 0.132839 0.466310 4.000000
-0.290288 -0.398924 0.209846 4.000000
-0.290288 -0.472270 0.022221 4.000000
-0.290288 -0.256103 -0.375380 4.000000
-0.290288 -0.435449 0.088716 4.000000
-0.290288 -0.413262 -0.206056 4.000000
-0.290288 -0.416024 0.229355 4.000000
-0.290288 -0.439392 -0.161868 4.000000
-0.290288 0.257802 0.375947 4.000000
-0.290288 0.444706 0.185984 4.000000
-0.290288 0.205163 0.394566 4.000000
-0.290288 -0.437824 -0.220407 4.000000
-0.290288 -0.260666 -0.381151 4.000000
-0.290288 0.476927 -0.135460 4.000000
-0.290288 0.119366 -0.468771 4.000000
-0.290288 -0.350079 -0.334855 4.000000
-0.290288 -0.102981 0.435490 4.000000
-0.290288 0.479352 -0.000515 4.000000
-0.290288 -0.424745 -0.145283 4.000000
-0.290288 0.236691 0.382171 4.000000
-0.290288 -0.430797 -0.219796 4.000000
-0.290288 -0.075483 0.436586 4.000000
-0.290288 0.299709 0.395913 4.000000
-0.290288 -0.372578 0.290655 4.000000
-0.290288 0.065249 0.465295 4.000000
-0.290288 0.446110 -0.009139 4.000000
-0.290288 0.280448 -0.386978 4.000000
-0.290288 -0.399477 -0.286483 4.000000
-0.290288 -0.393910 -0.305461 4.000000
-0.290288 0.152925 0.471814 4.000000
-0.290288 -0.265059 0.360149 4.000000
-0.290288 0.118090 -0.456163 4.000000
-0.290288 -0.166158 -0.468054 4.000000
-0.290288 -0.346807 0.308684 4.000000
-0.290288 0.463299 0.181698 4.000000
-0.290288 0.158546 -0.468848 4.000000
-0.290288 0.135856 0.428571 4.000000
-0.290288 -0.472762 0.032458 4.000000
-0.290288 -0.457320 -0.164894 4.000000
-0.290288 -0.185283 -0.447586 4.000000
-0.290288 -0.125845 -0.474175 4.000000
-0.290288 -0.387803 -0.298566 4.000000
-0.290288 0.463779 0.013281 4.000000
-0.290288 0.401908 -0.257118 4.000000
-0.290288 -0.469656 0.044067 4.000000
-0.290288 -0.081940 -0.465181 4.000000
-0.290288 0.238301 0.410017 4.000000
-0.290288 0.207784 0.419560 4.000000
-0.290288 0.119922 0.434186 4.000000
-0.290288 0.205047 -0.441184 4.000000
-0.290288 0.434035 0.161142 4.000000
-0.290288 -0.485200 0.015955 4.000000
-0.290288 -0.465817 -0.142054 4.000000
-0.290288 0.275911 -0.412372 4.000000
-0.290288 -0.447024 -0.159602 4.000000
-0.290288 0.468762 -0.098224 4.000000
-0.290288 -0.485569 0.032796 4.000000
-0.290288 -0.444289 -0.130850 4.000000
-0.290288 -0.454176 0.154430 4.000000
-0.290288 -0.273745 0.366605 4.000000
-0.290288 -0.306808 -0.372662 4.000000
-0.290288 0.028305 0.453456 4.000000
-0.290288 0.415104 -0.246223 4.000000
-0.290288 0.469660 0.117326 4.000000
-0.290288 -0.155749 -0.470074 4.000000
-0.290288 0.098988 -0.466334 4.000000
-0.290288 -0.373711 0.309733 4.000000
-0.290288 0.395249 0.210066 4.000000
-0.290288 0.217280 0.388630 4.000000
-0.290288 -0.138112 0.458212 4.000000
-0.290288 0.027400 -0.493510 4.000000
-0.290288 -0.471660 0.149163 4.000000
-0.290288 -0.387543 0.261641 4.000000
-0.290288 0.274487 0.377475 4.000000
-0.290288 0.427471 0.247570 4.000000
-0.290288 -0.439234 -0.184982 4.000000
-0.290288 -0.255758 0.395528 4.000000
-0.290288 -0.117874 -0.473114 4.000000
-0.290288 0.390263 0.288964 4.000000
-0.290288 0.365448 -0.316003 4.000000
-0.290288 0.358751 0.299785 4.000000
-0.290288 0.468025 0.113707 4.000000
-0.290288 -0.214445 0.411439 4.000000
-0.290288 -0.040280 -0.463162 4.000000
-0.290288 0.415071 -0.232036 4.000000
-0.290288 -0.454009 0.051250 4.000000
-0.290288 0.127472 -0.459202 4.000000
-0.290288 -0.445452 0.193303 4.000000
-0.290288 0.285315 0.383644 4.000000
-0.290288 -0.459279 -0.084866 4.000000
-0.290288 -0.400939 0.241460 4.000000
-0.290288 -0.032848 0.471366 4.000000
-0.290288 -0.475030 0.012679 4.000000
-0.290288 0.089437 0.445401 4.000000
-0.290288 -0.443299 -0.171567 4.000000
-0.290288 -0.298827 -0.385472 4.000000
-0.290288 -0.110411 -0.459578 4.000000
-0.290288 0.087125 0.465204 4.000000
-0.290288 0.372352 -0.279010 4.000000
-0.290288 0.129203 0.472431 4.000000
-0.290288 -0.486257 -0.031644 4.000000
-0.290288 -0.445242 0.017399 4.000000
-0.290288 0.074486 0.484185 4.000000
-0.290288 0.083399 -0.491999 4.000000
-0.290288 0.346216 0.300981 4.000000
-0.290288 -0.118653 -0.441986 4.000000
-0.290288 0.197669 -0.434752 4.000000
-0.290288 -0.396420 -0.280870 4.000000
-0.290288 -0.199514 -0.456885 4.000000
-0.290288 -0.358076 0.271343 4.000000
-0.290288 -0.412150 -0.273384 4.000000
-0.290288 -0.364556 -0.268204 4.000000
-0.290288 0.244295 0.411657 4.000000
-0.290288 -0.192482 -0.460150 4.000000
-0.290288 -0.286963 -0.408260 4.000000
-0.290288 -0.379251 -0.289809 4.000000
-0.290288 0.319323 0.362183 4.000000
-0.290288 -0.446922 -0.045150 4.000000
-0.290288 0.448029 -0.021714 4.000000
-0.290288 0.242976 0.386619 4.000000
-0.290288 0.218739 0.398933 4.000000
-0.290288 -0.197210 -0.423520 4.000000
-0.290288 0.193487 -0.411616 4.000000
-0.290288 -0.185687 -0.463240 4.000000
-0.290288 0.406681 0.197126 4.000000
-0.290288 0.257839 0.362279 4.000000
-0.290288 0.048093 0.451486 4.000000
-0.290288 0.435740 0.179216 4.000000
-0.290288 0.477601 0.063777 4.000000
-0.290288 0.272710 -0.396154 4.000000
-0.290288 0.050363 -0.487608 4.000000
-0.290288 -0.344659 0.296448 4.000000
-0.290288 -0.286542 0.349932 4.000000
-0.290288 -0.191342 0.420369 4.000000
-0.290288 0.446039 0.144626 4.000000
-0.290288 0.375636 -0.325453 4.000000
-0.290288 0.038783 0.470960 4.000000
-0.290288 -0.472335 -0.109029 4.000000
-0.290288 -0.223935 -0.439272 4.000000
-0.290288 -0.479649 0.031425 4.000000
-0.290288 -0.433532 -0.167320 4.000000
-0.290288 -0.352851 -0.352646 4.000000
-0.290288 0.186388 0.423569 4.000000
-0.290288 0.421935 -0.207684 4.000000
-0.290288 -0.353784 -0.349410 4.000000
-0.290288 -0.344087 0.305330 4.000000
-0.290288 -0.275853 -0.365780 4.000000
-0.290288 -0.014859 0.444461 4.000000
-0.290288 0.350230 0.312345 4.000000
-0.290288 -0.392578 0.257127 4.000000
-0.290288 0.181114 0.436248 4.000000
-0.290288 -0.395074 -0.254075 4.000000
-0.290288 -0.383021 0.274757 4.000000
-0.290288 -0.426608 -0.195964 4.000000
-0.290288 0.460371 -0.092921 4.000000
-0.290288 0.287722 -0.395189 4.000000
-0.290288 -0.470127 0.038025 4.000000
-0.290288 0.091720 0.481081 4.000000
-0.290288 0.291329 0.381444 4.000000
-0.290288 -0.443447 -0.097050 4.000000
-0.290288 -0.399760 0.228447 4.000000
-0.290288 -0.294411 0.362867 4.000000
-0.290288 0.210532 -0.429904 4.000000
-0.290288 0.390064 0.245315 4.000000
-0.290288 0.366844 -0.273953 4.000000
-0.290288 -0.043416 -0.484781 4.000000
-0.290288 -0.030624 0.456922 4.000000
-0.290288 0.115013 0.463959 4.000000
-0.290288 -0.466648 -0.159246 4.000000
-0.290288 -0.324544 -0.344496 4.000000
-0.290288 0.363484 0.282659 4.000000
-0.290288 -0.173962 0.421632 4.000000
-0.290288 0.435185 0.187888 4.000000
-0.290288 0.392246 -0.227756 4.000000
-0.290288 -0.124787 -0.482969 4.000000
-0.290288 0.320669 0.316078 4.000000
-0.290288 0.074056 -0.485380 4.000000
-0.290288 0.171300 0.427531 4.000000
-0.290288 0.317883 -0.372782 4.000000
-0.290288 -0.482501 -0.020477 4.000000
-0.290288 0.156514 -0.457067 4.000000
-0.290288 0.252216 0.392286 4.000000
-0.290288 0.485546 -0.057842 4.000000
-0.290288 0.467161 -0.073673 4.000000
-0.290288 0.070074 0.466160 4.000000
-0.290288 0.367384 0.274573 4.000000
-0.290288 0.470465 0.066601 4.000000
-0.290288 -0.091767 -0.445176 4.000000
-0.290288 -0.221577 0.433184 4.000000
-0.290288 -0.282247 -0.359968 4.000000
-0.290288 -0.358002 0.287954 4.000000
-0.290288 -0.233035 0.382529 4.000000
-0.290288 0.242934 0.432502 4.000000
-0.290288 -0.072059 -0.480164 4.000000
-0.290288 -0.228777 0.379567 4.000000
-0.290288 -0.450670 -0.128781 4.000000
-0.290288 0.287475 -0.401104 4.000000
-0.290288 0.145475 0.418893 4.000000
-0.290288 0.199463 -0.443233 4.000000
-0.290288 0.114714 -0.441295 4.000000
-0.290288 0.468720 0.093738 4.000000
-0.290288 0.427397 0.207645 4.000000
-0.290288 0.471932 -0.155611 4.000000
-0.290288 0.444263 -0.207768 4.000000
-0.290288 -0.069084 -0.473903 4.000000
-0.290288 0.347075 0.291230 4.000000
-0.290288 0.357270 0.297048 4.000000
-0.290288 0.403172 0.267438 4.000000
-0.290288 0.249886 0.418359 4.000000
-0.290288 0.225903 -0.392504 4.000000
-0.290288 0.400579 0.201486 4.000000
-0.290288 0.305837 0.359135 4.000000
-0.290288 -0.158818 0.447706 4.000000
-0.290288 -0.246490 -0.384532 4.000000
-0.290288 0.460695 -0.146338 4.000000
-0.290288 -0.206336 -0.419033 4.000000
-0.290288 -0.113975 -0.435256 4.000000
-0.290288 0.201750 0.405283 4.000000
-0.290288 0.346060 -0.302896 4.000000
-0.290288 0.340679 0.325353 4.000000
-0.290288 0.478442 0.038945 4.000000
-0.290288 -0.064609 -0.443971 4.000000
-0.290288 -0.034934 0.487803 4.000000
-0.290288 0.269621 0.382322 4.000000
-0.290288 -0.261045 -0.374974 4.000000
-0.290288 -0.309325 0.374185 4.000000
-0.290288 0.232041 0.384937 4.000000
-0.290288 -0.083784 0.469970 4.000000
-0.290288 0.434867 0.113065 4.000000
-0.290288 -0.297270 0.376824 4.000000
-0.290288 -0.472826 -0.007997 4.000000
-0.290288 0.475368 -0.063477 4.000000
-0.290288 -0.378259 -0.258784 4.000000
-0.290288 -0.420680 -0.199595 4.000000
-0.290288 0.368997 -0.302530 4.000000
-0.290288 0.430119 -0.162298 4.000000
-0.290288 0.481827 0.031579 4.000000
-0.290288 0.308522 -0.372488 4.000000
-0.290288 -0.173706 -0.468466 4.000000
-0.290288 0.461439 0.030368 4.000000
-0.290288 0.320067 0.323908 4.000000
-0.290288 0.449084 -0.100535 4.000000
-0.290288 -0.181305 -0.428630 4.000000
-0.290288 -0.259390 -0.399594 4.000000
-0.290288 0.304035 0.372308 4.000000
-0.290288 -0.128194 -0.452284 4.000000
-0.290288 -0.359528 0.311909 4.000000
-0.290288 0.284144 -0.354125 4.000000
-0.290288 -0.478537 -0.112146 4.000000
-0.290288 0.282368 0.399200 4.000000
-0.290288 -0.425673 0.205502 4.000000
-0.290288 0.486769 -0.048047 4.000000
-0.290288 -0.195538 -0.452851 4.000000
-0.290288 0.224724 0.441784 4.000000
-0.290288 0.384324 0.291365 4.000000
-0.290288 -0.365530 -0.314048 4.000000
-0.290288 -0.454320 0.037871 4.000000
-0.290288 -0.234366 -0.407452 4.000000
-0.290288 -0.018685 0.443440 4.000000
-0.290288 0.461675 0.129001 4.000000
-0.290288 -0.252924 -0.391147 4.000000
-0.290288 0.439234 0.152505 4.000000
-0.290288 -0.243196 0.375958 4.000000
-0.290288 -0.245141 -0.429252 4.000000
-0.290288 0.385742 -0.264133 4.000000
-0.290288 -0.155020 0.462562 4.000000
-0.290288 0.417940 -0.207598 4.000000
-0.290288 -0.061577 0.478300 4.000000
-0.290288 0.268595 -0.404115 4.000000
-0.290288 -0.423437 -0.218355 4.000000
-0.290288 0.451303 0.147071 4.000000
-0.290288 0.038998 -0.457984 4.000000
-0.290288 0.324616 -0.353643 4.000000
-0.290288 -0.296755 0.359898 4.000000
-0.290288 0.410041 0.195996 4.000000
-0.290288 0.442385 -0.145128 4.000000
-0.290288 0.487780 0.054322 4.000000
-0.290288 -0.479829 0.040630 4.000000
-0.290288 -0.017598 0.451878 4.000000
-0.290288 -0.003076 -0.499900 4.000000
-0.290288 0.446038 -0.062476 4.000000
-0.290288 0.450556 0.098173 4.000000
-0.290288 0.493301 -0.037612 4.000000
-0.290288 -0.386786 0.239301 4.000000
-0.290288 0.352480 0.316391 4.000000
-0.290288 -0.432814 0.228687 4.000000
-0.290288 -0.385978 0.299547 4.000000
-0.290288 0.187835 -0.411896 4.000000
-0.290288 0.437371 -0.090547 4.000000
-0.290288 -0.412943 -0.258161 4.000000
-0.290288 -0.470464 -0.118467 4.000000
-0.290288 0.070282 -0.494669 4.000000
-0.290288 -0.362154 0.336377 4.000000
-0.290288 0.486211 0.107725 4.000000
-0.290288 0.266975 0.396914 4.000000
-0.290288 -0.349464 -0.313371 4.000000
-0.290288 -0.389472 -0.255111 4.000000
-0.290288 0.288668 0.401542 4.000000
-0.290288 0.298487 -0.377214 4.000000
-0.290288 0.429518 -0.149882 4.000000
-0.290288 -0.408118 0.213258 4.000000
-0.290288 -0.321205 0.359217 4.000000
-0.290288 0.437306 -0.178246 4.000000
-0.290288 0.082258 -0.464894 4.000000
-0.290288 -0.299737 -0.331418 4.000000
-0.290288 -0.470337 -0.087386 4.000000
-0.290288 0.438399 -0.189809 4.000000
-0.290288 0.459687 -0.089241 4.000000
-0.290288 -0.390916 0.270029 4.000000
-0.290288 0.475538 -0.143406 4.000000
-0.290288 -0.178608 -0.415335 4.000000
-0.290288 0.321004 -0.323669 4.000000
-0.290288 -0.454784 -0.186548 4.000000
-0.290288 0.200875 0.417543 4.000000
-0.290288 -0.022469 0.473945 4.000000
-0.290288 -0.477869 -0.038553 4.000000
-0.290288 -0.175608 0.433103 4.000000
-0.290288 0.234127 -0.414798 4.000000
-0.290288 -0.474216 0.114930 4.000000
-0.290288 -0.404425 -0.262061 4.000000
-0.290288 -0.189771 -0.410519 4.000000
-0.290288 -0.488389 -0.047017 4.000000
-0.290288 -0.109290 -0.473267 4.000000
-0.290288 -0.114529 -0.469111 4.000000
-0.290288 -0.426255 -0.249714 4.000000
-0.290288 0.299146 0.386319 4.000000
-0.290288 0.223867 0.403648 4.000000
-0.290288 -0.015895 0.474441 4.000000
-0.290288 -0.011460 0.469902 4.000000
-0.290288 -0.379877 -0.261994 4.000000
-0.290288 0.440734 0.116188 4.000000
-0.290288 -0.307939 0.342746 4.000000
-0.290288 -0.075907 -0.477128 4.000000
-0.290288 0.464619 -0.002704 4.000000
-0.290288 0.234319 0.430164 4.000000
-0.290288 -0.299978 0.351600 4.000000
-0.290288 -0.003813 -0.467221 4.000000
-0.290288 0.175019 -0.463955 4.000000
-0.290288 -0.408702 0.226386 4.000000
-0.290288 0.274834 0.356298 4.000000
-0.290288 0.441007 -0.207535 4.000000
-0.290288 -0.103771 0.443678 4.000000
-0.290288 0.111026 0.465982 4.000000
-0.290288 -0.468075 0.161647 4.000000
-0.290288 0.347945 -0.318374 4.000000
-0.290288 -0.068314 0.489424 4.000000
-0.290288 0.466866 0.033861 4.000000
-0.290288 0.186324 -0.423390 4.000000
-0.290288 -0.467924 -0.125641 4.000000
-0.290288 -0.443463 0.199430 4.000000
-0.290288 -0.402675 -0.222870 4.000000
-0.290288 -0.242238 0.425797 4.000000
-0.290288 -0.463342 -0.080782 4.000000
-0.290288 -0.445760 -0.194425 4.000000
-0.290288 0.480778 -0.082610 4.000000
-0.290288 0.392263 0.211971 4.000000
-0.290288 0.399394 -0.294677 4.000000
-0.290288 -0.407064 -0.222019 4.000000
-0.290288 -0.332033 -0.353145 4.000000
-0.290288 -0.411566 0.186125 4.000000
-0.290288 -0.274539 -0.410579 4.000000
-0.290288 0.186677 -0.408274 4.000000
-0.290288 0.123512 0.446762 4.000000
-0.290288 0.208969 0.437379 4.000000
-0.290288 0.477124 0.015146 4.000000
-0.290288 0.360639 -0.296589 4.000000
-0.290288 0.444511 0.191501 4.000000
-0.290288 -0.456957 -0.102856 4.000000
-0.290288 0.380695 -0.304925 4.000000
-0.290288 0.273343 -0.370448 4.000000
-0.290288 0.262893 0.372251 4.000000
-0.290288 0.285260 0.401184 4.000000
-0.290288 0.373335 0.294483 4.000000
-0.290288 0.197555 -0.427088 4.000000
-0.290288 0.450081 -0.056944 4.000000
-0.290288 -0.207027 0.425754 4.000000
-0.290288 0.434292 -0.108271 4.000000
-0.290288 -0.484361 0.092957 4.000000
-0.290288 0.295857 0.370862 4.000000
-0.290288 -0.139426 -0.464904 4.000000
-0.290288 -0.462393 0.102159 4.000000
-0.290288 -0.093101 0.478382 4.000000
-0.290288 -0.189687 -0.452595 4.000000
-0.290288 0.493655 -0.011303 4.000000
-0.290288 -0.483474 -0.027289 4.000000
-0.290288 0.418449 0.205136 4.000000
-0.290288 0.264752 -0.404707 4.000000
-0.290288 -0.437262 -0.194804 4.000000
-0.290288 0.450963 0.158647 4.000000
-0.290288 -0.406635 -0.287128 4.000000
-0.290288 0.162555 -0.469627 4.000000
-0.290288 0.313727 -0.366867 4.000000
-0.290288 0.165098 -0.459098 4.000000
-0.290288 -0.419852 -0.241147 4.000000
-0.290288 0.344183 0.281302 4.000000
-0.290288 -0.129697 0.423897 4.000000
-0.290288 -0.424107 0.217037 4.000000
-0.290288 -0.366867 0.333910 4.000000
-0.290288 0.273809 0.381302 4.000000
-0.290288 -0.491255 0.013825 4.000000
-0.290288 -0.445347 -0.185087 4.000000
-0.290288 -0.468643 0.051167 4.000000
-0.290288 0.422790 -0.144668 4.000000
-0.290288 -0.386459 0.250428 4.000000
-0.290288 -0.371487 0.287452 4.000000
-0.290288 -0.203427 -0.449454 4.000000
-0.290288 0.155385 -0.424829 4.000000
-0.290288 0.135862 -0.471936 4.000000
-0.290288 -0.298449 0.386744 4.000000
-0.290288 0.326992 0.347790 4.000000
-0.290288 0.451094 0.175112 4.000000
-0.290288 -0.416988 0.173523 4.000000
-0.290288 -0.133943 0.425608 4.000000
-0.290288 -0.476637 0.060180 4.000000
-0.290288 -0.459107 -0.134066 4.000000
-0.290288 -0.407544 0.230993 4.000000
-0.290288 -0.411978 -0.244930 4.000000
-0.290288 -0.387577 -0.252499 4.000000
-0.290288 -0.368659 0.325782 4.000000
-0.290288 0.001384 -0.488784 4.000000
-0.290288 0.062691 0.466875 4.000000
-0.290288 -0.403487 -0.277715 4.000000
-0.290288 -0.403841 -0.214008 4.000000
-0.290288 -0.258858 0.421385 4.000000
-0.290288 -0.378062 -0.300899 4.000000
-0.290288 -0.234556 -0.380934 4.000000
-0.290288 -0.271683 -0.402572 4.000000
-0.290288 0.432234 -0.173335 4.000000
-0.290288 0.065286 0.469207 4.000000
-0.290288 -0.484690 -0.109582 4.000000
-0.290288 0.137990 0.431303 4.000000
-0.290288 0.364803 -0.330596 4.000000
-0.290288 0.411436 0.241889 4.000000
-0.290288 -0.241058 0.416721 4.000000
-0.290288 0.460945 -0.003122 4.000000
-0.290288 0.015775 -0.479078 4.000000
-0.290288 0.461909 -0.034779 4.000000
-0.290288 0.327618 -0.343654 4.000000
-0.290288 -0.427413 -0.229290 4.000000
-0.290288 0.032138 -0.473183 4.000000
-0.290288 0.424793 -0.168379 4.000000
-0.290288 0.276603 0.360609 4.000000
-0.290288 -0.352024 -0.308829 4.000000
-0.290288 0.063802 0.459425 4.000000
-0.290288 -0.417006 -0.201292 4.000000
-0.290288 0.475448 -0.009372 4.000000
-0.290288 -0.442653 0.048941 4.000000
-0.290288 -0.461744 0.129735 4.000000
-0.290288 0.433104 0.226967 4.000000
-0.290288 -0.483769 -0.080476 4.000000
-0.290288 -0.471976 -0.125623 4.000000
-0.290288 0.385074 0.257753 4.000000
-0.290288 -0.452719 0.133427 4.000000
-0.290288 -0.238409 0.391055 4.000000
-0.290288 -0.332257 0.335167 4.000000
-0.290288 0.474235 -0.032220 4.000000
-0.290288 -0.210616 0.442613 4.000000
-0.290288 -0.334653 0.363868 4.000000
-0.290288 -0.279039 0.384443 4.000000
-0.290288 -0.421214 0.162941 4.000000
-0.290288 0.477975 -0.023501 4.000000
-0.290288 0.433597 -0.232583 4.000000
-0.290288 0.448163 0.193875 4.000000
-0.290288 0.477737 0.117755 4.000000
-0.290288 0.305920 -0.346365 4.000000
-0.290288 -0.453615 0.200560 4.000000
-0.290288 0.157364 0.450333 4.000000
-0.290288 0.081778 -0.469005 4.000000
-0.290288 -0.459833 -0.081802 4.000000
-0.290288 0.486048 -0.074499 4.000000
-0.290288 -0.403109 0.210512 4.000000
-0.290288 -0.429722 0.248295 4.000000
-0.290288 -0.470056 0.120442 4.000000
-0.290288 0.337460 0.346955 4.000000
-0.290288 0.274388 0.391796 4.000000
-0.290288 0.392098 -0.268959 4.000000
-0.290288 0.285326 0.346046 4.000000
-0.290288 0.079891 -0.471769 4.000000
-0.290288 -0.373734 -0.327469 4.000000
-0.290288 -0.396007 -0.229579 4.000000
-0.290288 -0.450245 0.000282 4.000000
-0.290288 0.453826 0.155320 4.000000
-0.290288 0.428685 -0.180289 4.000000
-0.290288 0.455950 -0.088318 4.000000
-0.290288 0.266648 -0.359956 4.000000
-0.290288 -0.454401 -0.032617 4.000000
-0.290288 -0.217197 -0.398019 4.000000
-0.290288 0.049028 0.491272 4.000000
-0.290288 0.001086 -0.462025 4.000000
-0.290288 0.078076 0.442279 4.000000
-0.290288 -0.422377 0.166116 4.000000
-0.290288 0.469797 -0.118014 4.000000
-0.290288 -0.309076 -0.342365 4.000000
-0.290288 0.302798 -0.334791 4.000000
-0.290288 -0.156053 -0.424721 4.000000
-0.290288 0.464760 -0.077460 4.000000
-0.290288 -0.469856 0.158345 4.000000
-0.290288 0.324666 -0.323460 4.000000
-0.290288 -0.384088 -0.254596 4.000000
-0.290288 0.455872 0.198159 4.000000
-0.290288 0.396309 0.280812 4.000000
-0.290288 -0.437757 0.203750 4.000000
-0.290288 0.362311 0.285781 4.000000
-0.290288 -0.120929 -0.479331 4.000000
-0.290288 -0.179917 0.424150 4.000000
-0.290288 0.387859 -0.307481 4.000000
-0.290288 -0.468332 0.088808 4.000000
-0.290288 0.457806 0.097721 4.000000
-0.290288 -0.463630 -0.064156 4.000000
-0.290288 0.245365 0.394190 4.000000
-0.290288 0.332579 0.322958 4.000000
-0.290288 0.278738 0.400856 4.000000
-0.290288 -0.333936 -0.342767 4.000000
-0.290288 -0.480266 -0.129296 4.000000
-0.290288 0.323840 0.332564 4.000000
-0.290288 -0.364042 -0.258408 4.000000
-0.290288 -0.104458 -0.459891 4.000000
-0.290288 -0.410375 -0.255204 4.000000
-0.290288 0.139129 0.438099 4.000000
-0.290288 -0.280955 0.366418 4.000000
-0.290288 -0.145655 0.464508 4.000000
-0.290288 0.253011 0.426904 4.000000
-0.290288 0.408759 -0.273761 4.000000
-0.290288 0.387472 -0.312986 4.000000
-0.290288 0.478816 0.124093 4.000000
-0.290288 -0.487631 0.082896 4.000000
-0.290288 -0.115199 0.463245 4.000000
-0.290288 -0.266124 0.373700 4.000000
-0.290288 0.003660 -0.496489 4.000000
-0.290288 -0.451338 0.178699 4.000000
-0.290288 -0.367617 0.257996 4.000000
-0.290288 0.026449 0.442569 4.000000
-0.290288 -0.494789 0.041933 4.000000
-0.290288 0.275770 -0.368539 4.000000
-0.290288 0.336656 -0.357233 4.000000
-0.290288 0.179051 0.409833 4.000000
-0.290288 -0.293025 0.359900 4.000000
-0.290288 0.478331 -0.026981 4.000000
-0.290288 -0.262010 0.401602 4.000000
-0.290288 0.462879 -0.090701 4.000000
-0.290288 0.065409 -0.461059 4.000000
-0.290288 -0.320640 -0.335025 4.000000
-0.290288 0.191505 0.449108 4.000000
-0.290288 -0.360572 0.296887 4.000000
-0.290288 0.238058 -0.396324 4.000000
-0.290288 0.080427 -0.454669 4.000000
-0.290288 -0.478885 -0.099938 4.000000
-0.290288 0.118636 0.465863 4.000000
-0.290288 0.085989 0.448221 4.000000
-0.290288 -0.430463 -0.245983 4.000000
-0.290288 0.053664 0.472677 4.000000
-0.290288 -0.070283 0.484222 4.000000
-0.290288 -0.345964 0.315642 4.000000
-0.290288 0.456978 -0.076696 4.000000
-0.290288 -0.081577 -0.454739 4.000000
-0.290288 -0.139219 -0.461169 4.000000
-0.290288 0.450924 0.162730 4.000000
-0.290288 -0.327135 -0.360560 4.000000
-0.290288 0.038425 0.448288 4.000000
-0.290288 0.173802 0.415141 4.000000
-0.290288 0.098695 -0.443075 4.000000
-0.290288 -0.249891 -0.378613 4.000000
-0.290288 -0.317151 -0.366481 4.000000
-0.290288 -0.228661 0.402144 4.000000
-0.290288 0.025606 -0.456060 4.000000
-0.290288 0.459208 0.146205 4.000000
-0.290288 0.357898 -0.318973 4.000000
-0.290288 -0.363435 -0.289514 4.000000
-0.290288 0.411782 -0.261697 4.000000
-0.290288 0.300800 0.326829 4.000000
-0.290288 0.071751 0.490742 4.000000
-0.290288 0.202623 0.413685 4.000000
-0.290288 -0.425722 0.211402 4.000000
-0.290288 -0.439073 -0.166047 4.000000
-0.290288 -0.025364 -0.454135 4.000000
-0.290288 0.425451 -0.136995 4.000000
-0.290288 0.364324 -0.268148 4.000000
-0.290288 -0.374444 0.293193 4.000000
-0.290288 0.003725 -0.500005 4.000000
-0.290288 -0.479524 0.016669 4.000000
-0.290288 -0.340395 0.309480 4.000000
-0.290288 0.286432 -0.363615 4.000000
-0.290288 0.421398 0.190386 4.000000
-0.290288 -0.250920 -0.381610 4.000000
-0.290288 -0.345949 -0.311620 4.000000
-0.290288 -0.007518 -0.482178 4.000000
-0.290288 -0.364476 -0.338349 4.000000
-0.290288 0.491536 -0.001705 4.000000
-0.290288 -0.484594 -0.035299 4.000000
-0.290288 -0.440214 0.143607 4.000000
-0.290288 0.025525 -0.467532 4.000000
-0.290288 -0.493104 -0.067501 4.000000
-0.290288 -0.394845 0.230895 4.000000
-0.290288 0.493064 -0.047264 4.000000
-0.290288 -0.094658 -0.480955 4.000000
-0.290288 -0.053793 0.487160 4.000000
-0.290288 -0.439252 0.112232 4.000000
-0.290288 -0.302162 0.386712 4.000000
-0.290288 -0.330378 0.344820 4.000000
-0.290288 0.129929 -0.479922 4.000000
-0.290288 -0.321578 -0.326045 4.000000
-0.290288 -0.134681 0.442678 4.000000
-0.290288 -0.347575 0.294669 4.000000
-0.290288 0.439938 -0.151765 4.000000
-0.290288 0.446659 0.157731 4.000000
-0.290288 0.147290 -0.432019 4.000000
-0.290288 -0.142322 0.457264 4.000000
-0.290288 0.461988 0.150252 4.000000
-0.290288 0.448898 -0.069468 4.000000
-0.290288 0.044387 0.463012 4.000000
-0.290288 -0.087242 0.472312 4.000000
-0.290288 -0.365764 0.303405 4.000000
-0.290288 -0.156652 0.452369 4.000000
-0.290288 -0.320833 0.376414 4.000000
-0.290288 -0.402719 -0.247380 4.000000
-0.290288 0.482000 -0.097711 4.000000
-0.290288 -0.452770 0.174433 4.000000
-0.290288 -0.096087 -0.474193 4.000000
-0.290288 -0.030056 -0.454288 4.000000
-0.290288 0.413458 -0.172267 4.000000
-0.290288 -0.159528 -0.435009 4.000000
-0.290288 0.206171 0.424656 4.000000
-0.290288 -0.473712 0.062533 4.000000
-0.290288 -0.306232 -0.329576 4.000000
-0.290288 -0.419965 -0.196415 4.000000
-0.290288 -0.362792 0.328510 4.000000
-0.290288 0.204266 0.431100 4.000000
-0.290288 -0.169312 -0.430357 4.000000
-0.290288 0.061099 0.456115 4.000000
-0.290288 -0.072229 0.450763 4.000000
-0.290288 -0.419237 -0.221571 4.000000
-0.290288 -0.361892 0.283135 4.000000
-0.290288 -0.339202 0.356458 4.000000
-0.290288 0.304071 0.361922 4.000000
-0.290288 -0.434387 -0.221305 4.000000
-0.290288 -0.049831 -0.488667 4.000000
-0.290288 -0.423366 0.227669 4.000000
-0.290288 0.412949 -0.210592 4.000000
-0.290288 0.459106 0.057619 4.000000
-0.290288 0.278084 0.380237 4.000000
-0.290288 -0.465580 -0.177881 4.000000
-0.290288 0.435563 0.230263 4.000000
-0.290288 0.260495 0.414108 4.000000
-0.290288 -0.198014 -0.410908 4.000000
-0.290288 -0.349040 -0.310280 4.000000
-0.290288 -0.428357 0.244851 4.000000
-0.290288 0.223634 -0.425178 4.000000
-0.290288 0.344881 0.316303 4.000000
-0.290288 -0.452333 -0.017404 4.000000
-0.290288 -0.392149 0.233576 4.000000
-0.290288 -0.326931 0.367599 4.000000
-0.290288 0.024420 0.476897 4.000000
-0.290288 -0.141928 -0.442320 4.000000
-0.290288 -0.401408 0.288157 4.000000
-0.290288 0.448836 -0.043503 4.000000
-0.290288 -0.001154 -0.486357 4.000000
-0.290288 -0.419687 0.256815 4.000000
-0.290288 -0.455332 0.143344 4.000000
-0.290288 -0.439285 -0.217708 4.000000
-0.290288 0.056473 0.474716 4.000000
-0.290288 0.454435 0.160628 4.000000
-0.290288 0.418143 0.198467 4.000000
-0.290288 0.290469 -0.398590 4.000000
-0.290288 -0.145271 0.442627 4.000000
-0.290288 0.234650 -0.411150 4.000000
-0.290288 -0.262370 0.417753 4.000000
-0.290288 0.024693 -0.484031 4.000000
-0.290288 0.058970 0.468901 4.000000
-0.290288 0.117707 0.468810 4.000000
-0.290288 0.367157 0.257345 4.000000
-0.290288 -0.433368 -0.159447 4.000000
-0.290288 0.333001 0.294093 4.000000
-0.290288 0.483825 -0.008603 4.000000
-0.290288 -0.231442 0.432127 4.000000
-0.290288 0.056076 -0.477926 4.000000
-0.290288 0.353469 -0.339113 4.000000
-0.290288 -0.144197 -0.428508 4.000000
-0.290288 -0.099404 -0.448172 4.000000
-0.290288 -0.136652 0.475719 4.000000
-0.290288 -0.446136 0.174197 4.000000
-0.290288 -0.058103 0.468242 4.000000
-0.290288 -0.466519 -0.079259 4.000000
-0.290288 0.313548 -0.375087 4.000000
-0.290288 0.464673 0.061951 4.000000
-0.290288 0.451994 -0.157485 4.000000
-0.290288 0.087093 0.470550 4.000000
-0.290288 -0.447518 0.212056 4.000000
-0.290288 0.149153 -0.439143 4.000000
-0.290288 0.435928 0.124021 4.000000
-0.290288 0.460041 0.124524 4.000000
-0.290288 0.276869 -0.352454 4.000000
-0.290288 0.416114 0.178502 4.000000
-0.290288 -0.331250 0.314854 4.000000
-0.290288 -0.137218 0.451542 4.000000
-0.290288 0.017371 0.454276 4.000000
-0.290288 0.462271 -0.124328 4.000000
-0.290288 0.427970 0.125459 4.000000
-0.290288 0.022745 0.448864 4.000000
-0.290288 0.258296 0.409041 4.000000
-0.290288 0.194650 -0.435775 4.000000
-0.290288 0.367087 -0.323030 4.000000
-0.290288 0.472308 -0.102432 4.000000
-0.290288 0.240897 0.378941 4.000000
-0.290288 -0.443865 -0.109710 4.000000
-0.290288 0.389983 0.307768 4.000000
-0.290288 0.313233 -0.325041 4.000000
-0.290288 -0.367254 0.322601 4.000000
-0.290288 0.047654 -0.489566 4.000000
-0.290288 -0.050558 0.446009 4.000000
-0.290288 0.285065 0.358170 4.000000
-0.290288 0.006615 -0.448550 4.000000
-0.290288 0.260624 0.359760 4.000000
-0.290288 0.034250 0.474980 4.000000
-0.290288 -0.021934 0.480601 4.000000
-0.290288 -0.249191 -0.401445 4.000000
-0.290288 -0.455718 0.117104 4.000000
-0.290288 0.441456 0.164599 4.000000
-0.290288 -0.482176 -0.068143 4.000000
-0.290288 -0.372531 0.301698 4.000000
-0.290288 0.247722 -0.382455 4.000000
-0.290288 0.267611 0.400925 4.000000
-0.290288 0.427936 0.148359 4.000000
-0.290288 -0.172957 -0.416891 4.000000
-0.290288 -0.308471 -0.354242 4.000000
-0.290288 -0.226337 -0.385564 4.000000
-0.290288 0.364185 0.305211 4.000000
-0.290288 0.271832 0.353038 4.000000
-0.290288 0.143281 0.455819 4.000000
-0.290288 0.097243 0.468217 4.000000
-0.290288 0.138812 0.471484 4.000000
-0.290288 -0.260448 -0.425533 4.000000
-0.290288 0.463986 0.136569 4.000000
-0.290288 0.106187 -0.482748 4.000000
-0.290288 0.446865 0.079975 4.000000
-0.290288 0.465049 -0.132761 4.000000
-0.290288 -0.020668 0.455318 4.000000
-0.290288 -0.307885 0.385664 4.000000
-0.290288 -0.339982 0.302770 4.000000
-0.290288 0.389279 0.252584 4.000000
-0.290288 -0.402249 0.215572 4.000000
-0.290288 -0.233753 -0.387319 4.000000
-0.290288 -0.402073 -0.250665 4.000000
-0.290288 0.138691 0.468002 4.000000
-0.290288 0.375459 -0.300086 4.000000
-0.290288 -0.451175 0.094233 4.000000
-0.290288 0.247076 0.399599 4.000000
-0.290288 0.443283 -0.095379 4.000000
-0.290288 -0.409752 -0.198998 4.000000
-0.290288 0.283701 -0.360684 4.000000
-0.290288 -0.037546 0.460809 4.000000
-0.290288 0.211617 -0.448340 4.000000
-0.290288 -0.242195 0.402293 4.000000
-0.290288 0.423862 -0.163893 4.000000
-0.290288 0.476644 -0.047425 4.000000
-0.290288 -0.450302 0.190745 4.000000
-0.290288 0.456297 0.021921 4.000000
-0.290288 -0.053403 0.483418 4.000000
-0.290288 0.118312 0.475677 4.000000
-0.290288 -0.209036 0.401443 4.000000
-0.290288 -0.386799 -0.233906 4.000000
-0.290288 0.209667 -0.405317 4.000000
-0.290288 -0.318922 -0.350295 4.000000
-0.290288 -0.483260 0.023765 4.000000
-0.290288 0.469140 -0.079249 4.000000
-0.290288 -0.421658 0.210121 4.000000
-0.290288 0.431173 0.188638 4.000000
-0.290288 0.008405 0.492635 4.000000
-0.290288 -0.481917 -0.071619 4.000000
-0.290288 0.426077 -0.195753 4.000000
-0.290288 -0.429585 -0.145925 4.000000
-0.290288 0.443998 0.092766 4.000000
-0.290288 -0.164759 0.467487 4.000000
-0.290288 0.424500 0.184724 4.000000
-0.290288 0.354786 -0.317695 4.000000
-0.290288 -0.345384 -0.339901 4.000000
-0.290288 0.295439 -0.339375 4.000000
-0.290288 0.437592 -0.233019 4.000000
-0.290288 -0.213624 -0.427677 4.000000
-0.290288 0.428081 0.201604 4.000000
-0.290288 -0.378002 0.321161 4.000000
-0.290288 -0.256676 0.366003 4.000000
-0.290288 -0.439400 0.194281 4.000000
-0.290288 -0.017318 -0.469940 4.000000
-0.290288 0.222136 -0.447380 4.000000
-0.290288 0.457821 -0.130188 4.000000
-0.290288 0.420074 0.161587 4.000000
-0.290288 0.414870 0.254396 4.000000
-0.290288 -0.077403 -0.484572 4.000000
-0.290288 0.123514 0.434469 4.000000
-0.290288 0.449738 0.200128 4.000000
-0.290288 0.038379 -0.494934 4.000000
-0.290288 -0.452974 0.129439 4.000000
-0.290288 -0.298778 -0.339230 4.000000
-0.290288 -0.465050 -0.025001 4.000000
-0.290288 -0.390332 0.239907 4.000000
-0.290288 -0.414891 -0.270729 4.000000
-0.290288 0.263256 -0.366860 4.000000
-0.290288 0.201806 -0.446022 4.000000
-0.290288 -0.200553 0.442333 4.000000
-0.290288 0.414976 0.162112 4.000000
-0.290288 -0.109485 -0.440394 4.000000
-0.290288 0.371992 0.265171 4.000000
-0.290288 0.065574 0.483106 4.000000
-0.290288 0.413622 -0.206906 4.000000
-0.290288 -0.190206 -0.430505 4.000000
-0.290288 0.368307 0.268304 4.000000
-0.290288 0.421657 0.234244 4.000000
-0.290288 0.469130 -0.000062 4.000000
-0.290288 -0.468678 -0.121241 4.000000
-0.290288 0.283249 0.366497 4.000000
-0.290288 -0.122876 0.426881 4.000000
-0.290288 -0.402488 0.277181 4.000000
-0.290288 -0.165838 -0.450470 4.000000
-0.290288 -0.221088 0.386133 4.000000
-0.290288 0.229085 -0.388388 4.000000
-0.290288 -0.352168 -0.285664 4.000000
-0.290288 -0.167400 0.434098 4.000000
-0.290288 0.456308 -0.136862 4.000000
-0.290288 -0.203160 -0.415574 4.000000
-0.290288 -0.040064 0.444467 4.000000
-0.290288 -0.108455 -0.451134 4.000000
-0.290288 0.472907 -0.097444 4.000000
-0.290288 -0.459966 0.068175 4.000000
-0.290288 0.414047 0.197039 4.000000
-0.290288 0.306650 0.375523 4.000000
-0.290288 0.434338 -0.129736 4.000000
-0.290288 -0.323245 -0.355508 4.000000
-0.290288 -0.448590 -0.163041 4.000000
-0.290288 -0.266755 -0.383824 4.000000
-0.290288 0.451581 0.133789 4.000000
-0.290288 0.034744 -0.451255 4.000000
-0.290288 0.429067 -0.193233 4.000000
-0.290288 -0.311940 -0.353040 4.000000
-0.290288 0.391170 0.275971 4.000000
-0.290288 -0.461467 0.108907 4.000000
-0.290288 -0.420277 0.224902 4.000000
-0.290288 -0.434733 -0.098279 4.000000
-0.290288 0.069339 -0.484168 4.000000
-0.290288 0.394890 0.230120 4.000000
-0.290288 0.442220 0.213006 4.000000
-0.290288 -0.244723 0.389866 4.000000
-0.290288 0.077554 0.471881 4.000000
-0.290288 -0.234779 0.412106 4.000000
-0.290288 0.103901 -0.476998 4.000000
-0.290288 0.049288 0.459723 4.000000
-0.290288 -0.044019 -0.477395 4.000000
-0.290288 0.279027 0.358143 4.000000
-0.290288 -0.282226 0.395269 4.000000
-0.290288 -0.280960 -0.392309 4.000000
-0.290288 -0.285792 0.398809 4.000000
-0.290288 0.319055 -0.379393 4.000000
-0.290288 -0.477656 -0.090619 4.000000
-0.290288 0.094829 0.478435 4.000000
-0.290288 -0.374191 -0.299295 4.000000
-0.290288 -0.469904 -0.011385 4.000000
-0.290288 -0.486149 0.011025 4.000000
-0.290288 -0.448523 -0.119292 4.000000
-0.290288 0.368529 0.287248 4.000000
-0.290288 0.407820 -0.182049 4.000000
-0.290288 -0.063775 0.462914 4.000000
-0.290288 -0.162446 0.419381 4.000000
-0.290288 0.293245 -0.388517 4.000000
-0.290288 -0.215983 0.415030 4.000000
-0.290288 0.143069 -0.479342 4.000000
-0.290288 0.436120 -0.187466 4.000000
-0.290288 -0.319805 0.340910 4.000000
-0.290288 0.363683 0.322210 4.000000
-0.290288 0.122278 0.469810 4.000000
-0.290288 0.453131 -0.083689 4.000000
-0.290288 0.452425 -0.113156 4.000000
-0.290288 0.372915 -0.275577 4.000000
-0.290288 0.099672 0.484910 4.000000
-0.290288 0.275778 0.373723 4.000000
-0.290288 0.194035 0.441782 4.000000
-0.290288 0.482200 -0.006055 4.000000
-0.290288 -0.467462 -0.046899 4.000000
-0.290288 -0.392933 0.214452 4.000000
-0.290288 0.223301 0.393468 4.000000
-0.290288 0.387828 0.293767 4.000000
-0.290288 -0.058014 -0.489502 4.000000
-0.290288 -0.096011 0.462651 4.000000
-0.290288 0.470393 -0.112126 4.000000
-0.290288 -0.420990 -0.252005 4.000000
-0.290288 -0.063216 -0.447243 4.000000
-0.290288 -0.256690 -0.366887 4.000000
-0.290288 -0.422523 -0.239293 4.000000
-0.290288 -0.000447 0.446913 4.000000
-0.290288 -0.215802 -0.437605 4.000000
-0.290288 0.188398 0.433414 4.000000
-0.290288 0.478965 -0.007989 4.000000
-0.290288 -0.485881 -0.077482 4.000000
-0.290288 0.467877 0.130762 4.000000
-0.290288 -0.334402 -0.314461 4.000000
-0.290288 -0.266181 -0.374936 4.000000
-0.290288 0.440144 0.070223 4.000000
-0.290288 -0.482734 0.018724 4.000000
-0.290288 -0.259547 -0.403643 4.000000
-0.290288 0.347822 0.329812 4.000000
-0.290288 0.398868 -0.249660 4.000000
-0.290288 0.223202 -0.409053 4.000000
-0.290288 -0.469526 -0.065410 4.000000
-0.290288 0.401746 -0.230571 4.000000
-0.290288 0.436470 0.226484 4.000000
-0.290288 -0.131941 -0.445727 4.000000
-0.290288 0.475531 0.113064 4.000000
