0.286960 -0.409584 -0.193823 1.000000
0.286960 -0.133098 -0.438610 1.000000
0.286960 0.048049 -0.470154 1.000000
0.286960 0.415012 -0.246427 1.000000
0.286960 0.165533 -0.417037 1.000000
0.286960 0.486334 -0.063819 1.000000
0.286960 0.364418 -0.324785 1.000000
0.286960 -0.121914 0.454117 1.000000
0.286960 0.336376 0.325027 1.000000
0.286960 -0.420369 0.216358 1.000000
0.286960 -0.456773 0.084781 1.000000
0.286960 0.015227 -0.487034 1.000000
0.286960 0.454537 -0.013516 1.000000
0.286960 -0.037657 -0.471151 1.000000
0.286960 -0.393286 0.271800 1.000000
0.286960 0.197148 0.453200 1.000000
0.286960 -0.411982 0.230804 1.000000
0.286960 0.301675 -0.383004 1.000000
0.286960 0.429012 -0.126566 1.000000
0.286960 -0.450140 -0.107835 1.000000
0.286960 -0.153129 0.444414 1.000000
0.286960 -0.488851 -0.009573 1.000000
0.286960 0.458460 -0.162579 1.000000
0.286960 -0.390380 0.276379 1.000000
0.286960 0.220708 0.386723 1.000000
0.286960 -0.359310 0.277308 1.000000
0.286960 -0.073939 -0.455222 1.000000
0.286960 0.261047 0.415923 1.000000
0.286960 -0.481410 -0.003071 1.000000
0.286960 0.443037 0.056086 1.000000
0.286960 -0.410244 -0.278070 1.000000
0.286960 0.440219 -0.153903 1.000000
0.286960 -0.151394 0.455117 1.000000
0.286960 -0.481459 0.007018 1.000000
0.286960 -0.179579 0.451403 1.000000
0.286960 -0.132944 -0.474519 1.000000
0.286960 -0.383054 -0.274602 1.000000
0.286960 -0.472803 -0.098077 1.000000
0.286960 -0.466243 0.098252 1.000000
0.286960 -0.310630 -0.342030 1.000000
0.286960 0.083038 0.479627 1.000000
0.286960 0.365067 0.286221 1.000000
0.286960 0.415586 -0.241402 1.000000
0.286960 0.419946 -0.234433 1.000000
0.286960 -0.122834 0.443397 1.000000
0.286960 0.323343 0.320533 1.000000
0.286960 -0.227677 0.415994 1.000000
0.286960 -0.492530 -0.071779 1.000000
0.286960 -0.051918 0.484748 1.000000
0.286960 0.155579 -0.455931 1.000000
0.286960 0.173718 0.427760 1.000000
0.286960 -0.403626 0.206757 1.000000
0.286960 -0.414666 0.209955 1.000000
0.286960 0.382759 0.243029 1.000000
0.286960 0.308149 0.384435 1.000000
0.286960 0.383014 0.236419 1.000000
0.286960 0.346188 -0.297346 1.000000
0.286960 -0.396773 0.243427 1.000000
0.286960 0.428507 0.131409 1.000000
0.286960 -0.196917 -0.415387 1.000000
0.286960 -0.224343 -0.398974 1.000000
0.286960 0.169364 0.458060 1.000000
0.286960 -0.384988 0.257923 1.000000
0.286960 0.016430 0.450609 1.000000
0.286960 0.189371 0.417529 1.000000
0.286960 0.461553 0.174430 1.000000
0.286960 -0.223374 -0.442710 1.000000
0.286960 -0.001457 0.452148 1.000000
0.286960 -0.076619 -0.487807 1.000000
0.286960 -0.441858 0.099768 1.000000
0.286960 0.299245 0.359073 1.000000
0.286960 0.454456 -0.043858 1.000000
0.286960 0.471037 0.124476 1.000000
0.286960 -0.299639 -0.376942 1.000000
0.286960 0.260220 -0.423067 1.000000
0.286960 -0.008710 -0.460065 1.000000
0.286960 -0.267930 0.361121 1.000000
0.286960 0.197876 -0.434997 1.000000
0.286960 -0.368193 0.306384 1.000000
0.286960 0.009398 0.459893 1.000000
0.286960 0.301809 -0.332331 1.000000
0.286960 0.435523 0.239675 1.000000
0.286960 -0.318035 0.357231 1.000000
0.286960 -0.229846 0.413395 1.000000
0.286960 0.243634 0.394653 1.000000
0.286960 -0.296877 -0.348374 1.000000
0.286960 0.420784 -0.237838 1.000000
0.286960 0.422316 0.203656 1.000000
0.286960 0.007384 -0.495818 1.000000
0.286960 0.288638 0.360594 1.000000
0.286960 0.121081 -0.480821 1.000000
0.286960 -0.471267 -0.053496 1.000000
0.286960 -0.278336 0.388527 1.000000
0.286960 0.394250 0.214756 1.000000
0.286960 0.116772 0.473521 1.000000
0.286960 -0.462456 0.124789 1.000000
0.286960 -0.396235 0.227990 1.000000
0.286960 -0.286926 0.377792 1.000000
0.286960 -0.462428 0.021840 1.000000
0.286960 -0.376418 0.320151 1.000000
0.286960 -0.411088 -0.265546 1.000000
0.286960 0.239980 0.378338 1.000000
0.286960 -0.317113 -0.361827 1.000000
0.286960 0.180586 -0.412084 1.000000
0.286960 -0.350774 -0.333513 1.000000
0.286960 0.013635 0.495026 1.000000
0.286960 -0.032356 0.485127 1.000000
0.286960 0.188996 0.429058 1.000000
0.286960 0.482368 0.056900 1.000000
0.286960 0.261991 0.406170 1.000000
0.286960 0.192148 0.405142 1.000000
0.286960 0.115662 -0.444712 1.000000
0.286960 0.351578 0.333330 1.000000
0.286960 -0.376855 0.245863 1.000000
0.286960 -0.362485 -0.278791 1.000000
0.286960 0.194402 -0.448456 1.000000
0.286960 0.421503 -0.228055 1.000000
0.286960 -0.176173 0.415124 1.000000
0.286960 -0.279946 -0.372324 1.000000
0.286960 -0.256614 0.392606 1.000000
0.286960 0.264546 0.395456 1.000000
0.286960 -0.468256 -0.047582 1.000000
0.286960 0.393004 -0.273072 1.000000
0.286960 -0.084564 -0.492139 1.000000
0.286960 -0.463610 0.031445 1.000000
0.286960 -0.384312 0.269818 1.000000
0.286960 -0.478137 0.080343 1.000000
0.286960 -0.449823 -0.055272 1.000000
0.286960 -0.437705 -0.216460 1.000000
0.286960 0.172822 0.464583 1.000000
0.286960 -0.470239 -0.078842 1.000000
0.286960 -0.239718 0.407058 1.000000
0.286960 -0.459829 0.171192 1.000000
0.286960 0.148259 0.443394 1.000000
0.286960 -0.301401 -0.369997 1.000000
0.286960 -0.112879 0.479671 1.000000
0.286960 0.208283 0.430093 1.000000
0.286960 0.311850 0.342528 1.000000
0.286960 0.440676 -0.077642 1.000000
0.286960 -0.017959 -0.498689 1.000000
0.286960 -0.452886 -0.089186 1.000000
0.286960 0.197079 0.443234 1.000000
0.286960 -0.009185 -0.472055 1.000000
0.286960 0.189475 -0.406438 1.000000
0.286960 0.412241 -0.251383 1.000000
0.286960 0.442190 0.176508 1.000000
0.286960 0.456117 -0.047067 1.000000
0.286960 0.439420 -0.099882 1.000000
0.286960 -0.454734 0.183735 1.000000
0.286960 0.108524 -0.462520 1.000000
0.286960 -0.452149 0.027902 1.000000
0.286960 -0.235695 -0.429370 1.000000
0.286960 0.022103 0.472844 1.000000
0.286960 -0.467042 0.077316 1.000000
0.286960 -0.420760 -0.202890 1.000000
0.286960 -0.420004 0.186603 1.000000
0.286960 -0.255211 0.403427 1.000000
0.286960 0.099317 -0.452489 1.000000
0.286960 -0.019792 -0.467812 1.000000
0.286960 -0.340601 -0.317950 1.000000
0.286960 0.368449 -0.327795 1.000000
0.286960 -0.254381 0.389884 1.000000
0.286960 -0.471242 -0.066814 1.000000
0.286960 -0.026494 -0.461479 1.000000
0.286960 0.086566 -0.469495 1.000000
0.286960 0.419093 -0.210870 1.000000
0.286960 0.182457 -0.445337 1.000000
0.286960 0.091464 -0.470381 1.000000
0.286960 -0.444407 -0.067283 1.000000
0.286960 0.476664 -0.129136 1.000000
0.286960 -0.244095 0.409387 1.000000
0.286960 -0.010232 -0.481571 1.000000
0.286960 -0.295687 0.354066 1.000000
0.286960 -0.323083 0.362741 1.000000
0.286960 0.196285 0.398650 1.000000
0.286960 0.141132 -0.446966 1.000000
0.286960 -0.020175 0.447145 1.000000
0.286960 0.283536 -0.400447 1.000000
0.286960 -0.366195 0.251461 1.000000
0.286960 -0.126696 0.425072 1.000000
0.286960 0.069425 -0.468196 1.000000
0.286960 -0.438288 0.199080 1.000000
0.286960 -0.452414 -0.172208 1.000000
0.286960 -0.447427 -0.213414 1.000000
0.286960 -0.161279 -0.461984 1.000000
0.286960 0.243251 -0.375577 1.000000
0.286960 0.481296 0.072278 1.000000
0.286960 -0.205216 -0.428343 1.000000
0.286960 -0.434616 0.153520 1.000000
0.286960 0.072171 0.475666 1.000000
0.286960 0.204855 0.398578 1.000000
0.286960 -0.478253 0.105309 1.000000
0.286960 0.126914 -0.429272 1.000000
0.286960 0.295072 0.390595 1.000000
0.286960 -0.309467 -0.354959 1.000000
0.286960 0.454332 -0.204954 1.000000
0.286960 -0.492537 0.055656 1.000000
0.286960 0.168563 -0.457860 1.000000
0.286960 -0.470823 0.062647 1.000000
0.286960 -0.149517 0.459585 1.000000
0.286960 0.258981 0.371141 1.000000
0.286960 -0.407960 0.215874 1.000000
0.286960 0.476073 -0.147371 1.000000
0.286960 -0.473804 -0.153267 1.000000
0.286960 0.282108 -0.393522 1.000000
0.286960 -0.461648 -0.165149 1.000000
0.286960 0.091275 0.487450 1.000000
0.286960 0.407584 -0.196449 1.000000
0.286960 -0.485020 -0.106983 1.000000
0.286960 -0.416590 -0.194431 1.000000
0.286960 -0.303585 0.376108 1.000000
0.286960 0.473923 0.121884 1.000000
0.286960 0.420528 0.166309 1.000000
0.286960 0.194997 -0.433171 1.000000
0.286960 0.440570 -0.222590 1.000000
0.286960 -0.489905 -0.004763 1.000000
0.286960 -0.292322 -0.338221 1.000000
0.286960 -0.452124 0.167511 1.000000
0.286960 0.223586 -0.403333 1.000000
0.286960 -0.278952 0.351926 1.000000
0.286960 0.275008 0.398783 1.000000
0.286960 0.328048 -0.315711 1.000000
0.286960 0.096011 -0.477034 1.000000
0.286960 -0.420377 -0.255122 1.000000
0.286960 -0.238349 -0.418856 1.000000
0.286960 0.077698 0.444556 1.000000
0.286960 -0.390793 0.225447 1.000000
0.286960 0.439647 0.141005 1.000000
0.286960 -0.289192 0.398687 1.000000
0.286960 0.142902 0.468238 1.000000
0.286960 0.131175 -0.456669 1.000000
0.286960 -0.429424 -0.244177 1.000000
0.286960 -0.432730 -0.130352 1.000000
0.286960 0.244046 0.398880 1.000000
0.286960 0.383910 0.280582 1.000000
0.286960 -0.154626 -0.428207 1.000000
0.286960 0.470486 0.054372 1.000000
0.286960 0.368403 0.260650 1.000000
0.286960 -0.149764 0.451049 1.000000
0.286960 -0.189717 0.401240 1.000000
0.286960 0.228647 0.427115 1.000000
0.286960 0.001121 0.468569 1.000000
0.286960 -0.446546 -0.202927 1.000000
0.286960 0.279803 0.369214 1.000000
0.286960 -0.455678 -0.135066 1.000000
0.286960 0.457883 -0.054610 1.000000
0.286960 -0.491057 0.062375 1.000000
0.286960 0.464091 -0.059491 1.000000
0.286960 0.414674 -0.253465 1.000000
0.286960 0.320733 -0.359016 1.000000
0.286960 -0.197908 -0.430924 1.000000
0.286960 -0.251961 0.422893 1.000000
0.286960 -0.336314 -0.350911 1.000000
0.286960 -0.486933 -0.088286 1.000000
0.286960 0.267143 -0.404186 1.000000
0.286960 0.435340 0.133692 1.000000
0.286960 0.422692 0.232305 1.000000
0.286960 0.473301 0.056309 1.000000
0.286960 -0.419900 -0.248816 1.000000
0.286960 0.050188 0.465068 1.000000
0.286960 -0.180243 -0.442974 1.000000
0.286960 -0.470324 0.158510 1.000000
0.286960 -0.255559 0.367062 1.000000
0.286960 -0.465150 0.080750 1.000000
0.286960 0.457408 0.109800 1.000000
0.286960 -0.406166 -0.246445 1.000000
0.286960 0.459091 -0.194540 1.000000
0.286960 -0.047985 -0.497292 1.000000
0.286960 0.435265 -0.212878 1.000000
0.286960 0.477722 0.004872 1.000000
0.286960 -0.318876 0.377829 1.000000
0.286960 -0.066154 0.456971 1.000000
0.286960 0.463218 0.016536 1.000000
0.286960 0.137178 0.470260 1.000000
0.286960 0.249814 0.406406 1.000000
0.286960 -0.274462 -0.358293 1.000000
0.286960 0.444088 0.062457 1.000000
0.286960 -0.021731 -0.498805 1.000000
0.286960 0.121694 -0.462404 1.000000
0.286960 0.498491 -0.000264 1.000000
0.286960 0.128018 -0.473921 1.000000
0.286960 0.461372 -0.020163 1.000000
0.286960 0.081819 -0.466103 1.000000
0.286960 -0.222831 0.438755 1.000000
0.286960 -0.440598 0.211533 1.000000
0.286960 0.458553 0.123018 1.000000
0.286960 0.468159 0.119699 1.000000
0.286960 0.322991 -0.354110 1.000000
0.286960 -0.355110 0.300845 1.000000
0.286960 0.372545 -0.282914 1.000000
0.286960 0.431235 -0.251644 1.000000
0.286960 -0.046659 0.487593 1.000000
0.286960 -0.412025 0.194744 1.000000
0.286960 -0.211392 -0.448638 1.000000
0.286960 -0.434733 -0.121177 1.000000
0.286960 -0.011428 0.448024 1.000000
0.286960 -0.307873 0.324791 1.000000
0.286960 -0.028708 0.442333 1.000000
0.286960 -0.381748 -0.248948 1.000000
0.286960 -0.442944 -0.192259 1.000000
0.286960 0.448951 0.114884 1.000000
0.286960 0.444236 0.086468 1.000000
0.286960 0.340354 -0.290551 1.000000
0.286960 -0.425437 -0.233128 1.000000
0.286960 0.087124 -0.476621 1.000000
0.286960 -0.490056 -0.022630 1.000000
0.286960 0.398742 0.227156 1.000000
0.286960 0.259812 -0.377129 1.000000
0.286960 -0.081685 -0.447786 1.000000
0.286960 -0.441778 0.148187 1.000000
0.286960 0.380216 0.247065 1.000000
0.286960 0.033712 0.449040 1.000000
0.286960 -0.175500 0.425087 1.000000
0.286960 0.249408 -0.384747 1.000000
0.286960 -0.439167 0.220831 1.000000
0.286960 0.286676 -0.352443 1.000000
0.286960 0.448169 -0.118297 1.000000
0.286960 -0.148238 0.472900 1.000000
0.286960 0.483526 -0.120169 1.000000
0.286960 0.062427 -0.478444 1.000000
0.286960 -0.416875 0.224291 1.000000
0.286960 -0.187435 -0.448018 1.000000
0.286960 -0.420083 0.154410 1.000000
0.286960 0.284170 -0.410816 1.000000
0.286960 0.250034 -0.400000 1.000000
0.286960 0.151544 -0.470715 1.000000
0.286960 0.433660 -0.159227 1.000000
0.286960 -0.475989 0.042151 1.000000
0.286960 0.150787 0.451898 1.000000
0.286960 -0.349378 -0.287239 1.000000
0.286960 -0.223389 -0.388534 1.000000
0.286960 0.091482 0.435270 1.000000
0.286960 -0.430281 0.238845 1.000000
0.286960 0.349525 -0.280094 1.000000
0.286960 0.042662 0.457045 1.000000
0.286960 -0.384960 -0.267250 1.000000
0.286960 -0.433515 -0.109538 1.000000
0.286960 0.447644 -0.064071 1.000000
0.286960 -0.195929 0.405119 1.000000
0.286960 0.471481 -0.006100 1.000000
0.286960 -0.378070 0.261356 1.000000
0.286960 -0.197748 -0.443040 1.000000
0.286960 0.471685 -0.044911 1.000000
0.286960 -0.457393 0.116213 1.000000
0.286960 0.296561 -0.396011 1.000000
0.286960 -0.122772 0.446971 1.000000
0.286960 0.246639 -0.423901 1.000000
0.286960 0.315140 -0.343160 1.000000
0.286960 -0.358685 0.294074 1.000000
0.286960 0.260281 -0.392493 1.000000
0.286960 0.153020 -0.438342 1.000000
0.286960 0.447329 0.093069 1.000000
0.286960 0.447435 -0.074072 1.000000
0.286960 0.258995 0.403311 1.000000
0.286960 -0.461960 0.101880 1.000000
0.286960 -0.063143 0.475387 1.000000
0.286960 0.315164 -0.387309 1.000000
0.286960 -0.298756 -0.368169 1.000000
0.286960 -0.488643 0.041113 1.000000
0.286960 -0.146331 0.451433 1.000000
0.286960 -0.036069 -0.456836 1.000000
0.286960 -0.403776 0.222406 1.000000
0.286960 0.240048 -0.416963 1.000000
0.286960 -0.422122 0.178759 1.000000
0.286960 0.450210 -0.141591 1.000000
0.286960 -0.452857 -0.022548 1.000000
0.286960 -0.459551 -0.002723 1.000000
0.286960 -0.352486 0.324759 1.000000
0.286960 0.463929 0.019660 1.000000
0.286960 0.467424 0.115547 1.000000
0.286960 0.157430 0.446765 1.000000
0.286960 0.257598 -0.416859 1.000000
0.286960 0.325672 0.330934 1.000000
0.286960 -0.455805 0.034840 1.000000
0.286960 -0.115435 0.449802 1.000000
0.286960 0.344513 0.283535 1.000000
0.286960 0.420859 -0.178211 1.000000
0.286960 -0.428680 -0.131377 1.000000
0.286960 0.378684 -0.261526 1.000000
0.286960 -0.140757 0.428521 1.000000
0.286960 0.451663 0.133680 1.000000
0.286960 0.326980 0.301890 1.000000
0.286960 -0.321183 -0.339397 1.000000
0.286960 -0.094305 0.459543 1.000000
0.286960 0.428912 0.189105 1.000000
0.286960 0.260393 -0.380796 1.000000
0.286960 -0.411171 0.170785 1.000000
0.286960 0.167112 -0.430702 1.000000
0.286960 -0.320053 -0.373868 1.000000
0.286960 -0.455792 0.196600 1.000000
0.286960 -0.483744 -0.037768 1.000000
0.286960 0.390963 0.256016 1.000000
0.286960 0.201193 -0.405051 1.000000
0.286960 0.436369 0.201562 1.000000
0.286960 -0.305384 0.358915 1.000000
0.286960 0.461568 0.162458 1.000000
0.286960 -0.477107 -0.018123 1.000000
0.286960 -0.168272 0.444145 1.000000
0.286960 -0.043475 -0.487502 1.000000
0.286960 0.453323 -0.108351 1.000000
0.286960 -0.422582 -0.218179 1.000000
0.286960 0.466865 0.000919 1.000000
0.286960 -0.170594 0.451025 1.000000
0.286960 -0.098454 -0.446063 1.000000
0.286960 -0.261780 0.379103 1.000000
0.286960 -0.352283 -0.353554 1.000000
0.286960 -0.212006 0.443016 1.000000
0.286960 0.183868 -0.419281 1.000000
0.286960 0.476634 0.139883 1.000000
0.286960 0.387418 -0.251104 1.000000
0.286960 0.355339 -0.277916 1.000000
0.286960 0.133599 -0.465347 1.000000
0.286960 -0.452912 -0.136697 1.000000
0.286960 -0.452774 0.135495 1.000000
0.286960 0.373449 -0.276295 1.000000
0.286960 0.487746 -0.104628 1.000000
0.286960 -0.341705 -0.356535 1.000000
0.286960 -0.251360 0.419849 1.000000
0.286960 0.021610 -0.495808 1.000000
0.286960 0.135034 0.439195 1.000000
0.286960 -0.383480 0.254666 1.000000
0.286960 -0.006126 -0.470929 1.000000
0.286960 -0.271331 -0.365102 1.000000
0.286960 0.407249 0.261312 1.000000
0.286960 0.279114 0.387975 1.000000
0.286960 0.393484 0.240096 1.000000
0.286960 0.003227 0.457011 1.000000
0.286960 -0.277346 -0.382013 1.000000
0.286960 0.209588 0.442615 1.000000
0.286960 -0.259850 -0.368746 1.000000
0.286960 0.106164 -0.439246 1.000000
0.286960 -0.205071 0.393310 1.000000
0.286960 -0.462597 -0.158454 1.000000
0.286960 0.088103 0.438393 1.000000
0.286960 0.030368 0.458687 1.000000
0.286960 -0.356048 0.278513 1.000000
0.286960 0.417458 -0.256490 1.000000
0.286960 0.417628 0.251955 1.000000
0.286960 0.095722 -0.445876 1.000000
0.286960 0.333056 -0.324728 1.000000
0.286960 0.453613 0.033125 1.000000
0.286960 0.021833 -0.455637 1.000000
0.286960 0.211526 -0.430079 1.000000
0.286960 -0.073892 -0.494342 1.000000
0.286960 -0.320161 -0.324137 1.000000
0.286960 0.066327 -0.479082 1.000000
0.286960 0.312441 -0.325654 1.000000
0.286960 0.217843 0.437496 1.000000
0.286960 -0.327296 -0.370186 1.000000
0.286960 -0.442725 -0.045143 1.000000
0.286960 0.462182 -0.086089 1.000000
0.286960 -0.269426 0.384264 1.000000
0.286960 0.442739 0.052846 1.000000
0.286960 0.009612 0.475098 1.000000
0.286960 -0.369835 -0.318835 1.000000
0.286960 -0.436427 0.109259 1.000000
0.286960 0.383359 0.292552 1.000000
0.286960 -0.365843 -0.336348 1.000000
0.286960 0.449005 -0.187002 1.000000
0.286960 0.423483 -0.193383 1.000000
0.286960 0.445055 0.103223 1.000000
0.286960 0.229576 0.387553 1.000000
0.286960 0.444715 -0.048939 1.000000
0.286960 0.000231 -0.452707 1.000000
0.286960 0.227878 0.414287 1.000000
0.286960 0.268502 -0.389700 1.000000
0.286960 0.432678 -0.210431 1.000000
0.286960 -0.444024 -0.146980 1.000000
0.286960 -0.054716 0.439995 1.000000
0.286960 0.467990 0.164154 1.000000
0.286960 -0.001174 -0.489243 1.000000
0.286960 0.366075 -0.298681 1.000000
0.286960 0.196036 0.407207 1.000000
0.286960 -0.372311 -0.260086 1.000000
0.286960 -0.443592 0.135080 1.000000
0.286960 0.196790 -0.455309 1.000000
0.286960 -0.005109 -0.481084 1.000000
0.286960 0.354779 -0.329081 1.000000
0.286960 -0.422334 0.199683 1.000000
0.286960 0.407620 0.206605 1.000000
0.286960 0.458862 0.041125 1.000000
0.286960 0.337040 0.298398 1.000000
0.286960 0.485810 0.091439 1.000000
0.286960 -0.258521 0.364495 1.000000
0.286960 -0.380006 -0.308734 1.000000
0.286960 -0.289414 0.368597 1.000000
0.286960 0.461762 0.047252 1.000000
0.286960 -0.110117 -0.470490 1.000000
0.286960 -0.486552 -0.097301 1.000000
0.286960 0.025556 0.462254 1.000000
0.286960 -0.431051 -0.149854 1.000000
0.286960 0.397620 0.274868 1.000000
0.286960 0.173116 -0.462950 1.000000
0.286960 0.015380 -0.483239 1.000000
0.286960 0.131144 0.440135 1.000000
0.286960 -0.462040 -0.031846 1.000000
0.286960 -0.469016 -0.013458 1.000000
0.286960 0.187417 -0.460962 1.000000
0.286960 0.103591 -0.452587 1.000000
0.286960 -0.436789 -0.238931 1.000000
0.286960 -0.310307 -0.345744 1.000000
0.286960 -0.030469 0.468253 1.000000
0.286960 -0.002400 -0.450841 1.000000
0.286960 -0.141307 -0.451244 1.000000
0.286960 0.228697 0.439923 1.000000
0.286960 0.419410 -0.230676 1.000000
0.286960 0.004043 -0.451411 1.000000
0.286960 -0.151531 -0.448076 1.000000
0.286960 0.442312 0.059664 1.000000
0.286960 -0.400516 -0.273604 1.000000
0.286960 -0.438926 -0.127852 1.000000
0.286960 -0.323049 -0.312831 1.000000
0.286960 -0.331553 -0.333630 1.000000
0.286960 0.227637 -0.421577 1.000000
0.286960 0.470297 -0.148073 1.000000
0.286960 -0.081461 0.454903 1.000000
0.286960 -0.467329 -0.093523 1.000000
0.286960 0.149978 -0.467376 1.000000
0.286960 -0.490590 0.034216 1.000000
0.286960 0.384001 0.246685 1.000000
0.286960 0.403618 -0.260822 1.000000
0.286960 0.414948 0.203860 1.000000
0.286960 -0.410496 -0.234607 1.000000
0.286960 -0.446976 0.215905 1.000000
0.286960 0.308122 -0.346155 1.000000
0.286960 0.214345 0.404403 1.000000
0.286960 0.130707 -0.431382 1.000000
0.286960 0.412629 -0.199549 1.000000
0.286960 -0.377310 -0.250910 1.000000
0.286960 -0.448366 -0.200205 1.000000
0.286960 -0.203700 -0.442472 1.000000
0.286960 -0.227337 0.424829 1.000000
0.286960 -0.370150 -0.283378 1.000000
0.286960 -0.454596 -0.103431 1.000000
0.286960 -0.474802 0.024111 1.000000
0.286960 0.412658 0.201048 1.000000
0.286960 0.387176 0.249425 1.000000
0.286960 0.115717 0.468684 1.000000
0.286960 0.313951 0.384008 1.000000
0.286960 -0.326633 0.315321 1.000000
0.286960 0.461347 -0.000811 1.000000
0.286960 -0.489560 0.006502 1.000000
0.286960 -0.460536 0.030632 1.000000
0.286960 0.138805 0.443399 1.000000
0.286960 0.332150 -0.356355 1.000000
0.286960 0.444976 -0.132737 1.000000
0.286960 -0.470624 0.148475 1.000000
0.286960 0.484889 0.097133 1.000000
0.286960 0.241526 -0.389846 1.000000
0.286960 -0.242543 0.423931 1.000000
0.286960 0.483491 -0.110337 1.000000
0.286960 0.297338 0.342532 1.000000
0.286960 -0.451735 0.037539 1.000000
0.286960 -0.388112 -0.285274 1.000000
0.286960 -0.449798 -0.037785 1.000000
0.286960 0.191085 0.432745 1.000000
0.286960 0.295884 -0.388371 1.000000
0.286960 0.456849 0.091567 1.000000
0.286960 -0.344559 0.292574 1.000000
0.286960 -0.461628 -0.059185 1.000000
0.286960 0.279237 0.351879 1.000000
0.286960 -0.051627 0.447030 1.000000
0.286960 -0.190872 -0.435637 1.000000
0.286960 -0.458365 0.069367 1.000000
0.286960 -0.104597 -0.482797 1.000000
0.286960 0.097611 0.440601 1.000000
0.286960 0.398225 -0.243226 1.000000
0.286960 -0.445428 -0.008260 1.000000
0.286960 0.456535 -0.057499 1.000000
0.286960 0.363996 0.321436 1.000000
0.286960 0.060268 0.440674 1.000000
0.286960 0.078443 0.470961 1.000000
0.286960 -0.428828 0.189609 1.000000
0.286960 -0.335059 -0.357328 1.000000
0.286960 0.153722 -0.435015 1.000000
0.286960 -0.044868 0.443172 1.000000
0.286960 -0.249439 0.402264 1.000000
0.286960 0.166358 0.443504 1.000000
0.286960 0.168048 0.423654 1.000000
0.286960 -0.417297 0.268918 1.000000
0.286960 -0.109836 0.457939 1.000000
0.286960 0.277658 -0.355382 1.000000
0.286960 0.162899 -0.464657 1.000000
0.286960 -0.241774 0.429674 1.000000
0.286960 -0.483502 0.025580 1.000000
0.286960 -0.347376 -0.337231 1.000000
0.286960 0.463770 -0.171862 1.000000
0.286960 -0.482908 0.022127 1.000000
0.286960 0.322916 0.316432 1.000000
0.286960 -0.365534 0.259860 1.000000
0.286960 -0.349845 0.279472 1.000000
0.286960 0.230680 -0.428521 1.000000
0.286960 0.170120 -0.419922 1.000000
0.286960 -0.377963 0.238823 1.000000
0.286960 0.386070 -0.237650 1.000000
0.286960 -0.299845 0.348266 1.000000
0.286960 0.429424 0.194786 1.000000
0.286960 -0.100271 -0.465887 1.000000
0.286960 -0.392985 -0.211061 1.000000
0.286960 -0.491556 0.044765 1.000000
0.286960 0.288060 -0.400779 1.000000
0.286960 0.001903 0.490688 1.000000
0.286960 -0.466234 -0.040509 1.000000
0.286960 -0.441908 0.175154 1.000000
0.286960 0.480999 0.088709 1.000000
0.286960 0.267772 0.363573 1.000000
0.286960 0.430166 -0.157352 1.000000
0.286960 0.360967 -0.344685 1.000000
0.286960 0.006279 0.474942 1.000000
0.286960 0.479677 0.016625 1.000000
0.286960 0.457274 -0.169293 1.000000
0.286960 0.336490 0.337245 1.000000
0.286960 -0.024991 -0.490666 1.000000
0.286960 0.395743 0.288268 1.000000
0.286960 -0.456489 0.105368 1.000000
0.286960 0.494668 -0.038410 1.000000
0.286960 0.413558 0.185526 1.000000
0.286960 0.339148 -0.325763 1.000000
0.286960 0.317353 -0.331863 1.000000
0.286960 -0.025079 0.458969 1.000000
0.286960 0.218399 0.424968 1.000000
0.286960 0.364739 -0.270916 1.000000
0.286960 -0.469740 -0.021825 1.000000
0.286960 0.256981 0.363132 1.000000
0.286960 0.151111 0.433572 1.000000
0.286960 -0.444015 -0.189026 1.000000
0.286960 -0.425678 0.189378 1.000000
0.286960 -0.438713 0.126341 1.000000
0.286960 0.170968 -0.469864 1.000000
0.286960 -0.457871 -0.023162 1.000000
0.286960 0.465228 0.150561 1.000000
0.286960 -0.270213 -0.419446 1.000000
0.286960 0.322463 -0.371188 1.000000
0.286960 -0.138255 0.426273 1.000000
0.286960 0.441199 0.156282 1.000000
0.286960 0.380183 -0.318408 1.000000
0.286960 0.323544 0.341204 1.000000
0.286960 0.064051 0.487998 1.000000
0.286960 0.301777 0.393796 1.000000
0.286960 0.363953 0.277302 1.000000
0.286960 -0.217013 -0.433365 1.000000
0.286960 -0.389903 -0.239088 1.000000
0.286960 0.366128 -0.330534 1.000000
0.286960 0.213139 -0.403467 1.000000
0.286960 -0.164680 0.411736 1.000000
0.286960 -0.026629 -0.484585 1.000000
0.286960 0.321919 0.331800 1.000000
0.286960 0.449457 0.095917 1.000000
0.286960 0.004196 0.450430 1.000000
0.286960 -0.464713 -0.150828 1.000000
0.286960 -0.002517 0.481552 1.000000
0.286960 0.394085 -0.230816 1.000000
0.286960 0.273193 0.357672 1.000000
0.286960 0.487980 -0.034791 1.000000
0.286960 0.254774 -0.423993 1.000000
0.286960 0.361564 -0.270456 1.000000
0.286960 -0.454880 -0.192304 1.000000
0.286960 -0.496815 0.012297 1.000000
0.286960 -0.427028 0.238364 1.000000
0.286960 0.394615 -0.253402 1.000000
0.286960 0.471424 0.156873 1.000000
0.286960 -0.433485 0.189552 1.000000
0.286960 0.095696 -0.455443 1.000000
0.286960 0.403258 0.281314 1.000000
0.286960 -0.153453 -0.438441 1.000000
0.286960 0.133551 0.462663 1.000000
0.286960 -0.010003 -0.489825 1.000000
0.286960 -0.373590 0.252611 1.000000
0.286960 -0.200256 -0.440987 1.000000
0.286960 -0.007696 -0.478611 1.000000
0.286960 0.438897 -0.235793 1.000000
0.286960 -0.027476 0.449302 1.000000
0.286960 -0.195776 0.429677 1.000000
0.286960 0.457867 -0.004546 1.000000
0.286960 -0.454249 -0.127568 1.000000
0.286960 -0.448729 0.088140 1.000000
0.286960 0.190374 -0.431470 1.000000
0.286960 0.353159 -0.308015 1.000000
0.286960 -0.215713 0.429893 1.000000
0.286960 0.436967 -0.110061 1.000000
0.286960 -0.458632 0.103077 1.000000
0.286960 -0.462676 -0.042566 1.000000
0.286960 0.463829 0.071716 1.000000
0.286960 0.102096 0.436770 1.000000
0.286960 -0.382298 0.279675 1.000000
0.286960 -0.427480 0.203219 1.000000
0.286960 -0.301533 0.358121 1.000000
0.286960 -0.053200 0.468859 1.000000
0.286960 -0.407023 0.237400 1.000000
0.286960 0.465678 -0.138085 1.000000
0.286960 -0.395634 -0.236282 1.000000
0.286960 0.251814 -0.387403 1.000000
0.286960 0.461006 0.145367 1.000000
0.286960 -0.291146 -0.398017 1.000000
0.286960 0.018359 -0.484610 1.000000
0.286960 0.468927 -0.032731 1.000000
0.286960 -0.206383 0.396559 1.000000
0.286960 0.466963 0.017960 1.000000
0.286960 0.027584 -0.450309 1.000000
0.286960 0.283334 0.398359 1.000000
0.286960 0.228131 0.380473 1.000000
0.286960 0.453206 -0.201455 1.000000
0.286960 0.443696 0.153700 1.000000
0.286960 -0.019441 -0.471136 1.000000
0.286960 -0.319238 0.321591 1.000000
0.286960 -0.185355 -0.453746 1.000000
0.286960 0.387763 -0.267157 1.000000
0.286960 -0.203318 -0.439385 1.000000
0.286960 -0.382004 0.237959 1.000000
0.286960 0.484660 0.069200 1.000000
0.286960 -0.261240 0.421482 1.000000
0.286960 -0.081778 0.468413 1.000000
0.286960 0.376721 0.307281 1.000000
0.286960 -0.418102 0.196201 1.000000
0.286960 0.026470 0.484357 1.000000
0.286960 0.278131 -0.380706 1.000000
0.286960 -0.257262 0.407049 1.000000
0.286960 -0.107839 -0.435271 1.000000
0.286960 0.278077 -0.408654 1.000000
0.286960 0.297694 -0.364245 1.000000
0.286960 -0.441740 -0.077028 1.000000
0.286960 -0.102158 0.474738 1.000000
0.286960 0.292902 -0.385492 1.000000
0.286960 -0.037240 -0.447918 1.000000
0.286960 0.254861 0.392115 1.000000
0.286960 -0.367599 -0.285728 1.000000
0.286960 0.270049 -0.363652 1.000000
0.286960 0.400675 -0.219431 1.000000
0.286960 0.460520 -0.106018 1.000000
0.286960 0.394641 0.256245 1.000000
0.286960 -0.295222 0.396909 1.000000
0.286960 -0.189195 -0.407070 1.000000
0.286960 -0.469389 -0.096181 1.000000
0.286960 -0.369718 0.284835 1.000000
0.286960 -0.402350 -0.233375 1.000000
0.286960 0.476220 0.015479 1.000000
0.286960 0.455761 -0.129668 1.000000
0.286960 0.048008 -0.460583 1.000000
0.286960 -0.217046 -0.418195 1.000000
0.286960 0.176259 -0.425346 1.000000
0.286960 0.278953 0.378773 1.000000
0.286960 -0.327867 0.322860 1.000000
0.286960 -0.050459 0.489838 1.000000
0.286960 -0.023922 -0.493669 1.000000
0.286960 -0.345938 -0.311725 1.000000
0.286960 0.409280 0.203608 1.000000
0.286960 -0.232908 0.398041 1.000000
0.286960 0.386319 -0.229016 1.000000
0.286960 0.205877 -0.431208 1.000000
0.286960 -0.086078 -0.439814 1.000000
0.286960 -0.286492 -0.365924 1.000000
0.286960 -0.191615 -0.432176 1.000000
0.286960 0.153544 0.459108 1.000000
0.286960 0.292695 0.382113 1.000000
0.286960 0.482119 0.047874 1.000000
0.286960 -0.138901 0.464533 1.000000
0.286960 -0.459182 0.189277 1.000000
0.286960 -0.121003 0.480489 1.000000
0.286960 -0.351387 0.348473 1.000000
0.286960 0.441636 0.079915 1.000000
0.286960 0.090039 -0.444751 1.000000
0.286960 0.052114 -0.492727 1.000000
0.286960 -0.433517 0.098811 1.000000
0.286960 0.331073 -0.345936 1.000000
0.286960 0.187387 0.458182 1.000000
0.286960 -0.219494 0.405763 1.000000
0.286960 -0.165700 -0.434893 1.000000
0.286960 -0.412401 -0.195177 1.000000
0.286960 0.290989 0.385615 1.000000
0.286960 -0.234125 0.377471 1.000000
0.286960 0.217670 0.442740 1.000000
0.286960 -0.178486 -0.411374 1.000000
0.286960 0.376490 0.236766 1.000000
0.286960 -0.300793 -0.397457 1.000000
0.286960 -0.075984 0.485501 1.000000
0.286960 0.349191 0.312431 1.000000
0.286960 -0.424550 -0.229528 1.000000
0.286960 -0.446190 -0.090107 1.000000
0.286960 0.474075 -0.155589 1.000000
0.286960 -0.228390 0.431864 1.000000
0.286960 0.195426 0.422172 1.000000
0.286960 0.380938 0.273913 1.000000
0.286960 0.416919 -0.179381 1.000000
0.286960 -0.388836 0.293457 1.000000
0.286960 -0.443477 0.181563 1.000000
0.286960 -0.032388 0.472959 1.000000
0.286960 -0.048393 0.472272 1.000000
0.286960 -0.193615 0.402424 1.000000
0.286960 0.036813 0.460571 1.000000
0.286960 -0.001614 0.447958 1.000000
0.286960 0.209072 0.392707 1.000000
0.286960 0.481828 0.062885 1.000000
0.286960 0.449150 -0.166430 1.000000
0.286960 0.378205 0.269580 1.000000
0.286960 0.425590 -0.234779 1.000000
0.286960 -0.381172 0.285599 1.000000
0.286960 0.437710 -0.170235 1.000000
0.286960 0.266309 -0.372220 1.000000
0.286960 0.355172 -0.333216 1.000000
0.286960 0.162052 -0.450718 1.000000
0.286960 0.103894 -0.468779 1.000000
0.286960 -0.424453 -0.255423 1.000000
0.286960 -0.311812 0.361800 1.000000
0.286960 -0.357807 0.264983 1.000000
0.286960 -0.266581 0.358082 1.000000
0.286960 0.381881 -0.262569 1.000000
0.286960 -0.304803 0.330890 1.000000
0.286960 0.472666 -0.073331 1.000000
0.286960 -0.066226 -0.451434 1.000000
0.286960 0.087941 -0.491351 1.000000
0.286960 -0.335622 -0.294493 1.000000
0.286960 -0.143812 0.446333 1.000000
0.286960 -0.466772 -0.079905 1.000000
0.286960 -0.059352 0.452810 1.000000
0.286960 0.488772 -0.004289 1.000000
0.286960 -0.046356 0.482139 1.000000
0.286960 0.430636 -0.133940 1.000000
0.286960 0.487415 -0.039502 1.000000
0.286960 0.445173 0.149164 1.000000
0.286960 0.288382 -0.394695 1.000000
0.286960 -0.219962 0.437493 1.000000
0.286960 0.208199 -0.435310 1.000000
0.286960 0.407436 -0.200783 1.000000
0.286960 -0.476791 -0.126487 1.000000
0.286960 0.241185 0.389639 1.000000
0.286960 -0.044935 0.465932 1.000000
0.286960 0.162539 -0.454228 1.000000
0.286960 -0.236159 0.395219 1.000000
0.286960 -0.394898 -0.263536 1.000000
0.286960 -0.387810 0.232723 1.000000
0.286960 -0.444586 0.146236 1.000000
0.286960 0.402410 -0.248071 1.000000
0.286960 -0.484136 -0.095309 1.000000
0.286960 0.285397 0.342582 1.000000
0.286960 -0.367451 0.320942 1.000000
0.286960 -0.441627 -0.159610 1.000000
0.286960 -0.402132 -0.203399 1.000000
0.286960 -0.377148 -0.285575 1.000000
0.286960 -0.471621 -0.047824 1.000000
0.286960 -0.457737 -0.165914 1.000000
0.286960 0.174217 -0.458739 1.000000
0.286960 -0.059710 -0.452609 1.000000
0.286960 0.338706 0.289649 1.000000
0.286960 -0.297723 -0.336288 1.000000
0.286960 0.424823 -0.190477 1.000000
0.286960 -0.336162 0.300272 1.000000
0.286960 0.474457 -0.101639 1.000000
0.286960 0.021856 0.450300 1.000000
0.286960 -0.253114 0.385171 1.000000
0.286960 0.253191 0.365263 1.000000
0.286960 0.454810 0.022218 1.000000
0.286960 -0.353446 0.309343 1.000000
0.286960 -0.265342 0.380025 1.000000
0.286960 -0.316552 -0.331261 1.000000
0.286960 0.033982 -0.485345 1.000000
0.286960 -0.382006 0.288565 1.000000
0.286960 -0.454106 0.107425 1.000000
0.286960 0.326377 -0.365615 1.000000
0.286960 0.229381 0.430471 1.000000
0.286960 0.126992 0.464177 1.000000
0.286960 0.275638 -0.399372 1.000000
0.286960 0.020402 0.494058 1.000000
0.286960 0.455605 -0.146260 1.000000
0.286960 -0.400495 0.192209 1.000000
0.286960 -0.356979 0.268565 1.000000
0.286960 -0.121456 0.477185 1.000000
0.286960 0.076617 -0.486241 1.000000
0.286960 -0.004186 -0.477106 1.000000
0.286960 0.427927 0.125070 1.000000
0.286960 0.295982 0.339333 1.000000
0.286960 -0.001901 0.485521 1.000000
0.286960 -0.424568 0.230612 1.000000
0.286960 -0.409381 0.265656 1.000000
0.286960 -0.396458 -0.224996 1.000000
0.286960 -0.480240 -0.130951 1.000000
0.286960 0.065233 0.456710 1.000000
0.286960 -0.407247 0.191444 1.000000
0.286960 -0.434365 -0.214838 1.000000
0.286960 0.428331 -0.238056 1.000000
0.286960 -0.202195 0.413701 1.000000
0.286960 -0.399224 0.195751 1.000000
0.286960 0.480914 0.125342 1.000000
0.286960 0.387669 -0.315280 1.000000
0.286960 -0.479951 0.088767 1.000000
0.286960 -0.231530 -0.442024 1.000000
0.286960 0.491395 0.059664 1.000000
0.286960 0.370561 0.295641 1.000000
0.286960 0.293416 -0.355076 1.000000
0.286960 -0.062972 -0.452547 1.000000
0.286960 -0.483680 0.010518 1.000000
0.286960 -0.140208 -0.478917 1.000000
0.286960 0.454254 0.203260 1.000000
0.286960 0.015298 0.454452 1.000000
0.286960 0.335499 0.342699 1.000000
0.286960 -0.002121 0.463292 1.000000
0.286960 -0.349502 0.282732 1.000000
0.286960 0.445538 0.193697 1.000000
0.286960 -0.413706 -0.276486 1.000000
0.286960 -0.279731 -0.408227 1.000000
0.286960 -0.482221 0.106454 1.000000
0.286960 -0.345287 -0.326745 1.000000
0.286960 0.073575 0.450332 1.000000
0.286960 0.362603 -0.273734 1.000000
0.286960 -0.421734 0.207246 1.000000
0.286960 0.454719 0.197403 1.000000
0.286960 0.060313 -0.488197 1.000000
0.286960 -0.341213 -0.295429 1.000000
0.286960 0.152994 0.437546 1.000000
0.286960 0.244524 -0.397236 1.000000
0.286960 0.064348 -0.470734 1.000000
0.286960 -0.335409 0.342915 1.000000
0.286960 0.462379 -0.136513 1.000000
0.286960 0.436825 -0.157873 1.000000
0.286960 -0.409494 -0.215000 1.000000
0.286960 -0.329223 -0.319749 1.000000
0.286960 0.053807 -0.489997 1.000000
0.286960 0.248148 0.429375 1.000000
0.286960 0.246717 0.410238 1.000000
0.286960 0.238856 -0.428274 1.000000
0.286960 -0.165424 -0.442009 1.000000
0.286960 -0.388655 -0.309043 1.000000
0.286960 0.331276 -0.308832 1.000000
0.286960 -0.282311 0.382944 1.000000
0.286960 -0.381061 -0.291288 1.000000
0.286960 0.069079 -0.475598 1.000000
0.286960 0.077322 0.485316 1.000000
0.286960 0.329082 -0.370893 1.000000
0.286960 -0.064632 -0.443636 1.000000
0.286960 -0.405720 0.278434 1.000000
0.286960 -0.256550 0.410266 1.000000
0.286960 -0.321066 0.344796 1.000000
0.286960 0.113274 -0.486146 1.000000
0.286960 0.443537 -0.154062 1.000000
0.286960 -0.290676 0.339801 1.000000
0.286960 0.166680 -0.425186 1.000000
0.286960 0.139707 -0.479793 1.000000
0.286960 -0.414705 0.190796 1.000000
0.286960 0.353507 0.269625 1.000000
0.286960 -0.163990 0.432815 1.000000
0.286960 -0.482294 0.102117 1.000000
0.286960 -0.024284 0.452249 1.000000
0.286960 0.300343 0.327924 1.000000
0.286960 0.159554 0.461013 1.000000
0.286960 0.167500 -0.422309 1.000000
0.286960 -0.405004 -0.239993 1.000000
0.286960 0.362379 0.309366 1.000000
0.286960 0.180763 0.454885 1.000000
0.286960 0.460561 -0.025157 1.000000
0.286960 -0.236577 -0.435080 1.000000
0.286960 -0.148655 0.428811 1.000000
0.286960 -0.370170 0.276664 1.000000
0.286960 0.134593 0.467444 1.000000
0.286960 -0.477695 -0.086072 1.000000
0.286960 -0.375873 0.300603 1.000000
0.286960 0.444014 0.093281 1.000000
0.286960 0.483731 -0.058580 1.000000
0.286960 0.481039 -0.102238 1.000000
0.286960 -0.357139 -0.267717 1.000000
0.286960 -0.029075 -0.449153 1.000000
0.286960 0.195049 -0.419220 1.000000
0.286960 0.256044 -0.411565 1.000000
0.286960 -0.243037 0.416537 1.000000
0.286960 0.171151 -0.451898 1.000000
0.286960 -0.361644 0.331191 1.000000
0.286960 0.347974 0.303480 1.000000
0.286960 -0.208634 0.418110 1.000000
0.286960 0.465609 -0.064483 1.000000
0.282153 -0.476869 -0.144112 1.000000
-0.014209 0.068927 0.491267 2.000000
-0.146578 -0.442796 -0.229062 2.000000
-0.287258 -0.494600 0.050800 4.000000
-0.281790 0.151168 0.472456 4.000000
0.072707 -0.497145 -0.022264 2.000000
-0.286113 -0.146042 0.473929 4.000000
-0.214790 0.044806 0.493874 2.000000
0.244188 0.066959 -0.495686 2.000000
-0.219759 0.227002 0.441314 2.000000
-0.129056 0.073241 -0.494777 2.000000
-0.088543 -0.270395 -0.420196 2.000000
0.273668 0.218799 0.445632 2.000000
0.246165 0.315034 -0.388419 2.000000
0.001269 0.001833 0.495866 2.000000
-0.095251 -0.278790 -0.414472 2.000000
-0.191597 0.097481 0.486393 2.000000
0.044729 0.494937 -0.061517 2.000000
0.171239 -0.474326 -0.152611 2.000000
-0.284564 -0.492724 -0.070509 4.000000
0.081644 0.337234 -0.369301 2.000000
-0.147972 -0.493725 0.058894 2.000000
0.285639 -0.228023 0.440319 1.000000
0.167959 0.495965 0.048637 2.000000
0.257278 0.319972 -0.384181 2.000000
0.248899 0.235233 0.436979 2.000000
-0.215926 -0.448700 0.213009 2.000000
-0.098183 0.492207 -0.080989 2.000000
0.040046 -0.294839 0.398750 2.000000
-0.015573 0.496042 0.047687 2.000000
0.015906 0.280388 -0.414070 2.000000
-0.095801 0.382286 0.317553 2.000000
0.258341 -0.239032 -0.438793 2.000000
-0.084694 0.231129 -0.443647 2.000000
-0.247339 -0.037009 -0.498933 2.000000
-0.113169 0.450546 0.211062 2.000000
-0.184013 0.459689 0.190438 2.000000
-0.042884 0.490541 0.087174 2.000000
-0.237984 0.351278 0.351349 2.000000
0.119824 -0.456186 0.196327 2.000000
0.249941 0.195640 0.456036 2.000000
0.276297 0.471630 0.159042 2.000000
0.033822 -0.333284 0.367526 2.000000
0.026711 0.467864 -0.174036 2.000000
-0.114175 0.464184 0.179655 2.000000
0.228008 -0.461736 0.183282 2.000000
-0.289377 -0.497060 -0.026832 4.000000
-0.285783 -0.065943 0.491331 4.000000
0.107808 -0.228888 -0.444134 2.000000
0.051186 0.423103 0.261495 2.000000
0.235183 -0.206466 -0.455072 2.000000
-0.232093 0.273600 -0.418551 2.000000
-0.083425 0.498335 -0.015904 2.000000
-0.056505 0.106847 0.484359 2.000000
0.212119 -0.188437 0.458528 2.000000
0.236499 -0.215504 0.446488 2.000000
-0.015139 0.408784 0.283185 2.000000
-0.237326 -0.178716 0.462581 2.000000
0.028083 0.259163 0.423314 2.000000
0.060580 0.447530 -0.221966 2.000000
0.219072 -0.435892 -0.242121 2.000000
0.174606 0.373063 0.328301 2.000000
0.245925 0.403353 -0.294998 2.000000
0.142926 0.307098 0.390216 2.000000
-0.226096 0.223736 -0.447290 2.000000
0.048422 -0.489907 -0.089664 2.000000
0.207794 -0.477400 0.137731 2.000000
0.284000 0.102520 0.485387 1.000000
-0.136981 -0.401230 -0.296447 2.000000
0.031867 0.443204 -0.230183 2.000000
0.175161 -0.470256 -0.164408 2.000000
0.214750 0.046976 0.493639 2.000000
0.127578 -0.497452 0.008392 2.000000
-0.046964 0.497790 -0.028073 2.000000
-0.131609 0.019328 0.495418 2.000000
-0.222065 0.384436 -0.319383 2.000000
-0.094355 -0.153084 0.471571 2.000000
0.067866 -0.012820 0.495602 2.000000
0.280056 -0.321775 -0.382049 1.000000
-0.116603 0.388078 -0.314816 2.000000
-0.236986 -0.041640 0.493978 2.000000
-0.180036 -0.456104 -0.200932 2.000000
0.203249 0.432902 -0.249512 2.000000
-0.259553 0.489804 0.090693 2.000000
0.064113 0.088061 -0.492583 2.000000
0.081179 0.471614 0.159092 2.000000
-0.149785 -0.327310 0.372653 2.000000
-0.168165 -0.363818 -0.341769 2.000000
-0.194656 -0.353235 -0.352639 2.000000
0.040305 -0.304755 -0.395620 2.000000
0.148833 -0.355260 0.346402 2.000000
-0.144413 0.387682 0.311264 2.000000
0.028930 0.417695 -0.274456 2.000000
0.176498 -0.240186 0.433796 2.000000
-0.228614 0.210712 0.449273 2.000000
-0.219849 -0.330006 0.370339 2.000000
-0.144427 -0.237500 -0.439600 2.000000
0.129264 -0.410515 -0.283364 2.000000
0.122360 0.491025 0.084867 2.000000
0.114968 0.405182 -0.292383 2.000000
-0.289406 -0.399476 -0.298772 4.000000
-0.000249 -0.483733 0.113797 2.000000
-0.197390 -0.241435 -0.437528 2.000000
0.183162 0.377886 0.322680 2.000000
0.114494 0.447800 -0.221454 2.000000
0.228848 0.383288 -0.320823 2.000000
0.144462 0.241688 -0.437875 2.000000
0.163564 -0.053472 0.493019 2.000000
-0.187561 0.454301 0.203361 2.000000
-0.029278 -0.000826 0.495818 2.000000
0.007926 0.479021 -0.140130 2.000000
-0.259376 -0.406000 -0.290124 2.000000
-0.165213 0.321685 -0.382712 2.000000
-0.137471 -0.368461 -0.336824 2.000000
-0.007786 0.340481 -0.366140 2.000000
0.169696 0.267161 0.418439 2.000000
0.221467 -0.403595 0.288833 2.000000
-0.286833 -0.306550 0.389914 4.000000
0.225094 -0.307447 -0.393474 2.000000
-0.223964 -0.365246 0.335739 2.000000
-0.063929 0.404645 0.288925 2.000000
0.050290 -0.485976 0.104356 2.000000
0.071229 0.391766 0.305996 2.000000
0.119929 -0.449364 0.211528 2.000000
-0.076842 -0.472875 0.152560 2.000000
-0.037600 0.457784 0.195008 2.000000
-0.215821 -0.470308 0.160437 2.000000
-0.106947 0.392211 -0.309632 2.000000
-0.231771 0.025758 0.495130 2.000000
0.160647 0.422933 -0.265863 2.000000
0.068352 0.426560 -0.259914 2.000000
0.080913 0.154103 0.471561 2.000000
-0.288264 0.496864 -0.043686 4.000000
-0.060717 -0.435873 0.237807 2.000000
-0.030954 -0.391442 0.304958 2.000000
-0.059249 0.299306 -0.400506 2.000000
0.261515 0.385844 -0.317617 2.000000
-0.240512 0.475113 0.148947 2.000000
0.197109 -0.300618 -0.398919 2.000000
-0.002857 -0.022170 -0.499598 2.000000
0.050890 -0.494185 0.054639 2.000000
-0.263626 0.152194 -0.476585 2.000000
0.203598 -0.224175 0.442215 2.000000
-0.049913 -0.204584 0.451796 2.000000
-0.062171 0.366694 -0.339626 2.000000
-0.052457 0.463026 0.182434 2.000000
0.007838 0.027269 0.495062 2.000000
0.048437 0.490152 0.089033 2.000000
0.122480 0.437697 -0.240643 2.000000
-0.134185 -0.177409 0.463126 2.000000
0.271363 -0.491861 0.072698 2.000000
0.212501 0.468572 0.167908 2.000000
-0.271614 0.498396 -0.014561 2.000000
0.192963 0.366494 -0.339846 2.000000
-0.055653 0.498187 -0.019215 2.000000
-0.261210 0.305610 -0.395751 2.000000
0.180071 0.274395 0.413909 2.000000
-0.132274 -0.352566 0.349024 2.000000
-0.140316 -0.225857 -0.445730 2.000000
0.135494 -0.330666 -0.374038 2.000000
0.205999 -0.365593 -0.339945 2.000000
0.223949 0.327373 -0.377831 2.000000
-0.110756 -0.416174 0.270847 2.000000
0.170967 -0.381932 0.316885 2.000000
0.152495 0.142746 0.475026 2.000000
-0.248088 -0.209201 -0.453845 2.000000
-0.103791 0.193688 0.456912 2.000000
0.002712 -0.445010 0.220452 2.000000
-0.045024 -0.010890 -0.500104 2.000000
0.235801 -0.264337 -0.423889 2.000000
-0.168446 -0.492435 0.069362 2.000000
-0.128203 0.463629 0.180987 2.000000
-0.214962 0.101248 -0.489821 2.000000
0.019427 0.461390 0.186358 2.000000
-0.176420 0.035683 0.494685 2.000000
0.286798 0.251324 0.428094 1.000000
0.029062 -0.267608 -0.421894 2.000000
-0.232597 0.156779 -0.475003 2.000000
-0.040299 0.001180 -0.500184 2.000000
-0.089722 -0.485483 -0.110780 2.000000
0.115536 -0.326149 -0.378129 2.000000
0.166462 -0.495223 0.045035 2.000000
-0.175481 0.168647 0.466573 2.000000
-0.068809 0.468401 -0.172605 2.000000
0.115505 -0.214393 0.447035 2.000000
-0.149389 -0.260633 -0.426147 2.000000
-0.122849 -0.105969 0.484263 2.000000
0.067811 -0.490665 0.079644 2.000000
-0.164071 0.405721 -0.291613 2.000000
0.024094 0.375971 0.324912 2.000000
-0.043394 -0.496269 0.034767 2.000000
0.211210 -0.469458 -0.166723 2.000000
0.136644 -0.449486 -0.215487 2.000000
-0.178075 -0.002951 0.495780 2.000000
-0.181684 0.224258 -0.447033 2.000000
-0.149059 0.040958 0.494290 2.000000
-0.234625 0.384997 0.314393 2.000000
-0.153354 0.419746 -0.271092 2.000000
0.263428 -0.370911 0.329485 2.000000
-0.289233 -0.390393 -0.310812 4.000000
0.236827 0.184805 -0.464823 2.000000
0.163086 0.497818 -0.027438 2.000000
-0.277933 0.432695 0.245130 2.000000
0.187433 0.132110 0.478271 2.000000
-0.116272 -0.394335 -0.305586 2.000000
0.257108 0.487724 -0.105665 2.000000
-0.057959 -0.388000 -0.313983 2.000000
-0.222783 0.498593 -0.005610 2.000000
-0.256132 -0.336250 0.364909 2.000000
0.067290 -0.489461 -0.091795 2.000000
-0.135372 -0.496315 0.033757 2.000000
0.148596 -0.363895 0.337231 2.000000
-0.125346 -0.429250 0.249468 2.000000
0.184312 0.292286 -0.405802 2.000000
-0.195145 -0.329830 -0.374795 2.000000
0.032346 0.486581 -0.110475 2.000000
0.235879 0.128632 -0.483371 2.000000
-0.144365 -0.337063 0.364117 2.000000
0.001625 0.448068 0.216090 2.000000
0.072005 -0.429076 0.249753 2.000000
-0.207247 -0.108579 -0.488057 2.000000
-0.073992 0.182637 -0.465727 2.000000
0.033804 -0.494681 -0.056195 2.000000
0.226683 0.338674 0.363360 2.000000
0.112544 0.440473 -0.235370 2.000000
0.029579 -0.479171 -0.135771 2.000000
-0.188735 0.334393 -0.371807 2.000000
-0.110899 0.486405 -0.111216 2.000000
-0.050512 0.456811 0.197341 2.000000
0.143391 0.166716 -0.471575 2.000000
0.216691 -0.380895 -0.322332 2.000000
0.059266 0.188149 -0.463429 2.000000
0.015278 0.204717 -0.456521 2.000000
-0.265281 0.033896 -0.499042 2.000000
0.000823 0.078586 -0.494004 2.000000
-0.029437 -0.472523 0.153715 2.000000
0.162306 -0.179102 -0.466618 2.000000
-0.043930 0.256337 0.425037 2.000000
-0.146418 0.494969 0.057720 2.000000
0.240638 0.188376 0.459169 2.000000
-0.025999 0.484425 0.116098 2.000000
0.158422 0.200514 -0.458273 2.000000
0.104612 -0.260488 0.422153 2.000000
-0.059602 0.437169 0.237329 2.000000
0.101253 0.441080 0.230273 2.000000
-0.026517 -0.011315 0.495629 2.000000
0.231960 0.434138 0.242614 2.000000
-0.094832 -0.423352 0.259142 2.000000
-0.036726 0.185773 0.460146 2.000000
0.153247 -0.131864 -0.482387 2.000000
0.231781 0.416417 -0.276318 2.000000
0.168665 -0.003918 0.495762 2.000000
-0.249187 0.453820 -0.208235 2.000000
0.146982 -0.023907 -0.499520 2.000000
-0.067203 -0.030958 -0.499204 2.000000
0.236688 -0.064880 -0.495947 2.000000
0.085993 -0.483923 0.112995 2.000000
-0.208677 0.189328 -0.462937 2.000000
0.063066 -0.247011 -0.434451 2.000000
-0.166627 -0.179286 -0.466549 2.000000
-0.018041 0.489646 -0.095870 2.000000
-0.008893 0.496768 0.038724 2.000000
0.039190 -0.400846 -0.296956 2.000000
0.259777 -0.173671 0.464469 2.000000
0.039291 0.437430 0.236873 2.000000
0.026644 -0.493943 0.056881 2.000000
-0.026678 -0.466525 -0.175227 2.000000
-0.065808 -0.474102 0.148538 2.000000
0.225497 -0.190524 0.457658 2.000000
-0.086054 0.496468 0.042434 2.000000
-0.266351 -0.477443 -0.142032 2.000000
0.224735 0.489195 -0.098488 2.000000
0.176865 -0.493532 -0.064924 2.000000
0.254880 -0.123855 0.480054 2.000000
-0.137357 -0.240291 0.433735 2.000000
0.233959 -0.486941 0.100297 2.000000
-0.131734 -0.023916 0.495402 2.000000
0.137235 0.497405 -0.036651 2.000000
0.266204 -0.159601 -0.473924 2.000000
-0.146912 0.497345 0.031602 2.000000
-0.137144 0.009261 0.495870 2.000000
-0.285959 0.495795 0.050740 4.000000
0.057932 0.492094 -0.081649 2.000000
-0.152155 0.173673 0.464687 2.000000
0.246217 -0.149403 -0.477036 2.000000
0.210882 0.495699 -0.054462 2.000000
0.098690 -0.328078 0.371994 2.000000
-0.122360 0.372593 0.328849 2.000000
0.161523 0.019542 0.495408 2.000000
-0.115879 -0.259263 0.422856 2.000000
-0.034246 -0.307528 0.389177 2.000000
0.173707 0.271778 -0.419754 2.000000
0.109326 0.485667 0.110442 2.000000
-0.211734 -0.497337 -0.011607 2.000000
0.047433 0.497994 -0.023525 2.000000
-0.103519 -0.126640 -0.483765 2.000000
-0.266925 0.142339 -0.479588 2.000000
-0.095494 -0.494501 0.051718 2.000000
-0.144619 0.483539 -0.123279 2.000000
-0.272839 -0.497110 0.016034 2.000000
0.259740 -0.183971 0.460390 2.000000
-0.259533 -0.235188 0.436662 2.000000
0.233695 -0.381914 0.316908 2.000000
-0.148902 0.468133 0.169182 2.000000
0.083227 -0.487662 0.097084 2.000000
0.216790 -0.424935 -0.261229 2.000000
-0.197395 0.278546 0.411006 2.000000
0.191591 0.243304 -0.436949 2.000000
0.030347 -0.297379 -0.401472 2.000000
-0.134704 -0.488070 0.094714 2.000000
0.082876 -0.450955 0.207984 2.000000
0.052862 0.001319 -0.500181 2.000000
0.264399 0.424890 -0.262654 2.000000
-0.277794 -0.213102 0.447672 2.000000
-0.078187 0.199243 0.454420 2.000000
0.010754 0.486821 0.104934 2.000000
-0.083706 -0.476079 -0.146973 2.000000
-0.092386 0.282657 0.408131 2.000000
-0.005894 0.235591 -0.441372 2.000000
-0.155716 -0.476209 0.141635 2.000000
0.155755 0.018336 -0.499874 2.000000
-0.076270 -0.294863 0.398732 2.000000
-0.016133 0.220638 0.444664 2.000000
-0.244297 0.180957 0.461954 2.000000
0.281597 -0.186570 -0.463816 1.000000
0.225393 0.035318 -0.498926 2.000000
