-0.154420 -0.284095 0.406593 2.000000
0.094394 -0.493874 0.057512 2.000000
-0.003557 0.194753 -0.460675 2.000000
-0.018840 -0.073889 -0.494631 2.000000
-0.108686 0.365226 -0.341246 2.000000
-0.286544 0.160181 0.469706 4.000000
-0.147357 0.481635 -0.131291 2.000000
-0.110334 0.024190 -0.499769 2.000000
-0.031287 -0.374331 0.325709 2.000000
-0.162025 -0.313181 0.384776 2.000000
0.146950 0.230548 0.439446 2.000000
-0.264765 0.430390 -0.253632 2.000000
-0.111414 -0.489784 -0.090250 2.000000
0.184725 0.288914 0.403755 2.000000
0.046594 0.439665 -0.236905 2.000000
0.017639 -0.204918 -0.455766 2.000000
0.128055 -0.292997 0.400139 2.000000
-0.028194 0.326338 0.374532 2.000000
-0.041075 -0.488597 0.091653 2.000000
-0.036024 0.420332 -0.270130 2.000000
0.196870 -0.298928 -0.400267 2.000000
0.232169 0.145545 0.474172 2.000000
-0.203679 0.375832 0.325075 2.000000
-0.066323 -0.455121 -0.203291 2.000000
-0.036501 0.448439 -0.220228 2.000000
0.195330 0.345783 0.356920 2.000000
-0.118186 0.432594 0.245307 2.000000
-0.177248 0.491932 -0.082588 2.000000
-0.177626 -0.237827 0.435148 2.000000
0.147853 0.297800 0.397540 2.000000
-0.015489 0.152479 -0.476486 2.000000
-0.079205 -0.189834 0.457945 2.000000
0.201210 -0.492442 -0.072458 2.000000
0.036987 -0.290958 0.401678 2.000000
0.144199 0.471062 -0.165512 2.000000
0.237742 0.033763 0.494771 2.000000
0.213945 -0.040193 0.494095 2.000000
-0.061577 -0.068089 0.491021 2.000000
0.068893 0.002946 -0.500152 2.000000
0.229736 0.448789 0.214627 2.000000
-0.024691 0.448836 -0.219341 2.000000
-0.281748 -0.452112 -0.210156 4.000000
0.132953 -0.477927 -0.140277 2.000000
0.071104 -0.145439 -0.478245 2.000000
-0.028768 -0.384231 0.314001 2.000000
0.257258 0.438690 0.234676 2.000000
-0.081057 0.152404 0.472079 2.000000
0.036294 0.335451 -0.370900 2.000000
-0.015263 0.493417 0.068451 2.000000
0.005602 0.413266 -0.280824 2.000000
0.090900 -0.045387 -0.498054 2.000000
-0.251208 0.319702 0.380165 2.000000
0.101403 0.408981 0.282887 2.000000
-0.227986 0.493066 -0.076003 2.000000
0.209129 0.125622 0.479897 2.000000
-0.111297 0.494663 -0.064054 2.000000
-0.054988 -0.445140 -0.224307 2.000000
0.069330 -0.198949 -0.458445 2.000000
0.040994 0.333345 0.368186 2.000000
-0.154766 0.473022 -0.159790 2.000000
-0.215184 -0.462104 -0.186540 2.000000
0.063468 -0.006783 0.495711 2.000000
-0.097793 -0.294380 -0.403569 2.000000
0.141716 -0.497341 -0.011358 2.000000
-0.004759 -0.423838 -0.263141 2.000000
0.272220 -0.116319 -0.486218 2.000000
0.011701 0.364623 -0.341912 2.000000
-0.132368 0.173978 0.464572 2.000000
-0.006260 0.497361 0.031409 2.000000
-0.008423 0.161532 0.469242 2.000000
0.157044 0.246813 0.430844 2.000000
-0.050542 -0.248231 0.429182 2.000000
-0.122892 0.108624 0.483937 2.000000
-0.158164 -0.191495 -0.461790 2.000000
-0.237369 0.031165 -0.499263 2.000000
0.062100 0.382952 -0.321244 2.000000
-0.149706 -0.090815 -0.491717 2.000000
0.213531 -0.341486 -0.364238 2.000000
-0.203267 0.110925 0.483390 2.000000
-0.287666 0.473978 -0.156656 4.000000
-0.233745 0.017276 -0.499894 2.000000
0.188607 0.109710 0.483679 2.000000
-0.214590 0.498418 0.004083 2.000000
0.092731 -0.478369 0.134555 2.000000
-0.290192 0.421247 -0.268630 4.000000
0.134417 0.403976 0.289812 2.000000
-0.198303 -0.363307 -0.342293 2.000000
-0.143117 0.010120 0.495831 2.000000
0.028469 -0.073718 0.490206 2.000000
0.114555 -0.047330 -0.497844 2.000000
0.256207 0.417732 0.269630 2.000000
0.168893 0.142381 -0.479576 2.000000
-0.098155 0.443052 -0.230471 2.000000
0.191324 0.044157 0.493944 2.000000
0.154702 0.168477 -0.470968 2.000000
-0.256712 -0.318888 0.379879 2.000000
0.046349 -0.262013 0.421171 2.000000
0.274576 -0.495091 -0.051132 2.000000
0.014776 0.498229 0.014613 2.000000
0.256075 -0.107029 0.484041 2.000000
-0.210052 -0.214886 -0.451293 2.000000
-0.042064 0.498151 0.018908 2.000000
-0.245872 0.374847 0.326222 2.000000
-0.038536 -0.495740 0.040250 2.000000
0.036765 -0.438031 -0.238392 2.000000
-0.222915 0.329397 0.371761 2.000000
0.000547 0.099189 0.486099 2.000000
0.080407 0.493365 0.068808 2.000000
0.005005 0.203679 -0.456954 2.000000
0.274529 -0.321409 0.377716 2.000000
0.232678 -0.493961 0.056713 2.000000
-0.040027 0.320485 -0.383741 2.000000
0.097522 -0.316017 -0.386640 2.000000
-0.059478 0.268123 0.417852 2.000000
-0.054101 0.080475 0.489320 2.000000
0.087560 -0.090197 -0.491824 2.000000
-0.272785 -0.102341 0.485024 2.000000
0.284117 0.316240 0.382926 1.000000
-0.217975 0.101522 0.485624 2.000000
-0.277537 0.485148 -0.116506 2.000000
-0.250756 -0.234922 0.436814 2.000000
-0.119066 0.239872 0.434537 2.000000
0.134956 -0.494405 -0.058889 2.000000
-0.200880 0.498612 -0.006652 2.000000
-0.077049 -0.313106 0.384840 2.000000
0.230900 -0.351142 -0.354790 2.000000
0.042018 -0.281600 0.408240 2.000000
0.056392 -0.483938 -0.118156 2.000000
0.217798 0.497832 0.025595 2.000000
0.253578 0.207526 0.450702 2.000000
-0.095113 -0.475531 -0.148957 2.000000
-0.108698 -0.448042 0.214475 2.000000
-0.245207 0.175691 0.463929 2.000000
-0.136762 -0.003427 0.495771 2.000000
0.088564 0.494983 0.057621 2.000000
0.099014 0.498367 0.006939 2.000000
0.286253 -0.414519 -0.277299 1.000000
0.260522 -0.403244 0.289335 2.000000
0.119873 0.497915 -0.025270 2.000000
-0.008461 -0.484289 -0.116483 2.000000
-0.262849 -0.490369 -0.086783 2.000000
0.134227 0.446617 0.219034 2.000000
-0.021832 -0.458054 0.192163 2.000000
0.036126 0.103045 -0.489444 2.000000
-0.162827 0.107740 -0.488461 2.000000
-0.133094 0.219782 0.445115 2.000000
-0.174366 0.019416 0.495414 2.000000
-0.222816 0.366459 0.335756 2.000000
-0.290086 -0.395619 -0.303884 4.000000
-0.235472 -0.001735 0.495802 2.000000
-0.060419 -0.481758 -0.126400 2.000000
-0.003387 -0.236024 -0.440377 2.000000
-0.258847 -0.022637 -0.499577 2.000000
0.052750 0.443653 -0.229330 2.000000
0.062907 -0.422806 -0.264746 2.000000
0.136018 0.204311 0.452145 2.000000
-0.074395 -0.335416 0.365697 2.000000
-0.023786 -0.136764 0.476490 2.000000
0.231869 -0.470112 0.160960 2.000000
0.127199 0.441379 -0.233649 2.000000
-0.243223 -0.496545 0.028616 2.000000
0.075900 0.051673 0.493132 2.000000
-0.025782 -0.321938 0.377262 2.000000
0.218575 0.417956 0.269292 2.000000
-0.183564 0.444470 0.223392 2.000000
-0.157470 -0.079638 0.489350 2.000000
-0.048342 0.164702 0.468053 2.000000
-0.130569 -0.022102 -0.499601 2.000000
0.181791 0.493008 -0.076341 2.000000
0.201621 -0.335031 -0.370085 2.000000
0.286343 0.456936 -0.201292 1.000000
0.101261 -0.443706 -0.227216 2.000000
-0.199978 -0.492216 -0.074020 2.000000
-0.183486 -0.129681 -0.483043 2.000000
-0.246073 0.119539 -0.485881 2.000000
0.120982 0.230323 -0.444044 2.000000
0.165364 0.417578 0.269864 2.000000
-0.111809 -0.322367 0.376894 2.000000
-0.195263 -0.486471 -0.106067 2.000000
0.255604 0.330479 -0.375166 2.000000
-0.076932 0.472978 -0.159935 2.000000
-0.113735 0.379789 0.320463 2.000000
-0.163128 0.360994 -0.345919 2.000000
0.018504 -0.337895 -0.367491 2.000000
-0.220074 -0.365856 0.335066 2.000000
-0.181938 -0.015960 -0.499877 2.000000
-0.234783 -0.038849 -0.498760 2.000000
-0.145009 0.184138 0.460760 2.000000
-0.104813 0.260584 -0.427039 2.000000
0.084834 -0.105638 -0.488756 2.000000
-0.121330 0.067513 -0.495606 2.000000
-0.051662 0.474321 -0.155532 2.000000
0.065698 -0.020023 -0.499694 2.000000
0.048118 -0.164897 0.467496 2.000000
0.178116 0.129794 0.423887 3.000000
-0.164295 -0.198637 0.396028 3.000000
0.051023 0.096305 -0.436967 3.000000
0.090358 0.095888 0.432706 3.000000
0.183287 -0.346636 0.276682 3.000000
0.103399 0.421568 0.142632 3.000000
-0.281297 -0.422667 0.136732 3.000000
-0.169047 0.433298 0.102585 3.000000
0.079639 0.442121 0.055634 3.000000
0.102357 0.090427 0.433927 3.000000
0.000187 -0.219377 -0.389380 3.000000
0.273898 -0.263771 0.356277 3.000000
0.286623 -0.055089 0.439767 1.000000
0.251493 0.445175 -0.026743 3.000000
0.130607 -0.427260 -0.125579 3.000000
0.101162 -0.155213 0.414948 3.000000
0.275506 -0.394210 0.203808 3.000000
0.097307 0.442896 0.048776 3.000000
0.062148 -0.383593 0.222951 3.000000
0.083042 -0.265802 0.354702 3.000000
0.286788 -0.382616 0.224603 1.000000
0.087100 -0.013593 0.442815 3.000000
0.135524 0.062482 -0.443127 3.000000
0.244859 0.167386 0.410724 3.000000
-0.258859 0.053386 -0.444379 3.000000
-0.201512 0.443511 -0.046619 3.000000
-0.150080 -0.443939 -0.031254 3.000000
0.276858 0.445424 0.014473 3.000000
-0.210425 0.444309 0.033824 3.000000
-0.132595 -0.332325 0.293523 3.000000
0.097370 0.368696 -0.252491 3.000000
-0.128154 -0.435043 -0.094543 3.000000
-0.137429 0.281120 -0.347968 3.000000
-0.169149 -0.401754 0.189001 3.000000
0.194706 -0.189932 0.400464 3.000000
0.223813 -0.390675 0.210747 3.000000
0.148426 -0.286813 -0.342397 3.000000
-0.059021 0.405126 -0.188202 3.000000
-0.152488 0.027953 0.442396 3.000000
-0.222752 0.407626 0.178071 3.000000
0.172097 0.437461 0.083957 3.000000
0.212245 -0.348967 0.273676 3.000000
-0.185865 0.280639 -0.348341 3.000000
0.133024 0.433478 -0.106132 3.000000
0.032889 0.339508 -0.290892 3.000000
-0.218463 -0.205176 -0.397050 3.000000
-0.274852 0.031278 0.442115 3.000000
-0.180674 -0.443361 -0.037366 3.000000
-0.175081 0.185156 0.403035 3.000000
0.247873 -0.203476 0.393563 3.000000
-0.017480 -0.019155 0.442640 3.000000
0.041996 -0.443823 0.028129 3.000000
0.104400 -0.075355 0.436572 3.000000
-0.120158 0.351162 0.272168 3.000000
-0.098218 -0.158522 0.413757 3.000000
-0.099776 0.236303 -0.379977 3.000000
0.046563 -0.370750 -0.247961 3.000000
0.041579 0.445165 -0.027077 3.000000
-0.220935 0.427929 -0.126804 3.000000
-0.227213 0.136744 0.421868 3.000000
0.121899 0.339971 -0.290367 3.000000
-0.211430 0.251683 0.365425 3.000000
0.084465 -0.369714 0.245132 3.000000
0.052815 0.445192 -0.026202 3.000000
0.218166 -0.099236 0.431729 3.000000
0.092165 -0.236261 0.375042 3.000000
0.223097 0.028341 -0.446737 3.000000
0.210653 0.128581 0.424240 3.000000
0.048328 0.149845 0.417250 3.000000
-0.051660 0.107962 -0.434361 3.000000
-0.211450 -0.186897 -0.406191 3.000000
-0.181883 0.430286 -0.118692 3.000000
0.002987 0.018654 -0.447042 3.000000
0.065754 0.298765 0.328410 3.000000
0.258005 -0.414954 -0.162508 3.000000
-0.070920 0.394477 -0.209648 3.000000
0.191471 -0.444850 -0.004477 3.000000
-0.132472 0.353694 -0.273257 3.000000
-0.181813 0.238757 -0.378525 3.000000
-0.043393 -0.370908 0.243375 3.000000
0.094737 0.382981 0.225720 3.000000
-0.053698 0.238520 0.374312 3.000000
-0.045451 0.435683 0.091911 3.000000
-0.047072 0.333747 -0.297426 3.000000
0.050791 0.114383 0.428365 3.000000
-0.129476 0.445255 -0.024212 3.000000
-0.033584 0.193785 0.399023 3.000000
0.166381 0.383389 0.225029 3.000000
0.234584 0.305862 0.322104 3.000000
-0.235385 -0.011369 -0.447238 3.000000
0.219133 0.397613 -0.203494 3.000000
0.212429 0.445657 0.007076 3.000000
0.171698 0.208806 0.391369 3.000000
-0.272017 0.256419 0.362207 3.000000
-0.224009 0.272845 0.350034 3.000000
0.120033 0.059272 -0.443635 3.000000
0.057350 -0.064131 -0.442703 3.000000
-0.159267 -0.060979 -0.443202 3.000000
-0.010866 0.220909 0.384727 3.000000
-0.034046 0.206215 0.392690 3.000000
-0.088745 0.423778 0.136493 3.000000
-0.213253 -0.442085 0.046514 3.000000
-0.249556 -0.396805 0.198714 3.000000
-0.179822 0.368196 -0.253227 3.000000
-0.241790 0.163325 0.412397 3.000000
0.054427 -0.214391 -0.392329 3.000000
-0.186575 -0.286371 -0.342788 3.000000
-0.053321 0.423562 -0.141446 3.000000
-0.197253 -0.320104 0.306837 3.000000
0.169610 -0.444846 0.000248 3.000000
0.071536 0.439076 0.074860 3.000000
-0.018927 0.444009 -0.041358 3.000000
0.265284 0.161349 -0.417462 3.000000
-0.042791 -0.188353 -0.405561 3.000000
-0.059563 0.256417 0.362208 3.000000
0.013678 0.054182 -0.444303 3.000000
0.196315 0.200910 -0.399746 3.000000
0.112849 0.364836 -0.258171 3.000000
-0.010987 0.425808 0.129750 3.000000
-0.115715 0.309566 0.318399 3.000000
-0.063816 -0.166546 -0.414998 3.000000
0.094463 -0.224837 -0.386151 3.000000
0.206119 -0.136022 0.421781 3.000000
-0.078899 0.126025 0.424983 3.000000
-0.015053 -0.385072 -0.224805 3.000000
-0.163029 -0.228179 -0.384175 3.000000
-0.212107 -0.255151 0.362372 3.000000
-0.076198 0.211060 0.390221 3.000000
0.265937 -0.175115 -0.411289 3.000000
0.257934 -0.045775 -0.445001 3.000000
0.194574 -0.056506 0.439557 3.000000
-0.244455 -0.441033 -0.060387 3.000000
0.208724 -0.098575 -0.436230 3.000000
0.090257 0.430973 0.111972 3.000000
-0.003969 0.236412 0.375558 3.000000
0.082793 -0.387913 0.215647 3.000000
0.261384 0.289996 -0.340495 3.000000
-0.164833 0.026904 -0.446782 3.000000
-0.039772 0.172189 0.408646 3.000000
0.199850 0.439536 0.071958 3.000000
0.037778 0.210780 0.390363 3.000000
0.092313 0.030915 -0.446503 3.000000
0.257367 -0.014585 0.442784 3.000000
0.151992 -0.439167 -0.072170 3.000000
-0.041009 0.444337 -0.037882 3.000000
0.070524 0.202756 0.394452 3.000000
0.011108 -0.196395 0.397171 3.000000
-0.255488 -0.392357 0.207445 3.000000
-0.068527 -0.371674 -0.246602 3.000000
-0.124218 0.209058 -0.395594 3.000000
0.133932 0.178174 -0.410409 3.000000
0.088066 -0.130152 0.423486 3.000000
0.151097 0.311104 0.316861 3.000000
-0.236346 0.430212 0.114593 3.000000
0.158552 0.253602 0.364121 3.000000
-0.081857 0.010756 -0.447290 3.000000
-0.045059 -0.361025 -0.262271 3.000000
0.146740 -0.030921 0.442052 3.000000
-0.064243 0.422298 0.140605 3.000000
-0.254597 -0.106959 0.430003 3.000000
0.272082 -0.439941 -0.067281 3.000000
0.271240 0.048200 -0.444869 3.000000
-0.155909 -0.193495 -0.403002 3.000000
0.001522 -0.377250 -0.238031 3.000000
-0.172987 -0.353165 0.268264 3.000000
-0.029206 0.053273 0.440036 3.000000
0.230196 0.341547 0.284226 3.000000
0.005010 -0.414236 -0.164505 3.000000
-0.272043 -0.426062 0.125351 3.000000
-0.084095 -0.402821 0.186806 3.000000
-0.025526 0.418851 -0.154531 3.000000
-0.159826 0.377584 0.234846 3.000000
0.275170 -0.438320 -0.077518 3.000000
0.212760 -0.442099 0.046368 3.000000
0.271651 -0.402064 -0.192746 3.000000
-0.116118 0.011502 0.442913 3.000000
0.246809 0.144424 0.419202 3.000000
-0.134172 -0.037491 -0.445784 3.000000
-0.003439 -0.258274 -0.364603 3.000000
0.241268 0.322078 -0.310241 3.000000
0.093289 0.309582 0.318384 3.000000
-0.250451 0.078062 0.436306 3.000000
-0.232317 -0.228401 0.379690 3.000000
0.001731 0.426080 0.128814 3.000000
-0.259635 -0.427416 0.120689 3.000000
0.284896 -0.376289 0.235302 1.000000
0.152785 -0.412656 -0.168432 3.000000
-0.002300 0.176805 0.406648 3.000000
0.244534 0.006397 0.443073 3.000000
-0.087177 0.409361 0.174062 3.000000
0.174322 -0.439700 0.064452 3.000000
0.030537 0.051519 0.440202 3.000000
0.232598 0.396163 0.201987 3.000000
0.280134 -0.399513 0.193400 3.000000
-0.042265 -0.084416 0.435042 3.000000
0.054167 0.167209 -0.415154 3.000000
0.047999 0.420099 0.146713 3.000000
0.197569 0.394303 -0.209990 3.000000
0.079211 0.070295 0.437536 3.000000
-0.177952 -0.286196 0.338588 3.000000
0.180084 0.065136 0.438353 3.000000
-0.111022 0.250964 0.365914 3.000000
-0.183719 -0.416672 0.153386 3.000000
0.189906 -0.331467 0.294497 3.000000
-0.225406 0.146491 -0.422811 3.000000
-0.036583 -0.190359 0.400246 3.000000
0.158328 -0.068276 -0.442047 3.000000
-0.173477 -0.071152 0.437238 3.000000
-0.274509 0.443227 -0.049625 3.000000
-0.020432 0.326244 0.301583 3.000000
-0.148184 -0.366841 0.249359 3.000000
-0.207278 -0.072698 -0.441346 3.000000
0.197347 0.004653 -0.447482 3.000000
-0.067534 0.062976 -0.443048 3.000000
0.032727 -0.047781 -0.444812 3.000000
0.179436 0.228311 0.380350 3.000000
-0.188327 0.419979 -0.151400 3.000000
-0.014978 0.428083 -0.126274 3.000000
0.278897 0.227269 -0.385319 1.000000
0.046563 -0.434402 0.093058 3.000000
0.135215 -0.328705 -0.301983 3.000000
0.226416 0.430017 -0.119616 3.000000
-0.091945 0.443696 -0.044667 3.000000
-0.247479 0.179167 0.405626 3.000000
0.195607 0.367065 -0.254891 3.000000
0.201739 -0.416707 0.153287 3.000000
0.140349 0.221925 -0.388480 3.000000
0.050445 -0.439144 0.067961 3.000000
-0.167502 0.442921 0.048510 3.000000
0.232939 -0.355157 0.265697 3.000000
0.026308 -0.183855 -0.407507 3.000000
-0.124154 -0.402330 -0.192225 3.000000
0.087747 -0.398390 0.195605 3.000000
-0.259623 0.281040 -0.348031 3.000000
0.271645 0.121188 -0.430741 3.000000
0.070170 0.248885 0.367326 3.000000
0.154811 0.370851 0.244967 3.000000
-0.042515 -0.444617 -0.011906 3.000000
0.223689 -0.394490 -0.207612 3.000000
-0.112921 0.416080 0.157876 3.000000
0.039082 0.445218 0.021048 3.000000
0.183058 -0.444357 0.015834 3.000000
-0.111359 -0.170039 -0.413486 3.000000
-0.137458 -0.028127 0.442316 3.000000
-0.046592 -0.422668 -0.141083 3.000000
0.265118 0.382822 0.225988 3.000000
0.112438 -0.444415 0.013976 3.000000
0.072006 -0.304749 0.322191 3.000000
-0.071925 -0.144333 -0.423219 3.000000
-0.259922 0.411079 -0.174444 3.000000
0.035554 0.158705 0.414060 3.000000
-0.113321 -0.224102 -0.386586 3.000000
0.136120 0.445563 0.010050 3.000000
-0.147515 -0.438261 -0.077885 3.000000
0.113167 -0.432680 -0.105117 3.000000
-0.052483 0.421810 0.141959 3.000000
0.101102 -0.439202 0.067593 3.000000
0.272288 -0.444125 -0.027560 3.000000
0.117416 0.164205 -0.416433 3.000000
0.075694 -0.219347 -0.389398 3.000000
-0.036848 -0.301512 -0.329439 3.000000
0.193045 0.272322 -0.354792 3.000000
0.185171 -0.260939 -0.362792 3.000000
-0.000104 -0.247383 0.367651 3.000000
0.010711 -0.251212 -0.369403 3.000000
-0.051372 -0.389441 -0.217416 3.000000
-0.137180 -0.441573 0.051931 3.000000
0.266886 0.445246 0.020138 3.000000
-0.164942 -0.410962 -0.172348 3.000000
-0.199479 0.185371 -0.407295 3.000000
-0.003627 -0.028169 0.442312 3.000000
-0.091788 -0.136559 0.421625 3.000000
-0.187624 0.046451 0.440681 3.000000
0.131684 0.072111 0.437248 3.000000
-0.134145 -0.280121 -0.347948 3.000000
0.225006 0.239228 0.373890 3.000000
0.168592 0.137470 -0.426011 3.000000
-0.066579 0.429169 0.118183 3.000000
-0.046184 0.390384 0.213201 3.000000
-0.260480 0.031353 -0.446461 3.000000
-0.023005 0.198840 0.396447 3.000000
0.090538 0.440745 -0.068674 3.000000
0.157070 0.220155 0.385173 3.000000
-0.182477 -0.214575 0.387867 3.000000
-0.255808 -0.185172 0.402584 3.000000
0.062147 0.405035 -0.188412 3.000000
-0.288928 -0.103390 -0.435154 4.000000
-0.100814 0.195123 0.398341 3.000000
-0.214297 -0.084461 0.435031 3.000000
-0.228357 0.413101 -0.169772 3.000000
0.159209 -0.367293 -0.253048 3.000000
0.266519 0.180875 0.404887 3.000000
0.141079 0.071362 -0.441720 3.000000
0.274641 0.070899 0.437440 3.000000
-0.089286 0.130983 0.423542 3.000000
-0.072813 0.337709 -0.292933 3.000000
0.259416 -0.317201 -0.314092 3.000000
-0.181323 0.405563 0.182837 3.000000
0.147848 0.444314 -0.038123 3.000000
0.240716 0.272492 0.350307 3.000000
-0.101355 -0.376046 -0.240066 3.000000
-0.240378 0.017379 0.442728 3.000000
-0.061208 0.355142 0.267037 3.000000
-0.158196 0.007587 -0.447389 3.000000
-0.050265 -0.210541 0.389963 3.000000
-0.055375 0.442153 0.055429 3.000000
0.286355 0.063402 -0.442981 1.000000
-0.070663 -0.179907 0.404862 3.000000
-0.289413 0.125821 -0.429395 4.000000
0.078750 0.301331 0.326149 3.000000
0.053271 0.443689 -0.044741 3.000000
0.284387 0.288013 -0.342243 1.000000
-0.153404 -0.422661 -0.141102 3.000000
0.241520 0.015716 -0.447134 3.000000
0.240752 0.430837 -0.116794 3.000000
0.235963 -0.093566 0.432996 3.000000
-0.126076 0.277206 -0.351004 3.000000
0.100765 0.020216 -0.446993 3.000000
-0.191961 -0.104437 -0.434920 3.000000
-0.160245 0.271719 0.350907 3.000000
0.209304 0.420251 -0.150643 3.000000
0.251035 0.348430 0.275690 3.000000
0.230745 -0.378218 0.232040 3.000000
0.213689 -0.439436 0.066115 3.000000
0.279604 -0.348307 0.274528 3.000000
0.185799 0.378278 -0.238026 3.000000
-0.224589 0.126636 0.424805 3.000000
-0.028455 0.404726 -0.189126 3.000000
0.190191 0.415052 -0.165085 3.000000
0.046777 -0.418659 0.147864 3.000000
-0.051982 -0.368876 -0.250719 3.000000
0.232989 0.328020 -0.303922 3.000000
-0.095179 -0.046749 0.440556 3.000000
-0.027087 -0.278637 0.344746 3.000000
0.118506 0.428403 -0.125171 3.000000
-0.102686 -0.444044 0.025772 3.000000
-0.133229 0.444035 -0.041083 3.000000
-0.165787 -0.386571 -0.222270 3.000000
-0.028358 -0.364707 -0.256853 3.000000
-0.118581 0.403508 0.187570 3.000000
0.146517 0.196659 0.397558 3.000000
0.035942 0.356890 0.264784 3.000000
-0.226900 0.374897 -0.243367 3.000000
0.092180 0.420142 0.146594 3.000000
-0.225589 -0.436387 -0.088533 3.000000
0.195286 0.075578 0.436699 3.000000
-0.121119 0.377653 0.234728 3.000000
-0.069184 -0.361040 -0.262249 3.000000
-0.206721 -0.167204 -0.414713 3.000000
0.283451 0.080903 0.435856 3.000000
-0.171281 -0.437041 -0.085592 3.000000
-0.198855 0.380636 0.229684 3.000000
-0.095303 0.052050 -0.444505 3.000000
-0.006298 -0.421265 -0.144980 3.000000
0.007005 0.443004 0.047634 3.000000
-0.258423 -0.363162 0.254772 3.000000
0.210741 0.224710 0.382479 3.000000
0.060177 0.247481 -0.372634 3.000000
0.028263 -0.405517 -0.184931 3.000000
-0.113971 0.334937 0.291724 3.000000
0.271431 0.171934 -0.413109 3.000000
-0.277485 0.404409 -0.189857 3.000000
-0.166563 0.445272 0.019311 3.000000
-0.114842 0.285419 -0.344530 3.000000
-0.223744 0.212182 -0.394002 3.000000
-0.249945 -0.340140 -0.289013 3.000000
-0.215651 0.435489 -0.097133 3.000000
-0.018452 -0.316758 0.310182 3.000000
-0.253806 0.445744 -0.008647 3.000000
-0.048070 0.052663 -0.444447 3.000000
-0.004730 -0.423283 0.134914 3.000000
0.044407 0.418447 -0.155653 3.000000
-0.199211 0.428711 0.119758 3.000000
-0.129341 0.193059 -0.403746 3.000000
0.037267 0.399717 0.195010 3.000000
0.032813 0.363619 0.255608 3.000000
-0.106701 -0.043516 0.440861 3.000000
-0.146940 0.418904 -0.154386 3.000000
-0.187411 0.114272 0.428397 3.000000
0.090830 0.337821 0.288452 3.000000
0.118826 0.165652 0.411474 3.000000
0.109348 -0.303618 -0.327582 3.000000
-0.115509 0.443150 -0.050440 3.000000
0.199682 0.313308 0.314657 3.000000
-0.058766 -0.369853 0.244927 3.000000
-0.028094 0.268004 0.353788 3.000000
0.001443 -0.008936 -0.447315 3.000000
0.048950 -0.208148 0.391182 3.000000
0.250196 0.101859 -0.435725 3.000000
0.118716 0.224315 -0.387066 3.000000
-0.047459 0.445899 -0.003710 3.000000
-0.047032 0.275034 0.348336 3.000000
-0.197910 -0.368581 0.246799 3.000000
0.061753 0.436786 -0.091333 3.000000
-0.034177 -0.183301 -0.407747 3.000000
0.055953 -0.444372 0.015340 3.000000
0.055395 -0.399549 0.193329 3.000000
0.254801 0.389181 0.215235 3.000000
0.091030 0.045011 -0.445170 3.000000
-0.275023 -0.236356 -0.379339 3.000000
-0.023852 -0.440127 0.061754 3.000000
0.083537 0.085384 0.435054 3.000000
0.093024 -0.037958 0.441387 3.000000
0.063644 0.442812 0.049660 3.000000
0.027485 0.379359 -0.236196 3.000000
-0.175871 0.142677 -0.424184 3.000000
-0.174519 -0.225608 -0.385695 3.000000
0.057920 -0.433681 0.096283 3.000000
0.229640 -0.215137 0.387535 3.000000
-0.120690 -0.061526 0.438762 3.000000
-0.055956 0.444284 0.034095 3.000000
0.011820 -0.444839 -0.004831 3.000000
0.132270 -0.212803 0.388810 3.000000
-0.247796 -0.270679 0.350919 3.000000
0.245254 0.443017 0.047497 3.000000
-0.020938 0.274886 0.348450 3.000000
-0.238516 0.437394 0.084256 3.000000
-0.066218 -0.431421 -0.110747 3.000000
-0.147128 0.430743 -0.117117 3.000000
0.138796 -0.156401 -0.418874 3.000000
-0.255282 0.066277 -0.442525 3.000000
0.077172 -0.380467 0.228237 3.000000
0.269876 0.084534 -0.439598 3.000000
-0.235034 -0.436834 -0.086534 3.000000
0.168721 0.430477 -0.118034 3.000000
0.250859 -0.442204 0.045259 3.000000
0.208616 0.033155 0.441938 3.000000
-0.178900 0.252755 0.364697 3.000000
0.125808 -0.430447 -0.114611 3.000000
-0.164019 -0.307217 -0.324076 3.000000
0.219225 0.382464 -0.230947 3.000000
-0.031023 0.344495 -0.285117 3.000000
0.170680 0.147488 -0.422452 3.000000
0.209378 -0.321041 -0.310252 3.000000
-0.180212 0.429652 0.116519 3.000000
0.052322 -0.026734 0.442402 3.000000
0.200581 -0.355610 0.265112 3.000000
0.142955 -0.294488 0.331278 3.000000
-0.098649 0.394351 -0.209896 3.000000
-0.059878 -0.433825 -0.099993 3.000000
0.082304 0.409796 -0.177410 3.000000
-0.088050 0.032479 0.442002 3.000000
-0.116261 0.358404 0.262831 3.000000
-0.132646 0.321125 -0.311194 3.000000
-0.054819 -0.215563 -0.391636 3.000000
0.219616 0.416343 0.157146 3.000000
0.086843 -0.443369 -0.037287 3.000000
0.015911 -0.419868 -0.148862 3.000000
0.286956 -0.367355 0.248603 1.000000
-0.124587 -0.443628 0.030187 3.000000
-0.197407 -0.103870 0.430693 3.000000
0.164097 0.357884 -0.267855 3.000000
-0.285748 0.116592 -0.432077 4.000000
-0.207323 0.243121 0.371244 3.000000
-0.149586 0.380607 0.229734 3.000000
-0.243178 0.349484 0.274332 3.000000
0.007093 0.356083 -0.270178 3.000000
-0.280238 -0.443773 -0.033005 4.000000
0.140458 -0.022844 0.442524 3.000000
-0.114108 -0.188707 -0.405408 3.000000
0.169866 -0.210966 -0.394100 3.000000
0.272956 -0.424447 -0.135262 3.000000
-0.134958 -0.437248 0.079928 3.000000
-0.129212 0.440697 -0.068980 3.000000
-0.045133 0.188658 -0.405872 3.000000
-0.190625 -0.071791 0.437136 3.000000
-0.241668 0.200983 -0.399708 3.000000
-0.236950 0.432737 0.105093 3.000000
-0.231120 0.071526 -0.441694 3.000000
0.258243 0.247392 0.368342 3.000000
0.133504 -0.103324 -0.435169 3.000000
-0.098184 -0.435846 0.086598 3.000000
-0.290250 -0.026763 -0.446755 4.000000
-0.134630 -0.297635 -0.332856 3.000000
-0.029223 -0.349453 -0.277403 3.000000
-0.048263 -0.337271 0.287914 3.000000
-0.025509 0.416164 0.157641 3.000000
0.267474 0.407912 0.177411 3.000000
-0.044157 -0.441526 -0.056783 3.000000
0.200406 0.425929 0.129333 3.000000
0.069492 -0.123779 0.425337 3.000000
0.164468 -0.397820 -0.201077 3.000000
-0.271450 0.395223 0.203830 3.000000
0.055020 0.010990 0.442929 3.000000
-0.148599 -0.391391 0.209339 3.000000
-0.220834 -0.152113 0.416065 3.000000
-0.090632 -0.427846 0.119209 3.000000
-0.132953 0.329067 -0.302735 3.000000
0.104356 0.289264 0.336787 3.000000
0.229337 -0.442724 -0.044110 3.000000
0.026707 0.087170 0.434655 3.000000
0.244341 -0.308860 -0.322434 3.000000
-0.278540 -0.006512 0.443038 3.000000
0.077563 -0.006218 0.443047 3.000000
-0.042327 -0.442550 -0.045949 3.000000
-0.174821 0.247089 -0.372901 3.000000
0.011441 0.334714 0.291976 3.000000
0.131272 -0.366918 0.249246 3.000000
-0.019194 -0.056146 0.439614 3.000000
0.177452 0.087396 -0.438958 3.000000
-0.192373 -0.443268 -0.038351 3.000000
-0.209686 -0.443585 0.030642 3.000000
0.285893 -0.261109 0.358323 1.000000
0.188025 0.279833 -0.348966 3.000000
0.189663 -0.417643 -0.155041 3.000000
0.015999 -0.438210 0.073856 3.000000
-0.061387 -0.248765 0.366712 3.000000
-0.057711 0.110001 0.429552 3.000000
0.089001 0.443893 0.038224 3.000000
-0.168195 -0.417229 0.151838 3.000000
-0.167190 0.410422 -0.175962 3.000000
0.040039 -0.080184 0.435807 3.000000
0.044415 -0.128838 0.423868 3.000000
0.066712 0.426814 -0.130642 3.000000
-0.269700 -0.364531 0.252759 3.000000
0.251385 0.445347 0.016920 3.000000
0.022740 0.047743 -0.444912 3.000000
-0.004301 -0.411502 0.166744 3.000000
0.080976 0.210843 -0.394685 3.000000
-0.284497 -0.238225 0.373875 4.000000
0.233681 0.314714 0.313251 3.000000
0.153112 -0.307513 -0.323781 3.000000
-0.069863 -0.284222 0.340329 3.000000
-0.004315 0.413770 -0.168225 3.000000
-0.091727 -0.433068 -0.103381 3.000000
0.057657 0.033665 -0.446243 3.000000
-0.088801 0.140297 -0.425041 3.000000
0.278069 0.162707 -0.416973 1.000000
-0.276650 -0.029267 0.442208 3.000000
-0.124536 0.442242 0.054869 3.000000
0.034508 -0.104303 -0.434950 3.000000
-0.252386 -0.435884 -0.090781 3.000000
-0.100798 -0.408440 0.173822 3.000000
-0.181267 -0.123648 -0.429729 3.000000
0.116351 -0.444703 0.004800 3.000000
0.135857 -0.365581 -0.255567 3.000000
-0.149652 0.343591 0.281908 3.000000
-0.250305 -0.441213 0.054895 3.000000
0.212280 -0.230596 0.378392 3.000000
-0.076788 0.105288 -0.434959 3.000000
0.265582 0.362683 0.256986 3.000000
0.201339 -0.390917 -0.214623 3.000000
-0.287503 -0.289935 -0.339645 4.000000
0.065822 -0.172730 -0.412322 3.000000
-0.036196 0.136836 -0.426195 3.000000
-0.040210 0.182318 0.404263 3.000000
0.144502 -0.403324 -0.189998 3.000000
0.238036 -0.329458 -0.301129 3.000000
-0.073760 -0.333648 -0.296376 3.000000
-0.005792 -0.167463 -0.414601 3.000000
0.014561 -0.437060 -0.085473 3.000000
-0.191974 -0.030953 -0.446402 3.000000
0.277580 -0.191116 0.399861 3.000000
-0.038080 -0.346930 0.276302 3.000000
-0.023308 0.091911 -0.437949 3.000000
0.223747 -0.355971 -0.269001 3.000000
0.176457 0.076903 0.436489 3.000000
0.115735 -0.204540 -0.397374 3.000000
0.191231 0.444807 -0.032916 3.000000
0.074130 0.240857 0.372783 3.000000
-0.078297 -0.434224 -0.098208 3.000000
-0.222836 -0.308680 0.318261 3.000000
0.225674 -0.317904 0.309036 3.000000
-0.071517 0.363614 -0.259970 3.000000
0.127986 0.437239 0.084951 3.000000
0.029446 -0.424228 -0.136015 3.000000
0.197418 0.334180 0.292582 3.000000
-0.057869 -0.433096 0.098900 3.000000
-0.220929 0.056454 0.439728 3.000000
0.236178 0.433188 -0.107426 3.000000
-0.198191 0.135749 0.422157 3.000000
-0.074957 -0.312176 0.314765 3.000000
0.130914 -0.175370 -0.411179 3.000000
-0.133681 -0.443747 -0.033280 3.000000
0.259960 -0.033243 0.441832 3.000000
-0.263405 -0.415177 0.157536 3.000000
0.076315 0.275385 -0.352416 3.000000
-0.017041 0.067791 0.437932 3.000000
0.043319 0.288297 -0.341993 3.000000
0.064933 -0.430730 -0.113636 3.000000
0.019837 0.424819 0.133154 3.000000
0.266520 -0.352829 0.268698 3.000000
-0.035156 0.094150 -0.437448 3.000000
0.285536 0.269732 0.352448 1.000000
0.109143 -0.409663 0.170995 3.000000
-0.181960 -0.441802 0.049505 3.000000
-0.007868 0.436813 0.086855 3.000000
0.227281 0.413357 0.164827 3.000000
0.180207 -0.154155 0.415329 3.000000
0.265419 0.438936 0.075742 3.000000
0.014750 0.408076 0.177031 3.000000
0.128037 -0.072947 0.436953 3.000000
0.064184 -0.000321 0.443232 3.000000
0.125448 -0.439320 -0.071203 3.000000
-0.005043 -0.112216 -0.433050 3.000000
-0.045385 -0.403291 -0.190074 3.000000
-0.280773 0.083283 -0.439832 4.000000
-0.176822 -0.321505 -0.309789 3.000000
-0.027857 -0.212262 0.389086 3.000000
-0.149014 -0.432245 0.102710 3.000000
0.123176 0.434946 0.095208 3.000000
-0.036326 -0.342753 -0.286041 3.000000
0.086409 0.317484 0.310481 3.000000
-0.162831 -0.444805 -0.005930 3.000000
0.012415 -0.443559 0.030920 3.000000
-0.218022 0.256186 -0.366718 3.000000
-0.117674 -0.444473 -0.016471 3.000000
0.254114 -0.064099 -0.442708 3.000000
0.051995 -0.223460 -0.386966 3.000000
-0.121252 -0.266366 -0.358617 3.000000
-0.185907 -0.392486 -0.211545 3.000000
-0.273055 -0.290630 0.334679 3.000000
-0.048940 -0.444862 -0.000262 3.000000
-0.142407 -0.131001 0.423239 3.000000
0.012352 0.415480 0.159543 3.000000
0.045882 0.105889 0.430471 3.000000
0.119056 -0.079751 0.435876 3.000000
0.169845 -0.426519 -0.128128 3.000000
0.283268 0.334539 -0.296528 1.000000
0.219165 0.321233 -0.311086 3.000000
0.025817 -0.101316 0.431264 3.000000
-0.196509 0.445557 0.010248 3.000000
0.270481 0.152372 -0.420694 3.000000
0.119824 -0.323836 0.303104 3.000000
0.224303 -0.160382 0.413088 3.000000
0.228049 -0.037844 -0.445751 3.000000
-0.265185 -0.057499 -0.443754 3.000000
0.041040 -0.443474 -0.036170 3.000000
-0.080051 0.312577 0.315388 3.000000
0.005658 0.405061 0.183998 3.000000
0.074811 0.441662 -0.062887 3.000000
0.194474 -0.018112 -0.447026 3.000000
0.096534 -0.117585 -0.431490 3.000000
-0.156427 -0.120643 0.426248 3.000000
-0.019075 0.232445 -0.382258 3.000000
-0.261743 0.265203 -0.360314 3.000000
-0.195568 0.354224 -0.272573 3.000000
-0.071466 0.011128 -0.447278 3.000000
-0.131636 -0.385731 -0.223690 3.000000
0.008902 -0.295169 -0.335031 3.000000
0.223207 -0.231653 0.377767 3.000000
0.094835 -0.081395 0.435615 3.000000
0.164038 0.257704 -0.365687 3.000000
0.135140 -0.150092 0.416792 3.000000
0.211331 0.404717 0.184794 3.000000
-0.263296 0.217949 -0.390831 3.000000
0.122293 -0.016869 0.442712 3.000000
-0.265315 0.440378 0.066641 3.000000
0.119820 0.423101 -0.142726 3.000000
-0.099865 -0.388183 -0.219545 3.000000
-0.076098 -0.396242 0.199819 3.000000
0.071716 -0.250423 0.365585 3.000000
-0.256497 -0.368649 0.246699 3.000000
-0.172989 -0.340459 0.284297 3.000000
-0.245890 0.281524 -0.347655 3.000000
-0.222724 -0.382943 -0.228405 3.000000
-0.226109 0.432476 -0.110612 3.000000
-0.037383 0.377469 0.235039 3.000000
-0.057728 -0.192559 0.399125 3.000000
-0.126684 0.049732 -0.444724 3.000000
-0.284106 -0.439172 -0.072134 4.000000
-0.241478 0.442600 0.051908 3.000000
0.048095 0.131526 -0.427738 3.000000
-0.040814 0.310095 0.317870 3.000000
-0.084207 -0.105045 -0.434784 3.000000
-0.066789 0.418370 -0.155869 3.000000
-0.107805 0.039452 -0.445696 3.000000
-0.190305 -0.085378 -0.439180 3.000000
0.133529 -0.264339 -0.360190 3.000000
0.156201 -0.421553 -0.144179 3.000000
0.130282 -0.000603 -0.447577 3.000000
-0.283484 0.314448 0.313517 4.000000
0.265780 0.313477 -0.318842 3.000000
0.122302 -0.331450 -0.298870 3.000000
-0.148017 0.440612 -0.069514 3.000000
-0.110834 -0.263199 -0.361074 3.000000
0.053396 -0.349808 0.272592 3.000000
0.084801 0.414368 0.162491 3.000000
-0.090169 0.095984 0.432685 3.000000
-0.080941 -0.186738 0.401907 3.000000
-0.104950 -0.421703 0.139410 3.000000
0.243528 0.066230 0.438180 3.000000
-0.115188 0.443426 0.043173 3.000000
0.012022 0.294217 0.332421 3.000000
0.065629 -0.073576 -0.441207 3.000000
0.065967 -0.444197 0.020905 3.000000
-0.184810 -0.366634 0.249664 3.000000
0.041740 0.084625 0.435224 3.000000
-0.093424 -0.422252 -0.142238 3.000000
-0.245692 -0.406931 -0.181662 3.000000
-0.169210 0.154834 -0.419807 3.000000
0.226160 0.009283 -0.447336 3.000000
0.224553 -0.365561 -0.255597 3.000000
-0.118724 0.431164 -0.115669 3.000000
0.226796 0.335168 -0.295815 3.000000
-0.285052 -0.280114 -0.347953 4.000000
-0.141867 -0.351036 0.271009 3.000000
-0.019379 -0.346395 -0.281345 3.000000
-0.169417 0.132228 0.423180 3.000000
0.133817 0.439898 -0.074025 3.000000
0.143667 0.070392 0.437520 3.000000
0.181197 -0.410569 -0.173255 3.000000
-0.238783 -0.258478 0.360111 3.000000
0.043953 -0.351220 0.270772 3.000000
0.022593 -0.227800 0.380046 3.000000
-0.260445 -0.250167 0.365759 3.000000
-0.214634 0.427239 0.124826 3.000000
-0.006386 -0.297448 0.328669 3.000000
0.252295 0.364977 -0.257964 3.000000
-0.042828 -0.117401 -0.431544 3.000000
0.059790 -0.421403 0.140245 3.000000
0.286271 0.441674 -0.062810 1.000000
0.140829 -0.330993 0.295035 3.000000
0.205244 -0.264772 -0.359854 3.000000
-0.042224 -0.436515 -0.087959 3.000000
0.125994 0.194751 0.398530 3.000000
0.123710 0.443794 0.039278 3.000000
0.284093 0.206142 0.392727 1.000000
-0.094502 0.360736 0.259825 3.000000
0.130135 -0.389664 -0.217040 3.000000
-0.036196 -0.399384 -0.198008 3.000000
-0.161565 0.417266 -0.158936 3.000000
-0.018270 0.396591 0.201146 3.000000
-0.166118 0.107140 -0.434545 3.000000
-0.016046 -0.121687 -0.430299 3.000000
-0.000738 0.428075 -0.126302 3.000000
-0.068204 0.012480 0.442882 3.000000
0.107997 -0.389937 -0.216548 3.000000
0.191951 0.437994 0.081572 3.000000
-0.109261 0.100248 0.431732 3.000000
0.174267 -0.011420 0.442883 3.000000
-0.221383 -0.404780 0.182278 3.000000
-0.068685 0.295958 -0.335239 3.000000
0.207903 0.440529 0.065686 3.000000
0.219110 -0.442010 -0.051664 3.000000
-0.126347 -0.199671 0.395502 3.000000
-0.216716 -0.115746 -0.432025 3.000000
0.250478 0.445768 -0.007873 3.000000
-0.105015 -0.323385 -0.307908 3.000000
0.209117 0.387636 -0.222202 3.000000
-0.007213 -0.101322 0.431263 3.000000
0.164765 0.149418 0.417404 3.000000
-0.101725 -0.111978 0.428766 3.000000
0.116945 -0.387168 -0.221260 3.000000
0.047621 -0.101332 -0.435614 3.000000
-0.234995 0.278166 -0.350260 3.000000
-0.250694 0.261213 0.358949 3.000000
-0.101433 -0.426857 -0.126965 3.000000
0.125836 0.206570 0.392509 3.000000
-0.247555 0.288859 -0.341498 3.000000
-0.125463 -0.423934 0.132674 3.000000
0.162307 0.164764 0.411859 3.000000
0.175069 0.196224 0.397780 3.000000
-0.100358 -0.434312 -0.097815 3.000000
0.064248 -0.312537 0.314403 3.000000
-0.254775 0.302182 0.325399 3.000000
-0.279826 -0.387430 -0.220817 4.000000
-0.283462 0.432558 0.105895 4.000000
0.062666 0.339676 -0.290702 3.000000
0.008836 -0.041717 0.441031 3.000000
-0.239599 0.435925 -0.095182 3.000000
-0.051578 -0.083613 -0.439575 3.000000
-0.087208 0.305350 -0.326959 3.000000
-0.013714 -0.112438 0.428632 3.000000
0.216240 -0.126072 -0.429025 3.000000
-0.254917 -0.439001 0.068861 3.000000
0.033582 0.342127 0.283568 3.000000
0.001329 0.440319 0.067009 3.000000
0.181947 0.085180 0.435100 3.000000
-0.268404 0.241857 -0.376457 3.000000
-0.223287 0.022088 0.442580 3.000000
-0.004506 0.398872 0.196670 3.000000
-0.003087 -0.329567 0.296652 3.000000
-0.263155 -0.193684 -0.402905 3.000000
-0.276508 -0.285634 -0.343437 3.000000
0.259598 0.374238 0.239983 3.000000
0.230652 -0.442958 0.037276 3.000000
-0.091728 0.023429 -0.446892 3.000000
-0.234281 0.227753 -0.385033 3.000000
0.022576 0.413525 -0.168791 3.000000
0.065289 -0.162902 -0.416534 3.000000
0.156567 0.155269 -0.419651 3.000000
0.112688 0.027569 -0.446762 3.000000
0.037048 -0.389578 0.212831 3.000000
0.097125 -0.437381 -0.083446 3.000000
0.286521 -0.431148 -0.111971 1.000000
-0.154863 0.386045 0.220538 3.000000
0.271756 0.330348 0.296929 3.000000
-0.006234 0.277130 0.346710 3.000000
0.078402 -0.417388 -0.155748 3.000000
-0.200305 0.056425 -0.444086 3.000000
-0.118472 -0.302201 0.324478 3.000000
-0.117370 0.318744 -0.313574 3.000000
0.070462 0.183534 -0.408090 3.000000
0.072951 -0.439568 0.065285 3.000000
0.010869 -0.268221 -0.357179 3.000000
0.146024 0.345025 -0.284432 3.000000
-0.252270 0.077558 -0.440739 3.000000
0.201913 0.294853 0.331860 3.000000
0.147165 -0.431762 0.104871 3.000000
-0.235773 -0.058485 0.439244 3.000000
0.038272 0.255940 -0.366886 3.000000
-0.038686 0.313928 -0.318390 3.000000
-0.060497 0.339043 -0.291419 3.000000
0.197030 -0.318491 -0.312803 3.000000
0.096210 -0.296831 0.329212 3.000000
-0.009460 -0.212531 0.388949 3.000000
0.151870 0.272536 -0.354627 3.000000
0.244837 -0.368331 0.247168 3.000000
-0.272660 -0.382305 0.225130 3.000000
0.192012 0.235117 -0.380678 3.000000
-0.221968 0.176048 -0.411329 3.000000
0.144490 0.441436 0.059959 3.000000
0.122282 -0.183070 -0.407847 3.000000
0.037184 -0.421830 -0.143412 3.000000
0.215438 0.445198 -0.026022 3.000000
0.065786 -0.375358 0.236827 3.000000
0.204089 -0.400557 -0.195705 3.000000
0.272654 0.329068 -0.302734 3.000000
0.111429 0.444355 0.033345 3.000000
-0.082998 0.421001 0.144207 3.000000
-0.225132 0.312013 0.315952 3.000000
-0.067654 0.386250 0.220191 3.000000
0.232846 -0.425513 -0.131593 3.000000
-0.097506 -0.177658 -0.410189 3.000000
0.183195 -0.153233 -0.420015 3.000000
0.098453 -0.419018 0.146869 3.000000
0.015392 0.028911 0.442339 3.000000
-0.209942 0.125176 -0.429583 3.000000
-0.289888 -0.338010 0.287076 4.000000
-0.281351 0.233730 0.377145 3.000000
-0.102463 0.330876 0.296330 3.000000
-0.018996 -0.439808 -0.068121 3.000000
-0.182911 0.355412 -0.271042 3.000000
-0.244887 0.188271 0.401687 3.000000
-0.270661 0.347535 -0.281197 3.000000
-0.111174 -0.384941 -0.225026 3.000000
-0.278910 0.312188 -0.320130 3.000000
0.086812 -0.168777 -0.414032 3.000000
0.222652 -0.276607 0.346320 3.000000
0.228237 0.181998 0.404401 3.000000
0.049682 0.376137 0.237188 3.000000
0.222488 -0.443660 -0.034204 3.000000
0.282861 -0.174321 0.407280 3.000000
0.149461 -0.009507 -0.447297 3.000000
-0.086894 0.235182 -0.380639 3.000000
-0.118858 -0.160593 -0.417365 3.000000
-0.276016 0.259370 -0.364554 3.000000
-0.174286 0.286402 -0.343664 3.000000
0.006116 0.308990 -0.323329 3.000000
0.094428 0.265931 -0.359750 3.000000
0.224691 -0.005410 -0.447426 3.000000
0.015665 0.418626 -0.155156 3.000000
0.201882 -0.180588 0.404568 3.000000
-0.169851 0.351345 0.271932 3.000000
0.179268 -0.382648 -0.228903 3.000000
-0.166697 0.414320 -0.166955 3.000000
0.121617 0.307664 -0.324655 3.000000
0.280743 0.254616 -0.367785 1.000000
0.243705 0.081190 0.435810 3.000000
0.130249 -0.101603 0.431200 3.000000
-0.252478 0.251742 -0.369738 3.000000
0.207308 -0.132911 -0.427038 3.000000
0.014854 -0.281954 0.342173 3.000000
0.264414 0.349435 -0.278747 3.000000
0.279158 -0.404777 -0.186640 1.000000
-0.148532 -0.402818 0.186814 3.000000
-0.284344 0.189332 0.401227 4.000000
-0.229522 -0.254412 -0.367228 3.000000
0.234501 -0.341212 0.283444 3.000000
0.144652 0.313712 -0.318606 3.000000
0.255784 0.315209 0.312756 3.000000
0.187877 -0.434421 -0.097329 3.000000
0.263363 -0.404004 0.184074 3.000000
0.194104 -0.141811 -0.424127 3.000000
0.255847 0.323235 -0.309083 3.000000
-0.057784 0.204873 -0.397726 3.000000
0.072645 0.021855 -0.446941 3.000000
-0.044300 -0.279172 -0.348684 3.000000
-0.058377 0.226807 -0.385592 3.000000
-0.081613 0.225492 -0.386370 3.000000
0.152262 0.423936 -0.140409 3.000000
0.142211 -0.374832 0.237602 3.000000
0.272950 0.206891 0.392345 3.000000
-0.012417 -0.150838 -0.420877 3.000000
0.200412 -0.365215 -0.256105 3.000000
0.078829 0.404538 0.185208 3.000000
0.067444 -0.057234 0.439442 3.000000
-0.266728 -0.392689 0.206792 3.000000
0.016195 0.384209 -0.227997 3.000000
0.104707 -0.440923 0.056725 3.000000
-0.077509 0.412608 0.166558 3.000000
-0.024214 -0.427626 0.119966 3.000000
-0.250380 0.443602 0.041306 3.000000
0.227204 -0.436413 0.084063 3.000000
-0.138700 0.356860 0.264823 3.000000
-0.220629 0.376340 0.236891 3.000000
0.133326 0.289498 -0.340934 3.000000
0.032120 -0.247642 0.367475 3.000000
-0.199133 -0.248674 0.366774 3.000000
0.182970 -0.172818 -0.412283 3.000000
0.007536 0.180772 0.404931 3.000000
0.196043 -0.423509 -0.138489 3.000000
0.195891 0.314442 -0.317876 3.000000
0.255618 -0.371188 -0.247317 3.000000
0.064633 0.257834 0.361245 3.000000
-0.227744 -0.438617 -0.075638 3.000000
0.126449 0.439334 0.073230 3.000000
0.009284 0.127052 0.424684 3.000000
0.267810 -0.008441 0.442977 3.000000
0.052979 -0.433371 -0.102024 3.000000
-0.046328 -0.075250 -0.440942 3.000000
0.061643 -0.205751 0.392404 3.000000
-0.043534 0.384132 0.223772 3.000000
0.006977 -0.000131 -0.447592 3.000000
-0.290051 0.430677 0.112993 4.000000
0.183996 0.176573 0.406749 3.000000
-0.069211 0.445698 0.005751 3.000000
0.208856 0.393794 -0.210989 3.000000
0.026085 0.057074 -0.443983 3.000000
0.005145 0.157745 0.414406 3.000000
-0.240837 0.406336 -0.185404 3.000000
-0.089610 0.414490 0.162210 3.000000
-0.253298 -0.381031 0.227283 3.000000
-0.148018 -0.230516 -0.382793 3.000000
-0.077700 -0.341664 -0.287284 3.000000
0.032216 -0.052630 0.440000 3.000000
0.250414 0.123424 -0.430092 3.000000
0.204972 0.185587 -0.407201 3.000000
0.244709 0.329591 -0.302141 3.000000
-0.056533 0.259155 -0.364701 3.000000
-0.066241 -0.342862 0.281548 3.000000
-0.004755 0.406402 -0.185253 3.000000
0.182057 0.214809 0.388310 3.000000
-0.244802 0.065687 -0.442619 3.000000
0.268814 -0.081283 -0.439987 3.000000
0.195049 -0.235555 0.375459 3.000000
-0.164951 -0.132745 -0.427086 3.000000
0.189378 0.041754 -0.445478 3.000000
-0.234745 -0.440748 -0.062188 3.000000
-0.263450 -0.065745 0.438094 3.000000
0.010654 0.125283 -0.429552 3.000000
-0.103016 0.069120 0.437722 3.000000
-0.050778 -0.258177 -0.364669 3.000000
0.089363 0.219019 0.385845 3.000000
0.076646 -0.317009 -0.314284 3.000000
-0.030959 0.085123 -0.439466 3.000000
0.229600 -0.415229 -0.161745 3.000000
0.211994 -0.315099 0.311841 3.000000
-0.007978 -0.370178 -0.248803 3.000000
-0.089588 -0.145722 0.418366 3.000000
-0.199055 0.031333 0.442110 3.000000
0.170323 -0.409786 -0.175065 3.000000
-0.000858 0.256765 0.361972 3.000000
0.255513 0.432251 0.107268 3.000000
0.227783 0.137651 0.421605 3.000000
0.285833 0.215377 0.387998 1.000000
-0.240000 -0.397969 0.196431 3.000000
-0.104452 -0.107148 -0.434314 3.000000
-0.052676 0.165339 -0.415963 3.000000
-0.033025 0.302397 0.325208 3.000000
0.266750 -0.195237 0.397761 3.000000
-0.184791 -0.329767 0.296425 3.000000
0.109295 0.418508 -0.155484 3.000000
-0.021812 0.261940 0.358454 3.000000
0.175205 -0.278815 -0.348961 3.000000
0.263516 0.199918 0.395898 3.000000
0.094836 -0.436695 0.082803 3.000000
0.059699 0.442749 -0.054679 3.000000
0.089331 -0.444377 -0.019552 3.000000
0.226190 -0.231926 -0.381959 3.000000
-0.194203 0.056014 0.439777 3.000000
-0.046736 -0.238706 0.373548 3.000000
-0.131946 0.153984 -0.420113 3.000000
0.158212 0.444535 0.031439 3.000000
-0.206980 -0.433166 0.098588 3.000000
0.067928 -0.439643 -0.069164 3.000000
0.085616 0.307652 -0.324667 3.000000
0.153764 0.445886 -0.000209 3.000000
0.038335 -0.334747 -0.295130 3.000000
0.169188 -0.354233 0.266888 3.000000
0.018799 -0.067833 -0.442117 3.000000
0.103255 -0.024814 -0.446816 3.000000
-0.087815 -0.398591 0.195210 3.000000
-0.170686 -0.396237 0.199830 3.000000
0.236697 0.442336 0.054274 3.000000
0.161777 -0.265028 -0.359655 3.000000
-0.286080 -0.415709 -0.160412 4.000000
-0.030905 -0.081565 0.435588 3.000000
0.197896 0.373511 0.241053 3.000000
0.023718 0.360357 0.260314 3.000000
0.063270 0.146066 -0.422964 3.000000
0.168424 -0.443679 0.029655 3.000000
-0.070845 0.262554 0.358016 3.000000
0.225124 0.439654 0.071209 3.000000
0.088525 0.286646 0.339095 3.000000
0.061143 -0.118210 0.426955 3.000000
-0.164729 0.433995 -0.103818 3.000000
-0.135830 0.241781 -0.376508 3.000000
-0.093981 0.286807 -0.343307 3.000000
0.230461 -0.410455 -0.173518 3.000000
-0.039582 0.268506 0.353399 3.000000
-0.056053 -0.060221 -0.443322 3.000000
-0.234087 0.212203 0.389638 3.000000
-0.082873 -0.196569 0.397082 3.000000
-0.152307 0.402491 0.189567 3.000000
0.074252 0.291803 -0.338901 3.000000
0.089134 -0.438563 0.071626 3.000000
0.199049 -0.405233 0.181232 3.000000
-0.245986 0.371478 -0.248398 3.000000
0.233658 0.058483 0.439407 3.000000
0.097099 -0.065172 -0.442538 3.000000
0.068583 -0.444486 0.011707 3.000000
0.052145 -0.036858 -0.445844 3.000000
-0.202811 0.267217 0.354399 3.000000
0.195225 0.286651 -0.343444 3.000000
-0.276830 -0.111819 0.428812 3.000000
0.237105 0.375219 0.238540 3.000000
0.177922 0.050533 -0.444648 3.000000
0.068363 -0.297778 0.328377 3.000000
-0.160717 -0.283312 0.341119 3.000000
0.109719 -0.162473 0.412335 3.000000
0.067580 -0.155319 0.414911 3.000000
-0.247803 -0.439518 -0.069952 3.000000
-0.164926 -0.428631 0.116505 3.000000
-0.079388 -0.022037 0.442550 3.000000
0.047026 -0.177554 0.405881 3.000000
-0.213421 0.338612 -0.291908 3.000000
-0.080693 0.169755 -0.414053 3.000000
0.110289 0.445193 0.021834 3.000000
-0.150654 -0.170977 -0.413080 3.000000
0.250493 -0.331690 -0.298598 3.000000
-0.201387 0.214561 0.388437 3.000000
0.220427 0.346810 0.277778 3.000000
0.172445 -0.071455 -0.441543 3.000000
0.171378 0.192923 -0.403815 3.000000
0.268702 0.010578 -0.447295 3.000000
0.284894 0.301615 0.325898 1.000000
0.246184 0.395738 -0.207174 3.000000
0.180230 -0.428534 0.116842 3.000000
0.013927 0.195810 0.397991 3.000000
-0.118766 -0.187713 0.401485 3.000000
0.043927 0.038121 0.441468 3.000000
-0.091631 0.412774 -0.170528 3.000000
-0.236967 0.059291 0.439279 3.000000
0.122875 0.409627 -0.177801 3.000000
0.009546 0.380542 0.229843 3.000000
0.095349 0.320392 -0.311926 3.000000
-0.215254 -0.051076 -0.444500 3.000000
-0.264490 0.086179 -0.439230 3.000000
-0.157483 -0.315240 0.311701 3.000000
-0.051768 -0.150405 0.416680 3.000000
0.017890 0.092478 -0.437822 3.000000
0.137011 0.189208 -0.405634 3.000000
0.079470 0.419993 0.147008 3.000000
-0.169313 0.426936 -0.130221 3.000000
0.139658 0.050160 0.440330 3.000000
0.257005 0.144636 -0.423479 3.000000
0.211419 -0.444338 -0.020787 3.000000
0.049041 -0.437497 0.078360 3.000000
-0.113588 -0.332059 0.293825 3.000000
-0.026449 0.200806 -0.399799 3.000000
-0.052586 -0.432337 -0.106653 3.000000
0.024465 -0.161045 0.412849 3.000000
0.117827 -0.032018 -0.446302 3.000000
0.018455 -0.444551 -0.013989 3.000000
-0.264983 -0.376387 0.235135 3.000000
-0.099388 -0.004327 0.443106 3.000000
-0.234431 -0.310105 0.316835 3.000000
0.096119 0.445041 0.026080 3.000000
0.195434 -0.299896 0.326510 3.000000
-0.026227 0.445850 0.000934 3.000000
-0.084561 -0.152232 -0.420375 3.000000
-0.092453 0.240290 0.373168 3.000000
0.157447 0.433382 -0.106559 3.000000
0.126395 -0.254507 -0.367163 3.000000
-0.263279 -0.078264 0.436111 3.000000
-0.181740 0.292755 -0.338063 3.000000
0.245021 -0.361195 0.257667 3.000000
-0.182240 0.407253 -0.183285 3.000000
0.280192 -0.292290 0.333216 3.000000
0.165176 0.287483 -0.342711 3.000000
-0.230515 0.011072 0.442926 3.000000
-0.199910 0.391801 0.210547 3.000000
0.233528 -0.012768 -0.447194 3.000000
-0.166959 0.101652 0.431418 3.000000
0.003246 0.292307 -0.338458 3.000000
