0.093900 -0.310581 -0.390975 2.000000
0.027085 0.378043 -0.327095 2.000000
-0.008862 0.496735 -0.044877 2.000000
0.105174 -0.338899 -0.366581 2.000000
0.257239 0.399111 0.296260 2.000000
0.000685 0.420548 -0.269776 2.000000
0.009727 -0.471297 -0.161390 2.000000
0.210467 -0.251831 -0.431513 2.000000
0.004886 0.323115 0.377444 2.000000
0.191847 -0.412574 0.275995 2.000000
0.233372 0.181553 -0.466179 2.000000
-0.054011 0.242086 -0.437647 2.000000
-0.149910 0.121694 -0.485287 2.000000
-0.146435 0.447233 0.217784 2.000000
-0.028824 -0.036853 0.494366 2.000000
-0.054118 -0.496700 0.025162 2.000000
0.014254 -0.398918 0.295520 2.000000
0.074443 0.331525 -0.374268 2.000000
-0.029940 -0.421166 0.262729 2.000000
0.002507 -0.024707 -0.499484 2.000000
-0.127480 0.267588 -0.422521 2.000000
-0.025843 -0.270961 -0.419850 2.000000
0.019281 0.113662 0.482739 2.000000
0.007870 -0.421406 -0.266867 2.000000
-0.034062 -0.340730 0.360547 2.000000
-0.123728 0.141939 -0.479698 2.000000
-0.072927 0.268506 0.417619 2.000000
0.127541 -0.014914 0.495564 2.000000
0.088479 0.270483 -0.420609 2.000000
0.252627 -0.258353 -0.427536 2.000000
0.071349 0.035706 -0.498895 2.000000
0.088160 -0.367969 -0.337397 2.000000
-0.073904 0.391117 0.306857 2.000000
-0.000697 -0.374566 -0.329709 2.000000
0.148270 -0.336758 -0.368520 2.000000
-0.003610 -0.202296 -0.456943 2.000000
0.228360 0.265168 0.419654 2.000000
-0.102883 -0.251092 -0.431963 2.000000
-0.085644 0.455976 -0.203430 2.000000
-0.264980 -0.466423 -0.175521 2.000000
-0.004625 0.387544 0.311425 2.000000
-0.263310 -0.362788 -0.342827 2.000000
-0.227832 0.240365 -0.438634 2.000000
-0.131705 -0.491984 -0.075626 2.000000
0.197079 -0.195007 0.455789 2.000000
0.124487 -0.043352 0.493839 2.000000
0.156449 -0.487967 0.095312 2.000000
-0.116052 0.472933 -0.160082 2.000000
0.284015 0.220325 0.444829 1.000000
-0.219150 0.436156 -0.243568 2.000000
0.036117 0.242599 -0.437353 2.000000
-0.276474 -0.286844 0.404778 2.000000
0.137353 0.299726 0.396094 2.000000
0.166159 -0.303346 -0.396744 2.000000
0.002058 0.460721 -0.192858 2.000000
-0.250315 0.088835 0.487881 2.000000
-0.170470 -0.489523 -0.091496 2.000000
-0.024973 0.372895 0.328497 2.000000
0.194060 0.323466 -0.381184 2.000000
0.136431 -0.058614 0.492391 2.000000
-0.152723 -0.418689 0.266790 2.000000
0.194890 0.455140 0.201349 2.000000
-0.018114 0.280648 -0.413898 2.000000
0.092768 0.149091 0.473090 2.000000
0.013601 0.185634 0.460198 2.000000
0.084196 0.279482 0.410352 2.000000
-0.264219 0.013249 -0.499966 2.000000
0.015696 0.488196 0.098368 2.000000
-0.000662 -0.481658 0.122525 2.000000
-0.131953 -0.035129 0.494505 2.000000
-0.244074 -0.486503 0.102139 2.000000
-0.012776 0.122885 -0.484958 2.000000
0.162483 0.416306 -0.276476 2.000000
0.003426 0.416468 0.271545 2.000000
-0.014748 0.324569 -0.380237 2.000000
0.060991 0.462974 0.182559 2.000000
0.009208 -0.405094 0.286690 2.000000
-0.238646 -0.447188 0.216317 2.000000
-0.011776 -0.493789 0.058298 2.000000
0.058996 0.455251 0.201082 2.000000
0.120961 0.227586 -0.445393 2.000000
-0.130013 0.286054 0.405755 2.000000
-0.018903 -0.459370 -0.193099 2.000000
-0.156948 -0.407732 -0.287580 2.000000
-0.180303 -0.313091 0.384853 2.000000
-0.179653 0.369122 -0.336945 2.000000
0.040436 -0.334909 -0.370195 2.000000
-0.102888 0.474172 -0.156024 2.000000
-0.270812 -0.494336 -0.059364 2.000000
-0.159481 0.248452 0.429844 2.000000
0.095973 0.470884 0.161206 2.000000
0.040244 -0.048636 -0.497703 2.000000
0.108389 0.472436 -0.161713 2.000000
-0.058719 0.074369 -0.494614 2.000000
-0.166791 0.470412 0.162574 2.000000
0.246399 0.498633 -0.009259 2.000000
0.169145 -0.463342 -0.183571 2.000000
0.132727 0.114237 -0.487099 2.000000
0.094770 0.482622 -0.127137 2.000000
0.257639 -0.102205 0.485052 2.000000
-0.154958 0.489574 0.091794 2.000000
-0.183105 0.498618 -0.006982 2.000000
-0.266421 -0.389722 -0.311700 2.000000
-0.228562 0.266059 0.419111 2.000000
0.251749 0.470723 0.161674 2.000000
-0.215328 0.304782 0.392062 2.000000
-0.270961 0.004978 0.495923 2.000000
-0.215141 -0.154557 0.471063 2.000000
0.029332 0.056747 -0.497163 2.000000
-0.274153 0.195783 0.455972 2.000000
0.104202 -0.484179 -0.117005 2.000000
-0.264548 0.495107 0.056764 2.000000
-0.031158 0.453598 0.204869 2.000000
-0.131105 0.447150 0.217954 2.000000
0.226298 0.471485 0.159464 2.000000
0.035794 -0.075304 0.489977 2.000000
0.008987 0.075509 0.490175 2.000000
-0.231422 0.131850 -0.482483 2.000000
0.119274 0.470279 -0.167601 2.000000
-0.255926 0.430706 -0.253114 2.000000
0.067384 -0.290755 0.401831 2.000000
-0.217914 0.495995 -0.051730 2.000000
-0.227418 0.160612 -0.473681 2.000000
0.113198 -0.153507 0.471425 2.000000
0.152325 -0.354194 -0.351654 2.000000
0.138166 0.223344 0.443239 2.000000
0.253750 -0.406068 0.285297 2.000000
0.121961 0.415033 0.273719 2.000000
0.224718 -0.247985 -0.433858 2.000000
-0.013378 -0.228971 -0.444091 2.000000
0.170698 -0.446492 0.217638 2.000000
0.148934 -0.491982 -0.075637 2.000000
-0.192089 0.262456 -0.425909 2.000000
-0.222930 0.475887 -0.150401 2.000000
-0.005306 -0.367206 0.333576 2.000000
-0.013024 0.035338 -0.498925 2.000000
-0.154314 -0.297991 -0.401014 2.000000
-0.128564 0.478291 0.138316 2.000000
-0.163763 0.086584 -0.492847 2.000000
0.014594 0.347987 0.354729 2.000000
0.242725 0.387560 -0.315465 2.000000
-0.090441 0.351607 -0.355309 2.000000
0.202545 -0.464547 0.175790 2.000000
-0.088964 -0.013945 -0.499967 2.000000
0.191324 -0.289183 0.403017 2.000000
0.283457 0.478448 -0.142007 1.000000
-0.133901 -0.439171 -0.236403 2.000000
0.115846 -0.083380 -0.492997 2.000000
-0.116836 -0.429888 0.248420 2.000000
0.054919 -0.255520 -0.429264 2.000000
0.200354 -0.473922 0.149131 2.000000
-0.128227 0.100406 0.485889 2.000000
-0.286898 -0.329877 0.370450 4.000000
-0.113809 -0.132292 -0.482256 2.000000
0.191069 0.133021 0.477993 2.000000
0.006320 0.496742 -0.044814 2.000000
-0.244325 -0.347317 0.354135 2.000000
-0.118836 -0.491020 -0.082287 2.000000
-0.074479 0.020830 0.495351 2.000000
0.220412 -0.328794 0.371380 2.000000
-0.226666 -0.466990 0.169280 2.000000
0.085825 -0.177283 0.463178 2.000000
0.233819 -0.487035 0.099900 2.000000
-0.236152 0.096243 -0.490869 2.000000
-0.242543 -0.320088 0.378850 2.000000
0.158237 0.128219 0.479280 2.000000
-0.035898 0.496199 0.045748 2.000000
0.214690 0.405190 -0.292371 2.000000
0.111468 -0.337296 0.363890 2.000000
0.095973 -0.089905 0.487629 2.000000
0.015043 -0.488082 -0.098375 2.000000
-0.053110 -0.030786 0.494857 2.000000
-0.144943 -0.463333 0.179027 2.000000
-0.129672 -0.328105 0.371971 2.000000
-0.014247 -0.471988 0.155467 2.000000
0.179611 -0.099166 -0.490280 2.000000
0.233301 0.488803 -0.100765 2.000000
-0.074479 0.237313 0.435884 2.000000
0.124513 -0.011191 -0.500091 2.000000
-0.024734 -0.220768 -0.448409 2.000000
-0.216647 0.297490 -0.401877 2.000000
0.063677 -0.339562 -0.365980 2.000000
-0.136181 -0.378978 0.320578 2.000000
-0.117119 -0.479484 0.130902 2.000000
-0.093426 -0.036133 -0.498972 2.000000
-0.286930 -0.463259 0.179224 4.000000
-0.167583 -0.263872 0.419943 2.000000
-0.121858 0.381702 -0.322812 2.000000
0.262829 0.228792 -0.444799 2.000000
-0.187171 0.144525 0.474483 2.000000
-0.095553 -0.399291 0.294987 2.000000
0.061755 -0.193956 -0.460685 2.000000
0.229801 0.040046 0.494388 2.000000
-0.107818 0.485465 -0.115171 2.000000
-0.008554 -0.490291 -0.087324 2.000000
-0.143457 -0.405092 0.286692 2.000000
0.166074 -0.119431 0.481275 2.000000
-0.135913 0.048727 -0.497840 2.000000
-0.029436 -0.495445 -0.046765 2.000000
-0.093307 -0.139219 -0.480143 2.000000
-0.217114 0.208308 -0.454892 2.000000
-0.168706 0.381369 -0.323230 2.000000
-0.007657 -0.496166 -0.037869 2.000000
-0.064848 -0.060404 0.492132 2.000000
0.282582 0.455012 0.201656 1.000000
0.248099 -0.076190 0.489849 2.000000
-0.240208 -0.294660 0.398885 2.000000
-0.137175 0.325366 0.375413 2.000000
-0.188026 0.404883 0.288610 2.000000
0.235157 0.455546 0.200374 2.000000
0.124562 0.314356 -0.389000 2.000000
-0.128812 0.051422 0.493159 2.000000
0.052252 -0.491224 -0.080873 2.000000
0.241162 -0.262869 0.420606 2.000000
0.286809 0.180416 0.462156 1.000000
-0.049413 -0.447024 -0.220483 2.000000
0.148051 0.102642 -0.489529 2.000000
-0.125664 -0.415915 -0.275185 2.000000
-0.016789 -0.450543 0.208900 2.000000
0.120587 -0.316503 0.381926 2.000000
0.183224 0.094410 0.486921 2.000000
0.116920 -0.059228 0.492302 2.000000
0.284372 -0.125805 0.479515 1.000000
-0.183061 0.486937 0.104378 2.000000
0.272498 -0.351440 0.350120 2.000000
0.104457 0.239129 -0.439343 2.000000
0.009905 0.119682 0.481309 2.000000
-0.265479 -0.246774 0.430018 2.000000
-0.053465 0.332916 0.368575 2.000000
-0.002126 0.205234 -0.456306 2.000000
-0.131849 -0.156142 -0.474979 2.000000
0.137446 -0.441722 -0.231242 2.000000
-0.264355 -0.309569 0.387637 2.000000
-0.087810 0.411690 -0.283078 2.000000
-0.194786 0.135312 0.477294 2.000000
-0.127370 0.085963 -0.492936 2.000000
-0.186402 0.151805 -0.476719 2.000000
-0.152620 0.288815 0.403824 2.000000
0.096109 -0.048871 0.493392 2.000000
-0.062546 -0.457046 0.194409 2.000000
0.286824 0.288301 -0.408809 1.000000
-0.037309 -0.349498 0.352011 2.000000
-0.199722 -0.202858 0.452516 2.000000
-0.236713 -0.419813 0.264947 2.000000
0.082527 -0.497304 -0.013406 2.000000
-0.279209 0.198976 -0.458915 2.000000
0.159228 -0.451022 -0.212370 2.000000
-0.179170 -0.289567 0.402728 2.000000
-0.116628 0.245438 -0.435725 2.000000
-0.081423 0.471032 0.160777 2.000000
0.231447 -0.402696 -0.294504 2.000000
0.005553 0.270015 -0.420918 2.000000
-0.193599 0.133244 -0.482098 2.000000
0.243115 -0.103104 -0.489358 2.000000
0.234303 0.012946 -0.499972 2.000000
-0.061261 -0.047013 0.493542 2.000000
-0.096476 0.225664 0.442018 2.000000
0.106227 -0.480054 0.129033 2.000000
0.103653 -0.033495 0.494638 2.000000
0.110667 -0.408124 0.282358 2.000000
-0.002295 -0.452688 0.204122 2.000000
0.270982 -0.490660 0.079672 2.000000
-0.089686 -0.497399 -0.008128 2.000000
0.086557 0.023732 -0.499777 2.000000
0.245571 0.099267 -0.490236 2.000000
0.010541 0.155604 0.471103 2.000000
0.004000 0.497563 -0.033131 2.000000
0.040569 -0.491404 -0.079632 2.000000
-0.024239 0.431904 0.246511 2.000000
0.119359 -0.327342 0.372625 2.000000
-0.002739 -0.309278 0.387857 2.000000
-0.016893 0.292350 0.401352 2.000000
0.014408 -0.026546 0.495201 2.000000
0.239986 0.201216 -0.457981 2.000000
0.116831 -0.374800 0.325191 2.000000
-0.024722 0.375364 -0.330053 2.000000
-0.003057 0.084784 -0.493107 2.000000
-0.276273 0.114188 0.482614 2.000000
0.172043 -0.451510 0.206747 2.000000
-0.091169 -0.410597 -0.283240 2.000000
0.172677 -0.485567 0.106077 2.000000
-0.106848 -0.219826 -0.448906 2.000000
-0.289234 -0.011572 -0.500073 4.000000
0.038500 -0.473400 -0.155295 2.000000
-0.031295 0.282794 -0.412481 2.000000
0.150937 -0.467707 -0.171800 2.000000
0.068056 0.466282 0.174548 2.000000
0.061726 0.347223 -0.359577 2.000000
-0.004835 0.348816 -0.358026 2.000000
0.104589 0.304975 -0.396230 2.000000
0.186934 0.245204 0.431729 2.000000
-0.064671 0.462783 -0.187578 2.000000
0.285398 -0.296624 -0.401999 1.000000
0.256808 -0.483887 0.113148 2.000000
0.006398 0.319554 -0.384540 2.000000
0.025303 0.477049 0.142818 2.000000
-0.118638 -0.470001 -0.165148 2.000000
0.168946 0.322136 -0.382325 2.000000
0.199860 -0.238304 -0.439176 2.000000
-0.000187 -0.497176 0.014562 2.000000
-0.155958 -0.481865 0.121655 2.000000
0.134552 0.051693 -0.497600 2.000000
-0.206438 -0.145008 -0.478377 2.000000
0.069678 0.368758 0.333319 2.000000
-0.012838 -0.235276 0.436611 2.000000
-0.035479 -0.357649 -0.348106 2.000000
-0.141599 -0.481060 0.125042 2.000000
0.094955 0.433745 -0.248128 2.000000
-0.266137 0.436332 0.238788 2.000000
-0.131053 -0.404267 0.287872 2.000000
0.210375 -0.043089 0.493860 2.000000
0.167271 0.481367 -0.132415 2.000000
0.257911 -0.352851 -0.353034 2.000000
0.174846 -0.016023 0.495544 2.000000
-0.180515 0.200984 0.453638 2.000000
-0.246786 0.117544 -0.486407 2.000000
0.235958 -0.253542 -0.430469 2.000000
-0.061731 -0.122292 -0.484798 2.000000
0.142129 0.496478 0.042303 2.000000
0.063974 0.106921 0.484341 2.000000
-0.074130 -0.422261 0.260932 2.000000
0.162540 -0.417878 0.268121 2.000000
-0.057293 0.165927 0.467593 2.000000
-0.164668 -0.041820 0.493963 2.000000
-0.246942 0.418806 0.268005 2.000000
-0.119998 0.271111 0.416030 2.000000
0.269365 0.153100 0.471867 2.000000
0.120361 -0.234123 0.437272 2.000000
-0.015180 -0.211261 -0.452920 2.000000
-0.039665 -0.442591 -0.229478 2.000000
-0.084055 0.242393 0.433210 2.000000
-0.267753 0.299276 0.396453 2.000000
-0.032646 -0.384156 -0.318533 2.000000
0.198400 -0.460374 0.186912 2.000000
0.198526 -0.267234 -0.422122 2.000000
-0.105687 0.095300 0.486768 2.000000
-0.246583 0.030786 -0.499294 2.000000
-0.224604 -0.482061 0.120829 2.000000
0.208714 0.230759 -0.443829 2.000000
-0.277631 0.305078 0.391826 2.000000
0.021927 0.424692 0.259085 2.000000
-0.156179 -0.180391 0.461882 2.000000
-0.279996 0.343682 0.358823 2.000000
0.046331 0.404740 0.288799 2.000000
0.203047 0.488198 0.098358 2.000000
0.064157 -0.470087 -0.164899 2.000000
-0.214437 -0.480894 0.125741 2.000000
0.026729 0.027479 0.495052 2.000000
-0.290078 -0.008794 0.495675 4.000000
-0.079590 0.366080 -0.340304 2.000000
0.092140 -0.493469 0.061264 2.000000
0.066483 0.266609 -0.423167 2.000000
-0.119744 -0.109029 0.483623 2.000000
0.149252 -0.231914 -0.442541 2.000000
0.034598 -0.053845 0.492989 2.000000
0.003274 -0.055960 0.492775 2.000000
-0.165487 -0.424780 -0.261498 2.000000
0.241494 -0.090643 -0.491747 2.000000
-0.188066 0.311054 0.387062 2.000000
-0.242911 0.171956 -0.469768 2.000000
-0.268575 -0.454479 0.200131 2.000000
-0.211399 0.018427 -0.499873 2.000000
0.050313 0.021549 -0.499817 2.000000
-0.047694 -0.384725 -0.317869 2.000000
0.135328 0.448203 -0.220688 2.000000
0.060580 -0.476985 0.139091 2.000000
-0.139119 0.431498 -0.251814 2.000000
0.230132 -0.478388 -0.138606 2.000000
-0.283655 0.236234 -0.441003 4.000000
0.163686 0.497329 -0.038347 2.000000
0.085116 0.159494 0.469916 2.000000
-0.061242 -0.019170 -0.499733 2.000000
0.065883 -0.491729 0.073465 2.000000
0.025570 0.494089 -0.069363 2.000000
-0.092741 -0.496808 0.022764 2.000000
-0.128276 -0.471734 0.156299 2.000000
-0.081604 0.496483 -0.047214 2.000000
-0.224076 0.430992 -0.252644 2.000000
-0.094353 -0.058246 0.492445 2.000000
0.153085 0.002856 0.495884 2.000000
0.180821 0.109840 0.483648 2.000000
0.042624 -0.390999 -0.310008 2.000000
-0.146396 0.351662 0.350954 2.000000
-0.186086 -0.492951 -0.068936 2.000000
-0.179888 -0.099526 -0.490209 2.000000
-0.078018 -0.088524 -0.492112 2.000000
-0.028399 0.040712 0.494316 2.000000
-0.224643 0.362484 -0.344274 2.000000
0.271879 0.010502 -0.500016 2.000000
-0.001152 -0.473837 0.149409 2.000000
0.184716 0.349310 0.353370 2.000000
0.248656 -0.217373 -0.450177 2.000000
0.050261 0.380300 0.319867 2.000000
0.266170 -0.472429 0.154024 2.000000
0.068161 -0.483985 -0.117931 2.000000
0.231443 -0.236362 -0.440199 2.000000
-0.156576 -0.137090 0.476400 2.000000
-0.049081 -0.188192 0.458630 2.000000
0.241783 0.490099 0.089284 2.000000
-0.276184 -0.359887 0.341656 2.000000
-0.110767 0.074099 -0.494653 2.000000
0.194149 -0.492611 0.068336 2.000000
-0.239975 -0.371219 0.329144 2.000000
-0.235675 0.489110 0.094007 2.000000
-0.191754 -0.491413 -0.079568 2.000000
-0.290156 0.346682 0.356070 4.000000
0.184520 -0.497295 -0.013939 2.000000
0.068707 0.309802 -0.392588 2.000000
0.040577 0.465388 -0.180635 2.000000
0.068948 0.474588 0.150467 2.000000
-0.212012 0.369810 -0.336185 2.000000
0.037871 0.126197 -0.484044 2.000000
0.054764 -0.215233 0.446622 2.000000
-0.035050 -0.430330 -0.251822 2.000000
-0.146472 0.442981 -0.230606 2.000000
0.206159 0.090928 -0.491983 2.000000
-0.240059 -0.160487 -0.473604 2.000000
0.104452 0.067314 0.491441 2.000000
0.196455 0.446297 -0.224308 2.000000
-0.098467 -0.491142 0.076870 2.000000
-0.289602 0.488386 -0.102881 4.000000
-0.256514 -0.450893 -0.212631 2.000000
0.142677 0.335483 0.366250 2.000000
-0.069905 0.299314 0.396423 2.000000
0.050631 0.451395 0.209339 2.000000
-0.172399 -0.052382 0.493107 2.000000
-0.286997 -0.192725 0.456740 4.000000
0.142465 0.383142 -0.321007 2.000000
-0.262338 0.481524 -0.131755 2.000000
0.270656 -0.459972 -0.191655 2.000000
0.161696 -0.496254 -0.036781 2.000000
0.034786 -0.461721 -0.187459 2.000000
0.054021 0.200096 0.454037 2.000000
-0.233670 0.367763 -0.338445 2.000000
0.254413 0.498376 0.006441 2.000000
0.013121 -0.221331 -0.448113 2.000000
0.259436 -0.371524 0.328808 2.000000
0.235402 -0.324163 0.375353 2.000000
0.025753 0.333296 -0.372748 2.000000
0.270841 0.058901 0.492351 2.000000
0.155859 -0.056637 -0.496838 2.000000
0.189519 0.429137 -0.255687 2.000000
-0.061910 0.496487 -0.047171 2.000000
-0.095691 -0.481904 -0.125869 2.000000
-0.210985 -0.496819 0.022513 2.000000
-0.270422 -0.416790 0.269905 2.000000
0.069799 0.432476 -0.250210 2.000000
0.172406 0.497658 0.027744 2.000000
0.039128 0.366161 0.336061 2.000000
-0.106804 0.225848 0.441921 2.000000
-0.007041 -0.456577 -0.199797 2.000000
-0.084127 -0.366576 0.334271 2.000000
-0.261928 0.098067 -0.490487 2.000000
0.113407 -0.457825 0.192674 2.000000
0.180586 0.367238 0.334955 2.000000
-0.096667 0.449327 0.213534 2.000000
-0.081542 -0.466021 -0.176688 2.000000
0.089231 0.421024 0.264644 2.000000
-0.149399 -0.145476 0.474085 2.000000
0.223957 0.436160 -0.243561 2.000000
0.056416 0.000826 -0.500190 2.000000
0.138187 0.435390 -0.245024 2.000000
-0.006513 0.072290 -0.494914 2.000000
0.039251 0.440239 0.231974 2.000000
0.101262 0.165721 -0.471919 2.000000
0.214531 -0.241067 -0.437722 2.000000
0.227297 -0.026508 -0.499404 2.000000
0.062254 0.221631 0.444142 2.000000
-0.020096 0.022432 -0.499801 2.000000
0.219334 0.225064 -0.446635 2.000000
-0.181097 0.497493 0.029778 2.000000
0.113908 0.486881 0.104647 2.000000
0.129019 -0.467704 0.167377 2.000000
-0.257800 -0.159774 -0.473871 2.000000
0.257823 0.452680 0.206730 2.000000
0.073636 -0.435292 -0.243169 2.000000
0.010453 -0.485210 0.107581 2.000000
-0.080702 0.453980 0.204092 2.000000
0.168673 0.105756 -0.488876 2.000000
0.205612 -0.486780 -0.104589 2.000000
-0.042966 0.323631 0.376984 2.000000
-0.037531 -0.441202 0.227684 2.000000
0.097821 -0.491169 0.076714 2.000000
-0.115542 0.497105 -0.041450 2.000000
-0.141934 -0.491273 -0.080537 2.000000
-0.106241 -0.409628 -0.284708 2.000000
-0.111191 0.352516 0.350077 2.000000
-0.070164 -0.495900 0.038766 2.000000
0.194326 0.331766 0.369617 2.000000
-0.001798 -0.497097 -0.024907 2.000000
0.048692 -0.139169 -0.480158 2.000000
-0.239926 0.029413 0.494966 2.000000
0.047733 0.458832 -0.197066 2.000000
0.023388 0.470097 -0.168085 2.000000
-0.202193 0.371699 -0.334099 2.000000
-0.125909 0.288598 -0.408585 2.000000
0.081161 -0.033552 -0.499088 2.000000
-0.015839 0.336479 -0.370017 2.000000
-0.157445 0.028229 0.495019 2.000000
-0.049597 0.269807 -0.421055 2.000000
0.195290 -0.142429 0.474927 2.000000
0.122965 -0.476828 -0.144258 2.000000
-0.127984 0.475837 -0.150564 2.000000
-0.073023 -0.495341 -0.048045 2.000000
0.134608 -0.495588 0.041654 2.000000
0.209874 -0.300092 -0.399338 2.000000
-0.115021 0.183682 0.460931 2.000000
-0.107680 -0.338780 0.362445 2.000000
0.263618 0.138140 -0.480747 2.000000
0.017800 0.110017 -0.487984 2.000000
-0.050669 -0.478472 0.134217 2.000000
-0.173564 0.063446 0.491859 2.000000
-0.074673 0.400124 -0.299615 2.000000
-0.205689 -0.497423 -0.006801 2.000000
0.239592 0.127381 0.479479 2.000000
-0.289397 0.377595 -0.327591 4.000000
-0.009109 0.170815 -0.470161 2.000000
-0.264555 0.140724 -0.480034 2.000000
0.090399 -0.051145 -0.497432 2.000000
-0.246186 0.498069 -0.021836 2.000000
-0.130337 -0.242271 -0.437088 2.000000
0.027367 0.430735 0.248548 2.000000
0.163101 -0.421163 -0.267235 2.000000
0.250428 -0.184995 0.459963 2.000000
-0.119972 0.298851 0.396792 2.000000
0.035179 -0.141979 -0.479301 2.000000
0.137380 -0.493093 -0.067959 2.000000
0.015527 0.329631 -0.375894 2.000000
0.231350 0.445113 0.222088 2.000000
0.065142 0.497988 -0.023660 2.000000
0.249923 0.493645 -0.072642 2.000000
0.014087 -0.065427 -0.495888 2.000000
-0.259456 -0.456485 -0.200018 2.000000
-0.144326 -0.144098 -0.478654 2.000000
0.147249 0.470613 0.161993 2.000000
-0.272592 0.454874 0.201988 2.000000
0.179246 0.393692 -0.307775 2.000000
0.102859 -0.468072 -0.170741 2.000000
-0.227901 0.441950 0.228506 2.000000
-0.026252 -0.496560 0.028291 2.000000
-0.132115 0.492065 -0.081815 2.000000
0.029128 -0.490749 0.079155 2.000000
-0.144413 0.478855 0.136274 2.000000
-0.247352 -0.225330 -0.446007 2.000000
-0.289700 0.330837 -0.374859 4.000000
-0.220785 -0.234794 -0.441024 2.000000
-0.025619 -0.101131 -0.489827 2.000000
0.019570 -0.496398 0.031902 2.000000
-0.006613 -0.352281 -0.353619 2.000000
0.173718 -0.202853 -0.456693 2.000000
-0.004856 0.337717 -0.368832 2.000000
-0.032237 -0.264452 0.419561 2.000000
-0.164882 -0.420638 0.263593 2.000000
-0.053081 0.044198 -0.498207 2.000000
-0.010731 -0.195329 -0.460069 2.000000
0.107963 -0.497549 0.000198 2.000000
0.261003 -0.263796 0.419994 2.000000
-0.101416 0.109577 0.483710 2.000000
0.227502 -0.134456 0.477128 2.000000
-0.263503 0.257698 0.424207 2.000000
0.009327 0.427199 -0.258866 2.000000
-0.041142 0.257285 0.424459 2.000000
-0.276727 -0.246265 -0.434906 2.000000
-0.203981 -0.463644 0.178196 2.000000
0.219570 0.306255 0.390888 2.000000
0.164704 0.264849 -0.424328 2.000000
-0.090550 -0.329018 0.371187 2.000000
-0.132113 -0.356134 0.345550 2.000000
-0.192666 -0.438841 -0.236978 2.000000
-0.205077 0.353144 0.349432 2.000000
-0.265331 0.439814 -0.236620 2.000000
0.093868 0.117612 -0.486392 2.000000
-0.278093 -0.482147 -0.124989 2.000000
-0.001697 -0.319082 0.379713 2.000000
-0.129991 0.295321 0.399274 2.000000
-0.004846 -0.068561 0.490952 2.000000
0.178411 -0.308307 -0.392788 2.000000
0.206281 0.150408 0.472688 2.000000
-0.021099 0.461269 -0.191610 2.000000
-0.102366 0.307649 -0.394212 2.000000
0.062722 -0.497121 -0.023566 2.000000
0.094281 0.478258 -0.142631 2.000000
-0.286148 0.230511 0.439466 4.000000
-0.185021 0.496588 -0.046236 2.000000
-0.163843 0.093096 0.487148 2.000000
0.216452 -0.392962 -0.307407 2.000000
-0.199390 0.269789 -0.421067 2.000000
-0.115103 0.128744 -0.483340 2.000000
-0.035449 0.001392 0.495858 2.000000
0.176639 0.306523 -0.395062 2.000000
0.194572 0.446793 0.218677 2.000000
0.017142 0.373008 0.328365 2.000000
-0.123027 -0.496942 0.019765 2.000000
0.027315 0.359386 -0.347694 2.000000
-0.148443 0.371511 0.330110 2.000000
-0.047382 0.198755 -0.459007 2.000000
-0.156431 0.186501 0.459873 2.000000
0.186150 0.064111 -0.496098 2.000000
0.039482 -0.413972 0.273995 2.000000
0.044522 0.226075 -0.446137 2.000000
0.016065 0.398077 0.297632 2.000000
-0.026416 0.343015 -0.363674 2.000000
0.134180 0.443442 0.225479 2.000000
-0.028314 -0.304875 -0.395525 2.000000
0.123834 -0.494815 0.048813 2.000000
-0.162809 0.168546 -0.470944 2.000000
0.221916 0.216597 0.446632 2.000000
0.214324 0.485781 0.109897 2.000000
0.167399 0.445494 0.221315 2.000000
0.235485 -0.494823 -0.054444 2.000000
0.026641 0.052410 0.493052 2.000000
-0.183192 -0.495252 -0.049146 2.000000
-0.277948 -0.005339 -0.500301 2.000000
0.044653 0.473626 -0.157813 2.000000
-0.005279 -0.147417 0.473526 2.000000
0.176233 -0.404557 0.287458 2.000000
-0.031846 0.390236 0.308024 2.000000
-0.288597 -0.393097 0.302882 4.000000
0.234209 0.368032 -0.338149 2.000000
0.286877 0.040557 0.494333 1.000000
-0.276320 0.459653 0.190525 2.000000
-0.087454 0.261057 0.422160 2.000000
0.219693 0.019236 -0.499858 2.000000
0.157070 -0.486223 -0.107251 2.000000
0.130064 0.155798 -0.475342 2.000000
-0.285727 -0.304827 -0.395563 4.000000
-0.288339 -0.204992 0.451626 4.000000
-0.106110 -0.386402 -0.315914 2.000000
0.143939 -0.304992 -0.395431 2.000000
-0.094301 -0.288907 -0.407396 2.000000
-0.181661 0.401912 -0.297058 2.000000
-0.099151 -0.094287 0.486711 2.000000
0.222483 -0.308762 0.388246 2.000000
0.001020 0.264587 0.420008 2.000000
0.242759 0.373074 -0.332582 2.000000
-0.163541 0.293145 -0.405154 2.000000
0.277523 0.174174 0.464499 2.000000
0.200486 -0.428635 -0.254776 2.000000
-0.110503 0.288825 0.403817 2.000000
-0.259250 0.412493 -0.281929 2.000000
0.277100 -0.238429 0.434803 2.000000
0.224916 0.106392 -0.488743 2.000000
-0.149731 -0.094939 0.486574 2.000000
-0.024204 0.417709 -0.274433 2.000000
0.022122 -0.198633 0.454277 2.000000
0.206677 0.075541 -0.494444 2.000000
0.042901 0.373234 0.328101 2.000000
-0.192877 0.218196 0.445915 2.000000
-0.144055 0.013870 -0.499955 2.000000
0.068193 -0.319419 -0.383927 2.000000
0.189883 0.001115 -0.500185 2.000000
0.244446 0.086828 -0.492811 2.000000
-0.048789 -0.221479 0.443544 2.000000
0.048240 -0.023105 -0.499556 2.000000
-0.287881 0.438816 0.234456 4.000000
-0.255871 -0.354041 0.347588 2.000000
0.273590 0.119801 -0.485809 2.000000
0.081616 -0.000372 -0.500212 2.000000
-0.225065 -0.149355 0.472857 2.000000
-0.096804 0.242149 -0.437611 2.000000
0.118932 0.361482 0.340868 2.000000
0.035407 -0.461337 0.184345 2.000000
-0.034603 -0.474702 0.146572 2.000000
-0.251279 0.310660 -0.391941 2.000000
-0.233853 -0.301212 -0.398446 2.000000
-0.034945 0.272343 -0.419381 2.000000
0.158992 0.400425 0.294518 2.000000
-0.100832 0.462115 -0.189356 2.000000
-0.175376 -0.418472 0.267146 2.000000
0.110471 -0.494308 0.053501 2.000000
0.138784 -0.439158 0.231567 2.000000
0.267834 0.318329 0.381260 2.000000
0.121177 0.196550 0.455628 2.000000
0.112284 0.104516 0.484913 2.000000
-0.160701 -0.493238 0.063405 2.000000
-0.215543 -0.261147 -0.425833 2.000000
-0.197346 0.225389 -0.446476 2.000000
0.257534 -0.002178 -0.500244 2.000000
0.012888 -0.492114 0.071225 2.000000
-0.002995 0.095508 -0.491023 2.000000
0.172184 0.380700 0.319401 2.000000
0.251419 -0.243478 0.431908 2.000000
0.081072 -0.340744 0.360534 2.000000
-0.099612 -0.129760 -0.483024 2.000000
0.204459 0.042574 -0.498339 2.000000
0.164939 0.062738 0.491936 2.000000
-0.014811 -0.464224 -0.181457 2.000000
-0.255934 -0.444056 0.222265 2.000000
-0.039304 0.497522 -0.034042 2.000000
-0.045181 -0.252750 0.426591 2.000000
-0.168824 -0.121899 0.480594 2.000000
-0.247920 0.325914 -0.379084 2.000000
-0.229207 -0.493779 0.058399 2.000000
-0.083994 0.038415 0.494562 2.000000
-0.073995 -0.216313 -0.450653 2.000000
0.173357 0.479544 0.133779 2.000000
-0.109828 0.482577 -0.127325 2.000000
0.119606 -0.497571 0.001415 2.000000
0.126919 0.104542 -0.489130 2.000000
0.245252 0.420191 -0.270361 2.000000
0.048225 -0.418470 0.267151 2.000000
-0.020099 -0.437100 0.235475 2.000000
0.201746 -0.011508 -0.500076 2.000000
-0.202213 -0.175930 -0.467809 2.000000
0.056471 0.480847 -0.134146 2.000000
-0.164643 0.478238 -0.142698 2.000000
0.149163 0.317077 -0.386666 2.000000
0.133555 -0.489115 0.088644 2.000000
-0.064071 0.436963 0.237688 2.000000
0.117275 -0.446854 0.216950 2.000000
-0.117574 -0.406051 0.285322 2.000000
0.117378 -0.203598 0.452207 2.000000
0.049262 0.410892 0.279992 2.000000
-0.078830 -0.060732 0.492085 2.000000
-0.206943 -0.179005 0.462460 2.000000
-0.171593 0.461774 -0.190266 2.000000
0.257064 -0.180893 -0.465946 2.000000
0.144265 -0.487181 -0.102674 2.000000
0.053742 0.208749 -0.454675 2.000000
0.233577 0.053581 0.492926 2.000000
-0.115297 -0.496657 -0.031808 2.000000
-0.150902 0.330450 0.370808 2.000000
0.140781 0.497386 -0.037078 2.000000
0.086958 -0.480863 -0.129643 2.000000
0.112623 0.498088 0.022429 2.000000
0.139389 -0.399944 -0.298152 2.000000
-0.289400 0.282212 -0.412866 4.000000
-0.232681 -0.121032 -0.485098 2.000000
-0.005341 0.306598 -0.395005 2.000000
0.213764 0.453989 0.204074 2.000000
-0.170943 0.348591 -0.358245 2.000000
0.225889 0.497172 -0.040830 2.000000
0.190677 -0.295750 -0.402611 2.000000
0.091238 -0.324017 0.375478 2.000000
0.081668 -0.397398 0.297488 2.000000
-0.107716 0.466758 0.173166 2.000000
0.207488 0.480901 -0.133969 2.000000
-0.221328 0.362086 0.340247 2.000000
-0.016427 -0.483306 -0.120791 2.000000
0.263455 -0.418266 0.267484 2.000000
0.156148 0.404739 -0.293016 2.000000
-0.115443 -0.142435 0.474925 2.000000
0.118770 -0.477952 0.135922 2.000000
-0.222180 -0.223624 0.442486 2.000000
-0.002741 0.498546 -0.003009 2.000000
0.229565 0.043723 -0.498245 2.000000
-0.141873 -0.269815 0.416020 2.000000
0.214543 -0.297371 0.396840 2.000000
0.001572 0.480126 -0.136507 2.000000
0.002164 0.409511 -0.286193 2.000000
-0.024199 -0.253401 -0.430556 2.000000
-0.288401 0.456594 0.197861 4.000000
0.146407 -0.497285 -0.014455 2.000000
-0.116647 -0.037088 -0.498929 2.000000
-0.072249 0.495663 -0.054797 2.000000
0.118966 -0.497255 -0.016139 2.000000
-0.053519 0.353733 0.348827 2.000000
-0.105949 0.282660 -0.412570 2.000000
-0.044823 -0.029762 -0.499258 2.000000
0.195395 0.374319 0.326838 2.000000
-0.115041 0.076163 0.490063 2.000000
-0.118984 0.046654 0.493674 2.000000
0.058636 -0.496361 0.032734 2.000000
0.132249 -0.096211 0.486308 2.000000
-0.025795 0.236939 -0.440598 2.000000
0.174772 -0.273831 -0.417940 2.000000
-0.241990 -0.142475 -0.479149 2.000000
0.218592 -0.162666 -0.472786 2.000000
0.260665 0.480290 0.131078 2.000000
-0.213095 0.105426 0.484697 2.000000
-0.079871 -0.450602 -0.213221 2.000000
-0.289611 -0.103478 -0.489270 4.000000
-0.171701 0.209677 -0.454218 2.000000
-0.097297 -0.380824 -0.322416 2.000000
-0.210999 0.360471 0.341906 2.000000
0.207756 -0.089926 0.487624 2.000000
-0.186540 0.109064 -0.488183 2.000000
0.077156 0.269914 -0.420985 2.000000
-0.094175 -0.024824 -0.499479 2.000000
0.027040 0.255432 -0.429994 2.000000
-0.190368 -0.463405 0.178835 2.000000
-0.275790 0.438676 0.234701 2.000000
0.084162 -0.108523 0.483729 2.000000
0.183518 -0.136715 0.476504 2.000000
0.286234 0.183941 -0.465183 1.000000
-0.073019 0.217535 -0.450346 2.000000
0.006689 -0.433258 0.242774 2.000000
-0.153794 -0.496649 -0.031898 2.000000
-0.150446 -0.488331 -0.097187 2.000000
-0.285597 0.091173 -0.491931 4.000000
-0.255238 -0.024970 -0.499473 2.000000
0.031449 0.431800 -0.251319 2.000000
0.010223 0.458996 0.192099 2.000000
0.023011 0.390591 0.307555 2.000000
-0.012177 -0.407209 -0.288372 2.000000
-0.115636 0.497642 0.027939 2.000000
0.100311 0.022891 -0.499792 2.000000
-0.042080 0.431001 0.248084 2.000000
0.200543 0.247167 0.430627 2.000000
-0.289247 0.478740 0.136691 4.000000
-0.028175 -0.462063 -0.186638 2.000000
-0.284501 -0.284979 -0.410143 4.000000
-0.218620 0.394225 0.302737 2.000000
-0.140284 -0.361250 0.340151 2.000000
0.001267 -0.415500 -0.275813 2.000000
0.256855 0.390128 0.308168 2.000000
0.256620 0.431588 0.247061 2.000000
-0.172501 0.469724 -0.169079 2.000000
0.248685 -0.035268 0.494494 2.000000
-0.089949 0.489534 0.091981 2.000000
-0.211267 0.171946 0.465335 2.000000
-0.084070 0.190238 0.458460 2.000000
-0.024080 -0.395279 -0.304335 2.000000
-0.203309 -0.007007 -0.500278 2.000000
0.151456 -0.364337 0.336743 2.000000
0.157537 0.140783 0.475625 2.000000
0.236243 -0.379902 0.319431 2.000000
-0.166105 0.220758 0.444601 2.000000
0.061011 0.483866 -0.121903 2.000000
-0.221059 0.497559 0.028969 2.000000
0.205345 -0.496557 -0.033042 2.000000
-0.197972 -0.493452 0.061420 2.000000
0.209969 0.162619 0.468835 2.000000
-0.178470 0.380830 0.319249 2.000000
0.051807 0.246503 0.431033 2.000000
-0.212224 0.290800 0.402436 2.000000
-0.044812 -0.445392 0.219728 2.000000
0.063717 -0.207705 0.450331 2.000000
0.199776 -0.257966 0.423600 2.000000
-0.288771 0.492751 0.073051 4.000000
-0.105314 0.183614 -0.465319 2.000000
-0.078385 -0.482037 -0.125388 2.000000
0.087108 0.488741 -0.101126 2.000000
-0.130262 0.152210 -0.476579 2.000000
0.059762 0.256728 -0.429250 2.000000
0.268834 -0.457094 0.194302 2.000000
-0.238610 0.440431 0.231589 2.000000
0.257999 0.468800 -0.171540 2.000000
0.106951 0.329813 0.371385 2.000000
-0.136794 0.214250 0.447685 2.000000
-0.213720 -0.216053 0.446217 2.000000
0.042583 0.136060 -0.481321 2.000000
0.093381 0.237222 -0.440436 2.000000
-0.126388 0.132166 0.478254 2.000000
-0.059724 0.413322 -0.280743 2.000000
0.231517 0.400747 0.294092 2.000000
-0.149029 0.487474 -0.106719 2.000000
-0.228122 -0.291765 -0.405398 2.000000
-0.243251 0.139580 0.475992 2.000000
-0.092284 -0.476907 0.139345 2.000000
0.158371 -0.372335 0.327912 2.000000
0.139297 -0.495961 -0.040396 2.000000
0.279873 0.159951 0.469776 2.000000
-0.184458 0.473235 0.154391 2.000000
0.086117 -0.485542 0.106184 2.000000
-0.124872 0.062554 0.491956 2.000000
0.100806 0.050505 -0.497696 2.000000
0.085144 -0.049030 0.493379 2.000000
-0.250537 0.345860 -0.360903 2.000000
0.101826 0.492693 0.073451 2.000000
-0.259673 -0.474852 0.146081 2.000000
-0.191053 0.497797 -0.027898 2.000000
-0.255621 -0.362851 0.338384 2.000000
-0.225019 -0.481068 -0.128898 2.000000
0.273430 -0.250444 0.427913 2.000000
0.160639 0.484232 -0.120362 2.000000
-0.048735 0.305459 -0.395864 2.000000
0.204644 0.168206 -0.471061 2.000000
0.008097 0.175166 0.464126 2.000000
0.243047 -0.039209 -0.498721 2.000000
0.241349 -0.064376 -0.496002 2.000000
-0.145198 -0.156062 0.470543 2.000000
-0.277182 0.427711 -0.258027 2.000000
0.176739 -0.310403 0.387008 2.000000
-0.028839 0.452272 -0.211685 2.000000
0.040116 0.379205 -0.325813 2.000000
-0.106853 -0.381899 0.316926 2.000000
-0.175492 -0.067486 -0.495666 2.000000
0.218305 0.095242 -0.491079 2.000000
-0.061913 -0.444885 -0.224823 2.000000
0.190625 0.486697 -0.109988 2.000000
-0.037569 -0.068538 0.490956 2.000000
-0.113859 0.216550 -0.450831 2.000000
0.198739 -0.455385 0.198111 2.000000
0.145030 -0.434543 0.240333 2.000000
-0.285131 -0.484328 -0.116292 4.000000
-0.206062 0.257486 -0.428816 2.000000
0.033165 -0.316933 0.381557 2.000000
-0.133912 0.447751 -0.221548 2.000000
0.160912 0.477775 0.140186 2.000000
-0.173713 -0.490160 0.082575 2.000000
-0.123515 -0.062468 -0.496208 2.000000
-0.192748 0.461796 0.185384 2.000000
-0.123868 0.278648 -0.415218 2.000000
0.258288 0.056123 0.492651 2.000000
0.227698 0.475669 0.147335 2.000000
-0.076394 0.491475 -0.085243 2.000000
0.004921 0.469501 -0.169673 2.000000
0.200251 -0.143153 -0.478942 2.000000
-0.059424 0.466835 -0.176778 2.000000
0.019339 0.498426 -0.013882 2.000000
0.049319 0.474928 0.149483 2.000000
0.239207 -0.192555 -0.461314 2.000000
-0.136233 -0.228509 -0.444334 2.000000
0.096458 -0.437258 0.235175 2.000000
0.004199 -0.247162 0.429796 2.000000
0.039228 0.037855 0.494587 2.000000
-0.288463 0.418614 0.268295 4.000000
-0.224235 -0.422400 0.260704 2.000000
0.020533 -0.379998 -0.323378 2.000000
-0.102708 -0.125745 0.479532 2.000000
-0.011845 -0.157629 -0.474526 2.000000
0.282570 -0.309915 0.387376 1.000000
0.074446 -0.379939 -0.323447 2.000000
0.110340 -0.449557 -0.215341 2.000000
0.048368 0.443639 -0.229357 2.000000
-0.084889 0.190663 -0.462381 2.000000
-0.253660 -0.307882 -0.393127 2.000000
0.023050 -0.045334 0.493678 2.000000
0.116118 0.143811 0.474701 2.000000
0.224332 -0.427183 -0.257309 2.000000
0.182352 0.109469 -0.488098 2.000000
-0.218584 -0.362424 0.338855 2.000000
0.179162 0.201862 0.453244 2.000000
-0.123694 -0.151885 0.471985 2.000000
0.008652 -0.447258 0.216183 2.000000
0.267070 0.420551 0.265360 2.000000
0.169339 0.426232 0.256400 2.000000
-0.141003 0.024717 -0.499760 2.000000
0.063439 0.338376 -0.368190 2.000000
-0.065669 -0.196998 -0.459320 2.000000
-0.057233 -0.235642 0.436401 2.000000
-0.020227 -0.028730 -0.499304 2.000000
-0.271874 0.178834 -0.467312 2.000000
0.272265 0.127562 0.479436 2.000000
0.063501 -0.430516 0.247391 2.000000
-0.008667 0.160040 -0.473878 2.000000
0.120759 0.162308 -0.473096 2.000000
-0.130452 -0.460796 0.185787 2.000000
-0.071563 -0.489463 -0.091781 2.000000
0.060500 0.369941 -0.336041 2.000000
0.143963 0.285143 0.406392 2.000000
0.234383 -0.220744 -0.448422 2.000000
-0.186176 0.029328 -0.499412 2.000000
0.114179 0.188363 -0.463339 2.000000
0.004596 0.498292 0.011118 2.000000
0.260502 0.265002 0.419755 2.000000
0.039869 0.487495 0.101718 2.000000
-0.108412 -0.364668 0.336377 2.000000
0.084778 0.050019 -0.497735 2.000000
-0.230542 0.468895 -0.171287 2.000000
-0.289679 0.433187 -0.249043 4.000000
0.166609 0.178377 0.462921 2.000000
0.256000 0.228702 0.440418 2.000000
-0.284216 0.116613 -0.486602 4.000000
0.030596 -0.495787 0.039818 2.000000
-0.166697 0.116138 -0.486701 2.000000
0.087220 0.407692 -0.288793 2.000000
-0.189510 0.260190 0.422688 2.000000
-0.162499 -0.061994 -0.496259 2.000000
0.025327 0.204190 -0.456741 2.000000
-0.172684 -0.492477 0.069114 2.000000
-0.129527 -0.496319 -0.035971 2.000000
0.148994 0.293948 0.400234 2.000000
0.262186 0.494595 -0.064679 2.000000
-0.160691 0.071265 -0.495063 2.000000
-0.239332 0.422335 -0.266845 2.000000
0.094284 -0.171195 0.465323 2.000000
-0.057927 0.309568 -0.392765 2.000000
0.110877 -0.492742 0.067576 2.000000
0.114768 0.437807 -0.240433 2.000000
0.089090 0.467692 -0.174495 2.000000
-0.249184 -0.338520 0.362699 2.000000
-0.190994 0.377596 -0.327589 2.000000
-0.011155 -0.418070 -0.271920 2.000000
0.016708 -0.435301 0.238893 2.000000
0.132873 0.161852 0.469122 2.000000
0.057018 -0.277320 -0.415500 2.000000
-0.090425 0.495021 -0.060735 2.000000
-0.197152 0.451252 0.209628 2.000000
0.018639 -0.490842 -0.083518 2.000000
0.039129 -0.469956 -0.165281 2.000000
0.131186 -0.253906 -0.430248 2.000000
-0.253988 0.397398 -0.303128 2.000000
0.175163 0.400255 0.294744 2.000000
-0.146633 0.054243 -0.497393 2.000000
0.164327 0.498460 0.001778 2.000000
0.045372 -0.465626 -0.177832 2.000000
0.163028 -0.233693 -0.441604 2.000000
0.227838 -0.488871 0.090061 2.000000
-0.163091 -0.468552 -0.169350 2.000000
-0.134579 -0.493968 -0.061909 2.000000
0.140867 -0.263073 0.420471 2.000000
0.272811 0.303048 0.393445 2.000000
-0.119036 -0.075512 -0.494352 2.000000
0.118576 -0.314595 -0.387774 2.000000
0.052587 0.021330 0.495328 2.000000
0.285526 0.481257 0.127574 1.000000
-0.093696 0.435918 -0.244020 2.000000
0.221987 -0.025124 0.495316 2.000000
-0.234268 -0.426373 0.254187 2.000000
0.111955 -0.422344 0.260796 2.000000
0.208896 -0.361731 0.339620 2.000000
-0.226843 0.202613 0.452907 2.000000
-0.161456 0.405799 -0.291501 2.000000
0.103937 0.120267 0.481170 2.000000
-0.088206 -0.468988 -0.168084 2.000000
0.029579 -0.002251 0.495792 2.000000
-0.060951 0.145558 -0.478699 2.000000
-0.240423 -0.494013 0.056232 2.000000
-0.025103 -0.015531 0.495553 2.000000
0.118700 -0.203730 -0.456300 2.000000
0.107865 0.315250 -0.388234 2.000000
-0.268093 0.489726 -0.095403 2.000000
-0.119070 0.112748 0.482957 2.000000
0.229890 -0.272702 0.414114 2.000000
-0.224367 0.351819 0.350793 2.000000
-0.051209 -0.043931 0.493792 2.000000
0.284910 0.441589 -0.233251 1.000000
0.117113 0.198511 -0.459109 2.000000
0.049615 0.438162 -0.239758 2.000000
-0.068064 0.326626 0.374272 2.000000
-0.145452 0.203306 0.452596 2.000000
0.156645 0.487220 -0.107786 2.000000
-0.021233 0.489332 -0.097693 2.000000
0.132513 -0.398165 0.296527 2.000000
0.265013 0.498461 0.001696 2.000000
-0.119176 -0.497616 0.004746 2.000000
0.219950 0.137518 -0.480918 2.000000
-0.011019 0.151169 0.472456 2.000000
-0.080079 -0.314005 -0.388245 2.000000
0.113637 0.043763 -0.498242 2.000000
0.044549 0.053574 -0.497447 2.000000
-0.269742 -0.440992 0.228084 2.000000
-0.160084 0.307132 0.390188 2.000000
0.209099 0.182896 0.461226 2.000000
-0.093553 0.325963 -0.379041 2.000000
-0.055826 0.402023 0.292400 2.000000
0.203448 0.461876 0.185192 2.000000
0.012108 0.483339 0.120030 2.000000
-0.125496 0.393881 -0.307538 2.000000
0.235421 0.223130 -0.447588 2.000000
0.075422 -0.395805 -0.303638 2.000000
-0.038604 -0.474324 -0.152617 2.000000
0.088862 -0.482960 0.117048 2.000000
0.086951 0.322602 0.377853 2.000000
-0.116184 0.355288 -0.351725 2.000000
-0.198511 0.496418 0.043047 2.000000
0.076795 -0.182306 0.461084 2.000000
-0.044254 0.486606 -0.110370 2.000000
0.047763 0.424525 -0.263252 2.000000
0.200398 0.296101 -0.402925 2.000000
-0.200439 -0.247368 0.429677 2.000000
0.057398 0.425074 0.258421 2.000000
-0.249371 0.053421 0.492943 2.000000
-0.206270 0.332392 -0.373525 2.000000
0.146953 -0.495475 0.042702 2.000000
0.216708 0.462514 0.183661 2.000000
0.046245 0.436319 0.238810 2.000000
-0.235460 -0.469837 -0.165623 2.000000
-0.247967 0.474937 -0.153516 2.000000
0.152640 0.335969 -0.370455 2.000000
-0.188486 -0.495869 0.039058 2.000000
-0.240740 -0.364400 -0.341171 2.000000
-0.279192 0.451106 -0.214285 2.000000
-0.075132 0.351813 0.350799 2.000000
-0.041518 0.498477 0.000816 2.000000
0.236860 -0.273528 -0.418152 2.000000
-0.145300 -0.452008 -0.210367 2.000000
-0.259401 0.453513 0.205039 2.000000
0.102399 0.466771 0.173129 2.000000
0.001165 0.348751 0.353945 2.000000
0.072402 -0.461476 0.183976 2.000000
-0.225455 -0.037492 0.494314 2.000000
0.044471 0.403248 -0.295148 2.000000
0.148300 -0.190952 -0.462033 2.000000
-0.206856 -0.370236 0.330230 2.000000
0.114820 0.237835 -0.440085 2.000000
-0.289644 -0.465346 -0.178644 4.000000
0.055793 -0.479096 -0.136042 2.000000
-0.018483 0.138858 -0.480548 2.000000
-0.282866 0.399012 -0.301103 4.000000
0.116241 0.130222 -0.482932 2.000000
0.050538 -0.088647 -0.492090 2.000000
-0.028245 0.497936 0.024311 2.000000
0.077248 -0.122094 -0.484846 2.000000
0.252724 -0.488212 0.093893 2.000000
-0.213704 -0.458499 -0.195188 2.000000
0.033937 -0.466364 -0.175691 2.000000
-0.285230 0.412317 -0.282180 4.000000
-0.023649 -0.494609 0.050719 2.000000
0.286643 -0.061339 -0.496330 1.000000
0.148686 -0.171200 -0.469583 2.000000
0.038830 -0.285063 0.405954 2.000000
0.229134 0.335965 -0.370459 2.000000
0.080250 -0.412865 0.275579 2.000000
0.081863 0.433638 -0.248304 2.000000
0.274723 -0.318618 -0.384566 2.000000
0.070793 -0.138007 -0.480513 2.000000
0.148438 0.138078 -0.480764 2.000000
-0.200974 -0.286431 0.405051 2.000000
0.079963 -0.045775 -0.498012 2.000000
-0.216490 0.445508 0.221286 2.000000
-0.056016 0.413331 0.276297 2.000000
-0.240362 -0.447667 -0.219178 2.000000
0.169444 -0.167543 0.466583 2.000000
0.057828 -0.316518 -0.386241 2.000000
0.126677 -0.228986 -0.444082 2.000000
-0.253453 0.308408 0.389171 2.000000
-0.216510 0.075526 0.490172 2.000000
0.089059 0.384385 -0.319447 2.000000
-0.128954 -0.254385 -0.429956 2.000000
0.241315 -0.479257 -0.135460 2.000000
0.230039 -0.496099 -0.038694 2.000000
-0.003956 0.337517 0.364408 2.000000
0.045367 -0.234370 -0.441248 2.000000
0.143251 -0.483327 0.115506 2.000000
0.120272 -0.494777 -0.055013 2.000000
0.190295 -0.436276 -0.241452 2.000000
-0.127815 0.152955 0.471911 2.000000
-0.037356 0.129033 -0.483261 2.000000
0.229780 -0.481587 -0.127019 2.000000
-0.200796 -0.407821 0.282791 2.000000
0.172098 0.331984 -0.373874 2.000000
-0.190819 0.369242 -0.336813 2.000000
0.095367 -0.469546 0.162470 2.000000
0.086972 -0.471416 -0.161046 2.000000
0.025961 -0.366517 0.334336 2.000000
0.281557 -0.473411 0.150803 1.000000
-0.109439 -0.393698 0.302129 2.000000
0.258739 -0.081766 0.489042 2.000000
-0.082840 0.069751 0.491166 2.000000
-0.290045 -0.460354 -0.190738 4.000000
0.033954 0.230495 -0.443959 2.000000
-0.035629 0.270777 0.416234 2.000000
-0.014527 -0.492605 -0.071332 2.000000
0.126400 -0.400965 -0.296798 2.000000
0.014590 -0.005075 -0.500296 2.000000
-0.081391 0.084556 -0.493140 2.000000
0.142178 -0.433785 -0.245795 2.000000
-0.202208 -0.428325 0.250985 2.000000
0.187910 0.173623 0.464705 2.000000
0.163809 -0.119918 -0.485363 2.000000
0.248810 -0.452709 -0.208945 2.000000
-0.096994 -0.432396 0.244306 2.000000
0.127861 -0.497115 -0.023897 2.000000
0.069623 -0.140754 0.475389 2.000000
0.087935 0.165575 -0.471969 2.000000
-0.021093 0.253796 0.426586 2.000000
-0.135914 -0.218043 0.445237 2.000000
0.263789 0.273845 -0.418389 2.000000
-0.158174 0.315896 0.383200 2.000000
0.185481 0.222457 -0.447920 2.000000
-0.135522 0.070877 0.490973 2.000000
0.008811 -0.405038 -0.291400 2.000000
-0.112704 0.236163 -0.441044 2.000000
-0.003965 -0.335883 0.365266 2.000000
0.000565 -0.209763 0.449317 2.000000
-0.104032 0.207545 0.450694 2.000000
-0.037067 -0.259981 -0.426544 2.000000
-0.037008 0.261700 -0.426399 2.000000
-0.249156 -0.497424 -0.006752 2.000000
0.266684 -0.412005 0.276809 2.000000
-0.215142 -0.342965 -0.362899 2.000000
0.174227 -0.468538 0.165155 2.000000
-0.148676 0.375801 -0.329570 2.000000
0.136621 -0.141157 0.475278 2.000000
-0.224681 0.100256 -0.490028 2.000000
0.211987 -0.282862 -0.411624 2.000000
0.129998 0.422800 -0.266083 2.000000
-0.011222 0.034573 0.494734 2.000000
-0.158928 -0.448985 0.212374 2.000000
-0.042335 -0.380516 0.318661 2.000000
0.252451 0.461515 0.186057 2.000000
0.145617 0.239133 0.434926 2.000000
-0.101074 -0.456894 -0.199038 2.000000
0.135962 0.360933 0.341432 2.000000
-0.196978 0.467507 -0.174987 2.000000
-0.006947 -0.452372 -0.209630 2.000000
0.087272 -0.008720 0.495676 2.000000
0.080696 0.454205 0.203591 2.000000
0.034308 0.489865 -0.094594 2.000000
0.020506 -0.105205 0.484424 2.000000
-0.264611 -0.225989 -0.445660 2.000000
-0.006637 0.404320 -0.293615 2.000000
-0.216535 -0.493925 -0.062203 2.000000
0.061318 -0.394974 -0.304739 2.000000
0.000889 -0.161317 -0.473292 2.000000
0.162982 -0.461319 0.184394 2.000000
0.070475 -0.216747 -0.450458 2.000000
0.223148 -0.495255 -0.049111 2.000000
-0.004235 -0.405489 0.286126 2.000000
0.130363 -0.247105 0.429828 2.000000
0.039493 -0.407190 0.283694 2.000000
-0.179769 -0.073219 0.490278 2.000000
0.012692 0.495846 -0.053105 2.000000
0.149396 0.480854 -0.134121 2.000000
-0.243935 -0.431285 0.246130 2.000000
0.184891 0.481545 -0.131668 2.000000
0.244776 0.402056 0.292357 2.000000
0.160523 -0.484581 0.110229 2.000000
0.062947 0.474961 -0.153435 2.000000
0.179626 0.496879 0.037358 2.000000
-0.211053 0.423936 -0.264218 2.000000
0.284763 0.377281 0.323385 1.000000
-0.289402 0.015381 -0.499928 4.000000
0.111016 0.425492 0.257692 2.000000
-0.106074 -0.147730 0.473418 2.000000
0.259041 -0.165217 -0.471829 2.000000
-0.164887 0.061097 -0.496534 2.000000
-0.192735 0.240146 0.434393 2.000000
0.182076 0.144162 0.474594 2.000000
0.029405 0.444846 0.222630 2.000000
0.234186 -0.182825 -0.465221 2.000000
-0.171762 0.405403 -0.292067 2.000000
0.019255 0.490233 -0.092456 2.000000
-0.251441 0.409865 0.281548 2.000000
-0.128641 0.484253 -0.120274 2.000000
-0.272891 0.486225 0.107778 2.000000
0.214633 0.293850 -0.404622 2.000000
-0.259350 0.060370 -0.496639 2.000000
0.272635 0.022978 -0.499791 2.000000
0.086497 -0.366621 0.334221 2.000000
0.120885 0.477003 0.142984 2.000000
0.050045 -0.455907 -0.201404 2.000000
-0.136740 -0.484554 -0.115215 2.000000
-0.260604 0.060876 0.492137 2.000000
-0.241134 0.145541 -0.478704 2.000000
-0.089253 0.335989 0.365791 2.000000
0.131730 0.193390 0.457046 2.000000
-0.059226 -0.493139 -0.067639 2.000000
-0.055160 -0.009826 -0.500152 2.000000
-0.025000 -0.073704 -0.494663 2.000000
-0.073680 0.028874 -0.499448 2.000000
0.211837 0.401042 0.293701 2.000000
-0.158801 0.143923 0.474667 2.000000
0.258018 0.488811 -0.100715 2.000000
-0.216131 0.045005 0.493852 2.000000
0.243781 -0.472541 0.153655 2.000000
-0.238022 -0.119176 0.481345 2.000000
0.131936 0.497806 0.025921 2.000000
0.061707 0.100128 -0.490055 2.000000
-0.015106 0.497505 -0.034420 2.000000
-0.044375 0.491779 0.079773 2.000000
-0.220840 0.375370 0.325612 2.000000
0.130826 -0.339477 0.361767 2.000000
-0.066931 -0.062148 -0.496242 2.000000
0.150133 0.169398 -0.470650 2.000000
0.263599 0.298808 0.396826 2.000000
-0.047111 0.005799 0.495937 2.000000
-0.205242 -0.200587 -0.457710 2.000000
-0.029236 0.097892 -0.490524 2.000000
-0.284796 -0.478100 0.135437 4.000000
0.088201 -0.494430 -0.058718 2.000000
-0.189126 -0.492615 0.068317 2.000000
0.271634 -0.423242 0.259323 2.000000
-0.051946 -0.492426 0.069415 2.000000
-0.114076 -0.423366 0.259119 2.000000
0.221644 0.424576 -0.263168 2.000000
-0.017653 0.312355 -0.390662 2.000000
0.113435 -0.377715 -0.326039 2.000000
0.285886 0.452644 -0.210856 1.000000
-0.008099 0.017528 0.495499 2.000000
0.052631 -0.065503 0.491395 2.000000
-0.143708 0.356756 -0.350296 2.000000
-0.000825 -0.469661 0.162162 2.000000
0.256118 0.247406 0.430482 2.000000
-0.059169 -0.434177 0.241028 2.000000
-0.071653 -0.234646 0.436972 2.000000
-0.004826 -0.355278 0.346384 2.000000
0.254130 0.385463 -0.318095 2.000000
0.044269 -0.399556 0.294609 2.000000
0.010755 -0.496919 0.020271 2.000000
0.243616 0.495865 0.049874 2.000000
0.277673 -0.414599 0.273100 2.000000
0.244329 0.496674 -0.045444 2.000000
0.271507 -0.468749 0.164592 2.000000
-0.027802 -0.253595 0.426106 2.000000
0.030270 0.419646 0.266732 2.000000
-0.075371 -0.247052 -0.434427 2.000000
