-0.180265 0.420085 -0.270536 2.000000
0.236188 0.456382 -0.202527 2.000000
0.138212 0.234638 -0.441918 2.000000
-0.003484 -0.036828 -0.498941 2.000000
-0.248644 -0.094618 0.486642 2.000000
-0.018246 0.460274 -0.193854 2.000000
0.063996 0.441580 -0.233267 2.000000
-0.012614 -0.073541 -0.494691 2.000000
-0.037797 -0.439998 -0.234740 2.000000
0.285616 -0.490491 0.080652 1.000000
-0.140928 -0.404703 0.287248 2.000000
0.239397 -0.372455 0.327780 2.000000
-0.175736 -0.472672 -0.157404 2.000000
-0.251974 -0.454980 -0.203629 2.000000
-0.268983 -0.236961 0.435645 2.000000
0.198159 -0.490328 -0.087066 2.000000
0.068217 -0.417623 -0.272598 2.000000
-0.255600 -0.001690 0.495803 2.000000
0.259835 0.196576 -0.459915 2.000000
0.138630 -0.369004 0.331591 2.000000
0.118639 0.447478 0.217287 2.000000
-0.012042 -0.013083 0.495597 2.000000
-0.288648 0.429101 -0.255746 4.000000
-0.195636 0.004746 -0.500119 2.000000
-0.050841 -0.267064 -0.422226 2.000000
-0.250478 -0.480421 -0.131242 2.000000
-0.195272 0.304799 -0.396363 2.000000
0.162429 -0.168677 -0.470530 2.000000
-0.082173 -0.270519 0.415555 2.000000
-0.201086 -0.444553 0.221320 2.000000
-0.244811 -0.000335 0.495827 2.000000
-0.263226 -0.017702 -0.499798 2.000000
-0.053009 0.491788 0.079705 2.000000
-0.046697 -0.134962 -0.481442 2.000000
0.000456 0.451863 -0.212596 2.000000
0.008429 0.087952 0.488033 2.000000
-0.289409 0.494845 -0.062363 4.000000
0.220774 -0.488865 0.090096 2.000000
0.093500 0.498387 0.005811 2.000000
-0.054148 0.408075 0.284258 2.000000
-0.009889 -0.133105 0.477500 2.000000
-0.267695 -0.414501 0.273239 2.000000
-0.258836 0.058676 0.492375 2.000000
0.081382 -0.050566 0.493255 2.000000
0.090575 -0.385748 0.312099 2.000000
-0.005460 -0.386831 0.310740 2.000000
-0.143273 -0.123592 0.480126 2.000000
0.094127 -0.017245 -0.499819 2.000000
0.227845 -0.495004 -0.052201 2.000000
-0.067637 0.494973 -0.061181 2.000000
-0.104846 -0.337293 -0.368035 2.000000
-0.101262 -0.072461 0.490388 2.000000
-0.288964 -0.341322 -0.364387 4.000000
-0.184167 0.379783 0.320469 2.000000
-0.169703 -0.301491 0.393731 2.000000
0.029387 -0.483446 -0.120285 2.000000
0.198098 -0.057485 0.492555 2.000000
0.074145 -0.291058 -0.405892 2.000000
0.237320 0.011029 -0.500006 2.000000
-0.222552 -0.423922 -0.262994 2.000000
0.242069 -0.424068 -0.262740 2.000000
-0.156055 -0.494409 0.052568 2.000000
0.200845 -0.181964 -0.465544 2.000000
0.040251 -0.165132 -0.471861 2.000000
0.281308 0.228972 -0.444710 1.000000
0.164463 0.498578 -0.004785 2.000000
0.051949 -0.165282 -0.471804 2.000000
0.197656 -0.376166 0.323683 2.000000
0.210279 0.498494 -0.000082 2.000000
0.167424 -0.391449 -0.309411 2.000000
-0.095595 -0.065391 -0.495892 2.000000
-0.034755 0.332338 0.369098 2.000000
0.126709 -0.468543 -0.169376 2.000000
-0.116298 0.445047 0.222220 2.000000
0.195258 0.486600 0.105987 2.000000
-0.113082 0.311071 0.387048 2.000000
-0.111697 -0.302832 -0.397154 2.000000
-0.041360 -0.358252 0.343461 2.000000
0.243087 0.223860 0.442968 2.000000
0.269750 0.390700 -0.311527 2.000000
-0.084083 -0.416159 0.270869 2.000000
0.059626 -0.175656 0.463785 2.000000
-0.160504 0.345601 0.357085 2.000000
-0.242507 0.497952 0.024117 2.000000
-0.242193 0.366244 0.335977 2.000000
-0.232619 -0.266606 0.418139 2.000000
-0.108575 0.039484 -0.498589 2.000000
0.094849 -0.189649 0.458023 2.000000
-0.276857 -0.106827 0.484084 2.000000
0.094072 -0.418506 0.267092 2.000000
0.148369 0.238081 0.435480 2.000000
0.022648 0.486072 0.108508 2.000000
0.016319 -0.483851 -0.118570 2.000000
0.206457 -0.450440 -0.213551 2.000000
-0.125467 -0.251102 0.427536 2.000000
-0.224865 0.462416 0.183898 2.000000
-0.124002 -0.487926 -0.099119 2.000000
0.069771 -0.120524 0.480973 2.000000
-0.220836 0.347329 0.355405 2.000000
-0.167559 -0.062957 0.491763 2.000000
0.004751 0.099566 0.486034 2.000000
-0.237379 0.068741 -0.495428 2.000000
0.149949 0.447570 -0.221890 2.000000
-0.184488 -0.276385 0.411683 2.000000
0.121413 -0.108795 0.483672 2.000000
-0.043927 -0.310179 0.387177 2.000000
0.157581 -0.138371 0.476047 2.000000
0.171317 -0.301065 0.394053 2.000000
0.132215 -0.358387 0.343313 2.000000
-0.025866 0.474733 -0.154184 2.000000
0.126371 -0.409037 -0.285602 2.000000
-0.223784 0.238218 0.435408 2.000000
-0.137493 0.357960 -0.349124 2.000000
0.106743 0.464373 -0.183339 2.000000
-0.220064 -0.399455 0.294753 2.000000
0.183476 -0.454990 0.198991 2.000000
0.269803 -0.475911 -0.147579 2.000000
-0.271095 0.491004 0.084966 2.000000
-0.082772 -0.473288 -0.155621 2.000000
0.162283 0.069578 -0.495307 2.000000
-0.092995 0.425263 0.258091 2.000000
-0.212854 0.233549 0.437866 2.000000
-0.228697 -0.403027 0.289645 2.000000
-0.020957 -0.495150 0.045707 2.000000
-0.141621 -0.418629 0.266890 2.000000
0.002864 -0.483619 -0.119658 2.000000
0.213857 0.497449 0.030318 2.000000
-0.276530 0.332550 -0.373389 2.000000
0.008880 0.447450 -0.222119 2.000000
-0.112320 0.484386 -0.119715 2.000000
-0.031645 0.465013 0.177669 2.000000
-0.267829 -0.035889 0.494444 2.000000
0.224537 -0.333930 -0.371081 2.000000
0.034893 0.135573 0.477215 2.000000
-0.250009 0.446921 0.218418 2.000000
-0.129921 -0.407331 0.283492 2.000000
-0.155973 -0.497464 -0.004558 2.000000
-0.134446 0.419929 -0.270791 2.000000
0.037479 0.161924 0.469095 2.000000
0.041613 0.489868 0.090388 2.000000
0.130408 0.080270 0.489356 2.000000
0.069472 0.099102 -0.490270 2.000000
-0.127265 0.359617 0.342783 2.000000
0.089388 0.480843 -0.134160 2.000000
0.100621 -0.411732 0.277199 2.000000
0.052396 -0.462056 0.182430 2.000000
-0.040562 -0.493560 -0.064731 2.000000
-0.224152 0.329851 -0.375705 2.000000
0.000300 -0.492662 0.068041 2.000000
0.058931 -0.126799 -0.483727 2.000000
0.086691 0.469741 0.164521 2.000000
0.206973 0.318059 0.381476 2.000000
-0.041177 -0.495038 -0.051792 2.000000
0.176175 0.456061 0.199139 2.000000
-0.033031 -0.425664 0.255350 2.000000
0.254419 -0.488218 -0.097725 2.000000
-0.206558 -0.373653 -0.330772 2.000000
-0.106444 0.263054 -0.425513 2.000000
-0.069629 0.491369 -0.085858 2.000000
0.239249 0.476629 0.144340 2.000000
-0.277040 -0.153738 0.471345 2.000000
-0.046500 -0.497542 -0.000191 2.000000
0.229462 -0.492017 0.071787 2.000000
-0.141744 -0.181474 -0.465728 2.000000
-0.044013 0.498453 -0.013272 2.000000
0.286144 -0.436195 -0.241593 1.000000
-0.145724 -0.326398 0.373435 2.000000
0.216468 0.031969 0.494851 2.000000
-0.202951 -0.216245 0.446123 2.000000
-0.115927 -0.033616 0.494628 2.000000
0.166614 0.471461 -0.164450 2.000000
0.273054 0.018426 0.495459 2.000000
0.047614 0.408580 -0.287524 2.000000
-0.052615 0.110897 0.483396 2.000000
-0.108052 0.122153 -0.485160 2.000000
0.198458 -0.485378 0.106874 2.000000
0.076345 -0.422503 -0.265205 2.000000
-0.052960 0.391500 -0.310525 2.000000
-0.245328 -0.280181 -0.413499 2.000000
0.203100 0.480531 -0.135182 2.000000
-0.169240 -0.457996 -0.196394 2.000000
-0.028630 -0.116100 0.482141 2.000000
-0.261606 0.125795 -0.484154 2.000000
0.133279 0.404547 -0.293291 2.000000
-0.032885 0.189544 0.458731 2.000000
0.041718 0.191733 -0.461934 2.000000
0.235595 -0.445055 0.220367 2.000000
0.167624 -0.128787 -0.483255 2.000000
0.103761 0.238332 0.435348 2.000000
-0.129104 -0.251065 -0.431980 2.000000
-0.272092 0.252000 0.427681 2.000000
-0.135411 -0.242593 0.432415 2.000000
0.016622 -0.435010 0.239446 2.000000
-0.288678 -0.113468 -0.486896 4.000000
-0.213871 0.194481 0.456556 2.000000
-0.207981 0.319170 0.380590 2.000000
-0.041702 0.191188 -0.462162 2.000000
0.008682 -0.434597 -0.244379 2.000000
0.258033 -0.384858 0.313215 2.000000
0.072794 -0.385476 0.312440 2.000000
-0.203162 0.472038 -0.162912 2.000000
0.028713 -0.472305 0.154429 2.000000
0.249451 0.481126 0.128049 2.000000
-0.273273 -0.369372 -0.335762 2.000000
0.119429 -0.472519 -0.157848 2.000000
-0.280379 -0.284200 -0.410688 4.000000
0.227105 0.496865 0.037534 2.000000
0.089931 -0.476609 0.140321 2.000000
0.037557 0.427951 -0.257633 2.000000
0.082776 0.484269 0.116661 2.000000
0.089980 -0.042396 0.493917 2.000000
-0.080227 -0.469819 -0.165675 2.000000
-0.227197 0.164547 -0.472324 2.000000
-0.140110 0.240449 -0.438586 2.000000
0.236492 0.282169 0.408472 2.000000
-0.238931 -0.441250 0.227594 2.000000
0.137168 0.129491 -0.483134 2.000000
0.260788 -0.040096 -0.498626 2.000000
-0.276856 0.044161 -0.498210 2.000000
0.249262 0.463874 -0.184670 2.000000
0.044713 0.249433 0.429246 2.000000
0.000327 -0.466104 -0.176447 2.000000
0.110195 -0.009974 0.495653 2.000000
-0.288461 0.475394 -0.152018 4.000000
-0.178951 0.036171 0.494663 2.000000
0.020624 0.497729 0.026864 2.000000
0.154660 0.336821 0.365037 2.000000
0.238057 0.041969 -0.498388 2.000000
-0.194437 -0.476270 -0.146282 2.000000
0.209780 -0.167642 -0.470918 2.000000
0.268657 -0.208754 -0.454045 2.000000
0.230086 0.483415 -0.123799 2.000000
-0.280986 -0.040816 -0.498548 4.000000
0.073051 -0.428441 -0.255115 2.000000
-0.042261 0.358618 0.343809 2.000000
-0.290140 0.321798 0.378494 4.000000
-0.185756 -0.193726 0.456323 2.000000
-0.143049 -0.064389 -0.496000 2.000000
-0.198159 -0.424084 -0.262712 2.000000
0.077372 -0.459791 0.188293 2.000000
-0.025902 -0.005134 0.495740 2.000000
-0.049040 0.475656 -0.151160 2.000000
0.022309 -0.424476 -0.262029 2.000000
0.150520 -0.019673 0.495479 2.000000
-0.014252 -0.121931 0.480585 2.000000
0.269807 -0.049708 -0.497587 2.000000
0.275334 0.409773 -0.285818 2.000000
0.000717 0.171043 -0.470083 2.000000
0.054584 0.335634 -0.370743 2.000000
-0.152730 0.170830 -0.470156 2.000000
-0.266685 -0.495228 -0.049442 2.000000
0.191084 0.456973 -0.201209 2.000000
-0.277549 -0.496666 0.025919 2.000000
0.210186 0.497036 -0.042090 2.000000
0.055044 0.132407 -0.482329 2.000000
-0.106084 -0.040704 -0.498560 2.000000
-0.049514 -0.481786 -0.126299 2.000000
-0.096600 -0.190412 -0.462276 2.000000
-0.166891 -0.229819 -0.443644 2.000000
-0.136392 -0.235105 -0.440860 2.000000
-0.083453 0.354416 -0.352574 2.000000
-0.086588 0.394344 0.302579 2.000000
0.232271 -0.497406 0.009418 2.000000
0.170682 0.039360 0.494462 2.000000
0.083151 0.196492 0.455654 2.000000
0.148777 0.274112 -0.418213 2.000000
-0.006226 -0.179502 0.462253 2.000000
-0.026477 0.284717 -0.411212 2.000000
-0.091105 0.389422 -0.313130 2.000000
0.186289 0.207728 0.450612 2.000000
0.079041 -0.366137 0.334756 2.000000
-0.097113 0.321011 0.379122 2.000000
-0.288828 -0.482681 -0.123056 4.000000
-0.277329 -0.493084 0.064829 2.000000
0.014859 0.449638 0.212904 2.000000
-0.200946 -0.249453 -0.432963 2.000000
0.122699 -0.408378 0.281994 2.000000
0.039513 -0.462484 0.181289 2.000000
0.211303 -0.120448 0.480994 2.000000
-0.145762 -0.460914 0.185474 2.000000
-0.092627 0.495388 0.054826 2.000000
-0.165493 -0.423635 -0.263490 2.000000
0.124570 0.395038 -0.306087 2.000000
-0.098660 0.140766 0.475630 2.000000
-0.175146 0.498183 0.017132 2.000000
-0.287522 -0.064762 -0.495960 4.000000
-0.006989 -0.456416 0.195813 2.000000
-0.175178 0.299761 -0.400163 2.000000
-0.149050 0.498406 -0.014327 2.000000
0.160230 0.405221 0.288161 2.000000
0.241779 0.475803 -0.150676 2.000000
-0.097814 0.287409 0.404808 2.000000
0.014089 -0.107727 0.483895 2.000000
0.284460 -0.037743 0.494294 1.000000
-0.085267 -0.330306 0.370082 2.000000
0.004399 0.014107 0.495652 2.000000
0.150584 -0.278891 0.410028 2.000000
-0.225607 -0.317271 -0.385640 2.000000
0.213709 0.304208 -0.396808 2.000000
0.053642 0.472098 -0.162752 2.000000
0.269529 -0.393023 -0.307325 2.000000
-0.177479 -0.092963 0.486988 2.000000
-0.144753 -0.369683 -0.335399 2.000000
-0.197837 -0.303758 -0.396415 2.000000
0.058148 -0.342858 -0.362995 2.000000
-0.196481 0.465871 0.175610 2.000000
-0.019725 0.403675 0.290211 2.000000
0.130435 0.453116 -0.209804 2.000000
-0.241404 0.424766 -0.262857 2.000000
0.033934 0.498456 -0.013215 2.000000
-0.287904 -0.398892 -0.299546 4.000000
0.193048 -0.396049 -0.303315 2.000000
0.057817 -0.495600 -0.044854 2.000000
0.143388 0.288970 0.403716 2.000000
0.024562 0.144290 0.474555 2.000000
-0.172697 -0.154090 0.471224 2.000000
-0.066319 0.123185 0.480476 2.000000
-0.224135 0.450652 -0.215297 2.000000
-0.206271 0.098809 -0.490332 2.000000
-0.279411 0.069055 -0.495383 2.000000
0.236238 0.378328 -0.326781 2.000000
-0.018661 0.277058 0.412047 2.000000
-0.002843 0.260928 -0.426842 2.000000
0.212898 -0.314032 0.384046 2.000000
-0.250127 -0.344890 0.356497 2.000000
-0.284359 0.193175 0.457143 4.000000
-0.041077 0.448934 0.214334 2.000000
0.026664 0.067102 -0.495665 2.000000
-0.236638 -0.480297 -0.131690 2.000000
-0.168575 -0.054779 -0.497039 2.000000
0.101952 -0.070882 -0.495149 2.000000
-0.081854 0.445868 -0.225124 2.000000
0.115670 -0.132597 0.477641 2.000000
0.027787 0.043638 -0.498252 2.000000
-0.247837 -0.478342 0.134643 2.000000
0.021128 0.364598 -0.341940 2.000000
0.012708 -0.491365 -0.079898 2.000000
-0.082609 -0.178413 0.462707 2.000000
-0.224986 -0.365959 -0.339570 2.000000
0.115489 0.005760 -0.500101 2.000000
-0.053733 0.194012 -0.460984 2.000000
-0.039070 -0.281503 0.408304 2.000000
-0.272370 0.305337 0.391620 2.000000
0.066234 0.477517 0.141122 2.000000
-0.022205 -0.493447 -0.065508 2.000000
0.036362 -0.496496 0.029704 2.000000
-0.285514 0.478288 -0.142532 4.000000
-0.268479 -0.486514 0.102093 2.000000
0.209745 -0.496624 0.026858 2.000000
0.138423 0.427685 -0.258069 2.000000
0.148689 -0.212846 -0.452209 2.000000
0.275802 -0.024084 -0.499512 1.000000
0.078678 0.494454 -0.065984 2.000000
-0.041112 -0.466925 0.169453 2.000000
0.034098 0.489029 -0.099450 2.000000
0.135231 -0.122249 -0.484809 2.000000
0.006128 -0.435971 0.237621 2.000000
-0.045285 0.010697 -0.500012 2.000000
-0.122800 0.387706 -0.315283 2.000000
-0.181210 -0.348898 0.352595 2.000000
-0.023751 -0.382007 0.316790 2.000000
-0.239959 -0.428771 -0.254539 2.000000
-0.243491 -0.496917 0.020316 2.000000
0.183033 -0.422099 0.261198 2.000000
0.266973 -0.443458 -0.227719 2.000000
0.112163 -0.336082 -0.369132 2.000000
-0.065403 -0.035603 0.494467 2.000000
-0.100639 -0.496111 -0.038546 2.000000
-0.120661 0.413578 -0.280378 2.000000
-0.094331 0.108427 0.483983 2.000000
-0.163811 -0.216930 0.445785 2.000000
0.081494 0.222146 -0.448073 2.000000
-0.251217 0.385916 -0.317528 2.000000
0.065327 0.040457 -0.498510 2.000000
-0.154690 0.306142 -0.395350 2.000000
0.100836 -0.045905 0.493632 2.000000
-0.204637 0.113065 0.482881 2.000000
-0.044651 0.349286 -0.357568 2.000000
-0.037648 -0.050296 -0.497523 2.000000
0.251616 0.484156 0.117071 2.000000
0.243856 0.360210 -0.346784 2.000000
0.238491 -0.456357 -0.200325 2.000000
0.284788 -0.194605 -0.460394 1.000000
0.026115 -0.052960 -0.497235 2.000000
-0.177688 -0.164490 0.467636 2.000000
0.182017 0.109523 0.483723 2.000000
-0.267396 -0.448396 -0.217697 2.000000
0.175212 0.344390 -0.362335 2.000000
0.150262 -0.115803 0.482203 2.000000
-0.072879 0.272924 -0.418998 2.000000
0.164055 -0.496333 -0.035799 2.000000
0.086086 -0.426958 -0.257702 2.000000
0.143061 -0.182835 -0.465218 2.000000
0.093284 0.006998 -0.500079 2.000000
-0.121631 0.448951 -0.219086 2.000000
0.064495 0.168288 0.466707 2.000000
-0.043610 -0.119402 -0.485485 2.000000
-0.152434 0.308399 0.389179 2.000000
0.279103 -0.492939 0.066167 1.000000
0.162401 -0.474399 0.147566 2.000000
-0.140836 -0.434946 0.239568 2.000000
0.041489 -0.295161 -0.403023 2.000000
-0.011442 -0.259992 0.422438 2.000000
-0.114405 -0.474356 0.147708 2.000000
0.133745 0.172339 0.465187 2.000000
0.224981 0.334717 0.366944 2.000000
0.063795 -0.271813 -0.419331 2.000000
-0.208390 -0.451998 -0.210388 2.000000
-0.142957 0.159723 0.469846 2.000000
-0.273270 -0.470307 0.160441 2.000000
0.249003 0.154948 -0.475635 2.000000
0.042893 -0.331879 -0.372939 2.000000
-0.219420 -0.440837 -0.233038 2.000000
-0.219892 -0.433786 0.241771 2.000000
0.197346 -0.017091 0.495525 2.000000
-0.258072 0.204184 0.452202 2.000000
-0.016798 -0.346506 -0.359551 2.000000
-0.256456 0.318177 -0.385722 2.000000
0.155383 0.498411 0.004476 2.000000
-0.118883 -0.020627 0.495461 2.000000
-0.003507 -0.464744 0.175267 2.000000
0.023827 -0.423220 0.259359 2.000000
0.086444 0.496961 0.036350 2.000000
0.264328 0.492224 0.076697 2.000000
-0.232870 0.027532 0.495050 2.000000
0.075974 -0.259512 0.422713 2.000000
0.280955 -0.497141 0.015334 1.000000
0.000368 0.097573 -0.490591 2.000000
0.217547 0.455686 -0.204077 2.000000
0.262362 -0.489153 0.088423 2.000000
-0.058101 0.262352 0.421370 2.000000
0.096592 -0.479413 0.131134 2.000000
-0.275562 -0.487132 -0.102910 2.000000
-0.152759 -0.450366 0.209295 2.000000
0.031517 0.478436 -0.142049 2.000000
-0.275664 -0.497299 0.011818 2.000000
0.059008 0.020698 0.495357 2.000000
0.173967 0.496879 -0.043547 2.000000
-0.007045 -0.307663 0.389075 2.000000
-0.244778 0.345250 -0.361498 2.000000
-0.224198 0.427026 -0.259149 2.000000
0.225315 0.251098 -0.432479 2.000000
0.039454 0.371383 0.330259 2.000000
0.182005 -0.406244 0.285045 2.000000
-0.120379 -0.330625 -0.374075 2.000000
-0.091434 0.061969 -0.496408 2.000000
-0.030795 0.359854 0.342540 2.000000
0.283104 0.492610 -0.078654 1.000000
0.216446 0.340867 0.361373 2.000000
0.056916 -0.432892 0.243469 2.000000
-0.169729 -0.478416 -0.138505 2.000000
0.129959 0.184286 0.460704 2.000000
-0.059754 -0.493076 -0.068076 2.000000
-0.032889 0.216803 0.446539 2.000000
-0.086188 -0.444979 0.220512 2.000000
-0.132484 0.497241 0.032885 2.000000
0.207498 -0.335861 -0.369333 2.000000
0.191625 -0.271268 -0.419663 2.000000
0.282638 0.288129 0.404304 1.000000
-0.225786 -0.405432 -0.290878 2.000000
-0.042093 -0.062213 -0.496235 2.000000
0.261284 -0.419924 0.264766 2.000000
-0.070719 0.460164 -0.194098 2.000000
0.150906 -0.483573 0.114469 2.000000
0.013857 0.367933 0.334241 2.000000
-0.099657 -0.480702 0.126549 2.000000
0.112039 0.415150 -0.278130 2.000000
-0.252864 -0.273077 -0.418468 2.000000
0.233479 -0.468223 -0.170304 2.000000
0.057815 -0.245311 -0.435487 2.000000
0.185343 0.447733 -0.221581 2.000000
-0.066133 0.422550 -0.266493 2.000000
0.213715 -0.130694 -0.482744 2.000000
0.283736 0.482028 0.124779 1.000000
-0.152100 0.026296 -0.499657 2.000000
0.093692 -0.468656 -0.169048 2.000000
0.155418 -0.424029 0.258031 2.000000
0.136703 -0.198367 -0.458706 2.000000
-0.059673 -0.345314 -0.360770 2.000000
0.065574 -0.460990 0.185271 2.000000
0.072315 0.185744 0.460157 2.000000
0.191431 -0.260259 -0.426375 2.000000
0.094500 -0.425824 0.255087 2.000000
-0.034767 0.200475 0.453867 2.000000
0.242379 0.202494 0.452961 2.000000
0.253866 0.497580 -0.032744 2.000000
-0.273876 0.182044 -0.465974 2.000000
0.212232 -0.178577 -0.466815 2.000000
-0.047702 -0.146146 -0.478029 2.000000
-0.018742 0.190267 -0.462546 2.000000
-0.049136 -0.033406 0.494645 2.000000
0.188047 0.486159 -0.112250 2.000000
0.111667 -0.497098 0.016292 2.000000
0.140304 0.147733 0.473504 2.000000
-0.271445 -0.395390 -0.304188 2.000000
-0.182668 0.075576 0.490164 2.000000
0.047155 -0.346233 -0.359832 2.000000
0.264963 -0.497481 -0.003606 2.000000
0.126790 -0.376233 -0.327766 2.000000
-0.078152 -0.339186 0.362050 2.000000
-0.223793 0.457699 0.195212 2.000000
-0.226762 0.108154 0.484048 2.000000
-0.181020 -0.388128 -0.313813 2.000000
-0.213099 0.448217 0.215789 2.000000
0.189066 -0.251242 -0.431872 2.000000
-0.070602 -0.403546 -0.293377 2.000000
-0.042086 -0.481458 0.123369 2.000000
-0.179031 -0.031520 0.494798 2.000000
0.153772 -0.089020 0.487814 2.000000
0.052734 -0.120588 0.480956 2.000000
0.137623 0.287303 -0.409505 2.000000
0.222164 0.497510 -0.034299 2.000000
0.016642 -0.205838 0.451251 2.000000
-0.287700 -0.487267 -0.102267 4.000000
0.275243 -0.467406 -0.172671 1.000000
0.055361 -0.099779 0.485560 2.000000
-0.035204 -0.497438 -0.005991 2.000000
-0.114208 -0.424246 -0.262430 2.000000
-0.095390 -0.249815 -0.432742 2.000000
0.239860 -0.406144 -0.289933 2.000000
0.178830 0.183323 -0.465441 2.000000
-0.092966 -0.483865 -0.118505 2.000000
0.159507 0.487049 -0.108508 2.000000
-0.010922 0.366473 0.335741 2.000000
-0.153554 0.131437 0.478477 2.000000
-0.138351 -0.148579 -0.477287 2.000000
0.108284 0.026272 0.495107 2.000000
0.197476 0.484480 0.115897 2.000000
-0.187319 0.275031 -0.417606 2.000000
-0.194255 0.325224 0.375542 2.000000
-0.144845 -0.403273 -0.293739 2.000000
-0.197015 0.399596 -0.300370 2.000000
0.106868 0.494219 -0.068157 2.000000
-0.025633 -0.453898 -0.206224 2.000000
-0.185044 0.003041 0.495888 2.000000
-0.134323 -0.356533 -0.349252 2.000000
-0.122528 0.468251 0.168838 2.000000
-0.182048 -0.026988 -0.499382 2.000000
-0.287298 0.487132 -0.108160 4.000000
0.191830 -0.155276 -0.475243 2.000000
-0.227663 -0.241355 0.433125 2.000000
-0.289359 -0.429130 -0.253914 4.000000
-0.058310 -0.329183 0.371045 2.000000
0.077723 -0.234734 0.436922 2.000000
0.276493 0.478089 -0.143185 2.000000
-0.077431 -0.321815 -0.382017 2.000000
0.258539 -0.159875 0.469228 2.000000
-0.029760 -0.495991 0.037927 2.000000
0.033477 -0.369618 -0.335476 2.000000
-0.065247 0.084328 -0.493173 2.000000
0.253272 -0.431333 -0.250071 2.000000
-0.202800 -0.382481 -0.320484 2.000000
-0.134294 -0.442735 0.224773 2.000000
0.226832 -0.236368 -0.440196 2.000000
-0.259840 -0.233036 -0.441950 2.000000
-0.165916 0.447463 -0.222093 2.000000
0.048431 0.497697 0.027256 2.000000
-0.234527 0.397147 0.298864 2.000000
-0.267343 -0.286813 0.404798 2.000000
0.025306 -0.230165 0.439264 2.000000
0.122207 -0.162837 -0.472722 2.000000
0.176308 0.110181 -0.487949 2.000000
-0.111234 -0.400980 0.292572 2.000000
-0.230337 -0.474588 -0.151850 2.000000
-0.141479 -0.121543 -0.484976 2.000000
-0.218796 0.089820 0.487712 2.000000
-0.107010 0.106920 0.484341 2.000000
0.248281 0.432852 0.244856 2.000000
-0.004923 -0.434232 0.240923 2.000000
0.109196 -0.294767 0.398804 2.000000
-0.278678 0.006092 0.495943 2.000000
0.144271 0.016965 0.495524 2.000000
0.249432 0.438734 -0.238673 2.000000
-0.228930 0.362605 0.339714 2.000000
0.091296 0.494276 -0.067630 2.000000
0.252159 -0.194227 -0.460564 2.000000
-0.033586 -0.020737 -0.499662 2.000000
0.212897 0.124899 0.480069 2.000000
0.226301 -0.429747 0.248652 2.000000
-0.134517 -0.261590 0.421450 2.000000
0.035108 -0.325077 0.374569 2.000000
-0.151493 -0.089440 0.487726 2.000000
0.158657 -0.480357 0.128003 2.000000
0.252180 0.186112 -0.464278 2.000000
-0.059503 0.311009 0.387098 2.000000
0.040518 0.011869 0.495753 2.000000
-0.286874 -0.475893 0.142671 4.000000
-0.211050 0.164017 0.468310 2.000000
-0.201029 0.427398 0.254367 2.000000
-0.038991 -0.475998 0.142326 2.000000
-0.058616 -0.436499 0.236617 2.000000
0.229358 0.475507 -0.151646 2.000000
0.098173 0.497618 0.028233 2.000000
-0.120601 0.470482 -0.167060 2.000000
0.079805 0.428769 0.251976 2.000000
-0.211326 -0.457719 -0.197059 2.000000
0.243242 0.293583 0.400489 2.000000
-0.061976 0.498435 0.003194 2.000000
0.010150 -0.490998 0.077706 2.000000
-0.010822 0.454943 -0.205732 2.000000
-0.099286 0.067410 0.491431 2.000000
0.265979 -0.434844 -0.243949 2.000000
-0.225044 -0.309219 0.387901 2.000000
0.222508 0.397491 -0.303010 2.000000
0.028703 -0.266250 -0.422722 2.000000
-0.284477 -0.379667 0.319725 4.000000
-0.233141 -0.253054 -0.430768 2.000000
0.200826 0.492809 -0.077495 2.000000
0.175739 -0.147861 0.473373 2.000000
-0.094975 -0.415249 -0.276193 2.000000
0.092316 -0.445725 0.219095 2.000000
-0.092702 -0.042417 -0.498375 2.000000
0.020641 -0.017571 0.495516 2.000000
-0.049370 0.366571 -0.339761 2.000000
0.093446 -0.280442 0.409005 2.000000
0.144341 -0.494473 0.051970 2.000000
0.285949 0.016942 -0.499900 1.000000
-0.103459 0.187844 -0.463556 2.000000
0.073846 -0.463731 -0.182639 2.000000
-0.056997 -0.447691 0.215257 2.000000
0.025786 0.032124 0.494844 2.000000
0.028785 -0.146456 -0.477935 2.000000
0.160316 0.249789 0.429029 2.000000
0.061961 0.206968 0.450953 2.000000
-0.109225 0.487476 0.101808 2.000000
0.025733 0.333084 -0.372931 2.000000
-0.283742 0.259820 0.422914 4.000000
0.177311 -0.387223 0.310250 2.000000
-0.062459 0.345869 -0.360895 2.000000
-0.261603 -0.173505 0.464527 2.000000
0.132241 -0.328574 0.371568 2.000000
-0.091531 -0.398795 -0.299675 2.000000
-0.250266 -0.138237 0.476084 2.000000
-0.263646 0.395639 -0.305334 2.000000
0.176729 0.166263 -0.471732 2.000000
-0.124289 -0.497363 -0.010144 2.000000
0.146800 0.261595 0.421832 2.000000
0.027352 -0.496896 0.020804 2.000000
-0.286473 0.081572 0.489131 4.000000
-0.096555 -0.278746 -0.414503 2.000000
-0.171489 0.451368 -0.213700 2.000000
-0.204557 0.342038 0.360313 2.000000
0.133663 -0.395645 -0.303850 2.000000
0.057489 -0.008584 0.495678 2.000000
-0.034227 0.145537 -0.478705 2.000000
-0.084519 -0.238229 -0.439216 2.000000
-0.159259 -0.469818 0.161745 2.000000
0.051421 0.102682 0.485349 2.000000
0.243129 0.026236 -0.499662 2.000000
0.184882 -0.225780 -0.445770 2.000000
0.025362 -0.368253 0.332420 2.000000
-0.277039 -0.473919 0.149140 2.000000
0.165840 -0.010025 0.495652 2.000000
0.106008 -0.375355 -0.328790 2.000000
0.173833 -0.438778 -0.237089 2.000000
-0.265233 -0.308347 0.388559 2.000000
-0.157811 -0.243737 -0.436316 2.000000
-0.199474 -0.006635 -0.500295 2.000000
-0.097097 0.406114 0.286978 2.000000
-0.054006 -0.076065 0.489867 2.000000
0.083125 0.452302 0.207497 2.000000
-0.153341 0.324838 -0.380006 2.000000
0.243336 -0.064843 0.491490 2.000000
-0.287433 0.397401 -0.303124 4.000000
0.102816 -0.226508 0.441066 2.000000
0.092100 0.257519 0.424317 2.000000
0.163275 0.494266 0.062582 2.000000
0.279098 -0.250078 0.428123 2.000000
-0.246953 0.495291 -0.058245 2.000000
-0.188909 0.388777 -0.313939 2.000000
-0.038632 -0.355632 -0.350178 2.000000
0.286386 0.433805 -0.248031 1.000000
-0.091096 0.395920 -0.304980 2.000000
0.241417 0.437349 0.237014 2.000000
0.263663 -0.324387 -0.379725 2.000000
-0.232197 0.372168 -0.333582 2.000000
-0.091760 0.449237 -0.218450 2.000000
-0.126042 0.331866 0.369526 2.000000
0.105353 0.207646 0.450649 2.000000
-0.199661 0.301018 0.395064 2.000000
0.205070 -0.239592 0.434136 2.000000
-0.085645 0.493593 0.067228 2.000000
0.117770 0.062638 -0.496311 2.000000
0.285105 0.458043 -0.198826 1.000000
-0.013224 0.448898 0.214405 2.000000
0.286683 -0.486390 -0.106453 1.000000
-0.227551 0.458215 -0.198441 2.000000
0.156546 -0.127530 -0.483554 2.000000
0.109305 -0.478440 -0.138420 2.000000
0.242082 -0.470466 -0.163802 2.000000
0.178194 0.396969 -0.303665 2.000000
0.097696 0.077464 -0.494166 2.000000
0.019518 0.090258 0.487636 2.000000
-0.245994 0.482904 -0.125950 2.000000
0.280338 0.077428 -0.494171 1.000000
-0.001476 -0.478637 0.133676 2.000000
-0.108690 -0.420219 0.264281 2.000000
-0.289284 0.483997 -0.121348 4.000000
0.029992 0.467117 0.172127 2.000000
0.098828 0.420725 0.265097 2.000000
0.176224 -0.098839 -0.490336 2.000000
-0.089499 -0.496438 0.031001 2.000000
0.021206 0.496631 0.040414 2.000000
0.010882 0.313201 0.385349 2.000000
-0.239457 0.439835 -0.236581 2.000000
-0.133783 0.429069 0.251453 2.000000
0.196257 0.051153 0.493188 2.000000
0.232405 0.401856 -0.297139 2.000000
-0.034355 -0.404591 0.287410 2.000000
-0.011254 0.413415 -0.280611 2.000000
0.157012 0.445452 0.221400 2.000000
-0.144886 -0.440284 0.229429 2.000000
0.095186 -0.495771 0.039962 2.000000
-0.109953 0.336285 0.365523 2.000000
0.136101 -0.493501 0.060968 2.000000
-0.013712 0.211726 0.448818 2.000000
0.070625 -0.295120 0.398538 2.000000
-0.220023 -0.298214 0.396204 2.000000
0.271292 0.292766 0.401061 2.000000
-0.257396 0.030209 -0.499340 2.000000
0.202406 -0.248458 -0.433569 2.000000
-0.073518 0.451649 0.208823 2.000000
0.241970 -0.399045 -0.299343 2.000000
-0.141088 -0.260652 -0.426135 2.000000
-0.170369 0.485776 0.109922 2.000000
-0.025318 -0.332975 0.367792 2.000000
0.063144 0.426016 -0.260807 2.000000
0.164549 -0.179452 -0.466487 2.000000
0.025692 0.285633 -0.410607 2.000000
-0.011946 0.000897 -0.500189 2.000000
0.014501 -0.486961 -0.103729 2.000000
0.225296 0.492395 -0.079898 2.000000
-0.286167 0.350286 0.352368 4.000000
0.105404 -0.489407 -0.092050 2.000000
-0.285895 0.497773 0.026321 4.000000
0.038055 0.470625 0.161958 2.000000
0.050075 -0.428261 0.251090 2.000000
-0.223649 0.415706 -0.277334 2.000000
-0.050331 -0.495452 0.042913 2.000000
0.200729 -0.264757 -0.423633 2.000000
0.274410 0.361532 -0.345325 2.000000
-0.061623 0.319699 -0.384416 2.000000
-0.227328 0.305680 -0.395698 2.000000
0.249310 0.470050 0.163625 2.000000
-0.179312 0.165382 0.467798 2.000000
0.048597 0.069263 0.491231 2.000000
-0.048314 -0.291344 -0.405692 2.000000
-0.274396 0.341489 -0.365159 2.000000
-0.199258 -0.494828 0.048691 2.000000
0.008768 -0.040445 -0.498588 2.000000
-0.051151 0.147517 0.473570 2.000000
0.200190 0.076829 0.489948 2.000000
-0.167294 0.479952 0.132301 2.000000
-0.062556 -0.296609 -0.402010 2.000000
-0.023070 0.374073 0.327125 2.000000
-0.240566 -0.338917 -0.366564 2.000000
0.045207 0.093695 -0.491403 2.000000
-0.217475 -0.471703 0.156402 2.000000
0.022453 -0.497515 -0.001689 2.000000
-0.167131 -0.130162 0.478313 2.000000
-0.252844 -0.264397 0.419597 2.000000
-0.086095 0.382889 -0.321323 2.000000
-0.006132 0.195715 -0.460275 2.000000
0.090726 0.225973 0.441855 2.000000
0.072838 -0.223928 0.442337 2.000000
-0.172633 -0.335363 -0.369783 2.000000
0.120298 0.332200 0.369223 2.000000
-0.071994 0.082563 0.488961 2.000000
-0.107724 0.319603 0.380244 2.000000
0.193652 -0.229798 0.439444 2.000000
-0.033849 0.404675 -0.293108 2.000000
0.076116 0.292312 -0.405783 2.000000
0.001209 0.215818 -0.451191 2.000000
-0.068744 -0.384056 -0.318649 2.000000
-0.079938 -0.421143 -0.267265 2.000000
-0.146148 0.127501 -0.483684 2.000000
0.062390 0.224890 0.442425 2.000000
-0.123364 -0.335851 0.365297 2.000000
-0.175717 0.117737 -0.486366 2.000000
-0.160126 0.363847 -0.342768 2.000000
-0.197758 0.427309 -0.258686 2.000000
-0.160771 0.122759 0.480578 2.000000
-0.110818 -0.183096 0.460755 2.000000
-0.074486 0.109456 0.483739 2.000000
-0.227836 0.119841 -0.485798 2.000000
0.154634 0.498025 -0.022831 2.000000
0.000390 0.320414 0.379598 2.000000
-0.196821 -0.264629 0.419444 2.000000
0.083999 0.076939 0.489929 2.000000
0.213911 -0.395034 0.300454 2.000000
0.261900 0.202644 0.452894 2.000000
-0.011373 -0.417260 0.269135 2.000000
0.192538 -0.423536 -0.263640 2.000000
-0.269342 0.409679 -0.285953 2.000000
-0.231941 0.470978 0.160934 2.000000
-0.168026 -0.324689 -0.379452 2.000000
0.122152 0.198447 -0.459135 2.000000
0.060766 -0.047603 0.493495 2.000000
0.137703 -0.224042 -0.446686 2.000000
0.033251 -0.429382 -0.253474 2.000000
0.080694 0.495994 0.048284 2.000000
-0.261603 0.444498 0.223335 2.000000
0.090835 -0.165959 0.467130 2.000000
-0.162653 -0.267876 -0.421731 2.000000
0.065053 -0.467882 0.166902 2.000000
0.040086 -0.494902 0.048003 2.000000
-0.109833 -0.259796 -0.426657 2.000000
0.163271 -0.364388 0.336687 2.000000
-0.161962 -0.337725 0.363472 2.000000
0.080241 0.314577 0.384252 2.000000
0.043705 0.498183 0.017172 2.000000
0.153744 0.495910 0.049314 2.000000
-0.112427 0.497670 -0.030747 2.000000
-0.016212 0.359790 -0.347248 2.000000
-0.141305 0.200208 -0.458401 2.000000
-0.289562 -0.276195 -0.416287 4.000000
-0.177418 -0.485076 0.108144 2.000000
0.283681 0.038742 0.494529 1.000000
-0.008914 0.329202 -0.376262 2.000000
-0.060865 -0.233536 0.437603 2.000000
-0.223406 0.191424 -0.462063 2.000000
0.206188 0.099391 0.486064 2.000000
0.144260 -0.140016 0.475593 2.000000
-0.060924 -0.408700 0.281534 2.000000
-0.100117 0.310854 0.387221 2.000000
-0.035324 0.436476 -0.242960 2.000000
0.231831 0.135737 -0.481410 2.000000
-0.087573 0.074996 -0.494523 2.000000
0.252578 -0.139801 0.475652 2.000000
-0.148830 0.455097 -0.205390 2.000000
0.089306 0.495754 -0.053960 2.000000
-0.185777 -0.302931 -0.397074 2.000000
-0.013421 0.483946 -0.121563 2.000000
0.063586 -0.462834 -0.184789 2.000000
0.122314 0.417156 0.270503 2.000000
0.204191 0.488092 -0.104117 2.000000
0.255263 -0.382704 -0.320224 2.000000
0.024422 -0.482923 0.117204 2.000000
-0.131497 -0.060368 0.492138 2.000000
0.235347 -0.315811 0.382519 2.000000
-0.256161 -0.235319 0.436586 2.000000
-0.160430 -0.111120 -0.487453 2.000000
0.117852 0.454254 -0.207268 2.000000
0.049673 0.498076 -0.021694 2.000000
-0.013002 -0.430542 -0.251451 2.000000
-0.289765 0.094696 -0.491193 4.000000
-0.242959 0.491482 -0.085200 2.000000
0.214394 0.216383 0.446728 2.000000
0.024755 0.117618 0.481799 2.000000
0.221231 -0.106605 -0.488526 2.000000
-0.060880 0.168445 0.466648 2.000000
-0.071766 -0.288559 0.403488 2.000000
0.128274 0.428437 0.252555 2.000000
0.240682 -0.475815 -0.147927 2.000000
0.263221 -0.259551 0.422691 2.000000
0.248336 0.320839 -0.383437 2.000000
0.083325 -0.010449 -0.500124 2.000000
0.207532 -0.289685 -0.406853 2.000000
-0.000144 0.467792 0.170170 2.000000
0.130770 -0.482371 0.119526 2.000000
-0.111802 0.380928 -0.323783 2.000000
-0.076825 0.498391 0.005630 2.000000
0.286388 0.480555 -0.135104 1.000000
-0.172916 0.010532 0.495813 2.000000
-0.117601 0.493352 0.068895 2.000000
0.033911 -0.326725 -0.377607 2.000000
-0.215329 -0.475042 0.145458 2.000000
0.079881 0.435425 -0.244957 2.000000
0.230138 -0.301142 0.393994 2.000000
0.197296 -0.000486 0.495824 2.000000
0.025228 0.152860 -0.476355 2.000000
-0.055192 -0.420127 -0.268804 2.000000
0.051914 0.366515 -0.339823 2.000000
0.247194 -0.336295 0.364865 2.000000
-0.115296 0.355375 -0.351640 2.000000
-0.251251 -0.461786 0.183149 2.000000
0.077008 0.238346 0.435340 2.000000
0.020361 0.489163 0.093752 2.000000
0.053459 0.047564 -0.497934 2.000000
0.026580 0.178501 -0.467451 2.000000
-0.217303 0.390655 -0.311583 2.000000
-0.236621 -0.089152 -0.492004 2.000000
0.158173 -0.377263 -0.326566 2.000000
-0.147876 -0.280059 -0.413585 2.000000
-0.230626 0.337404 -0.369136 2.000000
0.046986 0.446937 0.218386 2.000000
0.242482 0.171693 -0.469859 2.000000
0.109682 -0.320456 -0.383101 2.000000
0.007561 0.432558 -0.250076 2.000000
0.160762 -0.268650 -0.421259 2.000000
-0.223740 -0.497246 0.012991 2.000000
-0.059900 0.398023 -0.302344 2.000000
-0.186116 -0.225374 -0.445984 2.000000
-0.120703 0.032785 0.494815 2.000000
0.082421 -0.033056 -0.499110 2.000000
0.209968 0.431168 -0.252356 2.000000
0.093893 0.300027 -0.399962 2.000000
-0.121916 -0.354678 -0.351157 2.000000
-0.003911 -0.034126 0.494587 2.000000
0.275906 0.168639 -0.470912 1.000000
-0.112288 -0.218996 0.444767 2.000000
-0.212959 0.424373 0.259571 2.000000
-0.171800 0.382439 -0.321888 2.000000
-0.103768 0.486416 -0.111173 2.000000
-0.235431 -0.470130 0.160914 2.000000
0.286561 0.236558 0.436282 1.000000
0.206459 0.085669 0.488426 2.000000
-0.208519 0.037125 -0.498780 2.000000
0.249168 -0.479378 -0.135021 2.000000
-0.208842 0.026988 0.495075 2.000000
-0.053490 0.180170 -0.466755 2.000000
0.202138 -0.497350 -0.010861 2.000000
-0.154482 -0.469067 -0.167857 2.000000
-0.289748 0.279291 -0.414794 4.000000
0.022821 -0.125635 0.479563 2.000000
0.236682 -0.363425 0.337750 2.000000
0.209599 0.054673 -0.497358 2.000000
0.257994 -0.174794 0.464082 2.000000
0.115678 -0.410507 -0.283376 2.000000
-0.216793 -0.454497 0.200089 2.000000
0.034398 0.462037 -0.189566 2.000000
0.024028 0.492746 0.073086 2.000000
0.224225 -0.472837 0.152685 2.000000
-0.213848 0.475438 0.148005 2.000000
-0.108228 -0.482999 0.116882 2.000000
-0.129939 0.369812 0.332090 2.000000
0.146367 0.491879 -0.082896 2.000000
-0.278952 -0.284901 0.406061 2.000000
-0.226364 -0.497255 -0.016150 2.000000
0.136048 0.066619 0.491517 2.000000
-0.237758 0.398532 -0.301706 2.000000
0.135137 0.498109 0.021256 2.000000
0.008272 0.365622 -0.340809 2.000000
-0.102662 0.494310 0.062274 2.000000
0.156929 0.497360 0.031421 2.000000
-0.120829 0.043240 -0.498285 2.000000
0.186873 -0.496035 0.037519 2.000000
0.177915 -0.427678 0.252047 2.000000
0.099126 0.255790 -0.429788 2.000000
0.106753 0.477755 -0.144279 2.000000
0.183389 0.487100 0.103603 2.000000
0.196596 -0.457114 -0.198510 2.000000
0.203355 -0.497147 -0.022133 2.000000
0.087230 -0.484818 0.109231 2.000000
-0.057877 0.441610 0.229196 2.000000
0.094598 0.391303 0.306610 2.000000
0.060577 0.384442 -0.319375 2.000000
0.286710 0.124608 -0.484482 1.000000
0.126436 -0.040882 -0.498541 2.000000
-0.085504 0.270976 -0.420283 2.000000
0.232618 0.294259 0.400017 2.000000
0.022001 -0.345454 -0.360632 2.000000
0.073735 0.328497 -0.376866 2.000000
-0.102260 0.393851 0.303233 2.000000
0.005957 -0.302390 0.393054 2.000000
-0.081334 -0.120263 -0.485281 2.000000
-0.003670 0.133069 -0.482147 2.000000
-0.278038 -0.358399 -0.347335 2.000000
0.212213 -0.476769 0.139799 2.000000
0.227225 -0.143781 0.474553 2.000000
-0.022251 0.452336 -0.211543 2.000000
-0.277519 -0.466414 -0.175548 2.000000
0.268266 0.497104 -0.041459 2.000000
0.113459 0.165071 0.467915 2.000000
0.075929 0.359184 -0.347917 2.000000
-0.155757 -0.451137 -0.212137 2.000000
-0.106356 -0.497415 -0.007274 2.000000
0.143056 0.476330 -0.148948 2.000000
-0.091981 0.447949 0.216331 2.000000
0.016300 -0.253030 -0.430782 2.000000
-0.069332 -0.137998 -0.480516 2.000000
0.264795 -0.003406 -0.500266 2.000000
0.197532 -0.176310 0.463559 2.000000
-0.158594 0.017335 -0.499893 2.000000
0.097324 -0.456329 0.196008 2.000000
0.258872 -0.491067 0.077310 2.000000
0.025899 0.138623 -0.480613 2.000000
0.099728 0.339050 0.363019 2.000000
-0.155762 -0.175340 0.463894 2.000000
-0.280591 -0.234186 -0.441345 4.000000
-0.008928 0.372960 -0.332708 2.000000
0.003856 -0.497085 -0.025585 2.000000
-0.212679 -0.124145 0.479974 2.000000
-0.108736 -0.374405 0.325627 2.000000
0.115699 0.220076 0.444960 2.000000
-0.031918 -0.180371 0.461891 2.000000
-0.260902 -0.155086 -0.475301 2.000000
0.284959 -0.479067 0.132267 1.000000
-0.070000 0.395212 -0.305870 2.000000
0.186945 -0.495965 -0.040345 2.000000
-0.121293 0.496115 0.046784 2.000000
0.120518 -0.251894 0.427082 2.000000
0.050730 -0.051085 0.493213 2.000000
-0.210809 0.192354 -0.461676 2.000000
-0.126662 0.205670 -0.456124 2.000000
-0.172640 0.407128 0.285635 2.000000
-0.063358 -0.470794 0.159144 2.000000
-0.131486 0.490815 -0.089078 2.000000
0.067157 -0.000501 -0.500214 2.000000
0.189459 -0.464522 0.175858 2.000000
-0.126059 -0.494678 0.050077 2.000000
-0.149966 0.498543 -0.002838 2.000000
-0.097226 0.463815 -0.184826 2.000000
0.108529 -0.194142 0.456149 2.000000
0.209401 0.465471 0.176569 2.000000
0.265209 0.235401 -0.441481 2.000000
0.199116 -0.495628 0.041286 2.000000
0.278466 -0.403609 -0.293293 1.000000
-0.049905 0.494894 -0.061914 2.000000
-0.192846 0.207305 -0.455387 2.000000
0.266857 0.079004 -0.493943 2.000000
-0.148799 0.211706 -0.453218 2.000000
0.178238 0.131991 0.478307 2.000000
-0.144658 -0.436828 -0.240490 2.000000
0.054101 0.463754 0.180689 2.000000
0.055558 0.143124 -0.479371 2.000000
-0.252446 -0.248270 0.429160 2.000000
-0.006366 -0.156496 -0.474871 2.000000
-0.073572 0.426305 0.256273 2.000000
-0.024649 0.314779 -0.388637 2.000000
0.268325 -0.371361 -0.333444 2.000000
-0.145659 0.327497 0.373483 2.000000
0.200037 0.410694 -0.284501 2.000000
0.033866 0.497331 -0.038292 2.000000
0.202015 -0.491595 0.074238 2.000000
-0.146885 0.450241 0.211681 2.000000
0.151988 -0.497247 -0.016601 2.000000
-0.136324 0.376603 -0.328685 2.000000
0.214102 0.460474 -0.193408 2.000000
-0.193922 0.478301 -0.142489 2.000000
-0.229604 -0.291737 -0.405418 2.000000
-0.048328 0.497886 -0.025925 2.000000
-0.181164 -0.492391 0.069614 2.000000
0.138123 -0.278530 0.410266 2.000000
-0.117776 0.242592 -0.437357 2.000000
-0.216237 -0.223108 -0.447178 2.000000
0.174389 0.078867 0.489597 2.000000
0.264162 0.456450 -0.202375 2.000000
-0.207829 -0.434568 -0.244430 2.000000
-0.215086 -0.314674 -0.387711 2.000000
-0.120330 0.020444 0.495368 2.000000
0.276651 -0.278502 0.410285 2.000000
0.155456 0.471532 -0.164260 2.000000
-0.270301 0.402118 -0.296764 2.000000
0.166845 0.467774 0.170222 2.000000
0.160964 0.160901 0.469479 2.000000
-0.002060 0.444648 -0.227440 2.000000
0.080725 0.475863 0.146773 2.000000
0.262529 0.259169 0.423311 2.000000
0.169385 0.035309 -0.498927 2.000000
0.083207 -0.169679 -0.470154 2.000000
-0.251525 -0.330285 -0.374383 2.000000
-0.113796 0.357364 0.345098 2.000000
0.061269 0.480841 0.129080 2.000000
0.178642 0.491647 -0.084244 2.000000
-0.201948 -0.072636 -0.494847 2.000000
-0.047227 -0.042845 -0.498328 2.000000
0.060800 0.368428 0.333703 2.000000
0.164416 0.358435 -0.348661 2.000000
0.237978 -0.266879 -0.422339 2.000000
-0.235764 0.347460 0.355270 2.000000
0.093406 0.263797 -0.425023 2.000000
0.258046 -0.292601 -0.404813 2.000000
0.217286 -0.300296 0.394633 2.000000
-0.057330 -0.497400 -0.008114 2.000000
-0.244469 0.480743 0.129434 2.000000
0.203585 0.397571 0.298302 2.000000
0.119194 0.267563 -0.422537 2.000000
0.057371 -0.223763 0.442418 2.000000
-0.233790 -0.322315 0.376938 2.000000
0.218569 0.317725 -0.386109 2.000000
0.152705 -0.489966 0.083701 2.000000
0.106451 0.478367 0.138042 2.000000
0.123847 -0.068045 0.491027 2.000000
0.263331 0.456920 0.197079 2.000000
0.201319 -0.196717 -0.459447 2.000000
0.087215 0.301684 0.394532 2.000000
0.096242 0.276628 -0.416552 2.000000
0.249854 -0.298816 -0.400356 2.000000
0.217608 -0.448082 -0.218336 2.000000
-0.036015 0.366591 0.335620 2.000000
-0.198404 -0.369693 0.330829 2.000000
-0.178091 0.074327 -0.494620 2.000000
0.083415 0.159029 -0.474227 2.000000
0.152083 0.423100 0.261500 2.000000
0.221306 0.469512 -0.169643 2.000000
0.123159 -0.496961 0.019354 2.000000
0.046757 0.449273 -0.218369 2.000000
-0.199933 -0.068719 0.490930 2.000000
-0.245527 0.057153 -0.497105 2.000000
0.163632 0.498066 0.022701 2.000000
0.245225 -0.288787 -0.407480 2.000000
-0.108882 -0.485415 -0.111104 2.000000
0.239877 0.498411 0.004506 2.000000
-0.250457 -0.486414 -0.106335 2.000000
-0.010638 0.006375 0.495948 2.000000
0.215843 0.395740 0.300729 2.000000
0.238785 0.482158 -0.129087 2.000000
-0.092251 0.494909 -0.061771 2.000000
0.116501 -0.476331 0.141235 2.000000
0.250513 -0.496280 -0.036452 2.000000
0.144030 0.467288 0.171630 2.000000
-0.137100 0.116251 0.482124 2.000000
0.286507 0.138264 -0.480713 1.000000
-0.031573 0.458182 0.194053 2.000000
0.131833 0.484741 0.114860 2.000000
0.048022 0.325343 -0.379573 2.000000
0.239576 -0.200042 -0.457955 2.000000
0.116998 0.285793 -0.410502 2.000000
-0.264220 0.356336 0.346153 2.000000
0.149795 0.221198 0.444369 2.000000
0.020031 0.254912 0.425906 2.000000
-0.082129 0.100651 -0.489946 2.000000
0.190525 -0.120926 0.480862 2.000000
0.170697 -0.306077 -0.394566 2.000000
-0.084796 -0.410605 -0.283228 2.000000
-0.194125 -0.488506 0.092186 2.000000
-0.029999 0.127538 0.479442 2.000000
-0.097486 0.018611 -0.499870 2.000000
-0.181084 -0.341200 -0.364497 2.000000
0.093167 -0.031284 -0.499189 2.000000
-0.035654 0.277948 -0.415681 2.000000
0.123076 -0.091365 -0.491623 2.000000
0.031803 0.358281 -0.348812 2.000000
-0.145404 0.440062 0.232283 2.000000
-0.202435 -0.492926 -0.069114 2.000000
-0.057744 -0.141500 -0.479447 2.000000
0.270179 -0.345115 0.356278 2.000000
-0.264021 -0.131973 0.477813 2.000000
0.081620 0.128942 0.479108 2.000000
-0.227574 -0.448466 0.213530 2.000000
0.251900 -0.062781 -0.496174 2.000000
-0.262376 0.331744 0.369636 2.000000
0.059790 0.353292 -0.353669 2.000000
-0.074844 0.323482 -0.381170 2.000000
0.222237 -0.386179 -0.316174 2.000000
0.063657 0.000693 0.495845 2.000000
0.165414 -0.448000 0.214567 2.000000
0.193171 -0.339939 0.361317 2.000000
0.172174 -0.480407 0.127790 2.000000
-0.231759 -0.384969 0.313076 2.000000
-0.241103 0.141398 -0.479848 2.000000
-0.136870 -0.317830 -0.385195 2.000000
0.018539 -0.494862 0.048374 2.000000
-0.197578 0.007463 0.495950 2.000000
-0.006319 -0.179410 -0.466503 2.000000
-0.207601 -0.031305 -0.499188 2.000000
0.040193 0.356828 0.345648 2.000000
-0.020931 -0.456189 0.196318 2.000000
-0.068286 -0.213102 -0.452094 2.000000
-0.077252 0.413513 -0.280470 2.000000
0.245824 -0.361738 -0.343906 2.000000
-0.210323 0.268291 -0.422056 2.000000
0.251513 -0.366026 0.334878 2.000000
-0.228221 -0.039795 0.494127 2.000000
0.157864 -0.188009 0.458707 2.000000
-0.257875 -0.299064 -0.400159 2.000000
0.075938 -0.491101 0.077113 2.000000
0.183395 0.385932 -0.317507 2.000000
-0.002141 0.463154 0.182126 2.000000
-0.273504 -0.029457 -0.499271 2.000000
-0.219832 0.045587 0.493789 2.000000
0.185306 -0.490301 0.081758 2.000000
-0.210006 0.304959 -0.396241 2.000000
0.099542 0.121571 0.480860 2.000000
0.069006 -0.182771 -0.465242 2.000000
0.247384 0.259193 0.423296 2.000000
-0.174163 -0.143497 -0.478837 2.000000
-0.289501 0.484042 0.117483 4.000000
-0.060297 -0.384073 0.314199 2.000000
0.208752 -0.465825 0.172385 2.000000
-0.159860 0.414222 0.274948 2.000000
-0.247340 0.447039 -0.222900 2.000000
-0.040097 0.359643 -0.347411 2.000000
0.088642 -0.448503 -0.217481 2.000000
0.122081 0.341333 -0.365311 2.000000
0.164491 0.310054 0.387859 2.000000
-0.203893 -0.464803 0.175108 2.000000
0.111085 -0.339883 0.361372 2.000000
-0.124601 -0.422038 0.261298 2.000000
0.048825 -0.103482 -0.489269 2.000000
0.107536 0.384009 -0.319919 2.000000
-0.083991 -0.312808 -0.389199 2.000000
-0.154728 -0.465502 -0.178192 2.000000
0.217893 -0.482831 -0.122512 2.000000
-0.222905 0.059781 -0.496724 2.000000
0.095176 -0.322415 0.376853 2.000000
0.286166 -0.143480 0.474637 1.000000
0.216950 -0.403083 -0.293991 2.000000
-0.037606 -0.481790 -0.126284 2.000000
-0.201672 0.153261 -0.476217 2.000000
-0.146267 -0.360553 -0.345122 2.000000
0.135524 0.316041 0.383085 2.000000
0.218390 0.427756 0.253743 2.000000
-0.067045 0.487943 -0.104744 2.000000
-0.081938 -0.478627 0.133710 2.000000
-0.207575 -0.495243 -0.049254 2.000000
-0.152600 0.435049 -0.245670 2.000000
-0.271911 0.381120 0.318911 2.000000
-0.224196 0.168731 0.466541 2.000000
0.284822 0.359370 0.343037 1.000000
-0.064545 -0.485867 0.104815 2.000000
0.010197 0.117383 -0.486441 2.000000
-0.204139 -0.142926 -0.479012 2.000000
0.066122 0.175408 -0.468577 2.000000
-0.142306 -0.229161 0.439758 2.000000
-0.226677 -0.465583 -0.177956 2.000000
0.028021 -0.457125 -0.198482 2.000000
0.166754 -0.289314 -0.407112 2.000000
0.236281 0.348319 0.354388 2.000000
0.141579 0.479643 -0.138090 2.000000
-0.290218 -0.363273 -0.342329 4.000000
0.051889 0.323244 0.377335 2.000000
0.083393 -0.196767 -0.459424 2.000000
-0.113716 -0.080213 -0.493542 2.000000
0.147432 0.468386 -0.172644 2.000000
0.285939 0.281812 -0.413130 1.000000
0.111917 0.151124 -0.476954 2.000000
0.239704 0.486618 0.105901 2.000000
-0.254612 -0.492661 -0.070944 2.000000
-0.086937 -0.427220 0.252797 2.000000
-0.159394 0.468745 -0.171689 2.000000
0.118141 0.096884 0.486495 2.000000
0.203339 0.454636 -0.206418 2.000000
-0.281723 -0.494580 -0.057443 4.000000
-0.235601 -0.021171 0.495452 2.000000
-0.033216 -0.447400 0.215906 2.000000
0.013246 -0.006028 0.495724 2.000000
-0.054835 0.160769 -0.473627 2.000000
0.284328 0.406034 -0.291164 1.000000
-0.104832 0.256413 0.424991 2.000000
-0.284911 0.278082 0.411330 4.000000
-0.272920 -0.470880 -0.162599 2.000000
0.082102 0.460086 -0.194272 2.000000
-0.206877 0.214688 -0.451749 2.000000
-0.261790 -0.094833 -0.491026 2.000000
-0.144016 -0.099254 -0.490265 2.000000
-0.195802 -0.372007 -0.332691 2.000000
-0.036980 -0.045118 0.493696 2.000000
-0.201674 -0.497563 0.000935 2.000000
0.048714 -0.475991 -0.147290 2.000000
0.238098 -0.184316 -0.464662 2.000000
-0.067724 -0.173780 0.464432 2.000000
-0.163858 0.229405 0.440048 2.000000
-0.168963 0.172302 -0.469648 2.000000
0.048392 0.271279 -0.420083 2.000000
0.165146 -0.497558 0.000670 2.000000
0.196236 0.154629 0.471400 2.000000
-0.008340 -0.112992 0.482792 2.000000
0.260796 -0.362750 -0.342866 2.000000
-0.136396 -0.482285 -0.124490 2.000000
0.197469 -0.460113 0.187575 2.000000
0.096588 0.488189 -0.103709 2.000000
-0.018295 -0.178623 0.462620 2.000000
-0.038670 -0.034775 0.494534 2.000000
-0.288278 -0.202170 -0.457000 4.000000
-0.256020 0.477001 -0.146752 2.000000
-0.107393 0.345011 -0.361730 2.000000
-0.259230 -0.489982 0.083609 2.000000
0.221962 -0.446096 0.218390 2.000000
-0.232699 0.381883 0.318022 2.000000
0.241779 0.328037 -0.377262 2.000000
-0.264260 0.081592 -0.493569 2.000000
-0.124135 -0.467968 -0.171043 2.000000
-0.021231 -0.497623 0.004267 2.000000
0.177061 0.379572 0.320716 2.000000
0.272083 -0.262758 -0.424851 2.000000
-0.004726 -0.222169 0.443204 2.000000
-0.233165 -0.009914 0.495654 2.000000
0.038425 0.079019 0.489571 2.000000
-0.243776 0.134480 0.477548 2.000000
0.272690 -0.456624 0.195351 2.000000
-0.151827 -0.268820 -0.421156 2.000000
0.196723 0.137449 -0.480938 2.000000
-0.159366 -0.120705 0.480923 2.000000
0.068421 0.228031 -0.445174 2.000000
-0.077507 0.415543 0.272946 2.000000
-0.171729 0.355304 -0.351710 2.000000
-0.273795 0.498225 -0.018360 2.000000
