-0.290288 0.256701 0.419131 4.000000
-0.290288 0.100290 -0.481625 4.000000
-0.290288 0.064251 -0.449573 4.000000
-0.290288 0.042551 0.470650 4.000000
-0.290288 0.437857 -0.103142 4.000000
-0.290288 -0.425030 -0.178268 4.000000
-0.290288 -0.152247 -0.475487 4.000000
-0.290288 0.457824 -0.053399 4.000000
-0.290288 0.098615 0.485009 4.000000
-0.290288 -0.462097 -0.183854 4.000000
-0.290288 -0.277289 0.406338 4.000000
-0.290288 0.177584 -0.445584 4.000000
-0.290288 0.458046 0.180704 4.000000
-0.290288 -0.406007 -0.269679 4.000000
-0.290288 0.448426 -0.042155 4.000000
-0.290288 -0.246905 -0.433577 4.000000
-0.290288 -0.402041 0.273570 4.000000
-0.290288 0.101956 -0.442799 4.000000
-0.290288 0.385070 0.247550 4.000000
-0.290288 0.161751 0.425448 4.000000
-0.290288 0.478626 0.070211 4.000000
-0.290288 0.186214 0.427019 4.000000
-0.290288 0.309629 -0.348454 4.000000
-0.290288 -0.178370 0.410121 4.000000
-0.290288 -0.006224 0.492463 4.000000
-0.290288 0.327108 -0.355823 4.000000
-0.290288 -0.445259 0.060025 4.000000
-0.290288 0.291482 0.341009 4.000000
-0.290288 0.453773 0.031357 4.000000
-0.290288 0.384306 0.298418 4.000000
-0.290288 -0.351096 -0.335951 4.000000
-0.290288 0.089982 0.487232 4.000000
-0.290288 -0.006855 -0.472365 4.000000
-0.290288 -0.400696 -0.283594 4.000000
-0.290288 -0.317078 0.357732 4.000000
-0.290288 0.436740 0.220621 4.000000
-0.290288 -0.457812 -0.103352 4.000000
-0.290288 0.108986 0.448005 4.000000
-0.290288 0.406390 0.256781 4.000000
-0.290288 -0.000810 0.467266 4.000000
-0.290288 0.445685 0.007007 4.000000
-0.290288 -0.406666 0.283662 4.000000
-0.290288 -0.349522 0.317053 4.000000
-0.290288 -0.265768 -0.361579 4.000000
-0.290288 -0.398278 -0.202549 4.000000
-0.290288 -0.375795 0.306838 4.000000
-0.290288 -0.133135 -0.458882 4.000000
-0.290288 -0.459234 -0.062705 4.000000
-0.290288 -0.262677 -0.366073 4.000000
-0.290288 0.482698 0.095541 4.000000
-0.290288 0.485823 -0.107689 4.000000
-0.290288 -0.118783 -0.483886 4.000000
-0.290288 0.417218 -0.244465 4.000000
-0.290288 0.143528 0.449961 4.000000
-0.290288 -0.057743 0.444139 4.000000
-0.290288 -0.236343 0.387140 4.000000
-0.290288 0.443985 0.109014 4.000000
-0.290288 0.412144 -0.174701 4.000000
-0.290288 0.183961 0.457688 4.000000
-0.290288 -0.284934 -0.363703 4.000000
-0.290288 0.361186 0.291744 4.000000
-0.290288 -0.484815 -0.060740 4.000000
-0.290288 -0.262443 0.377856 4.000000
-0.290288 -0.405936 -0.243828 4.000000
-0.290288 -0.366215 -0.313550 4.000000
-0.290288 -0.441375 -0.075396 4.000000
-0.290288 -0.014026 0.491164 4.000000
-0.290288 -0.483335 -0.103151 4.000000
-0.290288 -0.329857 0.364353 4.000000
-0.290288 -0.244335 0.383196 4.000000
-0.290288 -0.444832 0.011682 4.000000
-0.290288 -0.264021 -0.411604 4.000000
-0.290288 -0.058312 0.450243 4.000000
-0.290288 0.267133 0.378644 4.000000
-0.290288 0.461245 0.001292 4.000000
-0.290288 0.398765 0.209457 4.000000
-0.290288 0.317305 -0.369724 4.000000
-0.290288 -0.010926 0.464834 4.000000
-0.290288 0.167501 -0.460517 4.000000
-0.290288 -0.406719 0.211438 4.000000
-0.290288 -0.104318 0.484419 4.000000
-0.290288 0.482116 -0.069743 4.000000
-0.290288 0.071694 -0.464197 4.000000
-0.290288 -0.273538 -0.393811 4.000000
-0.290288 -0.396524 0.217705 4.000000
-0.290288 0.000721 -0.451991 4.000000
-0.290288 -0.456786 0.194848 4.000000
-0.290288 0.468565 -0.086984 4.000000
-0.290288 0.429883 -0.178193 4.000000
-0.290288 -0.357048 0.309840 4.000000
-0.290288 0.440392 0.153077 4.000000
-0.290288 -0.489874 0.009650 4.000000
-0.290288 0.458805 -0.154687 4.000000
-0.290288 -0.012162 0.476830 4.000000
-0.290288 0.091318 0.452488 4.000000
-0.290288 -0.448131 0.164523 4.000000
-0.290288 0.370705 0.279605 4.000000
-0.290288 0.334028 0.329142 4.000000
-0.290288 0.476492 0.011691 4.000000
-0.290288 -0.045784 -0.445065 4.000000
-0.290288 0.260636 0.373633 4.000000
-0.290288 0.276921 0.372490 4.000000
-0.290288 -0.054916 0.446219 4.000000
-0.290288 -0.449700 0.205764 4.000000
-0.290288 0.406504 -0.218985 4.000000
-0.290288 0.344565 -0.343362 4.000000
-0.290288 -0.397089 0.273687 4.000000
-0.290288 -0.020636 0.457143 4.000000
-0.290288 -0.036460 0.459445 4.000000
-0.290288 -0.049612 0.459204 4.000000
-0.290288 0.258165 -0.411494 4.000000
-0.290288 -0.095942 0.446875 4.000000
-0.290288 0.313700 0.315944 4.000000
-0.290288 -0.461165 -0.144876 4.000000
-0.290288 0.200460 0.424283 4.000000
-0.290288 -0.466847 -0.109498 4.000000
-0.290288 0.447685 -0.135725 4.000000
-0.290288 0.469669 0.033069 4.000000
-0.290288 -0.396315 -0.229802 4.000000
-0.290288 -0.459790 -0.092108 4.000000
-0.290288 0.010540 0.467104 4.000000
-0.290288 -0.176822 -0.464894 4.000000
-0.290288 -0.440074 -0.147514 4.000000
-0.290288 0.217920 -0.433256 4.000000
-0.290288 0.459478 -0.046022 4.000000
-0.290288 0.453056 -0.061934 4.000000
-0.290288 -0.416278 -0.207812 4.000000
-0.290288 -0.271702 -0.372401 4.000000
-0.290288 -0.440791 -0.062555 4.000000
-0.290288 -0.413220 0.201412 4.000000
-0.290288 -0.147267 0.425860 4.000000
-0.290288 0.287432 -0.386562 4.000000
-0.290288 -0.017496 0.461383 4.000000
-0.290288 -0.428630 0.150154 4.000000
-0.290288 0.494541 -0.003918 4.000000
-0.290288 0.159544 0.465701 4.000000
-0.290288 0.454955 0.040694 4.000000
-0.290288 0.356517 0.339570 4.000000
-0.290288 -0.307343 -0.349786 4.000000
-0.290288 0.121245 -0.469488 4.000000
-0.290288 0.408086 -0.209947 4.000000
-0.290288 0.016130 0.484796 4.000000
-0.290288 0.351991 -0.299764 4.000000
-0.290288 -0.137278 -0.469205 4.000000
-0.290288 -0.280243 -0.364989 4.000000
-0.290288 0.429177 -0.133268 4.000000
-0.290288 -0.158121 0.434106 4.000000
-0.290288 0.350717 0.275283 4.000000
-0.290288 -0.356519 -0.332968 4.000000
-0.290288 0.413092 -0.204397 4.000000
-0.290288 -0.424361 0.203848 4.000000
-0.290288 0.292080 -0.353983 4.000000
-0.290288 0.418510 0.217738 4.000000
-0.290288 0.339405 -0.295427 4.000000
-0.290288 -0.101519 -0.446473 4.000000
-0.290288 0.013014 -0.483496 4.000000
-0.290288 -0.141155 0.461495 4.000000
-0.290288 0.103133 0.474986 4.000000
-0.290288 -0.161465 -0.420434 4.000000
-0.290288 0.447367 0.109522 4.000000
-0.290288 -0.292423 0.389406 4.000000
-0.290288 -0.441170 0.141867 4.000000
-0.290288 -0.455197 -0.115879 4.000000
-0.290288 -0.030256 0.454459 4.000000
-0.290288 -0.042767 0.441043 4.000000
-0.290288 -0.121664 -0.481058 4.000000
-0.290288 0.384108 -0.259083 4.000000
-0.290288 0.039259 -0.454464 4.000000
-0.290288 0.405828 0.208954 4.000000
-0.290288 -0.397204 0.264821 4.000000
-0.290288 -0.020759 -0.491886 4.000000
-0.290288 0.449959 -0.175979 4.000000
-0.290288 0.422436 0.239991 4.000000
-0.290288 -0.120710 0.448023 4.000000
-0.290288 -0.460780 -0.138898 4.000000
-0.290288 -0.350412 -0.276476 4.000000
-0.290288 0.130625 -0.457465 4.000000
-0.290288 0.467277 0.069462 4.000000
-0.290288 0.161370 0.450725 4.000000
-0.290288 -0.195835 0.405467 4.000000
-0.290288 0.470349 0.083167 4.000000
-0.290288 0.027549 0.449522 4.000000
-0.290288 -0.344203 -0.333976 4.000000
-0.290288 0.441812 -0.063045 4.000000
-0.290288 0.068010 0.484834 4.000000
-0.290288 0.076276 0.458121 4.000000
-0.290288 -0.392197 0.247697 4.000000
-0.290288 -0.165277 0.466761 4.000000
-0.290288 -0.337454 0.288252 4.000000
-0.290288 0.431512 -0.140400 4.000000
-0.290288 -0.476176 0.011881 4.000000
-0.290288 -0.460410 0.114488 4.000000
-0.290288 0.301774 -0.375202 4.000000
-0.290288 -0.451729 -0.044173 4.000000
-0.290288 0.443392 -0.196938 4.000000
-0.290288 0.307685 0.367647 4.000000
-0.290288 0.411613 0.227380 4.000000
-0.290288 -0.394610 0.269711 4.000000
-0.290288 -0.380261 -0.267268 4.000000
-0.290288 0.219156 -0.416484 4.000000
-0.290288 0.189799 -0.406763 4.000000
-0.290288 -0.479903 0.062485 4.000000
-0.290288 -0.064907 -0.478904 4.000000
-0.290288 -0.413580 0.263699 4.000000
-0.290288 -0.433617 0.099441 4.000000
-0.290288 -0.199345 -0.420028 4.000000
-0.290288 -0.144851 0.471328 4.000000
-0.290288 -0.095881 0.443338 4.000000
-0.290288 0.481039 -0.077005 4.000000
-0.290288 0.221791 0.424022 4.000000
-0.290288 -0.322194 0.322799 4.000000
-0.290288 0.320284 0.322034 4.000000
-0.290288 0.446625 -0.008230 4.000000
-0.290288 -0.400164 0.215944 4.000000
-0.290288 0.334133 -0.352606 4.000000
-0.290288 0.431543 0.156289 4.000000
-0.290288 0.002450 0.490350 4.000000
-0.290288 -0.282994 -0.366406 4.000000
-0.290288 -0.380103 0.306742 4.000000
-0.290288 -0.413701 -0.257639 4.000000
-0.290288 0.264414 0.407441 4.000000
-0.290288 -0.061055 0.459472 4.000000
-0.290288 0.123178 -0.438822 4.000000
-0.290288 0.474365 -0.045368 4.000000
-0.290288 -0.310919 0.333395 4.000000
-0.290288 -0.307673 0.346130 4.000000
-0.290288 -0.326850 -0.360022 4.000000
-0.290288 -0.255237 -0.417945 4.000000
-0.290288 0.074941 -0.441316 4.000000
-0.290288 0.365876 -0.325088 4.000000
-0.290288 0.178555 -0.451861 4.000000
-0.290288 0.351634 -0.333983 4.000000
-0.290288 -0.234011 -0.381877 4.000000
-0.290288 0.290821 0.345471 4.000000
-0.290288 0.242147 -0.402870 4.000000
-0.290288 0.444970 -0.124659 4.000000
-0.290288 0.427105 0.130000 4.000000
-0.290288 -0.042996 -0.477095 4.000000
-0.290288 0.481224 0.047997 4.000000
-0.290288 0.140988 0.438609 4.000000
-0.290288 0.079353 0.475246 4.000000
-0.290288 0.274146 -0.359352 4.000000
-0.290288 0.478967 0.054403 4.000000
-0.290288 -0.212006 0.423079 4.000000
-0.290288 -0.440965 -0.165919 4.000000
-0.290288 0.448095 -0.077252 4.000000
-0.290288 -0.216130 -0.435846 4.000000
-0.290288 0.457808 -0.194362 4.000000
-0.290288 0.453784 0.110730 4.000000
-0.290288 -0.086815 -0.478889 4.000000
-0.290288 -0.366945 0.250988 4.000000
-0.290288 0.407957 -0.288279 4.000000
-0.290288 0.463084 0.052279 4.000000
-0.290288 0.483803 -0.031831 4.000000
-0.290288 -0.069058 0.473552 4.000000
-0.290288 0.316099 0.354442 4.000000
-0.290288 0.174962 0.450829 4.000000
-0.290288 0.476096 0.027634 4.000000
-0.290288 0.012094 -0.491005 4.000000
-0.290288 0.461123 0.034364 4.000000
-0.290288 0.490514 0.012421 4.000000
-0.290288 -0.420835 -0.249661 4.000000
-0.290288 0.076284 0.473482 4.000000
-0.290288 0.330558 -0.309760 4.000000
-0.290288 0.309856 0.318429 4.000000
-0.290288 -0.266841 0.400729 4.000000
-0.290288 -0.012614 0.473652 4.000000
-0.290288 0.074883 0.446058 4.000000
-0.290288 0.086702 0.487703 4.000000
-0.290288 -0.467586 -0.144474 4.000000
-0.290288 0.123099 -0.431761 4.000000
-0.290288 0.167554 -0.435028 4.000000
-0.290288 0.230783 0.427674 4.000000
-0.290288 0.416210 -0.256974 4.000000
-0.290288 0.025427 -0.496068 4.000000
-0.290288 -0.443210 0.200316 4.000000
-0.290288 -0.011415 -0.456633 4.000000
-0.290288 -0.122583 0.474447 4.000000
-0.290288 0.148104 -0.448957 4.000000
-0.290288 -0.429115 -0.143337 4.000000
-0.290288 0.002213 0.452697 4.000000
-0.290288 -0.205897 0.401894 4.000000
-0.290288 0.450590 0.011134 4.000000
-0.290288 -0.140480 0.428009 4.000000
-0.290288 0.170795 0.414862 4.000000
-0.290288 -0.168848 -0.450346 4.000000
-0.290288 0.474703 -0.056377 4.000000
-0.290288 0.375028 -0.317797 4.000000
-0.290288 -0.067321 0.443938 4.000000
-0.290288 -0.471691 0.142340 4.000000
-0.290288 -0.354872 -0.286653 4.000000
-0.290288 0.466396 0.106620 4.000000
-0.290288 -0.077859 -0.443878 4.000000
-0.290288 0.478051 -0.022291 4.000000
-0.290288 0.300821 0.365961 4.000000
-0.290288 -0.445847 0.143286 4.000000
-0.290288 0.280118 0.409825 4.000000
-0.290288 -0.430173 0.116252 4.000000
-0.290288 0.381751 0.301404 4.000000
-0.290288 -0.034920 0.446692 4.000000
-0.290288 0.257134 0.396473 4.000000
-0.290288 -0.381580 0.262780 4.000000
-0.290288 -0.425726 -0.238237 4.000000
-0.290288 -0.408018 0.176183 4.000000
-0.290288 -0.471338 -0.006018 4.000000
-0.290288 0.344751 -0.301245 4.000000
-0.290288 0.449538 0.070991 4.000000
-0.290288 -0.161407 -0.436025 4.000000
-0.290288 0.434141 -0.172060 4.000000
-0.290288 -0.482511 0.048379 4.000000
-0.290288 -0.420200 -0.198849 4.000000
-0.290288 0.137926 -0.461246 4.000000
-0.290288 0.451771 0.041948 4.000000
-0.290288 -0.448768 0.012877 4.000000
-0.290288 -0.433140 0.156128 4.000000
-0.290288 -0.380366 0.287759 4.000000
-0.290288 0.317365 0.315671 4.000000
-0.290288 -0.356485 0.328131 4.000000
-0.290288 0.310004 -0.331775 4.000000
-0.290288 -0.217237 0.398142 4.000000
-0.290288 -0.291053 0.355044 4.000000
-0.290288 -0.449461 0.008435 4.000000
-0.290288 -0.441941 -0.054071 4.000000
-0.290288 -0.464976 -0.066611 4.000000
-0.290288 -0.478726 -0.010855 4.000000
-0.290288 -0.034985 0.493509 4.000000
-0.290288 -0.010157 -0.470617 4.000000
-0.290288 0.120597 0.442867 4.000000
-0.290288 0.008161 0.464038 4.000000
-0.290288 -0.407271 0.251925 4.000000
-0.290288 0.420452 -0.202450 4.000000
-0.290288 -0.036425 0.474707 4.000000
-0.290288 0.004580 -0.450077 4.000000
-0.290288 0.017552 0.450989 4.000000
-0.290288 -0.435471 -0.138070 4.000000
-0.290288 -0.222200 -0.395854 4.000000
-0.290288 0.472006 0.095927 4.000000
-0.290288 0.023714 -0.451355 4.000000
-0.290288 0.196586 0.454331 4.000000
-0.290288 -0.162401 -0.439791 4.000000
-0.290288 0.344154 -0.309298 4.000000
-0.290288 0.390905 0.267490 4.000000
-0.290288 0.156938 -0.423521 4.000000
-0.290288 -0.238172 0.412846 4.000000
-0.290288 0.114791 -0.437510 4.000000
-0.290288 -0.457212 0.141234 4.000000
-0.290288 0.300213 0.351070 4.000000
-0.290288 0.342385 0.327254 4.000000
-0.290288 -0.101249 0.467669 4.000000
-0.290288 0.448299 0.095027 4.000000
-0.290288 -0.188934 -0.456659 4.000000
-0.290288 0.299731 -0.349769 4.000000
-0.290288 -0.315284 -0.344289 4.000000
-0.290288 0.466137 0.032354 4.000000
-0.290288 0.303105 0.353841 4.000000
-0.290288 0.350902 0.312892 4.000000
-0.290288 0.486750 0.038604 4.000000
-0.290288 0.362032 -0.341481 4.000000
-0.290288 0.080932 -0.469767 4.000000
-0.290288 0.147481 -0.429965 4.000000
-0.290288 0.403525 0.234034 4.000000
-0.290288 -0.035878 0.465973 4.000000
-0.290288 0.473693 -0.092636 4.000000
-0.290288 0.426309 0.224341 4.000000
-0.290288 -0.341224 -0.337123 4.000000
-0.290288 -0.049326 0.451757 4.000000
-0.290288 -0.024737 -0.464741 4.000000
-0.290288 0.036167 0.492725 4.000000
-0.290288 -0.410445 -0.189285 4.000000
-0.290288 -0.288183 0.347652 4.000000
-0.290288 -0.457377 -0.150342 4.000000
-0.290288 0.179939 0.435240 4.000000
-0.290288 -0.445560 -0.121255 4.000000
-0.290288 -0.396608 -0.241497 4.000000
-0.290288 0.284573 0.379089 4.000000
-0.290288 0.469759 0.077878 4.000000
-0.290288 -0.447192 0.021486 4.000000
-0.290288 -0.057204 -0.482787 4.000000
-0.290288 -0.435185 0.237805 4.000000
-0.290288 -0.234128 -0.434142 4.000000
-0.290288 -0.467578 -0.040745 4.000000
-0.290288 -0.448000 -0.172646 4.000000
-0.290288 0.063681 0.443505 4.000000
-0.290288 0.464965 -0.049306 4.000000
-0.290288 0.443469 0.101889 4.000000
-0.290288 0.099569 -0.451373 4.000000
-0.290288 -0.442575 -0.126271 4.000000
-0.290288 0.441202 -0.087742 4.000000
-0.290288 -0.496102 0.009742 4.000000
-0.290288 -0.432337 -0.153496 4.000000
-0.290288 -0.199862 0.405412 4.000000
-0.290288 0.209571 -0.405532 4.000000
-0.290288 -0.284579 0.364541 4.000000
-0.290288 0.247978 0.388722 4.000000
-0.290288 0.187888 0.458016 4.000000
-0.290288 0.025417 0.489161 4.000000
-0.290288 -0.308766 0.367542 4.000000
-0.290288 -0.356035 -0.293733 4.000000
-0.290288 0.124230 0.471857 4.000000
-0.290288 0.490667 0.038391 4.000000
-0.290288 -0.029688 0.457825 4.000000
-0.290288 0.211091 -0.447523 4.000000
-0.290288 -0.452822 -0.198779 4.000000
-0.290288 -0.426020 -0.258072 4.000000
-0.290288 -0.435837 0.125996 4.000000
-0.290288 0.058106 -0.490554 4.000000
-0.290288 -0.195074 0.439056 4.000000
-0.290288 -0.461740 -0.017726 4.000000
-0.290288 0.103240 0.447561 4.000000
-0.290288 -0.462803 0.175529 4.000000
-0.290288 0.250976 0.391619 4.000000
-0.290288 0.390523 0.248323 4.000000
-0.290288 0.349034 -0.285870 4.000000
-0.290288 -0.471624 -0.009228 4.000000
-0.290288 0.288193 -0.381850 4.000000
-0.290288 0.329283 0.335664 4.000000
-0.290288 -0.338800 0.297362 4.000000
-0.290288 -0.036309 0.443432 4.000000
-0.290288 -0.250940 -0.390724 4.000000
-0.290288 -0.278205 0.345598 4.000000
-0.290288 0.426555 0.157373 4.000000
-0.290288 -0.433896 0.230067 4.000000
-0.290288 0.465935 0.159018 4.000000
-0.290288 -0.425880 -0.218888 4.000000
-0.290288 0.438964 -0.149245 4.000000
-0.290288 -0.421316 0.202799 4.000000
-0.290288 -0.462622 -0.093967 4.000000
-0.290288 0.456694 -0.136164 4.000000
-0.290288 -0.482675 0.014558 4.000000
-0.290288 0.107939 -0.486222 4.000000
-0.290288 -0.306893 -0.353184 4.000000
-0.290288 -0.316470 0.322812 4.000000
-0.290288 0.453880 0.153876 4.000000
-0.290288 -0.322346 -0.340024 4.000000
-0.290288 0.359004 -0.327249 4.000000
-0.290288 -0.257901 -0.376679 4.000000
-0.290288 -0.306203 0.321810 4.000000
-0.290288 0.431566 -0.136782 4.000000
-0.290288 -0.369338 0.277749 4.000000
-0.290288 0.146214 0.448172 4.000000
-0.290288 -0.055618 -0.461317 4.000000
-0.290288 0.045976 0.488010 4.000000
-0.290288 0.401339 0.292893 4.000000
-0.290288 -0.051754 -0.489993 4.000000
-0.290288 -0.063185 -0.464052 4.000000
-0.290288 0.419979 -0.235016 4.000000
-0.290288 -0.307865 -0.335032 4.000000
-0.290288 -0.340387 -0.355281 4.000000
-0.290288 0.199371 0.404931 4.000000
-0.290288 0.474637 0.069004 4.000000
-0.290288 0.264500 -0.365628 4.000000
-0.290288 0.350221 -0.343091 4.000000
-0.290288 -0.039986 0.468366 4.000000
-0.290288 0.050334 -0.457695 4.000000
-0.290288 0.444529 -0.193450 4.000000
-0.290288 0.443878 -0.155790 4.000000
-0.290288 -0.383260 0.254775 4.000000
-0.290288 0.216683 -0.450650 4.000000
-0.290288 0.316616 0.322982 4.000000
-0.290288 0.485657 0.087260 4.000000
-0.290288 -0.460874 -0.154068 4.000000
-0.290288 -0.375712 0.266825 4.000000
-0.290288 -0.357738 0.265409 4.000000
-0.290288 -0.485596 0.033189 4.000000
-0.290288 -0.005950 0.456123 4.000000
-0.290288 -0.469753 0.146225 4.000000
-0.290288 -0.441059 0.227083 4.000000
-0.290288 -0.108143 0.437448 4.000000
-0.290288 -0.194406 0.420298 4.000000
-0.290288 0.375532 0.303318 4.000000
-0.290288 -0.395282 -0.295504 4.000000
-0.290288 -0.255367 0.398117 4.000000
-0.290288 0.063338 -0.452508 4.000000
-0.290288 -0.281612 -0.389552 4.000000
-0.290288 -0.245816 -0.394096 4.000000
-0.290288 -0.132580 0.450803 4.000000
-0.290288 0.432232 -0.188310 4.000000
-0.290288 0.097180 0.456879 4.000000
-0.290288 0.226380 0.413587 4.000000
-0.290288 -0.080598 0.468366 4.000000
-0.290288 -0.463559 -0.180716 4.000000
-0.290288 -0.075713 -0.467016 4.000000
-0.290288 0.434531 -0.142283 4.000000
-0.290288 -0.229754 0.391505 4.000000
-0.290288 0.214656 0.399325 4.000000
-0.290288 -0.001629 0.476485 4.000000
-0.290288 0.362723 -0.321324 4.000000
-0.290288 0.072124 -0.493951 4.000000
-0.290288 0.087974 0.446562 4.000000
-0.290288 -0.242688 -0.432722 4.000000
-0.290288 -0.261202 0.364724 4.000000
-0.290288 -0.150092 -0.458007 4.000000
-0.290288 0.393877 0.250682 4.000000
-0.290288 -0.465647 0.021853 4.000000
-0.290288 -0.036194 -0.451065 4.000000
-0.290288 -0.231426 0.394756 4.000000
-0.290288 -0.404250 -0.237348 4.000000
-0.290288 -0.178296 0.430550 4.000000
-0.290288 -0.380087 0.256009 4.000000
-0.290288 -0.221444 0.393821 4.000000
-0.290288 0.076560 0.461717 4.000000
-0.290288 -0.029361 -0.449247 4.000000
-0.290288 0.298734 -0.333128 4.000000
-0.290288 -0.458767 -0.133407 4.000000
-0.290288 -0.223922 0.415512 4.000000
-0.290288 -0.181180 0.408953 4.000000
-0.290288 -0.000824 -0.482638 4.000000
-0.290288 0.248148 -0.404671 4.000000
-0.290288 0.454269 0.144736 4.000000
-0.290288 0.320821 0.311507 4.000000
-0.290288 0.314598 -0.388628 4.000000
-0.290288 0.104056 0.467613 4.000000
-0.290288 -0.438333 0.120232 4.000000
-0.290288 -0.032879 0.460011 4.000000
-0.290288 0.149162 -0.452560 4.000000
-0.290288 -0.486275 -0.009475 4.000000
-0.290288 0.472898 0.000989 4.000000
-0.290288 0.450092 -0.204138 4.000000
-0.290288 -0.267682 0.409294 4.000000
-0.290288 0.323109 -0.374405 4.000000
-0.290288 -0.496857 0.017308 4.000000
-0.290288 0.387745 0.257831 4.000000
-0.290288 -0.280662 0.404433 4.000000
-0.290288 -0.385937 0.244226 4.000000
-0.290288 0.392331 0.226259 4.000000
-0.290288 0.463952 0.086572 4.000000
-0.290288 0.039671 -0.477329 4.000000
-0.290288 -0.399584 -0.246003 4.000000
-0.290288 0.202464 -0.441382 4.000000
-0.290288 -0.311388 0.380718 4.000000
-0.290288 -0.423620 0.138091 4.000000
-0.290288 0.346683 -0.282596 4.000000
-0.290288 0.035211 -0.498815 4.000000
-0.290288 -0.467982 0.123153 4.000000
-0.290288 -0.470316 -0.062277 4.000000
-0.290288 -0.486253 -0.066240 4.000000
-0.290288 0.468801 0.027009 4.000000
-0.290288 0.454747 0.136724 4.000000
-0.290288 0.269065 0.364398 4.000000
-0.290288 0.054486 -0.488015 4.000000
-0.290288 0.444680 0.116596 4.000000
-0.290288 -0.407194 -0.265313 4.000000
-0.290288 0.212980 0.409424 4.000000
-0.290288 -0.308327 0.358713 4.000000
-0.290288 -0.482958 -0.028927 4.000000
-0.290288 0.449496 0.138177 4.000000
-0.290288 0.310511 -0.363641 4.000000
-0.290288 0.443823 0.129561 4.000000
-0.290288 0.192651 0.418484 4.000000
-0.290288 -0.475312 0.080848 4.000000
-0.290288 -0.376976 0.310154 4.000000
-0.290288 0.135301 0.442570 4.000000
-0.290288 0.370072 -0.287465 4.000000
-0.290288 0.349124 0.321275 4.000000
-0.290288 -0.364296 0.272305 4.000000
-0.290288 0.453428 0.127422 4.000000
-0.290288 0.158754 0.470011 4.000000
-0.290288 -0.473635 0.083901 4.000000
-0.290288 -0.057869 0.483310 4.000000
-0.290288 0.127484 0.472734 4.000000
-0.290288 0.153096 0.456590 4.000000
-0.290288 0.313082 -0.342390 4.000000
-0.290288 0.462557 0.127060 4.000000
-0.290288 -0.496260 -0.026823 4.000000
-0.290288 -0.191050 0.457162 4.000000
-0.290288 0.418868 0.259633 4.000000
-0.290288 0.449061 0.204945 4.000000
-0.290288 0.260412 0.407729 4.000000
-0.290288 0.352824 -0.353589 4.000000
-0.290288 -0.422255 -0.143202 4.000000
-0.290288 0.444770 -0.055183 4.000000
-0.290288 -0.432910 -0.156753 4.000000
-0.290288 0.088958 0.484104 4.000000
-0.290288 -0.230144 0.423421 4.000000
-0.290288 0.056828 -0.474793 4.000000
-0.290288 -0.371902 0.260682 4.000000
-0.290288 -0.269688 -0.388044 4.000000
-0.290288 -0.169830 -0.437998 4.000000
-0.290288 0.209056 -0.426738 4.000000
-0.290288 0.161277 0.421713 4.000000
-0.290288 -0.077181 -0.481667 4.000000
-0.290288 0.387013 -0.286656 4.000000
-0.290288 -0.250242 0.371521 4.000000
-0.290288 0.438546 -0.237986 4.000000
-0.290288 0.331229 -0.316138 4.000000
-0.290288 0.098219 0.448510 4.000000
-0.290288 -0.221262 0.422152 4.000000
-0.290288 0.142635 0.463397 4.000000
-0.290288 0.017460 -0.488014 4.000000
-0.290288 -0.302410 -0.381515 4.000000
-0.290288 -0.382854 0.243353 4.000000
-0.290288 -0.398131 -0.274381 4.000000
-0.290288 -0.084293 -0.475338 4.000000
-0.290288 -0.080120 -0.447972 4.000000
-0.290288 0.378666 -0.326318 4.000000
-0.290288 -0.267755 0.412815 4.000000
-0.290288 0.035478 -0.482558 4.000000
-0.290288 -0.111417 -0.456192 4.000000
-0.290288 -0.207262 0.399054 4.000000
-0.290288 -0.419605 0.146232 4.000000
-0.290288 -0.252819 -0.426120 4.000000
-0.290288 0.305604 0.377524 4.000000
-0.290288 0.381657 0.238292 4.000000
-0.290288 0.478452 -0.051842 4.000000
-0.290288 -0.414627 0.260249 4.000000
-0.290288 -0.458290 0.148102 4.000000
-0.290288 0.033762 -0.476017 4.000000
-0.290288 -0.242266 -0.379804 4.000000
-0.290288 -0.482694 -0.063167 4.000000
-0.290288 -0.042975 0.446804 4.000000
-0.290288 -0.095707 -0.458583 4.000000
-0.290288 -0.304748 -0.338295 4.000000
-0.290288 0.411265 0.215827 4.000000
-0.290288 0.469681 0.023853 4.000000
-0.290288 -0.122079 0.453357 4.000000
-0.290288 0.127496 0.426530 4.000000
-0.290288 0.372410 0.282699 4.000000
-0.290288 -0.307039 -0.324403 4.000000
-0.290288 0.361494 0.300201 4.000000
-0.290288 0.405714 -0.201787 4.000000
-0.290288 -0.224077 0.441910 4.000000
-0.290288 -0.270379 0.414337 4.000000
-0.290288 -0.410060 -0.223277 4.000000
-0.290288 -0.413697 0.180417 4.000000
-0.290288 -0.254189 -0.374933 4.000000
-0.290288 0.279594 -0.413433 4.000000
-0.290288 -0.253704 0.389142 4.000000
-0.290288 0.452800 0.188146 4.000000
-0.290288 -0.467734 0.025385 4.000000
-0.290288 0.018434 0.470391 4.000000
-0.290288 -0.261787 -0.377327 4.000000
-0.290288 0.437781 0.188497 4.000000
-0.290288 0.380642 0.262348 4.000000
-0.290288 0.381993 0.284840 4.000000
-0.290288 -0.331980 -0.330448 4.000000
-0.290288 -0.041736 -0.452746 4.000000
-0.290288 0.059306 0.442869 4.000000
-0.290288 -0.452486 0.133412 4.000000
-0.290288 0.325615 0.337824 4.000000
-0.290288 -0.118013 -0.448715 4.000000
-0.290288 -0.421050 -0.195319 4.000000
-0.290288 0.020661 -0.481418 4.000000
-0.290288 0.267435 0.383821 4.000000
-0.290288 0.490366 0.029979 4.000000
-0.290288 -0.460664 -0.112023 4.000000
-0.290288 0.428176 0.135541 4.000000
-0.290288 -0.355599 0.292341 4.000000
-0.290288 -0.322265 -0.347272 4.000000
-0.290288 -0.378836 -0.318752 4.000000
-0.290288 -0.466383 0.168067 4.000000
-0.290288 -0.452119 0.130068 4.000000
-0.290288 0.014296 0.462635 4.000000
-0.290288 0.230604 0.406259 4.000000
-0.290288 -0.456430 0.057670 4.000000
-0.290288 0.391787 0.292473 4.000000
-0.290288 0.120772 0.472704 4.000000
-0.290288 0.039714 -0.491445 4.000000
-0.290288 -0.395155 -0.220120 4.000000
-0.290288 -0.460780 -0.100154 4.000000
-0.290288 -0.141083 0.471981 4.000000
-0.290288 -0.108854 -0.483431 4.000000
-0.290288 -0.365990 -0.292719 4.000000
-0.290288 0.136626 -0.435007 4.000000
-0.290288 0.438918 -0.155169 4.000000
-0.290288 0.161557 0.433610 4.000000
-0.290288 0.400829 -0.203307 4.000000
-0.290288 0.113508 0.453575 4.000000
-0.290288 0.442791 0.071276 4.000000
-0.290288 0.173635 0.455271 4.000000
-0.290288 0.336266 0.326551 4.000000
-0.290288 -0.258794 0.412546 4.000000
-0.290288 -0.278515 -0.352861 4.000000
-0.290288 0.475985 -0.062900 4.000000
-0.290288 0.229278 -0.431374 4.000000
-0.290288 0.019022 0.467348 4.000000
-0.290288 0.488813 0.015454 4.000000
-0.290288 0.065723 0.472505 4.000000
-0.290288 -0.172413 0.463976 4.000000
-0.290288 -0.330850 -0.364748 4.000000
-0.290288 -0.262588 -0.417579 4.000000
-0.290288 -0.025726 0.488505 4.000000
-0.290288 -0.218719 -0.424311 4.000000
-0.290288 -0.450815 0.113403 4.000000
-0.290288 0.457908 -0.163898 4.000000
-0.290288 -0.162059 0.419539 4.000000
-0.290288 -0.490131 -0.083659 4.000000
-0.290288 0.159524 -0.474020 4.000000
-0.290288 -0.140308 0.449954 4.000000
-0.290288 -0.071357 0.476949 4.000000
-0.290288 -0.287833 -0.392092 4.000000
-0.290288 0.251454 0.387566 4.000000
-0.290288 0.458533 -0.151543 4.000000
-0.290288 0.344620 0.299834 4.000000
-0.290288 -0.357420 0.283452 4.000000
-0.290288 0.107178 0.460561 4.000000
-0.290288 0.194949 -0.440116 4.000000
-0.290288 -0.299321 -0.353046 4.000000
-0.290288 -0.483386 0.035733 4.000000
-0.290288 -0.380194 0.274338 4.000000
-0.290288 -0.086842 0.471453 4.000000
-0.290288 0.455182 -0.037261 4.000000
-0.290288 -0.486453 -0.094538 4.000000
-0.290288 0.307353 0.336619 4.000000
-0.290288 -0.455100 -0.153207 4.000000
-0.290288 0.477809 -0.116529 4.000000
-0.290288 0.424218 0.136020 4.000000
-0.290288 0.094316 -0.454205 4.000000
-0.290288 0.493038 -0.020703 4.000000
-0.290288 -0.066211 -0.447105 4.000000
-0.290288 0.411737 -0.261651 4.000000
-0.290288 0.381443 0.281706 4.000000
-0.290288 0.452645 -0.178734 4.000000
-0.290288 -0.017043 0.494030 4.000000
-0.290288 0.482611 0.051508 4.000000
-0.290288 0.417431 -0.179918 4.000000
-0.290288 -0.360534 0.323410 4.000000
-0.290288 0.146033 0.444888 4.000000
-0.290288 -0.462948 0.034053 4.000000
-0.290288 0.478585 -0.071528 4.000000
-0.290288 0.214847 0.420494 4.000000
-0.290288 -0.470330 -0.100280 4.000000
-0.290288 0.460047 -0.060232 4.000000
-0.290288 0.454088 -0.091244 4.000000
-0.290288 0.461030 0.120562 4.000000
-0.290288 -0.063165 -0.470890 4.000000
-0.290288 0.270865 -0.360398 4.000000
-0.290288 0.366939 0.283087 4.000000
-0.290288 -0.220602 -0.436076 4.000000
-0.290288 0.216140 -0.439259 4.000000
-0.290288 -0.229716 0.410241 4.000000
-0.290288 0.452164 0.078983 4.000000
-0.290288 -0.310761 -0.386675 4.000000
-0.290288 0.175440 -0.442022 4.000000
-0.290288 -0.440608 -0.082360 4.000000
-0.290288 0.418564 0.224994 4.000000
-0.290288 -0.447840 -0.140059 4.000000
-0.290288 -0.428144 0.231205 4.000000
-0.290288 -0.240118 -0.424511 4.000000
-0.290288 -0.252388 0.391971 4.000000
-0.290288 -0.336226 0.351986 4.000000
-0.290288 -0.465459 0.119818 4.000000
-0.290288 -0.427280 -0.158932 4.000000
-0.290288 -0.345114 0.328806 4.000000
-0.290288 -0.402715 0.251707 4.000000
-0.290288 0.288013 -0.376392 4.000000
-0.290288 0.131263 0.430713 4.000000
-0.290288 -0.050847 -0.462087 4.000000
-0.290288 -0.299931 0.348989 4.000000
-0.290288 -0.010930 0.443067 4.000000
-0.290288 -0.482829 0.029051 4.000000
-0.290288 0.417767 0.213757 4.000000
-0.290288 0.443217 -0.167938 4.000000
-0.290288 0.417400 -0.196102 4.000000
-0.290288 -0.031528 0.494669 4.000000
-0.290288 -0.148124 -0.430922 4.000000
-0.290288 0.211983 -0.397341 4.000000
-0.290288 0.281304 0.356739 4.000000
-0.290288 -0.209116 0.438984 4.000000
-0.290288 0.193377 -0.425913 4.000000
-0.290288 0.339769 -0.355630 4.000000
-0.290288 -0.281431 0.407776 4.000000
-0.290288 0.184219 0.429759 4.000000
-0.290288 0.451716 -0.105216 4.000000
-0.290288 -0.453554 0.011556 4.000000
-0.290288 -0.234237 0.434422 4.000000
-0.290288 0.008279 0.455246 4.000000
-0.290288 -0.189435 0.430555 4.000000
-0.290288 -0.124959 -0.479418 4.000000
-0.290288 0.010380 0.470684 4.000000
-0.290288 0.192799 -0.448924 4.000000
-0.290288 -0.261205 0.398715 4.000000
-0.290288 0.051845 -0.462568 4.000000
-0.290288 -0.345228 -0.360356 4.000000
-0.290288 0.096830 -0.448710 4.000000
-0.290288 -0.046419 -0.489116 4.000000
-0.290288 0.014002 -0.480105 4.000000
-0.290288 0.459734 -0.073267 4.000000
-0.290288 -0.088508 0.446243 4.000000
-0.290288 0.081968 0.441005 4.000000
-0.290288 -0.297914 0.338413 4.000000
-0.290288 -0.459289 0.024446 4.000000
-0.290288 0.441336 -0.127396 4.000000
-0.290288 -0.469211 -0.095774 4.000000
-0.290288 0.099993 0.469745 4.000000
-0.290288 -0.478319 -0.121742 4.000000
-0.290288 0.305542 -0.342375 4.000000
-0.290288 0.269061 -0.420211 4.000000
-0.290288 -0.447203 0.054898 4.000000
-0.290288 0.334321 -0.348932 4.000000
-0.290288 0.492051 -0.033460 4.000000
-0.290288 -0.421942 -0.160966 4.000000
-0.290288 -0.100503 -0.483057 4.000000
-0.290288 0.065289 -0.490446 4.000000
-0.290288 -0.364431 0.323211 4.000000
-0.290288 -0.464928 -0.097071 4.000000
-0.290288 -0.191156 -0.418257 4.000000
-0.290288 -0.182643 -0.448081 4.000000
-0.290288 -0.461360 -0.043016 4.000000
-0.290288 0.482799 -0.024403 4.000000
-0.290288 0.182193 -0.413655 4.000000
-0.290288 -0.469932 0.133193 4.000000
-0.290288 0.375582 -0.297958 4.000000
-0.290288 0.255833 -0.368912 4.000000
-0.290288 0.254958 0.371944 4.000000
-0.290288 -0.440875 0.060845 4.000000
-0.290288 -0.301821 0.368517 4.000000
-0.290288 0.210554 -0.409178 4.000000
-0.290288 -0.228347 0.414067 4.000000
-0.290288 -0.164431 -0.456622 4.000000
-0.290288 0.268435 -0.380645 4.000000
-0.290288 0.469939 -0.101425 4.000000
-0.290288 -0.412911 -0.202960 4.000000
-0.290288 0.459423 -0.118389 4.000000
-0.290288 0.460100 0.039485 4.000000
-0.290288 -0.117016 0.463429 4.000000
-0.290288 -0.035317 0.450856 4.000000
-0.290288 0.291470 -0.357010 4.000000
-0.290288 0.369180 -0.332356 4.000000
-0.290288 0.306729 0.340375 4.000000
-0.290288 -0.108800 -0.463154 4.000000
-0.290288 0.046105 -0.454891 4.000000
-0.290288 -0.259133 0.419273 4.000000
-0.290288 0.393783 -0.273883 4.000000
-0.290288 -0.378129 0.285579 4.000000
-0.290288 0.246453 -0.412198 4.000000
-0.290288 0.411197 0.230977 4.000000
-0.290288 -0.001908 0.456964 4.000000
-0.290288 -0.332841 0.301754 4.000000
-0.290288 0.399800 -0.293426 4.000000
-0.290288 0.331261 0.363900 4.000000
-0.290288 0.192707 -0.419711 4.000000
-0.290288 0.073806 -0.445776 4.000000
-0.290288 0.156155 0.466488 4.000000
-0.290288 0.372634 -0.303704 4.000000
-0.290288 0.202925 0.404573 4.000000
-0.290288 -0.449630 0.081401 4.000000
-0.290288 -0.055579 0.470531 4.000000
-0.290288 0.452851 0.072542 4.000000
-0.290288 -0.158842 -0.438616 4.000000
-0.290288 0.467828 0.124522 4.000000
-0.290288 -0.347073 0.347125 4.000000
-0.290288 0.246672 -0.393186 4.000000
-0.290288 -0.345786 0.324946 4.000000
-0.290288 -0.449022 0.017257 4.000000
-0.290288 -0.051801 0.469581 4.000000
-0.290288 0.344637 -0.335606 4.000000
-0.290288 0.384271 -0.305093 4.000000
-0.290288 -0.022721 -0.482436 4.000000
-0.290288 0.072888 -0.467346 4.000000
-0.290288 0.469211 -0.067594 4.000000
-0.290288 -0.453397 0.059215 4.000000
-0.290288 0.453822 0.161539 4.000000
-0.290288 -0.171179 -0.456999 4.000000
-0.290288 0.142381 0.453170 4.000000
-0.290288 0.183828 -0.441387 4.000000
-0.290288 -0.330559 -0.315260 4.000000
-0.290288 0.090933 -0.459741 4.000000
-0.290288 0.276171 -0.411971 4.000000
-0.290288 -0.110351 0.479819 4.000000
-0.290288 0.026860 0.442747 4.000000
-0.290288 -0.354591 0.285663 4.000000
-0.290288 0.047045 0.472875 4.000000
-0.290288 -0.461127 -0.004638 4.000000
-0.290288 0.448093 0.029404 4.000000
-0.290288 0.093770 0.456069 4.000000
-0.290288 -0.392665 -0.292314 4.000000
-0.290288 0.264241 0.411016 4.000000
-0.290288 -0.452101 0.160382 4.000000
-0.290288 0.364460 0.307523 4.000000
-0.290288 -0.399922 -0.233308 4.000000
-0.290288 -0.202289 -0.410927 4.000000
-0.290288 -0.462842 -0.047004 4.000000
-0.290288 -0.449220 -0.040470 4.000000
-0.290288 0.289728 0.403076 4.000000
-0.290288 0.455385 -0.128836 4.000000
-0.290288 -0.107447 -0.456727 4.000000
-0.290288 0.053483 0.467346 4.000000
-0.290288 0.155687 0.428646 4.000000
-0.290288 0.136944 -0.476953 4.000000
-0.290288 0.102271 0.453102 4.000000
-0.290288 0.455027 -0.106281 4.000000
-0.290288 -0.378346 -0.263707 4.000000
-0.290288 -0.494003 0.013119 4.000000
-0.290288 0.101405 0.442546 4.000000
-0.290288 0.469261 -0.075927 4.000000
-0.290288 -0.447245 -0.059704 4.000000
-0.290288 0.203088 -0.421000 4.000000
-0.290288 0.157585 -0.443133 4.000000
-0.290288 -0.026909 0.482046 4.000000
-0.290288 -0.416028 0.177044 4.000000
-0.290288 0.416201 0.238717 4.000000
-0.290288 0.451920 0.096314 4.000000
-0.290288 -0.486453 -0.082565 4.000000
-0.290288 -0.127222 -0.482988 4.000000
-0.290288 -0.035917 -0.466715 4.000000
-0.290288 -0.203056 -0.446134 4.000000
-0.290288 0.469501 0.154379 4.000000
-0.290288 -0.257439 0.379029 4.000000
-0.290288 0.201108 0.439990 4.000000
-0.290288 -0.096757 -0.466667 4.000000
-0.290288 -0.293029 0.341806 4.000000
-0.290288 0.414658 0.235613 4.000000
-0.290288 -0.437560 0.100251 4.000000
-0.290288 -0.247536 -0.374056 4.000000
-0.290288 0.245256 0.392885 4.000000
-0.290288 -0.386506 -0.262281 4.000000
-0.290288 0.465603 -0.176466 4.000000
-0.290288 -0.069367 -0.471430 4.000000
-0.290288 -0.420674 -0.171459 4.000000
-0.290288 -0.332917 0.361099 4.000000
-0.290288 -0.452798 -0.077010 4.000000
-0.290288 -0.468571 0.058128 4.000000
-0.290288 0.427652 -0.218934 4.000000
-0.290288 -0.098824 -0.451434 4.000000
-0.290288 0.243119 0.384304 4.000000
-0.290288 0.463152 -0.084260 4.000000
-0.290288 0.480254 0.019338 4.000000
-0.290288 -0.473388 0.138807 4.000000
-0.290288 -0.375717 0.245305 4.000000
-0.290288 -0.219322 0.413697 4.000000
-0.290288 -0.055719 -0.495996 4.000000
-0.290288 0.423335 0.157233 4.000000
-0.290288 0.239667 0.391881 4.000000
-0.290288 -0.461175 0.171970 4.000000
-0.290288 0.384963 0.228410 4.000000
-0.290288 -0.284176 -0.355979 4.000000
-0.290288 0.213949 0.412687 4.000000
-0.290288 -0.334520 0.344805 4.000000
-0.290288 0.427727 -0.181897 4.000000
-0.290288 0.114899 0.471880 4.000000
-0.290288 0.470030 -0.007078 4.000000
-0.290288 0.195956 -0.458334 4.000000
-0.290288 -0.051791 -0.451549 4.000000
-0.290288 0.067334 0.446208 4.000000
-0.290288 0.320527 0.374206 4.000000
-0.290288 0.111563 -0.452352 4.000000
-0.290288 -0.451935 0.177168 4.000000
-0.290288 0.240751 -0.386491 4.000000
-0.290288 0.037043 -0.495991 4.000000
-0.290288 0.076320 0.477824 4.000000
-0.290288 -0.083639 -0.492413 4.000000
-0.290288 0.467685 -0.112770 4.000000
-0.290288 0.421723 -0.255276 4.000000
-0.290288 -0.275992 -0.384702 4.000000
-0.290288 -0.386817 0.277307 4.000000
-0.290288 0.205767 0.420214 4.000000
-0.290288 -0.436268 0.227311 4.000000
-0.290288 0.169533 0.463582 4.000000
-0.290288 0.005009 -0.471928 4.000000
-0.290288 -0.133410 -0.468662 4.000000
-0.290288 0.122073 -0.483729 4.000000
-0.290288 -0.444392 0.116552 4.000000
-0.290288 0.294080 -0.362815 4.000000
-0.290288 -0.310534 -0.323151 4.000000
-0.290288 -0.090046 -0.477871 4.000000
-0.290288 0.466606 -0.163824 4.000000
-0.290288 0.005536 0.486736 4.000000
-0.290288 -0.333974 -0.365817 4.000000
-0.290288 -0.249555 -0.425166 4.000000
-0.290288 0.398890 0.285810 4.000000
-0.290288 -0.433099 0.211644 4.000000
-0.290288 0.421018 -0.195107 4.000000
-0.290288 0.245388 0.375784 4.000000
-0.290288 -0.165584 -0.433383 4.000000
-0.290288 0.431517 -0.214073 4.000000
-0.290288 0.101135 0.465835 4.000000
-0.290288 0.447059 -0.155206 4.000000
-0.290288 0.452157 -0.130420 4.000000
-0.290288 0.461893 -0.095252 4.000000
-0.290288 0.364173 0.263756 4.000000
-0.290288 0.464444 0.060753 4.000000
-0.290288 -0.275511 -0.390731 4.000000
-0.290288 0.326388 0.358358 4.000000
-0.290288 0.083742 -0.443220 4.000000
-0.290288 0.444227 -0.174897 4.000000
-0.290288 -0.477308 -0.136873 4.000000
-0.290288 -0.447251 0.183223 4.000000
-0.290288 0.087322 -0.461570 4.000000
-0.290288 -0.028339 -0.477942 4.000000
-0.290288 0.474117 -0.075071 4.000000
-0.290288 -0.460330 0.028298 4.000000
-0.290288 0.076411 -0.487921 4.000000
-0.290288 0.257372 0.392959 4.000000
-0.290288 0.324665 0.317360 4.000000
-0.290288 0.336114 0.311226 4.000000
-0.290288 0.213142 -0.400443 4.000000
-0.290288 -0.318594 -0.346667 4.000000
-0.290288 -0.443642 -0.148248 4.000000
-0.290288 -0.357182 0.301260 4.000000
-0.290288 -0.269188 0.359417 4.000000
-0.290288 0.041807 0.485561 4.000000
-0.290288 -0.438057 0.197383 4.000000
-0.290288 -0.472721 -0.092540 4.000000
-0.290288 -0.382764 -0.293957 4.000000
-0.290288 0.437192 -0.114380 4.000000
-0.290288 -0.458164 -0.108573 4.000000
-0.290288 0.235143 -0.389088 4.000000
-0.290288 -0.483656 -0.116636 4.000000
-0.290288 0.114793 -0.475761 4.000000
-0.290288 0.117040 -0.455748 4.000000
-0.290288 -0.110272 -0.459454 4.000000
-0.290288 0.174279 -0.446284 4.000000
-0.290288 -0.057766 -0.458454 4.000000
-0.290288 -0.314442 -0.331640 4.000000
-0.290288 -0.445841 -0.201421 4.000000
-0.290288 0.354723 -0.298111 4.000000
-0.290288 0.233929 -0.421736 4.000000
-0.290288 -0.426419 0.212621 4.000000
-0.290288 0.283672 0.407052 4.000000
-0.290288 -0.425662 0.180745 4.000000
-0.290288 0.397060 -0.255052 4.000000
-0.290288 0.441469 -0.105338 4.000000
-0.290288 -0.154432 0.461371 4.000000
-0.290288 -0.146128 -0.427928 4.000000
-0.290288 -0.267570 0.354920 4.000000
-0.290288 -0.409241 -0.238651 4.000000
-0.290288 -0.314580 -0.365591 4.000000
-0.290288 -0.469338 0.068371 4.000000
-0.290288 0.326888 -0.328122 4.000000
-0.290288 0.437396 -0.166213 4.000000
-0.290288 -0.289401 -0.358682 4.000000
-0.290288 0.454915 0.081142 4.000000
-0.290288 -0.450959 0.166188 4.000000
-0.290288 -0.417848 -0.214248 4.000000
-0.290288 -0.344171 0.290022 4.000000
-0.290288 -0.438840 -0.153259 4.000000
-0.290288 0.196828 0.422076 4.000000
-0.290288 0.013086 -0.447929 4.000000
-0.290288 -0.273037 -0.407985 4.000000
-0.290288 0.162940 -0.423878 4.000000
-0.290288 -0.404645 0.218078 4.000000
-0.290288 0.090507 0.448701 4.000000
-0.290288 0.168384 0.444420 4.000000
-0.290288 0.455893 0.123120 4.000000
-0.290288 -0.483596 0.022107 4.000000
-0.290288 -0.133276 0.434740 4.000000
-0.290288 -0.224141 0.438654 4.000000
-0.290288 0.011089 -0.450926 4.000000
-0.290288 -0.468176 -0.088848 4.000000
-0.290288 0.205718 0.394067 4.000000
-0.290288 -0.395361 -0.244932 4.000000
-0.290288 0.454826 0.181664 4.000000
-0.290288 0.429522 0.250031 4.000000
-0.290288 -0.404326 -0.240835 4.000000
-0.290288 -0.008075 0.489460 4.000000
-0.290288 0.422969 -0.206172 4.000000
-0.290288 0.215372 0.417247 4.000000
-0.290288 0.030680 -0.493647 4.000000
-0.290288 0.207013 0.434524 4.000000
-0.290288 -0.171375 -0.423423 4.000000
-0.290288 -0.369364 -0.279595 4.000000
-0.290288 0.481578 -0.007868 4.000000
-0.290288 -0.293240 -0.343960 4.000000
-0.290288 -0.056944 0.467697 4.000000
-0.290288 -0.287192 -0.384707 4.000000
-0.290288 -0.410010 -0.192625 4.000000
-0.290288 0.368576 -0.283901 4.000000
-0.290288 -0.410532 0.235618 4.000000
-0.290288 -0.453911 -0.072909 4.000000
-0.290288 0.191104 0.432679 4.000000
-0.290288 -0.476760 -0.075359 4.000000
-0.290288 0.489301 -0.059531 4.000000
-0.290288 0.451362 -0.075358 4.000000
-0.290288 0.329240 0.298994 4.000000
-0.290288 -0.331807 0.353011 4.000000
-0.290288 -0.096038 -0.475207 4.000000
-0.290288 -0.404892 -0.197191 4.000000
-0.290288 -0.447971 -0.198923 4.000000
-0.290288 0.438206 -0.197033 4.000000
-0.290288 0.369150 0.305142 4.000000
-0.290288 0.267630 0.411278 4.000000
-0.290288 0.133239 0.472160 4.000000
-0.290288 -0.144133 0.431896 4.000000
-0.290288 0.422971 -0.217528 4.000000
-0.290288 0.150162 -0.425223 4.000000
-0.290288 -0.149044 0.435204 4.000000
-0.290288 0.283938 0.370164 4.000000
-0.290288 -0.426334 -0.254525 4.000000
-0.290288 -0.116439 -0.463252 4.000000
-0.290288 0.242914 -0.436146 4.000000
-0.290288 -0.359439 0.291472 4.000000
-0.290288 -0.082807 0.449813 4.000000
-0.290288 -0.126754 -0.475425 4.000000
-0.290288 0.487701 0.010916 4.000000
-0.290288 0.121309 0.432028 4.000000
-0.290288 -0.309319 0.319028 4.000000
-0.290288 0.303360 0.329335 4.000000
-0.290288 0.325277 -0.334100 4.000000
-0.290288 -0.099558 0.481524 4.000000
-0.290288 0.056121 0.462648 4.000000
-0.290288 0.316841 0.329418 4.000000
-0.290288 0.331953 0.318266 4.000000
-0.290288 -0.434031 -0.161454 4.000000
-0.290288 -0.146357 -0.440144 4.000000
-0.290288 0.444532 -0.186184 4.000000
-0.290288 -0.450188 0.057267 4.000000
-0.290288 0.198176 0.430223 4.000000
-0.290288 0.259290 -0.388562 4.000000
-0.290288 0.348490 -0.322561 4.000000
-0.290288 0.018781 0.443559 4.000000
-0.290288 0.223518 0.435189 4.000000
-0.290288 -0.354034 0.281343 4.000000
-0.290288 0.192069 -0.429002 4.000000
-0.290288 0.372237 0.257198 4.000000
-0.290288 -0.130690 0.446283 4.000000
-0.290288 -0.031205 0.468213 4.000000
-0.290288 -0.429181 -0.155942 4.000000
-0.290288 0.318172 -0.375211 4.000000
-0.290288 -0.199361 0.443502 4.000000
-0.290288 -0.360970 0.277228 4.000000
-0.290288 -0.426109 -0.205177 4.000000
-0.290288 0.104729 0.484632 4.000000
-0.290288 -0.255817 -0.383257 4.000000
-0.290288 0.376281 0.298438 4.000000
-0.290288 -0.438386 0.078868 4.000000
-0.290288 -0.455214 -0.051271 4.000000
-0.290288 0.253843 -0.429830 4.000000
-0.290288 0.450996 -0.200394 4.000000
-0.290288 0.470213 -0.092249 4.000000
-0.290288 -0.458692 0.126455 4.000000
-0.290288 -0.106460 0.473480 4.000000
-0.290288 0.361380 -0.295448 4.000000
-0.290288 -0.295597 0.349479 4.000000
-0.290288 -0.351478 0.326431 4.000000
-0.290288 0.235677 0.424922 4.000000
-0.290288 0.469915 -0.115490 4.000000
-0.290288 -0.077351 -0.490700 4.000000
-0.290288 -0.322968 0.316033 4.000000
-0.290288 0.214318 0.445987 4.000000
-0.290288 -0.368422 -0.326221 4.000000
-0.290288 -0.327775 -0.370131 4.000000
-0.290288 0.242554 0.379707 4.000000
-0.290288 -0.174730 -0.434761 4.000000
-0.290288 0.447182 0.068026 4.000000
-0.290288 0.053629 0.441186 4.000000
-0.290288 -0.312658 0.321429 4.000000
-0.290288 -0.150347 -0.470907 4.000000
-0.290288 0.432311 -0.148626 4.000000
-0.290288 0.446087 -0.223167 4.000000
-0.290288 0.409427 -0.254871 4.000000
-0.290288 0.372147 0.261108 4.000000
-0.290288 0.055663 0.478156 4.000000
-0.290288 0.405501 0.193702 4.000000
-0.290288 -0.088304 0.440514 4.000000
-0.290288 0.385965 -0.227221 4.000000
-0.290288 0.249439 -0.389203 4.000000
-0.290288 -0.301254 -0.341613 4.000000
-0.290288 0.443514 -0.143171 4.000000
-0.290288 0.444283 -0.225989 4.000000
-0.290288 -0.452362 -0.094137 4.000000
-0.290288 0.437781 0.158813 4.000000
-0.290288 -0.471423 0.010957 4.000000
-0.290288 -0.370997 -0.333151 4.000000
-0.290288 -0.442417 0.052166 4.000000
-0.290288 0.437428 0.108067 4.000000
-0.290288 0.106205 0.477206 4.000000
-0.290288 0.402654 -0.227391 4.000000
-0.290288 -0.468733 -0.076305 4.000000
-0.290288 -0.375369 -0.257599 4.000000
-0.290288 -0.066836 0.451736 4.000000
-0.290288 0.069012 0.473811 4.000000
-0.290288 0.322433 0.340522 4.000000
-0.290288 -0.350927 -0.315285 4.000000
-0.290288 0.478189 0.097724 4.000000
-0.290288 -0.450733 -0.143817 4.000000
-0.290288 0.443031 -0.207971 4.000000
-0.290288 0.021054 -0.486157 4.000000
-0.290288 0.063993 -0.443028 4.000000
-0.290288 -0.464056 0.097669 4.000000
-0.290288 0.379959 0.305060 4.000000
-0.290288 0.228359 0.380425 4.000000
-0.290288 0.392985 0.300042 4.000000
-0.290288 -0.058976 -0.451959 4.000000
-0.290288 0.281863 0.353143 4.000000
-0.290288 -0.081393 -0.473317 4.000000
-0.290288 -0.319939 0.356335 4.000000
-0.290288 0.292245 -0.341287 4.000000
-0.290288 -0.422392 0.233597 4.000000
-0.290288 0.281657 -0.410454 4.000000
-0.290288 -0.474853 0.103995 4.000000
-0.290288 -0.463599 0.130755 4.000000
-0.290288 -0.463415 -0.128609 4.000000
-0.290288 0.079765 -0.487469 4.000000
-0.290288 -0.263903 -0.423547 4.000000
-0.290288 -0.411121 0.214024 4.000000
-0.290288 -0.048718 -0.453639 4.000000
-0.290288 -0.347178 -0.345339 4.000000
-0.290288 -0.328602 0.353951 4.000000
-0.290288 -0.259393 0.405762 4.000000
-0.290288 0.068463 0.457823 4.000000
-0.290288 0.425887 0.138728 4.000000
-0.290288 -0.491305 -0.045043 4.000000
-0.290288 0.460484 0.132988 4.000000
-0.290288 -0.477868 0.128428 4.000000
-0.290288 0.437846 -0.126560 4.000000
-0.290288 -0.185005 -0.445424 4.000000
-0.290288 -0.454102 -0.038822 4.000000
-0.290288 -0.056297 0.452936 4.000000
-0.290288 0.439532 -0.100296 4.000000
-0.290288 0.434558 0.176988 4.000000
-0.290288 -0.377408 0.263979 4.000000
-0.290288 -0.303825 0.387511 4.000000
-0.290288 -0.402146 -0.279462 4.000000
-0.290288 0.091797 -0.447817 4.000000
-0.290288 -0.342189 0.353056 4.000000
-0.290288 -0.393595 -0.251119 4.000000
-0.290288 -0.287245 0.386203 4.000000
-0.290288 -0.350970 0.305800 4.000000
-0.290288 -0.257218 -0.367002 4.000000
-0.290288 -0.113528 0.445493 4.000000
-0.290288 0.064395 -0.461316 4.000000
-0.290288 0.416228 0.263211 4.000000
-0.290288 -0.309243 -0.358954 4.000000
-0.290288 0.287103 0.346198 4.000000
-0.290288 0.485353 0.008174 4.000000
-0.290288 0.425104 -0.254417 4.000000
-0.290288 0.422610 -0.266040 4.000000
-0.290288 -0.378994 0.278269 4.000000
-0.290288 -0.314412 0.377244 4.000000
-0.290288 0.047215 -0.458561 4.000000
-0.290288 -0.218733 0.385989 4.000000
-0.290288 0.197289 0.425504 4.000000
-0.290288 -0.062344 -0.494934 4.000000
-0.290288 -0.480058 0.070732 4.000000
-0.290288 0.477916 -0.007916 4.000000
-0.290288 -0.313064 -0.360514 4.000000
-0.290288 0.409187 -0.222108 4.000000
-0.290288 0.037128 0.448841 4.000000
-0.290288 0.050237 0.457546 4.000000
-0.290288 -0.164561 -0.422636 4.000000
-0.290288 0.489063 -0.044017 4.000000
-0.290288 0.357945 -0.290567 4.000000
-0.290288 0.062705 0.480748 4.000000
-0.290288 -0.403400 -0.293135 4.000000
-0.290288 -0.327217 -0.342839 4.000000
-0.290288 0.267139 0.397886 4.000000
-0.290288 0.189157 -0.434908 4.000000
-0.290288 -0.165464 0.417972 4.000000
-0.290288 -0.378562 0.271077 4.000000
-0.290288 0.481701 -0.016002 4.000000
-0.290288 0.069436 0.443745 4.000000
-0.290288 0.427195 -0.129451 4.000000
-0.290288 -0.343026 -0.320051 4.000000
-0.290288 -0.379820 -0.238491 4.000000
-0.290288 0.083638 0.466255 4.000000
-0.290288 -0.480473 -0.077336 4.000000
-0.290288 -0.293218 -0.340360 4.000000
-0.290288 0.419555 0.169138 4.000000
-0.290288 -0.481411 -0.033418 4.000000
-0.290288 -0.369391 0.256962 4.000000
-0.290288 -0.009943 -0.489845 4.000000
-0.290288 -0.205875 0.418422 4.000000
-0.290288 0.434788 -0.182775 4.000000
-0.290288 -0.363281 0.310456 4.000000
-0.290288 -0.078842 -0.460706 4.000000
-0.290288 -0.351612 0.314660 4.000000
-0.290288 -0.463814 0.108778 4.000000
-0.290288 0.306703 0.385750 4.000000
-0.290288 -0.465402 -0.178259 4.000000
-0.290288 -0.452343 0.146763 4.000000
-0.290288 0.428231 0.245762 4.000000
-0.290288 0.247850 0.397154 4.000000
-0.290288 -0.337330 -0.315159 4.000000
