-0.290288 -0.268282 0.397137 4.000000
-0.290288 -0.042522 -0.482600 4.000000
-0.290288 -0.309291 -0.330981 4.000000
-0.290288 -0.461652 0.133934 4.000000
-0.290288 0.476066 0.061650 4.000000
-0.290288 0.125286 -0.464553 4.000000
-0.290288 0.162644 0.459427 4.000000
-0.290288 -0.054192 0.458622 4.000000
-0.290288 -0.315265 -0.331036 4.000000
-0.290288 -0.037272 0.459127 4.000000
-0.290288 -0.394444 -0.274736 4.000000
-0.290288 -0.163654 -0.434095 4.000000
-0.290288 0.062932 0.442717 4.000000
-0.290288 0.286052 -0.345110 4.000000
-0.290288 0.126286 0.452673 4.000000
-0.290288 0.165112 0.411819 4.000000
-0.290288 0.469007 -0.118003 4.000000
-0.290288 0.450514 0.055353 4.000000
-0.290288 0.463721 -0.129762 4.000000
-0.290288 -0.427683 0.180295 4.000000
-0.290288 -0.203620 0.402507 4.000000
-0.290288 -0.424670 -0.152221 4.000000
-0.290288 0.219621 -0.402603 4.000000
-0.290288 -0.466234 -0.098049 4.000000
-0.290288 -0.222318 -0.418380 4.000000
-0.290288 -0.459543 -0.121199 4.000000
-0.290288 0.103914 -0.479415 4.000000
-0.290288 -0.482493 -0.045738 4.000000
-0.290288 0.161634 0.428340 4.000000
-0.290288 -0.250758 -0.371691 4.000000
-0.290288 -0.370780 -0.333515 4.000000
-0.290288 -0.459460 0.016745 4.000000
-0.290288 -0.329742 0.356552 4.000000
-0.290288 -0.157746 0.451521 4.000000
-0.290288 0.305456 -0.387815 4.000000
-0.290288 0.464496 0.100725 4.000000
-0.290288 -0.006182 -0.483161 4.000000
-0.290288 0.045773 -0.490477 4.000000
-0.290288 -0.482916 0.032660 4.000000
-0.290288 0.467190 0.007365 4.000000
-0.290288 0.353006 -0.313727 4.000000
-0.290288 -0.009218 -0.473266 4.000000
-0.290288 0.415103 -0.248835 4.000000
-0.290288 0.407246 0.273988 4.000000
-0.290288 0.468972 0.132600 4.000000
-0.290288 -0.102282 -0.439860 4.000000
-0.290288 -0.438375 0.079358 4.000000
-0.290288 0.440384 0.211411 4.000000
-0.290288 0.446852 -0.066403 4.000000
-0.290288 0.057425 0.455984 4.000000
-0.290288 -0.481218 -0.030004 4.000000
-0.290288 0.438615 0.208592 4.000000
-0.290288 -0.220540 0.395526 4.000000
-0.290288 -0.222138 0.439211 4.000000
-0.290288 -0.463903 0.176936 4.000000
-0.290288 0.374389 -0.288661 4.000000
-0.290288 -0.467725 0.137624 4.000000
-0.290288 0.326644 0.309771 4.000000
-0.290288 -0.303931 0.330867 4.000000
-0.290288 0.400348 -0.204409 4.000000
-0.290288 -0.000223 -0.476510 4.000000
-0.290288 0.346477 0.355105 4.000000
-0.290288 -0.463221 0.173212 4.000000
-0.290288 -0.476783 0.109049 4.000000
-0.290288 0.068103 0.448486 4.000000
-0.290288 0.326140 -0.355325 4.000000
-0.290288 -0.095986 0.486043 4.000000
-0.290288 -0.001135 0.473167 4.000000
-0.290288 -0.436720 0.177270 4.000000
-0.290288 0.337536 -0.294404 4.000000
-0.290288 0.087470 0.459438 4.000000
-0.290288 -0.104182 -0.469272 4.000000
-0.290288 -0.152162 0.426467 4.000000
-0.290288 -0.176599 -0.441889 4.000000
-0.290288 0.456885 0.108439 4.000000
-0.290288 -0.072603 -0.487467 4.000000
-0.290288 -0.328607 0.312907 4.000000
-0.290288 0.216245 0.408443 4.000000
-0.290288 0.383835 0.225804 4.000000
-0.290288 -0.166874 -0.417933 4.000000
-0.290288 -0.423515 -0.214834 4.000000
-0.290288 -0.304161 0.339976 4.000000
-0.290288 0.147388 0.430202 4.000000
-0.290288 -0.186366 -0.422334 4.000000
-0.290288 -0.360629 0.318375 4.000000
-0.290288 -0.166594 -0.457678 4.000000
-0.290288 0.161836 -0.462246 4.000000
-0.290288 -0.468613 -0.032027 4.000000
-0.290288 0.095368 0.433272 4.000000
-0.290288 -0.473068 0.009325 4.000000
-0.290288 -0.194715 -0.432221 4.000000
-0.290288 -0.051462 0.480573 4.000000
-0.290288 -0.471545 0.117965 4.000000
-0.290288 -0.474360 -0.135288 4.000000
-0.290288 -0.069408 0.486219 4.000000
-0.290288 -0.389784 -0.273091 4.000000
-0.290288 -0.023413 0.480046 4.000000
-0.290288 -0.441518 -0.152947 4.000000
-0.290288 0.466468 0.035781 4.000000
-0.290288 -0.014206 -0.462310 4.000000
-0.290288 -0.331909 -0.341492 4.000000
-0.290288 -0.068470 -0.480672 4.000000
-0.290288 -0.288182 0.396150 4.000000
-0.290288 -0.153095 -0.448734 4.000000
-0.290288 0.306462 0.385610 4.000000
-0.290288 0.495698 0.019004 4.000000
-0.290288 0.400146 -0.224005 4.000000
-0.290288 -0.229764 0.385377 4.000000
-0.290288 0.418222 0.177085 4.000000
-0.290288 -0.046044 0.482955 4.000000
-0.290288 0.150050 0.463616 4.000000
-0.290288 -0.290435 0.350473 4.000000
-0.290288 -0.430932 0.125798 4.000000
-0.290288 0.447551 0.185355 4.000000
-0.290288 0.190325 -0.412792 4.000000
-0.290288 -0.394809 0.287933 4.000000
-0.290288 -0.259321 0.419911 4.000000
-0.290288 -0.439388 0.211448 4.000000
-0.290288 -0.322921 0.363824 4.000000
-0.290288 -0.463168 -0.115449 4.000000
-0.290288 -0.122776 -0.448096 4.000000
-0.290288 -0.098773 0.449829 4.000000
-0.290288 -0.369266 -0.313893 4.000000
-0.290288 0.346670 0.287775 4.000000
-0.290288 -0.091742 0.437611 4.000000
-0.290288 -0.419167 0.148231 4.000000
-0.290288 -0.431523 -0.191967 4.000000
-0.290288 -0.081733 0.481445 4.000000
-0.290288 0.440537 -0.120106 4.000000
-0.290288 -0.439607 0.206681 4.000000
-0.290288 0.357961 -0.315125 4.000000
-0.290288 0.491832 -0.024228 4.000000
-0.290288 -0.484831 0.004494 4.000000
-0.290288 0.354470 0.282938 4.000000
-0.290288 -0.457333 0.177395 4.000000
-0.290288 0.284602 0.388442 4.000000
-0.290288 0.447664 -0.167773 4.000000
-0.290288 -0.009265 0.493435 4.000000
-0.290288 -0.491946 -0.074942 4.000000
-0.290288 0.425222 -0.191980 4.000000
-0.290288 0.452645 0.081941 4.000000
-0.290288 0.458179 -0.084818 4.000000
-0.290288 -0.245814 -0.420114 4.000000
-0.290288 0.140446 -0.464400 4.000000
-0.290288 -0.451527 0.122866 4.000000
-0.290288 -0.226457 -0.440357 4.000000
-0.290288 0.290841 -0.406416 4.000000
-0.290288 -0.338144 0.354698 4.000000
-0.290288 -0.449849 -0.084101 4.000000
-0.290288 -0.329666 0.327128 4.000000
-0.290288 0.223830 0.433717 4.000000
-0.290288 -0.123557 -0.462461 4.000000
-0.290288 -0.388417 -0.305001 4.000000
-0.290288 0.492212 -0.079067 4.000000
-0.290288 0.203144 -0.416485 4.000000
-0.290288 0.374443 -0.254286 4.000000
-0.290288 0.473459 -0.006257 4.000000
-0.290288 0.138543 0.431800 4.000000
-0.290288 -0.291217 -0.388429 4.000000
-0.290288 0.351969 -0.335457 4.000000
-0.290288 0.085574 0.452729 4.000000
-0.290288 -0.445255 0.032299 4.000000
-0.290288 0.471872 0.021653 4.000000
-0.290288 -0.428227 0.211744 4.000000
-0.290288 0.226959 0.401648 4.000000
-0.290288 -0.272634 0.380274 4.000000
-0.290288 -0.179487 0.405221 4.000000
-0.290288 -0.006200 0.476574 4.000000
-0.290288 -0.116892 -0.474859 4.000000
-0.290288 -0.452651 -0.039828 4.000000
-0.290288 -0.307520 0.328869 4.000000
-0.290288 0.115166 -0.447382 4.000000
-0.290288 -0.242192 0.427751 4.000000
-0.290288 0.361433 0.339913 4.000000
-0.290288 0.266877 -0.382517 4.000000
-0.290288 -0.453810 0.158768 4.000000
-0.290288 0.306478 0.357897 4.000000
-0.290288 0.418772 -0.174785 4.000000
-0.290288 -0.282405 -0.356331 4.000000
-0.290288 0.209374 -0.454033 4.000000
-0.290288 0.227353 -0.415386 4.000000
-0.290288 0.361136 0.308059 4.000000
-0.290288 0.296635 -0.379455 4.000000
-0.290288 0.436657 -0.235395 4.000000
-0.290288 0.493627 -0.069339 4.000000
-0.290288 0.003196 -0.485453 4.000000
-0.290288 0.375818 -0.324844 4.000000
-0.290288 -0.342198 0.305922 4.000000
-0.290288 0.324731 0.330274 4.000000
-0.290288 -0.046383 -0.484607 4.000000
-0.290288 0.089741 0.441829 4.000000
-0.290288 -0.038427 -0.489005 4.000000
-0.290288 0.295777 0.397463 4.000000
-0.290288 0.062789 -0.472958 4.000000
-0.290288 0.258743 0.404083 4.000000
-0.290288 -0.458811 -0.193342 4.000000
-0.290288 0.424782 -0.153380 4.000000
-0.290288 0.035478 0.443138 4.000000
-0.290288 0.173343 -0.438114 4.000000
-0.290288 -0.062843 -0.465750 4.000000
-0.290288 0.457171 -0.162990 4.000000
-0.290288 0.441841 0.207411 4.000000
-0.290288 0.132192 -0.438251 4.000000
-0.290288 0.328302 0.330961 4.000000
-0.290288 -0.309919 0.386581 4.000000
-0.290288 -0.438956 0.181356 4.000000
-0.290288 0.342978 -0.294727 4.000000
-0.290288 0.252241 0.370926 4.000000
-0.290288 0.298355 0.343859 4.000000
-0.290288 -0.184878 0.449034 4.000000
-0.290288 -0.256639 -0.423275 4.000000
-0.290288 0.436736 -0.119350 4.000000
-0.290288 -0.377859 -0.325303 4.000000
-0.290288 0.463045 0.111875 4.000000
-0.290288 0.159870 0.451983 4.000000
-0.290288 0.069660 0.464305 4.000000
-0.290288 0.287475 -0.400397 4.000000
-0.290288 0.197427 -0.444312 4.000000
-0.290288 0.334690 0.362533 4.000000
-0.290288 -0.491567 -0.025351 4.000000
-0.290288 -0.447339 -0.023405 4.000000
-0.290288 -0.247466 -0.415778 4.000000
-0.290288 0.133393 -0.447459 4.000000
-0.290288 0.483284 0.117238 4.000000
-0.290288 0.010573 -0.493699 4.000000
-0.290288 0.363247 0.330759 4.000000
-0.290288 0.033586 0.460607 4.000000
-0.290288 0.301584 0.391998 4.000000
-0.290288 0.439636 -0.229857 4.000000
-0.290288 0.395088 0.210216 4.000000
-0.290288 0.169799 0.458216 4.000000
-0.290288 0.466002 0.147149 4.000000
-0.290288 -0.088382 -0.469803 4.000000
-0.290288 0.460204 0.089732 4.000000
-0.290288 0.371615 0.313923 4.000000
-0.290288 0.341956 -0.354860 4.000000
-0.290288 -0.471401 -0.052468 4.000000
-0.290288 -0.440472 -0.088261 4.000000
-0.290288 0.359017 -0.347718 4.000000
-0.290288 0.457991 -0.074515 4.000000
-0.290288 0.087699 -0.483694 4.000000
-0.290288 -0.257045 0.383440 4.000000
-0.290288 0.438099 -0.195787 4.000000
-0.290288 0.220349 0.412271 4.000000
-0.290288 -0.446680 -0.162792 4.000000
-0.290288 0.394796 -0.274257 4.000000
-0.290288 -0.439437 0.143161 4.000000
-0.290288 -0.454697 0.093737 4.000000
-0.290288 -0.275309 -0.391809 4.000000
-0.290288 0.223335 -0.398362 4.000000
-0.290288 0.304600 -0.370892 4.000000
-0.290288 0.413320 0.202194 4.000000
-0.290288 0.360165 0.328188 4.000000
-0.290288 -0.448163 0.127749 4.000000
-0.290288 0.440676 -0.202954 4.000000
-0.290288 -0.076082 -0.450075 4.000000
-0.290288 -0.209155 -0.430641 4.000000
-0.290288 0.113590 0.468656 4.000000
-0.290288 0.448676 0.058635 4.000000
-0.290288 0.352398 -0.289747 4.000000
-0.290288 -0.433095 0.158190 4.000000
-0.290288 -0.436415 -0.123647 4.000000
-0.290288 -0.472509 -0.056405 4.000000
-0.290288 -0.422505 0.245320 4.000000
-0.290288 0.484877 0.067482 4.000000
-0.290288 -0.378415 0.265542 4.000000
-0.290288 0.319675 -0.333544 4.000000
-0.290288 0.241356 -0.376947 4.000000
-0.290288 -0.381197 0.255342 4.000000
-0.290288 -0.477744 0.072876 4.000000
-0.290288 -0.468199 -0.131262 4.000000
-0.290288 0.480734 0.075588 4.000000
-0.290288 0.290165 0.372804 4.000000
-0.290288 -0.432729 -0.210430 4.000000
-0.290288 -0.322985 -0.378412 4.000000
-0.290288 0.065864 -0.471467 4.000000
-0.290288 0.443449 -0.225133 4.000000
-0.290288 0.418804 -0.225927 4.000000
-0.290288 -0.347607 -0.348144 4.000000
-0.290288 -0.323768 0.317284 4.000000
-0.290288 -0.428505 -0.190979 4.000000
-0.290288 0.353691 0.298503 4.000000
-0.290288 -0.175216 -0.451407 4.000000
-0.290288 0.439763 0.182260 4.000000
-0.290288 -0.173838 0.455046 4.000000
-0.290288 0.458634 -0.017249 4.000000
-0.290288 0.454142 0.065031 4.000000
-0.290288 -0.496367 -0.011487 4.000000
-0.290288 -0.299688 0.355598 4.000000
-0.290288 -0.476619 0.137115 4.000000
-0.290288 -0.241224 0.400267 4.000000
-0.290288 -0.132421 0.433379 4.000000
-0.290288 -0.434494 -0.207441 4.000000
-0.290288 -0.140305 0.441465 4.000000
-0.290288 -0.261797 0.363145 4.000000
-0.290288 0.354645 0.328484 4.000000
-0.290288 0.059228 0.478053 4.000000
-0.290288 -0.439652 -0.165228 4.000000
-0.290288 0.194166 -0.438872 4.000000
-0.290288 -0.228838 0.380573 4.000000
-0.290288 0.496990 0.006404 4.000000
-0.290288 0.474582 -0.152574 4.000000
-0.290288 -0.285003 0.365233 4.000000
-0.290288 0.180287 0.454438 4.000000
-0.290288 0.376115 0.237528 4.000000
-0.290288 -0.401403 0.216221 4.000000
-0.290288 -0.455247 -0.007026 4.000000
-0.290288 -0.340918 0.352528 4.000000
-0.290288 0.368625 0.292016 4.000000
-0.290288 0.361753 -0.317030 4.000000
-0.290288 0.343851 0.320516 4.000000
-0.290288 0.184605 0.448750 4.000000
-0.290288 0.449413 0.143371 4.000000
-0.290288 -0.482854 -0.050158 4.000000
-0.290288 0.462406 -0.080243 4.000000
-0.290288 0.122320 0.443488 4.000000
-0.290288 0.456597 -0.173597 4.000000
-0.290288 -0.412582 0.243737 4.000000
-0.290288 0.312543 0.331401 4.000000
-0.290288 0.106997 0.438809 4.000000
-0.290288 0.426490 0.146567 4.000000
-0.290288 -0.122782 -0.440565 4.000000
-0.290288 0.200182 0.432807 4.000000
-0.290288 0.475068 -0.088720 4.000000
-0.290288 0.305802 0.354974 4.000000
-0.290288 -0.087292 -0.461014 4.000000
-0.290288 0.098895 0.469883 4.000000
-0.290288 0.408372 -0.253824 4.000000
-0.290288 0.409030 -0.272251 4.000000
-0.290288 -0.142700 -0.464470 4.000000
-0.290288 -0.464849 0.008899 4.000000
-0.290288 -0.416025 0.251747 4.000000
-0.290288 0.449417 -0.129522 4.000000
-0.290288 -0.296716 -0.333691 4.000000
-0.290288 -0.102139 -0.486193 4.000000
-0.290288 0.430243 0.228187 4.000000
-0.290288 0.403849 0.217333 4.000000
-0.290288 -0.197851 0.450002 4.000000
-0.290288 0.416577 0.228853 4.000000
-0.290288 -0.262059 -0.381806 4.000000
-0.290288 0.260072 -0.391154 4.000000
-0.290288 0.170537 0.461827 4.000000
-0.290288 -0.409020 -0.258643 4.000000
-0.290288 0.163240 -0.424510 4.000000
-0.290288 -0.281904 0.365293 4.000000
-0.290288 0.179831 -0.449351 4.000000
-0.290288 -0.439869 -0.187786 4.000000
-0.290288 0.429608 -0.181674 4.000000
-0.290288 0.273033 0.356692 4.000000
-0.290288 0.311774 -0.381951 4.000000
-0.290288 -0.414505 0.194704 4.000000
-0.290288 0.418390 0.256118 4.000000
-0.290288 -0.388897 0.268985 4.000000
-0.290288 0.425344 0.223189 4.000000
-0.290288 0.217195 -0.396886 4.000000
-0.290288 0.423058 -0.207955 4.000000
-0.290288 -0.310867 0.366079 4.000000
-0.290288 -0.298501 -0.379858 4.000000
-0.290288 0.390947 0.256359 4.000000
-0.290288 0.414394 0.267456 4.000000
-0.290288 0.026531 0.457411 4.000000
-0.290288 -0.200498 0.447550 4.000000
-0.290288 -0.364268 0.285209 4.000000
-0.290288 -0.001884 0.452021 4.000000
-0.290288 0.480763 0.099179 4.000000
-0.290288 -0.133876 -0.426928 4.000000
-0.290288 0.181163 -0.415963 4.000000
-0.290288 0.465068 -0.122019 4.000000
-0.290288 -0.323424 0.303564 4.000000
-0.290288 -0.436773 -0.103908 4.000000
-0.290288 -0.445633 -0.068980 4.000000
-0.290288 -0.454298 -0.097675 4.000000
-0.290288 0.162481 -0.419748 4.000000
-0.290288 -0.484849 0.061176 4.000000
-0.290288 -0.455957 0.169672 4.000000
-0.290288 -0.185638 0.445645 4.000000
-0.290288 0.200797 0.403944 4.000000
-0.290288 -0.310916 0.343157 4.000000
-0.290288 0.443084 0.182953 4.000000
-0.290288 0.249707 -0.411722 4.000000
-0.290288 -0.249785 0.415185 4.000000
-0.290288 0.045901 -0.481886 4.000000
-0.290288 -0.427564 0.207881 4.000000
-0.290288 0.491648 0.035380 4.000000
-0.290288 0.436330 -0.126748 4.000000
-0.290288 0.174390 -0.418600 4.000000
-0.290288 0.054847 0.453349 4.000000
-0.290288 0.439104 -0.100774 4.000000
-0.290288 0.410884 -0.235588 4.000000
-0.290288 0.404390 0.250595 4.000000
-0.290288 0.173700 0.438250 4.000000
-0.290288 0.408108 -0.211817 4.000000
-0.290288 -0.317105 0.366454 4.000000
-0.290288 -0.145019 -0.454565 4.000000
-0.290288 -0.094224 -0.456979 4.000000
-0.290288 0.423878 0.136752 4.000000
-0.290288 0.342144 0.350953 4.000000
-0.290288 0.472196 0.107015 4.000000
-0.290288 0.137987 0.476298 4.000000
-0.290288 -0.476878 -0.022270 4.000000
-0.290288 0.227637 0.388557 4.000000
-0.290288 -0.287840 0.403326 4.000000
-0.290288 -0.023802 -0.454709 4.000000
-0.290288 -0.275472 -0.385405 4.000000
-0.290288 -0.194726 -0.420076 4.000000
-0.290288 0.413826 -0.267046 4.000000
-0.290288 0.451012 0.194552 4.000000
-0.290288 0.008195 -0.450782 4.000000
-0.290288 -0.314125 0.365700 4.000000
-0.290288 -0.279139 -0.371605 4.000000
-0.290288 0.343738 -0.299005 4.000000
-0.290288 0.214117 0.415574 4.000000
-0.290288 0.141239 -0.478393 4.000000
-0.290288 0.459176 -0.043622 4.000000
-0.290288 -0.412673 -0.249231 4.000000
-0.290288 0.059847 -0.458560 4.000000
-0.290288 -0.086431 0.487872 4.000000
-0.290288 0.236062 -0.440844 4.000000
-0.290288 -0.389242 0.276768 4.000000
-0.290288 0.126370 0.438487 4.000000
-0.290288 0.453732 -0.175189 4.000000
-0.290288 0.308797 0.361104 4.000000
-0.290288 -0.100832 0.443614 4.000000
-0.290288 0.173822 -0.441729 4.000000
-0.290288 -0.420544 0.163878 4.000000
-0.290288 0.492227 0.028506 4.000000
-0.290288 -0.447572 0.135562 4.000000
-0.290288 -0.418784 0.247270 4.000000
-0.290288 -0.325240 -0.347695 4.000000
-0.290288 -0.190462 -0.437069 4.000000
-0.290288 -0.298316 -0.339710 4.000000
-0.290288 -0.338880 0.331778 4.000000
-0.290288 -0.154081 0.434796 4.000000
-0.290288 -0.420639 0.177882 4.000000
-0.290288 0.421682 -0.165556 4.000000
-0.290288 -0.439487 0.068590 4.000000
-0.290288 0.349056 0.305080 4.000000
-0.290288 -0.369457 -0.265388 4.000000
-0.290288 -0.465244 0.020307 4.000000
-0.290288 -0.144577 0.452589 4.000000
-0.290288 0.303281 0.324623 4.000000
-0.290288 0.096241 -0.469035 4.000000
-0.290288 -0.167384 -0.427336 4.000000
-0.290288 -0.236809 0.432275 4.000000
-0.290288 0.060284 0.487311 4.000000
-0.290288 -0.461996 -0.106481 4.000000
-0.290288 0.434272 0.237551 4.000000
-0.290288 -0.346677 0.291713 4.000000
-0.290288 0.348786 -0.327587 4.000000
-0.290288 -0.095989 -0.460082 4.000000
-0.290288 -0.447693 -0.155377 4.000000
-0.290288 -0.098608 -0.484941 4.000000
-0.290288 -0.183329 -0.425030 4.000000
-0.290288 -0.322848 -0.344511 4.000000
-0.290288 0.350346 -0.354043 4.000000
-0.290288 0.153018 -0.451298 4.000000
-0.290288 0.079063 0.451598 4.000000
-0.290288 -0.400152 -0.230225 4.000000
-0.290288 -0.299626 -0.334972 4.000000
-0.290288 0.420341 0.234306 4.000000
-0.290288 -0.482840 0.117132 4.000000
-0.290288 -0.422342 0.213591 4.000000
-0.290288 -0.063660 0.456634 4.000000
-0.290288 0.350677 0.325785 4.000000
-0.290288 0.264511 0.362133 4.000000
-0.290288 -0.460428 -0.071476 4.000000
-0.290288 -0.485880 -0.107909 4.000000
-0.290288 0.463379 -0.049836 4.000000
-0.290288 -0.452640 0.054755 4.000000
-0.290288 -0.483830 -0.064819 4.000000
-0.290288 0.335419 -0.361075 4.000000
-0.290288 0.165795 0.421083 4.000000
-0.290288 -0.376257 0.262686 4.000000
-0.290288 -0.429451 -0.140812 4.000000
-0.290288 0.441115 -0.194263 4.000000
-0.290288 0.491456 -0.050424 4.000000
-0.290288 -0.147895 -0.455786 4.000000
-0.290288 -0.391920 -0.281977 4.000000
-0.290288 -0.365780 -0.332333 4.000000
-0.290288 0.129943 0.439471 4.000000
-0.290288 -0.390507 -0.216319 4.000000
-0.290288 -0.312288 -0.336649 4.000000
-0.290288 -0.077524 0.476292 4.000000
-0.290288 -0.449934 0.037346 4.000000
-0.290288 -0.093975 -0.463530 4.000000
-0.290288 0.225871 -0.407825 4.000000
-0.290288 -0.467505 -0.051420 4.000000
-0.290288 -0.168436 -0.415069 4.000000
-0.290288 0.337695 -0.368617 4.000000
-0.290288 0.194586 0.439576 4.000000
-0.290288 -0.445731 0.079052 4.000000
-0.290288 -0.199611 -0.407498 4.000000
-0.290288 -0.168623 0.442909 4.000000
-0.290288 0.233734 0.427196 4.000000
-0.290288 -0.452735 -0.014025 4.000000
-0.290288 0.447983 -0.161193 4.000000
-0.290288 0.492090 0.042782 4.000000
-0.290288 0.288436 0.363081 4.000000
-0.290288 0.352711 0.332827 4.000000
-0.290288 -0.365656 0.312056 4.000000
-0.290288 0.295857 0.393954 4.000000
-0.290288 -0.449886 -0.159050 4.000000
-0.290288 0.190862 -0.446215 4.000000
-0.290288 0.274058 -0.361281 4.000000
-0.290288 -0.063621 -0.456514 4.000000
-0.290288 -0.417863 0.234722 4.000000
-0.290288 -0.047184 -0.468288 4.000000
-0.290288 0.405198 0.227147 4.000000
-0.290288 0.347947 0.296729 4.000000
-0.290288 0.233386 -0.407350 4.000000
-0.290288 0.451098 -0.121549 4.000000
-0.290288 -0.309130 -0.327476 4.000000
-0.290288 -0.431118 0.191240 4.000000
-0.290288 -0.427772 0.234990 4.000000
-0.290288 -0.080040 0.454744 4.000000
-0.290288 -0.113943 -0.469052 4.000000
-0.290288 0.393142 0.284632 4.000000
-0.290288 -0.017591 0.488724 4.000000
-0.290288 -0.374866 0.297329 4.000000
-0.290288 -0.444886 -0.124705 4.000000
-0.290288 -0.362730 0.255470 4.000000
-0.290288 -0.426787 0.191951 4.000000
-0.290288 0.476413 0.114149 4.000000
-0.290288 0.005096 -0.460224 4.000000
-0.290288 0.439389 0.220688 4.000000
-0.290288 -0.479182 0.077387 4.000000
-0.290288 0.251812 0.388031 4.000000
-0.290288 0.478009 0.005832 4.000000
-0.290288 -0.318698 0.354407 4.000000
-0.290288 -0.474842 -0.031087 4.000000
-0.290288 0.370215 -0.294940 4.000000
-0.290288 -0.214420 -0.413363 4.000000
-0.290288 0.416694 -0.171225 4.000000
-0.290288 0.471961 -0.160977 4.000000
-0.290288 0.434509 -0.209708 4.000000
-0.290288 0.409359 0.233815 4.000000
-0.290288 0.022724 0.443863 4.000000
-0.290288 0.478083 -0.139859 4.000000
-0.290288 0.300487 0.376664 4.000000
-0.290288 0.355033 0.289276 4.000000
-0.290288 0.270806 -0.380147 4.000000
-0.290288 0.323176 -0.350081 4.000000
-0.290288 0.449242 0.046720 4.000000
-0.290288 0.048650 -0.466711 4.000000
-0.290288 0.011541 -0.462125 4.000000
-0.290288 -0.431535 -0.119634 4.000000
-0.290288 0.135167 0.455302 4.000000
-0.290288 -0.434068 0.215566 4.000000
-0.290288 -0.407336 -0.245294 4.000000
-0.290288 0.294578 -0.385670 4.000000
-0.290288 0.430978 -0.136524 4.000000
-0.290288 0.109742 -0.443670 4.000000
-0.290288 0.399161 0.230255 4.000000
-0.290288 0.223312 0.396164 4.000000
-0.290288 -0.483814 -0.070641 4.000000
-0.290288 0.449846 0.158591 4.000000
-0.290288 0.299243 0.328684 4.000000
-0.290288 -0.205194 0.427368 4.000000
-0.290288 0.120010 -0.455271 4.000000
-0.290288 -0.379745 0.307641 4.000000
-0.290288 -0.465537 0.057935 4.000000
-0.290288 0.438441 -0.213983 4.000000
-0.290288 0.026651 -0.498288 4.000000
-0.290288 0.446876 -0.017566 4.000000
-0.290288 0.349254 0.285482 4.000000
-0.290288 -0.429547 0.177244 4.000000
-0.290288 0.155937 -0.441551 4.000000
-0.290288 0.415261 0.218744 4.000000
-0.290288 0.289000 -0.362815 4.000000
-0.290288 -0.392733 0.231493 4.000000
-0.290288 -0.349002 -0.283414 4.000000
-0.290288 0.088072 0.476732 4.000000
-0.290288 0.082075 0.465837 4.000000
-0.290288 -0.281979 -0.405445 4.000000
-0.290288 0.237995 -0.404209 4.000000
-0.290288 -0.471052 -0.080872 4.000000
-0.290288 -0.155274 0.423958 4.000000
-0.290288 0.490104 0.025452 4.000000
-0.290288 -0.372369 -0.281967 4.000000
-0.290288 0.127366 0.425717 4.000000
-0.290288 -0.458797 0.000145 4.000000
-0.290288 -0.068659 0.441564 4.000000
-0.290288 -0.439646 -0.221299 4.000000
-0.290288 0.276811 0.347954 4.000000
-0.290288 -0.337462 0.303673 4.000000
-0.290288 -0.399225 -0.292708 4.000000
-0.290288 0.444482 0.195965 4.000000
-0.290288 0.480839 -0.128436 4.000000
-0.290288 -0.466099 -0.030256 4.000000
-0.290288 -0.356127 0.340401 4.000000
-0.290288 -0.179364 -0.465895 4.000000
-0.290288 0.418501 -0.191286 4.000000
-0.290288 -0.179351 -0.426417 4.000000
-0.290288 -0.232745 0.437917 4.000000
-0.290288 0.434564 -0.129801 4.000000
-0.290288 -0.185167 -0.407971 4.000000
-0.290288 -0.165249 -0.464484 4.000000
-0.290288 -0.237242 -0.409281 4.000000
-0.290288 -0.322673 0.321146 4.000000
-0.290288 -0.013412 0.454187 4.000000
-0.290288 -0.192265 0.407562 4.000000
-0.290288 0.242840 -0.422311 4.000000
-0.290288 -0.450368 -0.201253 4.000000
-0.290288 0.033854 -0.497216 4.000000
-0.290288 -0.354870 0.307374 4.000000
-0.290288 0.102624 0.447993 4.000000
-0.290288 -0.255712 -0.409125 4.000000
-0.290288 0.169597 -0.465540 4.000000
-0.290288 0.305590 -0.332619 4.000000
-0.290288 0.450926 -0.114846 4.000000
-0.290288 -0.252399 -0.368734 4.000000
-0.290288 0.233813 -0.416789 4.000000
-0.290288 0.420776 -0.223067 4.000000
-0.290288 -0.316820 0.325668 4.000000
-0.290288 0.323780 0.318113 4.000000
-0.290288 -0.320684 -0.367443 4.000000
-0.290288 0.482122 0.029092 4.000000
-0.290288 0.285407 -0.349080 4.000000
-0.290288 0.402343 -0.294000 4.000000
-0.290288 0.145195 -0.471574 4.000000
-0.290288 0.337581 0.320062 4.000000
-0.290288 -0.439455 -0.175802 4.000000
-0.290288 -0.459645 0.029544 4.000000
-0.290288 -0.144603 0.448968 4.000000
-0.290288 -0.467050 0.129057 4.000000
-0.290288 -0.194517 -0.448043 4.000000
-0.290288 0.337583 -0.327414 4.000000
-0.290288 -0.109015 0.456269 4.000000
-0.290288 -0.431940 -0.172096 4.000000
-0.290288 0.427802 -0.190451 4.000000
-0.290288 0.266851 -0.403172 4.000000
-0.290288 0.454375 -0.104413 4.000000
-0.290288 0.100136 -0.478539 4.000000
-0.290288 -0.445190 0.129066 4.000000
-0.290288 0.493512 -0.047923 4.000000
-0.290288 0.366638 0.304468 4.000000
-0.290288 0.452130 -0.064486 4.000000
-0.290288 0.477138 0.101957 4.000000
-0.290288 0.463133 -0.000922 4.000000
-0.290288 0.025198 0.452726 4.000000
-0.290288 -0.360757 -0.321450 4.000000
-0.290288 0.339282 -0.334219 4.000000
-0.290288 0.002381 -0.491962 4.000000
-0.290288 -0.173927 -0.419033 4.000000
-0.290288 -0.207612 0.409442 4.000000
-0.290288 -0.025575 -0.474747 4.000000
-0.290288 0.331654 -0.301479 4.000000
-0.290288 -0.033842 0.491710 4.000000
-0.290288 0.458282 -0.119273 4.000000
-0.290288 0.464839 0.001770 4.000000
-0.290288 0.194910 -0.423236 4.000000
-0.290288 -0.397060 -0.254189 4.000000
-0.290288 0.128852 0.449332 4.000000
-0.290288 -0.346991 -0.341964 4.000000
-0.290288 0.058693 0.452670 4.000000
-0.290288 -0.463803 0.040977 4.000000
-0.290288 -0.358664 0.273630 4.000000
-0.290288 -0.457714 -0.169811 4.000000
-0.290288 -0.068904 0.460296 4.000000
-0.290288 -0.157851 0.431935 4.000000
-0.290288 0.432318 0.126770 4.000000
-0.290288 -0.443698 -0.079948 4.000000
-0.290288 -0.114683 0.431746 4.000000
-0.290288 -0.351236 -0.347239 4.000000
-0.290288 -0.413259 0.224115 4.000000
-0.290288 -0.180284 -0.435587 4.000000
-0.290288 -0.038313 -0.498735 4.000000
-0.290288 -0.345406 -0.333393 4.000000
-0.290288 -0.441038 -0.075142 4.000000
-0.290288 -0.377256 -0.277161 4.000000
-0.290288 -0.312207 -0.324412 4.000000
-0.290288 0.377361 0.275995 4.000000
-0.290288 0.140511 -0.429772 4.000000
-0.290288 0.349810 0.345690 4.000000
-0.290288 -0.430722 -0.245701 4.000000
-0.290288 0.271949 0.415405 4.000000
-0.290288 -0.234864 -0.390484 4.000000
-0.290288 0.491800 -0.082822 4.000000
-0.290288 0.211995 -0.447341 4.000000
-0.290288 -0.298406 -0.350395 4.000000
-0.290288 -0.429609 -0.252516 4.000000
-0.290288 0.471173 -0.106868 4.000000
-0.290288 0.421073 -0.150069 4.000000
-0.290288 0.436832 -0.114424 4.000000
-0.290288 0.173922 0.426638 4.000000
-0.290288 0.240988 -0.416826 4.000000
-0.290288 0.383832 0.228932 4.000000
-0.290288 -0.370308 -0.272497 4.000000
-0.290288 0.431889 -0.143005 4.000000
-0.290288 0.110222 -0.466605 4.000000
-0.290288 0.454246 0.195706 4.000000
-0.290288 0.116529 -0.453393 4.000000
-0.290288 0.150365 0.420672 4.000000
-0.290288 0.224514 0.382891 4.000000
-0.290288 0.456160 0.139451 4.000000
-0.290288 -0.329414 -0.314241 4.000000
-0.290288 0.399442 0.257080 4.000000
-0.290288 0.197450 -0.457475 4.000000
-0.290288 -0.058805 0.440304 4.000000
-0.290288 0.109058 0.473609 4.000000
-0.290288 0.064281 0.458547 4.000000
-0.290288 -0.143119 -0.448973 4.000000
-0.290288 0.446182 -0.013539 4.000000
-0.290288 0.084871 0.447779 4.000000
-0.290288 0.422105 -0.156423 4.000000
-0.290288 -0.041775 -0.456423 4.000000
-0.290288 -0.358594 0.329165 4.000000
-0.290288 0.469679 -0.055023 4.000000
-0.290288 0.417634 0.181071 4.000000
-0.290288 0.178226 0.461966 4.000000
-0.290288 -0.306827 -0.356678 4.000000
-0.290288 -0.281012 0.355160 4.000000
-0.290288 -0.487771 0.086034 4.000000
-0.290288 0.476400 -0.098998 4.000000
-0.290288 0.456234 0.049937 4.000000
-0.290288 -0.132071 -0.466986 4.000000
-0.290288 -0.300735 0.339071 4.000000
-0.290288 -0.453333 0.172565 4.000000
-0.290288 -0.426227 0.169271 4.000000
-0.290288 -0.358290 0.310372 4.000000
-0.290288 -0.227408 -0.401165 4.000000
-0.290288 0.054578 0.467187 4.000000
-0.290288 -0.380321 0.286540 4.000000
-0.290288 -0.093945 -0.490552 4.000000
-0.290288 0.310021 -0.362804 4.000000
-0.290288 -0.432780 -0.220802 4.000000
-0.290288 0.154247 -0.420835 4.000000
-0.290288 0.148343 0.448700 4.000000
-0.290288 0.070929 -0.462015 4.000000
-0.290288 0.389934 -0.222276 4.000000
-0.290288 -0.052137 0.461495 4.000000
-0.290288 0.417869 0.250963 4.000000
-0.290288 -0.421576 -0.200522 4.000000
-0.290288 0.202794 0.420678 4.000000
-0.290288 0.452710 0.036279 4.000000
-0.290288 0.251217 0.410948 4.000000
-0.290288 0.211391 0.444207 4.000000
-0.290288 0.465763 0.175852 4.000000
-0.290288 -0.194189 0.419620 4.000000
-0.290288 0.279866 0.348671 4.000000
-0.290288 0.251443 -0.373045 4.000000
-0.290288 0.177508 -0.410817 4.000000
-0.290288 0.435493 -0.192683 4.000000
-0.290288 0.446454 -0.144354 4.000000
-0.290288 -0.379152 -0.267802 4.000000
-0.290288 0.496894 -0.027635 4.000000
-0.290288 0.430326 0.187082 4.000000
-0.290288 0.266683 -0.390190 4.000000
-0.290288 0.042306 -0.491267 4.000000
-0.290288 -0.250608 -0.398207 4.000000
-0.290288 0.103916 0.432362 4.000000
-0.290288 0.476317 0.096245 4.000000
-0.290288 0.406419 -0.237129 4.000000
-0.290288 0.259645 0.381356 4.000000
-0.290288 -0.362280 0.337245 4.000000
-0.290288 0.203783 -0.427826 4.000000
-0.290288 0.325303 0.321065 4.000000
-0.290288 -0.139028 -0.473171 4.000000
-0.290288 0.163307 -0.440856 4.000000
-0.290288 0.302207 0.342204 4.000000
-0.290288 -0.215066 0.405882 4.000000
-0.290288 0.357904 0.343664 4.000000
-0.290288 -0.418458 -0.257024 4.000000
-0.290288 0.315933 -0.340855 4.000000
-0.290288 0.484786 -0.068313 4.000000
-0.290288 -0.430819 0.186615 4.000000
-0.290288 0.306215 -0.363062 4.000000
-0.290288 0.407328 0.281724 4.000000
-0.290288 -0.118417 -0.431873 4.000000
-0.290288 -0.169802 -0.439085 4.000000
-0.290288 -0.097648 -0.471587 4.000000
-0.290288 0.438617 -0.128793 4.000000
-0.290288 0.412342 0.183072 4.000000
-0.290288 0.385816 0.240396 4.000000
-0.290288 -0.386708 0.233013 4.000000
-0.290288 -0.469099 -0.021242 4.000000
-0.290288 -0.407409 -0.186959 4.000000
-0.290288 0.478117 -0.004031 4.000000
-0.290288 -0.013162 0.484856 4.000000
-0.290288 -0.466680 -0.088814 4.000000
-0.290288 0.185923 0.427262 4.000000
-0.290288 0.377963 -0.297675 4.000000
-0.290288 -0.151570 0.466667 4.000000
-0.290288 -0.077417 -0.467809 4.000000
-0.290288 -0.455579 0.011516 4.000000
-0.290288 -0.089484 -0.455322 4.000000
-0.290288 -0.263653 -0.379105 4.000000
-0.290288 -0.162030 -0.452988 4.000000
-0.290288 0.198924 0.426014 4.000000
-0.290288 -0.461654 0.068425 4.000000
-0.290288 -0.280917 0.358945 4.000000
-0.290288 -0.458449 0.013849 4.000000
-0.290288 -0.406763 -0.207256 4.000000
-0.290288 -0.436503 -0.189261 4.000000
-0.290288 -0.357651 0.287760 4.000000
-0.290288 0.122798 0.446881 4.000000
-0.290288 0.300766 -0.356773 4.000000
-0.290288 -0.099561 0.439769 4.000000
-0.290288 0.298722 -0.360431 4.000000
-0.290288 -0.477859 0.016599 4.000000
-0.290288 0.424171 -0.200858 4.000000
-0.290288 -0.239867 -0.411794 4.000000
-0.290288 0.145263 -0.445985 4.000000
-0.290288 -0.285636 -0.406400 4.000000
-0.290288 -0.452728 -0.070577 4.000000
-0.290288 -0.212333 0.393848 4.000000
-0.290288 -0.465540 -0.108537 4.000000
-0.290288 -0.413142 -0.265813 4.000000
-0.290288 0.404225 -0.240378 4.000000
-0.290288 0.141674 0.446110 4.000000
-0.290288 -0.447138 -0.080517 4.000000
-0.290288 0.374567 -0.321880 4.000000
-0.290288 -0.293423 0.343928 4.000000
-0.290288 -0.057592 -0.467506 4.000000
-0.290288 0.446031 -0.075708 4.000000
-0.290288 0.460363 0.060221 4.000000
-0.290288 0.472541 0.084453 4.000000
-0.290288 0.205212 -0.418811 4.000000
-0.290288 0.043581 0.481681 4.000000
-0.290288 0.440532 -0.151373 4.000000
-0.290288 0.439320 -0.209117 4.000000
-0.290288 -0.468454 -0.068289 4.000000
-0.290288 0.435828 -0.140800 4.000000
-0.290288 -0.239860 0.408498 4.000000
-0.290288 0.353750 -0.349731 4.000000
-0.290288 0.029700 0.458194 4.000000
-0.290288 0.364030 0.286788 4.000000
-0.290288 -0.463197 0.004388 4.000000
-0.290288 -0.121243 -0.472542 4.000000
-0.290288 0.080159 -0.491399 4.000000
-0.290288 -0.475411 -0.001392 4.000000
-0.290288 0.299168 0.389286 4.000000
-0.290288 0.450512 -0.183579 4.000000
-0.290288 0.372223 0.327726 4.000000
-0.290288 -0.310142 -0.321467 4.000000
-0.290288 0.215403 0.392343 4.000000
-0.290288 0.244095 -0.432430 4.000000
-0.290288 -0.054385 0.474356 4.000000
-0.290288 0.056672 0.439994 4.000000
-0.290288 0.153139 -0.447534 4.000000
-0.290288 -0.458222 0.064240 4.000000
-0.290288 -0.201179 0.395234 4.000000
-0.290288 0.442672 0.223528 4.000000
-0.290288 -0.420662 0.206295 4.000000
-0.290288 -0.274413 0.374412 4.000000
-0.290288 0.437871 -0.158490 4.000000
-0.290288 -0.461797 0.059178 4.000000
-0.290288 0.310618 -0.339209 4.000000
-0.290288 0.283250 -0.369963 4.000000
-0.290288 0.181705 0.444615 4.000000
-0.290288 0.429139 0.118329 4.000000
-0.290288 -0.457686 0.184158 4.000000
-0.290288 0.468926 -0.040728 4.000000
-0.290288 0.209516 -0.413628 4.000000
-0.290288 -0.164158 0.445804 4.000000
-0.290288 -0.353493 0.297572 4.000000
-0.290288 -0.438477 -0.228040 4.000000
-0.290288 -0.459810 -0.079840 4.000000
-0.290288 0.436149 -0.188210 4.000000
-0.290288 -0.299786 0.344892 4.000000
-0.290288 -0.120662 0.433928 4.000000
-0.290288 0.428176 0.158172 4.000000
-0.290288 0.094833 0.446340 4.000000
-0.290288 0.433353 0.106786 4.000000
-0.290288 0.131394 -0.472452 4.000000
-0.290288 0.419688 0.213977 4.000000
-0.290288 0.161309 -0.473362 4.000000
-0.290288 0.465936 -0.037458 4.000000
-0.290288 0.226966 -0.423434 4.000000
-0.290288 0.348074 0.322398 4.000000
-0.290288 -0.193311 0.422856 4.000000
-0.290288 -0.044833 -0.454777 4.000000
-0.290288 -0.275438 0.357875 4.000000
-0.290288 0.450710 0.118116 4.000000
-0.290288 -0.240659 -0.423865 4.000000
-0.290288 -0.445456 -0.217385 4.000000
-0.290288 -0.322525 0.337067 4.000000
-0.290288 -0.358841 -0.339406 4.000000
-0.290288 -0.442687 0.212565 4.000000
-0.290288 0.461873 0.120485 4.000000
-0.290288 -0.327560 -0.373617 4.000000
-0.290288 -0.331339 0.335862 4.000000
-0.290288 -0.037470 0.475739 4.000000
-0.290288 -0.432056 0.173281 4.000000
-0.290288 0.446225 0.061344 4.000000
-0.290288 -0.124236 -0.458874 4.000000
-0.290288 0.022309 -0.469773 4.000000
-0.290288 0.151953 -0.431259 4.000000
-0.290288 0.444342 0.172652 4.000000
-0.290288 -0.395381 -0.304047 4.000000
-0.290288 -0.392743 -0.270704 4.000000
-0.290288 0.411879 -0.208937 4.000000
-0.290288 -0.056544 0.490845 4.000000
-0.290288 0.014862 -0.476451 4.000000
-0.290288 0.363601 -0.341014 4.000000
-0.290288 -0.463569 -0.146582 4.000000
-0.290288 0.234345 0.416073 4.000000
-0.290288 0.185663 0.417870 4.000000
-0.290288 0.324235 0.374904 4.000000
-0.290288 -0.171311 0.416829 4.000000
-0.290288 0.416265 -0.218080 4.000000
-0.290288 -0.444224 -0.073077 4.000000
-0.290288 -0.388156 0.256962 4.000000
-0.290288 0.355740 0.335214 4.000000
-0.290288 0.259837 -0.369865 4.000000
-0.290288 -0.016108 0.472406 4.000000
-0.290288 -0.433942 0.161626 4.000000
-0.290288 -0.456998 -0.173131 4.000000
-0.290288 0.396819 0.285307 4.000000
-0.290288 0.281382 -0.407031 4.000000
-0.290288 0.443409 -0.206758 4.000000
-0.290288 -0.034654 -0.449954 4.000000
-0.290288 -0.266573 -0.390630 4.000000
-0.290288 0.302928 -0.385736 4.000000
-0.290288 0.321840 0.368753 4.000000
-0.290288 0.177709 -0.456084 4.000000
-0.290288 0.050114 -0.470184 4.000000
-0.290288 -0.410727 0.210833 4.000000
-0.290288 -0.195059 -0.408095 4.000000
-0.290288 -0.217705 -0.400448 4.000000
-0.290288 -0.270275 0.407613 4.000000
-0.290288 0.260142 0.370236 4.000000
-0.290288 -0.410928 -0.180591 4.000000
-0.290288 -0.302126 -0.357070 4.000000
-0.290288 -0.460669 0.147716 4.000000
-0.290288 -0.309336 -0.389040 4.000000
-0.290288 0.418898 0.168347 4.000000
-0.290288 -0.034456 -0.498935 4.000000
-0.290288 0.353586 -0.303880 4.000000
-0.290288 -0.294553 0.398207 4.000000
-0.290288 0.052625 -0.445625 4.000000
-0.290288 -0.284333 0.405279 4.000000
-0.290288 -0.148957 0.427173 4.000000
-0.290288 0.481760 -0.077043 4.000000
-0.290288 -0.217694 -0.448179 4.000000
-0.290288 -0.454038 -0.114796 4.000000
-0.290288 -0.134613 0.472397 4.000000
-0.290288 0.274044 0.366715 4.000000
-0.290288 0.096107 -0.452381 4.000000
-0.290288 0.461539 -0.074891 4.000000
-0.290288 -0.163941 -0.426522 4.000000
-0.290288 0.441560 -0.159872 4.000000
-0.290288 0.202955 -0.442645 4.000000
-0.290288 0.400950 0.239669 4.000000
-0.290288 0.343797 -0.286771 4.000000
-0.290288 0.052225 -0.474103 4.000000
-0.290288 -0.260195 0.381438 4.000000
-0.290288 0.100712 0.466064 4.000000
-0.290288 -0.475010 -0.058919 4.000000
-0.290288 0.257822 0.364251 4.000000
-0.290288 0.138769 0.453416 4.000000
-0.290288 0.105850 -0.438220 4.000000
-0.290288 0.232151 -0.388598 4.000000
-0.290288 0.459180 0.160443 4.000000
-0.290288 0.380992 0.300654 4.000000
-0.290288 -0.396811 0.215480 4.000000
-0.290288 -0.027500 0.462402 4.000000
-0.290288 -0.433767 0.237886 4.000000
-0.290288 0.403374 0.284458 4.000000
-0.290288 -0.462119 0.181691 4.000000
-0.290288 -0.065871 0.459298 4.000000
-0.290288 -0.075430 -0.462378 4.000000
-0.290288 0.382618 0.311448 4.000000
-0.290288 -0.232939 0.385846 4.000000
-0.290288 0.099660 -0.445536 4.000000
-0.290288 0.181293 0.426495 4.000000
-0.290288 0.413581 0.233923 4.000000
-0.290288 0.428829 -0.143709 4.000000
-0.290288 -0.297897 0.392082 4.000000
-0.290288 -0.421351 -0.227491 4.000000
-0.290288 -0.350505 0.284241 4.000000
-0.290288 0.401414 -0.263915 4.000000
-0.290288 -0.417935 -0.253344 4.000000
-0.290288 -0.174279 0.438555 4.000000
-0.290288 -0.276412 0.407722 4.000000
-0.290288 0.174097 0.445709 4.000000
-0.290288 0.478264 -0.016474 4.000000
-0.290288 -0.193884 -0.451994 4.000000
-0.290288 -0.309401 -0.347317 4.000000
-0.290288 0.364998 0.259991 4.000000
-0.290288 0.034166 0.484636 4.000000
-0.290288 0.424372 -0.168506 4.000000
-0.290288 -0.278574 -0.375234 4.000000
-0.290288 0.444249 -0.111447 4.000000
-0.290288 0.389330 0.222786 4.000000
-0.290288 -0.423525 -0.171279 4.000000
-0.290288 -0.438873 -0.148097 4.000000
-0.290288 0.471327 -0.147510 4.000000
-0.290288 0.426915 -0.147464 4.000000
-0.290288 -0.317507 -0.385433 4.000000
-0.290288 0.352819 0.305851 4.000000
-0.290288 -0.318540 -0.338332 4.000000
-0.290288 0.425978 0.219208 4.000000
-0.290288 0.461464 0.156093 4.000000
-0.290288 -0.458202 -0.104124 4.000000
-0.290288 0.037137 -0.488239 4.000000
-0.290288 -0.345570 0.278304 4.000000
-0.290288 -0.374767 0.246334 4.000000
-0.290288 -0.388546 0.219793 4.000000
-0.290288 -0.169484 0.448248 4.000000
-0.290288 -0.285190 -0.352840 4.000000
-0.290288 -0.250923 0.403990 4.000000
-0.290288 0.058741 0.491733 4.000000
-0.290288 -0.167035 -0.435878 4.000000
-0.290288 -0.294984 0.384137 4.000000
-0.290288 -0.454628 -0.170832 4.000000
-0.290288 0.282030 0.359384 4.000000
-0.290288 0.008236 0.446356 4.000000
-0.290288 -0.415303 -0.236019 4.000000
-0.290288 0.051739 0.479709 4.000000
-0.290288 0.236364 -0.408976 4.000000
-0.290288 -0.441569 0.226739 4.000000
-0.290288 -0.072737 0.445751 4.000000
-0.290288 -0.398185 -0.299981 4.000000
-0.290288 0.278459 -0.386797 4.000000
-0.290288 -0.336254 0.343820 4.000000
-0.290288 0.118887 -0.439066 4.000000
-0.290288 0.405843 0.244141 4.000000
-0.290288 0.001769 0.452134 4.000000
-0.290288 -0.124058 0.446555 4.000000
-0.290288 0.455832 -0.155761 4.000000
-0.290288 -0.410886 0.171480 4.000000
-0.290288 -0.465389 -0.157131 4.000000
-0.290288 0.459575 -0.038244 4.000000
-0.290288 0.441834 0.179463 4.000000
-0.290288 0.477977 0.047275 4.000000
-0.290288 -0.143858 0.428569 4.000000
-0.290288 -0.208980 -0.453104 4.000000
-0.290288 0.393139 0.238567 4.000000
-0.290288 0.118124 -0.445016 4.000000
-0.290288 -0.428601 0.152928 4.000000
-0.290288 0.345665 -0.284124 4.000000
-0.290288 -0.294500 -0.402657 4.000000
-0.290288 -0.457742 0.045582 4.000000
-0.290288 -0.059288 -0.489596 4.000000
-0.290288 -0.323586 0.370315 4.000000
-0.290288 -0.115133 -0.440374 4.000000
-0.290288 -0.300091 -0.331151 4.000000
-0.290288 -0.456554 -0.032798 4.000000
-0.290288 -0.383467 -0.228608 4.000000
-0.290288 -0.426842 -0.184368 4.000000
-0.290288 0.120134 0.467962 4.000000
-0.290288 -0.217109 0.424676 4.000000
-0.290288 0.082003 0.462263 4.000000
-0.290288 -0.297322 0.371787 4.000000
-0.290288 -0.090096 0.464889 4.000000
-0.290288 0.031045 0.453331 4.000000
-0.290288 0.445163 0.179185 4.000000
-0.290288 0.167208 -0.452727 4.000000
-0.290288 0.480007 -0.120559 4.000000
-0.290288 -0.154749 0.452142 4.000000
-0.290288 -0.451599 0.163413 4.000000
-0.290288 -0.052546 -0.453462 4.000000
-0.290288 -0.471145 0.085879 4.000000
-0.290288 -0.231696 0.382795 4.000000
-0.290288 0.238635 -0.379789 4.000000
-0.290288 0.408079 0.195818 4.000000
-0.290288 0.041639 -0.448502 4.000000
-0.290288 -0.465298 -0.013429 4.000000
-0.290288 -0.376720 -0.248254 4.000000
-0.290288 0.470868 0.037020 4.000000
-0.290288 -0.243756 -0.396460 4.000000
-0.290288 0.474328 0.104527 4.000000
-0.290288 -0.252420 0.400782 4.000000
-0.290288 0.238950 -0.434546 4.000000
-0.290288 0.166562 -0.448998 4.000000
-0.290288 0.454099 0.013248 4.000000
-0.290288 0.356214 -0.346107 4.000000
-0.290288 0.212484 0.432595 4.000000
-0.290288 -0.196670 -0.455130 4.000000
-0.290288 -0.426434 -0.129379 4.000000
-0.290288 0.450254 0.083837 4.000000
-0.290288 -0.047043 0.486378 4.000000
-0.290288 -0.201245 0.450690 4.000000
-0.290288 0.296318 -0.374710 4.000000
-0.290288 0.252103 0.399485 4.000000
-0.290288 0.162221 0.437786 4.000000
-0.290288 0.150917 0.427369 4.000000
-0.290288 0.005672 0.485158 4.000000
-0.290288 -0.382015 -0.315410 4.000000
-0.290288 -0.376955 -0.298036 4.000000
-0.290288 0.424026 0.165612 4.000000
-0.290288 0.423375 -0.144372 4.000000
-0.290288 -0.382508 0.303289 4.000000
-0.290288 0.453320 0.061159 4.000000
-0.290288 0.196692 -0.418896 4.000000
-0.290288 -0.312789 -0.345725 4.000000
-0.290288 0.422436 -0.261549 4.000000
-0.290288 0.149143 0.467674 4.000000
-0.290288 0.335658 -0.312517 4.000000
-0.290288 -0.353052 -0.299392 4.000000
-0.290288 0.116714 -0.486409 4.000000
-0.290288 -0.315384 0.312612 4.000000
-0.290288 -0.213068 0.431607 4.000000
-0.290288 -0.104852 -0.462770 4.000000
-0.290288 -0.046306 0.455198 4.000000
-0.290288 0.038642 0.494057 4.000000
-0.290288 -0.029436 0.473452 4.000000
-0.290288 -0.125735 -0.475787 4.000000
-0.290288 -0.306061 -0.345840 4.000000
-0.290288 0.451640 -0.155218 4.000000
-0.290288 0.385394 0.267883 4.000000
-0.290288 0.268117 0.416452 4.000000
-0.290288 0.474953 0.092555 4.000000
-0.290288 -0.416694 0.268955 4.000000
-0.290288 -0.244028 0.405959 4.000000
-0.290288 0.333203 0.309180 4.000000
-0.290288 -0.470785 -0.144298 4.000000
-0.290288 -0.317128 0.335072 4.000000
-0.290288 -0.030410 -0.487364 4.000000
-0.290288 -0.214719 -0.442035 4.000000
-0.290288 -0.399885 0.263256 4.000000
-0.290288 -0.194642 0.451164 4.000000
-0.290288 0.462404 -0.011529 4.000000
-0.290288 0.439296 -0.237311 4.000000
-0.290288 -0.217499 0.421361 4.000000
-0.290288 0.481773 0.047574 4.000000
-0.290288 -0.170555 -0.450240 4.000000
-0.290288 0.111552 -0.446475 4.000000
-0.290288 -0.384412 -0.241124 4.000000
-0.290288 -0.441375 -0.225227 4.000000
-0.290288 -0.473683 0.124776 4.000000
-0.290288 0.095419 -0.484738 4.000000
-0.290288 0.193304 -0.431962 4.000000
-0.290288 -0.221352 -0.425326 4.000000
-0.290288 0.120193 0.435465 4.000000
-0.290288 -0.418143 -0.227021 4.000000
-0.290288 0.445123 0.066310 4.000000
-0.290288 -0.297111 -0.387037 4.000000
-0.290288 0.126585 0.432720 4.000000
-0.290288 0.289110 0.338593 4.000000
-0.290288 0.042496 0.442730 4.000000
-0.290288 0.216184 -0.403315 4.000000
-0.290288 0.135947 0.472104 4.000000
-0.290288 -0.393019 0.255180 4.000000
-0.290288 -0.473950 -0.096617 4.000000
-0.290288 0.323312 -0.318127 4.000000
-0.290288 -0.269467 -0.415838 4.000000
-0.290288 0.381538 0.316678 4.000000
-0.290288 -0.132438 -0.439998 4.000000
-0.290288 -0.110123 0.432865 4.000000
-0.290288 0.148198 -0.435622 4.000000
-0.290288 0.458461 0.052555 4.000000
-0.290288 0.249554 -0.379072 4.000000
-0.290288 -0.184045 0.413051 4.000000
-0.290288 -0.021756 -0.448154 4.000000
-0.290288 0.372010 0.254759 4.000000
-0.290288 -0.262516 -0.407406 4.000000
-0.290288 -0.417886 0.172190 4.000000
-0.290288 -0.458934 0.099346 4.000000
-0.290288 -0.131139 -0.449139 4.000000
-0.290288 -0.082337 -0.445391 4.000000
-0.290288 0.472196 0.062000 4.000000
-0.290288 0.348653 0.282300 4.000000
-0.290288 0.156372 -0.427528 4.000000
-0.290288 0.453857 0.183009 4.000000
-0.290288 0.485123 0.108048 4.000000
-0.290288 0.071712 0.489565 4.000000
-0.290288 0.398062 0.204491 4.000000
-0.290288 0.442464 0.128539 4.000000
-0.290288 -0.425988 -0.238582 4.000000
-0.290288 0.446149 0.139968 4.000000
-0.290288 0.224375 -0.446828 4.000000
-0.290288 -0.319701 0.343452 4.000000
-0.290288 -0.310802 0.369727 4.000000
-0.290288 0.336763 0.304106 4.000000
-0.290288 0.362321 0.314970 4.000000
-0.290288 -0.229596 -0.433099 4.000000
-0.290288 -0.069445 0.452719 4.000000
-0.290288 0.444008 0.053519 4.000000
-0.290288 0.072797 0.473172 4.000000
-0.290288 0.358039 -0.286299 4.000000
-0.290288 0.283892 0.362148 4.000000
-0.290288 0.421440 0.194339 4.000000
-0.290288 0.176317 -0.421887 4.000000
-0.290288 0.108470 0.444471 4.000000
-0.290288 0.434106 0.154210 4.000000
-0.290288 -0.468716 0.143938 4.000000
-0.290288 -0.404669 -0.268248 4.000000
-0.290288 -0.225724 0.433778 4.000000
-0.290288 0.031003 -0.491387 4.000000
-0.290288 0.151034 -0.422527 4.000000
-0.290288 -0.351188 0.312807 4.000000
-0.290288 0.384129 0.237449 4.000000
-0.290288 0.479695 -0.095811 4.000000
-0.290288 0.309376 -0.358735 4.000000
-0.290288 0.011459 0.448853 4.000000
-0.290288 0.475016 -0.017335 4.000000
-0.290288 0.421342 0.248307 4.000000
-0.290288 -0.170618 0.451520 4.000000
-0.290288 0.226428 -0.420259 4.000000
-0.290288 0.423815 0.207928 4.000000
-0.290288 -0.169129 0.426186 4.000000
-0.290288 -0.479845 -0.069210 4.000000
-0.290288 0.069304 0.482430 4.000000
-0.290288 -0.377011 0.285715 4.000000
-0.290288 0.419949 0.242404 4.000000
-0.290288 0.242884 0.403706 4.000000
-0.290288 0.369143 0.328947 4.000000
-0.290288 -0.318494 -0.364786 4.000000
-0.290288 -0.105009 -0.436257 4.000000
-0.290288 -0.321613 -0.381724 4.000000
-0.290288 0.463731 -0.057649 4.000000
-0.290288 -0.410296 -0.185277 4.000000
-0.290288 0.124573 -0.441283 4.000000
-0.290288 -0.139598 0.421047 4.000000
-0.290288 0.241682 0.399930 4.000000
-0.290288 0.395282 0.249138 4.000000
-0.290288 -0.459768 -0.013427 4.000000
-0.290288 -0.414250 -0.239072 4.000000
-0.290288 -0.148394 -0.447637 4.000000
-0.290288 0.193621 -0.411149 4.000000
-0.290288 0.249069 0.395391 4.000000
-0.290288 -0.076526 0.442359 4.000000
-0.290288 -0.444801 -0.014328 4.000000
-0.290288 -0.141416 -0.432844 4.000000
-0.290288 -0.462067 -0.131366 4.000000
-0.290288 0.283459 -0.395100 4.000000
-0.290288 -0.336770 0.357635 4.000000
-0.290288 0.353458 0.337696 4.000000
-0.290288 0.287005 0.400580 4.000000
-0.290288 -0.319470 0.340361 4.000000
-0.290288 0.144087 0.419374 4.000000
-0.290288 -0.060269 -0.493965 4.000000
-0.290288 0.120720 -0.443325 4.000000
-0.290288 0.182220 0.412469 4.000000
-0.290288 -0.452712 -0.155064 4.000000
-0.290288 0.214779 -0.433020 4.000000
-0.290288 -0.445042 -0.194215 4.000000
-0.290288 0.453047 -0.043081 4.000000
-0.290288 -0.218502 -0.406173 4.000000
-0.290288 0.103000 0.468708 4.000000
-0.290288 -0.206151 -0.454526 4.000000
-0.290288 -0.223750 -0.441896 4.000000
-0.290288 -0.410940 0.247549 4.000000
-0.290288 -0.415784 -0.190170 4.000000
-0.290288 -0.344512 -0.330009 4.000000
-0.290288 -0.479634 0.085101 4.000000
-0.290288 -0.034679 0.472601 4.000000
-0.290288 -0.384281 -0.259228 4.000000
-0.290288 0.432986 -0.112419 4.000000
-0.290288 -0.448100 0.113202 4.000000
-0.290288 -0.287068 0.347430 4.000000
-0.290288 0.055369 -0.488284 4.000000
-0.290288 0.366714 0.298462 4.000000
-0.290288 0.200642 -0.428511 4.000000
-0.290288 0.098720 -0.465116 4.000000
-0.290288 0.220717 0.415683 4.000000
-0.290288 0.239620 0.425123 4.000000
-0.290288 -0.448940 -0.149066 4.000000
-0.290288 0.487383 0.017187 4.000000
-0.290288 -0.271442 0.370322 4.000000
-0.290288 0.308963 -0.366351 4.000000
-0.290288 0.142067 -0.469486 4.000000
-0.290288 -0.114646 0.438503 4.000000
-0.290288 -0.185804 -0.446495 4.000000
-0.290288 -0.466048 0.124183 4.000000
-0.290288 -0.362406 -0.272059 4.000000
-0.290288 0.291285 -0.351922 4.000000
-0.290288 -0.456286 0.108269 4.000000
-0.290288 -0.215764 0.395113 4.000000
-0.290288 0.489393 -0.053765 4.000000
-0.290288 0.292862 -0.377965 4.000000
