0.286960 0.447362 0.014282 1.000000
0.286960 0.487356 -0.050101 1.000000
0.286960 -0.444011 -0.087147 1.000000
0.286960 0.308971 0.319445 1.000000
0.286960 0.434386 0.147750 1.000000
0.286960 -0.479830 -0.014032 1.000000
0.286960 -0.009227 0.462543 1.000000
0.286960 0.422135 -0.228698 1.000000
0.286960 -0.367215 0.260571 1.000000
0.286960 0.469828 -0.007556 1.000000
0.286960 -0.315794 -0.320715 1.000000
0.286960 -0.351762 0.287260 1.000000
0.286960 -0.266710 0.398515 1.000000
0.286960 0.456258 -0.088371 1.000000
0.286960 -0.466232 0.106470 1.000000
0.286960 -0.482086 0.060131 1.000000
0.286960 0.450859 0.032011 1.000000
0.286960 -0.151722 0.458818 1.000000
0.286960 0.093966 0.476865 1.000000
0.286960 0.002276 -0.457629 1.000000
0.286960 -0.346594 0.293310 1.000000
0.286960 0.413239 -0.195224 1.000000
0.286960 -0.416611 0.237134 1.000000
0.286960 0.038191 0.480750 1.000000
0.286960 -0.407988 -0.251584 1.000000
0.286960 -0.199380 -0.438888 1.000000
0.286960 -0.480259 0.063084 1.000000
0.286960 0.491395 0.067332 1.000000
0.286960 0.271441 -0.409744 1.000000
0.286960 0.108257 -0.438868 1.000000
0.286960 -0.415797 -0.177231 1.000000
0.286960 -0.297733 0.372971 1.000000
0.286960 0.373120 -0.331223 1.000000
0.286960 0.038926 0.457853 1.000000
0.286960 -0.495528 0.038990 1.000000
0.286960 -0.282942 0.392495 1.000000
0.286960 -0.059299 0.453150 1.000000
0.286960 -0.466346 -0.038919 1.000000
0.286960 -0.249912 -0.381418 1.000000
0.286960 0.493045 -0.001396 1.000000
0.286960 -0.462017 0.166112 1.000000
0.286960 0.318909 0.372757 1.000000
0.286960 0.097208 0.441240 1.000000
0.286960 0.027287 0.485902 1.000000
0.286960 -0.377088 -0.291690 1.000000
0.286960 0.451375 0.074837 1.000000
0.286960 -0.454857 0.173190 1.000000
0.286960 0.463370 0.070971 1.000000
0.286960 0.466254 -0.096723 1.000000
0.286960 0.489581 0.010040 1.000000
0.286960 0.302769 0.345806 1.000000
0.286960 0.016269 0.455491 1.000000
0.286960 -0.479355 -0.095782 1.000000
0.286960 0.348084 0.278810 1.000000
0.286960 -0.214540 -0.397518 1.000000
0.286960 -0.039157 0.444485 1.000000
0.286960 -0.453746 0.098387 1.000000
0.286960 0.345754 0.355018 1.000000
0.286960 0.327012 -0.314101 1.000000
0.286960 -0.432537 0.172142 1.000000
0.286960 -0.346797 0.339317 1.000000
0.286960 -0.470354 0.085832 1.000000
0.286960 -0.463333 -0.177827 1.000000
0.286960 -0.450194 0.206426 1.000000
0.286960 0.379209 -0.293973 1.000000
0.286960 0.465632 0.093123 1.000000
0.286960 0.291874 -0.364084 1.000000
0.286960 -0.224548 0.427581 1.000000
0.286960 0.392668 -0.273123 1.000000
0.286960 -0.348756 -0.338075 1.000000
0.286960 -0.051786 -0.480151 1.000000
0.286960 0.448482 0.158421 1.000000
0.286960 -0.001889 0.488327 1.000000
0.286960 -0.437714 0.128318 1.000000
0.286960 0.392221 0.246489 1.000000
0.286960 -0.022994 -0.478731 1.000000
0.286960 -0.424741 -0.245202 1.000000
0.286960 -0.066433 -0.491172 1.000000
0.286960 -0.362401 0.317591 1.000000
0.286960 -0.459737 -0.054781 1.000000
0.286960 -0.383155 -0.303201 1.000000
0.286960 0.426239 0.223726 1.000000
0.286960 0.192049 0.456149 1.000000
0.286960 0.306900 -0.332129 1.000000
0.286960 -0.227374 -0.418677 1.000000
0.286960 -0.340729 -0.354919 1.000000
0.286960 -0.033075 -0.464721 1.000000
0.286960 -0.038145 0.464092 1.000000
0.286960 -0.021043 0.481986 1.000000
0.286960 -0.170588 -0.461345 1.000000
0.286960 -0.175834 0.449715 1.000000
0.286960 -0.252294 -0.389602 1.000000
0.286960 0.146179 -0.461406 1.000000
0.286960 0.334820 -0.349091 1.000000
0.286960 0.076316 0.466640 1.000000
0.286960 -0.402063 -0.255114 1.000000
0.286960 -0.454066 -0.172923 1.000000
0.286960 0.026199 -0.487107 1.000000
0.286960 0.051888 -0.483548 1.000000
0.286960 0.207251 -0.405676 1.000000
0.286960 0.034742 0.470633 1.000000
0.286960 0.448007 0.175340 1.000000
0.286960 -0.443512 -0.138537 1.000000
0.286960 0.061738 -0.468756 1.000000
0.286960 0.122544 0.437307 1.000000
0.286960 0.199278 0.454246 1.000000
0.286960 -0.349788 0.293189 1.000000
0.286960 0.453900 -0.132142 1.000000
0.286960 -0.059877 0.483619 1.000000
0.286960 0.231419 -0.392788 1.000000
0.286960 -0.280771 0.345279 1.000000
0.286960 0.420176 -0.152305 1.000000
0.286960 0.106481 -0.483310 1.000000
0.286960 0.153158 0.452397 1.000000
0.286960 -0.488996 0.081582 1.000000
0.286960 -0.459770 -0.058141 1.000000
0.286960 -0.017963 0.486658 1.000000
0.286960 0.197545 -0.435843 1.000000
0.286960 0.379222 0.280867 1.000000
0.286960 -0.411283 -0.250826 1.000000
0.286960 -0.245734 0.420355 1.000000
0.286960 -0.160515 0.446549 1.000000
0.286960 0.455397 -0.097293 1.000000
0.286960 0.196813 0.401926 1.000000
0.286960 0.408884 0.265596 1.000000
0.286960 -0.010175 0.495172 1.000000
0.286960 -0.074068 -0.461708 1.000000
0.286960 -0.169171 -0.439058 1.000000
0.286960 -0.476087 -0.142589 1.000000
0.286960 -0.264575 -0.416002 1.000000
0.286960 0.065185 -0.479890 1.000000
0.286960 0.033788 0.488399 1.000000
0.286960 0.199114 0.444476 1.000000
0.286960 -0.477150 -0.039735 1.000000
0.286960 0.473020 -0.068643 1.000000
0.286960 -0.294084 0.352700 1.000000
0.286960 0.404841 -0.292065 1.000000
0.286960 0.250648 -0.408717 1.000000
0.286960 -0.311615 0.341775 1.000000
0.286960 -0.332054 0.349250 1.000000
0.286960 -0.455398 0.101507 1.000000
0.286960 -0.417431 -0.195707 1.000000
0.286960 0.460743 0.087568 1.000000
0.286960 0.031689 0.448285 1.000000
0.286960 0.449405 0.187775 1.000000
0.286960 0.232166 -0.433048 1.000000
0.286960 0.455545 0.192979 1.000000
0.286960 -0.458196 -0.002113 1.000000
0.286960 0.432039 -0.214323 1.000000
0.286960 -0.381908 -0.320345 1.000000
0.286960 0.464060 0.017903 1.000000
0.286960 0.479182 0.134563 1.000000
0.286960 0.169629 0.422818 1.000000
0.286960 0.462323 -0.124853 1.000000
0.286960 -0.311377 -0.383205 1.000000
0.286960 -0.004097 0.454793 1.000000
0.286960 0.432214 -0.165338 1.000000
0.286960 -0.347905 -0.342701 1.000000
0.286960 -0.371484 0.273380 1.000000
0.286960 -0.232952 -0.422946 1.000000
0.286960 0.454190 0.016299 1.000000
0.286960 -0.442874 0.115665 1.000000
0.286960 0.488028 -0.082446 1.000000
0.286960 0.380373 0.231845 1.000000
0.286960 -0.476423 0.128054 1.000000
0.286960 -0.263070 -0.365122 1.000000
0.286960 0.428681 -0.124866 1.000000
0.286960 -0.419482 -0.251602 1.000000
0.286960 -0.244358 0.377831 1.000000
0.286960 -0.449671 0.014959 1.000000
0.286960 0.123497 -0.447688 1.000000
0.286960 0.135941 -0.450513 1.000000
0.286960 0.134607 -0.436424 1.000000
0.286960 -0.448805 -0.212926 1.000000
0.286960 0.082844 0.488431 1.000000
0.286960 -0.407703 0.179427 1.000000
0.286960 -0.088490 0.441671 1.000000
0.286960 0.297659 0.383036 1.000000
0.286960 -0.279939 0.358446 1.000000
0.286960 -0.142677 0.454106 1.000000
0.286960 0.178692 -0.416284 1.000000
0.286960 -0.345777 0.289843 1.000000
0.286960 -0.279502 0.361867 1.000000
0.286960 -0.371092 0.284787 1.000000
0.286960 -0.465509 -0.098493 1.000000
0.286960 -0.263376 0.361465 1.000000
0.286960 -0.271068 0.363084 1.000000
0.286960 0.103936 -0.465335 1.000000
0.286960 0.315127 -0.338105 1.000000
0.286960 0.079279 0.471254 1.000000
0.286960 0.488435 0.096846 1.000000
0.286960 0.045425 -0.489426 1.000000
0.286960 -0.465217 0.159291 1.000000
0.286960 0.457917 0.032095 1.000000
0.286960 0.426262 0.160761 1.000000
0.286960 0.415763 -0.277186 1.000000
0.286960 -0.374590 0.319944 1.000000
0.286960 -0.090209 -0.450971 1.000000
0.286960 -0.148692 0.418542 1.000000
0.286960 0.126327 0.438669 1.000000
0.286960 0.340465 0.338259 1.000000
0.286960 -0.471703 -0.090188 1.000000
0.286960 0.437886 -0.130607 1.000000
0.286960 0.393885 -0.227438 1.000000
0.286960 0.472957 -0.150709 1.000000
0.286960 0.386329 0.250339 1.000000
0.286960 -0.257822 0.364880 1.000000
0.286960 -0.073272 -0.484222 1.000000
0.286960 -0.435914 0.223876 1.000000
0.286960 -0.399615 0.220624 1.000000
0.286960 -0.431876 0.152919 1.000000
0.286960 0.121527 -0.463797 1.000000
0.286960 0.335503 -0.303450 1.000000
0.286960 0.421763 -0.210665 1.000000
0.286960 0.469989 0.077137 1.000000
0.286960 0.014561 -0.491509 1.000000
0.286960 -0.009627 0.444635 1.000000
0.286960 0.174514 0.422686 1.000000
0.286960 0.247453 -0.396753 1.000000
0.286960 -0.131806 -0.478690 1.000000
0.286960 0.340127 -0.323548 1.000000
0.286960 0.201112 0.410117 1.000000
0.286960 -0.428981 0.166294 1.000000
0.286960 0.465706 0.008803 1.000000
0.286960 -0.483122 -0.052768 1.000000
0.286960 -0.010141 -0.455044 1.000000
0.286960 0.473924 -0.155108 1.000000
0.286960 0.366769 0.290324 1.000000
0.286960 0.485062 0.112575 1.000000
0.286960 0.305615 0.380864 1.000000
0.286960 -0.461725 0.088780 1.000000
0.286960 0.365727 0.271270 1.000000
0.286960 -0.480060 -0.129805 1.000000
0.286960 0.449086 -0.037717 1.000000
0.286960 0.125608 -0.483476 1.000000
0.286960 -0.156024 0.430655 1.000000
0.286960 -0.459444 -0.037555 1.000000
0.286960 0.095213 -0.470468 1.000000
0.286960 0.277166 -0.386889 1.000000
0.286960 -0.386723 0.218499 1.000000
0.286960 0.245427 0.378696 1.000000
0.286960 0.464530 0.162249 1.000000
0.286960 0.403214 -0.206967 1.000000
0.286960 -0.086170 0.487738 1.000000
0.286960 0.002795 0.455229 1.000000
0.286960 0.357607 -0.301408 1.000000
0.286960 -0.274736 0.364494 1.000000
0.286960 -0.433053 -0.214046 1.000000
0.286960 0.286716 0.390284 1.000000
0.286960 -0.014828 0.489112 1.000000
0.286960 0.387584 -0.254373 1.000000
0.286960 0.100365 0.452668 1.000000
0.286960 0.273261 0.414217 1.000000
0.286960 -0.080681 -0.473353 1.000000
0.286960 -0.302388 -0.333945 1.000000
0.286960 -0.057452 -0.473902 1.000000
0.286960 0.493746 0.062366 1.000000
0.286960 -0.084871 -0.447406 1.000000
0.286960 -0.416183 -0.271015 1.000000
0.286960 -0.334899 -0.295512 1.000000
0.286960 0.161925 0.453025 1.000000
0.286960 0.148774 -0.446700 1.000000
0.286960 -0.193578 0.439248 1.000000
0.286960 0.184420 0.455057 1.000000
0.286960 -0.482459 -0.114364 1.000000
0.286960 -0.487773 -0.005930 1.000000
0.286960 0.470650 0.026588 1.000000
0.286960 0.346225 -0.290518 1.000000
0.286960 0.418197 0.216205 1.000000
0.286960 -0.343092 0.330615 1.000000
0.286960 0.021500 -0.464798 1.000000
0.286960 0.269381 -0.403248 1.000000
0.286960 -0.247628 -0.397593 1.000000
0.286960 -0.497418 0.007063 1.000000
0.286960 0.445067 -0.154291 1.000000
0.286960 0.161883 -0.459646 1.000000
0.286960 -0.197750 0.425308 1.000000
0.286960 0.094448 0.443922 1.000000
0.286960 -0.399192 -0.248904 1.000000
0.286960 -0.463230 -0.060867 1.000000
0.286960 -0.151019 -0.422952 1.000000
0.286960 -0.366822 0.287623 1.000000
0.286960 -0.460533 -0.076154 1.000000
0.286960 0.466300 -0.040622 1.000000
0.286960 -0.052303 -0.451836 1.000000
0.286960 0.270580 0.387317 1.000000
0.286960 -0.456994 -0.066316 1.000000
0.286960 0.258822 0.422171 1.000000
0.286960 -0.324719 0.358205 1.000000
0.286960 0.221294 0.384538 1.000000
0.286960 -0.323513 -0.329907 1.000000
0.286960 -0.399390 0.204512 1.000000
0.286960 -0.266689 0.360355 1.000000
0.286960 -0.215358 -0.393815 1.000000
0.286960 0.302296 -0.350384 1.000000
0.286960 0.084311 -0.490087 1.000000
0.286960 -0.461798 0.119997 1.000000
0.286960 -0.077656 0.480816 1.000000
0.286960 0.305396 -0.344754 1.000000
0.286960 -0.223155 0.406238 1.000000
0.286960 0.136909 0.475345 1.000000
0.286960 -0.391336 0.290792 1.000000
0.286960 -0.398242 -0.278481 1.000000
0.286960 -0.018888 0.457152 1.000000
0.286960 -0.450882 -0.106262 1.000000
0.286960 0.328375 0.334703 1.000000
0.286960 0.011674 0.467935 1.000000
0.286960 -0.256516 -0.422839 1.000000
0.286960 -0.423418 0.254950 1.000000
0.286960 0.367927 -0.300001 1.000000
0.286960 -0.275369 -0.396560 1.000000
0.286960 -0.436862 0.170245 1.000000
0.286960 0.457600 0.156456 1.000000
0.286960 -0.060773 -0.484044 1.000000
0.286960 0.269744 0.402521 1.000000
0.286960 0.279583 -0.381061 1.000000
0.286960 0.494324 -0.034636 1.000000
0.286960 0.013690 0.481938 1.000000
0.286960 -0.108930 0.478261 1.000000
0.286960 0.055419 0.480150 1.000000
0.286960 0.250151 -0.377968 1.000000
0.286960 -0.408260 -0.236634 1.000000
0.286960 0.433878 -0.107054 1.000000
0.286960 0.267866 0.362324 1.000000
0.286960 0.356603 0.289864 1.000000
0.286960 0.237046 -0.380107 1.000000
0.286960 -0.326966 -0.311773 1.000000
0.286960 -0.205816 0.439759 1.000000
0.286960 -0.467102 -0.124668 1.000000
0.286960 -0.208792 -0.405657 1.000000
0.286960 0.028802 -0.456041 1.000000
0.286960 -0.474634 -0.103514 1.000000
0.286960 0.316659 0.359296 1.000000
0.286960 0.460413 -0.023247 1.000000
0.286960 0.253515 -0.416105 1.000000
0.286960 -0.421227 -0.239391 1.000000
0.286960 0.193306 0.421289 1.000000
0.286960 -0.435130 0.152541 1.000000
0.286960 0.120864 0.449500 1.000000
0.286960 -0.343134 0.322408 1.000000
0.286960 0.194894 -0.444832 1.000000
0.286960 -0.207889 -0.449961 1.000000
0.286960 -0.451440 -0.193595 1.000000
0.286960 -0.257839 -0.382069 1.000000
0.286960 -0.039640 -0.498355 1.000000
0.286960 -0.116517 -0.466495 1.000000
0.286960 -0.262631 -0.386510 1.000000
0.286960 0.088183 0.478850 1.000000
0.286960 -0.469873 0.158611 1.000000
0.286960 0.358262 -0.281542 1.000000
0.286960 -0.439100 0.217604 1.000000
0.286960 -0.454082 -0.019639 1.000000
0.286960 0.234047 0.388792 1.000000
0.286960 0.491536 0.080850 1.000000
0.286960 -0.113611 0.474884 1.000000
0.286960 -0.372274 -0.293718 1.000000
0.286960 -0.136298 -0.474597 1.000000
0.286960 0.415674 -0.234276 1.000000
0.286960 0.343019 -0.293557 1.000000
0.286960 -0.379127 -0.296385 1.000000
0.286960 -0.302750 -0.369566 1.000000
0.286960 0.170783 -0.415446 1.000000
0.286960 0.163126 0.458076 1.000000
0.286960 -0.268761 0.413486 1.000000
0.286960 -0.249145 -0.404489 1.000000
0.286960 0.080033 -0.477223 1.000000
0.286960 -0.415483 -0.170596 1.000000
0.286960 0.469015 -0.030289 1.000000
0.286960 -0.455001 0.078383 1.000000
0.286960 -0.124256 -0.478320 1.000000
0.286960 -0.474115 -0.149402 1.000000
0.286960 -0.425406 0.141727 1.000000
0.286960 -0.291724 0.335763 1.000000
0.286960 -0.304383 0.370595 1.000000
0.286960 0.408404 0.207407 1.000000
0.286960 -0.400194 -0.234909 1.000000
0.286960 -0.447198 0.204397 1.000000
0.286960 -0.048326 -0.495685 1.000000
0.286960 0.411960 -0.277176 1.000000
0.286960 0.391067 0.262111 1.000000
0.286960 0.264555 -0.423716 1.000000
0.286960 0.410386 0.245683 1.000000
0.286960 0.064619 0.488033 1.000000
0.286960 -0.013409 0.444338 1.000000
0.286960 -0.497469 -0.001113 1.000000
0.286960 -0.283388 -0.354899 1.000000
0.286960 -0.234885 -0.400825 1.000000
0.286960 0.434907 -0.142611 1.000000
0.286960 0.425686 -0.206713 1.000000
0.286960 0.215726 0.425932 1.000000
0.286960 -0.374839 -0.319894 1.000000
0.286960 0.428225 0.184480 1.000000
0.286960 0.446188 -0.009246 1.000000
0.286960 0.461471 -0.149897 1.000000
0.286960 0.443772 -0.058911 1.000000
0.286960 -0.096777 0.470541 1.000000
0.286960 0.429180 -0.253780 1.000000
0.286960 0.230992 0.395336 1.000000
0.286960 0.335727 0.294271 1.000000
0.286960 0.442552 -0.086788 1.000000
0.286960 -0.199262 -0.404710 1.000000
0.286960 -0.232117 0.408766 1.000000
0.286960 -0.104497 0.435610 1.000000
0.286960 0.489201 -0.068406 1.000000
0.286960 0.317604 -0.359807 1.000000
0.286960 0.304953 0.354685 1.000000
0.286960 0.472055 0.155214 1.000000
0.286960 0.100234 -0.463419 1.000000
0.286960 0.401107 -0.224240 1.000000
0.286960 -0.104441 -0.484241 1.000000
0.286960 0.364079 -0.263063 1.000000
0.286960 0.213281 0.437251 1.000000
0.286960 0.128525 0.435323 1.000000
0.286960 -0.064570 -0.445102 1.000000
0.286960 -0.294869 0.377915 1.000000
0.286960 0.125063 0.479051 1.000000
0.286960 -0.239895 0.428079 1.000000
0.286960 -0.223231 -0.396643 1.000000
0.286960 0.203892 0.403993 1.000000
0.286960 0.273803 -0.389578 1.000000
0.286960 0.459781 0.034620 1.000000
0.286960 -0.349635 0.282426 1.000000
0.286960 0.283338 -0.374380 1.000000
0.286960 0.478375 -0.065485 1.000000
0.286960 -0.080680 0.443239 1.000000
0.286960 -0.092424 0.465032 1.000000
0.286960 0.440933 0.187536 1.000000
0.286960 -0.386187 -0.308574 1.000000
0.286960 -0.121491 0.459586 1.000000
0.286960 0.039733 -0.489754 1.000000
0.286960 -0.426155 0.203502 1.000000
0.286960 -0.338413 -0.358529 1.000000
0.286960 0.122527 -0.444692 1.000000
0.286960 -0.228772 -0.443265 1.000000
0.286960 -0.480087 -0.007365 1.000000
0.286960 0.011287 -0.499755 1.000000
0.286960 0.461051 -0.110288 1.000000
0.286960 -0.075075 0.475191 1.000000
0.286960 -0.243227 -0.389785 1.000000
0.286960 0.366935 -0.304494 1.000000
0.286960 0.247943 -0.389629 1.000000
0.286960 -0.012131 0.472757 1.000000
0.286960 0.411537 0.181457 1.000000
0.286960 0.236338 -0.407901 1.000000
0.286960 -0.155227 0.469644 1.000000
0.286960 0.424245 0.250610 1.000000
0.286960 0.245217 -0.380046 1.000000
0.286960 -0.083176 -0.463965 1.000000
0.286960 0.270157 0.378969 1.000000
0.286960 -0.473501 -0.106475 1.000000
0.286960 -0.093762 -0.451367 1.000000
0.286960 0.224824 0.436494 1.000000
0.286960 0.275196 -0.401490 1.000000
0.286960 0.290467 0.383547 1.000000
0.286960 0.390554 -0.265063 1.000000
0.286960 -0.287772 -0.380397 1.000000
0.286960 -0.427504 -0.159799 1.000000
0.286960 -0.371261 -0.319789 1.000000
0.286960 0.348005 0.282587 1.000000
0.286960 0.461048 0.111259 1.000000
0.286960 -0.459476 0.104309 1.000000
0.286960 0.329276 -0.305025 1.000000
0.286960 0.467853 0.154326 1.000000
0.286960 0.332112 0.326749 1.000000
0.286960 -0.469766 -0.044291 1.000000
0.286960 0.274602 -0.412223 1.000000
0.286960 0.493493 0.011293 1.000000
0.286960 -0.461592 -0.023131 1.000000
0.286960 -0.008539 -0.461717 1.000000
0.286960 -0.410536 -0.194240 1.000000
0.286960 0.403715 0.195580 1.000000
0.286960 0.123920 0.475472 1.000000
0.286960 0.438716 -0.204876 1.000000
0.286960 0.261681 0.412900 1.000000
0.286960 0.461316 -0.139498 1.000000
0.286960 0.478729 -0.100786 1.000000
0.286960 -0.406294 0.182210 1.000000
0.286960 0.204234 -0.447890 1.000000
0.286960 -0.398124 0.281684 1.000000
0.286960 -0.365248 -0.332533 1.000000
0.286960 -0.392720 -0.263886 1.000000
0.286960 0.049358 0.464764 1.000000
0.286960 -0.187095 -0.454501 1.000000
0.286960 0.434234 0.216110 1.000000
0.286960 -0.464859 -0.111305 1.000000
0.286960 0.286534 0.405311 1.000000
0.286960 -0.412619 -0.207823 1.000000
0.286960 0.465290 -0.065211 1.000000
0.286960 0.323582 0.328601 1.000000
0.286960 -0.125371 0.449561 1.000000
0.286960 -0.454966 -0.184622 1.000000
0.286960 0.469974 0.084173 1.000000
0.286960 -0.448133 -0.049270 1.000000
0.286960 0.477894 -0.127581 1.000000
0.286960 0.431652 0.111465 1.000000
0.286960 -0.249023 0.375499 1.000000
0.286960 0.419021 -0.200433 1.000000
0.286960 0.421975 0.240148 1.000000
0.286960 -0.262495 0.357400 1.000000
0.286960 -0.010755 -0.469684 1.000000
0.286960 0.087991 0.450869 1.000000
0.286960 -0.444253 0.125407 1.000000
0.286960 -0.406822 -0.212028 1.000000
0.286960 -0.283852 -0.372239 1.000000
0.286960 -0.354153 -0.290630 1.000000
0.286960 0.445213 0.096114 1.000000
0.286960 -0.467344 0.056397 1.000000
0.286960 -0.276637 0.370457 1.000000
0.286960 0.136880 -0.478077 1.000000
0.286960 -0.237412 -0.428090 1.000000
0.286960 0.291589 -0.354795 1.000000
0.286960 0.292429 -0.338789 1.000000
0.286960 0.016164 0.459092 1.000000
0.286960 -0.408268 0.276419 1.000000
0.286960 0.036286 -0.488707 1.000000
0.286960 -0.382852 0.309674 1.000000
0.286960 -0.184277 0.409603 1.000000
0.286960 -0.441949 0.111992 1.000000
0.286960 0.426182 -0.237531 1.000000
0.286960 -0.072180 -0.458776 1.000000
0.286960 -0.252468 -0.393034 1.000000
0.286960 -0.043072 -0.449185 1.000000
0.286960 0.358726 0.343290 1.000000
0.286960 -0.005085 0.459020 1.000000
0.286960 0.181054 0.411307 1.000000
0.286960 0.417659 0.154151 1.000000
0.286960 -0.452145 -0.087390 1.000000
0.286960 -0.261362 0.381547 1.000000
0.286960 -0.449507 -0.181642 1.000000
0.286960 -0.438136 -0.236835 1.000000
0.286960 -0.406268 0.235878 1.000000
0.286960 0.161310 -0.427546 1.000000
0.286960 0.297149 -0.380452 1.000000
0.286960 -0.227853 0.418918 1.000000
0.286960 -0.409213 -0.285183 1.000000
0.286960 -0.077834 0.444636 1.000000
0.286960 -0.342662 -0.358770 1.000000
0.286960 -0.004523 0.464064 1.000000
0.286960 0.476501 0.020586 1.000000
0.286960 0.242510 0.385173 1.000000
0.286960 -0.197745 0.400916 1.000000
0.286960 0.452539 -0.017226 1.000000
0.286960 0.231517 0.409028 1.000000
0.286960 -0.098722 -0.459961 1.000000
0.286960 -0.447636 -0.094868 1.000000
0.286960 -0.261398 0.371479 1.000000
0.286960 -0.195333 0.397975 1.000000
0.286960 0.300991 -0.395780 1.000000
0.286960 -0.283336 -0.407180 1.000000
0.286960 0.416801 0.235572 1.000000
0.286960 -0.281510 -0.393617 1.000000
0.286960 0.137140 -0.430300 1.000000
0.286960 -0.312951 0.359186 1.000000
0.286960 0.128785 -0.457030 1.000000
0.286960 -0.446345 -0.066720 1.000000
0.286960 0.006645 -0.483888 1.000000
0.286960 -0.450145 -0.025283 1.000000
0.286960 -0.051488 -0.483560 1.000000
0.286960 -0.448860 -0.072721 1.000000
0.286960 -0.453287 -0.001549 1.000000
0.286960 -0.240744 0.407651 1.000000
0.286960 -0.414691 -0.251951 1.000000
0.286960 -0.031872 -0.473193 1.000000
0.286960 0.219111 -0.415226 1.000000
0.286960 -0.252389 -0.406532 1.000000
0.286960 0.431930 0.138023 1.000000
0.286960 0.445017 0.138389 1.000000
0.286960 0.183801 0.403723 1.000000
0.286960 0.479645 -0.035456 1.000000
0.286960 -0.444295 0.202371 1.000000
0.286960 0.337491 0.363263 1.000000
0.286960 0.147684 -0.423101 1.000000
0.286960 0.451579 0.204941 1.000000
0.286960 0.212674 0.422370 1.000000
0.286960 -0.000723 0.446829 1.000000
0.286960 0.072314 0.474566 1.000000
0.286960 -0.410806 0.179169 1.000000
0.286960 0.373176 0.293663 1.000000
0.286960 0.022870 0.458061 1.000000
0.286960 0.434232 0.194646 1.000000
0.286960 -0.442785 -0.109953 1.000000
0.286960 0.494063 -0.025617 1.000000
0.286960 0.213001 -0.431058 1.000000
0.286960 -0.391373 0.287223 1.000000
0.286960 -0.312299 0.326641 1.000000
0.286960 0.440795 0.146723 1.000000
0.286960 -0.246301 -0.377721 1.000000
0.286960 0.483517 0.084067 1.000000
0.286960 0.056402 -0.454425 1.000000
0.286960 -0.251113 0.372903 1.000000
0.286960 0.353938 -0.340154 1.000000
0.286960 0.414416 0.215661 1.000000
0.286960 0.070716 0.438946 1.000000
0.286960 -0.084147 0.479839 1.000000
0.286960 0.275134 -0.408035 1.000000
0.286960 0.103868 -0.476367 1.000000
0.286960 -0.042839 0.445349 1.000000
0.286960 0.465781 0.078160 1.000000
0.286960 -0.193051 -0.441939 1.000000
0.286960 0.255935 0.423720 1.000000
0.286960 0.473664 -0.051200 1.000000
0.286960 0.233753 -0.429012 1.000000
0.286960 0.344505 -0.322971 1.000000
0.286960 -0.430907 -0.242797 1.000000
0.286960 -0.465979 -0.147227 1.000000
0.286960 -0.475709 0.053611 1.000000
0.286960 0.444222 -0.103825 1.000000
0.286960 -0.308379 -0.323303 1.000000
0.286960 0.347314 0.317900 1.000000
0.286960 0.016990 0.464819 1.000000
0.286960 -0.409610 -0.209446 1.000000
0.286960 -0.397076 -0.251343 1.000000
0.286960 0.457265 0.162729 1.000000
0.286960 0.448236 0.092632 1.000000
0.286960 0.401137 -0.269104 1.000000
0.286960 -0.461231 -0.103661 1.000000
0.286960 -0.404185 0.241230 1.000000
0.286960 0.219398 -0.426905 1.000000
0.286960 -0.395157 0.280345 1.000000
0.286960 0.320788 0.330606 1.000000
0.286960 -0.360497 0.333274 1.000000
0.286960 0.395580 0.272075 1.000000
0.286960 -0.020310 -0.471684 1.000000
0.286960 0.003003 -0.496395 1.000000
0.286960 0.242568 0.401225 1.000000
0.286960 -0.408020 -0.260492 1.000000
0.286960 -0.432865 -0.151738 1.000000
0.286960 -0.340858 -0.351399 1.000000
0.286960 0.419518 -0.218175 1.000000
0.286960 0.445233 0.207668 1.000000
0.286960 0.396292 0.222693 1.000000
0.286960 -0.112337 0.449332 1.000000
0.286960 -0.009316 -0.481849 1.000000
0.286960 -0.132007 0.456129 1.000000
0.286960 -0.197101 0.420263 1.000000
0.286960 -0.423647 0.189691 1.000000
0.286960 -0.472032 0.066971 1.000000
0.286960 -0.460425 0.013802 1.000000
0.286960 -0.217989 -0.405240 1.000000
0.286960 0.412756 0.177980 1.000000
0.286960 -0.397930 0.291919 1.000000
0.286960 -0.261420 0.393375 1.000000
0.286960 -0.417586 0.245405 1.000000
0.286960 0.068232 0.486374 1.000000
0.286960 -0.457209 0.175872 1.000000
0.286960 0.244418 0.403924 1.000000
0.286960 -0.427159 0.214283 1.000000
0.286960 0.439943 0.079079 1.000000
0.286960 0.448158 -0.006523 1.000000
0.286960 0.288367 -0.392557 1.000000
0.286960 0.132624 0.434146 1.000000
0.286960 -0.125756 -0.437483 1.000000
0.286960 -0.428747 -0.138669 1.000000
0.286960 0.330269 0.347715 1.000000
0.286960 0.288822 -0.388183 1.000000
0.286960 -0.159126 0.467912 1.000000
0.286960 0.199980 0.417286 1.000000
0.286960 0.104328 0.453729 1.000000
0.286960 -0.463530 0.006308 1.000000
0.286960 -0.465284 -0.075947 1.000000
0.286960 -0.389579 -0.287396 1.000000
0.286960 -0.474327 0.013821 1.000000
0.286960 0.427504 -0.160561 1.000000
0.286960 -0.260175 0.413028 1.000000
0.286960 -0.312008 -0.320835 1.000000
0.286960 -0.397881 -0.287048 1.000000
0.286960 0.446193 0.010816 1.000000
0.286960 -0.321825 -0.317425 1.000000
0.286960 0.015841 -0.479621 1.000000
0.286960 0.376773 0.247003 1.000000
0.286960 0.256783 -0.416836 1.000000
0.286960 -0.346634 0.318083 1.000000
0.286960 0.029940 -0.487174 1.000000
0.286960 0.308287 0.382984 1.000000
0.286960 -0.465022 0.080323 1.000000
0.286960 0.248442 -0.414621 1.000000
0.286960 0.218484 0.431070 1.000000
0.286960 -0.163448 0.435445 1.000000
0.286960 -0.135648 0.441802 1.000000
0.286960 0.349826 0.344769 1.000000
0.286960 0.293816 0.386280 1.000000
0.286960 -0.438303 -0.077875 1.000000
0.286960 0.261821 0.380498 1.000000
0.286960 0.453511 0.181738 1.000000
0.286960 -0.128525 -0.429178 1.000000
0.286960 -0.475982 0.017999 1.000000
0.286960 -0.322545 -0.339487 1.000000
0.286960 0.370491 0.271280 1.000000
0.286960 0.361525 -0.300379 1.000000
0.286960 -0.400944 -0.238218 1.000000
0.286960 -0.156696 -0.447137 1.000000
0.286960 0.104722 -0.450628 1.000000
0.286960 0.126560 -0.459225 1.000000
0.286960 -0.254978 0.408947 1.000000
0.286960 0.150830 -0.429107 1.000000
0.286960 0.407573 -0.198158 1.000000
0.286960 0.376531 0.302512 1.000000
0.286960 -0.365098 0.264174 1.000000
0.286960 0.150082 0.453765 1.000000
0.286960 0.424489 0.234469 1.000000
0.286960 0.415755 0.191438 1.000000
0.286960 0.181923 0.440172 1.000000
0.286960 -0.228221 -0.428766 1.000000
0.286960 0.311542 -0.355825 1.000000
0.286960 -0.405943 -0.283752 1.000000
0.286960 0.380400 0.266358 1.000000
0.286960 0.278885 -0.351940 1.000000
0.286960 -0.459326 0.129258 1.000000
0.286960 -0.023445 0.467129 1.000000
0.286960 -0.192991 -0.411107 1.000000
0.286960 -0.260842 -0.419523 1.000000
0.286960 0.360788 -0.273854 1.000000
0.286960 -0.461547 0.126585 1.000000
0.286960 -0.284721 -0.398086 1.000000
0.286960 -0.180111 0.415829 1.000000
0.286960 -0.115167 -0.444539 1.000000
0.286960 -0.048889 -0.468169 1.000000
0.286960 0.464878 -0.168778 1.000000
0.286960 0.468248 0.048813 1.000000
0.286960 0.056152 0.466264 1.000000
0.286960 -0.068163 -0.465695 1.000000
0.286960 0.093514 0.458490 1.000000
0.286960 -0.445091 0.101243 1.000000
0.286960 -0.117184 -0.447925 1.000000
0.286960 -0.130183 0.434238 1.000000
0.286960 0.079302 -0.454174 1.000000
0.286960 -0.471386 -0.017665 1.000000
0.286960 -0.344180 0.302342 1.000000
0.286960 0.447439 -0.049188 1.000000
0.286960 -0.430100 -0.211470 1.000000
0.286960 0.456847 0.132587 1.000000
0.286960 -0.258462 -0.388834 1.000000
0.286960 -0.212317 -0.393989 1.000000
0.286960 -0.454478 -0.164947 1.000000
0.286960 0.238980 0.433722 1.000000
0.286960 -0.466779 -0.089698 1.000000
0.286960 0.370178 -0.330475 1.000000
0.286960 -0.230096 -0.421443 1.000000
0.286960 0.404905 0.184911 1.000000
0.286960 -0.291064 -0.363969 1.000000
0.286960 0.411566 0.210192 1.000000
0.286960 -0.481320 0.088342 1.000000
0.286960 0.424670 -0.138503 1.000000
0.286960 0.322831 -0.344507 1.000000
0.286960 0.125966 -0.445883 1.000000
0.286960 -0.438449 -0.113840 1.000000
0.286960 0.439658 -0.123602 1.000000
0.286960 -0.066168 0.459078 1.000000
0.286960 -0.382679 -0.254770 1.000000
0.286960 0.402862 -0.259648 1.000000
0.286960 -0.212385 0.413917 1.000000
0.286960 0.378883 -0.313664 1.000000
0.286960 0.468242 -0.010286 1.000000
0.286960 -0.052959 0.451437 1.000000
0.286960 -0.322890 0.348000 1.000000
0.286960 -0.030037 0.483357 1.000000
0.286960 -0.207680 -0.408680 1.000000
0.286960 0.466869 -0.104569 1.000000
0.286960 -0.208261 0.418588 1.000000
0.286960 -0.329940 0.307637 1.000000
0.286960 -0.399309 -0.275193 1.000000
0.286960 0.301113 -0.361234 1.000000
0.286960 0.147620 0.433058 1.000000
0.286960 0.273534 -0.365408 1.000000
0.286960 -0.486603 -0.097318 1.000000
0.286960 0.042556 0.457021 1.000000
0.286960 -0.095396 -0.460599 1.000000
0.286960 -0.459440 0.161770 1.000000
0.286960 0.364910 -0.301365 1.000000
0.286960 -0.044009 -0.452212 1.000000
0.286960 0.431011 -0.141671 1.000000
0.286960 0.367582 -0.260617 1.000000
0.286960 -0.214024 0.440004 1.000000
0.286960 -0.474519 0.000707 1.000000
0.286960 -0.101108 -0.474694 1.000000
0.286960 0.021249 0.454986 1.000000
0.286960 -0.197550 0.413913 1.000000
0.286960 0.448622 0.214177 1.000000
0.286960 -0.471268 -0.119622 1.000000
0.286960 0.388162 0.224481 1.000000
0.286960 -0.436540 0.149691 1.000000
0.286960 0.478748 0.112022 1.000000
0.286960 -0.163443 0.427982 1.000000
0.286960 -0.380932 0.293521 1.000000
0.286960 0.464177 -0.157625 1.000000
0.286960 0.378915 -0.290256 1.000000
0.286960 0.335623 0.343812 1.000000
0.286960 -0.264781 -0.393758 1.000000
0.286960 -0.437658 -0.211905 1.000000
0.286960 -0.154849 -0.435454 1.000000
0.286960 0.350117 0.319775 1.000000
0.286960 -0.473655 -0.038505 1.000000
0.286960 -0.128627 -0.436244 1.000000
0.286960 -0.266672 0.379981 1.000000
0.286960 -0.475836 0.121541 1.000000
0.286960 0.002203 0.470487 1.000000
0.286960 0.451444 -0.021541 1.000000
0.286960 0.490013 0.060238 1.000000
0.286960 -0.400606 0.234528 1.000000
0.286960 -0.262735 0.377834 1.000000
0.286960 -0.394018 -0.250746 1.000000
0.286960 -0.298888 -0.354102 1.000000
0.286960 -0.412666 -0.271644 1.000000
0.286960 0.000839 0.449671 1.000000
0.286960 -0.438880 0.194924 1.000000
0.286960 0.452245 -0.121973 1.000000
0.286960 -0.019784 -0.492716 1.000000
0.286960 0.390327 0.299752 1.000000
0.286960 -0.331810 -0.340959 1.000000
0.286960 -0.287349 -0.343800 1.000000
0.286960 0.110563 0.459776 1.000000
0.286960 0.182778 -0.427311 1.000000
0.286960 -0.439017 0.131340 1.000000
0.286960 -0.318315 -0.347571 1.000000
0.286960 0.327382 0.358717 1.000000
0.286960 0.458874 -0.056416 1.000000
0.286960 0.151557 0.434319 1.000000
0.286960 0.387328 0.255365 1.000000
0.286960 0.056927 0.490079 1.000000
0.286960 0.415861 0.171745 1.000000
0.286960 0.259738 0.362963 1.000000
0.286960 -0.448547 0.132555 1.000000
0.286960 -0.123214 0.442031 1.000000
0.286960 0.332201 -0.306285 1.000000
0.286960 -0.489687 -0.083431 1.000000
0.286960 0.427500 -0.130874 1.000000
0.286960 -0.373328 -0.252455 1.000000
0.286960 -0.357261 -0.335291 1.000000
0.286960 -0.341506 0.352222 1.000000
0.286960 0.076869 -0.468243 1.000000
0.286960 -0.399251 0.195691 1.000000
0.286960 0.470105 0.150812 1.000000
0.286960 0.366330 0.323781 1.000000
0.286960 -0.253714 -0.415698 1.000000
0.286960 0.399292 0.260357 1.000000
0.286960 0.438023 -0.216380 1.000000
0.286960 0.201315 -0.408838 1.000000
0.286960 0.022960 0.490495 1.000000
0.286960 -0.469632 -0.142919 1.000000
0.286960 -0.315210 0.364762 1.000000
0.286960 0.392729 0.242668 1.000000
0.286960 -0.297456 0.385248 1.000000
0.286960 -0.443482 0.132356 1.000000
0.286960 0.352271 -0.280898 1.000000
0.286960 0.217429 0.408088 1.000000
0.286960 0.267337 0.414268 1.000000
0.286960 -0.481110 0.124675 1.000000
0.286960 -0.466103 -0.030095 1.000000
0.286960 -0.295383 0.366143 1.000000
0.286960 0.484484 0.057619 1.000000
0.286960 -0.281431 -0.365654 1.000000
0.286960 0.449691 0.099651 1.000000
0.286960 -0.150078 0.464586 1.000000
0.286960 0.446676 -0.206947 1.000000
0.286960 0.014689 0.461967 1.000000
0.286960 0.194954 0.414998 1.000000
0.286960 0.248957 -0.384972 1.000000
0.286960 0.451194 -0.100637 1.000000
0.286960 0.010545 0.461817 1.000000
0.286960 0.302620 0.366018 1.000000
0.286960 -0.409225 0.280661 1.000000
0.286960 -0.122937 -0.454312 1.000000
0.286960 -0.162301 -0.462696 1.000000
0.286960 0.265937 0.390240 1.000000
0.286960 0.374341 0.262574 1.000000
0.286960 0.205196 -0.455827 1.000000
0.286960 0.328022 0.345178 1.000000
0.286960 0.407603 -0.271422 1.000000
0.286960 0.207886 0.420080 1.000000
0.286960 -0.358365 0.283794 1.000000
0.286960 -0.466266 0.171119 1.000000
0.286960 -0.422720 0.244926 1.000000
0.286960 -0.148091 0.426278 1.000000
0.286960 -0.446557 0.096370 1.000000
0.286960 0.333998 0.313238 1.000000
0.286960 0.333105 -0.346338 1.000000
0.286960 0.191873 0.414205 1.000000
0.286960 0.372763 -0.309068 1.000000
0.286960 0.320548 0.346942 1.000000
0.286960 -0.105082 -0.471944 1.000000
0.286960 -0.192429 -0.408127 1.000000
0.286960 0.058518 0.459435 1.000000
0.286960 0.376877 -0.241030 1.000000
0.286960 -0.419422 0.171761 1.000000
0.286960 0.456104 -0.053521 1.000000
0.286960 -0.036399 -0.449432 1.000000
0.286960 0.070872 0.456010 1.000000
0.286960 0.343943 0.317030 1.000000
0.286960 0.417924 -0.261382 1.000000
0.286960 -0.443492 -0.126280 1.000000
0.286960 -0.118819 -0.461118 1.000000
0.286960 -0.397142 0.272895 1.000000
0.286960 0.280654 0.374947 1.000000
0.286960 0.412632 0.232450 1.000000
0.286960 -0.148252 -0.452532 1.000000
0.286960 -0.424779 -0.213482 1.000000
0.286960 -0.331626 0.342525 1.000000
0.286960 -0.118476 0.439548 1.000000
0.286960 0.121641 -0.470417 1.000000
0.286960 -0.118129 -0.452673 1.000000
0.286960 -0.426569 -0.219753 1.000000
0.286960 0.428585 0.196652 1.000000
0.286960 0.420251 -0.186771 1.000000
0.286960 -0.196890 -0.442914 1.000000
0.286960 0.060623 -0.485773 1.000000
0.286960 0.333287 0.367962 1.000000
0.286960 -0.010933 0.479302 1.000000
0.286960 -0.211227 -0.440752 1.000000
0.286960 -0.475565 -0.054237 1.000000
0.286960 0.468839 0.015498 1.000000
0.286960 0.384340 -0.239773 1.000000
0.286960 0.206607 -0.419142 1.000000
0.286960 -0.485608 -0.105602 1.000000
0.286960 0.019538 0.446420 1.000000
0.286960 0.367143 0.276227 1.000000
0.286960 -0.033568 0.467347 1.000000
0.286960 -0.142659 -0.439645 1.000000
0.286960 0.450668 0.015091 1.000000
0.286960 0.222141 -0.405765 1.000000
0.286960 0.455422 0.074605 1.000000
0.286960 0.069928 -0.490233 1.000000
0.286960 -0.096673 0.466043 1.000000
0.286960 0.256983 0.369874 1.000000
0.286960 0.235691 -0.435587 1.000000
0.286960 -0.401931 -0.270993 1.000000
0.286960 -0.429832 0.194120 1.000000
0.286960 0.113364 0.481094 1.000000
0.286960 0.330792 0.357278 1.000000
0.286960 0.270758 -0.358933 1.000000
0.286960 0.299518 0.348092 1.000000
0.286960 0.430013 -0.177000 1.000000
0.286960 0.190940 0.452760 1.000000
0.286960 0.443004 -0.203208 1.000000
0.286960 0.457267 -0.187633 1.000000
0.286960 -0.384373 0.245681 1.000000
0.286960 0.175767 -0.418411 1.000000
0.286960 0.149856 -0.450693 1.000000
0.286960 -0.171608 -0.465468 1.000000
0.286960 0.494318 -0.020136 1.000000
0.286960 0.475290 0.007774 1.000000
0.286960 -0.236607 0.430012 1.000000
0.286960 -0.215318 -0.438747 1.000000
0.286960 -0.179057 -0.459174 1.000000
0.286960 -0.341924 -0.346675 1.000000
0.286960 0.425967 0.154612 1.000000
0.286960 0.461178 0.045305 1.000000
0.286960 0.354082 -0.312284 1.000000
0.286960 -0.406595 0.266164 1.000000
0.286960 -0.443861 0.209568 1.000000
0.286960 0.310140 0.358533 1.000000
0.286960 0.464015 -0.146592 1.000000
0.286960 -0.213802 0.431476 1.000000
0.286960 0.366357 0.294921 1.000000
0.286960 0.081734 -0.474043 1.000000
0.286960 -0.209351 -0.396688 1.000000
0.286960 -0.456698 0.002360 1.000000
0.286960 0.388350 0.284251 1.000000
0.286960 -0.469388 0.115274 1.000000
0.286960 -0.266135 -0.375916 1.000000
0.286960 0.215543 -0.409814 1.000000
0.286960 0.270297 -0.363408 1.000000
0.286960 -0.178256 -0.466486 1.000000
0.286960 0.431093 0.175875 1.000000
0.286960 0.431932 -0.208559 1.000000
0.286960 -0.105538 -0.453347 1.000000
0.286960 0.418011 0.180134 1.000000
0.286960 0.439673 0.108317 1.000000
0.286960 -0.098195 0.438348 1.000000
0.286960 -0.280351 0.353493 1.000000
0.286960 -0.329068 0.351155 1.000000
0.286960 -0.452727 -0.034825 1.000000
0.286960 0.441467 0.142881 1.000000
0.286960 -0.069252 0.484793 1.000000
0.286960 -0.225941 -0.423902 1.000000
0.286960 0.445945 -0.097154 1.000000
0.286960 -0.055736 0.467919 1.000000
0.286960 -0.026001 -0.460742 1.000000
0.286960 -0.367163 0.301121 1.000000
0.286960 -0.480290 -0.036144 1.000000
0.286960 -0.308395 0.351770 1.000000
0.286960 -0.454257 0.165396 1.000000
0.286960 0.189010 -0.431792 1.000000
0.286960 0.334878 0.361228 1.000000
0.286960 0.349368 0.335104 1.000000
0.286960 -0.121317 -0.467638 1.000000
0.286960 -0.056552 -0.482200 1.000000
0.286960 -0.449072 -0.083529 1.000000
0.286960 0.089439 -0.453846 1.000000
0.286960 -0.342122 -0.311103 1.000000
0.286960 0.018488 0.468198 1.000000
0.286960 0.433842 -0.211547 1.000000
0.286960 0.376525 0.264981 1.000000
0.286960 0.413606 0.201558 1.000000
0.286960 0.478393 0.010448 1.000000
0.286960 -0.131206 0.475467 1.000000
0.286960 -0.352038 0.317999 1.000000
0.286960 0.302769 0.387593 1.000000
0.286960 0.490051 -0.037709 1.000000
0.286960 -0.077526 -0.489785 1.000000
0.286960 -0.374265 0.287338 1.000000
0.286960 -0.474156 0.103849 1.000000
0.286960 -0.286789 -0.347187 1.000000
0.286960 0.309758 0.337991 1.000000
0.286960 -0.177213 0.441662 1.000000
0.286960 0.460076 -0.133035 1.000000
0.286960 0.033827 -0.491764 1.000000
0.286960 0.277525 -0.361492 1.000000
0.286960 0.438810 -0.098224 1.000000
0.286960 -0.357054 -0.348469 1.000000
0.286960 0.466501 0.129896 1.000000
0.286960 0.003070 -0.453758 1.000000
0.286960 -0.453606 0.189222 1.000000
0.286960 0.331625 -0.328504 1.000000
0.286960 -0.058544 0.441177 1.000000
0.286960 0.381551 -0.266167 1.000000
0.286960 0.456977 0.038609 1.000000
0.286960 0.448826 -0.151141 1.000000
0.286960 0.213362 0.401695 1.000000
0.286960 0.293422 0.378244 1.000000
0.286960 -0.401434 0.279648 1.000000
0.286960 -0.428175 0.188754 1.000000
0.286960 0.473632 -0.031292 1.000000
0.286960 -0.450228 -0.002777 1.000000
0.286960 -0.295719 -0.388711 1.000000
0.286960 0.448409 0.024932 1.000000
0.286960 -0.450947 0.152334 1.000000
0.286960 -0.245728 -0.403157 1.000000
0.286960 0.449265 0.180460 1.000000
0.286960 -0.449840 0.004080 1.000000
0.286960 0.455798 -0.013328 1.000000
0.286960 -0.275889 0.384488 1.000000
0.286960 0.460711 0.133338 1.000000
0.286960 0.315450 -0.372366 1.000000
0.286960 -0.201820 -0.410586 1.000000
0.286960 -0.180202 -0.432436 1.000000
0.286960 0.364786 0.285709 1.000000
0.286960 0.363767 -0.288207 1.000000
0.286960 -0.416307 0.231023 1.000000
0.286960 0.428469 0.203811 1.000000
0.286960 0.219534 0.393954 1.000000
0.286960 -0.467885 -0.086308 1.000000
0.286960 -0.434866 0.098411 1.000000
0.286960 -0.350590 -0.334784 1.000000
0.286960 0.108126 -0.434424 1.000000
0.286960 0.153154 -0.476133 1.000000
0.286960 0.379070 0.236059 1.000000
0.286960 -0.412415 -0.229954 1.000000
0.286960 0.472947 0.130677 1.000000
0.286960 0.483580 0.035502 1.000000
0.286960 -0.471845 -0.086094 1.000000
0.286960 -0.335358 -0.303644 1.000000
0.286960 -0.469551 0.135234 1.000000
0.286960 -0.436386 0.173361 1.000000
0.286960 0.308013 -0.364235 1.000000
0.286960 0.213820 0.410149 1.000000
0.286960 0.199267 0.399139 1.000000
0.286960 -0.375295 0.293393 1.000000
0.286960 -0.344231 0.310877 1.000000
0.286960 -0.245909 0.395657 1.000000
0.286960 -0.346540 0.281779 1.000000
0.286960 -0.027587 -0.475300 1.000000
0.286960 -0.127318 0.466317 1.000000
0.286960 0.447826 -0.177223 1.000000
0.286960 0.435120 -0.170046 1.000000
0.286960 -0.480227 -0.010459 1.000000
0.286960 -0.429638 0.211071 1.000000
0.286960 0.288871 0.394338 1.000000
0.286960 -0.423309 -0.158512 1.000000
0.286960 0.355629 -0.286751 1.000000
0.286960 0.310880 -0.329199 1.000000
0.286960 0.406438 -0.201278 1.000000
0.286960 -0.465559 0.132129 1.000000
0.286960 -0.346530 -0.318114 1.000000
0.286960 -0.442786 -0.046626 1.000000
0.286960 0.166720 0.444892 1.000000
0.286960 0.398829 -0.300661 1.000000
0.286960 0.177581 -0.440739 1.000000
0.286960 -0.451769 -0.015404 1.000000
0.286960 -0.435008 -0.116324 1.000000
0.286960 0.270352 -0.367240 1.000000
0.286960 -0.097459 -0.454314 1.000000
0.286960 -0.435856 0.086789 1.000000
0.286960 -0.353688 -0.317117 1.000000
0.286960 -0.456534 0.137537 1.000000
0.286960 0.281780 -0.408617 1.000000
0.286960 0.026380 -0.462597 1.000000
0.286960 0.421961 -0.246415 1.000000
0.286960 0.113161 -0.453930 1.000000
0.286960 -0.454190 0.169532 1.000000
0.286960 0.410941 -0.175564 1.000000
0.286960 -0.305654 -0.371331 1.000000
0.286960 0.123776 0.453216 1.000000
0.286960 -0.358153 -0.266207 1.000000
0.286960 0.432772 -0.196406 1.000000
0.286960 -0.276524 0.388128 1.000000
0.286960 -0.456968 0.007669 1.000000
0.286960 -0.220440 -0.390399 1.000000
0.286960 0.324210 -0.367662 1.000000
0.286960 -0.455892 -0.145173 1.000000
0.286960 0.329601 0.367681 1.000000
0.286960 -0.370277 0.288462 1.000000
0.286960 0.445504 0.064866 1.000000
0.286960 -0.139456 -0.457408 1.000000
0.286960 0.311293 0.317162 1.000000
0.286960 0.452142 0.111897 1.000000
0.286960 0.460178 -0.127258 1.000000
0.286960 0.110005 0.442548 1.000000
0.286960 -0.368570 -0.333466 1.000000
0.286960 -0.182826 -0.417304 1.000000
0.286960 0.142442 0.450068 1.000000
0.286960 0.420553 0.221756 1.000000
0.286960 0.129654 0.458673 1.000000
0.286960 0.032466 0.478315 1.000000
0.286960 0.349212 -0.328598 1.000000
0.286960 0.451553 0.061267 1.000000
0.286960 0.245405 -0.435303 1.000000
0.286960 -0.432968 0.110699 1.000000
0.286960 0.111561 -0.484164 1.000000
0.286960 0.193565 0.430487 1.000000
0.286960 0.056925 0.462432 1.000000
0.286960 -0.348992 -0.282931 1.000000
0.286960 -0.160222 0.452082 1.000000
0.286960 0.470806 -0.158289 1.000000
0.286960 -0.460345 -0.045570 1.000000
0.286960 -0.439501 0.122632 1.000000
0.286960 -0.489749 0.084661 1.000000
0.286960 -0.101767 0.437860 1.000000
0.286960 -0.112867 -0.474938 1.000000
0.286960 -0.168207 -0.425134 1.000000
0.286960 0.310753 0.348381 1.000000
0.286960 -0.381024 -0.299303 1.000000
0.286960 -0.308074 -0.336607 1.000000
0.286960 -0.297907 0.349165 1.000000
0.286960 0.462123 0.008629 1.000000
0.286960 0.082276 0.471847 1.000000
0.286960 0.200581 -0.452605 1.000000
0.286960 -0.460498 -0.012250 1.000000
0.286960 -0.274454 -0.377104 1.000000
0.286960 -0.492224 -0.066964 1.000000
0.286960 0.204026 0.412208 1.000000
0.286960 -0.153573 0.464233 1.000000
0.286960 0.457453 -0.094902 1.000000
0.286960 -0.478183 -0.103312 1.000000
0.286960 0.107881 0.434255 1.000000
0.286960 0.276618 0.348485 1.000000
0.286960 -0.352106 -0.303923 1.000000
0.286960 -0.130047 -0.432028 1.000000
0.286960 -0.462852 0.060994 1.000000
0.286960 0.450580 -0.179925 1.000000
0.286960 0.390691 -0.288061 1.000000
0.286960 0.023095 -0.447068 1.000000
0.286960 -0.076120 -0.458922 1.000000
0.286960 0.360712 -0.320529 1.000000
0.286960 -0.427288 0.239853 1.000000
0.286960 0.426190 -0.171200 1.000000
0.286960 0.403045 0.286038 1.000000
0.286960 0.100126 -0.481350 1.000000
0.286960 -0.284317 0.371546 1.000000
0.286960 0.202572 0.421336 1.000000
0.286960 0.319838 0.318775 1.000000
0.286960 -0.458098 0.108176 1.000000
0.286960 0.450186 -0.062067 1.000000
0.286960 0.016286 -0.458205 1.000000
0.286960 0.050424 0.481806 1.000000
0.286960 0.497820 -0.010360 1.000000
0.286960 -0.309754 -0.331932 1.000000
0.286960 0.112891 -0.442117 1.000000
0.286960 -0.400358 0.230681 1.000000
0.286960 -0.455210 -0.152919 1.000000
0.286960 0.285098 -0.394058 1.000000
0.286960 0.030655 -0.477591 1.000000
0.286960 -0.357157 0.343515 1.000000
0.286960 -0.187544 0.452094 1.000000
0.286960 -0.072063 -0.487778 1.000000
0.286960 -0.414740 0.260314 1.000000
0.286960 -0.197018 0.452845 1.000000
0.286960 0.354436 -0.317191 1.000000
0.286960 -0.075654 0.441980 1.000000
0.286960 0.353962 -0.274168 1.000000
0.286960 -0.465539 0.042134 1.000000
0.286960 -0.438411 0.166360 1.000000
0.286960 -0.425485 0.127646 1.000000
0.286960 0.317873 -0.331069 1.000000
0.286960 0.431875 0.172222 1.000000
0.286960 0.467515 -0.127502 1.000000
0.286960 -0.472031 0.034967 1.000000
0.286960 -0.353574 0.325438 1.000000
0.286960 -0.457230 -0.173750 1.000000
0.286960 0.355504 0.315886 1.000000
0.286960 0.451650 -0.040865 1.000000
0.286960 0.216990 0.402423 1.000000
0.286960 0.468850 -0.026844 1.000000
0.286960 0.475465 -0.141476 1.000000
0.286960 -0.461499 -0.083211 1.000000
0.286960 -0.391405 -0.248470 1.000000
0.286960 -0.015808 -0.464875 1.000000
0.286960 0.383508 0.265565 1.000000
0.286960 -0.461711 -0.169409 1.000000
0.286960 -0.422840 -0.193792 1.000000
0.286960 -0.128686 -0.468562 1.000000
0.286960 -0.331625 -0.361200 1.000000
0.286960 -0.314031 0.339312 1.000000
0.286960 0.396141 0.227581 1.000000
0.286960 -0.118670 0.471174 1.000000
0.286960 -0.472238 -0.133273 1.000000
0.286960 0.323017 0.340601 1.000000
0.286960 -0.260949 0.367792 1.000000
0.286960 -0.127990 0.476393 1.000000
0.286960 0.353507 -0.327297 1.000000
0.286960 0.181451 -0.414490 1.000000
0.286960 -0.469888 -0.040433 1.000000
0.286960 0.487315 -0.008533 1.000000
0.286960 -0.482260 -0.075077 1.000000
0.286960 0.390515 0.286537 1.000000
0.286960 0.141885 0.429204 1.000000
0.286960 0.056464 0.476169 1.000000
0.286960 0.104246 -0.472361 1.000000
0.286960 -0.001037 0.473876 1.000000
0.286960 0.244602 0.398135 1.000000
0.286960 0.111636 0.472207 1.000000
0.286960 -0.237677 0.376412 1.000000
0.286960 -0.122019 0.445735 1.000000
0.286960 -0.450783 0.163376 1.000000
0.286960 0.334435 -0.310248 1.000000
0.286960 -0.144265 0.450762 1.000000
0.286960 -0.278197 0.366563 1.000000
0.286960 0.479688 -0.095146 1.000000
0.286960 0.090464 -0.467880 1.000000
0.286960 0.378289 0.272477 1.000000
0.286960 -0.163294 -0.432990 1.000000
0.286960 0.486885 -0.106198 1.000000
0.286960 0.468731 -0.143248 1.000000
0.286960 -0.449234 0.144847 1.000000
0.286960 -0.410461 0.182266 1.000000
0.286960 0.406933 -0.260750 1.000000
0.286960 0.463526 0.042277 1.000000
0.286960 -0.274026 -0.390926 1.000000
0.286960 -0.138468 0.464489 1.000000
0.286960 0.228106 -0.403671 1.000000
0.286960 0.250681 -0.382366 1.000000
0.286960 -0.101453 0.483300 1.000000
0.286960 -0.198663 0.397964 1.000000
0.286960 -0.407670 0.175644 1.000000
0.286960 -0.333380 -0.298772 1.000000
0.286960 -0.225819 0.403912 1.000000
0.286960 0.473614 0.082884 1.000000
0.286960 0.265196 0.356324 1.000000
0.286960 -0.365966 -0.256876 1.000000
0.286960 -0.392191 0.284010 1.000000
0.286960 -0.280025 0.376301 1.000000
0.286960 0.304599 0.376821 1.000000
0.286960 0.388619 0.216994 1.000000
0.286960 0.416166 0.177232 1.000000
0.286960 -0.367028 -0.287559 1.000000
0.286960 0.096302 0.479985 1.000000
0.286960 0.265234 -0.388034 1.000000
0.286960 0.476453 -0.056675 1.000000
0.286960 -0.454331 -0.004571 1.000000
0.286960 0.438550 0.171053 1.000000
0.286960 0.379868 0.319562 1.000000
0.286960 0.025542 -0.453778 1.000000
0.286960 0.321612 -0.361692 1.000000
0.286960 -0.250483 0.420951 1.000000
0.286960 0.196931 0.431004 1.000000
0.286960 -0.223613 -0.426894 1.000000
0.286960 -0.215729 -0.412387 1.000000
0.286960 -0.439562 0.178048 1.000000
0.286960 0.435448 0.113636 1.000000
0.286960 0.458110 0.186440 1.000000
0.286960 0.348212 -0.323528 1.000000
0.286960 0.103986 0.479607 1.000000
0.286960 -0.389734 -0.262774 1.000000
0.286960 -0.488450 -0.057032 1.000000
0.286960 0.099688 -0.451035 1.000000
0.286960 0.350466 0.339448 1.000000
0.286960 -0.301934 0.336774 1.000000
0.286960 0.371860 0.280301 1.000000
0.286960 -0.254204 -0.396525 1.000000
0.286960 -0.466842 0.009108 1.000000
0.286960 0.464389 -0.030009 1.000000
0.286960 -0.240502 -0.437096 1.000000
0.286960 -0.151199 -0.455136 1.000000
0.286960 -0.438427 0.232443 1.000000
0.286960 -0.418892 -0.157962 1.000000
0.286960 0.201654 -0.434033 1.000000
0.286960 -0.461775 -0.155819 1.000000
0.286960 -0.227154 0.439399 1.000000
0.286960 -0.276518 -0.405481 1.000000
0.286960 0.373761 0.253943 1.000000
0.286960 0.115516 0.478072 1.000000
0.286960 0.319461 -0.380282 1.000000
0.286960 0.259206 -0.404615 1.000000
0.286960 -0.187718 0.458683 1.000000
0.286960 0.403633 -0.197172 1.000000
0.286960 0.305751 0.385988 1.000000
0.286960 0.411834 0.235647 1.000000
0.286960 -0.335693 0.324133 1.000000
