-0.023160 0.291307 0.334986 3.000000
0.057181 -0.119963 0.426446 3.000000
-0.209511 -0.115625 0.427706 3.000000
0.284052 -0.049419 -0.444657 1.000000
-0.279440 0.129931 -0.428201 4.000000
0.181538 0.366068 0.252005 3.000000
0.084188 0.162417 -0.417077 3.000000
-0.179769 0.192364 -0.404100 3.000000
-0.118965 0.065610 0.438278 3.000000
-0.285529 -0.402039 -0.192796 4.000000
0.144636 -0.071384 -0.441554 3.000000
0.203046 0.437000 -0.090373 3.000000
-0.054843 -0.444501 -0.015585 3.000000
0.176295 -0.403367 -0.189897 3.000000
0.061429 -0.387957 0.215572 3.000000
-0.256847 0.165530 0.411528 3.000000
-0.228636 0.231762 -0.382662 3.000000
-0.045335 -0.391668 -0.213150 3.000000
0.004001 -0.426477 0.123921 3.000000
-0.203888 -0.439150 -0.072272 3.000000
-0.134715 -0.342476 -0.286363 3.000000
0.148858 -0.189430 0.400720 3.000000
0.214046 0.342805 0.282799 3.000000
-0.217451 0.362356 0.257467 3.000000
0.242811 -0.052935 -0.444324 3.000000
-0.045618 0.424835 0.133099 3.000000
-0.123020 -0.372636 0.240833 3.000000
-0.173585 0.170384 -0.413780 3.000000
0.235781 -0.065279 0.438168 3.000000
0.060163 -0.352730 0.268825 3.000000
0.033030 -0.381118 0.227137 3.000000
0.241142 -0.441808 -0.053800 3.000000
-0.213173 -0.392347 0.207465 3.000000
0.222352 0.445310 -0.022453 3.000000
0.243272 0.027126 -0.446775 3.000000
0.053974 -0.347257 0.275881 3.000000
-0.271254 -0.415250 0.157334 3.000000
-0.219986 -0.295793 -0.334481 3.000000
0.285155 -0.341759 0.282823 1.000000
-0.127361 0.371321 0.244275 3.000000
0.118096 0.312444 0.315521 3.000000
-0.115613 -0.305991 -0.325303 3.000000
-0.153999 -0.286805 0.338051 3.000000
-0.001325 0.189501 0.401154 3.000000
0.104003 0.238011 -0.378966 3.000000
-0.228889 0.368725 -0.252449 3.000000
-0.125321 -0.091037 -0.437915 3.000000
-0.050072 -0.307177 0.319763 3.000000
0.102270 0.163066 -0.416844 3.000000
-0.135952 -0.400594 0.191279 3.000000
0.112085 -0.171625 -0.412800 3.000000
-0.288389 0.047085 -0.444974 4.000000
-0.154042 0.236779 0.375342 3.000000
0.163360 0.270566 0.351801 3.000000
-0.071350 0.255117 -0.367445 3.000000
-0.290116 0.382469 0.226585 4.000000
-0.181874 -0.401774 0.188963 3.000000
0.223391 0.347569 -0.281153 3.000000
0.210707 -0.441392 0.053764 3.000000
0.002752 0.445381 0.015856 3.000000
0.043425 0.087692 0.434538 3.000000
-0.043972 -0.352498 -0.273477 3.000000
-0.126884 -0.378655 -0.235654 3.000000
-0.172496 0.158437 -0.418510 3.000000
-0.182052 0.239321 -0.378180 3.000000
0.195180 -0.215059 0.387581 3.000000
-0.287551 -0.054201 0.439851 4.000000
0.025095 -0.425292 0.127999 3.000000
-0.224305 0.222005 -0.388432 3.000000
-0.111620 -0.373534 0.239511 3.000000
0.088156 -0.311512 0.315428 3.000000
0.158890 0.445178 -0.026661 3.000000
0.022848 0.289865 0.336257 3.000000
-0.261179 0.046656 0.440661 3.000000
0.126980 -0.444047 0.025677 3.000000
0.251977 0.435348 -0.097763 3.000000
-0.090790 -0.176507 0.406334 3.000000
0.185221 0.138287 -0.425765 3.000000
0.270375 0.444832 -0.032642 3.000000
0.065968 -0.378821 -0.235373 3.000000
0.254758 0.381106 0.228890 3.000000
0.012262 0.443122 0.046381 3.000000
-0.257600 -0.023187 0.442514 3.000000
0.211331 -0.120743 -0.430573 3.000000
-0.149401 0.154185 0.415688 3.000000
0.146011 -0.402308 0.187914 3.000000
0.264707 -0.364355 -0.257371 3.000000
0.164845 -0.443998 0.026279 3.000000
0.070186 -0.256938 -0.365511 3.000000
-0.184447 -0.189615 0.400625 3.000000
-0.281926 0.406610 -0.184771 4.000000
0.191478 0.107492 0.430113 3.000000
-0.171166 -0.291579 -0.338196 3.000000
0.174637 -0.129403 -0.428057 3.000000
-0.104496 -0.126100 -0.429016 3.000000
0.048496 0.014082 0.442832 3.000000
0.104678 -0.407166 -0.181120 3.000000
-0.083184 0.429060 -0.122910 3.000000
-0.278971 -0.359131 0.260573 3.000000
0.042987 -0.191957 -0.403785 3.000000
0.047587 0.173331 0.408152 3.000000
-0.032588 -0.280847 0.343032 3.000000
0.132334 -0.053626 -0.444259 3.000000
-0.267935 0.342882 0.282712 3.000000
0.193600 -0.337453 0.287707 3.000000
0.171464 -0.145269 0.418529 3.000000
0.165503 -0.345244 0.278476 3.000000
-0.090448 0.443180 -0.050118 3.000000
0.076769 0.409465 -0.178175 3.000000
-0.069420 0.391363 -0.215760 3.000000
0.105480 0.439156 -0.078706 3.000000
-0.068696 0.166735 -0.415359 3.000000
0.244805 -0.134094 -0.426694 3.000000
-0.216458 0.346571 -0.282439 3.000000
0.208265 -0.428068 -0.122797 3.000000
0.249141 -0.433139 -0.103061 3.000000
-0.051897 -0.407712 0.175503 3.000000
-0.203760 0.432613 0.105647 3.000000
0.273786 -0.362224 -0.260507 3.000000
-0.268985 -0.065004 0.438211 3.000000
-0.073350 -0.421077 -0.145502 3.000000
-0.164013 0.173837 -0.412286 3.000000
0.082838 -0.048842 -0.444711 3.000000
0.238361 0.114507 0.428329 3.000000
-0.127913 -0.009894 -0.447285 3.000000
0.269767 -0.380548 -0.232453 3.000000
-0.215432 -0.246747 0.368083 3.000000
-0.116743 -0.444719 -0.008653 3.000000
-0.233935 -0.369096 0.246041 3.000000
-0.223051 0.013385 0.442854 3.000000
0.010911 -0.029518 -0.446538 3.000000
-0.232793 -0.091503 0.433457 3.000000
-0.181884 0.407622 -0.182434 3.000000
0.263565 -0.310939 -0.320355 3.000000
-0.237250 0.045528 -0.445121 3.000000
0.171363 0.016131 0.442768 3.000000
0.166974 -0.413474 -0.166542 3.000000
0.136852 0.431672 -0.113922 3.000000
0.274752 -0.143791 0.419061 3.000000
-0.140505 -0.441716 -0.054770 3.000000
-0.189471 0.123510 0.425713 3.000000
0.115615 -0.028284 0.442301 3.000000
0.153625 -0.444896 -0.001328 3.000000
-0.045804 -0.178586 0.405434 3.000000
0.119000 0.428849 0.119283 3.000000
0.126420 0.046406 0.440685 3.000000
-0.013642 -0.392222 0.207710 3.000000
0.141801 -0.061934 -0.443051 3.000000
0.272338 0.035362 -0.446082 3.000000
0.219445 -0.283682 0.340804 3.000000
0.240946 -0.270851 -0.355139 3.000000
0.245716 -0.426375 0.124272 3.000000
-0.245667 0.006099 0.443083 3.000000
0.161243 0.278350 -0.350117 3.000000
-0.226609 -0.080250 -0.440150 3.000000
0.025221 -0.000009 -0.447595 3.000000
-0.033257 0.351911 0.271202 3.000000
0.201105 -0.183816 -0.407524 3.000000
-0.002516 -0.406574 -0.182487 3.000000
-0.018837 -0.429573 -0.117618 3.000000
0.200990 0.427727 -0.127499 3.000000
0.280783 -0.382320 0.225104 3.000000
0.151847 -0.222823 -0.387343 3.000000
0.230671 -0.055647 -0.444047 3.000000
0.010371 0.172658 -0.412796 3.000000
-0.179250 -0.422136 -0.142562 3.000000
-0.070298 -0.264367 -0.360169 3.000000
-0.148089 0.196540 0.397619 3.000000
0.003976 -0.299751 -0.330992 3.000000
0.014101 -0.444454 0.012730 3.000000
0.246088 -0.336456 0.288838 3.000000
0.200720 -0.035824 0.441588 3.000000
-0.024110 0.017771 0.442716 3.000000
0.134593 -0.207079 -0.396081 3.000000
0.253440 0.429004 0.118749 3.000000
0.284544 -0.192105 0.399357 1.000000
-0.087176 -0.253526 -0.367830 3.000000
-0.271457 -0.226873 0.380594 3.000000
0.196070 0.326755 0.301004 3.000000
0.016213 -0.214347 0.388002 3.000000
0.219547 -0.379804 0.229358 3.000000
0.012473 -0.400977 0.190527 3.000000
0.017506 -0.409328 0.171768 3.000000
-0.164228 -0.167247 -0.414694 3.000000
-0.255048 -0.444727 -0.008415 3.000000
0.286170 0.430244 0.114482 1.000000
-0.137708 0.442839 -0.053734 3.000000
0.236995 -0.411468 0.166825 3.000000
-0.031542 0.095531 0.432786 3.000000
0.169277 0.303378 0.324344 3.000000
0.152080 0.292002 -0.338727 3.000000
0.265029 -0.439434 -0.070484 3.000000
-0.096589 -0.429052 -0.119412 3.000000
0.150043 0.167971 -0.414825 3.000000
0.031212 0.282638 0.342437 3.000000
-0.155247 -0.121897 0.425884 3.000000
-0.127684 0.083471 0.435449 3.000000
-0.286130 -0.442893 -0.042319 4.000000
-0.225513 0.340184 -0.290126 3.000000
-0.055775 0.432919 0.104279 3.000000
0.177299 -0.249353 -0.370666 3.000000
0.112616 -0.176118 0.406502 3.000000
0.163318 -0.284832 -0.344144 3.000000
-0.011743 -0.163890 -0.416147 3.000000
0.061468 0.296569 -0.334700 3.000000
0.092527 0.436521 -0.092517 3.000000
0.180749 0.373164 0.241564 3.000000
0.106925 -0.037191 0.441459 3.000000
-0.060163 0.302039 0.325524 3.000000
0.042479 0.207959 0.391801 3.000000
-0.076667 0.374838 0.239100 3.000000
0.226185 0.298154 -0.333302 3.000000
0.140478 0.067605 -0.442315 3.000000
0.256556 0.008344 -0.447366 3.000000
0.219873 -0.201670 -0.398837 3.000000
-0.125352 0.143763 0.419440 3.000000
0.026239 0.019845 -0.447004 3.000000
0.223016 -0.217880 -0.390266 3.000000
-0.195458 -0.404291 -0.187762 3.000000
-0.136330 0.373842 -0.244919 3.000000
0.182040 -0.173958 -0.411790 3.000000
0.078334 0.383013 -0.230019 3.000000
-0.161104 -0.233175 -0.381220 3.000000
-0.029183 0.414556 -0.166410 3.000000
0.269256 -0.244602 -0.373894 3.000000
0.062930 0.220660 -0.389228 3.000000
0.117697 0.068280 0.437855 3.000000
-0.105594 0.260270 0.359589 3.000000
-0.140369 0.397160 -0.204382 3.000000
0.162886 -0.444713 0.004505 3.000000
0.219859 -0.070896 0.437278 3.000000
-0.127782 -0.395249 -0.206121 3.000000
-0.147147 0.156485 -0.419213 3.000000
0.157678 0.318497 0.309468 3.000000
-0.164763 0.292256 -0.338502 3.000000
0.273285 0.066684 0.438108 3.000000
0.204553 0.276153 -0.351821 3.000000
-0.004227 -0.388522 0.214616 3.000000
0.135434 -0.444268 0.018651 3.000000
-0.231380 -0.404044 0.183981 3.000000
0.180148 -0.186001 -0.406579 3.000000
0.032469 -0.011430 -0.447236 3.000000
0.278454 -0.014697 0.442780 3.000000
-0.251763 -0.424722 -0.134316 3.000000
0.111018 0.010933 0.442931 3.000000
0.072236 -0.401918 0.188679 3.000000
0.031620 -0.216451 -0.391111 3.000000
0.278308 0.151229 -0.421105 1.000000
-0.126307 0.371096 -0.248960 3.000000
-0.058162 0.444944 -0.031463 3.000000
0.269726 0.444217 0.034802 3.000000
0.098896 0.253704 -0.368405 3.000000
0.011103 0.051378 0.440215 3.000000
-0.288194 0.069264 -0.442052 4.000000
0.198045 -0.443398 0.032628 3.000000
0.159578 0.445089 0.025131 3.000000
0.082583 -0.273159 -0.353349 3.000000
-0.290131 -0.427670 -0.124169 4.000000
0.250837 -0.135195 0.422021 3.000000
0.137600 -0.381871 0.225864 3.000000
0.162476 -0.380239 0.228623 3.000000
0.059037 -0.117597 -0.431487 3.000000
0.258752 -0.443726 -0.033502 3.000000
0.122872 -0.443579 -0.035064 3.000000
-0.264305 0.441998 0.056413 3.000000
0.191098 0.270972 -0.355840 3.000000
-0.121033 0.400265 -0.198288 3.000000
-0.282170 -0.070141 0.437398 3.000000
-0.269930 0.299078 -0.332488 3.000000
-0.177776 0.025375 -0.446830 3.000000
0.148089 -0.342920 -0.285826 3.000000
0.186051 0.308485 -0.323833 3.000000
-0.072039 -0.249166 0.366439 3.000000
-0.267491 -0.287531 0.337412 3.000000
0.072582 -0.365115 0.251900 3.000000
0.229896 -0.211352 0.389550 3.000000
0.150569 0.422579 0.139822 3.000000
-0.275452 0.391740 0.210667 3.000000
-0.127659 -0.438158 0.074188 3.000000
0.021135 -0.435238 -0.093672 3.000000
0.159865 -0.377959 -0.236832 3.000000
-0.241591 0.073664 -0.441356 3.000000
0.286318 -0.138418 -0.425349 1.000000
0.206109 0.130637 0.423643 3.000000
0.268984 -0.273719 0.348560 3.000000
0.168525 -0.192436 0.399188 3.000000
-0.127184 -0.148436 -0.421742 3.000000
-0.237944 -0.197059 0.396832 3.000000
0.061679 -0.298815 0.327463 3.000000
0.081488 0.045513 -0.445123 3.000000
0.165930 -0.316548 0.310393 3.000000
-0.037772 -0.429479 0.113587 3.000000
0.191310 0.443543 -0.046284 3.000000
0.273169 0.162045 -0.417211 3.000000
-0.269624 -0.114609 0.428001 3.000000
-0.011002 0.348491 -0.279964 3.000000
-0.107649 -0.444807 0.001509 3.000000
0.028700 -0.383959 -0.226685 3.000000
-0.260969 -0.233239 0.376829 3.000000
0.236779 0.203571 -0.398390 3.000000
0.216158 0.377320 0.235292 3.000000
0.127767 -0.403666 0.184853 3.000000
0.118452 -0.249423 -0.370618 3.000000
0.057208 0.067443 0.437988 3.000000
-0.196507 -0.444200 -0.025179 3.000000
0.013305 -0.287127 -0.342121 3.000000
-0.265557 -0.439637 0.064844 3.000000
-0.237138 0.316906 -0.315413 3.000000
0.154237 0.376068 -0.241644 3.000000
0.277394 0.385671 -0.225524 1.000000
-0.029282 0.125872 -0.429380 3.000000
0.268695 0.410554 0.171305 3.000000
-0.199578 0.283922 0.341441 3.000000
0.102982 0.437875 0.082107 3.000000
0.060581 -0.444284 0.018138 3.000000
-0.005241 -0.444539 -0.014396 3.000000
-0.020870 0.378482 0.233327 3.000000
-0.040739 0.305958 -0.326360 3.000000
-0.138955 0.445463 -0.017578 3.000000
-0.240809 0.023753 -0.446881 3.000000
-0.115251 -0.213504 0.388453 3.000000
0.086305 -0.340451 -0.288660 3.000000
0.017640 0.440559 0.065493 3.000000
0.255909 0.167128 0.410836 3.000000
0.073452 -0.105177 0.430401 3.000000
-0.074767 0.321499 -0.310819 3.000000
0.285368 -0.201110 0.394768 1.000000
0.285763 0.025568 0.442471 1.000000
0.025612 0.388813 0.215858 3.000000
-0.259369 -0.257351 -0.365230 3.000000
0.252678 0.117091 0.427578 3.000000
0.064440 0.385407 0.221617 3.000000
0.147390 0.141172 0.420373 3.000000
-0.265779 0.287241 -0.342924 3.000000
-0.141966 0.042967 0.441010 3.000000
-0.250420 0.377671 -0.239051 3.000000
0.247135 0.394505 -0.209594 3.000000
0.035721 0.188949 -0.405747 3.000000
-0.203421 0.078221 0.436280 3.000000
-0.032061 -0.052389 0.440023 3.000000
-0.209918 -0.261068 0.358351 3.000000
0.033013 -0.081239 0.435640 3.000000
0.144235 0.180263 -0.409505 3.000000
-0.267778 0.318948 -0.313371 3.000000
0.015294 0.359805 -0.265379 3.000000
0.285497 -0.076071 -0.440812 1.000000
0.127583 -0.015974 -0.447094 3.000000
0.240006 -0.038168 0.441367 3.000000
-0.138796 0.393977 0.206276 3.000000
-0.092116 0.332386 0.294617 3.000000
0.244765 -0.064283 -0.442679 3.000000
-0.195441 -0.211357 -0.393901 3.000000
-0.113890 0.321461 -0.310858 3.000000
0.200406 -0.383628 -0.227246 3.000000
-0.016266 -0.405980 0.179506 3.000000
-0.202196 0.113279 -0.433039 3.000000
-0.047990 -0.173209 -0.412114 3.000000
-0.248153 -0.205224 -0.397026 3.000000
0.285317 0.438520 0.078370 1.000000
0.052434 -0.215548 -0.391645 3.000000
-0.164335 -0.269796 -0.355957 3.000000
-0.060630 -0.442531 0.041797 3.000000
0.064477 0.334899 0.291767 3.000000
-0.146244 -0.341709 -0.287234 3.000000
0.138056 -0.408142 -0.178864 3.000000
-0.022184 -0.301256 0.325311 3.000000
0.077090 -0.118082 -0.431346 3.000000
-0.018422 0.116793 0.427665 3.000000
0.276648 0.415216 -0.164628 3.000000
0.090293 0.430976 -0.116317 3.000000
-0.011515 0.221653 0.384287 3.000000
0.283158 0.436467 -0.092758 1.000000
-0.226333 0.154205 -0.420034 3.000000
-0.123693 -0.417940 0.149861 3.000000
0.190886 0.189583 0.401119 3.000000
0.175351 -0.213527 0.388441 3.000000
0.020885 0.430819 0.112502 3.000000
-0.131246 -0.435796 -0.091174 3.000000
0.176327 -0.322496 0.304444 3.000000
-0.075285 0.117046 0.427591 3.000000
0.233151 -0.402615 0.187281 3.000000
-0.139199 -0.270953 -0.355059 3.000000
-0.012996 0.409836 -0.177317 3.000000
-0.007380 -0.339277 0.285638 3.000000
-0.182247 0.010340 0.442949 3.000000
-0.194342 -0.201868 -0.398736 3.000000
-0.151158 0.253975 -0.368221 3.000000
0.147761 0.391627 0.210888 3.000000
-0.286994 -0.308307 -0.322987 4.000000
-0.013372 0.299249 -0.332338 3.000000
-0.018956 -0.280762 -0.347451 3.000000
0.043831 0.330296 -0.301341 3.000000
0.206586 -0.346901 0.276341 3.000000
0.258564 0.053659 0.439999 3.000000
0.187367 0.378300 0.233634 3.000000
-0.208844 -0.122563 -0.430044 3.000000
-0.171017 -0.404470 0.182995 3.000000
-0.289907 -0.257882 0.360516 4.000000
-0.140835 -0.100866 0.431365 3.000000
0.062061 -0.087340 -0.438741 3.000000
-0.003478 0.371002 0.244744 3.000000
0.189345 -0.116003 -0.431950 3.000000
-0.057947 -0.250038 0.365847 3.000000
-0.114451 0.439865 -0.074229 3.000000
0.063479 0.303985 -0.328162 3.000000
0.251419 0.080206 0.435966 3.000000
-0.011504 -0.444859 -0.004206 3.000000
-0.143102 -0.009722 0.442937 3.000000
-0.121188 -0.345368 -0.282669 3.000000
-0.289179 0.324615 -0.307704 4.000000
-0.049409 0.334983 0.291672 3.000000
-0.284576 0.404592 0.185081 4.000000
-0.047392 0.342080 0.283622 3.000000
-0.041305 -0.139753 0.420514 3.000000
-0.214027 -0.366354 -0.254430 3.000000
-0.247512 0.250001 -0.370922 3.000000
-0.277478 0.440521 -0.070086 3.000000
0.095128 0.161641 0.413003 3.000000
-0.188209 0.429108 0.118393 3.000000
0.121126 -0.408016 0.174801 3.000000
-0.159490 0.444896 0.027616 3.000000
0.005411 0.384600 -0.227335 3.000000
0.208960 -0.407688 -0.179913 3.000000
-0.089298 -0.297321 0.328780 3.000000
-0.159454 -0.121181 -0.430446 3.000000
-0.144779 0.357247 -0.268676 3.000000
-0.256566 0.255975 -0.366862 3.000000
0.000468 -0.164691 -0.415800 3.000000
0.217195 0.374597 -0.243808 3.000000
0.133736 -0.376775 0.234480 3.000000
0.031408 -0.296064 -0.334242 3.000000
-0.203365 0.296247 -0.334984 3.000000
0.104576 -0.005534 -0.447422 3.000000
0.147009 -0.003890 -0.447473 3.000000
0.022525 -0.289442 0.335727 3.000000
-0.020736 0.423540 0.137154 3.000000
-0.196909 -0.153777 -0.419819 3.000000
0.057801 -0.270840 -0.355147 3.000000
-0.241587 0.235155 -0.380655 3.000000
0.024097 0.250916 0.365947 3.000000
0.017653 -0.271075 0.350612 3.000000
0.168601 -0.408123 0.174554 3.000000
-0.154988 0.164836 -0.416181 3.000000
0.056031 0.417259 -0.158954 3.000000
0.105803 -0.381251 -0.231264 3.000000
0.018644 -0.417269 -0.156079 3.000000
0.080658 -0.442293 0.044315 3.000000
0.260403 -0.443070 0.036093 3.000000
0.019995 0.081051 0.435832 3.000000
-0.203105 -0.443737 0.029036 3.000000
0.091410 0.250668 0.366115 3.000000
0.042530 0.313028 0.314937 3.000000
-0.234103 0.100986 0.431567 3.000000
0.079933 -0.113674 0.428273 3.000000
0.050354 0.127156 0.424654 3.000000
-0.169444 -0.249216 0.366406 3.000000
-0.125566 0.232262 0.378013 3.000000
-0.009319 -0.375604 0.236460 3.000000
0.237913 0.079128 -0.440490 3.000000
-0.040483 0.182689 0.404102 3.000000
0.091489 -0.353856 0.267374 3.000000
-0.173205 0.083837 -0.439744 3.000000
-0.110609 -0.386420 0.218172 3.000000
0.196474 0.445179 0.022270 3.000000
0.036499 0.011165 0.442924 3.000000
-0.136686 0.415897 -0.162737 3.000000
0.144504 -0.204014 -0.397642 3.000000
-0.149562 -0.140192 0.420356 3.000000
-0.251502 -0.444153 -0.026659 3.000000
0.263303 -0.163946 0.411769 3.000000
-0.037531 0.329153 0.298284 3.000000
-0.078331 -0.015627 0.442751 3.000000
0.111155 0.419308 0.148908 3.000000
-0.209637 -0.368219 0.247331 3.000000
0.268362 -0.259587 -0.363711 3.000000
-0.138220 -0.104959 -0.434803 3.000000
0.121436 0.012932 -0.447221 3.000000
0.207573 0.140754 0.420523 3.000000
-0.247505 -0.309721 0.317219 3.000000
0.247136 0.376104 -0.241590 3.000000
0.215265 -0.163322 0.412029 3.000000
0.034976 0.408040 -0.181467 3.000000
-0.167001 -0.439324 -0.071177 3.000000
-0.063681 -0.218891 0.385314 3.000000
0.100177 -0.422276 0.137817 3.000000
-0.140806 -0.416407 -0.158475 3.000000
0.102608 -0.147528 -0.422069 3.000000
-0.059899 0.060211 -0.443486 3.000000
-0.221396 -0.204873 0.392851 3.000000
0.042661 -0.325259 -0.305892 3.000000
-0.022800 -0.221899 0.383536 3.000000
0.075222 -0.151429 -0.420664 3.000000
-0.166005 -0.414421 0.159636 3.000000
-0.275284 -0.146472 -0.422449 3.000000
0.207936 0.287177 -0.342980 3.000000
-0.020010 -0.439201 -0.071953 3.000000
0.035078 0.437865 -0.086503 3.000000
0.082211 -0.367560 -0.252655 3.000000
0.158013 0.331850 0.295225 3.000000
-0.149939 0.392155 -0.214207 3.000000
0.250691 -0.033285 -0.446182 3.000000
-0.066893 0.401027 -0.196794 3.000000
0.049645 -0.263812 -0.360599 3.000000
0.075845 -0.107988 -0.434126 3.000000
-0.239475 -0.431743 -0.109309 3.000000
-0.168481 -0.198310 0.396195 3.000000
0.129671 -0.123240 0.425494 3.000000
0.012941 0.326073 0.301778 3.000000
0.285794 -0.228318 0.379739 1.000000
-0.027872 -0.306411 -0.324882 3.000000
-0.275031 0.104790 -0.435070 3.000000
0.070328 0.424542 -0.138463 3.000000
0.283077 -0.222767 -0.387375 1.000000
-0.001149 -0.140014 -0.424774 3.000000
0.092417 -0.429714 0.112777 3.000000
-0.147551 0.434801 0.095859 3.000000
0.074034 -0.353526 0.267800 3.000000
0.264318 -0.104142 -0.434986 3.000000
-0.001796 -0.245767 0.368749 3.000000
-0.171235 -0.434385 -0.097487 3.000000
-0.080394 -0.346054 0.277432 3.000000
-0.075030 0.445849 -0.005318 3.000000
-0.228662 0.441074 -0.066600 3.000000
-0.055230 -0.398189 -0.200351 3.000000
-0.242784 -0.081805 0.435550 3.000000
0.237473 0.325224 0.302740 3.000000
-0.032487 -0.359666 0.259884 3.000000
-0.134407 -0.137692 0.421256 3.000000
0.104774 0.385445 0.221553 3.000000
0.259814 0.185964 0.402685 3.000000
-0.122444 -0.019719 0.442623 3.000000
0.236065 0.427989 -0.126596 3.000000
0.162837 0.317416 -0.314902 3.000000
0.029434 -0.346488 -0.281226 3.000000
-0.151608 0.297908 0.329166 3.000000
0.063647 -0.153251 -0.420008 3.000000
-0.111433 -0.419681 0.145027 3.000000
-0.186922 0.384729 -0.227118 3.000000
0.183553 0.300291 0.327066 3.000000
-0.054041 -0.417874 -0.154399 3.000000
-0.037733 -0.013198 0.442827 3.000000
-0.145586 0.292304 -0.338460 3.000000
-0.071906 -0.327530 0.298963 3.000000
0.070609 0.323568 0.304397 3.000000
-0.184827 -0.010626 0.442908 3.000000
0.241364 0.069287 0.437695 3.000000
0.007758 0.085562 -0.439368 3.000000
0.011608 -0.294390 -0.335718 3.000000
-0.099204 -0.111425 0.428926 3.000000
-0.210538 0.439377 0.072959 3.000000
0.008150 0.001485 0.443228 3.000000
-0.103068 0.372897 -0.246310 3.000000
-0.116568 0.445217 -0.025411 3.000000
-0.145150 0.277927 -0.350445 3.000000
0.156783 0.337666 -0.292982 3.000000
0.169521 0.381761 0.227782 3.000000
-0.221993 -0.198576 -0.400413 3.000000
-0.182121 0.431779 0.109197 3.000000
0.190271 0.254200 -0.368068 3.000000
-0.125697 0.444107 -0.040312 3.000000
0.240676 -0.177017 0.406113 3.000000
0.223624 0.433155 0.103222 3.000000
0.201945 0.445253 -0.024278 3.000000
-0.026486 0.384403 0.223315 3.000000
0.218702 0.151872 -0.420874 3.000000
-0.261773 -0.077577 -0.440573 3.000000
-0.229128 -0.380153 0.228768 3.000000
-0.176496 -0.059074 0.439151 3.000000
-0.235519 0.437714 -0.087178 3.000000
0.203411 -0.203548 0.393526 3.000000
0.121749 0.194388 0.398716 3.000000
-0.000980 -0.347329 0.275788 3.000000
0.096638 0.181835 0.404471 3.000000
-0.136944 0.178839 -0.410121 3.000000
0.089664 0.270873 -0.355917 3.000000
0.078718 0.184046 0.403515 3.000000
0.274618 0.394879 -0.208859 3.000000
-0.034105 -0.087531 -0.438699 3.000000
0.065655 -0.197448 -0.400988 3.000000
-0.045031 -0.405813 -0.184246 3.000000
0.091139 -0.316940 -0.314354 3.000000
-0.188831 -0.432410 0.101972 3.000000
0.069612 -0.275278 -0.351705 3.000000
0.006219 -0.228132 0.379849 3.000000
-0.288109 0.239821 0.373487 4.000000
-0.191143 -0.174033 -0.411758 3.000000
-0.121447 -0.352797 -0.273092 3.000000
0.041450 0.399505 0.195428 3.000000
-0.243161 0.321113 0.306852 3.000000
-0.099618 0.089365 -0.438518 3.000000
-0.010126 -0.440225 0.061135 3.000000
-0.104348 0.423230 0.138016 3.000000
0.050921 -0.109043 -0.433890 3.000000
0.178292 -0.369101 0.246034 3.000000
0.039619 0.049874 -0.444711 3.000000
0.264576 -0.234490 0.376089 3.000000
-0.006554 0.321018 0.306947 3.000000
-0.178166 -0.411800 0.166057 3.000000
0.133561 -0.443488 -0.036028 3.000000
-0.200512 0.328779 -0.303062 3.000000
0.140030 0.297647 0.329396 3.000000
0.235013 -0.437884 0.075914 3.000000
0.158190 0.324419 -0.307899 3.000000
0.123899 0.391304 -0.215876 3.000000
0.050938 0.172355 -0.412927 3.000000
-0.116091 -0.436884 0.081953 3.000000
0.169634 -0.308930 0.318011 3.000000
-0.236730 0.417803 0.153088 3.000000
-0.132262 -0.024685 -0.446820 3.000000
0.015099 -0.236366 -0.379333 3.000000
-0.164098 -0.041700 -0.445386 3.000000
0.008637 0.406680 -0.184610 3.000000
0.087584 0.438324 -0.083962 3.000000
-0.135205 0.262146 -0.362668 3.000000
-0.193120 0.337388 0.288943 3.000000
-0.003087 0.003912 0.443151 3.000000
0.190522 0.394763 -0.209086 3.000000
-0.167851 0.361366 0.258924 3.000000
0.174273 -0.100439 0.431460 3.000000
0.096449 -0.377248 -0.238034 3.000000
0.103354 -0.167594 -0.414544 3.000000
-0.096650 -0.067583 -0.442156 3.000000
-0.177152 0.286341 0.339364 3.000000
-0.137805 -0.439395 0.066378 3.000000
0.009474 -0.417440 0.151251 3.000000
-0.093259 -0.440524 0.059245 3.000000
-0.198137 0.018872 -0.447035 3.000000
0.188738 -0.436015 -0.090195 3.000000
-0.174496 0.110038 -0.433897 3.000000
-0.198256 0.437927 -0.086225 3.000000
0.063671 -0.444322 -0.021284 3.000000
0.058605 0.122400 -0.430389 3.000000
0.076432 0.197460 -0.401504 3.000000
-0.177466 -0.349262 0.273296 3.000000
0.130202 0.424412 0.134556 3.000000
0.050142 0.445206 -0.025757 3.000000
-0.241677 0.343255 -0.286642 3.000000
-0.183254 -0.108068 0.429755 3.000000
0.251408 0.443227 0.045272 3.000000
0.243364 0.380683 -0.233959 3.000000
-0.012599 0.044167 0.440897 3.000000
-0.030637 -0.170261 0.409037 3.000000
0.097361 -0.410235 0.169673 3.000000
0.227987 0.307255 0.320711 3.000000
-0.207120 0.382018 0.227348 3.000000
0.223273 -0.439215 -0.071867 3.000000
-0.052784 0.011619 -0.447263 3.000000
-0.135734 -0.031522 0.441995 3.000000
-0.134972 0.367423 0.250011 3.000000
-0.082692 0.445065 -0.030186 3.000000
-0.011301 -0.095429 0.432580 3.000000
0.162757 0.053122 0.440050 3.000000
0.195301 -0.406422 -0.182838 3.000000
0.113662 0.444266 0.034278 3.000000
0.212428 -0.363184 -0.259094 3.000000
0.266858 0.043967 0.440916 3.000000
-0.146887 0.272981 0.349928 3.000000
-0.051171 0.163086 0.412483 3.000000
0.032228 -0.387329 0.216635 3.000000
0.225132 -0.191946 -0.403791 3.000000
0.197876 -0.097816 -0.436400 3.000000
0.043614 0.217706 0.386621 3.000000
-0.240795 0.210548 0.390481 3.000000
-0.241877 -0.118196 -0.431313 3.000000
0.165813 0.396569 -0.205543 3.000000
0.048591 0.354220 0.268226 3.000000
0.245159 0.442176 0.055287 3.000000
0.087492 0.294425 -0.336591 3.000000
0.157309 0.251269 -0.370060 3.000000
-0.282358 -0.312095 0.314845 3.000000
0.209014 -0.113121 0.428434 3.000000
-0.289801 -0.396431 -0.203802 4.000000
-0.128551 -0.370883 -0.247765 3.000000
-0.055505 0.085730 0.434977 3.000000
0.166201 0.406846 -0.184226 3.000000
-0.191900 -0.376474 0.234990 3.000000
-0.052031 -0.397330 0.197684 3.000000
0.277491 -0.398626 0.195140 3.000000
0.243096 0.024720 0.442498 3.000000
-0.048425 0.278209 -0.350226 3.000000
-0.120298 0.110198 0.429508 3.000000
0.123966 -0.414478 -0.163831 3.000000
-0.028667 0.441439 -0.064290 3.000000
-0.231370 -0.378224 -0.236383 3.000000
0.145149 -0.163745 0.411857 3.000000
0.151716 -0.444248 0.019291 3.000000
-0.111081 -0.023460 0.442505 3.000000
0.178416 -0.025161 -0.446805 3.000000
0.165077 0.358374 0.262870 3.000000
-0.273189 -0.443382 -0.037150 3.000000
-0.219035 0.405078 -0.188313 3.000000
-0.221606 -0.061603 0.438750 3.000000
0.232155 -0.344768 -0.283443 3.000000
0.072364 -0.095724 0.432514 3.000000
0.159919 -0.374922 0.237469 3.000000
-0.108334 0.330544 -0.301060 3.000000
0.156918 -0.090331 -0.438073 3.000000
0.194555 -0.430027 -0.116055 3.000000
-0.056507 0.439012 0.075266 3.000000
-0.081225 -0.381155 0.227074 3.000000
-0.038115 0.315013 -0.317305 3.000000
0.070368 -0.444848 -0.004554 3.000000
-0.233332 0.341071 0.284766 3.000000
0.224697 0.141098 0.420399 3.000000
0.232480 -0.092431 -0.437604 3.000000
0.060792 -0.364653 0.252580 3.000000
-0.144789 0.087950 -0.438834 3.000000
0.065234 -0.443468 0.031887 3.000000
-0.227309 -0.125079 0.424960 3.000000
0.044008 -0.393342 0.205512 3.000000
0.153654 -0.406842 0.177513 3.000000
0.056448 0.096604 -0.436900 3.000000
-0.233837 -0.371562 -0.246767 3.000000
-0.099274 -0.442338 -0.048192 3.000000
0.176474 -0.287678 -0.341635 3.000000
-0.274665 -0.041951 0.441009 3.000000
0.028951 -0.079376 -0.440289 3.000000
0.052097 -0.086557 -0.438916 3.000000
-0.287240 0.316446 -0.315873 4.000000
-0.040937 -0.115017 0.427883 3.000000
0.109887 -0.078052 0.436145 3.000000
0.166130 -0.006791 0.443029 3.000000
-0.194311 0.441529 0.059372 3.000000
-0.155259 -0.414363 -0.164152 3.000000
-0.080027 0.169860 -0.414007 3.000000
-0.029836 0.360083 -0.265020 3.000000
-0.086197 -0.404614 -0.187015 3.000000
0.126596 -0.397124 0.198088 3.000000
0.032544 0.057593 0.439548 3.000000
0.050113 0.228168 -0.384787 3.000000
-0.011165 0.339899 -0.290448 3.000000
0.210573 -0.173063 -0.412178 3.000000
-0.012568 -0.435543 -0.092306 3.000000
0.264942 -0.083489 0.435249 3.000000
-0.061603 -0.076564 0.436381 3.000000
0.023311 -0.338460 -0.290918 3.000000
0.081016 -0.142957 0.419361 3.000000
0.213214 -0.210575 0.389946 3.000000
0.035395 0.439492 0.072235 3.000000
-0.184190 -0.001037 -0.447563 3.000000
0.244162 0.402525 0.189500 3.000000
-0.288600 -0.301261 -0.329661 4.000000
0.040377 0.081926 -0.440047 3.000000
-0.231769 -0.407035 -0.181421 3.000000
0.230552 0.233310 -0.381746 3.000000
-0.202835 0.364557 0.254228 3.000000
-0.076112 -0.041190 -0.445435 3.000000
-0.194815 0.264539 0.356476 3.000000
-0.202957 -0.375953 -0.240224 3.000000
0.086941 0.419383 -0.153053 3.000000
-0.096413 0.416917 0.155549 3.000000
0.238931 -0.430789 0.109079 3.000000
-0.201372 0.369478 -0.251340 3.000000
-0.023066 -0.292992 0.332597 3.000000
0.262620 -0.207760 -0.395733 3.000000
0.241697 0.366901 0.250780 3.000000
0.169944 -0.267714 -0.357572 3.000000
0.096546 0.009088 0.442989 3.000000
0.238483 0.439289 0.073516 3.000000
-0.059174 -0.429141 0.114750 3.000000
-0.253102 0.148943 -0.421928 3.000000
-0.143780 -0.404253 0.183496 3.000000
-0.158958 -0.430060 0.111586 3.000000
-0.195492 -0.067708 -0.442137 3.000000
0.090190 0.441583 0.059033 3.000000
-0.127369 -0.225478 0.381419 3.000000
0.170307 -0.183177 -0.407801 3.000000
0.024811 -0.233066 0.376931 3.000000
-0.082541 0.386854 0.219171 3.000000
0.217570 0.432002 -0.112734 3.000000
0.012295 0.090205 0.433977 3.000000
-0.210107 0.002672 0.443190 3.000000
-0.047949 0.063573 -0.442954 3.000000
-0.007224 -0.061769 -0.443077 3.000000
-0.023380 -0.275552 0.347139 3.000000
0.176625 -0.236842 -0.379052 3.000000
0.153814 -0.422960 0.135920 3.000000
0.131842 0.365129 0.253386 3.000000
-0.170660 -0.417964 -0.154149 3.000000
0.142906 -0.403012 -0.190719 3.000000
0.153652 -0.348801 0.273890 3.000000
-0.102304 -0.325721 0.301014 3.000000
-0.273046 -0.304335 -0.326950 3.000000
0.180819 -0.064237 0.438333 3.000000
-0.230037 -0.047854 -0.444805 3.000000
-0.242400 0.362826 -0.261129 3.000000
0.088666 0.407850 -0.181907 3.000000
0.161430 -0.370570 -0.248227 3.000000
-0.029297 -0.149611 -0.421319 3.000000
0.186425 -0.440740 -0.062238 3.000000
0.125275 -0.025119 0.442453 3.000000
-0.008687 0.122541 0.425995 3.000000
0.110940 0.134244 0.422595 3.000000
-0.288515 0.394435 -0.209732 4.000000
0.153431 0.119512 -0.431228 3.000000
0.217148 -0.201800 0.394417 3.000000
-0.151620 0.323737 0.304228 3.000000
-0.285958 0.430535 0.113481 4.000000
0.106281 0.399366 0.195700 3.000000
0.280590 -0.444831 -0.005106 1.000000
-0.013497 -0.365561 0.251244 3.000000
-0.062899 -0.324878 0.301970 3.000000
0.274534 -0.392033 0.208080 3.000000
0.050417 0.399525 -0.199742 3.000000
-0.221954 0.065698 -0.442617 3.000000
0.101310 0.262666 -0.362282 3.000000
0.001411 -0.298832 0.327448 3.000000
-0.187273 0.256734 -0.366346 3.000000
0.022808 0.309025 -0.323294 3.000000
0.183245 -0.010288 0.442919 3.000000
-0.023693 -0.434279 -0.097961 3.000000
0.077562 0.445661 -0.011285 3.000000
0.259212 0.104879 -0.435050 3.000000
-0.128124 -0.442853 0.038384 3.000000
0.107786 -0.265813 0.354693 3.000000
-0.119104 -0.444618 0.007502 3.000000
-0.019261 -0.444198 -0.025231 3.000000
0.030513 -0.218783 0.385378 3.000000
-0.003514 -0.264071 -0.360397 3.000000
0.032183 -0.278069 -0.349540 3.000000
-0.132762 -0.430303 0.110753 3.000000
0.139055 -0.262317 0.357405 3.000000
-0.044513 0.351394 -0.276222 3.000000
-0.025775 -0.161112 -0.417178 3.000000
0.178505 0.307231 0.320734 3.000000
-0.027470 0.434693 0.096342 3.000000
0.162270 0.385980 0.220648 3.000000
-0.126618 -0.252367 0.364264 3.000000
-0.264098 0.420719 -0.149342 3.000000
-0.149798 0.414398 0.162422 3.000000
-0.028185 0.363636 0.255584 3.000000
0.069978 -0.175935 0.406581 3.000000
-0.077311 -0.164950 -0.415688 3.000000
0.065009 0.419967 -0.151432 3.000000
0.207144 -0.417919 -0.154273 3.000000
-0.098777 0.397749 -0.203228 3.000000
0.000121 0.411807 -0.172763 3.000000
-0.076784 0.402171 -0.194549 3.000000
-0.279649 0.374017 -0.244662 3.000000
-0.083056 0.335875 -0.295013 3.000000
0.247957 -0.342964 0.281415 3.000000
-0.273762 -0.412612 -0.168534 3.000000
0.163474 0.445493 0.012290 3.000000
0.065385 0.149053 -0.421889 3.000000
0.252261 0.355035 -0.271528 3.000000
-0.278901 -0.179626 -0.409338 4.000000
0.108059 -0.056193 -0.443960 3.000000
0.251103 -0.322999 -0.308295 3.000000
0.179347 0.081763 -0.440073 3.000000
-0.101830 -0.392883 0.206413 3.000000
-0.001974 0.217825 0.386551 3.000000
-0.245542 0.295949 -0.335247 3.000000
0.238280 -0.136306 0.421698 3.000000
-0.013337 0.429360 -0.121879 3.000000
0.059023 -0.252333 -0.368640 3.000000
0.280292 0.075543 0.436705 3.000000
-0.097337 0.006614 -0.447420 3.000000
0.131287 -0.314559 0.312381 3.000000
-0.033576 -0.444338 -0.020770 3.000000
0.052799 0.340838 -0.289383 3.000000
-0.032883 0.034948 0.441768 3.000000
0.181165 -0.238343 0.373795 3.000000
-0.194358 -0.282004 0.342134 3.000000
0.153499 0.418127 -0.156543 3.000000
-0.065798 -0.030583 -0.446437 3.000000
-0.156779 -0.049487 0.440297 3.000000
-0.070707 -0.106408 0.430126 3.000000
0.105079 -0.338748 0.286239 3.000000
-0.282091 -0.017955 0.442678 3.000000
0.219337 -0.421810 0.139113 3.000000
0.213215 0.441380 -0.064668 3.000000
0.208251 0.108285 -0.434289 3.000000
0.113575 0.167371 -0.415084 3.000000
0.049263 0.018644 -0.447042 3.000000
0.177333 0.358376 -0.267221 3.000000
-0.229558 0.176948 -0.410940 3.000000
0.286852 0.409284 -0.178593 1.000000
-0.240900 0.323926 -0.308392 3.000000
0.244322 0.190604 -0.404997 3.000000
0.112606 0.078398 0.436252 3.000000
0.200625 0.445627 -0.012376 3.000000
0.082798 -0.096183 0.432411 3.000000
0.005335 0.207734 0.391915 3.000000
-0.162462 0.106186 0.430404 3.000000
0.154521 0.220101 -0.389558 3.000000
0.112171 -0.181826 -0.408385 3.000000
0.225970 -0.444153 0.022325 3.000000
0.112873 0.413474 0.164557 3.000000
-0.203194 0.442674 0.051121 3.000000
-0.279404 -0.419970 0.144224 3.000000
-0.112162 -0.308028 0.318912 3.000000
0.259884 -0.108215 0.429722 3.000000
-0.238345 0.266099 -0.359619 3.000000
-0.101290 0.117359 0.427500 3.000000
0.036423 0.236280 0.375636 3.000000
0.057771 0.077139 0.436452 3.000000
-0.172696 0.418153 0.152118 3.000000
0.158586 0.391108 0.211907 3.000000
-0.205382 0.319264 -0.313055 3.000000
-0.165307 -0.444080 0.024648 3.000000
0.138854 -0.357021 0.263293 3.000000
0.072704 -0.378025 0.232366 3.000000
-0.268380 -0.367840 -0.252242 3.000000
0.088951 -0.173265 0.407737 3.000000
-0.103070 -0.399869 -0.197054 3.000000
0.130561 0.160030 -0.417937 3.000000
0.285324 -0.280592 0.343230 1.000000
0.077176 0.104459 -0.435144 3.000000
0.117962 0.314533 -0.317786 3.000000
-0.091518 -0.328071 -0.302702 3.000000
-0.178323 0.066300 0.438168 3.000000
0.029880 0.425115 -0.136489 3.000000
-0.193214 0.204475 0.393576 3.000000
0.096822 0.092822 0.433392 3.000000
-0.050684 0.209788 -0.395222 3.000000
-0.030528 0.138717 0.421257 3.000000
0.166910 0.378013 -0.238473 3.000000
0.031129 0.130063 -0.428163 3.000000
-0.159213 0.423682 0.136760 3.000000
0.068115 -0.167105 -0.414756 3.000000
-0.191338 0.208886 -0.395682 3.000000
-0.247072 -0.191885 0.399469 3.000000
0.075689 0.269785 0.352407 3.000000
0.230642 0.380274 0.230296 3.000000
-0.024556 0.041582 -0.445494 3.000000
-0.287062 -0.009373 0.442948 4.000000
-0.231961 -0.317639 -0.313655 3.000000
-0.000544 -0.115867 0.427636 3.000000
-0.201039 -0.356689 -0.268075 3.000000
0.253789 0.365294 -0.257497 3.000000
-0.106342 -0.444509 -0.015349 3.000000
-0.156927 0.126627 0.424808 3.000000
0.098732 -0.443573 -0.035127 3.000000
0.227463 0.118676 0.427118 3.000000
-0.199182 -0.038406 -0.445698 3.000000
0.091160 -0.170676 -0.413210 3.000000
0.088057 0.438167 0.080600 3.000000
-0.001989 -0.406168 0.179072 3.000000
0.118601 0.361916 -0.262468 3.000000
0.080684 -0.026511 0.442409 3.000000
0.123795 0.262529 -0.362389 3.000000
-0.102592 0.443887 0.038292 3.000000
-0.030205 0.374805 0.239149 3.000000
0.058029 -0.174404 0.407244 3.000000
-0.177922 -0.210344 -0.394417 3.000000
-0.237688 0.157578 -0.418820 3.000000
0.220672 0.169619 0.409758 3.000000
-0.218655 0.021463 -0.446953 3.000000
0.209720 -0.093875 -0.437281 3.000000
0.274658 -0.236335 0.374998 3.000000
-0.103694 0.416468 -0.161150 3.000000
-0.114117 0.129995 -0.428183 3.000000
-0.263765 0.374264 -0.244298 3.000000
0.269337 -0.247329 0.367688 3.000000
-0.251199 -0.142906 0.419379 3.000000
0.042456 -0.209417 -0.394889 3.000000
-0.289945 0.383207 -0.229690 4.000000
0.149597 0.364085 -0.259277 3.000000
0.087805 0.217271 0.386879 3.000000
0.223067 -0.005724 0.443062 3.000000
-0.203542 0.239253 0.373873 3.000000
-0.174422 0.307904 -0.324414 3.000000
0.230883 0.072772 0.437143 3.000000
-0.210979 -0.306615 -0.324679 3.000000
-0.170271 -0.124178 -0.429575 3.000000
0.155701 -0.444132 -0.027339 3.000000
0.208157 0.400907 0.192676 3.000000
0.025977 -0.444188 -0.025562 3.000000
0.247155 0.324545 -0.307773 3.000000
-0.188685 0.023210 -0.446899 3.000000
-0.142603 0.017542 0.442723 3.000000
0.049039 -0.085953 0.434698 3.000000
0.006504 0.010355 -0.447302 3.000000
0.276038 -0.407137 0.176831 3.000000
0.051258 0.140125 0.420749 3.000000
0.137193 0.081553 -0.440106 3.000000
-0.039042 -0.303064 -0.328070 3.000000
-0.108175 -0.443293 -0.038083 3.000000
0.109745 0.120292 0.426648 3.000000
-0.228395 0.398564 0.197274 3.000000
0.012032 0.445130 0.023844 3.000000
0.196366 -0.422135 0.138211 3.000000
0.191507 -0.357654 0.262477 3.000000
0.122530 -0.395397 -0.205832 3.000000
-0.066257 -0.224580 -0.386304 3.000000
0.081606 0.308529 -0.323790 3.000000
0.224146 0.291442 0.334867 3.000000
-0.160032 0.445346 -0.021307 3.000000
-0.165195 0.414278 0.162699 3.000000
-0.176194 0.311552 0.316413 3.000000
-0.125873 0.125888 -0.429376 3.000000
0.106105 -0.369194 0.245897 3.000000
0.188437 0.444503 -0.036130 3.000000
-0.066704 0.239924 0.373417 3.000000
0.055453 0.311361 -0.320958 3.000000
-0.067263 -0.381214 -0.231328 3.000000
-0.118613 -0.236389 0.374966 3.000000
-0.051636 0.435424 0.093071 3.000000
0.116891 0.445741 -0.008733 3.000000
-0.109961 0.177563 0.406320 3.000000
0.142237 0.091719 -0.437992 3.000000
0.140953 0.387702 -0.222090 3.000000
-0.166722 -0.051610 0.440096 3.000000
-0.010851 -0.073044 -0.441291 3.000000
0.027256 -0.281498 0.342526 3.000000
0.074203 -0.152955 0.415762 3.000000
-0.092932 0.382079 0.227244 3.000000
0.042018 -0.295952 0.329988 3.000000
0.120017 0.436991 -0.090415 3.000000
-0.033184 -0.410451 -0.173528 3.000000
-0.110527 0.408892 -0.179499 3.000000
-0.281997 -0.378400 -0.236086 4.000000
0.129411 -0.371181 0.242973 3.000000
0.184987 0.444242 0.034531 3.000000
-0.181305 -0.436863 0.082051 3.000000
-0.143908 -0.289552 0.335629 3.000000
-0.277897 -0.203957 0.393318 3.000000
0.206629 -0.424080 0.132172 3.000000
0.060278 0.439230 -0.078240 3.000000
-0.233719 0.188800 -0.405811 3.000000
-0.015046 0.308333 -0.323985 3.000000
0.286836 -0.406396 -0.182899 1.000000
-0.011124 0.419308 -0.153262 3.000000
0.254781 -0.136996 -0.425851 3.000000
-0.275993 -0.409964 0.170299 3.000000
-0.102689 -0.247029 0.367892 3.000000
0.185601 -0.290044 0.335196 3.000000
-0.103714 -0.311228 -0.320065 3.000000
-0.288117 0.138581 -0.425659 4.000000
-0.205891 -0.244353 0.369710 3.000000
0.046147 -0.413642 -0.166153 3.000000
0.106127 0.325176 0.302789 3.000000
-0.174196 -0.100914 0.431354 3.000000
0.157983 0.352866 0.269971 3.000000
-0.215504 0.146219 -0.422909 3.000000
-0.083252 -0.414899 -0.162663 3.000000
0.203685 0.415811 -0.162975 3.000000
0.140182 0.286870 0.338898 3.000000
-0.217233 -0.391772 -0.212947 3.000000
-0.275977 0.034116 0.441847 3.000000
0.193185 -0.365288 0.251645 3.000000
0.237098 -0.417132 -0.156459 3.000000
-0.224719 0.118220 0.427250 3.000000
0.214182 0.161310 -0.417476 3.000000
-0.199315 0.006667 0.443065 3.000000
0.121339 0.156809 0.414743 3.000000
0.210919 -0.377059 -0.238353 3.000000
0.036382 -0.287389 -0.341890 3.000000
-0.185170 0.144374 0.419220 3.000000
0.227596 0.199194 0.396267 3.000000
0.012348 0.055087 -0.444218 3.000000
-0.096629 -0.264590 0.355641 3.000000
0.165648 0.196238 -0.402126 3.000000
0.141375 0.369668 0.246707 3.000000
-0.108809 0.368922 0.247805 3.000000
-0.207665 0.352409 -0.274913 3.000000
-0.274635 -0.193808 -0.402842 3.000000
0.182253 -0.157462 -0.418492 3.000000
-0.139650 0.386976 -0.223318 3.000000
-0.124203 0.223646 0.383108 3.000000
-0.256952 0.065635 0.438274 3.000000
0.021597 -0.430906 0.108676 3.000000
0.023340 0.136825 -0.426198 3.000000
0.039534 0.444911 -0.031809 3.000000
0.139919 -0.441156 -0.059610 3.000000
-0.287130 -0.442376 0.043432 4.000000
-0.046981 -0.068788 -0.441965 3.000000
0.095282 -0.433140 0.098705 3.000000
0.197213 -0.414872 -0.162737 3.000000
-0.287240 -0.444357 -0.020182 4.000000
-0.118450 0.443929 0.037848 3.000000
-0.286046 -0.074348 -0.441085 4.000000
-0.171743 -0.218401 0.385604 3.000000
-0.192558 -0.105216 -0.434746 3.000000
-0.003666 -0.173627 -0.411933 3.000000
0.099875 -0.221678 -0.388019 3.000000
0.011155 0.398118 0.198148 3.000000
-0.070937 0.385662 -0.225539 3.000000
-0.268555 0.436313 0.089094 3.000000
-0.089470 0.217436 0.386781 3.000000
-0.276584 0.440986 0.062800 3.000000
0.183503 0.071122 -0.441758 3.000000
-0.028584 -0.117623 -0.431479 3.000000
0.204487 0.438265 0.079981 3.000000
-0.275146 0.283261 0.341954 3.000000
-0.124552 0.439618 -0.075793 3.000000
0.225082 0.445524 0.011281 3.000000
0.016833 -0.253516 0.363483 3.000000
-0.022252 0.013739 -0.447196 3.000000
-0.030783 0.420666 -0.149490 3.000000
-0.204943 -0.360825 0.258212 3.000000
0.156180 0.445885 -0.000177 3.000000
-0.245989 0.294143 0.332486 3.000000
-0.140722 -0.292432 -0.337444 3.000000
-0.042473 -0.004210 0.443110 3.000000
0.023852 0.051287 0.440224 3.000000
0.235498 -0.323399 -0.307895 3.000000
0.141460 -0.141684 0.419819 3.000000
0.234766 0.428312 0.121132 3.000000
-0.288790 0.340338 -0.289951 4.000000
-0.016070 0.154388 -0.419968 3.000000
0.197875 0.334121 0.292649 3.000000
0.218900 -0.296326 -0.334011 3.000000
-0.053560 -0.436308 0.084534 3.000000
0.203726 0.432974 0.104030 3.000000
0.097422 0.229909 -0.383758 3.000000
-0.164386 0.057783 0.439517 3.000000
0.018200 -0.444794 -0.006262 3.000000
-0.085111 -0.393097 -0.210345 3.000000
-0.229712 -0.442545 0.041644 3.000000
-0.203746 0.144273 0.419256 3.000000
-0.203397 -0.377773 0.232792 3.000000
0.010235 -0.292066 0.333413 3.000000
-0.091167 0.081857 -0.440058 3.000000
0.191752 0.135167 0.422327 3.000000
0.184748 0.119237 -0.431308 3.000000
0.281598 -0.391080 -0.214304 1.000000
0.148143 -0.173509 0.407631 3.000000
0.107348 0.043493 0.440960 3.000000
-0.229577 0.086076 -0.439253 3.000000
0.080722 0.442719 0.050648 3.000000
0.181171 0.314940 -0.317378 3.000000
-0.270377 -0.031110 0.442034 3.000000
-0.191615 -0.341479 0.283141 3.000000
0.265765 -0.144568 -0.423134 3.000000
-0.138132 -0.003426 -0.447488 3.000000
0.104268 0.389757 -0.218614 3.000000
0.075698 0.402316 0.189909 3.000000
-0.041591 -0.346537 -0.281163 3.000000
0.073875 0.349564 0.274228 3.000000
0.278043 0.203921 -0.398212 1.000000
-0.019508 0.122320 -0.430412 3.000000
0.141965 -0.415997 -0.159613 3.000000
0.020995 -0.329203 -0.301419 3.000000
-0.287161 0.229751 0.379498 4.000000
0.216886 0.408749 -0.179830 3.000000
0.264510 -0.167664 -0.414514 3.000000
0.117786 -0.324026 -0.307268 3.000000
0.143221 -0.107257 -0.434289 3.000000
0.164311 -0.396230 0.199843 3.000000
0.039714 -0.000970 -0.447565 3.000000
-0.012928 -0.106466 0.430113 3.000000
-0.210941 -0.262522 -0.361600 3.000000
-0.144367 -0.441964 0.047792 3.000000
0.259848 0.070231 0.437546 3.000000
-0.288423 -0.035377 -0.445984 4.000000
-0.110996 0.212059 0.389712 3.000000
-0.062952 -0.098744 0.431839 3.000000
0.283926 0.189221 -0.405629 1.000000
0.151073 -0.058385 -0.443613 3.000000
-0.044695 0.306550 0.321415 3.000000
-0.121871 0.304644 -0.327581 3.000000
-0.082408 0.373803 -0.244977 3.000000
0.081141 -0.413918 -0.165387 3.000000
0.242942 0.259885 0.359851 3.000000
0.244091 -0.441155 0.055260 3.000000
-0.171222 0.445434 -0.018526 3.000000
-0.101101 0.252430 0.364917 3.000000
-0.019656 0.208743 -0.395755 3.000000
-0.092016 0.315739 0.312226 3.000000
0.108383 0.156245 0.414946 3.000000
-0.038947 0.208409 -0.395925 3.000000
-0.247534 -0.439107 -0.072547 3.000000
0.269949 0.419895 -0.151631 3.000000
-0.064817 0.366853 -0.255203 3.000000
0.063474 -0.444657 0.006279 3.000000
0.198940 -0.377461 0.233320 3.000000
-0.108297 -0.350225 0.272055 3.000000
0.000750 0.094757 0.432959 3.000000
-0.289106 -0.153879 0.415429 4.000000
0.263559 -0.405906 0.179678 3.000000
0.001285 -0.105734 -0.434630 3.000000
-0.172244 -0.440301 0.060655 3.000000
0.165377 -0.418058 -0.153887 3.000000
0.214005 0.436844 -0.091074 3.000000
-0.133390 -0.413297 -0.166950 3.000000
-0.289136 0.445375 -0.020381 4.000000
-0.061914 -0.125142 0.424941 3.000000
0.284491 -0.435107 0.089906 1.000000
0.242857 -0.430421 -0.114700 3.000000
-0.074215 -0.444691 0.005194 3.000000
0.012230 0.427702 -0.127586 3.000000
0.131074 0.064532 0.438449 3.000000
-0.123506 0.193871 -0.403332 3.000000
-0.178147 0.397753 -0.203219 3.000000
-0.068468 -0.431942 0.104066 3.000000
-0.058073 0.226628 -0.385698 3.000000
-0.130347 -0.364493 -0.257168 3.000000
0.023193 -0.410606 -0.173169 3.000000
0.154264 -0.441613 -0.055864 3.000000
-0.192424 -0.313781 -0.317513 3.000000
-0.017069 0.396719 0.200895 3.000000
-0.204147 0.416070 0.157902 3.000000
-0.138451 -0.375136 0.237153 3.000000
0.089055 -0.224862 -0.386136 3.000000
-0.003032 0.084874 -0.439522 3.000000
0.150575 -0.126033 0.424682 3.000000
0.078657 -0.316388 -0.314906 3.000000
-0.275231 -0.249879 0.365955 3.000000
0.005825 0.430501 -0.117952 3.000000
0.218252 0.287983 -0.342269 3.000000
0.021336 -0.098811 -0.436177 3.000000
-0.008688 -0.283349 0.341091 3.000000
-0.041304 0.232682 -0.382118 3.000000
0.138635 0.270144 0.352129 3.000000
-0.082564 -0.421190 0.140835 3.000000
0.113235 -0.438187 -0.078353 3.000000
-0.287126 0.408564 0.175903 4.000000
0.269130 0.437171 0.085254 3.000000
-0.113095 -0.415922 -0.159822 3.000000
-0.226438 0.444399 -0.037231 3.000000
-0.265853 0.434708 -0.100630 3.000000
-0.266722 0.409402 0.173967 3.000000
0.190327 -0.295077 -0.335112 3.000000
-0.013910 -0.218353 -0.389986 3.000000
0.168464 0.390749 -0.216937 3.000000
-0.200066 0.357738 0.263690 3.000000
-0.210407 -0.437583 -0.082167 3.000000
0.153636 -0.144838 -0.423037 3.000000
0.185994 -0.424539 0.130590 3.000000
-0.278202 0.259383 0.360192 3.000000
0.157060 -0.264507 -0.360060 3.000000
0.011801 -0.427166 -0.125903 3.000000
0.091309 0.135568 0.422210 3.000000
0.285012 0.440874 0.063505 1.000000
0.004402 -0.390190 -0.216051 3.000000
-0.233122 0.423278 -0.142234 3.000000
0.032321 -0.360104 0.259272 3.000000
-0.120963 0.385428 0.221582 3.000000
-0.107114 -0.431960 0.103982 3.000000
-0.187525 -0.307788 -0.323506 3.000000
0.166588 -0.210485 -0.394345 3.000000
-0.260119 0.431292 -0.115227 3.000000
-0.266901 -0.408008 0.174820 3.000000
-0.149455 0.408770 -0.179780 3.000000
0.012892 0.433998 -0.103805 3.000000
0.155705 0.276344 0.347319 3.000000
-0.188857 0.426193 0.128425 3.000000
-0.224626 0.353841 -0.273067 3.000000
0.061907 0.119858 0.426774 3.000000
0.106507 -0.439469 0.065910 3.000000
-0.193572 -0.123043 -0.429905 3.000000
-0.059827 0.443182 0.045753 3.000000
-0.057859 0.331350 0.295792 3.000000
0.175253 0.440491 -0.070280 3.000000
-0.185619 0.143989 -0.423712 3.000000
0.066956 0.354151 0.268315 3.000000
-0.141588 -0.277761 0.345425 3.000000
-0.132156 -0.431045 -0.112430 3.000000
-0.068621 0.206373 -0.396962 3.000000
-0.239203 -0.375675 0.236340 3.000000
-0.185585 -0.082233 -0.439836 3.000000
-0.184510 0.201688 -0.399349 3.000000
0.025340 -0.087269 0.434404 3.000000
0.038325 -0.346190 0.277257 3.000000
-0.227461 -0.300605 0.325885 3.000000
-0.122388 -0.267550 0.353346 3.000000
0.181820 -0.075072 0.436617 3.000000
0.229450 0.350645 0.272834 3.000000
0.275081 0.216808 0.387152 3.000000
0.115976 -0.395392 0.201488 3.000000
0.282973 0.078131 -0.440648 1.000000
0.195840 0.395645 0.203003 3.000000
-0.204753 0.251416 -0.369960 3.000000
0.093162 -0.245880 -0.373026 3.000000
-0.248556 -0.264740 0.355525 3.000000
0.128113 0.442934 0.048374 3.000000
0.243412 0.177178 -0.410840 3.000000
0.134359 -0.295104 0.330735 3.000000
-0.269363 0.000117 0.443246 3.000000
-0.020767 -0.414469 -0.163856 3.000000
-0.085696 -0.424813 0.129649 3.000000
-0.105908 0.041958 -0.445459 3.000000
0.013993 0.119610 -0.431200 3.000000
-0.016067 0.317401 -0.314918 3.000000
-0.209775 -0.433980 -0.099300 3.000000
-0.077485 0.396293 0.201731 3.000000
0.068325 -0.389417 -0.217458 3.000000
-0.197369 0.352187 -0.275199 3.000000
