-0.290288 -0.336686 0.336253 4.000000
-0.290288 -0.189968 0.435964 4.000000
-0.290288 0.191189 0.415545 4.000000
-0.290288 -0.345658 -0.287435 4.000000
-0.290288 0.409820 -0.274506 4.000000
-0.290288 -0.476412 0.084223 4.000000
-0.290288 0.042985 0.477502 4.000000
-0.290288 -0.055831 0.448124 4.000000
-0.290288 0.272516 -0.398742 4.000000
-0.290288 -0.374208 -0.274392 4.000000
-0.290288 -0.221990 0.431579 4.000000
-0.290288 0.002590 0.473269 4.000000
-0.290288 0.458569 0.087426 4.000000
-0.290288 -0.410289 0.179135 4.000000
-0.290288 0.323646 -0.324696 4.000000
-0.290288 -0.217837 0.418780 4.000000
-0.290288 -0.059470 0.487232 4.000000
-0.290288 0.286210 0.339760 4.000000
-0.290288 0.288828 -0.376595 4.000000
-0.290288 0.175480 0.449998 4.000000
-0.290288 0.130919 -0.466516 4.000000
-0.290288 0.450941 -0.166685 4.000000
-0.290288 0.247782 -0.428287 4.000000
-0.290288 0.411697 0.221979 4.000000
-0.290288 -0.398040 0.236955 4.000000
-0.290288 0.353654 -0.345166 4.000000
-0.290288 0.002998 -0.474726 4.000000
-0.290288 -0.317953 0.320699 4.000000
-0.290288 -0.178081 0.418887 4.000000
-0.290288 0.410693 -0.195759 4.000000
-0.290288 -0.108543 -0.458306 4.000000
-0.290288 0.381702 0.279062 4.000000
-0.290288 0.354599 0.347389 4.000000
-0.290288 0.448208 -0.217045 4.000000
-0.290288 0.188157 -0.434087 4.000000
-0.290288 0.448836 -0.196545 4.000000
-0.290288 -0.102153 -0.452153 4.000000
-0.290288 -0.307176 0.361303 4.000000
-0.290288 -0.308476 0.336616 4.000000
-0.290288 -0.046066 -0.486873 4.000000
-0.290288 -0.443414 -0.187878 4.000000
-0.290288 0.318148 -0.354737 4.000000
-0.290288 -0.372360 -0.255444 4.000000
-0.290288 0.351327 -0.341848 4.000000
-0.290288 -0.257858 -0.368717 4.000000
-0.290288 0.452045 -0.153941 4.000000
-0.290288 -0.151106 0.450909 4.000000
-0.290288 -0.409492 -0.226137 4.000000
-0.290288 0.456302 0.017311 4.000000
-0.290288 0.012084 0.446051 4.000000
-0.290288 -0.454246 -0.085652 4.000000
-0.290288 -0.077070 -0.492352 4.000000
-0.290288 0.375767 0.239395 4.000000
-0.290288 -0.186979 0.406717 4.000000
-0.290288 -0.165123 0.435960 4.000000
-0.290288 0.039645 -0.487815 4.000000
-0.290288 -0.436970 0.192266 4.000000
-0.290288 0.408639 -0.268555 4.000000
-0.290288 0.483912 -0.058528 4.000000
-0.290288 0.332352 -0.305052 4.000000
-0.290288 0.177352 0.462894 4.000000
-0.290288 0.497597 -0.021453 4.000000
-0.290288 -0.298785 0.338394 4.000000
-0.290288 -0.233556 -0.433441 4.000000
-0.290288 -0.322385 0.346137 4.000000
-0.290288 0.465540 -0.016553 4.000000
-0.290288 0.446979 0.133360 4.000000
-0.290288 0.217579 0.410318 4.000000
-0.290288 -0.230678 -0.386402 4.000000
-0.290288 0.430617 -0.165957 4.000000
-0.290288 0.142250 -0.461564 4.000000
-0.290288 -0.032279 0.463709 4.000000
-0.290288 0.433639 0.126367 4.000000
-0.290288 -0.081289 0.472586 4.000000
-0.290288 -0.213867 -0.434298 4.000000
-0.290288 0.170812 0.418019 4.000000
-0.290288 0.266004 -0.414413 4.000000
-0.290288 -0.013937 -0.447532 4.000000
-0.290288 0.290670 0.386873 4.000000
-0.290288 -0.444766 0.117486 4.000000
-0.290288 -0.446615 -0.189285 4.000000
-0.290288 -0.487666 -0.092298 4.000000
-0.290288 -0.080580 0.476223 4.000000
-0.290288 -0.376152 0.259504 4.000000
-0.290288 -0.434458 0.093378 4.000000
-0.290288 0.401864 0.284025 4.000000
-0.290288 -0.421452 0.189744 4.000000
-0.290288 -0.054081 -0.494644 4.000000
-0.290288 0.254895 -0.412791 4.000000
-0.290288 0.466765 -0.155806 4.000000
-0.290288 -0.438227 0.104179 4.000000
-0.290288 0.154841 0.469351 4.000000
-0.290288 -0.485606 -0.107265 4.000000
-0.290288 0.448200 -0.098984 4.000000
-0.290288 -0.034661 -0.460413 4.000000
-0.290288 0.428528 0.229124 4.000000
-0.290288 -0.454722 0.083320 4.000000
-0.290288 0.463041 0.023719 4.000000
-0.290288 -0.043006 0.481648 4.000000
-0.290288 0.291352 0.401429 4.000000
-0.290288 -0.222590 0.399414 4.000000
-0.290288 -0.262872 0.415782 4.000000
-0.290288 -0.382396 0.238142 4.000000
-0.290288 -0.069261 -0.457142 4.000000
-0.290288 0.194756 0.415840 4.000000
-0.290288 -0.438231 0.142830 4.000000
-0.290288 -0.407714 0.212410 4.000000
-0.290288 -0.468042 0.164259 4.000000
-0.290288 0.133699 -0.463560 4.000000
-0.290288 0.406846 0.249442 4.000000
-0.290288 -0.345687 -0.323905 4.000000
-0.290288 0.372827 0.258121 4.000000
-0.290288 -0.325308 0.312135 4.000000
-0.290288 -0.421549 0.237629 4.000000
-0.290288 -0.136202 0.445593 4.000000
-0.290288 -0.042657 -0.459714 4.000000
-0.290288 0.045413 0.471497 4.000000
-0.290288 0.198047 -0.403253 4.000000
-0.290288 0.355670 0.316142 4.000000
-0.290288 -0.494062 0.021400 4.000000
-0.290288 0.004573 -0.450020 4.000000
-0.290288 0.333367 0.362292 4.000000
-0.290288 0.475265 0.092079 4.000000
-0.290288 -0.062514 0.473768 4.000000
-0.290288 -0.226247 -0.429968 4.000000
-0.290288 -0.062039 -0.474491 4.000000
-0.290288 0.090714 0.448730 4.000000
-0.290288 0.300372 0.393080 4.000000
-0.290288 -0.230440 0.438614 4.000000
-0.290288 0.076727 -0.460381 4.000000
-0.290288 0.094082 -0.456802 4.000000
-0.290288 -0.419928 -0.229087 4.000000
-0.290288 0.470855 0.070615 4.000000
-0.290288 -0.376239 -0.319840 4.000000
-0.290288 -0.328500 0.316544 4.000000
-0.290288 -0.163082 -0.463078 4.000000
-0.290288 -0.412243 0.239798 4.000000
-0.290288 0.341484 0.320075 4.000000
-0.290288 -0.464739 0.030550 4.000000
-0.290288 -0.369900 0.263042 4.000000
-0.290288 -0.456129 0.163955 4.000000
-0.290288 -0.155429 -0.448650 4.000000
-0.290288 -0.048859 0.487511 4.000000
-0.290288 0.273332 -0.387127 4.000000
-0.290288 0.442573 0.053554 4.000000
-0.290288 0.391486 0.263918 4.000000
-0.290288 0.445021 0.114280 4.000000
-0.290288 0.351889 -0.308952 4.000000
-0.290288 -0.399051 -0.215567 4.000000
-0.290288 -0.110713 -0.452511 4.000000
-0.290288 0.346846 0.329771 4.000000
-0.290288 0.265021 -0.381618 4.000000
-0.290288 -0.271939 -0.391965 4.000000
-0.290288 -0.357680 -0.309190 4.000000
-0.290288 -0.147076 -0.454309 4.000000
-0.290288 -0.146002 -0.436371 4.000000
-0.290288 0.377514 0.321458 4.000000
-0.290288 -0.430622 -0.245979 4.000000
-0.290288 0.406905 -0.208361 4.000000
-0.290288 0.382086 0.310214 4.000000
-0.290288 -0.337137 0.332030 4.000000
-0.290288 0.430194 0.182256 4.000000
-0.290288 -0.220963 -0.445481 4.000000
-0.290288 0.395737 0.204306 4.000000
-0.290288 0.437657 -0.161784 4.000000
-0.290288 -0.408832 0.239943 4.000000
-0.290288 -0.282387 0.376342 4.000000
-0.290288 0.176028 0.428784 4.000000
-0.290288 -0.327301 -0.313842 4.000000
-0.290288 -0.108744 0.455091 4.000000
-0.290288 -0.328048 0.305368 4.000000
-0.290288 0.456804 0.027377 4.000000
-0.290288 -0.255818 -0.420253 4.000000
-0.290288 0.192853 0.418440 4.000000
-0.290288 0.418838 0.152395 4.000000
-0.290288 0.065193 -0.470013 4.000000
-0.290288 -0.319968 -0.330135 4.000000
-0.290288 -0.446882 -0.111865 4.000000
-0.290288 -0.347518 0.316144 4.000000
-0.290288 -0.109791 -0.449112 4.000000
-0.290288 0.409499 0.251030 4.000000
-0.290288 -0.217161 0.415429 4.000000
-0.290288 -0.439432 -0.073625 4.000000
-0.290288 0.085318 -0.440995 4.000000
-0.290288 0.300478 -0.331862 4.000000
-0.290288 -0.466590 -0.156695 4.000000
-0.290288 0.290524 -0.373373 4.000000
-0.290288 -0.470265 -0.114801 4.000000
-0.290288 0.255149 0.424368 4.000000
-0.290288 0.474368 -0.020451 4.000000
-0.290288 0.044394 -0.460924 4.000000
-0.290288 0.150789 -0.460384 4.000000
-0.290288 -0.451545 -0.156955 4.000000
-0.290288 0.485044 0.080122 4.000000
-0.290288 0.275833 0.378023 4.000000
-0.290288 -0.465093 -0.163973 4.000000
-0.290288 -0.474330 -0.140067 4.000000
-0.290288 0.119335 -0.458915 4.000000
-0.290288 -0.398393 0.250642 4.000000
-0.290288 0.302754 -0.361022 4.000000
-0.290288 -0.302053 0.337107 4.000000
-0.290288 -0.005815 0.450800 4.000000
-0.290288 -0.184902 -0.422808 4.000000
-0.290288 -0.231155 -0.409446 4.000000
-0.290288 0.115704 0.480321 4.000000
-0.290288 0.417308 -0.234469 4.000000
-0.290288 0.312706 0.369886 4.000000
-0.290288 0.360306 0.261753 4.000000
-0.290288 0.048260 -0.476052 4.000000
-0.290288 -0.239912 0.378247 4.000000
-0.290288 -0.205161 0.438617 4.000000
-0.290288 -0.083187 -0.481355 4.000000
-0.290288 0.276922 -0.403501 4.000000
-0.290288 -0.357335 -0.274484 4.000000
-0.290288 0.159208 -0.418363 4.000000
-0.290288 0.445518 0.078054 4.000000
-0.290288 0.009275 -0.496299 4.000000
-0.290288 -0.346266 0.347545 4.000000
-0.290288 -0.457865 0.177765 4.000000
-0.290288 -0.348524 -0.284177 4.000000
-0.290288 -0.034529 -0.498932 4.000000
-0.290288 0.391118 0.249174 4.000000
-0.290288 -0.479304 0.089214 4.000000
-0.290288 -0.451025 0.169060 4.000000
-0.290288 0.473155 0.151752 4.000000
-0.290288 -0.293741 0.380417 4.000000
-0.290288 0.007744 -0.483749 4.000000
-0.290288 -0.130155 -0.438413 4.000000
-0.290288 0.173180 0.444687 4.000000
-0.290288 0.364444 -0.322378 4.000000
-0.290288 0.270690 0.382897 4.000000
-0.290288 -0.471359 0.025474 4.000000
-0.290288 0.009866 -0.475165 4.000000
-0.290288 0.461749 -0.048063 4.000000
-0.290288 0.243367 -0.430938 4.000000
-0.290288 0.378744 -0.249781 4.000000
-0.290288 0.474227 0.009694 4.000000
-0.290288 0.457561 -0.143228 4.000000
-0.290288 -0.435042 -0.095608 4.000000
-0.290288 -0.463242 -0.182642 4.000000
-0.290288 -0.154512 0.453782 4.000000
-0.290288 0.119513 -0.444675 4.000000
-0.290288 -0.388654 0.238040 4.000000
-0.290288 -0.221421 0.393475 4.000000
-0.290288 -0.186695 0.457737 4.000000
-0.290288 0.473936 -0.094183 4.000000
-0.290288 0.479776 -0.074797 4.000000
-0.290288 0.465205 0.019574 4.000000
-0.290288 -0.393349 -0.300955 4.000000
-0.290288 -0.407391 0.194573 4.000000
-0.290288 -0.458875 0.018690 4.000000
-0.290288 -0.453801 0.200610 4.000000
-0.290288 0.358843 -0.306151 4.000000
-0.290288 0.388685 -0.240283 4.000000
-0.290288 -0.067621 0.489665 4.000000
-0.290288 0.420568 -0.151378 4.000000
-0.290288 -0.365430 0.257319 4.000000
-0.290288 0.436345 0.175362 4.000000
-0.290288 -0.416522 0.227510 4.000000
-0.290288 -0.037759 -0.469245 4.000000
-0.290288 -0.460105 0.064151 4.000000
-0.290288 -0.440622 -0.232545 4.000000
-0.290288 -0.347327 0.289049 4.000000
-0.290288 0.174861 0.432611 4.000000
-0.290288 -0.461872 0.117516 4.000000
-0.290288 0.186738 0.443541 4.000000
-0.290288 -0.399388 0.294429 4.000000
-0.290288 0.445429 -0.032264 4.000000
-0.290288 0.345586 -0.307817 4.000000
-0.290288 -0.484690 0.109223 4.000000
-0.290288 -0.246356 0.379150 4.000000
-0.290288 0.374213 -0.247362 4.000000
-0.290288 -0.055601 0.474040 4.000000
-0.290288 -0.451251 -0.012269 4.000000
-0.290288 -0.473396 0.147766 4.000000
-0.290288 0.027561 -0.470333 4.000000
-0.290288 -0.480116 0.061631 4.000000
-0.290288 0.352733 -0.318309 4.000000
-0.290288 0.415730 -0.197322 4.000000
-0.290288 -0.094780 -0.459326 4.000000
-0.290288 0.487375 -0.089189 4.000000
-0.290288 -0.088669 -0.477312 4.000000
-0.290288 -0.420128 0.186764 4.000000
-0.290288 0.187166 -0.444126 4.000000
-0.290288 0.315068 0.330275 4.000000
-0.290288 0.266356 0.388369 4.000000
-0.290288 -0.454645 0.127033 4.000000
-0.290288 0.202399 -0.434802 4.000000
-0.290288 0.261984 -0.404562 4.000000
-0.290288 0.212844 0.446103 4.000000
-0.290288 -0.103489 0.480968 4.000000
-0.290288 -0.100089 -0.449230 4.000000
-0.290288 -0.354300 -0.290463 4.000000
-0.290288 0.144996 0.430710 4.000000
-0.290288 -0.489957 -0.055028 4.000000
-0.290288 -0.481731 0.029613 4.000000
-0.290288 0.012344 -0.492064 4.000000
-0.290288 -0.020039 0.483587 4.000000
-0.290288 -0.048766 0.452096 4.000000
-0.290288 -0.399765 0.233799 4.000000
-0.290288 0.292717 -0.395502 4.000000
-0.290288 0.198886 0.431265 4.000000
-0.290288 0.349877 -0.335497 4.000000
-0.290288 0.021359 -0.488367 4.000000
-0.290288 0.471028 0.030637 4.000000
-0.290288 0.005857 0.447476 4.000000
-0.290288 -0.143293 0.444474 4.000000
-0.290288 -0.051375 -0.444983 4.000000
-0.290288 0.153643 -0.441062 4.000000
-0.290288 -0.367100 0.331557 4.000000
-0.290288 0.058544 0.480831 4.000000
-0.290288 -0.448912 0.022837 4.000000
-0.290288 -0.470225 -0.077997 4.000000
-0.290288 -0.149563 -0.456535 4.000000
-0.290288 -0.072894 -0.477165 4.000000
-0.290288 0.456100 -0.140306 4.000000
-0.290288 -0.311061 -0.375451 4.000000
-0.290288 0.417002 0.191964 4.000000
-0.290288 0.000882 -0.499926 4.000000
-0.290288 0.241649 0.389994 4.000000
-0.290288 -0.391943 0.239360 4.000000
-0.290288 0.075457 -0.450861 4.000000
-0.290288 0.338243 -0.366445 4.000000
-0.290288 -0.066047 0.448441 4.000000
-0.290288 0.034121 -0.487108 4.000000
-0.290288 0.451661 -0.146418 4.000000
-0.290288 0.482055 0.013088 4.000000
-0.290288 0.101793 0.436646 4.000000
-0.290288 0.452355 0.059436 4.000000
-0.290288 0.018737 -0.480942 4.000000
-0.290288 -0.210228 0.448730 4.000000
-0.290288 -0.062674 -0.462186 4.000000
-0.290288 -0.402274 0.222676 4.000000
-0.290288 -0.337852 -0.293177 4.000000
-0.290288 0.438434 0.224958 4.000000
-0.290288 0.241260 0.379944 4.000000
-0.290288 -0.157834 0.458702 4.000000
-0.290288 0.348809 0.314213 4.000000
-0.290288 0.131347 -0.428851 4.000000
-0.290288 -0.454579 0.113085 4.000000
-0.290288 -0.410485 0.214491 4.000000
-0.290288 -0.196715 0.399138 4.000000
-0.290288 -0.256234 0.395046 4.000000
-0.290288 -0.349017 -0.317422 4.000000
-0.290288 0.358086 0.338145 4.000000
-0.290288 0.476313 -0.064214 4.000000
-0.290288 -0.115679 0.448884 4.000000
-0.290288 0.460663 0.026917 4.000000
-0.290288 0.418580 0.227577 4.000000
-0.290288 0.163061 0.445503 4.000000
-0.290288 0.215539 -0.400707 4.000000
-0.290288 -0.114818 -0.439933 4.000000
-0.290288 -0.394212 0.221986 4.000000
-0.290288 -0.169488 -0.421867 4.000000
-0.290288 0.154945 -0.433438 4.000000
-0.290288 -0.465202 0.005224 4.000000
-0.290288 0.461805 0.066795 4.000000
-0.290288 0.394615 0.274583 4.000000
-0.290288 -0.305200 0.337613 4.000000
-0.290288 -0.464597 -0.089841 4.000000
-0.290288 0.143540 0.471773 4.000000
-0.290288 -0.434803 0.239213 4.000000
-0.290288 0.473308 -0.039990 4.000000
-0.290288 -0.452807 -0.114998 4.000000
-0.290288 0.364246 -0.277946 4.000000
-0.290288 0.438519 0.199546 4.000000
-0.290288 0.217293 0.441895 4.000000
-0.290288 -0.013564 0.457869 4.000000
-0.290288 -0.198974 -0.432408 4.000000
-0.290288 0.085625 0.475671 4.000000
-0.290288 0.286235 -0.402485 4.000000
-0.290288 0.336679 0.346302 4.000000
-0.290288 -0.468176 0.063875 4.000000
-0.290288 -0.307462 -0.334466 4.000000
-0.290288 -0.334802 -0.327085 4.000000
-0.290288 0.220305 -0.422694 4.000000
-0.290288 -0.181682 0.434182 4.000000
-0.290288 0.420641 -0.268876 4.000000
-0.290288 0.085059 -0.458436 4.000000
-0.290288 0.398793 0.217599 4.000000
-0.290288 -0.469285 -0.006206 4.000000
-0.290288 -0.193726 0.449405 4.000000
-0.290288 0.460798 -0.179945 4.000000
-0.290288 -0.155211 0.426777 4.000000
-0.290288 -0.454751 0.148258 4.000000
-0.290288 -0.383891 -0.277586 4.000000
-0.290288 0.334567 -0.351103 4.000000
-0.290288 -0.246959 0.392034 4.000000
-0.290288 -0.488236 0.036590 4.000000
-0.290288 -0.373072 0.262955 4.000000
-0.290288 -0.247332 -0.381986 4.000000
-0.290288 0.290556 0.396446 4.000000
-0.290288 -0.060821 -0.471473 4.000000
-0.290288 0.467653 0.069779 4.000000
-0.290288 0.445428 0.198038 4.000000
-0.290288 -0.395685 -0.220025 4.000000
-0.290288 0.347365 0.301926 4.000000
-0.290288 0.274140 -0.395461 4.000000
-0.290288 0.103124 0.484573 4.000000
-0.290288 -0.350278 0.314081 4.000000
-0.290288 -0.000030 -0.459965 4.000000
-0.290288 -0.152059 0.441595 4.000000
-0.290288 -0.076216 0.471544 4.000000
-0.290288 0.014543 0.491803 4.000000
-0.290288 0.431790 -0.151178 4.000000
-0.290288 0.089250 -0.459025 4.000000
-0.290288 0.237225 -0.428482 4.000000
-0.290288 -0.189903 0.408528 4.000000
-0.290288 0.226958 0.386199 4.000000
-0.290288 0.433352 -0.186895 4.000000
-0.290288 -0.024195 0.468830 4.000000
-0.290288 0.461097 -0.043959 4.000000
-0.290288 0.415576 0.200254 4.000000
-0.290288 -0.484544 -0.022140 4.000000
-0.290288 0.457602 0.031311 4.000000
-0.290288 -0.368437 -0.278485 4.000000
-0.290288 0.441144 0.177034 4.000000
-0.290288 -0.301496 -0.390602 4.000000
-0.290288 -0.458852 -0.159789 4.000000
-0.290288 0.291646 0.363513 4.000000
-0.290288 0.442832 0.190497 4.000000
-0.290288 0.102899 -0.453381 4.000000
-0.290288 0.446983 0.002710 4.000000
-0.290288 0.333014 0.301715 4.000000
-0.290288 0.258810 0.369676 4.000000
-0.290288 -0.112137 0.437494 4.000000
-0.290288 -0.129167 -0.462992 4.000000
-0.290288 0.471871 -0.150380 4.000000
-0.290288 -0.377408 -0.240389 4.000000
-0.290288 0.129972 -0.479040 4.000000
-0.290288 0.444790 -0.196988 4.000000
-0.290288 0.377922 0.275569 4.000000
-0.290288 0.071199 0.480817 4.000000
-0.290288 -0.392038 0.208127 4.000000
-0.290288 -0.466721 -0.167130 4.000000
-0.290288 0.441974 -0.214451 4.000000
-0.290288 -0.445544 0.051776 4.000000
-0.290288 0.376888 0.247490 4.000000
-0.290288 0.067660 0.475510 4.000000
-0.290288 0.317933 0.363398 4.000000
-0.290288 -0.048421 -0.474471 4.000000
-0.290288 0.238590 -0.437759 4.000000
-0.290288 0.435852 0.215809 4.000000
-0.290288 -0.360163 0.275108 4.000000
-0.290288 0.432584 -0.116188 4.000000
-0.290288 -0.217384 -0.443373 4.000000
-0.290288 0.098392 -0.455786 4.000000
-0.290288 -0.416729 -0.161528 4.000000
-0.290288 0.199236 -0.425846 4.000000
-0.290288 0.042179 -0.476185 4.000000
-0.290288 0.217122 -0.445517 4.000000
-0.290288 -0.145256 0.456927 4.000000
-0.290288 -0.473459 -0.107359 4.000000
-0.290288 -0.175381 0.437043 4.000000
-0.290288 0.475087 -0.001757 4.000000
-0.290288 -0.108950 0.471479 4.000000
-0.290288 0.381023 0.294416 4.000000
-0.290288 0.460789 -0.071361 4.000000
-0.290288 0.370368 0.247027 4.000000
-0.290288 -0.424727 0.236161 4.000000
-0.290288 -0.379870 0.257682 4.000000
-0.290288 0.474172 0.040757 4.000000
-0.290288 -0.439270 0.119469 4.000000
-0.290288 0.204360 0.432941 4.000000
-0.290288 -0.439166 -0.128265 4.000000
-0.290288 -0.469604 0.135061 4.000000
-0.290288 -0.336754 0.340602 4.000000
-0.290288 0.394653 -0.229376 4.000000
-0.290288 0.037069 -0.465063 4.000000
-0.290288 0.477621 0.011201 4.000000
-0.290288 0.492584 0.041584 4.000000
-0.290288 0.124924 -0.467063 4.000000
-0.290288 0.058916 -0.482340 4.000000
-0.290288 0.184276 -0.459482 4.000000
-0.290288 0.477313 0.069331 4.000000
-0.290288 0.399576 -0.240539 4.000000
-0.290288 0.126951 -0.434008 4.000000
-0.290288 -0.188268 0.438867 4.000000
-0.290288 0.451452 -0.184169 4.000000
-0.290288 -0.370020 0.244774 4.000000
-0.290288 0.122400 -0.470612 4.000000
-0.290288 0.467629 -0.027748 4.000000
-0.290288 -0.028295 -0.451920 4.000000
-0.290288 -0.363516 -0.331130 4.000000
-0.290288 0.095816 -0.477935 4.000000
-0.290288 -0.025577 -0.461479 4.000000
-0.290288 -0.242965 0.371114 4.000000
-0.290288 0.080067 -0.487481 4.000000
-0.290288 -0.123947 0.436936 4.000000
-0.290288 -0.481228 0.121958 4.000000
-0.290288 -0.470010 0.039829 4.000000
-0.290288 -0.159004 0.444487 4.000000
-0.290288 0.464368 0.069455 4.000000
-0.290288 -0.260160 0.421493 4.000000
-0.290288 -0.495204 0.017288 4.000000
-0.290288 -0.263602 -0.374375 4.000000
-0.290288 0.322672 -0.345614 4.000000
-0.290288 -0.352914 -0.274040 4.000000
-0.290288 -0.123829 -0.468183 4.000000
-0.290288 0.112056 0.432435 4.000000
-0.290288 0.014392 0.442958 4.000000
-0.290288 0.214958 0.432357 4.000000
-0.290288 -0.159219 -0.467974 4.000000
-0.290288 -0.259064 0.383256 4.000000
-0.290288 -0.368892 0.303061 4.000000
-0.290288 -0.434100 0.109236 4.000000
-0.290288 -0.220213 -0.407766 4.000000
-0.290288 0.412310 0.243406 4.000000
-0.290288 -0.250848 -0.416326 4.000000
-0.290288 0.384872 -0.272308 4.000000
-0.290288 -0.150367 -0.431610 4.000000
-0.290288 -0.083877 -0.474021 4.000000
-0.290288 0.449539 -0.081450 4.000000
-0.290288 0.381339 -0.298440 4.000000
-0.290288 -0.232713 -0.389316 4.000000
-0.290288 0.369268 -0.296370 4.000000
-0.290288 -0.190793 -0.448182 4.000000
-0.290288 -0.452068 0.159274 4.000000
-0.290288 0.371159 0.268287 4.000000
-0.290288 0.058560 0.439587 4.000000
-0.290288 0.139442 -0.447078 4.000000
-0.290288 -0.249535 0.375931 4.000000
-0.290288 -0.404960 0.261672 4.000000
-0.290288 -0.332327 0.350429 4.000000
-0.290288 -0.398868 -0.222990 4.000000
-0.290288 0.220480 0.412579 4.000000
-0.290288 -0.058021 0.453228 4.000000
-0.290288 -0.442022 0.111195 4.000000
-0.290288 0.345531 -0.358892 4.000000
-0.290288 0.463587 -0.127408 4.000000
-0.290288 0.168539 0.435690 4.000000
-0.290288 0.453908 0.056070 4.000000
-0.290288 -0.374693 0.288910 4.000000
-0.290288 0.147334 0.465714 4.000000
-0.290288 0.472220 0.065715 4.000000
-0.290288 -0.410742 0.222675 4.000000
-0.290288 0.488775 -0.034606 4.000000
-0.290288 0.297611 -0.365310 4.000000
-0.290288 -0.146367 -0.450279 4.000000
-0.290288 0.159490 -0.463578 4.000000
-0.290288 0.050994 0.440481 4.000000
-0.290288 -0.052633 0.454849 4.000000
-0.290288 -0.448967 0.087983 4.000000
-0.290288 -0.324416 -0.361285 4.000000
-0.290288 -0.371826 -0.311863 4.000000
-0.290288 0.145977 -0.436768 4.000000
-0.290288 0.369796 -0.264453 4.000000
-0.290288 -0.380411 -0.239094 4.000000
-0.290288 0.478258 -0.004284 4.000000
-0.290288 -0.371462 -0.286038 4.000000
-0.290288 -0.460874 -0.172495 4.000000
-0.290288 0.459567 -0.112660 4.000000
-0.290288 0.244824 0.393914 4.000000
-0.290288 -0.206675 -0.443281 4.000000
-0.290288 -0.021118 -0.487151 4.000000
-0.290288 -0.477477 -0.024466 4.000000
-0.290288 0.262315 0.408162 4.000000
-0.290288 -0.044803 -0.475189 4.000000
-0.290288 0.436277 0.228465 4.000000
-0.290288 0.367634 -0.304548 4.000000
-0.290288 -0.218575 0.389536 4.000000
-0.290288 -0.464319 0.020642 4.000000
-0.290288 0.435174 0.168481 4.000000
-0.290288 -0.186748 0.445616 4.000000
-0.290288 0.333103 -0.347420 4.000000
-0.290288 0.444413 0.099908 4.000000
-0.290288 -0.080566 0.436364 4.000000
-0.290288 0.052195 0.445008 4.000000
-0.290288 0.011452 -0.485511 4.000000
-0.290288 -0.327617 0.301280 4.000000
-0.290288 0.379439 -0.274282 4.000000
-0.290288 0.430485 -0.243264 4.000000
-0.290288 0.450374 -0.049803 4.000000
-0.290288 0.450700 0.158521 4.000000
-0.290288 -0.162595 -0.440675 4.000000
-0.290288 0.179497 0.448387 4.000000
-0.290288 -0.120791 -0.463494 4.000000
-0.290288 -0.230368 0.398881 4.000000
-0.290288 -0.146306 0.441874 4.000000
-0.290288 0.437518 0.102419 4.000000
-0.290288 -0.365249 -0.263714 4.000000
-0.290288 0.427996 0.240838 4.000000
-0.290288 -0.179560 -0.453346 4.000000
-0.290288 -0.216625 0.407553 4.000000
-0.290288 -0.475136 0.132164 4.000000
-0.290288 -0.427758 -0.158488 4.000000
-0.290288 -0.436187 -0.186825 4.000000
-0.290288 -0.234514 0.432661 4.000000
-0.290288 0.453047 0.169948 4.000000
-0.290288 -0.470627 -0.068630 4.000000
-0.290288 -0.392651 -0.226503 4.000000
-0.290288 0.155466 0.434956 4.000000
-0.290288 0.243395 0.417303 4.000000
-0.290288 -0.353023 -0.287128 4.000000
-0.290288 0.378935 -0.321910 4.000000
-0.290288 0.389985 0.227609 4.000000
-0.290288 0.195074 0.427185 4.000000
-0.290288 -0.446524 0.123067 4.000000
-0.290288 0.465174 0.125950 4.000000
-0.290288 0.471123 -0.054141 4.000000
-0.290288 -0.114054 -0.446973 4.000000
-0.290288 0.286719 0.342807 4.000000
-0.290288 0.446689 0.017234 4.000000
-0.290288 0.440987 0.219896 4.000000
-0.290288 0.117405 -0.482968 4.000000
-0.290288 0.480215 0.033050 4.000000
-0.290288 0.470276 0.026483 4.000000
-0.290288 -0.455686 0.012182 4.000000
-0.290288 0.442954 -0.140882 4.000000
-0.290288 0.409099 -0.231029 4.000000
-0.290288 0.312210 -0.349229 4.000000
-0.290288 0.255574 0.393013 4.000000
-0.290288 0.494169 0.003209 4.000000
-0.290288 -0.451969 0.144523 4.000000
-0.290288 0.348249 0.310683 4.000000
-0.290288 -0.477060 0.055660 4.000000
-0.290288 -0.109967 -0.462213 4.000000
-0.290288 0.357538 -0.290473 4.000000
-0.290288 -0.422241 0.157287 4.000000
-0.290288 -0.388969 0.306851 4.000000
-0.290288 -0.478677 0.129459 4.000000
-0.290288 -0.460740 -0.001187 4.000000
-0.290288 0.110209 -0.452337 4.000000
-0.290288 -0.465172 -0.153137 4.000000
-0.290288 -0.199464 0.422012 4.000000
-0.290288 0.403065 0.205106 4.000000
-0.290288 -0.006342 -0.457318 4.000000
-0.290288 0.403726 0.208682 4.000000
-0.290288 0.426813 0.160798 4.000000
-0.290288 -0.140524 -0.462230 4.000000
-0.290288 -0.273057 0.349173 4.000000
-0.290288 0.164953 0.439021 4.000000
-0.290288 0.262278 0.413213 4.000000
-0.290288 -0.186171 -0.429279 4.000000
-0.290288 -0.453036 -0.053156 4.000000
-0.290288 0.247815 0.393043 4.000000
-0.290288 -0.131159 0.441393 4.000000
-0.290288 -0.408487 -0.208192 4.000000
-0.290288 0.285991 -0.345711 4.000000
-0.290288 0.465046 0.152445 4.000000
-0.290288 -0.419797 -0.180595 4.000000
-0.290288 0.310855 -0.387396 4.000000
-0.290288 -0.461286 -0.062917 4.000000
-0.290288 0.043649 -0.492998 4.000000
-0.290288 0.430432 0.155848 4.000000
-0.290288 -0.490603 0.079130 4.000000
-0.290288 -0.065845 0.472442 4.000000
-0.290288 -0.353584 0.282274 4.000000
-0.290288 -0.220276 0.443511 4.000000
-0.290288 -0.257727 -0.382730 4.000000
-0.290288 0.467490 -0.142017 4.000000
-0.290288 -0.349690 0.298664 4.000000
-0.290288 -0.112600 0.444440 4.000000
-0.290288 0.077052 -0.494029 4.000000
-0.290288 0.410865 -0.255483 4.000000
-0.290288 0.485619 -0.006418 4.000000
-0.290288 0.339457 -0.304077 4.000000
-0.290288 -0.389533 0.229011 4.000000
-0.290288 -0.454062 -0.109278 4.000000
-0.290288 -0.330463 0.322702 4.000000
-0.290288 0.467420 -0.039303 4.000000
-0.290288 -0.418833 -0.165424 4.000000
-0.290288 0.142401 0.428472 4.000000
-0.290288 0.467790 -0.034077 4.000000
-0.290288 0.060891 0.451639 4.000000
-0.290288 0.358525 0.264723 4.000000
-0.290288 -0.401120 -0.253794 4.000000
-0.290288 0.064853 -0.447359 4.000000
-0.290288 0.218401 0.400371 4.000000
-0.290288 0.387502 -0.267765 4.000000
-0.290288 -0.238397 0.402849 4.000000
-0.290288 0.017846 -0.451194 4.000000
-0.290288 0.463785 0.088195 4.000000
-0.290288 0.483033 0.028275 4.000000
-0.290288 -0.048506 0.444529 4.000000
-0.290288 -0.435600 0.215581 4.000000
-0.290288 0.204713 -0.399403 4.000000
-0.290288 -0.230496 0.387084 4.000000
-0.290288 0.449921 -0.201943 4.000000
-0.290288 0.327755 0.343467 4.000000
-0.290288 0.399824 -0.207877 4.000000
-0.290288 -0.447993 -0.044819 4.000000
-0.290288 -0.470079 -0.022613 4.000000
-0.290288 0.319759 0.360565 4.000000
-0.290288 -0.446688 0.081992 4.000000
-0.290288 0.216806 -0.395572 4.000000
-0.290288 0.331881 0.295230 4.000000
-0.290288 -0.454735 0.031959 4.000000
-0.290288 0.028186 0.476814 4.000000
-0.290288 -0.162800 0.429782 4.000000
-0.290288 0.099102 -0.465171 4.000000
-0.290288 0.409307 -0.222364 4.000000
-0.290288 -0.270942 0.390802 4.000000
-0.290288 -0.489920 -0.058725 4.000000
-0.290288 0.440790 0.101004 4.000000
-0.290288 0.349924 -0.279243 4.000000
-0.290288 0.358975 -0.313621 4.000000
-0.290288 0.226735 -0.434731 4.000000
-0.290288 0.209328 -0.441351 4.000000
-0.290288 -0.343751 -0.344481 4.000000
-0.290288 0.289558 -0.386008 4.000000
-0.290288 0.031312 0.444031 4.000000
-0.290288 0.279273 -0.363296 4.000000
-0.290288 0.209420 -0.410479 4.000000
-0.290288 -0.325452 -0.370417 4.000000
-0.290288 0.432969 0.122738 4.000000
-0.290288 -0.082711 0.457312 4.000000
-0.290288 -0.130516 -0.481016 4.000000
-0.290288 0.118207 -0.480045 4.000000
-0.290288 0.138322 -0.426936 4.000000
-0.290288 -0.406587 -0.258959 4.000000
-0.290288 0.445009 0.028412 4.000000
-0.290288 -0.174475 -0.456098 4.000000
-0.290288 -0.325311 -0.352474 4.000000
-0.290288 0.412988 -0.208624 4.000000
-0.290288 0.427635 -0.155889 4.000000
-0.290288 0.415791 0.212136 4.000000
-0.290288 -0.015040 -0.453120 4.000000
-0.290288 -0.119918 0.443281 4.000000
-0.290288 -0.012529 0.453732 4.000000
-0.290288 -0.483948 -0.068466 4.000000
-0.290288 -0.322214 -0.353666 4.000000
-0.290288 0.325374 -0.321796 4.000000
-0.290288 -0.427112 -0.211253 4.000000
-0.290288 -0.353705 0.297291 4.000000
-0.290288 0.431475 0.199632 4.000000
-0.290288 0.440303 0.077031 4.000000
-0.290288 -0.050899 -0.480743 4.000000
-0.290288 0.281538 0.367703 4.000000
-0.290288 -0.419864 0.145407 4.000000
-0.290288 -0.373747 0.314877 4.000000
-0.290288 0.406684 -0.220029 4.000000
-0.290288 0.309674 0.377284 4.000000
-0.290288 0.444190 -0.212029 4.000000
-0.290288 0.048384 -0.449864 4.000000
-0.290288 -0.482458 0.005360 4.000000
-0.290288 -0.463428 -0.139089 4.000000
-0.290288 -0.042396 -0.480520 4.000000
-0.290288 -0.022323 0.461955 4.000000
-0.290288 0.217158 0.417494 4.000000
-0.290288 -0.426027 0.250795 4.000000
-0.290288 0.246807 0.426721 4.000000
-0.290288 -0.265478 -0.393194 4.000000
-0.290288 -0.304480 -0.374734 4.000000
-0.290288 -0.374202 -0.267988 4.000000
-0.290288 -0.055500 -0.486264 4.000000
-0.290288 0.444807 -0.189222 4.000000
-0.290288 0.408535 0.201407 4.000000
-0.290288 0.213202 -0.430956 4.000000
-0.290288 -0.370727 0.328421 4.000000
-0.290288 0.489097 -0.095510 4.000000
-0.290288 -0.040273 -0.447822 4.000000
-0.290288 -0.462726 0.179252 4.000000
-0.290288 0.307224 0.380857 4.000000
-0.290288 -0.455024 -0.183839 4.000000
-0.290288 -0.041382 -0.463178 4.000000
-0.290288 0.448527 0.080542 4.000000
-0.290288 0.290003 0.392576 4.000000
-0.290288 0.215723 0.396634 4.000000
-0.290288 -0.471642 -0.086315 4.000000
-0.290288 0.137180 -0.466332 4.000000
-0.290288 0.474328 0.088412 4.000000
-0.290288 0.386941 -0.294623 4.000000
-0.290288 0.180889 0.432122 4.000000
-0.290288 0.489750 -0.017068 4.000000
-0.290288 -0.280042 0.368035 4.000000
-0.290288 0.246512 -0.389187 4.000000
-0.290288 -0.216030 0.401761 4.000000
-0.290288 -0.137589 -0.469691 4.000000
-0.290288 0.023012 -0.499128 4.000000
-0.290288 -0.192144 -0.440244 4.000000
-0.290288 -0.457702 0.005445 4.000000
-0.290288 0.340730 -0.291369 4.000000
-0.290288 0.450303 0.039695 4.000000
-0.290288 -0.202887 -0.422116 4.000000
-0.290288 0.433661 -0.213676 4.000000
-0.290288 -0.205517 -0.419063 4.000000
-0.290288 0.439960 0.069971 4.000000
-0.290288 -0.454941 0.065385 4.000000
-0.290288 -0.021788 -0.453982 4.000000
-0.290288 -0.363966 0.290134 4.000000
-0.290288 -0.323246 -0.379787 4.000000
-0.290288 0.472650 -0.124387 4.000000
-0.290288 0.409718 -0.205531 4.000000
-0.290288 0.187005 0.428092 4.000000
-0.290288 0.427587 -0.130700 4.000000
-0.290288 0.214562 -0.407573 4.000000
-0.290288 -0.081145 0.465168 4.000000
-0.290288 -0.487148 0.027051 4.000000
-0.290288 -0.087181 0.444938 4.000000
-0.290288 -0.090542 0.466676 4.000000
-0.290288 0.426629 -0.179111 4.000000
-0.290288 -0.384212 -0.306100 4.000000
-0.290288 -0.483833 0.011252 4.000000
-0.290288 -0.247303 -0.403498 4.000000
-0.290288 -0.048165 0.469970 4.000000
-0.290288 -0.365598 0.321787 4.000000
-0.290288 -0.354865 0.293293 4.000000
-0.290288 0.040789 0.489769 4.000000
-0.290288 0.496783 -0.037330 4.000000
-0.290288 -0.375391 -0.258516 4.000000
-0.290288 0.474786 0.115475 4.000000
-0.290288 -0.342307 -0.306366 4.000000
-0.290288 0.156130 0.430750 4.000000
-0.290288 0.495715 0.037463 4.000000
-0.290288 0.047669 -0.466391 4.000000
-0.290288 -0.329200 0.357138 4.000000
-0.290288 0.168798 -0.414536 4.000000
-0.290288 0.318333 0.334529 4.000000
-0.290288 0.327115 0.339893 4.000000
-0.290288 -0.340318 -0.311601 4.000000
-0.290288 -0.478322 0.033518 4.000000
-0.290288 -0.490470 -0.000679 4.000000
-0.290288 -0.411517 0.187668 4.000000
-0.290288 -0.257521 0.401866 4.000000
-0.290288 0.392059 -0.256512 4.000000
-0.290288 0.101920 0.469631 4.000000
-0.290288 -0.250838 -0.402985 4.000000
-0.290288 -0.078257 0.456735 4.000000
-0.290288 -0.478391 0.095376 4.000000
-0.290288 0.310687 0.367114 4.000000
-0.290288 0.081553 -0.490177 4.000000
-0.290288 -0.112975 -0.432989 4.000000
-0.290288 0.374922 0.263228 4.000000
-0.290288 -0.426720 0.211024 4.000000
-0.290288 -0.432605 -0.192294 4.000000
-0.290288 -0.403594 -0.250717 4.000000
-0.290288 0.259597 -0.411207 4.000000
-0.290288 -0.481034 0.024972 4.000000
-0.290288 0.208088 0.404896 4.000000
-0.290288 0.442253 0.122350 4.000000
-0.290288 -0.460967 0.184773 4.000000
-0.290288 0.487835 -0.104599 4.000000
-0.290288 0.353540 -0.278091 4.000000
-0.290288 -0.460507 -0.020020 4.000000
-0.290288 0.177965 -0.467122 4.000000
-0.290288 -0.440718 -0.181088 4.000000
-0.290288 0.251837 0.373464 4.000000
-0.290288 0.351305 0.294607 4.000000
-0.290288 0.365438 -0.294822 4.000000
-0.290288 -0.225918 0.435560 4.000000
-0.290288 -0.451167 0.077957 4.000000
-0.290288 0.482466 -0.127477 4.000000
-0.290288 -0.137745 -0.457720 4.000000
-0.290288 -0.444718 -0.169412 4.000000
-0.290288 -0.323873 -0.309963 4.000000
-0.290288 0.153138 -0.451421 4.000000
-0.290288 0.142765 -0.434734 4.000000
-0.290288 -0.446625 0.047754 4.000000
-0.290288 0.444266 0.034705 4.000000
-0.290288 -0.147647 -0.429818 4.000000
-0.290288 -0.469693 -0.095124 4.000000
-0.290288 0.354376 0.275122 4.000000
-0.290288 -0.297640 -0.390318 4.000000
-0.290288 0.300949 0.334203 4.000000
-0.290288 -0.314064 -0.327349 4.000000
-0.290288 -0.386880 -0.265607 4.000000
-0.290288 0.442443 0.227193 4.000000
-0.290288 -0.150561 -0.467193 4.000000
-0.290288 0.428342 0.135436 4.000000
-0.290288 -0.151042 0.437191 4.000000
-0.290288 -0.012299 -0.450905 4.000000
-0.290288 0.466375 0.094142 4.000000
-0.290288 0.198190 0.407631 4.000000
-0.290288 0.443005 0.141761 4.000000
-0.290288 0.252535 -0.417154 4.000000
-0.290288 0.471517 0.006676 4.000000
-0.290288 -0.262773 -0.370205 4.000000
-0.290288 -0.467110 0.044422 4.000000
-0.290288 0.315736 -0.349340 4.000000
-0.290288 -0.046218 0.453966 4.000000
-0.290288 -0.304607 0.359303 4.000000
-0.290288 -0.431392 -0.128876 4.000000
-0.290288 0.472870 0.049634 4.000000
-0.290288 0.388768 -0.243616 4.000000
-0.290288 -0.288453 0.397087 4.000000
-0.290288 0.465645 -0.097145 4.000000
-0.290288 0.454685 0.005902 4.000000
-0.290288 -0.058722 -0.474946 4.000000
-0.290288 -0.320146 0.363728 4.000000
-0.290288 -0.474062 -0.150444 4.000000
-0.290288 0.119164 0.459516 4.000000
-0.290288 0.208907 -0.429895 4.000000
-0.290288 -0.316582 -0.315547 4.000000
-0.290288 -0.378852 0.319111 4.000000
-0.290288 -0.340408 0.290861 4.000000
-0.290288 0.316339 0.377311 4.000000
-0.290288 -0.316921 -0.337615 4.000000
-0.290288 0.222833 -0.420337 4.000000
-0.290288 0.378388 0.310622 4.000000
-0.290288 -0.349683 -0.287939 4.000000
-0.290288 -0.163026 -0.436219 4.000000
-0.290288 0.021563 0.473085 4.000000
-0.290288 -0.409865 -0.242295 4.000000
-0.290288 -0.249588 -0.387880 4.000000
-0.290288 0.440971 0.134732 4.000000
-0.290288 -0.247815 0.422771 4.000000
-0.290288 0.089811 0.467455 4.000000
-0.290288 -0.180013 -0.465449 4.000000
-0.290288 -0.477507 0.059012 4.000000
-0.290288 -0.427406 0.148747 4.000000
-0.290288 -0.359231 -0.265372 4.000000
-0.290288 -0.185774 0.419471 4.000000
-0.290288 0.238035 -0.401269 4.000000
-0.290288 0.453492 0.155773 4.000000
-0.290288 -0.310251 0.362537 4.000000
-0.290288 0.476419 0.112600 4.000000
-0.290288 0.427858 0.199835 4.000000
-0.290288 -0.423176 -0.237149 4.000000
-0.290288 -0.399197 0.273987 4.000000
-0.290288 -0.368617 -0.329389 4.000000
-0.290288 -0.435978 -0.150488 4.000000
-0.290288 0.431797 -0.221853 4.000000
-0.290288 0.342973 0.324485 4.000000
-0.290288 -0.460028 0.048064 4.000000
-0.290288 -0.386025 -0.237662 4.000000
-0.290288 0.259555 0.415100 4.000000
-0.290288 0.484559 -0.020918 4.000000
-0.290288 -0.305621 0.368214 4.000000
-0.290288 -0.488390 0.089706 4.000000
-0.290288 0.457511 0.172822 4.000000
-0.290288 -0.395406 -0.246617 4.000000
-0.290288 -0.122993 0.479990 4.000000
-0.290288 0.415583 0.225379 4.000000
-0.290288 -0.019291 -0.462641 4.000000
-0.290288 0.280233 -0.371442 4.000000
-0.290288 -0.151706 -0.442121 4.000000
-0.290288 0.163743 -0.431346 4.000000
-0.290288 -0.334974 -0.361767 4.000000
-0.290288 0.407322 -0.283952 4.000000
-0.290288 -0.040100 -0.491080 4.000000
-0.290288 0.259790 0.383347 4.000000
-0.290288 0.169120 0.422339 4.000000
-0.290288 0.311242 0.361696 4.000000
-0.290288 -0.001936 0.473323 4.000000
-0.290288 -0.434920 0.209857 4.000000
-0.290288 -0.330361 0.366856 4.000000
-0.290288 0.251582 0.427018 4.000000
-0.290288 0.343224 -0.301401 4.000000
-0.290288 0.385598 0.301873 4.000000
-0.290288 -0.287294 -0.403452 4.000000
-0.290288 0.408902 0.260470 4.000000
-0.290288 0.292359 0.354712 4.000000
-0.290288 0.456215 0.034412 4.000000
-0.290288 0.357551 0.313207 4.000000
-0.290288 -0.003929 0.491375 4.000000
-0.290288 0.040803 0.458088 4.000000
-0.290288 0.216678 -0.410431 4.000000
-0.290288 -0.451876 -0.188216 4.000000
-0.290288 0.245103 -0.399931 4.000000
-0.290288 -0.438494 0.129106 4.000000
-0.290288 -0.487127 0.011712 4.000000
-0.290288 0.335381 -0.358955 4.000000
-0.290288 0.306099 -0.351454 4.000000
-0.290288 -0.134119 -0.474570 4.000000
-0.290288 0.494001 -0.028103 4.000000
-0.290288 -0.126481 0.465959 4.000000
-0.290288 -0.265575 -0.379722 4.000000
-0.290288 0.268535 -0.403882 4.000000
-0.290288 -0.283610 -0.404773 4.000000
-0.290288 0.309157 -0.347731 4.000000
-0.290288 0.004580 0.491934 4.000000
-0.290288 0.140071 0.451113 4.000000
-0.290288 -0.169433 0.428509 4.000000
-0.290288 -0.433082 0.146107 4.000000
-0.290288 -0.437135 -0.123985 4.000000
-0.290288 0.321298 0.363453 4.000000
-0.290288 -0.237860 -0.384315 4.000000
-0.290288 0.034185 -0.466861 4.000000
-0.290288 0.352899 -0.297844 4.000000
-0.290288 0.360149 0.298287 4.000000
-0.290288 0.313173 0.365406 4.000000
-0.290288 0.037532 -0.498639 4.000000
-0.290288 0.108081 0.445769 4.000000
-0.290288 0.473462 0.142309 4.000000
-0.290288 -0.111693 0.441132 4.000000
-0.290288 -0.475906 0.052201 4.000000
-0.290288 -0.218245 0.386467 4.000000
-0.290288 -0.125899 0.448514 4.000000
-0.290288 0.461039 -0.081666 4.000000
-0.290288 -0.463153 0.159792 4.000000
-0.290288 -0.131217 0.472772 4.000000
-0.290288 0.287926 -0.398275 4.000000
-0.290288 -0.254850 -0.388735 4.000000
-0.290288 -0.410634 -0.175976 4.000000
-0.290288 -0.466880 -0.139122 4.000000
-0.290288 0.300337 0.366414 4.000000
-0.290288 -0.383408 -0.318974 4.000000
-0.290288 -0.287358 -0.352539 4.000000
-0.290288 -0.464176 0.081191 4.000000
-0.290288 0.281919 0.392170 4.000000
-0.290288 -0.210736 0.419674 4.000000
-0.290288 -0.370005 0.279856 4.000000
-0.290288 -0.426049 -0.162792 4.000000
-0.290288 -0.385554 0.236460 4.000000
-0.290288 0.005562 -0.466971 4.000000
-0.290288 -0.399844 -0.198504 4.000000
-0.290288 -0.144675 0.469565 4.000000
-0.290288 -0.476208 -0.043735 4.000000
-0.290288 0.232830 -0.414648 4.000000
-0.290288 -0.281890 -0.391049 4.000000
-0.290288 -0.069650 -0.482407 4.000000
-0.290288 0.089551 0.452449 4.000000
-0.290288 -0.318756 -0.321378 4.000000
-0.290288 -0.175716 -0.453042 4.000000
-0.290288 -0.228810 0.421278 4.000000
-0.290288 0.374489 0.254801 4.000000
-0.290288 -0.400082 0.216298 4.000000
-0.290288 0.329274 0.318824 4.000000
-0.290288 -0.395723 -0.227696 4.000000
-0.290288 -0.338201 0.362758 4.000000
-0.290288 -0.162075 0.422140 4.000000
-0.290288 0.453980 0.173309 4.000000
-0.290288 0.300310 0.370529 4.000000
-0.290288 0.432374 0.185184 4.000000
-0.290288 0.198747 0.427978 4.000000
-0.290288 0.253165 0.412272 4.000000
-0.290288 0.109418 -0.469857 4.000000
-0.290288 -0.080140 0.446541 4.000000
-0.290288 -0.459002 -0.169437 4.000000
-0.290288 -0.384458 0.288761 4.000000
-0.290288 -0.301525 0.380661 4.000000
-0.290288 -0.384307 -0.257274 4.000000
-0.290288 -0.102948 -0.462762 4.000000
-0.290288 0.211861 -0.401579 4.000000
-0.290288 -0.415435 -0.184206 4.000000
-0.290288 -0.235423 -0.426827 4.000000
-0.290288 -0.066313 0.480211 4.000000
-0.290288 -0.394725 -0.256561 4.000000
-0.290288 -0.281634 0.393998 4.000000
-0.290288 -0.057416 0.470271 4.000000
-0.290288 0.073305 0.467259 4.000000
-0.290288 0.456969 -0.152647 4.000000
-0.290288 0.448018 -0.084946 4.000000
-0.290288 -0.264073 -0.398048 4.000000
-0.290288 -0.479036 -0.111636 4.000000
-0.290288 0.250366 -0.420258 4.000000
-0.290288 -0.467061 -0.121976 4.000000
-0.290288 -0.389341 0.297008 4.000000
-0.290288 0.274007 -0.362035 4.000000
-0.290288 0.432050 0.146772 4.000000
-0.290288 -0.421069 -0.255428 4.000000
-0.290288 -0.467962 -0.017686 4.000000
-0.290288 -0.055073 -0.446998 4.000000
-0.290288 -0.445279 0.134715 4.000000
-0.290288 -0.473701 -0.100180 4.000000
-0.290288 0.391376 -0.216393 4.000000
-0.290288 -0.401452 0.238162 4.000000
-0.290288 0.491228 -0.063897 4.000000
-0.290288 -0.480704 -0.056328 4.000000
-0.290288 -0.444051 -0.172804 4.000000
-0.290288 0.399604 0.202138 4.000000
-0.290288 -0.390188 -0.265067 4.000000
-0.290288 0.442026 -0.081395 4.000000
-0.290288 0.207345 0.408176 4.000000
-0.290288 0.032949 -0.491125 4.000000
-0.290288 0.112932 -0.485813 4.000000
-0.290288 -0.400570 -0.266379 4.000000
-0.290288 0.134291 -0.440318 4.000000
-0.290288 -0.259411 -0.371582 4.000000
-0.290288 0.029771 0.461406 4.000000
-0.290288 -0.382252 0.277453 4.000000
-0.290288 -0.428442 0.242166 4.000000
-0.290288 -0.350854 0.283799 4.000000
-0.290288 -0.315998 0.373268 4.000000
-0.290288 0.350809 0.277748 4.000000
-0.290288 -0.331662 -0.333189 4.000000
-0.290288 -0.250384 0.397436 4.000000
-0.290288 -0.097626 -0.464791 4.000000
-0.290288 -0.023149 0.490926 4.000000
-0.290288 0.387029 -0.300980 4.000000
-0.290288 0.470667 -0.143415 4.000000
-0.290288 -0.220622 0.416082 4.000000
-0.290288 -0.135410 0.467473 4.000000
-0.290288 0.145093 0.447809 4.000000
-0.290288 0.301014 -0.383911 4.000000
-0.290288 0.410228 0.231023 4.000000
-0.290288 -0.307711 -0.377383 4.000000
-0.290288 -0.042353 -0.472836 4.000000
-0.290288 0.035261 0.485245 4.000000
-0.290288 0.437973 0.171396 4.000000
-0.290288 0.061127 0.447790 4.000000
-0.290288 -0.037963 -0.452572 4.000000
-0.290288 -0.491783 -0.008691 4.000000
-0.290288 0.091987 0.464363 4.000000
-0.290288 -0.266904 0.381894 4.000000
-0.290288 -0.447707 0.177574 4.000000
-0.290288 0.062366 0.490262 4.000000
-0.290288 0.471135 0.062238 4.000000
-0.290288 -0.178243 -0.412195 4.000000
-0.290288 -0.101676 0.467658 4.000000
-0.290288 0.242015 0.424215 4.000000
-0.290288 0.270325 -0.363191 4.000000
-0.290288 -0.172173 0.448624 4.000000
-0.290288 -0.443266 -0.070250 4.000000
-0.290288 0.246722 -0.431752 4.000000
-0.290288 0.064770 0.483495 4.000000
-0.290288 0.397125 -0.253719 4.000000
-0.290288 -0.254219 0.390867 4.000000
-0.290288 0.066343 0.438569 4.000000
-0.290288 -0.419160 0.209510 4.000000
-0.290288 -0.300013 -0.367075 4.000000
-0.290288 0.031662 -0.452825 4.000000
-0.290288 0.404978 0.262909 4.000000
-0.290288 0.409259 -0.202159 4.000000
-0.290288 -0.460869 -0.180143 4.000000
-0.290288 -0.125012 0.458626 4.000000
-0.290288 -0.380002 0.269283 4.000000
-0.290288 -0.216507 0.421671 4.000000
-0.290288 0.091491 -0.466321 4.000000
-0.290288 0.445474 0.208652 4.000000
-0.290288 -0.375623 -0.291598 4.000000
-0.290288 0.319371 -0.331195 4.000000
-0.290288 0.449889 -0.112181 4.000000
-0.290288 0.456202 -0.199760 4.000000
-0.290288 -0.486914 0.019684 4.000000
-0.290288 -0.131028 0.434613 4.000000
-0.290288 0.473443 0.020501 4.000000
-0.290288 -0.268370 -0.377418 4.000000
-0.290288 -0.408913 -0.231145 4.000000
-0.290288 0.329367 -0.356805 4.000000
-0.290288 0.353500 -0.289029 4.000000
-0.290288 -0.476606 0.106893 4.000000
-0.290288 -0.110001 0.430923 4.000000
-0.290288 -0.444525 0.143791 4.000000
-0.290288 -0.426484 -0.167987 4.000000
-0.290288 0.346182 -0.338750 4.000000
-0.290288 0.336365 0.354642 4.000000
-0.290288 -0.178862 -0.444860 4.000000
-0.290288 -0.030674 0.450913 4.000000
-0.290288 0.471682 -0.087157 4.000000
-0.290288 0.051597 -0.466088 4.000000
-0.290288 -0.329431 0.298367 4.000000
-0.290288 0.060614 0.460662 4.000000
-0.290288 0.401171 0.256811 4.000000
-0.290288 -0.427273 0.121357 4.000000
-0.290288 -0.436705 0.229678 4.000000
-0.290288 0.278220 0.357502 4.000000
-0.290288 0.355699 0.306243 4.000000
-0.290288 -0.430630 -0.201865 4.000000
-0.290288 0.439762 0.158830 4.000000
-0.290288 -0.479355 0.104904 4.000000
-0.290288 -0.297510 0.396592 4.000000
-0.290288 0.452125 0.149706 4.000000
-0.290288 0.198329 -0.420053 4.000000
-0.290288 0.463802 0.084458 4.000000
-0.290288 -0.132346 0.464945 4.000000
-0.290288 0.177782 0.442613 4.000000
-0.290288 0.449484 -0.017109 4.000000
-0.290288 -0.313533 -0.330526 4.000000
-0.290288 0.391710 0.267238 4.000000
-0.290288 0.381983 -0.282950 4.000000
-0.290288 0.438598 0.136752 4.000000
-0.290288 -0.020633 -0.459505 4.000000
-0.290288 0.465440 0.099706 4.000000
-0.290288 -0.199433 0.405986 4.000000
-0.290288 -0.022774 0.443862 4.000000
-0.290288 0.266463 -0.387749 4.000000
-0.290288 0.060596 0.444419 4.000000
-0.290288 0.034147 0.478184 4.000000
-0.290288 0.476630 -0.038512 4.000000
-0.290288 0.262223 0.368340 4.000000
-0.290288 0.455505 0.094684 4.000000
-0.290288 -0.046148 0.457843 4.000000
-0.290288 -0.365004 -0.272218 4.000000
-0.290288 -0.371791 0.317892 4.000000
-0.290288 -0.103379 0.462599 4.000000
-0.290288 -0.277001 0.397648 4.000000
-0.290288 0.055487 -0.464670 4.000000
-0.290288 0.240098 -0.398354 4.000000
-0.290288 -0.221874 -0.388380 4.000000
-0.290288 -0.433251 0.206227 4.000000
-0.290288 0.278644 -0.366712 4.000000
-0.290288 0.309404 0.349591 4.000000
-0.290288 -0.155297 0.439179 4.000000
-0.290288 -0.426124 -0.181023 4.000000
-0.290288 0.158748 0.456482 4.000000
-0.290288 -0.180488 0.449833 4.000000
-0.290288 0.420583 -0.203715 4.000000
-0.290288 -0.464072 -0.118358 4.000000
-0.290288 0.130712 -0.440215 4.000000
-0.290288 0.432773 -0.235704 4.000000
-0.290288 -0.282465 -0.374846 4.000000
-0.290288 0.389699 -0.223845 4.000000
-0.290288 -0.342122 0.335208 4.000000
-0.290288 0.412461 0.193277 4.000000
-0.290288 -0.449720 -0.062922 4.000000
-0.290288 -0.274737 0.377544 4.000000
-0.290288 -0.352445 0.305398 4.000000
-0.290288 0.193924 -0.412903 4.000000
-0.290288 0.220140 -0.444474 4.000000
-0.290288 -0.272746 -0.385685 4.000000
-0.290288 -0.392041 -0.271910 4.000000
-0.290288 0.420675 0.212929 4.000000
-0.290288 -0.385138 -0.296748 4.000000
-0.290288 0.452291 -0.115103 4.000000
-0.290288 0.273241 -0.355206 4.000000
-0.290288 -0.324754 -0.375914 4.000000
-0.290288 -0.278023 0.356414 4.000000
-0.290288 -0.209263 0.429965 4.000000
-0.290288 0.388721 -0.278342 4.000000
-0.290288 -0.207876 -0.396682 4.000000
-0.290288 0.019394 -0.485184 4.000000
-0.290288 -0.177292 -0.460366 4.000000
-0.290288 -0.256554 0.364757 4.000000
-0.290288 0.414340 0.229214 4.000000
-0.290288 0.073122 0.489939 4.000000
-0.290288 -0.454933 0.047337 4.000000
-0.290288 0.441833 -0.152251 4.000000
-0.290288 -0.346708 -0.355739 4.000000
-0.290288 0.273147 0.361954 4.000000
-0.290288 0.417792 -0.262326 4.000000
-0.290288 -0.289067 -0.364878 4.000000
-0.290288 0.210944 0.433036 4.000000
-0.290288 -0.343176 -0.301207 4.000000
-0.290288 0.283084 0.361528 4.000000
-0.290288 -0.183395 -0.462715 4.000000
-0.290288 0.372812 -0.324653 4.000000
-0.290288 0.236433 0.379859 4.000000
-0.290288 0.339350 0.353256 4.000000
-0.290288 -0.446312 0.018276 4.000000
-0.290288 0.221292 -0.389191 4.000000
-0.290288 -0.300919 0.350515 4.000000
-0.290288 0.482126 -0.010623 4.000000
-0.290288 0.287334 0.397153 4.000000
-0.290288 -0.437052 0.116865 4.000000
-0.290288 -0.414568 -0.205435 4.000000
-0.290288 -0.312933 -0.366895 4.000000
-0.290288 0.306974 -0.325842 4.000000
-0.290288 0.476303 0.006237 4.000000
-0.290288 0.471999 -0.137417 4.000000
-0.290288 -0.404504 -0.196737 4.000000
-0.290288 -0.438065 -0.212171 4.000000
-0.290288 -0.305469 0.326483 4.000000
-0.290288 -0.371395 -0.276054 4.000000
-0.290288 -0.168402 0.437942 4.000000
-0.290288 -0.482893 -0.040929 4.000000
-0.290288 0.342166 0.351078 4.000000
-0.290288 -0.352854 -0.318528 4.000000
-0.290288 0.428145 -0.190824 4.000000
-0.290288 -0.443467 -0.077021 4.000000
-0.290288 0.288106 -0.363006 4.000000
-0.290288 0.473800 0.013147 4.000000
-0.290288 -0.465643 -0.141978 4.000000
-0.290288 0.487410 0.052500 4.000000
-0.290288 0.409870 -0.180057 4.000000
-0.290288 0.391971 -0.286126 4.000000
-0.290288 0.425356 0.150013 4.000000
-0.290288 0.266839 0.364309 4.000000
-0.290288 0.438990 -0.080038 4.000000
-0.290288 0.444269 -0.172114 4.000000
-0.290288 -0.008136 -0.494036 4.000000
-0.290288 -0.406299 0.265380 4.000000
-0.290288 -0.209346 -0.408544 4.000000
-0.290288 -0.440066 -0.106608 4.000000
-0.290288 0.041523 0.465054 4.000000
-0.290288 0.233937 -0.391893 4.000000
-0.290288 0.443880 -0.110407 4.000000
-0.290288 -0.331480 -0.317105 4.000000
-0.290288 -0.388360 -0.254808 4.000000
-0.290288 0.283295 0.378978 4.000000
-0.290288 0.436435 0.221145 4.000000
-0.290288 0.136911 -0.475601 4.000000
