-0.237011 -0.373196 0.326962 2.000000
0.054489 0.055170 0.492754 2.000000
0.245743 -0.406882 0.284134 2.000000
0.153513 -0.136650 -0.480927 2.000000
-0.008629 -0.100843 0.485338 2.000000
-0.212125 0.405224 -0.292322 2.000000
-0.036861 -0.127153 0.479143 2.000000
-0.228933 -0.495698 -0.043635 2.000000
-0.014463 0.274149 -0.418189 2.000000
-0.228926 -0.269400 -0.420802 2.000000
0.265640 -0.435417 -0.242951 2.000000
0.266246 -0.325865 0.373892 2.000000
0.098477 -0.445986 -0.222588 2.000000
0.066629 -0.230923 0.438890 2.000000
0.233182 -0.411297 -0.282179 2.000000
-0.055893 0.275566 -0.417253 2.000000
0.022805 -0.076761 -0.494137 2.000000
-0.165943 -0.420684 -0.267961 2.000000
0.221099 -0.335852 -0.369340 2.000000
-0.098525 0.498565 -0.004058 2.000000
0.261770 0.350170 -0.356708 2.000000
-0.171780 0.058508 -0.496908 2.000000
0.049449 -0.473792 -0.154158 2.000000
0.064662 -0.467342 -0.172858 2.000000
0.103823 0.406313 -0.290766 2.000000
0.175038 -0.444106 0.222170 2.000000
-0.039741 -0.495857 -0.041683 2.000000
0.044947 -0.420693 -0.267947 2.000000
-0.144360 -0.164067 0.467782 2.000000
-0.055989 0.421967 0.263216 2.000000
0.040990 -0.330086 0.370270 2.000000
0.049170 0.463153 -0.186590 2.000000
-0.272674 0.408297 0.283923 2.000000
0.028357 -0.204132 0.451985 2.000000
-0.207726 0.497862 0.025222 2.000000
-0.035691 -0.472803 -0.157027 2.000000
-0.259337 -0.311054 0.386517 2.000000
-0.087600 0.164805 -0.472235 2.000000
-0.132092 -0.408063 -0.287078 2.000000
0.167892 -0.336999 0.364179 2.000000
0.247618 -0.356478 0.345215 2.000000
-0.124744 -0.285612 -0.409701 2.000000
-0.121839 -0.280325 0.409082 2.000000
0.265331 -0.486675 0.101417 2.000000
0.233106 0.155362 -0.475492 2.000000
-0.098693 -0.329240 0.370997 2.000000
0.205071 0.047102 -0.497972 2.000000
-0.222141 -0.481305 0.124011 2.000000
0.071000 -0.442575 -0.229511 2.000000
0.202753 -0.028054 0.495079 2.000000
0.151395 0.487290 -0.107493 2.000000
-0.254120 0.374379 -0.331141 2.000000
-0.205556 -0.493198 -0.067231 2.000000
-0.074887 -0.270402 0.415632 2.000000
0.220817 0.132996 0.478001 2.000000
-0.216990 -0.137543 -0.480654 2.000000
0.250900 -0.354513 -0.351327 2.000000
-0.058161 -0.345019 0.356372 2.000000
0.082013 0.015263 0.495600 2.000000
-0.156364 0.373464 -0.332151 2.000000
-0.140395 -0.497272 -0.015216 2.000000
-0.039734 -0.314824 0.383366 2.000000
-0.289409 -0.403653 0.288750 4.000000
0.006010 0.033903 0.494764 2.000000
-0.072107 -0.278615 -0.414594 2.000000
-0.142913 0.019175 -0.499859 2.000000
-0.232957 -0.042770 -0.498337 2.000000
-0.121370 -0.472462 -0.158013 2.000000
0.172310 -0.494679 0.050068 2.000000
-0.258009 0.451723 -0.212909 2.000000
-0.078720 0.379631 0.320647 2.000000
0.023050 0.392067 -0.309813 2.000000
-0.056199 -0.430994 -0.250663 2.000000
0.061387 0.478834 0.136349 2.000000
0.129398 -0.196684 -0.459461 2.000000
0.007942 -0.476892 -0.144026 2.000000
0.045620 -0.450504 0.208989 2.000000
0.189717 -0.023004 0.495419 2.000000
-0.288947 0.467419 -0.175221 4.000000
-0.023907 0.084566 -0.493138 2.000000
0.227410 -0.267949 0.417252 2.000000
-0.075599 -0.054109 0.492968 2.000000
-0.250054 0.022334 0.495283 2.000000
-0.184590 0.453636 0.204791 2.000000
-0.262163 -0.245369 0.430824 2.000000
0.261922 -0.446519 -0.221508 2.000000
0.169782 0.248724 -0.433840 2.000000
-0.013102 0.257411 -0.428859 2.000000
0.044390 -0.398319 0.296333 2.000000
0.154425 0.180659 0.462065 2.000000
0.152841 0.128833 0.479134 2.000000
-0.073020 0.485062 0.113331 2.000000
-0.062342 0.410794 -0.284359 2.000000
-0.126781 0.358968 -0.348143 2.000000
-0.103126 -0.386856 -0.315385 2.000000
0.276185 0.338208 0.363782 2.000000
-0.008652 -0.474480 0.147301 2.000000
-0.170866 -0.434649 -0.244289 2.000000
-0.125438 -0.069246 -0.495430 2.000000
-0.005028 0.497650 -0.031189 2.000000
0.209951 -0.450545 0.208896 2.000000
0.017065 -0.437926 0.233907 2.000000
0.157040 0.090669 0.487565 2.000000
0.037584 -0.465954 0.172041 2.000000
-0.223175 -0.193565 0.456390 2.000000
0.250526 -0.276896 0.411345 2.000000
-0.205989 0.482120 0.124447 2.000000
-0.218318 0.355479 0.347034 2.000000
0.285321 -0.331690 0.368894 1.000000
0.149485 0.319159 0.380599 2.000000
-0.079526 0.392784 0.304647 2.000000
0.177553 0.353826 0.348732 2.000000
0.124311 -0.438239 -0.238029 2.000000
0.164769 -0.255234 -0.429438 2.000000
-0.129183 0.482951 -0.125753 2.000000
-0.111457 0.397239 0.298742 2.000000
-0.122245 0.411943 -0.282715 2.000000
-0.132478 0.264705 0.419936 2.000000
-0.114109 -0.395774 -0.303678 2.000000
-0.105467 0.282959 0.407920 2.000000
-0.075535 -0.040779 -0.498552 2.000000
0.067441 0.420166 0.265944 2.000000
-0.121764 -0.067489 0.491107 2.000000
0.180097 -0.489001 0.089307 2.000000
0.227595 -0.473426 0.150754 2.000000
0.018117 -0.460000 -0.191588 2.000000
-0.069385 -0.496644 0.026411 2.000000
-0.135480 -0.065857 -0.495842 2.000000
0.145184 -0.306245 -0.394432 2.000000
0.270317 0.216968 -0.450625 2.000000
0.003928 -0.356254 -0.349538 2.000000
-0.216660 0.444632 -0.227471 2.000000
0.200520 0.468338 -0.172772 2.000000
0.155283 0.492947 -0.076693 2.000000
-0.283246 0.363606 0.338686 4.000000
-0.219795 0.012317 -0.499983 2.000000
0.184428 0.188644 -0.463222 2.000000
0.179530 -0.349167 -0.356818 2.000000
0.282173 -0.363750 0.337391 1.000000
-0.157608 -0.482508 0.118951 2.000000
0.126708 0.481531 0.126582 2.000000
-0.201823 0.296164 0.398684 2.000000
-0.136998 -0.412270 0.276429 2.000000
0.245296 0.439017 -0.238135 2.000000
0.079441 0.421977 -0.267432 2.000000
-0.246681 -0.281420 -0.412632 2.000000
-0.001227 0.218330 0.445854 2.000000
0.229567 0.469083 -0.170787 2.000000
0.064834 -0.050906 -0.497457 2.000000
-0.043789 0.149279 -0.477590 2.000000
0.245447 -0.419046 0.266205 2.000000
0.186328 -0.319571 -0.383807 2.000000
-0.020797 -0.486904 0.100451 2.000000
0.010761 -0.428685 0.250394 2.000000
-0.155006 -0.497373 -0.009574 2.000000
-0.117431 -0.326289 -0.378002 2.000000
-0.289879 -0.281633 -0.412483 4.000000
-0.124813 -0.218165 -0.449780 2.000000
0.267913 0.489634 0.091504 2.000000
-0.098364 0.319395 -0.384677 2.000000
-0.205554 0.444811 -0.227131 2.000000
0.199885 0.142337 0.475151 2.000000
-0.091360 0.100170 -0.490046 2.000000
0.268642 0.396246 0.300058 2.000000
-0.037999 0.378966 -0.326076 2.000000
0.215073 0.493929 -0.070846 2.000000
0.136666 -0.164809 0.467526 2.000000
0.174051 -0.469537 0.162492 2.000000
-0.173866 -0.398824 -0.299636 2.000000
-0.012958 0.492614 -0.078628 2.000000
-0.205692 -0.162711 -0.472769 2.000000
0.111608 -0.475742 -0.148193 2.000000
-0.225516 0.449266 0.213658 2.000000
-0.230078 0.212127 -0.453010 2.000000
-0.082175 0.270541 0.416378 2.000000
-0.221015 -0.479502 -0.134571 2.000000
0.055197 0.219560 -0.449348 2.000000
0.098968 -0.142389 -0.479176 2.000000
0.206674 -0.497505 -0.002234 2.000000
-0.180037 -0.305105 0.391005 2.000000
-0.224207 -0.467780 -0.171588 2.000000
0.256318 0.240184 -0.438738 2.000000
0.055860 0.162800 -0.472926 2.000000
-0.038099 -0.253690 -0.430380 2.000000
0.147055 0.497262 -0.039845 2.000000
0.285133 0.483658 -0.122778 1.000000
-0.041661 0.422276 -0.266942 2.000000
0.120717 -0.257167 -0.428260 2.000000
-0.186977 -0.081993 -0.493236 2.000000
-0.038857 0.427596 0.254022 2.000000
-0.071736 -0.435287 0.238920 2.000000
-0.132086 -0.489865 -0.089865 2.000000
-0.030247 0.193048 -0.461386 2.000000
-0.021467 -0.139914 -0.479931 2.000000
0.022097 -0.496745 -0.030723 2.000000
-0.196070 0.095510 0.486732 2.000000
0.151993 -0.396014 0.299225 2.000000
0.260814 0.016034 0.495566 2.000000
0.070475 -0.107358 0.483973 2.000000
-0.163895 0.064897 0.491703 2.000000
0.258717 0.490286 -0.092149 2.000000
0.090116 0.258867 -0.428024 2.000000
0.045712 -0.259031 -0.427123 2.000000
-0.003865 -0.424361 -0.262229 2.000000
0.243842 0.236562 0.436280 2.000000
-0.053468 0.222361 -0.447968 2.000000
0.170657 -0.371050 0.329331 2.000000
-0.257483 -0.377565 -0.326213 2.000000
0.109291 0.260317 0.422611 2.000000
0.030100 -0.055489 -0.496962 2.000000
0.226792 0.331394 0.369953 2.000000
0.118320 0.023180 0.495245 2.000000
-0.131037 0.077228 -0.494200 2.000000
0.032541 0.052127 0.493083 2.000000
0.035459 0.216845 0.446521 2.000000
-0.193277 -0.313872 0.384183 2.000000
0.037005 0.415741 0.272646 2.000000
0.258864 0.281495 -0.413339 2.000000
-0.214196 0.416678 -0.275945 2.000000
0.023851 -0.428987 0.249899 2.000000
0.017075 0.192923 0.457256 2.000000
0.087669 0.123526 0.480395 2.000000
-0.256762 0.211276 -0.453429 2.000000
-0.166901 0.312157 -0.390811 2.000000
-0.286442 0.224113 -0.447104 4.000000
0.026025 0.078443 0.489670 2.000000
-0.017443 0.207964 -0.455062 2.000000
-0.047256 0.487227 0.102997 2.000000
-0.062853 0.254183 -0.430710 2.000000
0.053829 -0.229969 0.439360 2.000000
0.223778 0.274375 -0.418039 2.000000
0.150043 -0.255717 0.424889 2.000000
-0.158469 -0.464646 -0.180443 2.000000
0.185635 -0.313164 0.384791 2.000000
0.245993 -0.333083 0.367699 2.000000
-0.252672 -0.312187 -0.389694 2.000000
-0.132661 -0.492852 -0.069622 2.000000
-0.070811 0.130842 0.478657 2.000000
0.129809 0.442187 0.228025 2.000000
-0.036010 0.255973 -0.429683 2.000000
-0.150857 0.205040 0.451818 2.000000
-0.014623 0.066200 -0.495796 2.000000
-0.003842 -0.246538 -0.434739 2.000000
0.078405 -0.495200 0.045248 2.000000
0.171641 0.182372 -0.465837 2.000000
0.197627 0.081321 -0.493608 2.000000
-0.174256 0.139534 -0.480362 2.000000
0.085094 -0.229326 0.439677 2.000000
-0.180248 -0.497026 0.017886 2.000000
0.038634 0.249457 -0.433420 2.000000
-0.102630 0.496755 0.038893 2.000000
0.057347 0.494842 -0.062391 2.000000
0.120723 0.438728 0.234609 2.000000
0.048489 -0.077313 0.489686 2.000000
0.099170 -0.421652 -0.266494 2.000000
0.015584 -0.095765 0.486401 2.000000
-0.201392 0.431855 0.246595 2.000000
0.089354 -0.311804 0.385951 2.000000
0.241505 0.497152 0.033994 2.000000
0.177967 -0.116066 -0.486278 2.000000
-0.017302 0.316437 -0.387215 2.000000
-0.156512 -0.478474 -0.138298 2.000000
0.236028 -0.217334 -0.450195 2.000000
-0.266497 0.487331 0.102501 2.000000
0.011128 0.394554 -0.306695 2.000000
-0.213709 -0.458230 0.191772 2.000000
-0.290223 0.125432 -0.484255 4.000000
-0.235828 -0.262458 0.420877 2.000000
-0.038897 -0.371986 0.328298 2.000000
0.160462 0.373138 0.328214 2.000000
-0.290106 -0.213094 -0.452098 4.000000
-0.157033 0.383493 -0.320567 2.000000
0.045649 0.402047 0.292370 2.000000
0.202466 0.036096 -0.498863 2.000000
0.286158 -0.333369 -0.371589 1.000000
-0.213879 0.364431 0.337839 2.000000
0.209206 -0.496886 -0.028982 2.000000
-0.261124 0.341686 -0.364967 2.000000
0.039923 0.134876 0.477427 2.000000
-0.195804 0.155499 -0.475445 2.000000
0.111350 -0.463528 0.178506 2.000000
0.085179 0.034773 0.494725 2.000000
-0.062660 0.437664 0.236465 2.000000
-0.033157 0.407614 0.284957 2.000000
0.235704 -0.484418 0.110911 2.000000
0.263230 0.351946 0.350662 2.000000
0.192179 0.367267 -0.338993 2.000000
-0.152495 0.002606 -0.500158 2.000000
-0.247458 0.497682 0.027445 2.000000
-0.243354 0.468410 -0.172581 2.000000
0.063633 0.134786 0.477455 2.000000
-0.049052 0.002325 -0.500163 2.000000
0.110254 -0.460157 -0.191211 2.000000
-0.094612 0.212931 -0.452614 2.000000
-0.080478 -0.495788 -0.042526 2.000000
-0.197255 0.454478 -0.206769 2.000000
0.139790 0.173453 -0.469251 2.000000
0.157282 -0.468938 -0.168231 2.000000
0.257301 -0.219146 0.444693 2.000000
0.090886 0.460246 -0.193917 2.000000
-0.239429 0.488415 0.097326 2.000000
0.167669 -0.300298 0.394631 2.000000
0.141522 -0.228578 -0.444297 2.000000
0.220665 0.059206 -0.496807 2.000000
-0.130296 0.242535 -0.437389 2.000000
0.224439 -0.085739 -0.492591 2.000000
-0.269909 0.383906 0.315665 2.000000
0.119345 -0.319025 0.379762 2.000000
-0.046417 0.459436 -0.195721 2.000000
-0.060764 -0.383937 0.314371 2.000000
0.174371 -0.419409 -0.269892 2.000000
-0.058671 -0.496362 0.032694 2.000000
-0.121241 -0.299124 0.395517 2.000000
0.133553 0.015166 0.495605 2.000000
0.029196 0.019808 -0.499848 2.000000
0.061228 0.468617 -0.172029 2.000000
0.174710 -0.385557 -0.316899 2.000000
-0.207529 0.358805 -0.348301 2.000000
-0.287805 0.495090 -0.060097 4.000000
0.278832 -0.221677 0.443446 2.000000
0.147839 0.041800 -0.498401 2.000000
-0.056209 -0.329454 -0.375135 2.000000
0.032608 -0.495753 -0.042962 2.000000
-0.160721 0.111868 0.483166 2.000000
-0.048371 0.261028 0.422177 2.000000
0.132692 0.460900 -0.192459 2.000000
-0.048211 -0.496152 0.036436 2.000000
-0.052592 0.373640 0.327629 2.000000
0.210108 -0.472611 0.153425 2.000000
0.264483 -0.344970 0.356419 2.000000
-0.121740 0.485398 -0.115455 2.000000
-0.270730 0.273112 0.414807 2.000000
-0.089948 -0.458681 -0.194752 2.000000
-0.286524 -0.477374 -0.142282 4.000000
-0.113654 -0.240149 -0.438205 2.000000
-0.186240 -0.214489 0.446988 2.000000
0.204409 -0.488073 0.094700 2.000000
0.213504 0.490244 -0.092396 2.000000
-0.109338 0.498454 0.002089 2.000000
0.200016 -0.473216 -0.155828 2.000000
0.022488 -0.460068 0.187675 2.000000
-0.250480 -0.323512 -0.380517 2.000000
-0.199558 -0.490876 -0.083280 2.000000
0.037665 -0.246420 0.430221 2.000000
0.006724 -0.489328 -0.092429 2.000000
0.111756 0.372537 0.328915 2.000000
0.123885 -0.217381 0.445563 2.000000
0.284732 0.488432 -0.102686 1.000000
0.011896 -0.131513 0.477940 2.000000
-0.130354 -0.094404 0.486686 2.000000
0.078714 -0.314974 0.383238 2.000000
0.135379 -0.087405 -0.492304 2.000000
0.071333 0.457359 0.196027 2.000000
-0.167599 -0.148336 0.473209 2.000000
-0.065629 0.356832 -0.350222 2.000000
-0.145283 -0.222127 -0.447694 2.000000
-0.186953 0.481381 -0.132358 2.000000
-0.084309 -0.422998 0.259722 2.000000
0.197117 0.378052 0.322487 2.000000
-0.234483 0.221543 -0.448370 2.000000
0.046284 0.460139 0.189358 2.000000
0.179032 -0.223572 0.442512 2.000000
-0.273333 -0.458781 0.190542 2.000000
-0.190056 0.318189 0.381372 2.000000
-0.044925 -0.348780 0.352710 2.000000
0.021644 -0.170173 0.465676 2.000000
0.258615 0.272959 0.414904 2.000000
0.237971 0.354543 -0.352451 2.000000
0.194320 0.481414 0.127004 2.000000
0.188963 0.370093 0.331762 2.000000
-0.017514 -0.497378 -0.009324 2.000000
0.206596 -0.377180 -0.326663 2.000000
0.168086 0.494287 0.062438 2.000000
0.283038 0.400797 0.294026 1.000000
0.112682 -0.404116 -0.292622 2.000000
0.045203 -0.365060 -0.340493 2.000000
0.266457 -0.493946 0.056849 2.000000
0.237561 -0.177520 -0.467212 2.000000
-0.175238 -0.463338 0.179014 2.000000
0.172481 -0.004052 0.495760 2.000000
-0.002614 0.208675 0.450187 2.000000
0.153083 0.486659 0.105708 2.000000
-0.289946 -0.349113 0.352386 4.000000
0.139949 0.203814 -0.456898 2.000000
-0.115176 -0.291440 -0.405625 2.000000
0.004538 -0.436279 0.237036 2.000000
-0.164043 -0.091684 0.487256 2.000000
-0.095015 0.467088 0.172212 2.000000
-0.139436 -0.093122 -0.491320 2.000000
0.020580 0.281252 0.409114 2.000000
-0.051766 0.481196 -0.133001 2.000000
-0.124099 -0.341361 0.359933 2.000000
0.192703 0.139116 -0.480477 2.000000
0.199377 0.478974 0.135845 2.000000
0.166351 -0.491079 -0.081880 2.000000
-0.106801 0.232050 0.438655 2.000000
0.263670 0.460747 0.187899 2.000000
0.149072 -0.414523 -0.277293 2.000000
-0.229898 -0.296742 -0.401917 2.000000
0.191802 -0.460715 0.186003 2.000000
0.112574 -0.217967 -0.449884 2.000000
0.273615 0.202631 0.452899 2.000000
0.214467 0.477896 0.139748 2.000000
0.041328 -0.099158 0.485691 2.000000
-0.071292 -0.097816 0.485971 2.000000
0.091893 0.399369 -0.300656 2.000000
-0.124010 0.389277 -0.313312 2.000000
-0.252865 0.472623 0.156166 2.000000
-0.019978 0.446343 0.219591 2.000000
-0.143789 0.409472 -0.286248 2.000000
-0.018225 -0.321905 -0.381945 2.000000
-0.166311 0.186080 -0.464292 2.000000
0.016488 -0.473395 -0.155310 2.000000
0.008352 -0.251340 0.427400 2.000000
0.096385 0.002286 -0.500164 2.000000
-0.119233 0.362392 0.339932 2.000000
-0.255112 0.231301 -0.443562 2.000000
-0.237803 0.230321 0.439566 2.000000
-0.060912 0.297197 0.397962 2.000000
-0.053701 0.482456 0.123231 2.000000
0.149510 -0.127393 0.479077 2.000000
-0.034484 0.048332 0.493493 2.000000
0.040209 0.315601 0.383436 2.000000
0.102564 0.498583 -0.005028 2.000000
-0.185423 0.203530 -0.457016 2.000000
-0.013352 0.479565 0.133702 2.000000
-0.094899 -0.451361 0.207078 2.000000
-0.088569 0.366984 -0.339305 2.000000
0.096099 -0.472733 -0.157229 2.000000
-0.182042 -0.486647 0.101535 2.000000
-0.162657 0.365568 -0.340869 2.000000
0.188351 0.375335 -0.330085 2.000000
0.126849 -0.137443 0.476303 2.000000
-0.208462 0.345873 0.356839 2.000000
0.144101 0.481574 0.126426 2.000000
-0.176150 -0.219911 0.444316 2.000000
0.023742 0.489160 -0.098691 2.000000
0.173937 0.205097 -0.456363 2.000000
0.038360 -0.009338 0.495665 2.000000
0.006292 -0.452052 0.205539 2.000000
0.196959 -0.323223 -0.380779 2.000000
0.067696 0.461661 -0.190567 2.000000
-0.050128 -0.482555 0.118751 2.000000
-0.155868 0.230671 -0.443873 2.000000
-0.068965 -0.178726 -0.466759 2.000000
-0.241008 0.384932 -0.318762 2.000000
-0.198786 0.067782 -0.495567 2.000000
-0.040339 0.495947 0.048865 2.000000
-0.028727 -0.057785 0.492511 2.000000
-0.256053 0.268619 0.417550 2.000000
-0.110478 -0.452245 -0.209887 2.000000
-0.133280 -0.273702 0.413454 2.000000
-0.180554 0.278585 0.410979 2.000000
-0.023635 -0.438576 0.232672 2.000000
-0.238903 -0.274052 -0.417786 2.000000
-0.120686 -0.405265 -0.291099 2.000000
0.268178 0.319293 -0.384764 2.000000
0.194407 -0.477185 -0.142966 2.000000
0.255870 0.185296 0.460325 2.000000
0.016642 0.083014 -0.493363 2.000000
0.244308 0.187166 -0.463839 2.000000
0.111966 -0.278171 0.410504 2.000000
-0.125751 -0.368839 -0.336383 2.000000
0.246872 0.498598 -0.005883 2.000000
0.121253 0.485822 0.109700 2.000000
0.128420 0.271174 0.415992 2.000000
-0.075956 -0.474280 0.147956 2.000000
-0.288289 0.473102 0.154777 4.000000
-0.096039 -0.350721 -0.355221 2.000000
0.128509 0.433941 0.242957 2.000000
0.264166 -0.014963 -0.499921 2.000000
-0.069752 -0.341339 -0.364371 2.000000
0.111881 0.491479 0.081841 2.000000
-0.042631 0.369497 0.332457 2.000000
0.171557 -0.440331 -0.234066 2.000000
0.089414 -0.398806 0.295680 2.000000
0.085238 0.089182 0.487821 2.000000
0.218768 -0.484070 -0.117527 2.000000
-0.208991 -0.429967 -0.252453 2.000000
-0.139585 -0.472760 0.152938 2.000000
0.200562 -0.489754 0.084937 2.000000
-0.278375 0.131219 0.478543 2.000000
-0.247180 0.030928 -0.499282 2.000000
0.225815 -0.124430 -0.484290 2.000000
0.144107 -0.000296 -0.500210 2.000000
-0.142535 0.031577 0.494869 2.000000
-0.081991 -0.172421 0.464900 2.000000
-0.108206 0.304821 0.392031 2.000000
-0.114257 -0.496265 0.034861 2.000000
-0.015987 -0.486011 -0.108260 2.000000
0.056910 0.461779 0.185425 2.000000
0.232172 0.086007 0.488368 2.000000
-0.025075 0.329408 0.371752 2.000000
0.159289 -0.018440 -0.499765 2.000000
0.153236 -0.172681 -0.469028 2.000000
-0.081775 -0.286540 -0.409052 2.000000
-0.146464 -0.274606 0.412857 2.000000
-0.186512 0.134451 0.477557 2.000000
-0.208087 0.377893 -0.327261 2.000000
-0.149364 0.288696 0.403908 2.000000
-0.066622 -0.495268 -0.048949 2.000000
-0.156381 -0.147875 0.473368 2.000000
-0.063398 -0.208111 0.450131 2.000000
0.052137 0.454000 -0.207834 2.000000
-0.108479 0.474667 -0.154401 2.000000
-0.061559 -0.476871 -0.144105 2.000000
0.085824 -0.324761 -0.379386 2.000000
0.237546 -0.143396 0.474660 2.000000
0.215880 0.174064 0.464540 2.000000
0.004138 -0.431263 -0.250193 2.000000
-0.074685 -0.488564 0.091849 2.000000
0.088415 0.490260 -0.092300 2.000000
0.252773 0.057904 -0.496996 2.000000
0.252488 0.250153 -0.433021 2.000000
0.131595 0.320486 0.379540 2.000000
-0.024381 0.415768 0.272606 2.000000
0.273670 -0.078476 -0.493841 1.000000
0.032586 -0.339571 0.361676 2.000000
0.221540 0.168845 -0.470841 2.000000
-0.099622 -0.193585 0.456382 2.000000
0.115397 -0.482598 0.118573 2.000000
-0.241639 0.437080 -0.241813 2.000000
-0.289969 -0.497326 -0.012198 4.000000
-0.124437 0.387307 0.311701 2.000000
-0.200320 -0.435432 0.238643 2.000000
-0.157840 -0.187695 -0.463394 2.000000
0.256169 -0.479387 0.131219 2.000000
0.196197 0.281271 0.409101 2.000000
-0.266659 -0.040485 -0.498584 2.000000
-0.251310 -0.478163 -0.139421 2.000000
-0.261399 0.068129 -0.495516 2.000000
0.097290 -0.138877 0.475907 2.000000
0.081191 -0.143847 0.474535 2.000000
0.239564 0.482790 -0.126430 2.000000
-0.255527 -0.144533 0.474346 2.000000
0.016469 0.219641 -0.449308 2.000000
0.109382 0.116380 -0.486651 2.000000
-0.172953 0.076085 0.490076 2.000000
0.062149 0.060267 -0.496654 2.000000
0.060233 0.069240 0.491233 2.000000
-0.285704 -0.467058 0.169101 4.000000
0.258650 -0.485578 -0.110330 2.000000
0.048567 0.060325 -0.496646 2.000000
0.052264 0.129502 0.478975 2.000000
-0.218445 -0.076387 -0.494201 2.000000
-0.013037 -0.148548 -0.477296 2.000000
0.244507 0.180527 0.462115 2.000000
-0.054220 -0.363763 -0.341825 2.000000
0.068472 0.491831 0.079412 2.000000
0.242375 0.064361 -0.496062 2.000000
0.249092 0.107731 -0.488462 2.000000
0.282273 -0.497370 -0.009727 1.000000
-0.018688 -0.445586 -0.223401 2.000000
0.019367 -0.294521 -0.403470 2.000000
-0.260519 -0.401734 -0.295778 2.000000
0.084926 -0.374896 -0.329325 2.000000
-0.008650 -0.350792 0.350752 2.000000
-0.176635 0.469028 -0.170935 2.000000
-0.161721 0.022657 -0.499797 2.000000
-0.246413 -0.496875 0.021265 2.000000
-0.236537 -0.449675 0.210836 2.000000
0.106657 0.492880 0.072158 2.000000
-0.255819 -0.415657 0.271587 2.000000
0.066601 0.394773 0.302011 2.000000
0.209851 -0.308045 -0.392997 2.000000
-0.201433 -0.497400 0.009548 2.000000
0.058589 0.418048 -0.273876 2.000000
-0.227004 -0.494660 -0.056455 2.000000
-0.016753 -0.384660 -0.317945 2.000000
-0.125829 0.019888 0.495393 2.000000
0.276489 -0.188600 -0.463054 1.000000
-0.241603 0.212612 -0.452771 2.000000
0.078858 0.208552 -0.454772 2.000000
0.281931 0.418386 -0.273323 1.000000
0.218752 -0.470928 0.158787 2.000000
0.021565 -0.326470 0.373373 2.000000
0.196084 0.496979 -0.042616 2.000000
-0.221005 -0.390025 0.306735 2.000000
0.053602 -0.370458 -0.334497 2.000000
-0.030526 0.146542 -0.478427 2.000000
-0.088198 -0.376614 -0.327322 2.000000
-0.266137 0.290464 0.402671 2.000000
-0.056923 0.490957 -0.088253 2.000000
-0.113983 0.268130 -0.422162 2.000000
0.237761 -0.356511 -0.349274 2.000000
0.236747 -0.403389 -0.293586 2.000000
-0.045425 -0.416208 -0.274741 2.000000
-0.085151 0.487815 0.100187 2.000000
-0.107688 0.465615 -0.180030 2.000000
0.090641 -0.476530 -0.145338 2.000000
-0.148523 -0.494549 -0.057820 2.000000
0.240888 0.245955 -0.435428 2.000000
-0.133763 -0.280864 -0.413022 2.000000
-0.257163 -0.366677 0.334159 2.000000
0.084230 -0.478951 -0.136569 2.000000
0.150863 -0.491626 -0.078098 2.000000
0.181549 0.019297 0.495419 2.000000
0.123052 0.375838 0.325067 2.000000
-0.184368 -0.392599 -0.307887 2.000000
0.006813 0.072656 0.490666 2.000000
-0.282490 0.213337 0.448095 4.000000
0.052296 0.072798 -0.494841 2.000000
-0.094916 0.248081 0.430070 2.000000
-0.079964 -0.428786 0.250228 2.000000
0.069441 0.017279 0.495510 2.000000
0.070854 0.143209 0.474885 2.000000
0.000695 -0.497567 0.001157 2.000000
0.139112 -0.335544 0.365587 2.000000
-0.127197 0.486415 0.106870 2.000000
0.218162 -0.441009 0.228052 2.000000
0.259667 -0.003093 -0.500261 2.000000
0.037320 -0.406082 -0.290015 2.000000
-0.168546 -0.208696 -0.454071 2.000000
-0.226007 -0.222012 0.443281 2.000000
0.219096 -0.223867 0.442367 2.000000
-0.106135 0.439533 -0.237155 2.000000
0.210510 -0.204698 0.451749 2.000000
0.166809 -0.076744 -0.494140 2.000000
-0.261370 0.321411 -0.382947 2.000000
-0.200888 0.043815 0.493981 2.000000
0.031774 0.440058 -0.236157 2.000000
-0.237007 -0.496810 -0.029920 2.000000
0.052600 0.188745 -0.463180 2.000000
-0.071292 -0.157539 0.470034 2.000000
-0.241305 0.039413 -0.498595 2.000000
-0.248632 0.402795 0.291377 2.000000
-0.169833 0.243820 0.432458 2.000000
0.254334 0.383165 0.316528 2.000000
0.050883 -0.407976 -0.287210 2.000000
-0.231573 0.335670 -0.370711 2.000000
0.046716 0.131316 -0.482631 2.000000
-0.287690 0.456643 -0.201946 4.000000
0.139688 -0.495208 0.045176 2.000000
0.173348 0.333556 -0.372526 2.000000
0.081680 0.085634 -0.492984 2.000000
-0.113315 0.455318 -0.204899 2.000000
0.084563 -0.436471 0.236671 2.000000
0.184621 0.498442 -0.013527 2.000000
0.059358 -0.183876 0.460430 2.000000
0.152974 0.074042 -0.494661 2.000000
-0.118922 0.392800 0.304625 2.000000
-0.061391 0.392635 0.304844 2.000000
-0.226647 -0.493063 0.065020 2.000000
-0.013929 -0.452138 0.205347 2.000000
0.185576 0.034087 0.494756 2.000000
0.213377 0.426193 0.256469 2.000000
-0.172616 -0.410195 0.279396 2.000000
0.101306 0.467622 -0.174682 2.000000
-0.206750 0.425885 0.257006 2.000000
-0.048205 0.488782 -0.100889 2.000000
0.273627 0.123675 -0.484740 2.000000
-0.247540 -0.180144 -0.466227 2.000000
-0.283595 0.248645 0.429726 4.000000
-0.239897 0.144066 0.474623 2.000000
0.207733 -0.469139 0.163555 2.000000
-0.010642 -0.432219 0.244597 2.000000
-0.109279 0.063860 0.491815 2.000000
0.014332 0.423925 -0.264237 2.000000
0.269862 -0.490618 0.079915 2.000000
-0.086148 0.256139 0.425158 2.000000
0.189580 -0.107165 0.484013 2.000000
0.022228 -0.161044 -0.473394 2.000000
0.271901 0.165183 -0.472104 2.000000
0.181401 0.246774 0.430867 2.000000
-0.200676 0.447127 0.218000 2.000000
-0.056210 0.157173 -0.474867 2.000000
-0.169907 0.437097 -0.241781 2.000000
0.286450 -0.491317 -0.080235 1.000000
0.242422 0.090021 -0.492172 2.000000
0.150277 -0.157617 0.470007 2.000000
-0.050113 -0.213904 0.447276 2.000000
0.113199 -0.311512 0.386171 2.000000
0.106649 -0.353274 -0.352599 2.000000
-0.255746 -0.493667 -0.063992 2.000000
0.242730 0.446523 0.219226 2.000000
-0.285084 0.496553 0.041380 4.000000
-0.090929 0.341713 0.360607 2.000000
-0.179040 0.146298 0.473942 2.000000
-0.267643 -0.126966 -0.483688 2.000000
-0.193397 -0.235250 0.436626 2.000000
-0.287073 -0.430661 -0.251244 4.000000
0.254689 0.457002 -0.201145 2.000000
-0.048399 -0.157923 -0.474436 2.000000
0.009989 -0.229914 -0.443594 2.000000
-0.239935 0.327609 -0.377629 2.000000
-0.117041 0.226275 -0.446039 2.000000
-0.043230 0.065680 0.491618 2.000000
-0.205432 0.495110 -0.059917 2.000000
0.149162 0.354305 0.348240 2.000000
0.198893 -0.316673 0.381780 2.000000
-0.089504 -0.437271 -0.239717 2.000000
0.178973 -0.444581 -0.225440 2.000000
0.109373 -0.052927 0.493063 2.000000
-0.042372 -0.158624 0.469660 2.000000
-0.166350 -0.364722 -0.340841 2.000000
-0.185445 0.026319 0.495105 2.000000
0.213494 0.314940 0.383963 2.000000
-0.031399 -0.226447 0.441095 2.000000
-0.158178 -0.264134 0.419771 2.000000
-0.228805 -0.226479 -0.445402 2.000000
0.126366 -0.309443 0.387733 2.000000
-0.102303 0.065057 -0.495961 2.000000
0.089051 -0.149152 -0.477112 2.000000
0.074843 -0.383931 0.314377 2.000000
0.226466 0.226096 -0.446127 2.000000
0.035189 0.310827 -0.391815 2.000000
-0.190752 -0.168438 0.466274 2.000000
-0.289186 0.354663 0.347872 4.000000
-0.241712 -0.242100 0.432698 2.000000
-0.075524 -0.398638 -0.299883 2.000000
0.050641 0.454816 0.202127 2.000000
0.022065 0.032933 0.494808 2.000000
-0.268802 -0.485512 -0.110641 2.000000
0.087342 -0.361262 0.340138 2.000000
-0.166726 -0.357520 0.344201 2.000000
-0.133016 0.412966 0.276850 2.000000
0.089275 0.497522 0.029422 2.000000
-0.228437 -0.058660 -0.496619 2.000000
-0.196974 -0.037265 -0.498921 2.000000
-0.248175 -0.077400 -0.494027 2.000000
-0.109207 -0.067815 0.491060 2.000000
0.062291 0.262707 -0.425742 2.000000
0.137658 0.018098 -0.499879 2.000000
0.185691 0.288185 -0.408897 2.000000
0.162392 0.405956 -0.291276 2.000000
0.170544 0.169575 0.466224 2.000000
-0.251418 -0.056349 0.492719 2.000000
0.017481 0.068583 0.491304 2.000000
0.098224 0.249138 -0.433603 2.000000
-0.193336 -0.269371 0.416313 2.000000
0.009503 0.136976 0.476786 2.000000
0.191526 0.061031 -0.496543 2.000000
0.062774 -0.497177 -0.020474 2.000000
0.234813 -0.497249 -0.016495 2.000000
-0.016135 0.497556 -0.033282 2.000000
0.174515 0.480468 0.130430 2.000000
-0.017306 0.437387 0.236948 2.000000
-0.249656 -0.302989 0.392601 2.000000
0.043243 0.451387 0.209355 2.000000
0.058429 0.442291 0.227814 2.000000
-0.073176 -0.407017 0.283940 2.000000
-0.208526 0.494085 0.063831 2.000000
-0.289836 0.234201 -0.442133 4.000000
0.239620 0.498394 -0.014604 2.000000
0.019166 -0.232907 0.437913 2.000000
-0.115026 -0.106484 0.484156 2.000000
0.214264 0.176206 -0.468302 2.000000
-0.030928 -0.212228 -0.452486 2.000000
0.046308 -0.153206 0.471529 2.000000
0.039602 -0.043340 0.493840 2.000000
-0.037321 -0.497172 -0.020762 2.000000
0.136460 -0.434029 -0.245370 2.000000
-0.288752 -0.158391 0.469740 4.000000
0.058997 -0.151552 0.472099 2.000000
-0.209671 -0.222115 0.443230 2.000000
0.149294 0.385949 -0.317486 2.000000
0.140930 -0.496884 0.021053 2.000000
-0.180215 -0.266626 -0.422493 2.000000
-0.144703 -0.006326 -0.500309 2.000000
0.160759 -0.423733 -0.263324 2.000000
-0.190449 0.310015 -0.392427 2.000000
0.218222 -0.235433 0.436521 2.000000
-0.036114 -0.091701 -0.491565 2.000000
-0.125124 -0.411886 0.276979 2.000000
-0.025068 -0.087701 -0.492253 2.000000
-0.266485 0.229626 -0.444388 2.000000
0.130988 -0.259220 -0.427008 2.000000
-0.195440 0.492800 -0.077547 2.000000
-0.032204 -0.495194 -0.049856 2.000000
0.121966 -0.035192 -0.499014 2.000000
0.206221 -0.001559 0.495805 2.000000
-0.075851 -0.084501 0.488646 2.000000
0.089483 -0.006256 -0.500312 2.000000
0.184256 -0.035223 0.494498 2.000000
-0.004176 -0.100424 -0.489995 2.000000
-0.245832 0.170039 -0.470429 2.000000
0.074197 0.415722 0.272676 2.000000
-0.013900 0.271880 0.415562 2.000000
-0.228949 0.426861 -0.259421 2.000000
0.085534 -0.065246 0.491432 2.000000
-0.213222 -0.033919 0.494603 2.000000
-0.278835 0.232225 -0.443107 2.000000
-0.240230 0.230266 -0.444072 2.000000
-0.113739 0.442538 0.227313 2.000000
0.260320 -0.453464 0.202392 2.000000
-0.262452 0.220251 -0.449007 2.000000
0.058887 -0.260849 -0.426015 2.000000
0.042540 0.466464 0.174019 2.000000
0.218186 0.455738 -0.203962 2.000000
0.229113 0.021913 -0.499810 2.000000
-0.091103 0.237616 -0.440211 2.000000
-0.262865 -0.284836 0.406103 2.000000
-0.141016 0.088588 -0.492473 2.000000
-0.168881 0.292940 0.400939 2.000000
-0.233148 0.473043 0.154947 2.000000
0.046976 0.391197 -0.310904 2.000000
-0.253031 0.133215 -0.482106 2.000000
0.256594 -0.129349 0.478537 2.000000
0.283926 0.043430 0.494023 1.000000
-0.227442 -0.098170 0.485897 2.000000
0.235397 -0.165601 0.467253 2.000000
0.050125 -0.468733 0.164636 2.000000
0.225091 -0.424143 0.257844 2.000000
0.273752 -0.465720 -0.177560 2.000000
-0.239133 -0.385573 -0.316881 2.000000
-0.219182 -0.108622 0.483708 2.000000
-0.175597 0.219886 0.445060 2.000000
-0.103709 -0.491720 0.073517 2.000000
0.010022 -0.404041 0.288195 2.000000
-0.015686 0.475570 -0.151441 2.000000
-0.088123 0.277051 -0.416273 2.000000
0.271387 0.071765 -0.494990 2.000000
0.012477 0.124694 -0.484459 2.000000
-0.106533 0.491614 0.080909 2.000000
0.174716 0.438746 -0.238649 2.000000
-0.174055 0.461943 0.185031 2.000000
-0.277004 -0.040022 0.494109 2.000000
0.006842 -0.053796 -0.497145 2.000000
0.222686 -0.030472 0.494883 2.000000
0.169383 -0.463165 -0.183996 2.000000
-0.152464 0.130001 -0.482994 2.000000
-0.065057 -0.031864 -0.499163 2.000000
0.128261 0.256512 -0.429375 2.000000
0.095276 0.430980 -0.252665 2.000000
-0.137680 0.342734 0.359682 2.000000
0.086566 0.481120 -0.133251 2.000000
-0.193510 0.494742 0.059289 2.000000
-0.107658 -0.473453 0.150668 2.000000
0.071518 0.497881 -0.026044 2.000000
-0.084765 -0.312125 0.385682 2.000000
-0.222901 0.434476 0.242025 2.000000
0.016078 -0.436208 -0.241570 2.000000
0.050383 -0.289244 0.402971 2.000000
-0.034316 0.262628 0.421202 2.000000
-0.289656 -0.245199 -0.435546 4.000000
0.273696 -0.416175 0.270846 2.000000
-0.050306 -0.198504 -0.458645 2.000000
0.274969 -0.404221 -0.292483 1.000000
-0.204135 0.309245 0.388504 2.000000
0.103244 -0.079096 0.489428 2.000000
-0.068700 0.082197 -0.493481 2.000000
0.128342 -0.324150 -0.379940 2.000000
-0.115953 -0.257093 0.424100 2.000000
0.030973 0.481168 0.127895 2.000000
0.004682 0.341788 0.360539 2.000000
0.107704 -0.486206 -0.107330 2.000000
-0.032602 0.177185 0.463369 2.000000
-0.236051 0.435757 0.239791 2.000000
0.192852 -0.362686 -0.342932 2.000000
0.156301 0.422852 0.261876 2.000000
-0.132431 0.101080 -0.489856 2.000000
0.209575 -0.299314 0.395374 2.000000
-0.039253 -0.018978 -0.499741 2.000000
-0.277515 -0.033316 -0.499098 2.000000
0.157937 0.459408 -0.195784 2.000000
0.159334 -0.431877 -0.249123 2.000000
-0.142509 0.056200 0.492642 2.000000
-0.084951 0.417286 0.270306 2.000000
-0.190131 -0.497562 0.005946 2.000000
-0.169211 -0.269544 0.416199 2.000000
-0.003104 -0.309195 0.387920 2.000000
-0.201523 0.165958 -0.471837 2.000000
-0.236925 -0.307231 0.389401 2.000000
-0.161701 -0.132692 0.477614 2.000000
0.238934 -0.349639 0.351874 2.000000
0.229232 -0.377880 0.321791 2.000000
-0.084194 0.482578 -0.127322 2.000000
-0.250263 0.058973 0.492343 2.000000
0.012066 -0.313289 0.384683 2.000000
-0.190243 0.489829 -0.094803 2.000000
0.202832 -0.059971 0.492195 2.000000
0.227541 -0.450117 -0.214207 2.000000
-0.247755 -0.246289 -0.434891 2.000000
-0.056453 0.238518 0.435250 2.000000
-0.119533 -0.332247 0.368416 2.000000
-0.279568 0.487451 -0.106815 2.000000
-0.170836 -0.259020 -0.427130 2.000000
-0.025693 -0.291215 -0.405783 2.000000
0.010584 0.439268 -0.237659 2.000000
-0.138656 0.473682 0.153096 2.000000
0.265872 0.402861 0.291291 2.000000
0.044530 -0.319974 0.378947 2.000000
0.111380 0.378959 -0.326084 2.000000
-0.058659 -0.356184 -0.349610 2.000000
0.028080 0.164816 0.468010 2.000000
-0.128777 -0.447939 0.214704 2.000000
0.159107 0.115365 0.482335 2.000000
0.259230 0.453668 0.204726 2.000000
-0.020986 0.186041 -0.464308 2.000000
0.184583 0.234924 0.437142 2.000000
0.231754 0.322749 -0.381799 2.000000
-0.058796 -0.375610 -0.328492 2.000000
0.203320 -0.454451 0.200192 2.000000
-0.076191 -0.187949 -0.463298 2.000000
-0.121520 -0.467341 0.168346 2.000000
0.163662 -0.062794 0.491787 2.000000
0.136104 -0.411348 -0.282102 2.000000
-0.045209 0.112935 0.482912 2.000000
0.169169 -0.012920 -0.500013 2.000000
0.163153 0.416621 0.271314 2.000000
-0.139020 0.294498 -0.404134 2.000000
0.199060 0.450714 -0.215157 2.000000
-0.128076 0.331827 0.369561 2.000000
0.247167 -0.495347 0.043888 2.000000
-0.128761 -0.049903 0.493308 2.000000
0.259533 -0.488037 -0.098591 2.000000
-0.231388 -0.451760 -0.210872 2.000000
0.189670 0.105894 0.484585 2.000000
-0.271247 0.016250 -0.499912 2.000000
-0.184200 -0.485361 -0.111362 2.000000
0.057693 0.376881 -0.328378 2.000000
-0.014579 -0.101095 -0.489836 2.000000
0.050326 -0.346927 -0.359119 2.000000
0.132629 0.478999 -0.140203 2.000000
-0.050718 -0.098589 -0.490379 2.000000
0.236369 -0.468026 -0.170874 2.000000
-0.211285 0.179577 -0.467002 2.000000
-0.045763 0.385512 -0.318034 2.000000
0.038751 0.369142 0.332870 2.000000
-0.287077 -0.463168 0.179465 4.000000
0.147554 -0.473268 0.151272 2.000000
0.047854 0.420884 -0.269224 2.000000
0.079395 0.492533 0.074555 2.000000
0.210478 0.456609 0.197825 2.000000
0.286553 -0.198776 -0.458523 1.000000
0.057858 -0.263373 0.420273 2.000000
-0.001171 -0.495659 -0.044117 2.000000
0.028216 -0.001882 -0.500239 2.000000
-0.070564 0.050500 0.493259 2.000000
-0.209934 0.498014 -0.023068 2.000000
-0.243201 -0.456141 0.196425 2.000000
0.276470 0.476990 -0.146786 2.000000
0.262529 -0.160128 0.469141 2.000000
-0.072557 0.496545 -0.046638 2.000000
-0.203919 0.057221 -0.497095 2.000000
0.024870 -0.030363 0.494891 2.000000
0.099508 -0.489715 -0.090582 2.000000
0.077216 0.413617 -0.280322 2.000000
0.039702 0.345019 0.357612 2.000000
-0.261182 0.240889 0.434001 2.000000
0.042785 0.466287 -0.178239 2.000000
-0.190658 0.477631 -0.144686 2.000000
-0.240995 0.135691 -0.481423 2.000000
0.139843 -0.324675 -0.379464 2.000000
0.286036 0.138547 0.476307 1.000000
0.071312 -0.476086 -0.146948 2.000000
0.097416 0.184679 0.460557 2.000000
-0.246406 0.447403 -0.222208 2.000000
0.251606 0.230970 -0.443725 2.000000
0.161931 0.451277 -0.213903 2.000000
0.153897 0.383379 0.316279 2.000000
0.257160 0.085080 -0.493064 2.000000
-0.176405 0.355582 -0.351439 2.000000
0.210004 0.326824 -0.378302 2.000000
0.283961 -0.488620 -0.095809 1.000000
0.219479 0.480346 0.130875 2.000000
-0.125147 -0.307494 -0.393436 2.000000
0.126595 0.362803 -0.343921 2.000000
0.086920 0.498490 0.000111 2.000000
-0.219154 -0.380707 0.318421 2.000000
-0.214762 -0.491848 -0.076565 2.000000
-0.044923 -0.298547 0.395953 2.000000
0.059289 0.021905 0.495302 2.000000
0.033371 0.493989 -0.070288 2.000000
0.177642 -0.277142 -0.415624 2.000000
0.252912 0.494895 -0.061906 2.000000
-0.289020 -0.331370 -0.373400 4.000000
-0.178149 0.317213 0.382150 2.000000
0.234024 -0.117869 0.481706 2.000000
-0.250590 -0.486165 -0.107528 2.000000
0.140175 0.497159 0.033901 2.000000
0.257230 0.292077 0.401543 2.000000
-0.217570 0.478039 -0.143348 2.000000
-0.117912 0.167743 -0.471221 2.000000
0.132636 0.468456 -0.172458 2.000000
0.243782 -0.320612 0.378400 2.000000
-0.177980 -0.051162 -0.497430 2.000000
0.194026 0.306417 0.390759 2.000000
-0.185867 0.253383 -0.431169 2.000000
-0.273262 0.492083 -0.081710 2.000000
0.247242 0.128065 0.479317 2.000000
-0.247227 0.173481 0.464759 2.000000
-0.126629 -0.315276 0.382978 2.000000
-0.250273 -0.069810 0.490772 2.000000
0.101302 0.134180 0.477640 2.000000
0.116006 0.202561 0.452931 2.000000
-0.151352 -0.470863 0.158960 2.000000
0.044120 -0.357504 0.344217 2.000000
0.183331 0.053206 -0.497477 2.000000
-0.004601 0.140981 0.475565 2.000000
-0.193862 0.186750 -0.464012 2.000000
0.082710 -0.249086 0.428692 2.000000
0.108238 -0.489813 0.084590 2.000000
-0.172582 0.478139 0.138867 2.000000
0.004511 -0.384662 -0.317943 2.000000
0.074892 0.481798 -0.130606 2.000000
-0.073828 0.409868 -0.285683 2.000000
-0.257410 0.497286 0.032330 2.000000
-0.213126 0.441117 0.230197 2.000000
0.248634 0.195152 0.456255 2.000000
-0.216993 -0.497454 0.008363 2.000000
0.000758 0.473183 -0.159264 2.000000
-0.053620 0.200273 -0.458374 2.000000
0.122323 -0.464727 0.175312 2.000000
-0.059508 -0.460846 0.185655 2.000000
0.281898 0.498113 0.021046 1.000000
0.015087 -0.494530 0.051447 2.000000
-0.066090 -0.468488 -0.169535 2.000000
0.099046 0.496664 0.040015 2.000000
0.215519 0.224202 0.442788 2.000000
0.004766 -0.344769 0.356615 2.000000
0.007732 0.493653 -0.072592 2.000000
0.148074 -0.497303 -0.013463 2.000000
-0.249180 0.158350 0.470265 2.000000
-0.138959 -0.401970 0.291157 2.000000
-0.288386 -0.081828 -0.493264 4.000000
0.268805 0.456831 0.197293 2.000000
-0.008286 0.428888 -0.256096 2.000000
0.080064 0.226505 -0.445925 2.000000
-0.093497 0.284259 0.407011 2.000000
0.113966 0.437483 -0.241049 2.000000
0.164636 -0.052292 0.493115 2.000000
-0.065237 -0.088674 0.487887 2.000000
0.109131 0.330258 -0.375355 2.000000
0.123592 -0.453760 0.201733 2.000000
-0.244362 0.037324 0.494611 2.000000
-0.082942 0.010241 0.495826 2.000000
0.075760 0.488236 0.098178 2.000000
0.132574 -0.255057 0.425268 2.000000
0.002821 -0.391199 0.305264 2.000000
0.098303 0.145574 -0.478695 2.000000
0.226879 0.474052 0.152022 2.000000
0.250013 -0.391345 -0.309549 2.000000
0.220039 -0.496540 -0.033249 2.000000
0.213624 0.495844 -0.053125 2.000000
0.223302 0.330476 -0.375168 2.000000
0.216928 -0.251884 -0.431480 2.000000
-0.121698 0.270107 0.416642 2.000000
0.124815 0.226251 0.441709 2.000000
-0.000612 0.356494 0.345991 2.000000
-0.097861 0.005953 -0.500098 2.000000
0.059856 -0.480391 -0.131353 2.000000
-0.252265 -0.481539 -0.127191 2.000000
-0.173845 -0.362570 0.338694 2.000000
0.017206 0.337872 0.364086 2.000000
0.124981 0.498343 0.008276 2.000000
0.103267 -0.011499 -0.500077 2.000000
-0.253964 -0.179626 0.462202 2.000000
0.144260 0.460036 0.189605 2.000000
-0.226515 -0.400222 0.293657 2.000000
-0.215035 -0.494563 -0.057654 2.000000
-0.074430 0.492156 -0.081286 2.000000
0.165280 0.496618 0.040583 2.000000
0.057456 0.314058 0.384666 2.000000
-0.017293 0.410443 0.280672 2.000000
-0.008486 0.489465 -0.096916 2.000000
-0.020114 -0.191429 0.457281 2.000000
-0.156137 -0.069404 0.490830 2.000000
-0.066709 0.232268 -0.443086 2.000000
-0.086754 -0.131604 -0.482466 2.000000
-0.084951 -0.344204 -0.361776 2.000000
0.010040 -0.441763 -0.231159 2.000000
-0.277050 0.423289 0.261213 2.000000
-0.070436 -0.496891 -0.028914 2.000000
0.025084 0.421421 -0.268344 2.000000
0.004877 0.031958 -0.499199 2.000000
0.013077 -0.351549 0.350015 2.000000
0.175375 0.302891 0.393570 2.000000
-0.278298 0.333519 -0.372558 2.000000
0.230286 0.496640 -0.045755 2.000000
-0.047377 0.307435 0.389947 2.000000
-0.023618 -0.321867 0.377323 2.000000
-0.023267 -0.119378 0.481290 2.000000
0.198144 0.204941 0.451863 2.000000
0.084623 0.433344 -0.248786 2.000000
0.113152 -0.341977 -0.363793 2.000000
-0.211333 0.262254 -0.426042 2.000000
0.080237 0.074870 -0.494541 2.000000
-0.193105 -0.492761 -0.070252 2.000000
0.225134 -0.138056 -0.480498 2.000000
0.284974 0.283671 -0.411903 1.000000
-0.155213 0.490939 -0.088359 2.000000
0.134706 -0.497104 -0.024521 2.000000
-0.228921 0.447211 -0.222573 2.000000
0.143673 -0.453985 -0.206014 2.000000
0.104787 0.224016 -0.447152 2.000000
0.278913 0.457886 0.194764 2.000000
-0.045735 -0.231817 0.438449 2.000000
-0.027301 -0.306811 0.389718 2.000000
0.138906 -0.449864 0.210415 2.000000
-0.103568 0.204364 -0.456668 2.000000
-0.260424 0.097229 0.486436 2.000000
-0.259059 -0.407620 0.283079 2.000000
-0.075399 0.421566 0.263824 2.000000
0.054582 0.498340 0.008425 2.000000
0.149456 -0.305518 0.390693 2.000000
-0.087926 0.049186 -0.497803 2.000000
-0.143571 0.497176 -0.040801 2.000000
-0.096439 -0.052688 -0.497265 2.000000
-0.182515 -0.027090 0.495157 2.000000
0.159403 0.301327 0.394818 2.000000
0.028132 -0.384147 -0.318543 2.000000
-0.091055 0.121809 -0.485255 2.000000
0.185582 -0.355038 0.346617 2.000000
0.123731 -0.046381 0.493594 2.000000
0.213578 -0.138299 -0.480423 2.000000
-0.058742 0.077311 -0.494188 2.000000
0.061556 -0.144046 -0.478670 2.000000
0.028521 0.451734 -0.212883 2.000000
0.026219 0.327139 0.373807 2.000000
-0.212718 0.483901 -0.121754 2.000000
-0.056029 -0.495149 0.045714 2.000000
0.021089 0.134879 0.477426 2.000000
0.172248 -0.497198 -0.019299 2.000000
0.256752 -0.062899 -0.496161 2.000000
0.070435 0.049703 -0.497761 2.000000
-0.202591 -0.137832 -0.480566 2.000000
-0.231547 -0.468322 0.165730 2.000000
0.251822 -0.494556 -0.057729 2.000000
-0.071987 0.384746 0.314686 2.000000
0.161125 0.403904 0.289907 2.000000
0.124714 -0.126355 -0.483833 2.000000
0.172978 0.358305 -0.348788 2.000000
0.085795 0.494051 0.064066 2.000000
-0.289998 -0.493488 0.061091 4.000000
0.099156 -0.374068 -0.330289 2.000000
-0.026857 0.462397 -0.188606 2.000000
0.145693 0.135446 -0.481490 2.000000
-0.184307 0.482920 0.121549 2.000000
0.153185 0.498262 0.012763 2.000000
0.050909 -0.456275 0.196128 2.000000
0.014483 -0.333930 0.366972 2.000000
-0.164967 -0.178624 -0.466798 2.000000
0.040916 0.295222 0.399343 2.000000
-0.143144 -0.489135 -0.093348 2.000000
0.230787 -0.316738 -0.386066 2.000000
-0.200905 0.084633 0.488604 2.000000
-0.290037 0.329029 0.372095 4.000000
0.134201 -0.394376 0.301279 2.000000
0.085656 -0.411277 -0.282209 2.000000
-0.037396 -0.454600 0.199860 2.000000
0.054892 -0.353015 0.348587 2.000000
-0.040794 0.359023 0.343393 2.000000
0.088864 0.231347 0.439026 2.000000
0.019481 0.365470 0.336771 2.000000
0.278290 -0.497570 0.001335 1.000000
-0.221919 0.399626 -0.300328 2.000000
0.162727 -0.399564 -0.298655 2.000000
-0.276895 0.326766 0.374145 2.000000
-0.193485 0.295152 -0.403640 2.000000
0.051041 -0.482536 -0.123583 2.000000
-0.012998 0.288357 -0.408767 2.000000
-0.167372 -0.226462 0.441088 2.000000
-0.195389 0.473044 -0.159719 2.000000
-0.101849 0.127219 -0.483762 2.000000
0.048298 -0.345979 0.355437 2.000000
-0.233828 -0.493965 0.056673 2.000000
0.161842 0.266707 -0.423102 2.000000
-0.004222 -0.489675 -0.090770 2.000000
0.211593 0.497114 -0.041370 2.000000
-0.005684 0.099265 -0.490236 2.000000
-0.105321 -0.448185 0.214155 2.000000
-0.036764 0.497107 0.034539 2.000000
-0.199467 -0.488864 -0.094642 2.000000
-0.245894 -0.258619 0.423225 2.000000
-0.109320 -0.380541 -0.322745 2.000000
-0.198939 -0.460729 0.185966 2.000000
0.108049 0.477488 -0.145155 2.000000
-0.048933 -0.444236 -0.226140 2.000000
0.228110 -0.454444 -0.204914 2.000000
0.028850 -0.488576 -0.096019 2.000000
-0.237481 -0.485652 -0.109973 2.000000
0.224904 0.322127 0.378232 2.000000
0.084804 0.291168 -0.406646 2.000000
-0.009169 0.371431 -0.334395 2.000000
0.116442 0.360124 -0.346880 2.000000
0.123122 0.205872 -0.456040 2.000000
-0.134512 -0.351619 0.349946 2.000000
-0.180830 -0.497059 -0.026839 2.000000
-0.266436 -0.210979 -0.453047 2.000000
-0.034666 -0.359601 0.341972 2.000000
-0.249948 -0.094527 0.486660 2.000000
0.089118 -0.495424 -0.047024 2.000000
-0.200027 0.337114 0.364773 2.000000
-0.058875 0.485156 0.112879 2.000000
-0.026344 -0.014437 -0.499945 2.000000
0.062018 -0.285482 0.405677 2.000000
-0.188994 0.498174 0.017647 2.000000
-0.102837 0.426285 0.256309 2.000000
-0.060141 -0.303151 0.392479 2.000000
0.174826 -0.200686 0.453421 2.000000
0.031201 0.483539 -0.123277 2.000000
0.175818 0.273672 0.414415 2.000000
-0.230247 0.468342 -0.172762 2.000000
-0.058751 0.494045 -0.069770 2.000000
0.207724 -0.388809 -0.312911 2.000000
0.232170 -0.489800 0.084669 2.000000
0.233076 -0.427285 -0.257131 2.000000
0.085263 0.025470 -0.499724 2.000000
0.042710 0.498328 -0.016071 2.000000
-0.162295 0.006442 -0.500089 2.000000
0.107964 -0.497419 -0.007055 2.000000
0.026668 0.185448 0.460268 2.000000
0.234138 0.278434 0.411085 2.000000
0.000445 0.085254 -0.493039 2.000000
-0.143967 -0.482131 0.120536 2.000000
0.021755 -0.225120 -0.446118 2.000000
0.005846 -0.303736 -0.396433 2.000000
-0.181028 -0.475687 -0.148393 2.000000
0.064889 -0.361533 0.339839 2.000000
0.043766 -0.389945 -0.311405 2.000000
0.169499 0.155893 -0.475309 2.000000
0.275402 0.477565 0.140950 2.000000
-0.243966 -0.475100 -0.150366 2.000000
-0.233349 -0.497434 -0.006204 2.000000
-0.162132 -0.164211 -0.472206 2.000000
-0.032700 -0.247918 0.429362 2.000000
0.114792 -0.359267 0.342341 2.000000
0.084918 -0.138034 -0.480504 2.000000
0.245675 0.296690 0.398316 2.000000
0.085159 -0.035180 -0.499015 2.000000
0.282291 -0.373073 0.327097 1.000000
-0.207598 0.472539 -0.161373 2.000000
0.095966 -0.381175 -0.322007 2.000000
0.274852 0.497298 -0.039030 2.000000
0.038605 -0.427900 0.251681 2.000000
0.195090 0.480780 -0.134366 2.000000
0.260262 0.171490 0.465506 2.000000
-0.229773 -0.013852 -0.499971 2.000000
-0.288417 -0.235185 -0.440819 4.000000
-0.224270 0.066680 -0.495726 2.000000
0.219015 -0.102148 -0.489586 2.000000
0.267766 -0.497612 0.003668 2.000000
-0.157821 0.497247 0.032814 2.000000
0.095941 0.172948 -0.469426 2.000000
-0.175273 0.490078 -0.093358 2.000000
-0.241600 -0.299592 -0.399737 2.000000
0.140170 -0.100616 0.485385 2.000000
-0.049784 -0.336287 -0.368946 2.000000
-0.229899 -0.385840 0.311983 2.000000
0.151055 0.343933 0.358596 2.000000
-0.010532 -0.360222 0.341286 2.000000
-0.158510 -0.470764 -0.162936 2.000000
-0.111496 0.275206 0.413342 2.000000
-0.215596 -0.155916 0.470594 2.000000
-0.201672 -0.448666 -0.217151 2.000000
0.012298 0.480402 0.130672 2.000000
0.269134 -0.492583 0.068500 2.000000
0.229399 0.465231 0.177144 2.000000
-0.042936 -0.083798 0.488748 2.000000
-0.271783 -0.244820 -0.435746 2.000000
0.119333 -0.270990 0.415245 2.000000
-0.051454 -0.276189 0.411812 2.000000
-0.261794 -0.452754 -0.208855 2.000000
0.035485 0.458843 0.192468 2.000000
0.262472 0.157915 0.470398 2.000000
-0.096836 -0.495487 -0.046248 2.000000
-0.150492 -0.036530 -0.498954 2.000000
0.096964 0.472630 0.156144 2.000000
-0.186850 0.422756 0.262021 2.000000
-0.016632 0.416179 -0.276659 2.000000
0.162881 -0.276607 0.411536 2.000000
-0.129106 0.398420 0.297176 2.000000
0.231814 -0.482907 -0.122238 2.000000
0.211052 -0.496918 0.020297 2.000000
0.108689 0.292347 -0.405757 2.000000
0.197935 0.485350 -0.115655 2.000000
-0.210797 -0.010820 0.495638 2.000000
0.227651 -0.342093 0.359220 2.000000
-0.158116 0.111326 -0.487709 2.000000
-0.238498 0.497288 -0.039248 2.000000
-0.207346 -0.379258 0.320238 2.000000
0.064922 -0.165096 -0.471874 2.000000
0.004010 0.132302 -0.482358 2.000000
0.196223 0.437196 -0.241594 2.000000
0.127891 -0.401687 0.291562 2.000000
-0.107272 -0.482617 -0.123288 2.000000
-0.246409 0.456744 0.197502 2.000000
0.081985 -0.076863 -0.494119 2.000000
