0.118853 0.039966 0.494397 2.000000
0.040532 -0.078646 0.489493 2.000000
-0.038558 0.137933 0.476495 2.000000
-0.140886 0.029179 -0.499424 2.000000
-0.178916 -0.244185 -0.436080 2.000000
-0.084847 0.338073 0.363904 2.000000
-0.041240 0.154140 -0.475914 2.000000
-0.055889 0.422245 0.262795 2.000000
-0.090209 0.300011 0.395867 2.000000
-0.002717 -0.484119 0.112172 2.000000
0.073491 0.497527 0.029362 2.000000
0.041917 0.373495 -0.332117 2.000000
0.168034 0.447338 -0.222331 2.000000
0.071837 0.451632 0.208857 2.000000
-0.171499 0.246780 0.430863 2.000000
-0.218590 -0.443470 -0.227694 2.000000
0.192983 -0.476596 -0.145099 2.000000
0.283353 -0.457847 0.192625 1.000000
0.081646 0.134469 0.477551 2.000000
-0.155744 0.497961 0.024001 2.000000
0.062434 -0.107562 0.483930 2.000000
0.098742 -0.494558 -0.057707 2.000000
0.145587 0.046677 0.493672 2.000000
-0.044957 0.069204 0.491237 2.000000
-0.009084 0.390707 -0.311518 2.000000
-0.242935 -0.492383 0.069661 2.000000
0.215975 -0.497207 -0.018818 2.000000
0.100517 -0.235503 0.436481 2.000000
0.080343 0.350582 -0.356307 2.000000
0.191237 0.183037 0.461173 2.000000
-0.276383 -0.291045 -0.405902 2.000000
0.076108 -0.457204 0.194057 2.000000
-0.136270 -0.301329 -0.398352 2.000000
0.163760 0.347588 -0.359222 2.000000
-0.055689 -0.477728 -0.140998 2.000000
-0.083025 0.308374 0.389198 2.000000
0.022751 -0.350757 0.350785 2.000000
-0.242596 -0.084647 0.488625 2.000000
-0.096297 0.318735 -0.385243 2.000000
0.181337 -0.493241 -0.066936 2.000000
-0.138308 0.120342 -0.485660 2.000000
-0.219708 -0.343513 -0.362402 2.000000
-0.232513 -0.497284 -0.014524 2.000000
0.169475 -0.497556 0.000552 2.000000
-0.179156 -0.445438 0.219640 2.000000
-0.054904 -0.486354 0.102767 2.000000
0.267707 -0.007664 0.495695 2.000000
0.047415 -0.497358 -0.010442 2.000000
0.008801 -0.075754 0.489912 2.000000
-0.010117 -0.493727 0.058877 2.000000
-0.102025 -0.492575 -0.071538 2.000000
-0.220497 0.478435 -0.142052 2.000000
0.058303 -0.399094 0.295268 2.000000
-0.188257 0.436757 0.238048 2.000000
-0.057681 0.393516 0.303676 2.000000
0.078524 -0.411896 0.276964 2.000000
-0.260862 0.450615 -0.215378 2.000000
0.278620 0.459024 -0.196639 1.000000
-0.016017 0.145717 0.474119 2.000000
-0.042383 0.227414 0.441096 2.000000
0.196469 0.309893 0.387987 2.000000
-0.012939 -0.158911 -0.474134 2.000000
-0.050402 0.428022 0.253280 2.000000
0.260463 -0.058171 0.492455 2.000000
0.088007 0.149586 -0.477484 2.000000
0.045768 -0.492321 -0.073296 2.000000
-0.140831 -0.455187 0.198552 2.000000
-0.127660 0.466323 -0.178142 2.000000
-0.207897 0.471808 -0.163524 2.000000
-0.221462 -0.089020 -0.492026 2.000000
-0.090124 0.010338 -0.500019 2.000000
0.081885 -0.393644 -0.306502 2.000000
-0.261106 -0.261243 -0.425775 2.000000
0.125706 -0.487695 -0.100221 2.000000
0.012713 -0.491216 0.076445 2.000000
0.161257 0.206630 0.451105 2.000000
-0.013999 -0.425447 -0.260336 2.000000
0.181604 0.498493 -0.000065 2.000000
-0.049660 -0.030020 -0.499246 2.000000
-0.018458 -0.288695 0.403386 2.000000
0.216205 -0.111965 0.483008 2.000000
-0.064398 -0.113206 -0.486958 2.000000
0.055165 0.244536 -0.436242 2.000000
-0.017920 -0.491299 -0.080355 2.000000
-0.289069 0.262266 0.421423 4.000000
0.210716 0.459515 0.190855 2.000000
0.283624 0.113452 0.482789 1.000000
-0.271100 0.498569 -0.004274 2.000000
0.004535 -0.317144 0.381376 2.000000
-0.035955 -0.363457 0.337715 2.000000
-0.193462 0.007024 -0.500078 2.000000
-0.275678 0.207336 0.450788 2.000000
0.276472 -0.339708 -0.365848 1.000000
-0.250733 0.063486 0.491855 2.000000
0.248387 -0.353693 0.347927 2.000000
0.286498 0.481694 -0.131041 1.000000
0.058472 0.004462 0.495913 2.000000
0.180657 0.091826 -0.491794 2.000000
0.111427 -0.482998 -0.121906 2.000000
-0.152987 0.276820 0.412213 2.000000
0.176852 -0.340803 0.360476 2.000000
0.158658 0.416893 -0.275637 2.000000
0.089636 -0.237693 -0.439498 2.000000
-0.247180 -0.156067 -0.475002 2.000000
-0.212953 0.132561 -0.482287 2.000000
0.025774 -0.220776 -0.448405 2.000000
0.084858 0.428590 -0.256585 2.000000
-0.272382 0.474376 -0.155353 2.000000
0.002755 0.050899 0.493215 2.000000
0.216865 0.451428 0.209272 2.000000
-0.072939 0.195921 -0.460189 2.000000
-0.215685 0.457589 -0.199838 2.000000
-0.271342 0.242681 0.433058 2.000000
-0.049764 -0.191484 -0.461795 2.000000
0.031810 0.381529 0.318435 2.000000
-0.223562 0.143763 -0.479195 2.000000
-0.049420 0.112165 -0.487534 2.000000
0.233695 0.396661 -0.304052 2.000000
0.015625 -0.364446 0.336623 2.000000
-0.198203 -0.080493 0.489226 2.000000
-0.204472 0.489678 0.091297 2.000000
0.184692 -0.275295 0.412403 2.000000
-0.013509 0.158075 -0.474556 2.000000
-0.135847 0.397328 0.298624 2.000000
-0.270071 -0.072096 -0.494940 2.000000
0.072547 0.493922 0.064956 2.000000
-0.049423 -0.279547 0.409595 2.000000
0.128689 -0.496042 -0.039389 2.000000
0.180475 -0.354097 -0.351754 2.000000
-0.169152 0.405529 0.287754 2.000000
-0.005731 -0.413696 -0.278545 2.000000
0.269442 -0.472513 -0.157866 2.000000
-0.238994 -0.195467 0.455597 2.000000
0.115890 -0.492583 0.068504 2.000000
0.088590 0.465186 -0.181173 2.000000
0.223728 0.262660 -0.425773 2.000000
-0.207667 0.318355 0.381240 2.000000
-0.083409 -0.361175 -0.344484 2.000000
0.059219 -0.424746 -0.261558 2.000000
0.114150 0.166918 -0.471506 2.000000
0.106007 0.302379 0.393978 2.000000
0.243529 0.389313 -0.313267 2.000000
0.219020 0.341107 -0.365531 2.000000
-0.032074 -0.229023 0.439826 2.000000
0.237920 -0.241774 -0.437349 2.000000
-0.189470 -0.411325 0.277780 2.000000
0.156797 -0.214631 -0.451408 2.000000
-0.187834 0.067997 -0.495536 2.000000
0.284526 0.339254 -0.367335 1.000000
0.006195 -0.352328 -0.353571 2.000000
0.054889 -0.492946 0.066106 2.000000
0.286254 0.199733 0.454200 1.000000
-0.113787 -0.493929 0.057003 2.000000
0.107217 -0.497584 0.002114 2.000000
-0.260428 -0.157738 0.469965 2.000000
0.133350 -0.481003 0.125284 2.000000
0.265157 -0.247876 -0.433924 2.000000
0.252094 0.452411 0.207277 2.000000
-0.197246 0.231800 0.438787 2.000000
0.121381 -0.464512 0.175883 2.000000
-0.282425 0.166130 -0.471777 4.000000
-0.018092 -0.317211 -0.385688 2.000000
0.166323 0.305357 0.391604 2.000000
-0.141334 -0.469946 -0.165309 2.000000
0.150191 -0.038756 -0.498770 2.000000
-0.017254 0.457945 0.194622 2.000000
-0.212156 -0.495625 -0.044541 2.000000
0.251110 0.498317 -0.016324 2.000000
-0.014239 -0.465636 -0.177803 2.000000
0.099387 0.481161 0.127922 2.000000
-0.151999 -0.413432 -0.278946 2.000000
0.159924 0.269518 0.417002 2.000000
-0.283748 -0.413455 0.274735 4.000000
-0.057911 -0.394385 0.301267 2.000000
-0.142484 -0.453903 -0.206212 2.000000
-0.207139 -0.025428 -0.499452 2.000000
0.193763 -0.429533 0.249003 2.000000
0.242689 0.495110 -0.059914 2.000000
0.073054 0.005698 -0.500102 2.000000
0.271623 0.497099 -0.041509 2.000000
0.095336 -0.132685 0.477616 2.000000
-0.186944 -0.486590 -0.105499 2.000000
-0.166563 0.470882 0.161213 2.000000
-0.127553 0.122294 -0.485121 2.000000
-0.260308 0.045947 0.493751 2.000000
0.236189 -0.252073 0.426979 2.000000
-0.277442 0.109454 0.483739 2.000000
-0.115028 0.368713 0.333370 2.000000
0.206653 -0.119857 0.481158 2.000000
-0.221354 -0.474917 0.145868 2.000000
0.109490 0.378297 -0.326815 2.000000
-0.081973 -0.386231 0.311493 2.000000
-0.288344 0.491525 -0.084952 4.000000
-0.272988 0.409667 -0.285970 2.000000
-0.288670 -0.495043 -0.051728 4.000000
-0.091428 -0.353648 0.347971 2.000000
-0.107593 0.225992 -0.446178 2.000000
-0.019520 0.448810 0.214585 2.000000
0.213674 0.497954 -0.024415 2.000000
-0.029437 0.493633 0.066956 2.000000
0.039131 -0.104400 0.484592 2.000000
0.232808 0.148498 -0.477860 2.000000
0.049213 0.473964 0.152278 2.000000
-0.185369 0.278581 -0.415263 2.000000
0.096094 -0.189405 0.458124 2.000000
0.270390 -0.454334 -0.205176 2.000000
-0.135818 -0.362827 -0.342787 2.000000
0.131639 -0.440255 0.229483 2.000000
0.010914 0.075803 -0.494406 2.000000
-0.104384 -0.448365 -0.217760 2.000000
-0.255639 0.490278 -0.092194 2.000000
-0.213419 -0.306268 0.390128 2.000000
-0.167346 -0.361960 -0.343677 2.000000
0.064274 0.059317 0.439274 3.000000
-0.274962 0.403497 -0.191945 3.000000
-0.006474 0.431360 0.110641 3.000000
-0.113633 0.312875 0.315090 3.000000
0.164042 0.418040 0.152432 3.000000
-0.108006 -0.403991 -0.188457 3.000000
-0.138011 -0.348758 0.273946 3.000000
-0.240427 -0.266453 -0.358550 3.000000
0.006190 0.206458 -0.396919 3.000000
-0.169032 0.134968 -0.426738 3.000000
-0.128619 -0.125967 0.424702 3.000000
-0.261173 -0.226611 0.380748 3.000000
-0.228665 0.265705 -0.359925 3.000000
0.234387 -0.418046 0.149569 3.000000
-0.217287 0.232704 0.377751 3.000000
-0.198490 -0.224308 -0.386464 3.000000
-0.080939 0.437486 -0.088199 3.000000
-0.124719 0.349998 0.273668 3.000000
0.262588 0.445509 0.011765 3.000000
-0.190386 0.033267 0.441927 3.000000
-0.005222 0.385798 -0.225309 3.000000
0.259830 -0.129584 0.423651 3.000000
-0.055747 0.268137 0.353685 3.000000
-0.059448 0.445554 0.010333 3.000000
-0.179150 0.260733 0.359275 3.000000
-0.129108 -0.180626 -0.408905 3.000000
0.052673 0.395302 0.203676 3.000000
0.239416 -0.430325 -0.115030 3.000000
0.222299 0.399818 -0.199167 3.000000
-0.102161 0.443945 0.037674 3.000000
0.250247 0.443750 0.039744 3.000000
0.073592 -0.096507 0.432339 3.000000
0.111890 0.001634 0.443223 3.000000
0.260592 0.208143 0.391707 3.000000
-0.215292 0.095974 -0.437041 3.000000
-0.075782 -0.292671 0.332880 3.000000
-0.148669 -0.324763 0.302101 3.000000
-0.085620 0.404723 -0.189134 3.000000
-0.130516 0.176718 -0.411039 3.000000
-0.022626 -0.431093 0.107863 3.000000
0.013414 0.100112 -0.436116 3.000000
0.223940 -0.404026 0.184021 3.000000
-0.080164 0.330001 0.297322 3.000000
0.267584 0.295655 -0.335505 3.000000
-0.123058 -0.444921 -0.002214 3.000000
-0.023358 -0.438272 -0.077817 3.000000
0.064866 -0.436106 -0.089788 3.000000
0.199314 0.081563 0.435751 3.000000
0.249260 0.341836 -0.288251 3.000000
0.249196 0.067816 -0.442282 3.000000
-0.277224 -0.043785 -0.445189 3.000000
0.093282 -0.404832 -0.186513 3.000000
0.185279 0.376296 -0.241309 3.000000
0.250212 -0.157448 -0.418497 3.000000
-0.273577 -0.268443 -0.357007 3.000000
0.161230 0.257432 -0.365871 3.000000
0.049047 0.003365 -0.447522 3.000000
0.142329 -0.417414 0.151323 3.000000
-0.207930 -0.160986 0.412870 3.000000
-0.229102 0.347551 0.276823 3.000000
-0.225459 0.364308 0.254595 3.000000
0.141213 -0.216329 -0.391183 3.000000
-0.164033 -0.236940 -0.378994 3.000000
-0.135238 0.442747 0.050356 3.000000
-0.072134 -0.397975 -0.200771 3.000000
-0.095311 0.078520 -0.440586 3.000000
-0.008997 0.197097 -0.401688 3.000000
0.163671 -0.389317 -0.217625 3.000000
-0.180910 0.311936 0.316029 3.000000
-0.051883 -0.371046 -0.247526 3.000000
0.052182 0.173929 0.407893 3.000000
0.285262 0.093795 0.433174 1.000000
-0.161079 -0.442083 -0.050890 3.000000
-0.052019 0.061087 0.438994 3.000000
0.151338 -0.191115 0.399861 3.000000
0.213382 0.440304 -0.071459 3.000000
0.123940 -0.278926 -0.348875 3.000000
0.103493 0.105693 -0.434868 3.000000
0.110903 0.386425 0.219895 3.000000
-0.265654 -0.345885 0.277650 3.000000
-0.050598 -0.422590 -0.141300 3.000000
-0.288747 -0.400933 0.190612 4.000000
0.278740 -0.165265 -0.415552 1.000000
-0.022092 -0.175628 0.406714 3.000000
-0.254768 0.423923 -0.140445 3.000000
0.203442 -0.412808 -0.168080 3.000000
-0.276032 0.443746 -0.044136 3.000000
0.046597 0.293142 -0.337721 3.000000
-0.156922 -0.099351 -0.436057 3.000000
-0.040012 0.370837 0.244988 3.000000
-0.164823 -0.312650 0.314290 3.000000
0.195305 0.255175 -0.367406 3.000000
0.141304 0.144758 0.419081 3.000000
0.092076 -0.248121 0.367149 3.000000
0.061885 0.429413 0.117341 3.000000
0.078902 0.232539 0.377849 3.000000
-0.213537 -0.338376 0.286660 3.000000
0.197117 -0.042054 0.441000 3.000000
-0.023130 -0.290030 -0.339561 3.000000
-0.157832 0.419207 -0.153542 3.000000
-0.034959 0.047089 -0.444974 3.000000
-0.169167 -0.313024 -0.318270 3.000000
0.117239 0.445508 -0.016173 3.000000
0.035222 -0.147824 -0.421962 3.000000
-0.064457 0.024793 -0.446849 3.000000
-0.056172 -0.415924 0.155462 3.000000
0.141202 -0.126276 -0.428965 3.000000
-0.223303 -0.431032 0.108135 3.000000
0.242645 0.084010 -0.439715 3.000000
0.272481 -0.437822 -0.080662 3.000000
0.198705 0.437352 -0.088801 3.000000
0.022555 -0.256321 0.361577 3.000000
0.163380 -0.394264 -0.208056 3.000000
-0.003528 -0.419912 0.144386 3.000000
0.136191 0.400017 0.194422 3.000000
-0.155633 0.045397 0.440780 3.000000
0.127487 0.222588 0.383734 3.000000
-0.210090 0.427267 -0.129083 3.000000
0.201753 0.411776 -0.172834 3.000000
0.024071 -0.137822 0.421210 3.000000
0.150770 -0.330183 -0.300307 3.000000
0.224556 -0.194887 0.397939 3.000000
-0.160067 0.215845 -0.392076 3.000000
-0.279635 -0.342869 -0.285891 4.000000
0.000695 0.335042 0.291604 3.000000
-0.275801 -0.292741 -0.337172 3.000000
0.238480 -0.097922 0.432023 3.000000
-0.213979 0.298298 -0.333176 3.000000
-0.243752 0.035295 0.441735 3.000000
-0.171880 0.388407 -0.220899 3.000000
-0.240146 0.103035 -0.435462 3.000000
-0.162544 -0.109507 -0.433787 3.000000
0.116560 0.387433 -0.222544 3.000000
-0.262323 0.064004 -0.442886 3.000000
-0.192691 0.257461 0.361498 3.000000
0.139490 -0.251396 0.364924 3.000000
0.218877 -0.443174 -0.039345 3.000000
0.038496 0.100358 0.431707 3.000000
0.005549 0.445636 -0.012095 3.000000
-0.058908 -0.255773 -0.366302 3.000000
-0.200664 -0.376286 -0.239660 3.000000
0.285644 -0.384656 0.221154 1.000000
-0.172157 -0.290286 0.334983 3.000000
-0.277833 -0.431885 0.104318 3.000000
-0.135298 0.440502 -0.070209 3.000000
0.202656 0.409585 0.173543 3.000000
-0.066684 -0.354337 0.266754 3.000000
-0.223075 -0.055117 -0.444118 3.000000
-0.108450 0.229353 -0.384087 3.000000
-0.049560 0.280110 -0.348752 3.000000
0.155586 -0.105468 -0.434689 3.000000
0.178879 -0.255506 -0.366484 3.000000
-0.163642 0.360730 -0.264186 3.000000
0.045672 -0.142505 0.419524 3.000000
-0.055429 -0.036049 0.441567 3.000000
-0.032197 -0.427128 0.121679 3.000000
0.105311 0.269954 -0.356629 3.000000
0.099237 0.326664 0.301107 3.000000
0.254914 0.371718 -0.248045 3.000000
0.279842 -0.332677 0.293124 3.000000
0.053903 0.287065 0.338726 3.000000
-0.286594 0.131135 -0.427852 4.000000
0.051452 0.350107 0.273528 3.000000
0.282891 -0.023066 -0.446871 1.000000
0.103595 -0.385795 -0.223581 3.000000
-0.076728 -0.277980 -0.349609 3.000000
0.121485 0.374031 -0.244642 3.000000
0.149117 0.366177 -0.256197 3.000000
0.084202 0.258429 -0.365194 3.000000
-0.061649 0.430333 0.114177 3.000000
0.209707 0.443437 0.043055 3.000000
-0.261025 -0.354207 0.266920 3.000000
0.170883 -0.311957 -0.319336 3.000000
-0.160512 -0.296298 -0.334035 3.000000
0.153413 -0.374847 -0.241933 3.000000
-0.152180 0.225400 0.382071 3.000000
-0.024650 -0.199390 -0.399998 3.000000
0.080872 -0.188654 -0.405431 3.000000
0.279642 -0.376535 0.234886 3.000000
0.065528 0.245122 -0.374238 3.000000
-0.189499 0.364836 0.253818 3.000000
-0.112587 -0.098604 0.431870 3.000000
0.208825 0.275287 0.348139 3.000000
-0.116326 0.240867 0.372775 3.000000
0.144456 0.382752 -0.230460 3.000000
-0.097189 0.051125 0.440239 3.000000
0.260383 0.190342 0.400777 3.000000
-0.125868 -0.434042 0.094668 3.000000
-0.232880 -0.372831 0.240546 3.000000
-0.159432 0.444528 0.031511 3.000000
-0.139521 0.109764 0.429605 3.000000
-0.049416 -0.286122 0.338653 3.000000
0.228523 -0.363368 -0.258823 3.000000
-0.219457 -0.444821 0.001042 3.000000
0.009154 -0.435630 0.087565 3.000000
-0.267106 0.317934 -0.314385 3.000000
0.218805 -0.382420 -0.229289 3.000000
-0.191935 0.443042 0.047232 3.000000
0.067065 -0.412640 -0.168469 3.000000
-0.116040 0.329910 -0.301779 3.000000
-0.195285 0.390189 -0.217884 3.000000
0.230845 -0.433900 0.095307 3.000000
-0.242622 -0.396500 0.199314 3.000000
-0.276831 -0.439498 0.065724 3.000000
-0.105600 0.016854 0.442745 3.000000
-0.260146 0.182487 -0.408543 3.000000
0.242546 0.318338 0.309627 3.000000
-0.120656 0.168550 0.410220 3.000000
0.242177 -0.295738 0.330176 3.000000
-0.130805 -0.376309 -0.239622 3.000000
0.002804 0.106321 -0.434728 3.000000
-0.026571 -0.440258 -0.065280 3.000000
0.048447 -0.249933 -0.370271 3.000000
0.217265 -0.431886 -0.108666 3.000000
-0.140155 -0.194828 -0.402322 3.000000
0.188399 -0.202276 0.394174 3.000000
-0.263290 0.410351 -0.176128 3.000000
-0.201102 0.268828 -0.357503 3.000000
0.165979 -0.014291 0.442793 3.000000
-0.101299 -0.353775 -0.271831 3.000000
0.168566 -0.255829 -0.366264 3.000000
-0.280855 0.420261 0.146262 3.000000
-0.170542 -0.392960 -0.210614 3.000000
-0.165952 -0.386091 -0.223082 3.000000
0.256969 -0.363831 0.253789 3.000000
0.071748 -0.318993 -0.312301 3.000000
-0.014721 -0.316758 0.310183 3.000000
0.257640 0.438740 0.076983 3.000000
-0.215332 -0.285546 -0.343515 3.000000
0.176443 0.412632 -0.170855 3.000000
-0.102865 -0.399905 -0.196984 3.000000
0.158973 -0.442692 0.040095 3.000000
0.078355 -0.017548 -0.447044 3.000000
-0.053802 -0.444114 0.023571 3.000000
-0.233269 -0.441514 -0.056907 3.000000
-0.098294 -0.320516 -0.310777 3.000000
-0.062233 -0.423471 -0.138620 3.000000
-0.203004 -0.443223 -0.038833 3.000000
0.205963 0.390999 -0.216475 3.000000
-0.238701 -0.340361 -0.288763 3.000000
-0.142972 -0.263009 0.356868 3.000000
-0.010773 0.294022 -0.336946 3.000000
0.159459 0.008692 0.443001 3.000000
0.106189 -0.092406 0.433256 3.000000
-0.224965 -0.115657 0.427697 3.000000
0.223196 0.445048 0.026014 3.000000
-0.170390 0.007307 -0.447398 3.000000
0.203916 -0.373611 -0.243751 3.000000
-0.244634 0.441891 0.057087 3.000000
-0.093754 0.000560 -0.447610 3.000000
0.227431 -0.163525 0.411952 3.000000
-0.223157 0.430075 0.115062 3.000000
0.171951 -0.358517 -0.265718 3.000000
0.003709 -0.000279 -0.447587 3.000000
-0.090102 -0.426553 0.123660 3.000000
-0.178076 -0.002804 -0.447508 3.000000
-0.074479 0.266751 0.354760 3.000000
0.019501 -0.379304 0.230203 3.000000
-0.219165 0.248739 -0.371780 3.000000
-0.065760 0.171902 -0.413123 3.000000
0.262773 0.426659 0.126820 3.000000
0.001991 0.391087 -0.216302 3.000000
0.177842 0.065905 0.438231 3.000000
0.247383 -0.247449 -0.371960 3.000000
0.030703 -0.409733 0.170834 3.000000
-0.242671 0.314500 0.313465 3.000000
-0.070014 0.035356 0.441730 3.000000
-0.280855 -0.015133 -0.447120 4.000000
0.189761 -0.260824 -0.362870 3.000000
-0.050703 -0.301596 0.325012 3.000000
0.089357 -0.286577 0.338252 3.000000
-0.156531 0.273488 0.349535 3.000000
0.259117 -0.363014 -0.259345 3.000000
-0.002704 0.307140 0.320825 3.000000
0.270578 0.348675 -0.279728 3.000000
0.134089 0.405091 0.183929 3.000000
-0.172049 0.439064 -0.079288 3.000000
0.095723 0.340284 -0.290012 3.000000
0.012114 -0.045603 -0.445017 3.000000
0.021525 -0.110341 0.429242 3.000000
-0.260921 0.251934 -0.369608 3.000000
-0.140093 -0.123260 0.425488 3.000000
0.174434 0.301959 -0.329948 3.000000
0.055069 0.375835 -0.241987 3.000000
0.049807 0.231680 0.378357 3.000000
-0.017895 -0.286455 0.338360 3.000000
0.230879 -0.242585 -0.375265 3.000000
-0.003648 -0.081114 0.435660 3.000000
-0.220146 0.034926 -0.446124 3.000000
-0.236429 -0.236764 0.374744 3.000000
0.224616 -0.444844 0.000333 3.000000
0.243411 -0.427682 0.119773 3.000000
0.243271 0.429418 -0.121678 3.000000
-0.072398 -0.257379 -0.365212 3.000000
-0.113279 0.062347 0.438794 3.000000
0.057677 0.329457 0.297940 3.000000
-0.132339 -0.402003 -0.192866 3.000000
-0.162223 -0.121721 0.425935 3.000000
0.206544 -0.020103 -0.446964 3.000000
-0.240949 -0.319100 -0.312194 3.000000
0.096986 0.372565 -0.246798 3.000000
-0.188835 0.429200 -0.122430 3.000000
0.224545 0.407527 -0.182652 3.000000
0.002687 -0.238146 -0.378281 3.000000
-0.277219 0.316978 -0.315340 3.000000
0.192608 -0.296522 -0.333838 3.000000
0.224731 -0.444078 -0.029069 3.000000
0.148511 -0.442906 -0.042183 3.000000
-0.189221 -0.207764 0.391378 3.000000
0.018061 0.397400 0.199559 3.000000
-0.246116 -0.440887 0.056953 3.000000
-0.234443 -0.388538 -0.218944 3.000000
0.064089 -0.444627 -0.011595 3.000000
0.083028 0.008314 0.443013 3.000000
0.007825 -0.388197 0.215166 3.000000
-0.256315 -0.191505 0.399662 3.000000
0.286341 0.328165 0.299404 1.000000
0.124103 -0.351620 0.270257 3.000000
-0.153917 0.356612 -0.269495 3.000000
-0.226554 0.099437 -0.436267 3.000000
-0.246592 -0.379590 -0.234073 3.000000
0.154975 -0.394230 0.203769 3.000000
0.137568 0.445637 -0.012065 3.000000
0.080197 0.317050 0.310915 3.000000
0.227320 0.393967 -0.210649 3.000000
0.154911 -0.443736 -0.033406 3.000000
-0.048328 -0.199894 0.395388 3.000000
-0.096686 -0.361857 -0.261047 3.000000
0.277288 0.100668 -0.435991 1.000000
-0.083820 -0.263968 0.356124 3.000000
0.047217 0.121248 -0.430724 3.000000
0.210370 0.354415 0.267974 3.000000
0.008917 -0.336271 0.289048 3.000000
-0.018690 -0.319727 -0.311567 3.000000
0.105161 -0.398678 0.195039 3.000000
0.178780 -0.158376 -0.418163 3.000000
-0.253294 -0.082791 0.435394 3.000000
0.176936 -0.033090 -0.446200 3.000000
0.229873 -0.125717 -0.429128 3.000000
0.176337 -0.438113 0.074469 3.000000
-0.155685 -0.317358 -0.313936 3.000000
-0.106192 -0.177090 0.406082 3.000000
0.102692 0.442315 0.054409 3.000000
0.250879 -0.285486 -0.343568 3.000000
-0.018124 -0.403128 0.186096 3.000000
0.193356 0.174269 -0.412099 3.000000
-0.149839 0.398966 0.196484 3.000000
-0.277874 -0.196327 0.397206 3.000000
0.000048 0.428355 0.120983 3.000000
-0.040154 0.389208 -0.219543 3.000000
0.031919 0.335164 0.291466 3.000000
-0.038420 -0.434014 0.094796 3.000000
0.042082 0.375092 -0.243080 3.000000
0.203620 -0.443442 0.032155 3.000000
0.046408 0.050375 0.440310 3.000000
-0.225206 0.043569 0.440953 3.000000
-0.224190 -0.160614 0.413004 3.000000
0.175310 0.127086 0.424674 3.000000
0.191961 0.011069 -0.447280 3.000000
-0.088810 -0.423284 0.134911 3.000000
0.285890 0.047410 -0.444943 1.000000
-0.247515 -0.018595 0.442658 3.000000
-0.219196 0.011533 0.442912 3.000000
0.203429 0.442100 -0.060119 3.000000
0.190958 0.273323 -0.354016 3.000000
0.110132 0.441317 -0.065066 3.000000
0.249859 0.419520 -0.152674 3.000000
-0.237669 0.441408 -0.064491 3.000000
0.224864 -0.103351 -0.435163 3.000000
0.015085 -0.437746 0.076786 3.000000
0.023826 0.389746 -0.218634 3.000000
-0.274609 0.437813 0.082382 3.000000
-0.133939 0.171174 0.409085 3.000000
0.282224 0.076695 0.436522 3.000000
-0.139346 -0.180838 0.404460 3.000000
-0.172994 0.443868 0.038492 3.000000
-0.238093 -0.176553 0.406314 3.000000
0.066456 -0.377743 -0.237197 3.000000
-0.023159 0.434257 0.098292 3.000000
-0.105365 -0.438887 -0.073935 3.000000
0.104707 0.264278 0.356678 3.000000
-0.104907 -0.109389 0.429460 3.000000
-0.131488 0.065513 0.438293 3.000000
0.129099 -0.377394 -0.237786 3.000000
-0.145654 0.254374 -0.367950 3.000000
-0.042897 0.374006 -0.244678 3.000000
-0.065828 -0.284565 0.340026 3.000000
-0.058920 0.432800 0.104812 3.000000
-0.192598 -0.274110 0.348257 3.000000
0.028568 0.219230 0.385720 3.000000
0.216766 0.284148 0.341266 3.000000
0.010710 0.445801 0.002484 3.000000
-0.246533 -0.190959 -0.404294 3.000000
-0.028177 0.195552 -0.402476 3.000000
0.144670 -0.402305 0.187921 3.000000
-0.007925 -0.407463 0.176078 3.000000
-0.138982 0.159927 -0.417974 3.000000
0.014245 -0.251804 0.364646 3.000000
-0.035495 -0.444855 -0.004341 3.000000
-0.276887 -0.047386 0.440496 3.000000
0.261542 -0.370609 0.243816 3.000000
0.136109 -0.419007 -0.151253 3.000000
-0.289228 -0.368705 0.246617 4.000000
-0.166964 -0.198541 0.396077 3.000000
-0.075189 0.392709 -0.213119 3.000000
-0.186997 0.078114 -0.440651 3.000000
-0.098584 -0.042752 0.440934 3.000000
-0.222442 0.385828 0.220905 3.000000
-0.260205 0.355578 0.266474 3.000000
0.169657 -0.325171 0.301638 3.000000
-0.137876 0.232215 0.378041 3.000000
0.270794 0.346744 0.277863 3.000000
0.235846 -0.084647 0.434990 3.000000
-0.115434 -0.274104 -0.352615 3.000000
-0.215674 -0.010097 0.442925 3.000000
0.221981 0.445746 0.004233 3.000000
-0.098820 -0.438574 0.071558 3.000000
-0.085697 -0.046748 0.440556 3.000000
-0.043817 -0.384222 -0.226241 3.000000
0.136296 0.164541 0.411956 3.000000
0.075158 -0.390589 0.210914 3.000000
0.107507 -0.283490 -0.345328 3.000000
-0.121706 -0.424856 0.129501 3.000000
0.149626 0.433728 0.100659 3.000000
-0.153210 0.074927 -0.441156 3.000000
0.060906 -0.426375 0.124272 3.000000
-0.266924 -0.433409 0.097502 3.000000
0.033277 0.440824 -0.068174 3.000000
-0.065398 -0.182873 0.403579 3.000000
-0.147535 0.444839 -0.032570 3.000000
0.037150 -0.375712 0.236278 3.000000
-0.141616 0.362075 0.257881 3.000000
0.274857 -0.222107 -0.387766 1.000000
-0.233939 0.276622 -0.351457 3.000000
0.129546 0.378494 0.233307 3.000000
0.110152 -0.424753 -0.134207 3.000000
-0.167472 -0.231867 0.377640 3.000000
-0.256086 -0.234449 -0.380467 3.000000
0.067453 -0.041064 -0.445447 3.000000
-0.125366 0.194064 0.398881 3.000000
-0.140592 -0.439572 -0.069612 3.000000
0.076662 -0.423247 -0.139393 3.000000
-0.198689 -0.253600 -0.367779 3.000000
-0.088233 0.439776 -0.074793 3.000000
0.102525 0.200245 -0.400084 3.000000
0.254249 -0.339494 0.285392 3.000000
0.159490 0.444494 -0.036221 3.000000
0.124307 0.132161 0.423200 3.000000
-0.211285 0.068307 -0.442204 3.000000
0.032737 0.406514 0.180640 3.000000
-0.086644 -0.126208 0.424632 3.000000
-0.257445 0.215350 0.388015 3.000000
-0.246054 0.028551 -0.446726 3.000000
0.038696 -0.365663 0.251093 3.000000
0.281386 0.391140 0.211843 1.000000
-0.208647 -0.375633 0.236412 3.000000
-0.113186 -0.156921 -0.418687 3.000000
-0.199349 -0.403072 -0.190580 3.000000
0.107111 0.362226 0.257659 3.000000
0.118970 -0.438100 0.074549 3.000000
-0.160483 0.445531 -0.015412 3.000000
-0.251742 -0.362610 -0.259939 3.000000
0.246124 0.025082 -0.446840 3.000000
-0.060970 -0.354598 -0.270770 3.000000
-0.016832 0.246613 0.368871 3.000000
-0.241404 0.196322 -0.402084 3.000000
-0.015976 0.271573 -0.355373 3.000000
-0.202245 -0.100445 0.431459 3.000000
0.200626 0.404381 -0.189922 3.000000
0.204290 -0.118677 0.426819 3.000000
0.173545 0.118534 -0.431512 3.000000
0.158586 0.414826 0.161359 3.000000
0.240326 0.401777 0.190968 3.000000
-0.217163 0.331418 -0.300069 3.000000
-0.125851 0.277512 -0.350767 3.000000
0.021497 0.062699 -0.443092 3.000000
-0.273397 -0.318957 -0.312337 3.000000
-0.220468 -0.211494 -0.393831 3.000000
-0.206178 0.104635 0.430751 3.000000
0.050656 0.424494 -0.138625 3.000000
-0.070128 0.314769 0.313196 3.000000
0.143295 -0.441139 0.055365 3.000000
-0.182240 0.358081 0.263247 3.000000
-0.188008 -0.251386 -0.369284 3.000000
-0.197481 -0.435211 -0.093795 3.000000
-0.207625 0.247180 -0.372839 3.000000
-0.051913 0.261957 -0.362796 3.000000
-0.058563 0.228521 -0.384579 3.000000
-0.054776 0.397536 -0.203644 3.000000
-0.121953 0.210859 0.390323 3.000000
-0.036393 -0.429516 -0.117814 3.000000
-0.016084 -0.413065 0.163133 3.000000
-0.277226 -0.443204 -0.039031 3.000000
0.286608 0.352891 0.269939 1.000000
-0.030551 0.441193 0.061490 3.000000
-0.288108 0.348790 0.275226 4.000000
-0.003651 0.205569 -0.397372 3.000000
0.107984 0.251399 0.365619 3.000000
-0.137144 0.094866 -0.437288 3.000000
0.071584 -0.442599 -0.045424 3.000000
-0.185909 -0.307319 0.319621 3.000000
0.174478 0.436768 -0.091410 3.000000
-0.177365 -0.083830 -0.439526 3.000000
0.011750 -0.443461 -0.036313 3.000000
-0.019972 0.083675 -0.439770 3.000000
-0.003554 0.128181 -0.428710 3.000000
0.026169 -0.275878 -0.351239 3.000000
-0.215253 0.206270 0.392661 3.000000
0.076226 -0.267185 0.353629 3.000000
-0.272372 -0.434091 -0.098802 3.000000
-0.124299 0.311611 0.316354 3.000000
-0.095567 -0.146922 -0.422287 3.000000
-0.050497 0.413088 -0.169801 3.000000
0.270884 -0.328589 0.297761 3.000000
-0.120563 -0.090757 0.433624 3.000000
0.079984 -0.063853 -0.442747 3.000000
-0.074401 0.341868 -0.288215 3.000000
-0.184553 0.103554 -0.435346 3.000000
0.159585 -0.324024 0.302917 3.000000
-0.155672 0.059715 -0.443565 3.000000
-0.079618 -0.207268 -0.395984 3.000000
0.272947 -0.201132 0.394757 3.000000
0.264751 -0.437221 0.080104 3.000000
0.226161 0.371036 -0.249048 3.000000
-0.136338 0.080043 -0.440345 3.000000
-0.225798 0.445335 0.017310 3.000000
0.186271 0.300452 -0.331277 3.000000
-0.206796 -0.308084 0.318857 3.000000
0.273323 -0.161301 0.412757 3.000000
-0.010946 -0.372266 -0.245731 3.000000
0.255356 0.416565 -0.160882 3.000000
-0.199437 -0.440444 0.059755 3.000000
-0.031562 -0.335551 0.289865 3.000000
0.223681 0.415763 0.158756 3.000000
-0.173720 0.158210 0.414239 3.000000
0.046450 0.276475 0.347218 3.000000
0.075773 0.445945 -0.002107 3.000000
0.131966 -0.133097 -0.426984 3.000000
0.116801 0.054591 0.439911 3.000000
0.223174 0.159623 0.413730 3.000000
-0.139582 -0.289153 0.335982 3.000000
0.189870 0.228564 0.380200 3.000000
0.018613 0.229292 -0.384123 3.000000
0.034681 -0.436708 0.082741 3.000000
0.183885 0.042850 0.441021 3.000000
0.040439 0.433863 0.100057 3.000000
0.019887 -0.029217 -0.446566 3.000000
-0.287727 -0.305932 0.321008 4.000000
-0.258434 -0.436762 0.082501 3.000000
0.000219 -0.158182 0.413880 3.000000
-0.222703 0.293406 0.333135 3.000000
0.039329 -0.391262 0.209594 3.000000
-0.289683 -0.414132 -0.164793 4.000000
0.250799 0.193680 0.399076 3.000000
0.057763 0.345376 0.279627 3.000000
0.012044 0.288898 -0.341463 3.000000
-0.077874 0.088704 -0.438666 3.000000
0.073181 0.272639 0.350193 3.000000
-0.288241 -0.411945 0.165721 4.000000
0.022271 -0.044790 0.440741 3.000000
0.201405 0.355245 -0.271257 3.000000
0.088422 -0.163460 0.411980 3.000000
-0.096190 -0.302712 0.324027 3.000000
0.197442 0.212183 -0.394002 3.000000
-0.194160 0.153232 0.416031 3.000000
-0.264003 -0.113298 -0.432736 3.000000
0.212506 0.119670 -0.431182 3.000000
0.063064 -0.097598 0.432095 3.000000
0.072245 0.084982 0.435144 3.000000
0.124201 0.318707 -0.313612 3.000000
-0.149305 -0.294347 -0.335755 3.000000
0.106944 -0.008952 0.442961 3.000000
-0.111985 -0.211101 0.389677 3.000000
-0.289827 0.152029 0.416464 4.000000
-0.080606 -0.320742 0.306198 3.000000
-0.158519 0.302800 -0.329206 3.000000
-0.048745 0.383134 0.225460 3.000000
0.268408 0.046797 -0.445001 3.000000
-0.022540 0.331988 0.295069 3.000000
-0.069190 -0.236545 0.374874 3.000000
-0.054254 -0.116876 -0.431696 3.000000
0.258523 -0.410239 -0.174018 3.000000
0.102534 0.285143 -0.344774 3.000000
-0.269615 -0.146462 0.418099 3.000000
-0.217823 -0.416017 -0.159556 3.000000
-0.177693 0.405839 0.182200 3.000000
-0.196193 0.246495 -0.373304 3.000000
0.084212 0.270355 0.351965 3.000000
0.009296 -0.273215 0.348952 3.000000
-0.005400 -0.411882 0.165867 3.000000
0.232406 0.240058 0.373326 3.000000
0.086716 -0.442701 -0.044348 3.000000
-0.067779 -0.081345 0.435623 3.000000
-0.027009 0.404300 -0.190110 3.000000
-0.030287 0.287279 0.338537 3.000000
0.015276 -0.017122 -0.447058 3.000000
0.098007 -0.211100 0.389678 3.000000
0.170126 -0.254898 0.362544 3.000000
0.270175 0.327494 0.300166 3.000000
0.038467 -0.172575 -0.412388 3.000000
-0.232020 0.310691 0.317274 3.000000
0.040668 0.442294 0.054544 3.000000
-0.278173 0.434877 -0.099872 3.000000
0.185629 -0.296533 0.329475 3.000000
0.067422 -0.174282 -0.411650 3.000000
0.078549 0.109273 -0.434068 3.000000
-0.084409 0.379467 0.231661 3.000000
-0.143722 0.147283 -0.422526 3.000000
-0.135092 -0.218369 -0.389976 3.000000
-0.029170 0.378144 0.233898 3.000000
-0.071106 0.255991 0.362497 3.000000
-0.159749 0.385824 -0.225266 3.000000
0.219626 0.441658 0.058555 3.000000
0.265718 0.438570 -0.082409 3.000000
-0.262906 -0.419641 -0.149491 3.000000
0.158483 0.205870 -0.397219 3.000000
0.255617 -0.327456 0.299046 3.000000
0.009744 -0.346882 0.276365 3.000000
-0.090596 0.312411 0.315554 3.000000
0.062771 0.156387 0.414895 3.000000
0.273754 0.156268 -0.419291 3.000000
-0.172501 -0.425254 0.128131 3.000000
0.115213 0.407659 0.177994 3.000000
-0.167999 -0.442848 -0.042790 3.000000
-0.043262 0.398367 0.197661 3.000000
0.229224 -0.408705 0.173208 3.000000
0.058978 -0.040563 0.441140 3.000000
0.232605 0.012064 0.442895 3.000000
-0.227106 -0.351108 -0.275270 3.000000
-0.122496 0.442631 0.051573 3.000000
-0.042178 0.406070 0.181666 3.000000
0.122681 0.418097 0.152272 3.000000
-0.093323 0.295651 -0.335509 3.000000
0.096852 0.017834 0.442714 3.000000
0.095239 0.193494 -0.403524 3.000000
0.198737 0.001159 -0.447591 3.000000
0.067916 -0.442567 0.041417 3.000000
0.081749 -0.444570 0.009048 3.000000
0.253531 0.295480 0.331307 3.000000
-0.181830 -0.429446 -0.118055 3.000000
-0.124371 0.373063 0.241712 3.000000
-0.286588 -0.286090 0.338681 4.000000
0.219001 -0.439286 0.067063 3.000000
0.206334 0.381278 0.228599 3.000000
0.105867 0.443453 0.042886 3.000000
-0.234115 0.441805 0.057629 3.000000
0.058490 0.378573 0.233173 3.000000
-0.161323 -0.362553 0.255669 3.000000
-0.129851 -0.136482 -0.426000 3.000000
0.082731 0.223619 0.383124 3.000000
0.266113 0.325306 -0.307001 3.000000
-0.250187 -0.393742 -0.209079 3.000000
0.237289 -0.444067 0.025061 3.000000
-0.253837 0.192240 0.399810 3.000000
0.112705 0.425294 0.131521 3.000000
0.251623 -0.206946 0.391795 3.000000
-0.032369 0.444573 0.031034 3.000000
0.147235 -0.011860 0.442870 3.000000
0.016393 0.398772 -0.201219 3.000000
-0.203799 -0.386138 -0.223001 3.000000
0.104869 0.391438 -0.215614 3.000000
-0.075874 -0.385499 0.219729 3.000000
0.119455 -0.363613 0.254109 3.000000
-0.289280 -0.208202 -0.395508 4.000000
0.177977 0.359964 0.260820 3.000000
-0.203275 -0.118792 -0.431140 3.000000
0.200207 0.350912 0.272490 3.000000
0.073649 0.175680 -0.411488 3.000000
-0.283022 0.291842 -0.338868 4.000000
0.225755 -0.331955 -0.298297 3.000000
0.205551 -0.432714 -0.104965 3.000000
-0.153840 -0.425469 0.127391 3.000000
0.183519 -0.440339 0.060413 3.000000
-0.007277 0.397495 0.199371 3.000000
0.203074 -0.309420 0.317520 3.000000
0.275125 0.035606 -0.446059 1.000000
-0.239724 -0.443543 0.031085 3.000000
0.248011 0.137956 0.421516 3.000000
-0.279374 -0.130132 -0.427845 4.000000
-0.024396 -0.280881 -0.347358 3.000000
0.239505 0.437901 0.081992 3.000000
-0.197834 -0.303429 0.323395 3.000000
-0.225902 -0.344816 0.279028 3.000000
0.112229 -0.431032 -0.112487 3.000000
-0.182096 -0.100647 0.431413 3.000000
0.099961 0.017331 -0.447083 3.000000
0.144493 0.294731 0.331967 3.000000
0.149787 -0.029470 -0.446543 3.000000
0.031363 0.364784 0.253894 3.000000
0.112919 -0.273822 0.348481 3.000000
0.200249 -0.100345 -0.435834 3.000000
0.106671 0.138162 0.421456 3.000000
-0.086887 0.044328 0.440881 3.000000
-0.071907 0.413351 0.164842 3.000000
-0.237089 0.034053 -0.446206 3.000000
-0.191859 0.238823 -0.378486 3.000000
-0.230735 0.247237 0.368447 3.000000
0.144363 -0.025637 0.442437 3.000000
0.040093 -0.254231 0.362997 3.000000
-0.117598 -0.116048 -0.431937 3.000000
0.184957 -0.313822 -0.317471 3.000000
0.035712 -0.087060 0.434451 3.000000
0.045481 -0.039817 0.441211 3.000000
-0.060564 -0.194121 -0.402683 3.000000
-0.170749 -0.271489 -0.354644 3.000000
-0.138711 0.145037 0.418981 3.000000
-0.024348 -0.393157 0.205875 3.000000
0.082125 -0.436233 0.084866 3.000000
-0.067073 0.065546 -0.442641 3.000000
-0.167850 0.442807 -0.054067 3.000000
-0.239932 0.133606 0.422780 3.000000
-0.255165 -0.399361 -0.198051 3.000000
-0.034903 -0.230917 -0.382556 3.000000
-0.266973 -0.117188 0.427252 3.000000
0.036506 0.049148 -0.444779 3.000000
0.182278 0.385395 0.221637 3.000000
-0.153495 0.433387 0.102185 3.000000
0.067855 -0.262100 -0.361927 3.000000
0.009363 0.381888 -0.231921 3.000000
0.139226 0.219441 0.385595 3.000000
-0.056758 0.213639 -0.393260 3.000000
-0.023902 0.206469 0.392560 3.000000
-0.216059 0.392904 -0.212736 3.000000
-0.244798 0.360732 0.259830 3.000000
0.012461 0.306336 -0.325982 3.000000
-0.041494 -0.146501 0.418085 3.000000
0.143027 -0.439839 -0.067928 3.000000
0.200771 -0.423246 -0.139397 3.000000
-0.250337 -0.200101 -0.399636 3.000000
-0.233154 0.237028 -0.379548 3.000000
-0.075674 -0.040368 -0.445512 3.000000
0.025971 -0.364627 -0.256971 3.000000
0.173785 -0.154396 0.415243 3.000000
-0.247790 0.322225 -0.310094 3.000000
-0.275069 -0.417625 0.150738 3.000000
0.051374 -0.167940 -0.414394 3.000000
0.102918 -0.431689 0.105195 3.000000
-0.101605 0.445855 -0.005115 3.000000
0.080733 0.442630 -0.055945 3.000000
-0.111245 -0.250768 0.365351 3.000000
-0.232118 0.304398 -0.327798 3.000000
-0.113612 -0.310906 0.316035 3.000000
-0.090990 -0.263255 -0.361031 3.000000
-0.078899 0.123324 -0.430121 3.000000
-0.037762 0.219219 0.385726 3.000000
-0.031417 -0.442262 -0.048990 3.000000
0.184617 0.349091 -0.279192 3.000000
-0.254901 -0.220315 -0.388826 3.000000
-0.119758 -0.351293 -0.275031 3.000000
-0.185678 -0.260259 -0.363254 3.000000
-0.025983 -0.260192 -0.363299 3.000000
0.105993 -0.115036 -0.432231 3.000000
-0.289729 -0.024194 -0.446835 4.000000
-0.028679 -0.012949 -0.447189 3.000000
0.275118 0.432496 -0.110522 3.000000
-0.152085 0.050327 -0.444668 3.000000
0.206913 -0.368061 -0.251917 3.000000
0.008297 -0.420439 0.142920 3.000000
-0.045607 0.444011 -0.041337 3.000000
-0.283220 -0.168478 -0.414161 4.000000
0.118235 -0.137601 0.421289 3.000000
-0.023775 0.071936 -0.441629 3.000000
0.259777 -0.443729 -0.033479 3.000000
-0.025896 0.445867 0.000391 3.000000
-0.037956 0.166536 0.411092 3.000000
0.119917 -0.047879 -0.444802 3.000000
-0.118727 0.264770 -0.360650 3.000000
0.284265 -0.299197 0.327127 1.000000
-0.258677 0.434167 0.098695 3.000000
0.286163 -0.441103 0.055588 1.000000
0.193064 -0.439932 -0.067335 3.000000
-0.079095 0.224670 0.382503 3.000000
0.050757 0.304100 -0.328061 3.000000
-0.202225 -0.286455 0.338360 3.000000
-0.265018 -0.239193 -0.377570 3.000000
0.218186 0.443787 -0.043707 3.000000
0.126307 -0.227065 -0.384833 3.000000
0.129139 0.344604 -0.284976 3.000000
0.220839 -0.209963 0.390258 3.000000
-0.020717 -0.129414 0.423700 3.000000
0.027938 -0.058654 -0.443571 3.000000
0.087554 -0.414455 0.159543 3.000000
-0.106510 0.151683 0.416588 3.000000
0.062734 -0.418563 0.148132 3.000000
0.028433 -0.301433 0.325155 3.000000
-0.186042 -0.395310 0.201649 3.000000
-0.244217 0.095104 0.432881 3.000000
-0.225157 0.320257 0.307708 3.000000
0.000787 -0.398933 -0.198892 3.000000
0.251348 0.443967 -0.041793 3.000000
0.220945 -0.011063 0.442895 3.000000
0.186230 -0.387750 -0.220276 3.000000
0.111392 -0.076560 -0.440735 3.000000
0.197037 -0.063473 0.438454 3.000000
-0.043149 -0.333719 -0.296296 3.000000
-0.019401 -0.251024 0.365176 3.000000
0.105973 -0.067864 0.437758 3.000000
-0.212868 -0.168922 -0.413969 3.000000
0.166735 0.218100 0.386388 3.000000
-0.185279 -0.011438 -0.447236 3.000000
-0.033347 -0.276447 -0.350798 3.000000
0.081447 0.147092 -0.422595 3.000000
-0.037574 -0.137749 0.421236 3.000000
-0.193961 0.086900 -0.439069 3.000000
-0.115659 0.444550 -0.035634 3.000000
-0.124608 -0.211771 0.389336 3.000000
-0.131330 0.445515 -0.015948 3.000000
-0.278796 0.161696 -0.417337 4.000000
0.051199 -0.015280 0.442762 3.000000
0.144048 0.425339 0.131366 3.000000
-0.053732 -0.389567 -0.217203 3.000000
0.127218 0.249337 0.367020 3.000000
0.220368 0.260519 -0.363774 3.000000
0.091592 0.267123 -0.358825 3.000000
-0.258434 -0.418732 0.147662 3.000000
-0.166673 0.362034 0.257941 3.000000
-0.201841 -0.201583 -0.398881 3.000000
0.215002 -0.157467 -0.418490 3.000000
-0.062021 -0.028357 0.442294 3.000000
0.134396 -0.102358 -0.435385 3.000000
0.266297 0.434502 -0.101549 3.000000
0.036776 0.077136 -0.440806 3.000000
0.213331 -0.094459 0.432797 3.000000
-0.111160 0.308207 -0.324111 3.000000
-0.130395 0.117118 0.427570 3.000000
-0.171351 0.445356 -0.020997 3.000000
0.252220 -0.406874 -0.181793 3.000000
0.085987 0.368150 0.248941 3.000000
0.202803 0.113336 0.428669 3.000000
0.124284 -0.443589 0.030598 3.000000
0.150358 0.321517 -0.310802 3.000000
-0.238564 -0.440012 -0.066830 3.000000
0.177733 0.010689 -0.447292 3.000000
-0.001286 -0.350157 -0.276495 3.000000
-0.074555 -0.442667 0.040352 3.000000
0.183915 0.094192 -0.437439 3.000000
0.024779 0.236496 -0.379862 3.000000
0.113265 -0.216811 -0.390898 3.000000
-0.204936 0.445554 0.010355 3.000000
-0.227778 -0.418822 -0.151765 3.000000
-0.003990 -0.203655 -0.397825 3.000000
0.254455 -0.338607 -0.290752 3.000000
0.002540 -0.104874 0.430469 3.000000
-0.174125 -0.119326 0.426631 3.000000
0.271955 0.443561 0.041736 3.000000
-0.244132 -0.082515 -0.439791 3.000000
0.214627 0.433147 -0.107612 3.000000
0.017570 0.438740 -0.081334 3.000000
0.156481 0.395418 0.203448 3.000000
0.097797 -0.037618 0.441419 3.000000
0.263569 0.423599 0.136992 3.000000
-0.264763 0.397375 -0.203961 3.000000
0.238665 0.106145 0.430414 3.000000
-0.018697 -0.423358 -0.139011 3.000000
0.090710 0.216105 0.387568 3.000000
-0.114666 -0.016808 0.442714 3.000000
0.285906 -0.371327 0.242758 1.000000
-0.202859 0.311735 0.316230 3.000000
-0.101949 -0.380650 -0.232281 3.000000
-0.012568 -0.432604 -0.105457 3.000000
-0.066877 -0.306541 -0.324752 3.000000
-0.010346 0.440048 -0.073074 3.000000
0.140549 0.377907 0.234298 3.000000
0.197946 -0.343697 0.280471 3.000000
0.228827 -0.444224 0.020059 3.000000
-0.157760 0.402608 -0.193691 3.000000
0.160881 0.289351 -0.341063 3.000000
0.067161 -0.082655 0.435416 3.000000
0.208600 0.407115 -0.183604 3.000000
0.064425 0.194586 -0.402968 3.000000
0.101157 0.084390 -0.439630 3.000000
-0.222519 -0.244948 -0.373659 3.000000
-0.210426 0.294603 0.332080 3.000000
0.096934 0.142116 0.420033 3.000000
-0.077998 -0.418933 -0.151458 3.000000
-0.237858 0.396472 0.201380 3.000000
-0.028640 -0.304578 0.322362 3.000000
0.071667 0.312060 -0.320258 3.000000
0.130208 -0.441247 0.054683 3.000000
-0.244905 -0.128945 0.423836 3.000000
-0.059725 -0.107879 0.429797 3.000000
0.047253 0.376096 0.237249 3.000000
-0.189841 -0.282077 0.342078 3.000000
-0.266842 -0.440740 -0.062235 3.000000
0.206969 -0.339134 -0.290154 3.000000
0.119433 0.443067 0.046965 3.000000
-0.142448 0.358566 -0.266976 3.000000
-0.239382 0.401155 0.192189 3.000000
-0.143068 -0.110875 0.429086 3.000000
-0.204015 -0.007041 0.443021 3.000000
0.015504 -0.301068 -0.329830 3.000000
-0.185771 0.246856 -0.373059 3.000000
-0.066670 -0.347947 0.274992 3.000000
-0.238680 -0.258862 -0.364203 3.000000
0.023884 -0.125366 -0.429230 3.000000
-0.278852 -0.151974 0.416115 3.000000
-0.113189 0.396851 -0.204990 3.000000
-0.239472 -0.418305 -0.153201 3.000000
0.087484 -0.196625 -0.401407 3.000000
-0.077312 -0.056818 0.439508 3.000000
0.152432 0.160594 -0.417733 3.000000
-0.263564 0.277924 -0.350447 3.000000
-0.157830 0.440657 -0.069231 3.000000
0.253925 0.079752 0.436038 3.000000
-0.112355 0.027461 0.442411 3.000000
-0.015534 -0.442832 -0.042966 3.000000
0.193756 0.414163 -0.167318 3.000000
-0.193800 -0.370237 -0.248716 3.000000
0.164072 -0.277422 0.345689 3.000000
-0.084192 0.417748 -0.157594 3.000000
-0.242655 -0.432608 -0.105437 3.000000
-0.287289 0.222528 -0.388123 4.000000
0.190008 0.445943 -0.002052 3.000000
0.133918 0.212917 -0.393628 3.000000
-0.023685 0.036797 0.441593 3.000000
0.254894 0.248752 0.367417 3.000000
0.136097 0.237178 0.375106 3.000000
-0.112850 -0.432586 0.101185 3.000000
0.218051 0.430746 0.112753 3.000000
0.122403 0.258844 0.360559 3.000000
-0.059122 -0.443824 -0.032470 3.000000
0.283989 0.163471 0.412345 1.000000
0.009062 -0.439308 0.066926 3.000000
0.231348 0.445860 0.000599 3.000000
-0.256539 0.442536 -0.056936 3.000000
0.102680 -0.175834 -0.410978 3.000000
-0.088401 0.337145 0.289219 3.000000
-0.082848 -0.405572 -0.184801 3.000000
0.158723 0.345040 -0.284414 3.000000
0.171258 0.436251 0.089369 3.000000
0.078306 -0.302409 0.324295 3.000000
-0.061389 -0.385910 0.219034 3.000000
-0.182247 -0.171427 0.408532 3.000000
0.038355 0.147574 0.418068 3.000000
-0.104538 0.371032 0.244700 3.000000
0.123711 0.419760 -0.152007 3.000000
-0.010402 -0.337559 0.287587 3.000000
0.074370 -0.133027 0.422650 3.000000
0.078308 0.075664 -0.441039 3.000000
-0.273539 0.043608 0.440949 3.000000
-0.124245 0.259873 0.359859 3.000000
0.149310 0.440614 0.065148 3.000000
-0.130680 0.389991 0.213866 3.000000
0.187558 0.111587 -0.433531 3.000000
-0.087987 -0.088385 0.434154 3.000000
0.156456 0.129471 0.423981 3.000000
-0.101793 -0.265897 -0.358982 3.000000
0.003439 0.434357 0.097843 3.000000
0.125804 -0.272387 0.349594 3.000000
0.067690 0.240302 0.373160 3.000000
0.020521 0.213255 -0.393456 3.000000
0.004919 0.033227 0.441931 3.000000
-0.079889 -0.156283 0.414563 3.000000
-0.126710 -0.061698 -0.443088 3.000000
-0.059860 0.277967 -0.350414 3.000000
-0.029203 0.441293 -0.065214 3.000000
0.119272 0.338727 0.287425 3.000000
-0.148247 -0.039257 -0.445617 3.000000
-0.032138 0.036164 -0.446007 3.000000
-0.168351 -0.156391 -0.418878 3.000000
0.094722 0.440610 -0.069528 3.000000
-0.234856 0.208291 0.391631 3.000000
0.228174 0.397395 0.199568 3.000000
-0.141001 0.352447 0.270511 3.000000
-0.131160 0.405213 0.183647 3.000000
-0.058299 0.313210 0.314755 3.000000
-0.023989 0.413723 0.163982 3.000000
-0.180750 0.006016 0.443085 3.000000
0.094899 0.373094 0.241667 3.000000
-0.060729 0.336122 0.290379 3.000000
0.242309 -0.164290 0.411620 3.000000
-0.287844 0.404142 -0.190474 4.000000
0.212134 -0.439812 -0.068094 3.000000
-0.253966 -0.070740 0.437303 3.000000
0.158724 0.417818 -0.157401 3.000000
0.092576 0.416193 0.157561 3.000000
-0.177861 -0.437258 0.079868 3.000000
-0.289344 0.438358 -0.083748 4.000000
0.226104 -0.327402 0.299108 3.000000
0.285085 -0.442370 0.043494 1.000000
-0.163728 -0.244077 0.369898 3.000000
0.012626 -0.310435 -0.320858 3.000000
0.119668 -0.145104 -0.422941 3.000000
0.180418 -0.320230 0.306710 3.000000
0.162723 -0.047015 0.440531 3.000000
-0.033645 -0.195796 -0.401830 3.000000
0.274241 0.285913 -0.344095 3.000000
-0.170226 -0.439549 0.065403 3.000000
0.235484 -0.035027 -0.446017 3.000000
-0.111069 -0.423310 0.134821 3.000000
-0.070153 0.247327 0.368386 3.000000
0.284389 -0.098791 -0.436182 1.000000
0.222114 0.357821 -0.267937 3.000000
0.142783 0.444960 0.026938 3.000000
0.070308 -0.052595 0.440003 3.000000
-0.241903 0.333228 0.293662 3.000000
-0.237585 0.445090 -0.029461 3.000000
0.141763 -0.444429 -0.017881 3.000000
0.149719 0.032972 -0.446308 3.000000
-0.132811 0.424006 -0.140212 3.000000
-0.257497 -0.404216 0.183582 3.000000
0.197299 0.390165 0.213572 3.000000
0.063406 0.224422 -0.387003 3.000000
0.103103 0.258487 -0.365154 3.000000
-0.072470 0.441478 -0.064045 3.000000
0.261946 0.162540 0.412680 3.000000
-0.180708 0.334351 0.292389 3.000000
0.242315 -0.393265 0.205663 3.000000
-0.135671 0.273089 -0.354198 3.000000
0.266615 -0.018791 0.442652 3.000000
0.079623 -0.174411 -0.411594 3.000000
0.032358 -0.299618 -0.331109 3.000000
-0.176075 0.445682 0.006257 3.000000
0.238207 -0.363718 -0.258308 3.000000
-0.238213 -0.247073 0.367862 3.000000
-0.287525 0.056956 -0.444002 4.000000
0.140657 -0.016996 -0.447062 3.000000
0.004960 -0.443191 0.034812 3.000000
-0.154997 0.348085 -0.280488 3.000000
0.055266 -0.232968 -0.381343 3.000000
0.027336 0.442309 -0.058803 3.000000
-0.171746 0.249486 0.366919 3.000000
-0.002827 -0.167807 -0.414452 3.000000
-0.270475 0.206536 -0.396879 3.000000
0.195036 -0.418261 0.148971 3.000000
0.266588 0.384771 0.222693 3.000000
0.097443 0.040107 0.441280 3.000000
-0.092076 -0.170875 0.408771 3.000000
0.198457 -0.402876 -0.191032 3.000000
-0.204694 -0.397929 -0.200862 3.000000
-0.047755 -0.055690 0.439687 3.000000
-0.268884 0.234618 -0.380973 3.000000
0.026148 -0.230703 -0.382682 3.000000
0.245829 0.397794 0.198784 3.000000
-0.289242 0.427012 0.125606 4.000000
0.229945 -0.406344 -0.183018 3.000000
-0.242674 0.109465 0.429671 3.000000
0.045773 -0.300962 0.325570 3.000000
-0.165387 -0.360457 -0.263106 3.000000
-0.033460 -0.021980 0.442551 3.000000
0.021875 -0.285351 -0.343687 3.000000
-0.287747 -0.431687 -0.109557 4.000000
0.271997 0.189656 -0.405440 3.000000
-0.094654 0.294264 0.332379 3.000000
-0.010772 0.140337 -0.425027 3.000000
0.038746 0.272000 -0.355042 3.000000
0.145963 0.415305 -0.164380 3.000000
0.194962 -0.356330 0.264184 3.000000
0.275452 0.435900 0.090944 3.000000
-0.199788 0.429920 -0.119950 3.000000
0.264257 -0.168670 0.409725 3.000000
-0.091452 0.328655 -0.303202 3.000000
-0.033045 0.156810 0.414743 3.000000
0.143134 -0.002950 -0.447503 3.000000
0.189327 0.066392 -0.442507 3.000000
-0.163589 -0.141014 -0.424414 3.000000
-0.131545 0.156551 0.414836 3.000000
-0.144255 0.402801 -0.193311 3.000000
-0.112582 -0.051571 -0.444453 3.000000
0.173769 -0.115299 -0.432154 3.000000
-0.065771 0.100408 0.431696 3.000000
0.133485 0.445240 -0.024678 3.000000
0.041479 0.444306 -0.038210 3.000000
0.103724 0.416279 0.157324 3.000000
-0.025750 0.345440 0.279545 3.000000
0.159125 -0.050571 -0.444548 3.000000
