0.286960 0.473121 0.068382 1.000000
0.286960 -0.436045 0.092251 1.000000
0.286960 -0.212123 -0.437312 1.000000
0.286960 0.123669 -0.447729 1.000000
0.286960 -0.457008 -0.065168 1.000000
0.286960 0.165239 0.452245 1.000000
0.286960 -0.432739 -0.203243 1.000000
0.286960 -0.295674 0.385337 1.000000
0.286960 -0.450509 0.144757 1.000000
0.286960 -0.483478 -0.087350 1.000000
0.286960 0.379824 0.252745 1.000000
0.286960 0.186047 -0.426141 1.000000
0.286960 0.087619 0.455027 1.000000
0.286960 0.451595 -0.177739 1.000000
0.286960 0.413599 0.261565 1.000000
0.286960 -0.253660 -0.384844 1.000000
0.286960 0.388904 0.280655 1.000000
0.286960 0.317317 -0.370841 1.000000
0.286960 0.430082 0.165736 1.000000
0.286960 -0.269429 -0.384204 1.000000
0.286960 -0.373618 -0.263778 1.000000
0.286960 -0.473832 0.144089 1.000000
0.286960 0.229592 0.439681 1.000000
0.286960 -0.340263 0.350753 1.000000
0.286960 0.218525 -0.420252 1.000000
0.286960 0.068684 0.461173 1.000000
0.286960 -0.386722 0.271853 1.000000
0.286960 -0.010721 -0.467498 1.000000
0.286960 -0.363817 -0.310935 1.000000
0.286960 -0.213917 -0.450306 1.000000
0.286960 -0.371415 0.306328 1.000000
0.286960 0.237931 0.414040 1.000000
0.286960 0.216698 -0.431022 1.000000
0.286960 0.241924 0.405157 1.000000
0.286960 -0.397122 -0.285190 1.000000
0.286960 -0.491121 -0.072530 1.000000
0.286960 0.446143 0.083851 1.000000
0.286960 -0.042191 -0.464482 1.000000
0.286960 -0.007044 -0.478367 1.000000
0.286960 0.373233 -0.329962 1.000000
0.286960 -0.295723 0.335663 1.000000
0.286960 0.371838 -0.302982 1.000000
0.286960 0.273246 0.409992 1.000000
0.286960 -0.489192 -0.043397 1.000000
0.286960 0.324086 0.325758 1.000000
0.286960 -0.352825 -0.340051 1.000000
0.286960 0.173941 0.439024 1.000000
0.286960 -0.434605 0.176799 1.000000
0.286960 0.350328 -0.305242 1.000000
0.286960 -0.449149 -0.158938 1.000000
0.286960 0.372411 0.268684 1.000000
0.286960 -0.339526 -0.364589 1.000000
0.286960 0.374880 -0.268850 1.000000
0.286960 0.099520 -0.462611 1.000000
0.286960 -0.201188 -0.436049 1.000000
0.286960 0.110760 -0.452057 1.000000
0.286960 -0.202588 -0.420932 1.000000
0.286960 0.352980 0.278562 1.000000
0.286960 -0.199754 0.401003 1.000000
0.286960 -0.325890 -0.359746 1.000000
0.286960 0.067098 -0.445612 1.000000
0.286960 -0.404784 0.239293 1.000000
0.286960 -0.005922 0.483161 1.000000
0.286960 -0.228838 -0.427171 1.000000
0.286960 0.442575 -0.141150 1.000000
0.286960 0.172444 0.427193 1.000000
0.286960 0.227734 -0.402965 1.000000
0.286960 0.386406 -0.283281 1.000000
0.286960 0.473613 -0.151918 1.000000
0.286960 0.332206 0.362681 1.000000
0.286960 -0.405506 0.284467 1.000000
0.286960 0.140017 0.438061 1.000000
0.286960 -0.027033 -0.467599 1.000000
0.286960 -0.245738 0.401397 1.000000
0.286960 -0.312219 -0.365377 1.000000
0.286960 -0.180958 0.418772 1.000000
0.286960 0.437166 -0.153230 1.000000
0.286960 -0.388465 0.275454 1.000000
0.286960 -0.465359 -0.058272 1.000000
0.286960 0.295656 -0.375140 1.000000
0.286960 0.132059 0.461681 1.000000
0.286960 -0.052417 0.467258 1.000000
0.286960 0.332970 0.294271 1.000000
0.286960 0.429948 -0.233429 1.000000
0.286960 -0.350861 -0.326474 1.000000
0.286960 -0.363459 -0.307278 1.000000
0.286960 0.055873 -0.472760 1.000000
0.286960 0.209991 0.444345 1.000000
0.286960 -0.392445 -0.292013 1.000000
0.286960 0.458951 0.064868 1.000000
0.286960 -0.125746 0.447846 1.000000
0.286960 -0.449051 -0.137105 1.000000
0.286960 -0.451903 0.042339 1.000000
0.286960 0.238637 0.393975 1.000000
0.286960 0.442596 -0.101593 1.000000
0.286960 0.095576 0.467104 1.000000
0.286960 -0.052660 0.478362 1.000000
0.286960 -0.373759 0.309636 1.000000
0.286960 0.175684 -0.418213 1.000000
0.286960 -0.286095 0.342896 1.000000
0.286960 -0.130224 0.455530 1.000000
0.286960 0.300166 0.344994 1.000000
0.286960 0.203298 -0.421526 1.000000
0.286960 -0.424332 -0.135861 1.000000
0.286960 -0.086824 0.447613 1.000000
0.286960 -0.353254 0.317657 1.000000
0.286960 0.495884 -0.007533 1.000000
0.286960 0.466016 0.065289 1.000000
0.286960 0.007785 -0.472353 1.000000
0.286960 0.340696 0.324156 1.000000
0.286960 -0.407910 0.208396 1.000000
0.286960 0.033286 0.488462 1.000000
0.286960 -0.437201 0.184315 1.000000
0.286960 -0.387428 -0.230888 1.000000
0.286960 -0.469382 -0.113169 1.000000
0.286960 0.235564 -0.397708 1.000000
0.286960 -0.446855 0.210420 1.000000
0.286960 -0.405331 0.255332 1.000000
0.286960 -0.443591 -0.177826 1.000000
0.286960 0.415768 0.211944 1.000000
0.286960 -0.344758 0.332717 1.000000
0.286960 0.192182 0.436713 1.000000
0.286960 0.276289 0.353420 1.000000
0.286960 0.414822 0.162009 1.000000
0.286960 -0.332709 0.298890 1.000000
0.286960 0.295405 0.397393 1.000000
0.286960 -0.134492 0.454118 1.000000
0.286960 -0.448447 -0.187546 1.000000
0.286960 0.461876 0.183557 1.000000
0.286960 0.454670 -0.167528 1.000000
0.286960 0.449629 -0.135780 1.000000
0.286960 0.445092 -0.199391 1.000000
0.286960 0.398945 0.234232 1.000000
0.286960 -0.293259 0.341789 1.000000
0.286960 -0.314959 0.354373 1.000000
0.286960 0.438783 0.197824 1.000000
0.286960 -0.002087 0.470581 1.000000
0.286960 0.328873 -0.361134 1.000000
0.286960 0.141102 0.454525 1.000000
0.286960 0.292015 -0.380436 1.000000
0.286960 -0.379866 -0.277653 1.000000
0.286960 0.396792 -0.265008 1.000000
0.286960 0.436798 0.143929 1.000000
0.286960 -0.126140 -0.470706 1.000000
0.286960 -0.444566 -0.161252 1.000000
0.286960 -0.448612 -0.028636 1.000000
0.286960 0.342662 0.330977 1.000000
0.286960 0.182010 0.447009 1.000000
0.286960 -0.225853 0.436880 1.000000
0.286960 0.059272 0.462213 1.000000
0.286960 -0.109518 0.440341 1.000000
0.286960 0.397631 -0.239996 1.000000
0.286960 -0.222660 0.402274 1.000000
0.286960 -0.040775 -0.461069 1.000000
0.286960 -0.177593 0.443900 1.000000
0.286960 -0.089251 -0.441589 1.000000
0.286960 0.194216 -0.459334 1.000000
0.286960 0.268200 -0.413538 1.000000
0.286960 0.055519 -0.489205 1.000000
0.286960 0.056929 -0.449248 1.000000
0.286960 -0.372627 -0.274321 1.000000
0.286960 -0.305423 0.380761 1.000000
0.286960 0.283710 -0.368837 1.000000
0.286960 -0.435952 0.116139 1.000000
0.286960 -0.315961 0.382286 1.000000
0.286960 0.390765 0.265408 1.000000
0.286960 -0.373750 0.257251 1.000000
0.286960 -0.486026 0.094050 1.000000
0.286960 0.377679 -0.289941 1.000000
0.286960 -0.124010 0.472392 1.000000
0.286960 -0.349108 -0.278041 1.000000
0.286960 -0.411890 -0.240674 1.000000
0.286960 -0.426052 0.196086 1.000000
0.286960 -0.056510 0.462354 1.000000
0.286960 0.323128 0.349044 1.000000
0.286960 -0.389622 0.279438 1.000000
0.286960 -0.410284 0.266408 1.000000
0.286960 0.207608 0.421122 1.000000
0.286960 -0.085412 0.440162 1.000000
0.286960 0.481249 -0.022366 1.000000
0.286960 0.345042 -0.337817 1.000000
0.286960 0.131721 -0.455507 1.000000
0.286960 -0.371845 0.301533 1.000000
0.286960 0.163641 0.458379 1.000000
0.286960 -0.355492 -0.325828 1.000000
0.286960 -0.485413 -0.099379 1.000000
0.286960 0.298355 -0.334882 1.000000
0.286960 -0.328828 -0.336000 1.000000
0.286960 -0.457235 -0.159309 1.000000
0.286960 0.358863 -0.288297 1.000000
0.286960 -0.413088 -0.224258 1.000000
0.286960 -0.462924 0.073329 1.000000
0.286960 0.007643 0.443137 1.000000
0.286960 0.438722 0.181764 1.000000
0.286960 0.176616 0.448941 1.000000
0.286960 0.356228 -0.333771 1.000000
0.286960 -0.262295 0.368965 1.000000
0.286960 -0.465885 -0.126617 1.000000
0.286960 0.485907 -0.070579 1.000000
0.286960 -0.447519 0.214131 1.000000
0.286960 0.473979 -0.144405 1.000000
0.286960 0.466455 0.128757 1.000000
0.286960 -0.391479 -0.220079 1.000000
0.286960 0.412657 0.210869 1.000000
0.286960 0.439757 -0.099662 1.000000
0.286960 -0.033417 0.487372 1.000000
0.286960 0.308093 0.354001 1.000000
0.286960 -0.414762 -0.196345 1.000000
0.286960 -0.382091 -0.242448 1.000000
0.286960 0.136912 0.422124 1.000000
0.286960 -0.433718 0.142913 1.000000
0.286960 0.374347 -0.290156 1.000000
0.286960 -0.169915 0.459960 1.000000
0.286960 0.484362 -0.014881 1.000000
0.286960 0.432552 0.150592 1.000000
0.286960 0.374110 -0.252517 1.000000
0.286960 -0.439149 -0.146161 1.000000
0.286960 -0.436685 0.104774 1.000000
0.286960 0.200801 0.396546 1.000000
0.286960 0.295735 0.373495 1.000000
0.286960 -0.267202 0.401248 1.000000
0.286960 0.157377 -0.466786 1.000000
0.286960 -0.213655 0.445976 1.000000
0.286960 -0.280826 0.344279 1.000000
0.286960 -0.048869 0.449744 1.000000
0.286960 -0.381007 -0.293505 1.000000
0.286960 -0.223390 -0.405230 1.000000
0.286960 0.360802 0.261033 1.000000
0.286960 -0.290279 -0.370343 1.000000
0.286960 0.340337 -0.294954 1.000000
0.286960 0.143276 0.427978 1.000000
0.286960 -0.320398 -0.322359 1.000000
0.286960 0.475408 -0.106667 1.000000
0.286960 0.469982 0.068357 1.000000
0.286960 0.248088 -0.427277 1.000000
0.286960 -0.291851 -0.339325 1.000000
0.286960 0.462875 -0.131580 1.000000
0.286960 -0.171263 0.440347 1.000000
0.286960 0.348371 0.299871 1.000000
0.286960 0.393458 -0.279900 1.000000
0.286960 0.336624 -0.369579 1.000000
0.286960 -0.437736 -0.110480 1.000000
0.286960 -0.369937 -0.323331 1.000000
0.286960 0.431449 -0.185233 1.000000
0.286960 -0.324028 -0.321512 1.000000
0.286960 0.035428 -0.455755 1.000000
0.286960 0.232833 0.419966 1.000000
0.286960 0.488453 0.080430 1.000000
0.286960 0.096941 -0.448554 1.000000
0.286960 -0.220963 -0.410504 1.000000
0.286960 0.155739 0.447779 1.000000
0.286960 0.482806 0.019404 1.000000
0.286960 0.380799 0.256147 1.000000
0.286960 -0.042677 -0.491345 1.000000
0.286960 0.183034 0.455674 1.000000
0.286960 -0.197359 -0.410212 1.000000
0.286960 -0.421321 0.247052 1.000000
0.286960 -0.313745 -0.341934 1.000000
0.286960 0.433070 0.207316 1.000000
0.286960 -0.414462 -0.255935 1.000000
0.286960 -0.461074 0.154137 1.000000
0.286960 -0.140685 -0.460984 1.000000
0.286960 0.478615 -0.087700 1.000000
0.286960 -0.371902 0.247839 1.000000
0.286960 0.327787 0.307929 1.000000
0.286960 0.492253 0.026826 1.000000
0.286960 -0.347333 0.282065 1.000000
0.286960 0.400448 -0.291120 1.000000
0.286960 -0.423849 -0.242903 1.000000
0.286960 0.420122 -0.226475 1.000000
0.286960 -0.260821 -0.369634 1.000000
0.286960 0.234613 -0.438161 1.000000
0.286960 -0.226172 0.409888 1.000000
0.286960 -0.276554 0.404812 1.000000
0.286960 -0.061338 0.480703 1.000000
0.286960 -0.015623 0.471314 1.000000
0.286960 -0.345980 -0.289434 1.000000
0.286960 0.443887 0.178806 1.000000
0.286960 0.063553 0.479087 1.000000
0.286960 -0.364431 -0.327178 1.000000
0.286960 0.132886 0.443159 1.000000
0.286960 0.063848 0.446569 1.000000
0.286960 -0.396521 -0.289051 1.000000
0.286960 -0.288230 0.391514 1.000000
0.286960 0.325680 -0.317896 1.000000
0.286960 0.238026 0.378645 1.000000
0.286960 0.173905 0.419601 1.000000
0.286960 0.281516 0.393619 1.000000
0.286960 -0.231767 0.437683 1.000000
0.286960 0.386666 -0.232667 1.000000
0.286960 0.057828 -0.483835 1.000000
0.286960 0.248648 0.374056 1.000000
0.286960 -0.136786 0.460973 1.000000
0.286960 0.238780 -0.400785 1.000000
0.286960 -0.441461 -0.191038 1.000000
0.286960 0.096468 0.451741 1.000000
0.286960 0.446622 -0.013546 1.000000
0.286960 0.033164 -0.466597 1.000000
0.286960 0.046321 0.449045 1.000000
0.286960 -0.404596 0.273834 1.000000
0.286960 0.331850 0.366642 1.000000
0.286960 -0.258905 -0.379447 1.000000
0.286960 0.478909 0.003843 1.000000
0.286960 -0.010914 -0.483735 1.000000
0.286960 0.112098 -0.443415 1.000000
0.286960 0.152269 -0.455284 1.000000
0.286960 0.225756 -0.442673 1.000000
0.286960 -0.382243 0.296715 1.000000
0.286960 -0.272696 0.381602 1.000000
0.286960 -0.457377 0.055893 1.000000
0.286960 -0.153417 0.463560 1.000000
0.286960 0.324604 0.364179 1.000000
0.286960 0.276533 -0.367372 1.000000
0.286960 0.255941 -0.397609 1.000000
0.286960 -0.467698 0.109925 1.000000
0.286960 -0.360378 0.276040 1.000000
0.286960 -0.476104 -0.047019 1.000000
0.286960 -0.150232 -0.444008 1.000000
0.286960 0.492197 -0.038220 1.000000
0.286960 0.020030 0.480431 1.000000
0.286960 0.436654 0.178394 1.000000
0.286960 -0.457930 0.152662 1.000000
0.286960 -0.418532 0.235472 1.000000
0.286960 0.445280 0.192710 1.000000
0.286960 0.268284 0.386218 1.000000
0.286960 -0.260355 -0.424450 1.000000
0.286960 0.421894 -0.266081 1.000000
0.286960 -0.156583 -0.442573 1.000000
0.286960 -0.284930 -0.407206 1.000000
0.286960 0.344089 -0.299779 1.000000
0.286960 0.370548 0.295334 1.000000
0.286960 -0.277576 -0.385175 1.000000
0.286960 -0.027488 0.462627 1.000000
0.286960 -0.199290 -0.444641 1.000000
0.286960 0.187157 -0.445097 1.000000
0.286960 -0.098520 0.474862 1.000000
0.286960 -0.368601 0.304244 1.000000
0.286960 -0.327259 -0.315691 1.000000
0.286960 -0.436117 0.173516 1.000000
0.286960 -0.135893 -0.443610 1.000000
0.286960 0.172654 -0.465112 1.000000
0.286960 0.397769 -0.288836 1.000000
0.286960 0.172643 -0.427056 1.000000
0.286960 0.464045 0.100594 1.000000
0.286960 0.449114 0.093797 1.000000
0.286960 -0.001575 -0.478380 1.000000
0.286960 0.196945 0.435026 1.000000
0.286960 -0.193511 -0.424781 1.000000
0.286960 -0.014849 -0.495744 1.000000
0.286960 -0.326166 0.312710 1.000000
0.286960 -0.279977 0.359129 1.000000
0.286960 0.314048 -0.363074 1.000000
0.286960 -0.063269 -0.474023 1.000000
0.286960 -0.073317 -0.459849 1.000000
0.286960 -0.252036 -0.379546 1.000000
0.286960 -0.410854 -0.173155 1.000000
0.286960 0.102485 0.456519 1.000000
0.286960 0.492821 -0.035113 1.000000
0.286960 -0.244169 0.374583 1.000000
0.286960 -0.306672 0.364959 1.000000
0.286960 -0.294930 -0.402897 1.000000
0.286960 0.425928 0.151394 1.000000
0.286960 -0.452658 -0.138832 1.000000
0.286960 -0.035548 -0.457556 1.000000
0.286960 0.383468 -0.230390 1.000000
0.286960 -0.137075 0.457454 1.000000
0.286960 0.445310 -0.195670 1.000000
0.286960 0.345579 -0.324884 1.000000
0.286960 -0.489402 0.085161 1.000000
0.286960 0.389980 0.308042 1.000000
0.286960 -0.337551 0.323484 1.000000
0.286960 -0.024981 0.483712 1.000000
0.286960 0.359383 -0.342212 1.000000
0.286960 0.162507 0.431377 1.000000
0.286960 -0.439422 0.219506 1.000000
0.286960 0.186482 0.408416 1.000000
0.286960 -0.373533 0.320939 1.000000
0.286960 -0.030134 0.487540 1.000000
0.286960 -0.448604 -0.126539 1.000000
0.286960 0.475849 -0.010548 1.000000
0.286960 0.272957 -0.404287 1.000000
0.286960 0.441600 0.121867 1.000000
0.286960 -0.063774 0.465681 1.000000
0.286960 0.432603 0.217797 1.000000
0.286960 -0.457759 -0.150646 1.000000
0.286960 -0.144202 0.458375 1.000000
0.286960 0.204709 0.414474 1.000000
0.286960 -0.467399 -0.169261 1.000000
0.286960 -0.366172 -0.261323 1.000000
0.286960 -0.344969 0.279562 1.000000
0.286960 -0.406359 0.270796 1.000000
0.286960 0.311113 0.344474 1.000000
0.286960 -0.253788 -0.396866 1.000000
0.286960 -0.480518 0.097385 1.000000
0.286960 -0.462196 0.131666 1.000000
0.286960 -0.403674 0.288645 1.000000
0.286960 0.429736 -0.193475 1.000000
0.286960 0.477517 0.103042 1.000000
0.286960 -0.128573 0.472400 1.000000
0.286960 0.285759 0.367791 1.000000
0.286960 -0.488162 -0.005832 1.000000
0.286960 -0.460963 0.166355 1.000000
0.286960 -0.130821 -0.427775 1.000000
0.286960 0.058420 -0.465100 1.000000
0.286960 -0.034946 -0.483817 1.000000
0.286960 -0.467297 0.034461 1.000000
0.286960 0.229842 0.421065 1.000000
0.286960 0.465027 -0.180395 1.000000
0.286960 -0.113266 0.453521 1.000000
0.286960 0.042066 -0.472408 1.000000
0.286960 0.236049 0.418997 1.000000
0.286960 0.276756 -0.370717 1.000000
0.286960 0.103524 0.449539 1.000000
0.286960 0.184267 0.460236 1.000000
0.286960 0.010239 -0.492631 1.000000
0.286960 -0.216676 0.434435 1.000000
0.286960 0.112725 -0.464416 1.000000
0.286960 0.448707 0.207060 1.000000
0.286960 -0.475815 -0.086181 1.000000
0.286960 -0.281046 0.347895 1.000000
0.286960 -0.271270 -0.398762 1.000000
0.286960 0.268142 -0.389764 1.000000
0.286960 -0.174908 0.439008 1.000000
0.286960 -0.494502 -0.057679 1.000000
0.286960 -0.066343 0.490396 1.000000
0.286960 -0.436280 0.140875 1.000000
0.286960 0.197996 -0.436821 1.000000
0.286960 0.201052 -0.415081 1.000000
0.286960 -0.128155 0.476446 1.000000
0.286960 0.210070 -0.399723 1.000000
0.286960 -0.239518 0.419877 1.000000
0.286960 0.323199 0.356897 1.000000
0.286960 0.476423 0.110084 1.000000
0.286960 -0.456889 0.003698 1.000000
0.286960 0.063066 0.468847 1.000000
0.286960 0.490681 0.006471 1.000000
0.286960 -0.150884 0.442298 1.000000
0.286960 -0.460611 0.098481 1.000000
0.286960 0.163041 0.454760 1.000000
0.286960 -0.214452 -0.424833 1.000000
0.286960 0.473711 0.120154 1.000000
0.286960 0.145728 -0.446831 1.000000
0.286960 0.428804 0.158055 1.000000
0.286960 -0.482737 -0.090329 1.000000
0.286960 -0.043507 0.463890 1.000000
0.286960 -0.468841 -0.122110 1.000000
0.286960 0.077457 0.457192 1.000000
0.286960 -0.414571 -0.213338 1.000000
0.286960 -0.412801 0.246693 1.000000
0.286960 0.332395 0.358981 1.000000
0.286960 0.450120 -0.206146 1.000000
0.286960 -0.317449 0.309607 1.000000
0.286960 -0.405871 -0.220938 1.000000
0.286960 -0.292294 -0.392933 1.000000
0.286960 -0.354824 -0.298993 1.000000
0.286960 0.389973 0.252016 1.000000
0.286960 -0.288965 -0.352304 1.000000
0.286960 -0.057419 -0.491222 1.000000
0.286960 0.379587 -0.242073 1.000000
0.286960 0.302673 0.393314 1.000000
0.286960 0.336551 -0.339670 1.000000
0.286960 0.434321 -0.206368 1.000000
0.286960 -0.153934 -0.420820 1.000000
0.286960 -0.472184 0.003470 1.000000
0.286960 -0.464344 0.033414 1.000000
0.286960 0.456752 -0.090243 1.000000
0.286960 -0.393568 0.244905 1.000000
0.286960 -0.483138 0.115668 1.000000
0.286960 -0.196757 0.449214 1.000000
0.286960 0.435158 -0.160394 1.000000
0.286960 0.045572 -0.468775 1.000000
0.286960 0.313851 -0.339519 1.000000
0.286960 0.319651 -0.318377 1.000000
0.286960 -0.076374 0.485459 1.000000
0.286960 0.097791 0.438008 1.000000
0.286960 0.469542 -0.166449 1.000000
0.286960 -0.331609 0.333437 1.000000
0.286960 0.108519 0.476928 1.000000
0.286960 0.335568 0.354850 1.000000
0.286960 0.178556 -0.455839 1.000000
0.286960 0.414511 -0.184797 1.000000
0.286960 -0.360980 0.265629 1.000000
0.286960 -0.004190 0.479854 1.000000
0.286960 0.248796 0.413532 1.000000
0.286960 0.313261 -0.344532 1.000000
0.286960 -0.274950 -0.389725 1.000000
0.286960 0.006189 -0.480377 1.000000
0.286960 -0.178884 0.434693 1.000000
0.286960 -0.429967 -0.178215 1.000000
0.286960 -0.472629 -0.061928 1.000000
0.286960 0.489886 0.050981 1.000000
0.286960 -0.040865 0.494014 1.000000
0.286960 -0.396006 0.280891 1.000000
0.286960 -0.418661 0.211536 1.000000
0.286960 -0.369533 -0.327631 1.000000
0.286960 0.273474 -0.389227 1.000000
0.286960 -0.278809 -0.361059 1.000000
0.286960 0.259159 -0.427160 1.000000
0.286960 -0.031040 -0.487211 1.000000
0.286960 0.371142 0.290791 1.000000
0.286960 -0.314220 -0.380590 1.000000
0.286960 0.237797 0.375463 1.000000
0.286960 0.097240 -0.465178 1.000000
0.286960 0.482010 -0.011919 1.000000
0.286960 0.046533 0.464580 1.000000
0.286960 0.472852 -0.060214 1.000000
0.286960 0.145187 0.431291 1.000000
0.286960 -0.481436 -0.027435 1.000000
0.286960 0.383554 0.242845 1.000000
0.286960 -0.202394 0.452687 1.000000
0.286960 0.223264 0.390917 1.000000
0.286960 0.315535 0.342615 1.000000
0.286960 -0.191295 -0.408042 1.000000
0.286960 -0.460944 -0.038156 1.000000
0.286960 -0.114392 0.482181 1.000000
0.286960 0.402404 0.232601 1.000000
0.286960 -0.410882 -0.184394 1.000000
0.286960 -0.319647 0.315033 1.000000
0.286960 0.415719 0.198857 1.000000
0.286960 -0.458938 -0.007246 1.000000
0.286960 0.139861 0.446432 1.000000
0.286960 0.315477 -0.350214 1.000000
0.286960 0.319678 -0.361829 1.000000
0.286960 0.115750 -0.441246 1.000000
0.286960 0.149298 0.453159 1.000000
0.286960 0.453762 -0.033208 1.000000
0.286960 -0.161835 0.456104 1.000000
0.286960 -0.244170 0.428176 1.000000
0.286960 -0.404683 0.184148 1.000000
0.286960 0.422653 -0.178662 1.000000
0.286960 0.243167 0.379119 1.000000
0.286960 -0.187284 0.457352 1.000000
0.286960 -0.050343 -0.461406 1.000000
0.286960 -0.349981 -0.350027 1.000000
0.286960 0.181037 0.459567 1.000000
0.286960 -0.451553 -0.009005 1.000000
0.286960 0.121144 -0.438396 1.000000
0.286960 0.408158 -0.264855 1.000000
0.286960 0.260164 0.381323 1.000000
0.286960 0.104188 -0.475827 1.000000
0.286960 0.230593 -0.415522 1.000000
0.286960 0.412384 -0.199585 1.000000
0.286960 -0.421131 -0.198043 1.000000
0.286960 -0.088593 0.475822 1.000000
0.286960 -0.224031 -0.409349 1.000000
0.286960 -0.278188 -0.410199 1.000000
0.286960 -0.008228 -0.455739 1.000000
0.286960 -0.337909 0.295242 1.000000
0.286960 0.107399 -0.477342 1.000000
0.286960 -0.468118 0.130463 1.000000
0.286960 0.426258 0.243514 1.000000
0.286960 -0.421318 -0.205057 1.000000
0.286960 0.460967 -0.139250 1.000000
0.286960 -0.450342 -0.092117 1.000000
0.286960 0.453568 0.193571 1.000000
0.286960 0.151563 0.451155 1.000000
0.286960 -0.444718 -0.027937 1.000000
0.286960 -0.042491 -0.457389 1.000000
0.286960 -0.488457 0.092005 1.000000
0.286960 0.089461 -0.474951 1.000000
0.286960 0.212642 -0.428769 1.000000
0.286960 0.419133 0.267224 1.000000
0.286960 -0.291653 -0.381973 1.000000
0.286960 -0.400412 0.223672 1.000000
0.286960 -0.253918 -0.393010 1.000000
0.286960 -0.387927 0.309355 1.000000
0.286960 0.315639 0.361686 1.000000
0.286960 0.361860 0.297732 1.000000
0.286960 0.193772 -0.455881 1.000000
0.286960 -0.456747 -0.027341 1.000000
0.286960 -0.391894 -0.245934 1.000000
0.286960 0.487373 0.099875 1.000000
0.286960 -0.421060 0.227236 1.000000
0.286960 0.429988 0.123117 1.000000
0.286960 0.254667 0.393278 1.000000
0.286960 -0.283543 -0.389723 1.000000
0.286960 0.459781 -0.194778 1.000000
0.286960 0.480901 0.073545 1.000000
0.286960 -0.146046 -0.433508 1.000000
0.286960 -0.041031 -0.471706 1.000000
0.286960 0.287476 0.370496 1.000000
0.286960 0.415789 -0.201073 1.000000
0.286960 -0.333930 -0.350882 1.000000
0.286960 0.436956 0.209394 1.000000
0.286960 0.421522 0.151630 1.000000
0.286960 0.490607 -0.050524 1.000000
0.286960 0.015727 0.447101 1.000000
0.286960 -0.173284 -0.439190 1.000000
0.286960 0.230112 -0.407259 1.000000
0.286960 -0.470546 -0.064872 1.000000
0.286960 -0.269857 -0.367028 1.000000
0.286960 0.470872 -0.133509 1.000000
0.286960 -0.432181 -0.139563 1.000000
0.286960 -0.276530 -0.380907 1.000000
0.286960 -0.416442 0.238515 1.000000
0.286960 -0.308202 -0.369311 1.000000
0.286960 0.243675 -0.398744 1.000000
0.286960 -0.419446 0.218360 1.000000
0.286960 0.271566 -0.378612 1.000000
0.286960 -0.434533 -0.136103 1.000000
0.286960 -0.446131 0.183567 1.000000
0.286960 -0.140968 -0.479427 1.000000
0.286960 -0.128004 -0.482471 1.000000
0.286960 0.256327 -0.423552 1.000000
0.286960 0.464344 -0.041057 1.000000
0.286960 0.310420 -0.325787 1.000000
0.286960 0.459787 0.127490 1.000000
0.286960 0.452908 -0.121631 1.000000
0.286960 -0.424581 -0.205349 1.000000
0.286960 0.481497 -0.102242 1.000000
0.286960 0.208362 0.438010 1.000000
0.286960 -0.398002 -0.281878 1.000000
0.286960 0.340958 -0.364995 1.000000
0.286960 0.065857 0.459057 1.000000
0.286960 0.471109 0.038683 1.000000
0.286960 0.040520 -0.459278 1.000000
0.286960 0.479029 0.115292 1.000000
0.286960 -0.165853 -0.470869 1.000000
0.286960 0.430891 -0.204339 1.000000
0.286960 -0.372740 -0.281275 1.000000
0.286960 0.392811 -0.308421 1.000000
0.286960 0.043604 -0.486407 1.000000
0.286960 -0.232135 -0.386182 1.000000
0.286960 -0.422763 -0.186444 1.000000
0.286960 0.252640 -0.401623 1.000000
0.286960 0.475629 -0.054028 1.000000
0.286960 0.025128 0.452714 1.000000
0.286960 -0.444670 0.203530 1.000000
0.286960 0.490726 0.042141 1.000000
0.286960 0.455440 -0.145020 1.000000
0.286960 0.349198 -0.328549 1.000000
0.286960 0.323325 0.353040 1.000000
0.286960 -0.422093 0.151231 1.000000
0.286960 0.004596 -0.474975 1.000000
0.286960 -0.089291 0.461553 1.000000
0.286960 -0.250643 -0.415298 1.000000
0.286960 0.323753 0.321630 1.000000
0.286960 0.447784 -0.105718 1.000000
0.286960 0.395099 0.284285 1.000000
0.286960 0.411156 -0.217468 1.000000
0.286960 -0.463911 0.055447 1.000000
0.286960 0.263476 0.376354 1.000000
0.286960 0.383558 0.253153 1.000000
0.286960 0.485394 0.022418 1.000000
0.286960 0.095449 0.455285 1.000000
0.286960 -0.453636 -0.018641 1.000000
0.286960 -0.248043 0.425119 1.000000
0.286960 -0.400728 -0.203619 1.000000
0.286960 -0.366636 -0.286213 1.000000
0.286960 0.126386 -0.464032 1.000000
0.286960 0.452191 0.075377 1.000000
0.286960 0.013877 -0.467948 1.000000
0.286960 0.257632 0.412731 1.000000
0.286960 0.108809 0.468226 1.000000
0.286960 -0.335905 0.309465 1.000000
0.286960 0.446901 -0.207098 1.000000
0.286960 0.440938 -0.116117 1.000000
0.286960 0.411074 0.275958 1.000000
0.286960 -0.428081 0.119579 1.000000
0.286960 -0.300926 -0.347984 1.000000
0.286960 -0.407293 -0.201943 1.000000
0.286960 0.017034 -0.475482 1.000000
0.286960 -0.099443 -0.483660 1.000000
0.286960 0.058399 -0.455850 1.000000
0.286960 -0.432796 -0.238969 1.000000
0.286960 0.411906 -0.232896 1.000000
0.286960 -0.142216 -0.424158 1.000000
0.286960 -0.482000 0.023597 1.000000
0.286960 0.488920 -0.082597 1.000000
0.286960 0.128000 -0.476390 1.000000
0.286960 0.084470 -0.447343 1.000000
0.286960 0.382232 -0.309033 1.000000
0.286960 -0.227170 0.384412 1.000000
0.286960 -0.013605 0.492615 1.000000
0.286960 -0.396617 -0.203821 1.000000
0.286960 0.446808 -0.146315 1.000000
0.286960 0.456987 -0.038482 1.000000
0.286960 -0.029906 0.474214 1.000000
0.286960 -0.466682 -0.093626 1.000000
0.286960 0.058357 0.453925 1.000000
0.286960 0.223177 -0.398114 1.000000
0.286960 -0.391141 -0.237271 1.000000
0.286960 0.342604 0.318611 1.000000
0.286960 0.471287 -0.068757 1.000000
0.286960 -0.400719 -0.247530 1.000000
0.286960 0.462030 0.049021 1.000000
0.286960 0.455770 0.128345 1.000000
0.286960 0.457998 -0.143155 1.000000
0.286960 -0.476934 0.086552 1.000000
0.286960 -0.180898 0.448917 1.000000
0.286960 -0.329026 -0.367766 1.000000
0.286960 -0.071455 0.490120 1.000000
0.286960 -0.010233 0.490079 1.000000
0.286960 -0.072740 -0.494074 1.000000
0.286960 0.251189 -0.408020 1.000000
0.286960 0.488939 -0.059082 1.000000
0.286960 -0.481690 0.033971 1.000000
0.286960 0.162293 -0.434311 1.000000
0.286960 -0.272750 -0.359831 1.000000
0.286960 0.251800 0.403090 1.000000
0.286960 0.485860 -0.050054 1.000000
0.286960 0.346482 -0.310014 1.000000
0.286960 0.415705 0.179970 1.000000
0.286960 0.312509 -0.375242 1.000000
0.286960 0.268530 -0.419747 1.000000
0.286960 -0.360889 -0.304619 1.000000
0.286960 -0.102487 0.436123 1.000000
0.286960 -0.483341 -0.050506 1.000000
0.286960 0.350381 0.337378 1.000000
0.286960 -0.420619 -0.238642 1.000000
0.286960 -0.027938 0.481925 1.000000
0.286960 0.392778 0.254443 1.000000
0.286960 0.232042 -0.410316 1.000000
0.286960 -0.211019 0.419153 1.000000
0.286960 0.445543 0.116498 1.000000
0.286960 0.170774 0.422388 1.000000
0.286960 -0.447042 -0.110496 1.000000
0.286960 0.304812 -0.390152 1.000000
0.286960 0.433393 0.242484 1.000000
0.286960 0.479180 -0.134967 1.000000
0.286960 0.020240 -0.457033 1.000000
0.286960 -0.248095 0.418927 1.000000
0.286960 -0.371956 0.316572 1.000000
0.286960 0.427964 0.187399 1.000000
0.286960 -0.416962 0.252528 1.000000
0.286960 -0.319235 0.360767 1.000000
0.286960 0.166789 0.441092 1.000000
0.286960 -0.303985 0.390672 1.000000
0.286960 -0.177769 -0.448112 1.000000
0.286960 0.391793 -0.218173 1.000000
0.286960 -0.355970 -0.346574 1.000000
0.286960 0.008025 0.446753 1.000000
0.286960 0.155527 0.421562 1.000000
0.286960 -0.190210 -0.458817 1.000000
0.286960 -0.456485 0.083933 1.000000
0.286960 -0.389920 -0.284731 1.000000
0.286960 -0.388623 -0.302224 1.000000
0.286960 -0.313102 0.315328 1.000000
0.286960 -0.082870 -0.479216 1.000000
0.286960 -0.106044 0.434811 1.000000
0.286960 0.309106 -0.329272 1.000000
0.286960 -0.169606 -0.439936 1.000000
0.286960 0.490805 -0.020586 1.000000
0.286960 -0.323775 0.347329 1.000000
0.286960 -0.236705 0.400952 1.000000
0.286960 -0.468043 0.114655 1.000000
0.286960 0.445517 0.206467 1.000000
0.286960 -0.427663 -0.143822 1.000000
0.286960 0.442359 -0.223034 1.000000
0.286960 0.079056 0.442082 1.000000
0.286960 -0.321587 0.338454 1.000000
0.286960 0.437657 0.194447 1.000000
0.286960 -0.463613 -0.045230 1.000000
0.286960 -0.356303 -0.321997 1.000000
0.286960 0.291347 0.377049 1.000000
0.286960 0.431984 0.162512 1.000000
0.286960 0.473546 -0.012609 1.000000
0.286960 -0.018018 -0.465002 1.000000
0.286960 -0.463751 -0.064907 1.000000
0.286960 -0.316392 0.316394 1.000000
0.286960 0.292375 -0.347274 1.000000
0.286960 -0.402068 0.206215 1.000000
0.286960 -0.101812 0.452621 1.000000
0.286960 0.027633 0.468706 1.000000
0.286960 -0.418547 -0.221963 1.000000
0.286960 -0.465427 -0.090500 1.000000
0.286960 0.392268 0.278900 1.000000
0.286960 -0.216903 0.409329 1.000000
0.286960 0.384676 0.239341 1.000000
0.286960 -0.078540 0.446522 1.000000
0.286960 -0.208570 -0.397013 1.000000
0.286960 0.050255 0.443596 1.000000
0.286960 -0.202199 0.437372 1.000000
0.286960 -0.400292 0.199328 1.000000
0.286960 -0.002266 0.457193 1.000000
0.286960 0.353952 0.268680 1.000000
0.286960 0.190257 0.402454 1.000000
0.286960 0.368603 -0.311866 1.000000
0.286960 0.260261 0.361956 1.000000
0.286960 -0.489329 0.007923 1.000000
0.286960 -0.219843 0.408321 1.000000
0.286960 -0.426607 0.150067 1.000000
0.286960 -0.138944 0.470288 1.000000
0.286960 -0.193332 -0.460433 1.000000
0.286960 -0.355038 0.310429 1.000000
0.286960 -0.042381 -0.451332 1.000000
0.286960 -0.468832 -0.164076 1.000000
0.286960 -0.207713 -0.441800 1.000000
0.286960 -0.435298 -0.205196 1.000000
0.286960 -0.347286 0.301091 1.000000
0.286960 0.450412 -0.015022 1.000000
0.286960 0.440311 -0.206337 1.000000
0.286960 0.238144 -0.437860 1.000000
0.286960 0.440629 0.165610 1.000000
0.286960 -0.266622 -0.386452 1.000000
0.286960 -0.109280 -0.449168 1.000000
0.286960 0.198872 -0.433150 1.000000
0.286960 0.446798 -0.123544 1.000000
0.286960 -0.443965 0.042338 1.000000
0.286960 -0.467915 -0.080935 1.000000
0.286960 0.177265 0.459437 1.000000
0.286960 0.430096 0.239556 1.000000
0.286960 -0.151287 -0.465050 1.000000
0.286960 0.189938 0.410607 1.000000
0.286960 -0.476505 -0.122518 1.000000
0.286960 -0.442880 0.108611 1.000000
0.286960 -0.183662 0.432083 1.000000
0.286960 0.193840 -0.424568 1.000000
0.286960 0.418635 -0.248337 1.000000
0.286960 -0.119550 -0.484282 1.000000
0.286960 -0.275106 -0.354375 1.000000
0.286960 -0.478438 -0.132231 1.000000
0.286960 0.447540 -0.093204 1.000000
0.286960 -0.199131 0.426950 1.000000
0.286960 0.122139 -0.443643 1.000000
0.286960 -0.448078 -0.080019 1.000000
0.286960 -0.289227 0.372922 1.000000
0.286960 0.346572 0.343601 1.000000
0.286960 -0.400438 0.260928 1.000000
0.286960 0.332458 0.355070 1.000000
0.286960 0.384957 -0.237891 1.000000
0.286960 -0.416608 0.194299 1.000000
0.286960 0.456298 -0.099911 1.000000
0.286960 -0.155165 0.448637 1.000000
0.286960 -0.079512 0.483970 1.000000
0.286960 -0.484599 -0.047553 1.000000
0.286960 0.120680 -0.476705 1.000000
0.286960 -0.170032 -0.416655 1.000000
0.286960 0.072256 0.485388 1.000000
0.286960 -0.398954 -0.266284 1.000000
0.286960 -0.409927 0.258345 1.000000
0.286960 0.184735 0.405097 1.000000
0.286960 0.097613 -0.442334 1.000000
0.286960 -0.376621 0.269155 1.000000
0.286960 -0.450228 -0.005950 1.000000
0.286960 0.213157 -0.417248 1.000000
0.286960 0.441681 0.152902 1.000000
0.286960 0.069984 -0.478910 1.000000
0.286960 0.240578 -0.435202 1.000000
0.286960 0.432672 -0.138883 1.000000
0.286960 -0.047466 0.473025 1.000000
0.286960 0.235537 -0.401129 1.000000
0.286960 0.145973 0.445184 1.000000
0.286960 -0.248071 0.410601 1.000000
0.286960 -0.475909 0.091193 1.000000
0.286960 0.248073 0.384668 1.000000
0.286960 0.315103 -0.353802 1.000000
0.286960 0.473497 -0.131142 1.000000
0.286960 0.179033 0.411911 1.000000
0.286960 -0.070639 -0.442525 1.000000
0.286960 0.481464 -0.032905 1.000000
0.286960 0.297920 -0.346115 1.000000
0.286960 -0.249984 0.413774 1.000000
0.286960 -0.375469 -0.278641 1.000000
0.286960 0.446869 0.211369 1.000000
0.286960 -0.450780 -0.193373 1.000000
0.286960 -0.038390 0.458295 1.000000
0.286960 -0.152297 -0.472195 1.000000
0.286960 0.386791 0.261725 1.000000
0.286960 0.001937 0.453086 1.000000
0.286960 -0.284638 -0.399469 1.000000
0.286960 -0.263694 0.413901 1.000000
0.286960 -0.000913 -0.474995 1.000000
0.286960 0.004077 0.445439 1.000000
0.286960 -0.250270 0.375831 1.000000
0.286960 0.199489 -0.418963 1.000000
0.286960 -0.387233 0.232614 1.000000
0.286960 -0.204589 -0.405391 1.000000
0.286960 -0.442436 -0.075537 1.000000
0.286960 0.434269 0.137140 1.000000
0.286960 0.222905 -0.428401 1.000000
0.286960 -0.374831 -0.260761 1.000000
0.286960 0.060347 -0.478109 1.000000
0.286960 0.357200 0.294149 1.000000
0.286960 0.251139 -0.425481 1.000000
0.286960 0.344298 -0.327806 1.000000
0.286960 0.110043 0.446210 1.000000
0.286960 -0.155737 0.467338 1.000000
0.286960 -0.463571 -0.158093 1.000000
0.286960 -0.348450 0.330772 1.000000
0.286960 0.223978 0.433928 1.000000
0.286960 -0.261951 -0.386422 1.000000
0.286960 -0.215909 0.413223 1.000000
0.286960 -0.404671 -0.283529 1.000000
0.286960 -0.417334 0.183356 1.000000
0.286960 0.459413 0.087197 1.000000
0.286960 -0.240532 0.383781 1.000000
0.286960 0.286907 -0.408611 1.000000
0.286960 -0.476912 0.033250 1.000000
0.286960 -0.184696 0.419668 1.000000
0.286960 -0.452167 -0.157266 1.000000
0.286960 -0.430403 -0.241863 1.000000
0.286960 -0.389926 0.304886 1.000000
0.286960 -0.257054 -0.408431 1.000000
0.286960 -0.150172 0.466645 1.000000
0.286960 -0.361175 0.291692 1.000000
0.286960 0.391890 0.242510 1.000000
0.286960 -0.459030 -0.087252 1.000000
0.286960 0.244925 -0.384993 1.000000
0.286960 -0.240020 -0.378028 1.000000
0.286960 -0.446666 0.196710 1.000000
0.286960 0.419176 0.167911 1.000000
0.286960 0.345697 -0.351070 1.000000
0.286960 -0.194650 -0.413578 1.000000
0.286960 0.052805 0.459308 1.000000
0.286960 -0.347319 -0.357957 1.000000
0.286960 -0.026751 0.476983 1.000000
0.286960 -0.459877 -0.168243 1.000000
0.286960 -0.147358 0.469654 1.000000
0.286960 0.117534 -0.431933 1.000000
0.286960 -0.333191 -0.327740 1.000000
0.286960 -0.469285 0.077210 1.000000
0.286960 -0.239009 -0.395511 1.000000
0.286960 -0.100208 -0.436263 1.000000
0.286960 -0.396093 -0.256511 1.000000
0.286960 -0.452924 -0.060080 1.000000
0.286960 -0.467064 0.017365 1.000000
0.286960 0.282350 -0.383861 1.000000
0.286960 -0.359057 0.325091 1.000000
0.286960 0.117350 0.472569 1.000000
0.286960 0.452277 -0.101233 1.000000
0.286960 -0.405914 -0.272014 1.000000
0.286960 -0.452410 -0.111368 1.000000
0.286960 0.096574 -0.473760 1.000000
0.286960 -0.015076 -0.458553 1.000000
0.286960 -0.469862 -0.154862 1.000000
0.286960 0.154334 -0.458258 1.000000
0.286960 0.122583 -0.450930 1.000000
0.286960 -0.204296 0.434537 1.000000
0.286960 0.445381 0.127481 1.000000
0.286960 -0.458564 0.024726 1.000000
0.286960 0.423997 0.207255 1.000000
0.286960 0.247945 0.392466 1.000000
0.286960 -0.103936 -0.463160 1.000000
0.286960 -0.198618 0.454238 1.000000
0.286960 0.138515 -0.472991 1.000000
0.286960 -0.077348 -0.462853 1.000000
0.286960 0.404704 -0.240880 1.000000
0.286960 -0.377504 0.313522 1.000000
0.286960 -0.002264 0.451689 1.000000
0.286960 -0.198845 0.440408 1.000000
0.286960 -0.470340 -0.091771 1.000000
0.286960 -0.455639 -0.104764 1.000000
0.286960 0.017644 0.459214 1.000000
0.286960 -0.243824 0.388459 1.000000
0.286960 0.288890 -0.358147 1.000000
0.286960 -0.470533 0.015292 1.000000
0.286960 0.442170 -0.198309 1.000000
0.286960 -0.385860 0.238748 1.000000
0.286960 0.420027 -0.236635 1.000000
0.286960 -0.416256 0.190416 1.000000
0.286960 -0.061177 -0.454284 1.000000
0.286960 0.279850 -0.353118 1.000000
0.286960 -0.456343 -0.164353 1.000000
0.286960 0.451319 -0.040585 1.000000
0.286960 -0.211211 0.399876 1.000000
0.286960 -0.165210 0.454302 1.000000
0.286960 -0.322064 0.376463 1.000000
0.286960 0.408605 -0.222895 1.000000
0.286960 0.109858 0.483098 1.000000
0.286960 0.408880 0.193337 1.000000
0.286960 0.282656 -0.399247 1.000000
0.286960 -0.459496 -0.010874 1.000000
0.286960 0.006779 0.485924 1.000000
0.286960 0.245851 0.371698 1.000000
0.286960 -0.344631 -0.319343 1.000000
0.286960 0.462867 -0.069121 1.000000
0.286960 -0.482341 0.074554 1.000000
0.286960 -0.164520 -0.453296 1.000000
0.286960 -0.471372 0.030284 1.000000
0.286960 0.242988 -0.395494 1.000000
0.286960 -0.350286 0.319491 1.000000
0.286960 -0.091575 0.449010 1.000000
0.286960 0.452635 0.003515 1.000000
0.286960 -0.347907 -0.336935 1.000000
0.286960 0.430238 -0.236976 1.000000
0.286960 0.336886 -0.316134 1.000000
0.286960 0.414497 -0.176061 1.000000
0.286960 0.474890 0.071376 1.000000
0.286960 0.374425 0.286030 1.000000
0.286960 0.186378 0.412128 1.000000
0.286960 0.284605 0.383589 1.000000
0.286960 -0.430888 0.230606 1.000000
0.286960 0.467911 0.014071 1.000000
0.286960 -0.481998 0.063935 1.000000
0.286960 0.356008 -0.278057 1.000000
0.286960 0.116387 -0.451760 1.000000
0.286960 0.413628 0.268228 1.000000
0.286960 -0.455625 0.053159 1.000000
0.286960 -0.457886 -0.171769 1.000000
0.286960 -0.320147 0.371537 1.000000
0.286960 -0.295352 -0.365436 1.000000
0.286960 -0.401175 0.265331 1.000000
0.286960 0.446565 0.168157 1.000000
0.286960 0.242581 0.398221 1.000000
0.286960 0.224244 0.383689 1.000000
0.286960 0.420605 0.235559 1.000000
0.286960 -0.221127 -0.432008 1.000000
0.286960 -0.315462 -0.323753 1.000000
0.286960 0.119869 -0.454337 1.000000
0.286960 -0.442816 0.175729 1.000000
0.286960 -0.127734 0.460639 1.000000
0.286960 0.397227 -0.210029 1.000000
0.286960 0.474158 0.009242 1.000000
0.286960 -0.324234 -0.318293 1.000000
0.286960 -0.053586 -0.497025 1.000000
0.286960 -0.206217 0.450178 1.000000
0.286960 0.106132 0.469888 1.000000
0.286960 0.416239 0.271208 1.000000
0.286960 0.317210 0.355560 1.000000
0.286960 -0.132413 -0.476009 1.000000
0.286960 -0.477153 0.054561 1.000000
0.286960 0.336226 -0.329964 1.000000
0.286960 0.385658 0.231744 1.000000
0.286960 -0.468464 -0.056716 1.000000
0.286960 0.449049 -0.184356 1.000000
0.286960 -0.392830 -0.216814 1.000000
0.286960 -0.286653 -0.388670 1.000000
0.286960 0.042261 -0.466891 1.000000
0.286960 0.453346 0.096771 1.000000
0.286960 -0.138045 0.439865 1.000000
0.286960 -0.313173 -0.388575 1.000000
0.286960 -0.440910 0.084953 1.000000
0.286960 0.401030 0.226036 1.000000
0.286960 0.319299 0.342885 1.000000
0.286960 0.065103 -0.493212 1.000000
0.286960 -0.060170 0.483857 1.000000
0.286960 0.023331 0.479376 1.000000
0.286960 0.015287 -0.488101 1.000000
0.286960 -0.306772 0.324222 1.000000
0.286960 0.456114 0.161236 1.000000
0.286960 0.445026 0.185448 1.000000
0.286960 -0.019692 0.463639 1.000000
0.286960 0.277744 0.389696 1.000000
0.286960 0.437117 -0.205162 1.000000
0.286960 -0.055033 0.458562 1.000000
0.286960 -0.435284 -0.145007 1.000000
0.286960 -0.077134 0.457201 1.000000
0.286960 -0.079389 0.464737 1.000000
0.286960 0.205507 0.451432 1.000000
0.286960 0.453756 -0.048293 1.000000
0.286960 0.470807 0.134962 1.000000
0.286960 0.021115 0.458240 1.000000
0.286960 -0.248451 -0.412580 1.000000
0.286960 -0.082589 0.486857 1.000000
0.286960 -0.370016 0.294710 1.000000
0.286960 -0.355702 0.327259 1.000000
0.286960 0.469752 -0.047270 1.000000
0.286960 0.431851 0.228323 1.000000
0.286960 0.043396 -0.489653 1.000000
0.286960 -0.258194 0.393521 1.000000
0.286960 0.301175 -0.371379 1.000000
0.286960 -0.004375 -0.480184 1.000000
0.286960 -0.311397 0.373696 1.000000
0.286960 -0.061054 0.468271 1.000000
0.286960 -0.178439 -0.428663 1.000000
0.286960 0.445777 0.214386 1.000000
0.286960 -0.432603 0.104355 1.000000
0.286960 -0.342976 0.299979 1.000000
0.286960 0.390609 0.261997 1.000000
0.286960 0.470758 -0.118471 1.000000
0.286960 0.179801 0.428917 1.000000
0.286960 -0.220868 0.438178 1.000000
0.286960 -0.064780 -0.459147 1.000000
0.286960 -0.412611 -0.188651 1.000000
0.286960 -0.417139 -0.204274 1.000000
0.286960 0.418285 -0.239794 1.000000
0.286960 0.200196 0.408269 1.000000
0.286960 0.464387 -0.140221 1.000000
0.286960 -0.034390 0.483953 1.000000
0.286960 0.153018 0.454457 1.000000
0.286960 -0.014210 0.460964 1.000000
0.286960 0.441723 0.204886 1.000000
0.286960 0.449241 -0.018274 1.000000
0.286960 0.319583 -0.377192 1.000000
0.286960 -0.274317 0.401686 1.000000
0.286960 0.460783 -0.187287 1.000000
0.286960 -0.459794 -0.061066 1.000000
0.286960 -0.322342 0.365223 1.000000
0.286960 0.243423 -0.414562 1.000000
0.286960 0.472759 0.041671 1.000000
0.286960 0.368977 0.252243 1.000000
0.286960 -0.167100 0.439621 1.000000
0.286960 0.146546 0.434137 1.000000
0.286960 0.343624 -0.333982 1.000000
0.286960 0.014562 -0.462342 1.000000
0.286960 -0.437903 0.076628 1.000000
0.286960 0.157038 0.470522 1.000000
0.286960 -0.429043 -0.218660 1.000000
0.286960 -0.351860 -0.311193 1.000000
0.286960 -0.068267 -0.453349 1.000000
0.286960 -0.138709 0.449322 1.000000
0.286960 -0.405842 -0.290019 1.000000
0.286960 0.013726 -0.483457 1.000000
0.286960 0.322975 0.341117 1.000000
0.286960 0.414515 -0.240110 1.000000
0.286960 0.057751 0.450382 1.000000
0.286960 0.471944 0.014676 1.000000
0.286960 -0.423803 -0.192674 1.000000
0.286960 0.222530 -0.435956 1.000000
0.286960 0.188520 -0.452878 1.000000
0.286960 0.249252 0.409820 1.000000
0.286960 -0.088315 0.471917 1.000000
0.286960 -0.477268 0.020495 1.000000
0.286960 -0.447909 -0.195327 1.000000
0.286960 -0.117193 -0.444531 1.000000
0.286960 0.489616 -0.090155 1.000000
0.286960 -0.417740 0.232055 1.000000
0.286960 -0.020441 0.473495 1.000000
0.286960 -0.254038 0.420417 1.000000
0.286960 -0.454502 0.000258 1.000000
0.286960 -0.448382 -0.203008 1.000000
0.286960 0.479214 -0.025713 1.000000
0.286960 0.359950 0.319856 1.000000
0.286960 0.012188 0.470649 1.000000
0.286960 -0.064251 0.477054 1.000000
0.286960 -0.228750 0.387318 1.000000
0.286960 -0.073233 0.443394 1.000000
0.286960 0.349096 0.284736 1.000000
0.286960 0.271283 -0.355973 1.000000
0.286960 -0.034663 -0.462521 1.000000
0.286960 -0.441477 -0.205929 1.000000
0.286960 -0.094243 0.441181 1.000000
0.286960 0.422006 0.204183 1.000000
0.286960 -0.388135 0.297452 1.000000
0.286960 -0.436952 0.124872 1.000000
0.286960 -0.422003 0.253848 1.000000
0.286960 -0.417626 0.170513 1.000000
0.286960 0.354353 -0.345583 1.000000
0.286960 0.472633 0.052154 1.000000
0.286960 0.435484 -0.199403 1.000000
0.286960 -0.079599 0.441144 1.000000
0.286960 -0.456671 0.148969 1.000000
0.286960 -0.399129 -0.226676 1.000000
0.286960 -0.141080 -0.447361 1.000000
0.286960 0.460415 -0.024560 1.000000
0.286960 -0.311982 -0.356531 1.000000
0.286960 0.326094 -0.378583 1.000000
0.286960 -0.358220 0.334042 1.000000
0.286960 0.009780 0.489287 1.000000
0.286960 -0.093666 -0.488174 1.000000
0.286960 0.482321 -0.082803 1.000000
0.286960 0.351248 -0.332439 1.000000
0.286960 0.302046 -0.379793 1.000000
0.286960 0.400503 0.262520 1.000000
0.286960 0.488057 0.069525 1.000000
0.286960 -0.250105 0.383759 1.000000
0.286960 -0.323841 0.374055 1.000000
0.286960 0.469833 0.126461 1.000000
0.286960 -0.482702 0.103501 1.000000
0.286960 -0.403008 0.251329 1.000000
0.286960 0.330897 -0.340889 1.000000
0.286960 -0.040788 0.446376 1.000000
0.286960 -0.392826 -0.256131 1.000000
0.286960 0.351303 -0.347991 1.000000
0.286960 -0.429154 -0.174890 1.000000
0.286960 -0.407049 0.248908 1.000000
0.286960 -0.478390 0.058082 1.000000
0.286960 -0.279676 -0.372597 1.000000
0.286960 0.076304 0.446954 1.000000
0.286960 0.265193 0.403680 1.000000
0.286960 0.114600 0.447263 1.000000
0.286960 -0.325412 0.339500 1.000000
0.286960 -0.291333 -0.362361 1.000000
0.286960 0.456886 0.012653 1.000000
0.286960 -0.200776 0.434055 1.000000
0.286960 0.425442 -0.160195 1.000000
0.286960 -0.496871 0.003406 1.000000
0.286960 0.441746 -0.232594 1.000000
0.286960 0.424914 0.216564 1.000000
0.286960 0.469963 0.119854 1.000000
0.286960 0.458572 0.171467 1.000000
0.286960 -0.397688 0.263371 1.000000
0.286960 0.370948 0.287271 1.000000
0.286960 0.078791 -0.440984 1.000000
0.286960 -0.385153 -0.251755 1.000000
0.286960 0.102203 -0.483211 1.000000
0.286960 0.296406 0.361752 1.000000
0.286960 -0.001243 0.478995 1.000000
0.286960 0.067439 -0.459885 1.000000
0.286960 0.295053 0.377601 1.000000
0.286960 0.407978 -0.277501 1.000000
0.286960 0.294368 0.381540 1.000000
0.286960 -0.233414 -0.391104 1.000000
0.286960 0.295524 -0.386969 1.000000
0.286960 0.389859 -0.290176 1.000000
0.286960 0.091754 -0.471870 1.000000
0.286960 0.071022 0.438275 1.000000
0.286960 -0.126753 0.455598 1.000000
0.286960 -0.394144 -0.264483 1.000000
0.286960 -0.295568 0.372367 1.000000
0.286960 0.193344 0.421141 1.000000
0.286960 -0.398262 -0.294810 1.000000
0.286960 0.396362 -0.303323 1.000000
0.286960 0.388327 -0.221391 1.000000
0.286960 -0.266243 -0.367954 1.000000
0.286960 -0.362938 0.311000 1.000000
0.286960 -0.467896 -0.072500 1.000000
0.286960 0.000243 -0.496195 1.000000
0.286960 -0.331945 -0.354968 1.000000
0.286960 -0.175421 0.424686 1.000000
0.286960 0.254958 -0.415710 1.000000
0.286960 0.388568 0.268154 1.000000
0.286960 0.361898 -0.287480 1.000000
0.286960 0.312945 -0.381267 1.000000
0.286960 0.281557 0.345871 1.000000
0.286960 -0.294263 -0.337231 1.000000
0.286960 0.350875 0.341319 1.000000
0.286960 0.232242 0.413000 1.000000
0.286960 -0.347708 -0.354894 1.000000
0.286960 0.216714 -0.446763 1.000000
0.286960 -0.193521 0.452736 1.000000
0.286960 -0.122265 0.428202 1.000000
0.286960 0.441517 -0.070928 1.000000
0.286960 0.435395 0.218931 1.000000
0.286960 -0.018137 0.489129 1.000000
0.286960 -0.361988 -0.295248 1.000000
0.286960 -0.327144 -0.376777 1.000000
0.286960 -0.469263 -0.096923 1.000000
0.286960 0.460021 -0.055376 1.000000
0.286960 -0.242893 0.412073 1.000000
0.286960 -0.444633 0.091465 1.000000
0.286960 -0.252625 -0.430757 1.000000
0.286960 -0.072308 -0.475016 1.000000
0.286960 -0.421756 -0.162739 1.000000
0.286960 -0.016541 -0.461986 1.000000
0.286960 0.476303 -0.125247 1.000000
0.286960 0.408319 0.207103 1.000000
0.286960 0.394605 -0.221794 1.000000
0.286960 -0.353235 0.325029 1.000000
0.286960 -0.227309 -0.408006 1.000000
0.286960 -0.486009 -0.103614 1.000000
0.286960 0.275042 0.382037 1.000000
0.286960 0.430415 -0.169461 1.000000
0.286960 0.023954 -0.447153 1.000000
0.286960 0.258133 -0.389470 1.000000
0.286960 -0.464847 0.070072 1.000000
0.286960 -0.020568 -0.478852 1.000000
0.286960 -0.409575 0.171371 1.000000
0.286960 0.036643 0.460909 1.000000
0.286960 0.393120 -0.289560 1.000000
0.286960 -0.462945 0.178128 1.000000
0.286960 -0.332593 0.336753 1.000000
0.286960 -0.184570 0.416256 1.000000
0.286960 -0.495142 0.024902 1.000000
0.286960 0.441650 -0.088046 1.000000
0.286960 -0.436608 -0.219647 1.000000
0.286960 -0.474088 0.010595 1.000000
0.286960 -0.435648 -0.189540 1.000000
0.286960 0.036655 -0.485249 1.000000
0.286960 -0.096413 -0.486573 1.000000
0.286960 -0.409729 0.187016 1.000000
0.286960 0.464139 0.096528 1.000000
0.286960 0.283742 -0.391117 1.000000
0.286960 0.437348 -0.217017 1.000000
0.286960 -0.392161 0.302229 1.000000
0.286960 0.298044 -0.391285 1.000000
0.286960 0.023211 0.455773 1.000000
0.286960 0.426649 -0.152548 1.000000
0.286960 -0.493275 0.010447 1.000000
0.286960 -0.270702 0.408805 1.000000
0.286960 -0.463355 -0.055782 1.000000
0.286960 -0.246992 0.371865 1.000000
0.286960 -0.441196 -0.143857 1.000000
0.286960 0.339897 -0.314297 1.000000
0.286960 -0.445205 0.133581 1.000000
0.286960 -0.335508 0.359066 1.000000
0.286960 0.417598 -0.243355 1.000000
0.286960 -0.203281 0.428539 1.000000
0.286960 -0.010912 0.481786 1.000000
0.286960 0.325868 0.344207 1.000000
0.286960 0.016120 -0.449029 1.000000
0.286960 0.430366 -0.252837 1.000000
0.286960 0.212836 -0.441359 1.000000
0.286960 -0.411276 -0.212169 1.000000
0.286960 -0.333496 0.292317 1.000000
0.286960 -0.035947 -0.480540 1.000000
0.286960 -0.162177 -0.461561 1.000000
0.286960 0.257455 0.419863 1.000000
0.286960 0.381342 0.240114 1.000000
0.286960 0.302014 0.386249 1.000000
0.286960 -0.242702 -0.380060 1.000000
0.286960 0.434980 0.172460 1.000000
0.286960 0.219779 0.390194 1.000000
0.286960 -0.308432 -0.385014 1.000000
0.286960 -0.444934 0.006988 1.000000
0.286960 0.216697 0.428126 1.000000
0.286960 -0.366636 -0.329926 1.000000
0.286960 0.238047 -0.432236 1.000000
0.286960 -0.445316 -0.215853 1.000000
0.286960 0.328221 0.314046 1.000000
0.286960 0.419658 0.178195 1.000000
0.286960 -0.074914 -0.476868 1.000000
0.286960 0.448682 -0.102518 1.000000
0.286960 0.201972 0.416712 1.000000
0.286960 0.478735 -0.043696 1.000000
0.286960 -0.445172 -0.137192 1.000000
