-0.290288 -0.422197 0.230529 4.000000
-0.290288 -0.456641 -0.199180 4.000000
-0.290288 -0.005352 0.478966 4.000000
-0.290288 -0.388078 0.269603 4.000000
-0.290288 0.372021 0.245052 4.000000
-0.290288 0.263203 -0.393490 4.000000
-0.290288 0.299870 0.374247 4.000000
-0.290288 0.321658 -0.335565 4.000000
-0.290288 0.404432 0.282536 4.000000
-0.290288 0.314207 0.324792 4.000000
-0.290288 -0.231979 0.426932 4.000000
-0.290288 -0.197811 -0.419600 4.000000
-0.290288 -0.469188 -0.003801 4.000000
-0.290288 -0.391148 0.270873 4.000000
-0.290288 0.056129 0.480396 4.000000
-0.290288 0.198930 0.415085 4.000000
-0.290288 -0.432817 0.156669 4.000000
-0.290288 0.124139 -0.452718 4.000000
-0.290288 -0.368687 -0.271507 4.000000
-0.290288 0.120349 0.471996 4.000000
-0.290288 0.458752 0.192292 4.000000
-0.290288 0.190134 -0.440693 4.000000
-0.290288 -0.212900 -0.440051 4.000000
-0.290288 0.370808 0.306149 4.000000
-0.290288 0.077816 0.489358 4.000000
-0.290288 -0.071401 -0.486136 4.000000
-0.290288 0.294383 -0.358515 4.000000
-0.290288 -0.142739 -0.429592 4.000000
-0.290288 -0.081778 0.458720 4.000000
-0.290288 0.362539 0.289785 4.000000
-0.290288 0.490550 0.069544 4.000000
-0.290288 0.163943 -0.443517 4.000000
-0.290288 0.373275 -0.257663 4.000000
-0.290288 -0.127100 -0.431946 4.000000
-0.290288 -0.034130 0.485281 4.000000
-0.290288 -0.327561 0.314870 4.000000
-0.290288 -0.196943 0.428455 4.000000
-0.290288 -0.332773 -0.330403 4.000000
-0.290288 0.247170 0.425331 4.000000
-0.290288 -0.223763 0.422623 4.000000
-0.290288 -0.268850 -0.398982 4.000000
-0.290288 0.011470 -0.456134 4.000000
-0.290288 0.360392 0.321182 4.000000
-0.290288 -0.440372 0.225670 4.000000
-0.290288 -0.417875 0.266191 4.000000
-0.290288 0.256842 0.377557 4.000000
-0.290288 -0.443650 -0.095086 4.000000
-0.290288 -0.427108 -0.257055 4.000000
-0.290288 0.328194 -0.346218 4.000000
-0.290288 -0.027710 0.466745 4.000000
-0.290288 0.072059 -0.470424 4.000000
-0.290288 0.303229 -0.335804 4.000000
-0.290288 -0.248626 0.398082 4.000000
-0.290288 0.317776 -0.323357 4.000000
-0.290288 0.373396 -0.267386 4.000000
-0.290288 -0.478840 0.118301 4.000000
-0.290288 0.450370 -0.104362 4.000000
-0.290288 0.278791 0.369393 4.000000
-0.290288 0.060846 -0.485109 4.000000
-0.290288 -0.092142 -0.448813 4.000000
-0.290288 0.226715 0.390885 4.000000
-0.290288 0.449663 -0.160878 4.000000
-0.290288 0.375762 -0.269743 4.000000
-0.290288 0.438479 0.081485 4.000000
-0.290288 0.467483 -0.049581 4.000000
-0.290288 -0.383489 -0.305502 4.000000
-0.290288 -0.429439 0.236104 4.000000
-0.290288 -0.485605 0.049836 4.000000
-0.290288 -0.184796 0.438204 4.000000
-0.290288 0.055151 0.455686 4.000000
-0.290288 -0.269833 0.398222 4.000000
-0.290288 0.418361 -0.240575 4.000000
-0.290288 -0.435834 -0.216181 4.000000
-0.290288 0.369962 -0.257782 4.000000
-0.290288 -0.209349 -0.433812 4.000000
-0.290288 0.332811 0.294361 4.000000
-0.290288 -0.460518 -0.147604 4.000000
-0.290288 0.439829 -0.127479 4.000000
-0.290288 -0.299788 -0.346985 4.000000
-0.290288 0.444528 -0.190632 4.000000
-0.290288 -0.436489 0.146549 4.000000
-0.290288 0.182032 0.448827 4.000000
-0.290288 -0.290882 0.371475 4.000000
-0.290288 0.303237 -0.360176 4.000000
-0.290288 -0.076658 -0.483273 4.000000
-0.290288 0.381871 -0.281009 4.000000
-0.290288 -0.440568 0.094123 4.000000
-0.290288 0.107601 0.438813 4.000000
-0.290288 -0.164821 -0.436533 4.000000
-0.290288 0.136658 -0.439437 4.000000
-0.290288 -0.294330 -0.337316 4.000000
-0.290288 -0.482652 -0.015256 4.000000
-0.290288 -0.329071 -0.321759 4.000000
-0.290288 -0.114138 0.451358 4.000000
-0.290288 0.401147 -0.220275 4.000000
-0.290288 0.015645 -0.492652 4.000000
-0.290288 0.430540 -0.152464 4.000000
-0.290288 -0.468185 0.096638 4.000000
-0.290288 -0.383184 0.225249 4.000000
-0.290288 -0.464815 0.042395 4.000000
-0.290288 0.490112 0.053813 4.000000
-0.290288 0.054762 0.483825 4.000000
-0.290288 -0.424000 -0.186079 4.000000
-0.290288 -0.462844 -0.084104 4.000000
-0.290288 -0.430727 -0.166516 4.000000
-0.290288 0.231499 0.423182 4.000000
-0.290288 0.244576 -0.393470 4.000000
-0.290288 0.067216 -0.448702 4.000000
-0.290288 0.454926 0.104152 4.000000
-0.290288 -0.048678 0.493285 4.000000
-0.290288 0.451177 0.014333 4.000000
-0.290288 0.264706 -0.422017 4.000000
-0.290288 -0.415127 0.172121 4.000000
-0.290288 -0.176951 0.435988 4.000000
-0.290288 -0.484133 -0.019039 4.000000
-0.290288 0.351946 0.276930 4.000000
-0.290288 0.296124 -0.397621 4.000000
-0.290288 0.058332 -0.477979 4.000000
-0.290288 -0.265408 0.381224 4.000000
-0.290288 -0.454863 -0.154240 4.000000
-0.290288 -0.293100 0.394043 4.000000
-0.290288 0.443288 0.216536 4.000000
-0.290288 0.171338 -0.461151 4.000000
-0.290288 -0.462673 -0.169285 4.000000
-0.290288 -0.285775 0.392838 4.000000
-0.290288 -0.449664 0.171311 4.000000
-0.290288 0.437907 0.157679 4.000000
-0.290288 0.482645 -0.102012 4.000000
-0.290288 -0.471944 0.022933 4.000000
-0.290288 -0.339010 0.337030 4.000000
-0.290288 -0.325928 -0.346990 4.000000
-0.290288 0.461413 0.031361 4.000000
-0.290288 -0.061087 -0.462994 4.000000
-0.290288 -0.263063 -0.394620 4.000000
-0.290288 0.431515 0.151629 4.000000
-0.290288 0.357693 -0.319399 4.000000
-0.290288 0.494674 -0.018710 4.000000
-0.290288 0.493792 -0.062092 4.000000
-0.290288 0.480272 -0.004775 4.000000
-0.290288 -0.246472 -0.376210 4.000000
-0.290288 -0.153192 0.437321 4.000000
-0.290288 -0.439174 0.112598 4.000000
-0.290288 -0.409812 0.238241 4.000000
-0.290288 -0.041013 -0.483614 4.000000
-0.290288 0.264120 -0.378847 4.000000
-0.290288 -0.404490 0.216173 4.000000
-0.290288 -0.068854 0.457037 4.000000
-0.290288 0.226172 0.406423 4.000000
-0.290288 -0.461901 -0.110561 4.000000
-0.290288 -0.152727 -0.445580 4.000000
-0.290288 -0.411811 0.207241 4.000000
-0.290288 0.128246 -0.453266 4.000000
-0.290288 0.318385 0.374551 4.000000
-0.290288 -0.288325 0.375707 4.000000
-0.290288 0.074026 0.474161 4.000000
-0.290288 -0.111827 -0.456405 4.000000
-0.290288 -0.444493 0.035439 4.000000
-0.290288 -0.325614 0.327351 4.000000
-0.290288 -0.105940 -0.465794 4.000000
-0.290288 0.458903 -0.105804 4.000000
-0.290288 -0.359657 0.280917 4.000000
-0.290288 0.430960 0.156808 4.000000
-0.290288 0.008110 -0.477899 4.000000
-0.290288 -0.408556 0.223253 4.000000
-0.290288 0.477102 -0.006136 4.000000
-0.290288 -0.169182 0.462226 4.000000
-0.290288 -0.027084 0.459006 4.000000
-0.290288 -0.166954 -0.440192 4.000000
-0.290288 -0.220832 -0.448142 4.000000
-0.290288 -0.074141 -0.465177 4.000000
-0.290288 -0.283446 -0.404008 4.000000
-0.290288 -0.038177 0.448310 4.000000
-0.290288 -0.171668 -0.453164 4.000000
-0.290288 -0.431125 -0.130909 4.000000
-0.290288 0.440122 -0.229356 4.000000
-0.290288 -0.235613 -0.409997 4.000000
-0.290288 -0.158802 -0.453127 4.000000
-0.290288 -0.427101 -0.198970 4.000000
-0.290288 0.043339 -0.446157 4.000000
-0.290288 -0.130959 -0.459832 4.000000
-0.290288 0.289731 0.394726 4.000000
-0.290288 0.325829 0.343342 4.000000
-0.290288 -0.283208 -0.408100 4.000000
-0.290288 -0.042314 0.485887 4.000000
-0.290288 -0.457301 0.132642 4.000000
-0.290288 -0.476649 0.033511 4.000000
-0.290288 0.488292 -0.015684 4.000000
-0.290288 0.281478 0.381260 4.000000
-0.290288 -0.448368 -0.063182 4.000000
-0.290288 0.311906 0.381837 4.000000
-0.290288 0.168845 0.417214 4.000000
-0.290288 0.350874 -0.319722 4.000000
-0.290288 -0.088891 0.471572 4.000000
-0.290288 0.275913 0.382770 4.000000
-0.290288 0.428660 0.246308 4.000000
-0.290288 -0.381668 -0.250022 4.000000
-0.290288 -0.331615 -0.355570 4.000000
-0.290288 -0.443609 -0.099394 4.000000
-0.290288 0.322846 -0.316604 4.000000
-0.290288 0.437441 0.086951 4.000000
-0.290288 0.315501 -0.341643 4.000000
-0.290288 0.360093 -0.309149 4.000000
-0.290288 0.379465 0.312446 4.000000
-0.290288 0.260448 0.398448 4.000000
-0.290288 -0.289308 0.398207 4.000000
-0.290288 0.031982 0.484561 4.000000
-0.290288 -0.165372 0.424117 4.000000
-0.290288 -0.376598 0.290658 4.000000
-0.290288 -0.446890 0.084908 4.000000
-0.290288 0.229066 0.397153 4.000000
-0.290288 -0.475365 -0.023942 4.000000
-0.290288 0.475730 -0.067763 4.000000
-0.290288 0.351473 -0.327275 4.000000
-0.290288 -0.235097 -0.427851 4.000000
-0.290288 0.355415 0.293419 4.000000
-0.290288 -0.487533 -0.063024 4.000000
-0.290288 0.491656 -0.016603 4.000000
-0.290288 -0.449651 -0.144188 4.000000
-0.290288 0.130101 0.471109 4.000000
-0.290288 -0.428649 -0.185837 4.000000
-0.290288 -0.463096 -0.055189 4.000000
-0.290288 -0.265014 -0.415829 4.000000
-0.290288 0.283310 -0.350028 4.000000
-0.290288 -0.444101 -0.122162 4.000000
-0.290288 -0.261232 0.387704 4.000000
-0.290288 0.023196 -0.448530 4.000000
-0.290288 -0.350047 -0.301580 4.000000
-0.290288 0.442842 0.211053 4.000000
-0.290288 -0.361671 0.312376 4.000000
-0.290288 -0.018940 0.457245 4.000000
-0.290288 0.042935 0.472880 4.000000
-0.290288 -0.367372 0.300026 4.000000
-0.290288 -0.228138 -0.411517 4.000000
-0.290288 -0.438915 0.209863 4.000000
-0.290288 -0.492229 0.063156 4.000000
-0.290288 0.309891 0.335918 4.000000
-0.290288 -0.061207 -0.450543 4.000000
-0.290288 -0.201686 -0.414702 4.000000
-0.290288 -0.046881 -0.456306 4.000000
-0.290288 0.278519 -0.369046 4.000000
-0.290288 -0.417146 -0.162044 4.000000
-0.290288 0.431599 0.161796 4.000000
-0.290288 0.274453 -0.374234 4.000000
-0.290288 -0.437575 0.081567 4.000000
-0.290288 -0.416086 -0.167633 4.000000
-0.290288 0.263547 0.397586 4.000000
-0.290288 -0.210520 -0.427838 4.000000
-0.290288 -0.460605 -0.135203 4.000000
-0.290288 -0.443405 -0.102794 4.000000
-0.290288 -0.318021 0.336382 4.000000
-0.290288 0.301650 -0.376693 4.000000
-0.290288 0.097897 0.433415 4.000000
-0.290288 0.030423 -0.496680 4.000000
-0.290288 0.280992 0.354609 4.000000
-0.290288 -0.342234 -0.287175 4.000000
-0.290288 -0.469413 0.130873 4.000000
-0.290288 -0.365281 0.296539 4.000000
-0.290288 -0.434867 0.107342 4.000000
-0.290288 -0.497441 -0.005630 4.000000
-0.290288 -0.079335 0.478858 4.000000
-0.290288 -0.305575 0.357969 4.000000
-0.290288 -0.247457 -0.403092 4.000000
-0.290288 0.463630 0.165810 4.000000
-0.290288 0.462912 -0.168436 4.000000
-0.290288 0.085882 0.446260 4.000000
-0.290288 0.163000 -0.450854 4.000000
-0.290288 0.126707 0.463198 4.000000
-0.290288 0.465272 0.056119 4.000000
-0.290288 0.436395 -0.211245 4.000000
-0.290288 -0.248548 0.389131 4.000000
-0.290288 -0.440883 0.194343 4.000000
-0.290288 -0.412595 0.258986 4.000000
-0.290288 -0.453314 0.200953 4.000000
-0.290288 0.074558 -0.467818 4.000000
-0.290288 0.444350 -0.110735 4.000000
-0.290288 0.421025 0.224412 4.000000
-0.290288 0.181266 0.439578 4.000000
-0.290288 -0.384398 -0.311305 4.000000
-0.290288 0.276938 -0.413048 4.000000
-0.290288 0.312931 -0.320033 4.000000
-0.290288 -0.419185 -0.151206 4.000000
-0.290288 -0.381260 0.303853 4.000000
-0.290288 0.334336 0.336196 4.000000
-0.290288 -0.340792 -0.306905 4.000000
-0.290288 -0.202512 0.418767 4.000000
-0.290288 -0.315033 0.371170 4.000000
-0.290288 -0.282149 0.343818 4.000000
-0.290288 -0.419298 0.173199 4.000000
-0.290288 0.004727 -0.465006 4.000000
-0.290288 0.373064 0.264098 4.000000
-0.290288 -0.465259 0.134406 4.000000
-0.290288 0.237613 -0.427656 4.000000
-0.290288 0.480870 -0.044711 4.000000
-0.290288 0.427958 0.161803 4.000000
-0.290288 -0.310055 0.363453 4.000000
-0.290288 -0.423818 -0.262528 4.000000
-0.290288 0.322193 0.312002 4.000000
-0.290288 0.461872 0.156811 4.000000
-0.290288 -0.442013 -0.199678 4.000000
-0.290288 0.476972 0.117573 4.000000
-0.290288 0.312678 -0.381269 4.000000
-0.290288 0.246485 0.417677 4.000000
-0.290288 0.023604 0.478855 4.000000
-0.290288 -0.162082 -0.434468 4.000000
-0.290288 -0.474556 -0.139523 4.000000
-0.290288 -0.414301 -0.177132 4.000000
-0.290288 0.374184 -0.245848 4.000000
-0.290288 0.050369 0.449719 4.000000
-0.290288 -0.440871 0.132864 4.000000
-0.290288 0.058759 0.460620 4.000000
-0.290288 -0.264498 0.389264 4.000000
-0.290288 -0.232442 -0.416923 4.000000
-0.290288 0.417742 0.235679 4.000000
-0.290288 0.419403 -0.204520 4.000000
-0.290288 0.036932 0.477127 4.000000
-0.290288 -0.104537 0.456620 4.000000
-0.290288 -0.295919 0.344903 4.000000
-0.290288 0.208150 -0.454504 4.000000
-0.290288 -0.237602 -0.384559 4.000000
-0.290288 -0.407629 0.229478 4.000000
-0.290288 0.127004 0.471073 4.000000
-0.290288 -0.172967 0.428889 4.000000
-0.290288 -0.438690 0.160016 4.000000
-0.290288 0.213399 0.409374 4.000000
-0.290288 0.195227 0.414851 4.000000
-0.290288 0.086336 -0.456817 4.000000
-0.290288 0.233452 -0.407389 4.000000
-0.290288 0.454490 -0.119213 4.000000
-0.290288 -0.146802 -0.456791 4.000000
-0.290288 -0.464307 -0.034011 4.000000
-0.290288 0.407771 -0.221673 4.000000
-0.290288 0.452306 0.136809 4.000000
-0.290288 -0.339185 -0.312226 4.000000
-0.290288 -0.359464 -0.331310 4.000000
-0.290288 0.002017 0.472127 4.000000
-0.290288 -0.491005 0.028609 4.000000
-0.290288 0.119684 -0.446165 4.000000
-0.290288 0.057732 0.486550 4.000000
-0.290288 -0.406568 -0.273803 4.000000
-0.290288 -0.421687 -0.252962 4.000000
-0.290288 -0.478814 -0.085713 4.000000
-0.290288 -0.304185 0.326496 4.000000
-0.290288 0.049134 -0.460831 4.000000
-0.290288 0.223088 -0.418364 4.000000
-0.290288 0.372200 0.319577 4.000000
-0.290288 -0.378510 -0.317409 4.000000
-0.290288 0.070374 -0.494665 4.000000
-0.290288 -0.156501 -0.464057 4.000000
-0.290288 -0.095491 0.452700 4.000000
-0.290288 0.026569 0.454070 4.000000
-0.290288 -0.392971 0.273614 4.000000
-0.290288 0.146205 0.451520 4.000000
-0.290288 -0.127161 0.456644 4.000000
-0.290288 0.466309 0.093667 4.000000
-0.290288 -0.455376 -0.165301 4.000000
-0.290288 -0.297148 -0.389460 4.000000
-0.290288 0.115809 -0.439817 4.000000
-0.290288 0.486420 0.046536 4.000000
-0.290288 0.445294 -0.094639 4.000000
-0.290288 -0.265845 -0.364179 4.000000
-0.290288 0.032924 0.450657 4.000000
-0.290288 -0.302491 -0.345412 4.000000
-0.290288 -0.156737 0.469169 4.000000
-0.290288 0.270298 -0.372375 4.000000
-0.290288 -0.182333 0.424633 4.000000
-0.290288 -0.375437 -0.243735 4.000000
-0.290288 -0.317978 -0.322771 4.000000
-0.290288 0.039239 -0.481004 4.000000
-0.290288 -0.274373 0.357743 4.000000
-0.290288 0.074170 0.456958 4.000000
-0.290288 -0.445376 0.016254 4.000000
-0.290288 0.208802 -0.405150 4.000000
-0.290288 0.370723 0.296232 4.000000
-0.290288 -0.272545 0.395937 4.000000
-0.290288 0.416053 -0.172210 4.000000
-0.290288 -0.319880 -0.336247 4.000000
-0.290288 0.454180 0.028566 4.000000
-0.290288 0.297223 0.332551 4.000000
-0.290288 0.094714 -0.479841 4.000000
-0.290288 0.465705 -0.161720 4.000000
-0.290288 -0.425015 -0.169625 4.000000
-0.290288 0.225379 0.417051 4.000000
-0.290288 0.490294 0.007490 4.000000
-0.290288 -0.441752 0.174072 4.000000
-0.290288 -0.334569 -0.342488 4.000000
-0.290288 -0.466786 -0.119813 4.000000
-0.290288 0.306833 -0.360207 4.000000
-0.290288 -0.433800 -0.136804 4.000000
-0.290288 -0.096160 0.467863 4.000000
-0.290288 -0.432674 -0.196669 4.000000
-0.290288 -0.395472 0.219371 4.000000
-0.290288 -0.382879 -0.259186 4.000000
-0.290288 0.315764 -0.326394 4.000000
-0.290288 -0.402952 -0.250082 4.000000
-0.290288 0.112321 -0.471822 4.000000
-0.290288 -0.164263 0.412076 4.000000
-0.290288 0.022848 0.475757 4.000000
-0.290288 0.359876 -0.296040 4.000000
-0.290288 -0.363921 0.275118 4.000000
-0.290288 0.402667 0.218850 4.000000
-0.290288 -0.377811 0.286088 4.000000
-0.290288 0.278234 0.346007 4.000000
-0.290288 0.110291 -0.464412 4.000000
-0.290288 -0.274414 0.392352 4.000000
-0.290288 -0.444454 0.111907 4.000000
-0.290288 -0.448972 -0.016469 4.000000
-0.290288 0.465511 -0.067164 4.000000
-0.290288 0.446946 -0.054057 4.000000
-0.290288 0.354486 0.273989 4.000000
-0.290288 0.407411 -0.224930 4.000000
-0.290288 -0.114400 -0.442620 4.000000
-0.290288 0.364270 -0.329694 4.000000
-0.290288 0.432961 -0.216638 4.000000
-0.290288 0.195299 -0.408982 4.000000
-0.290288 0.123150 -0.470644 4.000000
-0.290288 0.088378 -0.447168 4.000000
-0.290288 0.451383 0.039331 4.000000
-0.290288 0.130282 0.461784 4.000000
-0.290288 -0.448979 -0.206752 4.000000
-0.290288 0.359303 0.262859 4.000000
-0.290288 0.304556 -0.364569 4.000000
-0.290288 0.485080 0.089540 4.000000
-0.290288 0.292832 -0.399041 4.000000
-0.290288 -0.306868 0.328001 4.000000
-0.290288 -0.243211 -0.403249 4.000000
-0.290288 -0.182916 -0.443090 4.000000
-0.290288 -0.298102 0.347633 4.000000
-0.290288 -0.475121 -0.015784 4.000000
-0.290288 0.440040 -0.186676 4.000000
-0.290288 -0.052180 -0.478091 4.000000
-0.290288 -0.244614 -0.380198 4.000000
-0.290288 0.202847 0.396575 4.000000
-0.290288 0.419120 0.229979 4.000000
-0.290288 -0.088103 0.481742 4.000000
-0.290288 -0.374097 -0.320896 4.000000
-0.290288 0.205003 -0.403724 4.000000
-0.290288 -0.460499 -0.157676 4.000000
-0.290288 -0.486958 0.045890 4.000000
-0.290288 0.447075 -0.128463 4.000000
-0.290288 -0.123449 0.467821 4.000000
-0.290288 0.464939 -0.052898 4.000000
-0.290288 0.065443 0.456923 4.000000
-0.290288 0.445706 0.061401 4.000000
-0.290288 0.010933 0.479860 4.000000
-0.290288 -0.464314 -0.181055 4.000000
-0.290288 -0.373110 -0.280600 4.000000
-0.290288 0.049338 -0.464124 4.000000
-0.290288 0.375986 0.310681 4.000000
-0.290288 -0.049299 0.474036 4.000000
-0.290288 -0.412838 -0.217437 4.000000
-0.290288 0.195158 -0.458908 4.000000
-0.290288 0.172331 -0.464649 4.000000
-0.290288 -0.103529 0.464479 4.000000
-0.290288 0.422292 -0.168702 4.000000
-0.290288 -0.289501 -0.344607 4.000000
-0.290288 0.071779 -0.445177 4.000000
-0.290288 -0.494619 -0.030520 4.000000
-0.290288 -0.309218 0.378871 4.000000
-0.290288 -0.472229 -0.134174 4.000000
-0.290288 0.272752 0.393515 4.000000
-0.290288 -0.479833 -0.027968 4.000000
-0.290288 0.424290 -0.239104 4.000000
-0.290288 -0.435126 -0.212213 4.000000
-0.290288 0.311756 0.355152 4.000000
-0.290288 0.431010 -0.155560 4.000000
-0.290288 -0.189467 -0.457293 4.000000
-0.290288 -0.159319 0.433627 4.000000
-0.290288 -0.115013 0.471279 4.000000
-0.290288 -0.315851 0.312705 4.000000
-0.290288 -0.339067 0.314104 4.000000
-0.290288 0.458468 0.042304 4.000000
-0.290288 -0.354445 -0.299170 4.000000
-0.290288 0.322445 0.367655 4.000000
-0.290288 -0.183804 0.428086 4.000000
-0.290288 0.133632 -0.440794 4.000000
-0.290288 0.398371 0.230285 4.000000
-0.290288 -0.327875 -0.338619 4.000000
-0.290288 -0.434435 0.125782 4.000000
-0.290288 0.486638 0.032067 4.000000
-0.290288 0.002819 -0.497541 4.000000
-0.290288 -0.228745 0.439859 4.000000
-0.290288 0.471994 -0.076271 4.000000
-0.290288 -0.238736 -0.388556 4.000000
-0.290288 -0.224976 -0.402135 4.000000
-0.290288 0.491492 0.037354 4.000000
-0.290288 -0.197320 -0.441455 4.000000
-0.290288 -0.435001 -0.125009 4.000000
-0.290288 -0.243275 -0.430754 4.000000
-0.290288 -0.358761 0.273212 4.000000
-0.290288 -0.451659 -0.126344 4.000000
-0.290288 -0.201165 0.441564 4.000000
-0.290288 0.422301 -0.165281 4.000000
-0.290288 -0.479195 0.004363 4.000000
-0.290288 -0.244156 0.386506 4.000000
-0.290288 -0.392836 0.290543 4.000000
-0.290288 -0.468361 -0.149599 4.000000
-0.290288 0.294791 0.397591 4.000000
-0.290288 -0.150193 -0.455862 4.000000
-0.290288 -0.003883 -0.453700 4.000000
-0.290288 -0.356665 -0.343638 4.000000
-0.290288 0.050257 -0.451144 4.000000
-0.290288 -0.207189 0.392220 4.000000
-0.290288 0.329391 -0.358261 4.000000
-0.290288 0.429118 0.213823 4.000000
-0.290288 -0.340825 0.284802 4.000000
-0.290288 0.144121 -0.443399 4.000000
-0.290288 -0.425665 0.139032 4.000000
-0.290288 0.234496 -0.412708 4.000000
-0.290288 -0.455270 -0.147272 4.000000
-0.290288 0.073226 0.453605 4.000000
-0.290288 0.311566 -0.364363 4.000000
-0.290288 0.186275 -0.424563 4.000000
-0.290288 -0.228166 -0.402580 4.000000
-0.290288 0.475396 0.085336 4.000000
-0.290288 0.485886 -0.091059 4.000000
-0.290288 -0.020020 0.476618 4.000000
-0.290288 0.335792 -0.344993 4.000000
-0.290288 -0.198045 0.435421 4.000000
-0.290288 0.239579 0.382219 4.000000
-0.290288 0.112833 0.464108 4.000000
-0.290288 0.275451 0.407606 4.000000
-0.290288 0.124336 0.459986 4.000000
-0.290288 -0.267689 0.378150 4.000000
-0.290288 0.389984 0.285139 4.000000
-0.290288 0.412092 0.276350 4.000000
-0.290288 0.359618 -0.316883 4.000000
-0.290288 0.467704 0.124002 4.000000
-0.290288 0.357859 0.308766 4.000000
-0.290288 0.408379 -0.181653 4.000000
-0.290288 0.045030 -0.485805 4.000000
-0.290288 -0.051549 -0.487331 4.000000
-0.290288 -0.138608 -0.446775 4.000000
-0.290288 -0.109603 -0.467146 4.000000
-0.290288 -0.425520 -0.158614 4.000000
-0.290288 0.436809 -0.093466 4.000000
-0.290288 -0.444283 0.198402 4.000000
-0.290288 -0.174912 0.458863 4.000000
-0.290288 -0.447854 0.007343 4.000000
-0.290288 -0.043574 0.477820 4.000000
-0.290288 -0.357962 -0.340248 4.000000
-0.290288 -0.175862 0.444681 4.000000
-0.290288 -0.410576 -0.282913 4.000000
-0.290288 0.040089 0.485913 4.000000
-0.290288 -0.038903 0.494158 4.000000
-0.290288 -0.372592 -0.324141 4.000000
-0.290288 -0.447570 -0.026346 4.000000
-0.290288 -0.481262 0.069032 4.000000
-0.290288 0.389952 0.292092 4.000000
-0.290288 0.444503 -0.166998 4.000000
-0.290288 -0.367404 0.249477 4.000000
-0.290288 0.257683 0.364083 4.000000
-0.290288 0.125121 0.467695 4.000000
-0.290288 0.296245 0.346780 4.000000
-0.290288 0.302325 0.341822 4.000000
-0.290288 0.351066 0.351038 4.000000
-0.290288 -0.226998 0.416971 4.000000
-0.290288 0.303032 0.345337 4.000000
-0.290288 0.113191 -0.461282 4.000000
-0.290288 0.328504 0.335349 4.000000
-0.290288 0.443295 0.225324 4.000000
-0.290288 0.002060 0.482912 4.000000
-0.290288 -0.305526 -0.333109 4.000000
-0.290288 -0.436321 -0.167983 4.000000
-0.290288 -0.343794 -0.308415 4.000000
-0.290288 0.171857 0.411131 4.000000
-0.290288 -0.460102 0.040180 4.000000
-0.290288 -0.159911 -0.438225 4.000000
-0.290288 -0.403723 -0.190289 4.000000
-0.290288 -0.229130 -0.415209 4.000000
-0.290288 0.214797 -0.430987 4.000000
-0.290288 0.150731 0.433621 4.000000
-0.290288 0.474677 0.003704 4.000000
-0.290288 -0.050553 -0.483925 4.000000
-0.290288 0.447456 -0.169181 4.000000
-0.290288 0.284448 0.388132 4.000000
-0.290288 0.317866 -0.353564 4.000000
-0.290288 -0.438864 -0.095957 4.000000
-0.290288 0.269114 -0.387333 4.000000
-0.290288 0.437576 -0.171059 4.000000
-0.290288 0.219815 0.411503 4.000000
-0.290288 -0.104873 -0.457532 4.000000
-0.290288 -0.247481 -0.382649 4.000000
-0.290288 -0.386604 0.291828 4.000000
-0.290288 0.442514 -0.178914 4.000000
-0.290288 -0.422527 0.233615 4.000000
-0.290288 0.106885 -0.437626 4.000000
-0.290288 0.061669 0.459397 4.000000
-0.290288 -0.327478 -0.332474 4.000000
-0.290288 0.071705 -0.480892 4.000000
-0.290288 0.328234 0.301487 4.000000
-0.290288 0.453429 -0.130579 4.000000
-0.290288 -0.388631 -0.306286 4.000000
-0.290288 0.207344 0.438714 4.000000
-0.290288 0.359075 -0.326931 4.000000
-0.290288 0.473023 -0.123211 4.000000
-0.290288 -0.233623 0.397176 4.000000
-0.290288 -0.406264 0.284096 4.000000
-0.290288 0.285745 -0.361879 4.000000
-0.290288 0.445444 -0.134885 4.000000
-0.290288 0.462532 -0.155447 4.000000
-0.290288 -0.155114 0.458062 4.000000
-0.290288 -0.442152 -0.069598 4.000000
-0.290288 -0.465798 -0.139291 4.000000
-0.290288 -0.450922 0.013310 4.000000
-0.290288 0.241560 -0.407218 4.000000
-0.290288 0.253864 -0.406189 4.000000
-0.290288 0.221983 -0.434140 4.000000
-0.290288 0.059094 0.457277 4.000000
-0.290288 -0.332897 -0.323191 4.000000
-0.290288 0.138434 -0.462617 4.000000
-0.290288 -0.464640 0.161196 4.000000
-0.290288 0.456469 -0.023874 4.000000
-0.290288 0.459173 0.062391 4.000000
-0.290288 0.070711 -0.449138 4.000000
-0.290288 0.225919 0.398493 4.000000
-0.290288 0.277524 -0.388174 4.000000
-0.290288 -0.392283 0.217905 4.000000
-0.290288 0.421482 0.214366 4.000000
-0.290288 0.291652 -0.360589 4.000000
-0.290288 -0.094769 -0.484678 4.000000
-0.290288 -0.107290 0.458170 4.000000
-0.290288 -0.378609 0.255527 4.000000
-0.290288 -0.335525 -0.369340 4.000000
-0.290288 0.422561 0.156573 4.000000
-0.290288 0.486113 -0.055756 4.000000
-0.290288 0.036282 -0.449715 4.000000
-0.290288 -0.112043 -0.449485 4.000000
-0.290288 0.108770 0.464476 4.000000
-0.290288 -0.344181 0.316339 4.000000
-0.290288 0.356134 -0.343935 4.000000
-0.290288 0.238032 -0.431725 4.000000
-0.290288 -0.452333 -0.203976 4.000000
-0.290288 0.379082 0.264458 4.000000
-0.290288 0.459688 0.132230 4.000000
-0.290288 0.277811 0.410973 4.000000
-0.290288 -0.344034 -0.361139 4.000000
-0.290288 0.424462 0.134655 4.000000
-0.290288 -0.220370 -0.424859 4.000000
-0.290288 0.418599 0.199115 4.000000
-0.290288 0.011242 -0.495820 4.000000
-0.290288 0.072242 -0.459408 4.000000
-0.290288 -0.010094 0.493625 4.000000
-0.290288 0.196862 0.432136 4.000000
-0.290288 0.322715 -0.330169 4.000000
-0.290288 0.096847 -0.466725 4.000000
-0.290288 0.025983 0.462480 4.000000
-0.290288 0.476701 0.029550 4.000000
-0.290288 0.415539 -0.193040 4.000000
-0.290288 -0.070857 0.437383 4.000000
-0.290288 0.457832 -0.062630 4.000000
-0.290288 -0.072396 -0.452025 4.000000
-0.290288 0.261625 0.412207 4.000000
-0.290288 -0.210797 -0.424032 4.000000
-0.290288 -0.002274 0.494823 4.000000
-0.290288 -0.371928 0.263908 4.000000
-0.290288 0.329438 -0.350429 4.000000
-0.290288 0.440072 0.231504 4.000000
-0.290288 0.014118 -0.475802 4.000000
-0.290288 -0.480709 0.000576 4.000000
-0.290288 -0.248222 -0.409132 4.000000
-0.290288 -0.106261 -0.469549 4.000000
-0.290288 0.439978 0.108726 4.000000
-0.290288 -0.049599 -0.460489 4.000000
-0.290288 -0.236684 0.396990 4.000000
-0.290288 0.468755 0.051643 4.000000
-0.290288 0.484221 0.068410 4.000000
-0.290288 -0.296538 -0.370003 4.000000
-0.290288 -0.416120 0.227422 4.000000
-0.290288 0.382199 -0.294724 4.000000
-0.290288 -0.003119 0.470071 4.000000
-0.290288 0.247518 -0.434200 4.000000
-0.290288 -0.231314 0.420241 4.000000
-0.290288 -0.451202 -0.122370 4.000000
-0.290288 0.202849 -0.408505 4.000000
-0.290288 0.392871 0.243099 4.000000
-0.290288 -0.031679 0.493672 4.000000
-0.290288 -0.400887 -0.256358 4.000000
-0.290288 -0.209735 -0.447022 4.000000
-0.290288 0.398124 0.261892 4.000000
-0.290288 0.087419 0.450176 4.000000
-0.290288 0.283345 -0.404390 4.000000
-0.290288 0.416808 0.177227 4.000000
-0.290288 -0.323788 -0.354842 4.000000
-0.290288 -0.152295 -0.467428 4.000000
-0.290288 0.180348 0.457109 4.000000
-0.290288 0.342219 -0.338222 4.000000
-0.290288 -0.495128 0.033992 4.000000
-0.290288 0.449755 -0.079748 4.000000
-0.290288 0.462277 0.058217 4.000000
-0.290288 -0.077635 -0.465254 4.000000
-0.290288 -0.450384 -0.164145 4.000000
-0.290288 -0.179731 0.434851 4.000000
-0.290288 -0.458902 0.165180 4.000000
-0.290288 0.471425 0.032470 4.000000
-0.290288 0.170114 0.465881 4.000000
-0.290288 -0.389067 0.273940 4.000000
-0.290288 -0.426272 -0.141430 4.000000
-0.290288 -0.422886 -0.224209 4.000000
-0.290288 0.414684 -0.269626 4.000000
-0.290288 -0.265678 0.368280 4.000000
-0.290288 -0.195027 0.435998 4.000000
-0.290288 -0.452958 0.006450 4.000000
-0.290288 0.313450 -0.359684 4.000000
-0.290288 -0.148825 0.436181 4.000000
-0.290288 0.464791 0.101694 4.000000
-0.290288 0.464600 0.105574 4.000000
-0.290288 0.448198 -0.205324 4.000000
-0.290288 -0.420461 0.247731 4.000000
-0.290288 0.017866 0.486756 4.000000
-0.290288 -0.220387 0.417790 4.000000
-0.290288 -0.305055 0.322055 4.000000
-0.290288 -0.454914 0.110085 4.000000
-0.290288 0.430342 -0.253191 4.000000
-0.290288 -0.037143 -0.488234 4.000000
-0.290288 -0.139672 0.458167 4.000000
-0.290288 -0.400123 0.262776 4.000000
-0.290288 0.411020 0.251564 4.000000
-0.290288 0.174441 0.448168 4.000000
-0.290288 -0.370636 0.291793 4.000000
-0.290288 0.476719 -0.054353 4.000000
-0.290288 -0.475932 -0.027292 4.000000
-0.290288 0.410244 0.280881 4.000000
-0.290288 0.493682 0.009033 4.000000
-0.290288 -0.204081 0.415461 4.000000
-0.290288 -0.431766 -0.116313 4.000000
-0.290288 0.295381 0.380715 4.000000
-0.290288 -0.025372 0.492045 4.000000
-0.290288 -0.321375 0.358310 4.000000
-0.290288 -0.184294 0.450307 4.000000
-0.290288 0.462090 -0.035908 4.000000
-0.290288 0.254374 0.422444 4.000000
-0.290288 0.066430 0.487167 4.000000
-0.290288 0.374440 0.301718 4.000000
-0.290288 -0.453140 -0.011063 4.000000
-0.290288 0.400950 0.214564 4.000000
-0.290288 0.489831 -0.026865 4.000000
-0.290288 -0.264280 0.384782 4.000000
-0.290288 0.467970 0.040243 4.000000
-0.290288 0.110506 -0.448458 4.000000
-0.290288 -0.414223 0.241701 4.000000
-0.290288 -0.075816 0.452079 4.000000
-0.290288 -0.270709 0.372187 4.000000
-0.290288 -0.330032 -0.374410 4.000000
-0.290288 -0.002871 0.455113 4.000000
-0.290288 0.460174 0.135448 4.000000
-0.290288 -0.349175 0.342903 4.000000
-0.290288 -0.110969 0.455555 4.000000
-0.290288 0.401804 0.245711 4.000000
-0.290288 0.471177 -0.156617 4.000000
-0.290288 -0.472101 -0.042516 4.000000
-0.290288 0.467710 -0.171664 4.000000
-0.290288 0.426843 -0.231092 4.000000
-0.290288 -0.311351 -0.354399 4.000000
-0.290288 -0.223065 -0.445709 4.000000
-0.290288 -0.420284 0.144552 4.000000
-0.290288 0.192829 0.438054 4.000000
-0.290288 -0.167174 0.413271 4.000000
-0.290288 -0.429487 -0.123455 4.000000
-0.290288 -0.035893 0.474618 4.000000
-0.290288 0.394114 -0.275919 4.000000
-0.290288 0.010834 0.493236 4.000000
-0.290288 -0.377097 0.268031 4.000000
-0.290288 -0.337115 0.305159 4.000000
-0.290288 0.377571 0.288793 4.000000
-0.290288 -0.484914 0.068300 4.000000
-0.290288 0.339778 0.338483 4.000000
-0.290288 0.335530 0.302547 4.000000
-0.290288 -0.135067 -0.442935 4.000000
-0.290288 0.447998 0.054947 4.000000
-0.290288 -0.296433 0.354287 4.000000
-0.290288 -0.356840 0.319399 4.000000
-0.290288 -0.436264 -0.089294 4.000000
-0.290288 -0.474025 -0.072932 4.000000
-0.290288 0.030589 -0.485843 4.000000
-0.290288 -0.315749 -0.326420 4.000000
-0.290288 -0.286486 0.386380 4.000000
-0.290288 -0.403245 0.208296 4.000000
-0.290288 0.438830 0.115902 4.000000
-0.290288 -0.427066 -0.188466 4.000000
-0.290288 -0.166230 0.436654 4.000000
-0.290288 0.158671 -0.426009 4.000000
-0.290288 0.029553 -0.458753 4.000000
-0.290288 -0.471671 0.080033 4.000000
-0.290288 0.442862 0.163917 4.000000
-0.290288 0.365708 0.259094 4.000000
-0.290288 0.025077 -0.484021 4.000000
-0.290288 -0.410822 -0.269274 4.000000
-0.290288 -0.463556 0.153897 4.000000
-0.290288 0.217353 0.420109 4.000000
-0.290288 -0.452795 -0.109649 4.000000
-0.290288 0.229345 -0.395708 4.000000
-0.290288 -0.030675 0.457070 4.000000
-0.290288 -0.455100 0.166393 4.000000
-0.290288 -0.257643 -0.370133 4.000000
-0.290288 0.472582 0.089472 4.000000
-0.290288 0.122783 -0.476878 4.000000
-0.290288 0.337928 0.311189 4.000000
-0.290288 0.453245 -0.125173 4.000000
-0.290288 -0.025933 0.448766 4.000000
-0.290288 -0.406382 -0.269046 4.000000
-0.290288 -0.380869 0.253202 4.000000
-0.290288 0.380795 0.307802 4.000000
-0.290288 0.296508 0.365612 4.000000
-0.290288 0.404411 -0.258843 4.000000
-0.290288 0.362478 0.309511 4.000000
-0.290288 0.389227 -0.245338 4.000000
-0.290288 -0.375415 0.254510 4.000000
-0.290288 -0.125457 0.450659 4.000000
-0.290288 -0.064979 -0.461066 4.000000
-0.290288 0.450563 0.092219 4.000000
-0.290288 0.417805 0.251264 4.000000
-0.290288 0.233536 0.407017 4.000000
-0.290288 -0.492610 -0.001012 4.000000
-0.290288 -0.479899 0.039855 4.000000
-0.290288 -0.456263 -0.073975 4.000000
-0.290288 0.475066 0.009196 4.000000
-0.290288 0.098909 0.442946 4.000000
-0.290288 0.041101 0.469879 4.000000
-0.290288 -0.087173 0.434506 4.000000
-0.290288 -0.403786 0.185786 4.000000
-0.290288 0.039049 0.457134 4.000000
-0.290288 0.051808 0.443769 4.000000
-0.290288 -0.431084 -0.201822 4.000000
-0.290288 0.313964 -0.337010 4.000000
-0.290288 -0.096826 -0.466287 4.000000
-0.290288 -0.458667 -0.194649 4.000000
-0.290288 0.401577 0.229449 4.000000
-0.290288 0.266271 0.379642 4.000000
-0.290288 -0.241880 0.420926 4.000000
-0.290288 0.240636 -0.377292 4.000000
-0.290288 0.092537 -0.438040 4.000000
-0.290288 -0.168870 -0.463267 4.000000
-0.290288 -0.257975 -0.406378 4.000000
-0.290288 -0.468983 -0.143910 4.000000
-0.290288 0.458017 -0.118258 4.000000
-0.290288 0.461324 0.122619 4.000000
-0.290288 -0.298867 -0.381743 4.000000
-0.290288 -0.200020 -0.433825 4.000000
-0.290288 -0.129801 0.471814 4.000000
-0.290288 0.496905 0.025677 4.000000
-0.290288 -0.241443 0.384205 4.000000
-0.290288 0.146091 -0.429802 4.000000
-0.290288 -0.124050 0.479208 4.000000
-0.290288 0.471612 0.050065 4.000000
-0.290288 -0.002687 -0.484246 4.000000
-0.290288 0.405001 -0.292311 4.000000
-0.290288 -0.245714 0.423437 4.000000
-0.290288 0.491182 -0.033655 4.000000
-0.290288 -0.026492 0.484242 4.000000
-0.290288 0.096260 -0.445436 4.000000
-0.290288 -0.280899 -0.399313 4.000000
-0.290288 -0.248028 -0.431733 4.000000
-0.290288 -0.423509 0.210329 4.000000
-0.290288 -0.321824 0.317937 4.000000
-0.290288 0.038969 -0.451904 4.000000
-0.290288 -0.271755 0.355884 4.000000
-0.290288 -0.287135 -0.399702 4.000000
-0.290288 0.447612 -0.214208 4.000000
-0.290288 0.351832 -0.354146 4.000000
-0.290288 0.226153 -0.395491 4.000000
-0.290288 -0.457522 0.015889 4.000000
-0.290288 -0.196128 0.448418 4.000000
-0.290288 -0.046026 0.441673 4.000000
-0.290288 0.444330 0.131347 4.000000
-0.290288 0.018618 -0.490294 4.000000
-0.290288 -0.314642 0.315622 4.000000
-0.290288 -0.432832 0.194516 4.000000
-0.290288 -0.151883 -0.421339 4.000000
-0.290288 0.465149 0.085645 4.000000
-0.290288 -0.204708 -0.442110 4.000000
-0.290288 -0.490195 -0.087151 4.000000
-0.290288 -0.035047 0.481169 4.000000
-0.290288 0.027736 -0.479328 4.000000
-0.290288 0.042478 0.441307 4.000000
-0.290288 0.303844 -0.385769 4.000000
-0.290288 0.461758 -0.099919 4.000000
-0.290288 0.166906 -0.427471 4.000000
-0.290288 -0.092804 -0.437675 4.000000
-0.290288 -0.059659 -0.488514 4.000000
-0.290288 0.021416 -0.466604 4.000000
-0.290288 0.201936 -0.456562 4.000000
-0.290288 -0.309526 -0.332611 4.000000
-0.290288 -0.439256 -0.108318 4.000000
-0.290288 -0.123916 -0.462035 4.000000
-0.290288 0.477633 -0.133996 4.000000
-0.290288 -0.332874 -0.309497 4.000000
-0.290288 0.266372 0.393718 4.000000
-0.290288 0.059248 0.470381 4.000000
-0.290288 -0.195351 -0.458883 4.000000
-0.290288 -0.134093 0.439232 4.000000
-0.290288 -0.447753 -0.090873 4.000000
-0.290288 0.278721 -0.360722 4.000000
-0.290288 -0.394397 -0.272594 4.000000
-0.290288 -0.493052 -0.026377 4.000000
-0.290288 -0.362779 0.303334 4.000000
-0.290288 0.199399 0.403094 4.000000
-0.290288 -0.285398 -0.355448 4.000000
-0.290288 -0.259330 -0.395081 4.000000
-0.290288 -0.148490 0.446510 4.000000
-0.290288 0.170870 -0.443939 4.000000
-0.290288 0.473230 0.043691 4.000000
-0.290288 -0.144130 0.435292 4.000000
-0.290288 0.477321 0.125874 4.000000
-0.290288 -0.482353 -0.103689 4.000000
-0.290288 -0.235003 0.390529 4.000000
-0.290288 0.073421 0.450278 4.000000
-0.290288 0.354282 0.301274 4.000000
-0.290288 -0.165542 -0.421849 4.000000
-0.290288 -0.367252 -0.313643 4.000000
-0.290288 0.450947 0.060854 4.000000
-0.290288 -0.478478 0.016546 4.000000
-0.290288 0.422822 -0.223869 4.000000
-0.290288 0.410717 -0.281371 4.000000
-0.290288 0.252670 0.394908 4.000000
-0.290288 0.472153 -0.032870 4.000000
-0.290288 0.338445 -0.352409 4.000000
-0.290288 0.165158 0.451540 4.000000
-0.290288 0.132123 0.432612 4.000000
-0.290288 -0.418483 0.233438 4.000000
-0.290288 -0.181586 -0.460011 4.000000
-0.290288 -0.192694 0.413037 4.000000
-0.290288 -0.448096 -0.082863 4.000000
-0.290288 -0.421247 0.149832 4.000000
-0.290288 -0.468953 -0.140126 4.000000
-0.290288 -0.213001 -0.435245 4.000000
-0.290288 -0.014915 0.460125 4.000000
-0.290288 0.388831 -0.251723 4.000000
-0.290288 -0.373247 -0.314089 4.000000
-0.290288 0.340340 -0.295870 4.000000
-0.290288 -0.046263 -0.461070 4.000000
-0.290288 0.465583 -0.096749 4.000000
-0.290288 -0.474447 0.075329 4.000000
-0.290288 0.471086 -0.040364 4.000000
-0.290288 0.219715 0.392511 4.000000
-0.290288 -0.081191 0.481419 4.000000
-0.290288 0.244100 -0.397472 4.000000
-0.290288 -0.385694 -0.301486 4.000000
-0.290288 0.039110 -0.494057 4.000000
-0.290288 -0.309273 0.360497 4.000000
-0.290288 -0.012720 0.455351 4.000000
-0.290288 0.464634 0.042262 4.000000
-0.290288 0.362382 0.270079 4.000000
-0.290288 -0.184597 -0.446120 4.000000
-0.290288 -0.465716 0.012594 4.000000
-0.290288 0.150286 -0.472063 4.000000
-0.290288 -0.038605 -0.469162 4.000000
-0.290288 -0.348513 -0.345926 4.000000
-0.290288 -0.434781 0.206952 4.000000
-0.290288 0.252028 0.400177 4.000000
-0.290288 -0.317704 -0.353448 4.000000
-0.290288 -0.255921 -0.412255 4.000000
-0.290288 0.429012 0.139239 4.000000
-0.290288 0.154342 0.448968 4.000000
-0.290288 -0.122205 0.463945 4.000000
-0.290288 0.396884 0.288663 4.000000
-0.290288 0.479261 -0.069393 4.000000
-0.290288 -0.116161 -0.436106 4.000000
-0.290288 -0.363846 0.259604 4.000000
-0.290288 -0.307799 -0.329300 4.000000
-0.290288 0.152069 0.441594 4.000000
-0.290288 0.448984 0.074857 4.000000
-0.290288 0.168849 0.432893 4.000000
-0.290288 0.013061 -0.499743 4.000000
-0.290288 0.410433 0.174852 4.000000
-0.290288 -0.490115 -0.038322 4.000000
-0.290288 0.130353 0.442488 4.000000
-0.290288 -0.088909 -0.482215 4.000000
-0.290288 -0.312298 0.352459 4.000000
-0.290288 -0.075426 -0.462152 4.000000
-0.290288 -0.414805 -0.181447 4.000000
-0.290288 -0.100070 -0.456596 4.000000
-0.290288 -0.152702 -0.461892 4.000000
-0.290288 -0.414364 -0.249243 4.000000
-0.290288 0.356615 0.304978 4.000000
-0.290288 -0.438126 0.168357 4.000000
-0.290288 -0.428353 -0.246137 4.000000
-0.290288 -0.162897 0.433852 4.000000
-0.290288 0.236678 -0.440710 4.000000
-0.290288 0.465386 -0.020443 4.000000
-0.290288 -0.152107 -0.471199 4.000000
-0.290288 0.062894 -0.464477 4.000000
-0.290288 0.217374 0.400032 4.000000
-0.290288 -0.401066 -0.265324 4.000000
-0.290288 0.416544 0.220104 4.000000
-0.290288 0.147813 0.473302 4.000000
-0.290288 -0.095471 0.464465 4.000000
-0.290288 0.489718 0.030433 4.000000
-0.290288 0.420928 0.246849 4.000000
-0.290288 -0.487765 -0.076565 4.000000
-0.290288 0.163765 -0.460306 4.000000
-0.290288 0.132623 -0.471228 4.000000
-0.290288 0.362016 0.266274 4.000000
-0.290288 -0.386635 0.250707 4.000000
-0.290288 -0.411412 0.263591 4.000000
-0.290288 0.275238 -0.410263 4.000000
-0.290288 -0.301931 -0.363120 4.000000
-0.290288 -0.287376 0.379435 4.000000
-0.290288 -0.092206 0.452753 4.000000
-0.290288 -0.447765 0.018576 4.000000
-0.290288 -0.222329 0.439274 4.000000
-0.290288 -0.439334 -0.080842 4.000000
-0.290288 0.408649 -0.196504 4.000000
-0.290288 0.186618 0.445956 4.000000
-0.290288 -0.288090 -0.387466 4.000000
-0.290288 0.449206 0.132396 4.000000
-0.290288 0.222968 0.426439 4.000000
-0.290288 0.104265 -0.472924 4.000000
-0.290288 -0.065089 0.447408 4.000000
-0.290288 0.034695 -0.488014 4.000000
-0.290288 0.319340 0.354925 4.000000
-0.290288 0.070381 0.446375 4.000000
-0.290288 -0.272348 0.405460 4.000000
-0.290288 -0.394325 0.267799 4.000000
-0.290288 -0.444474 0.177768 4.000000
-0.290288 -0.205574 0.428856 4.000000
-0.290288 0.327728 -0.334158 4.000000
-0.290288 0.432909 0.241903 4.000000
-0.290288 -0.441330 -0.175525 4.000000
-0.290288 -0.163311 0.443207 4.000000
-0.290288 -0.177207 -0.414163 4.000000
-0.290288 0.419117 -0.269313 4.000000
-0.290288 0.109153 0.449334 4.000000
-0.290288 0.452702 -0.210588 4.000000
-0.290288 0.478892 -0.022927 4.000000
-0.290288 -0.458945 -0.179301 4.000000
-0.290288 0.139312 0.446319 4.000000
-0.290288 0.372063 -0.298626 4.000000
-0.290288 0.050502 -0.446572 4.000000
-0.290288 0.435843 -0.149968 4.000000
-0.290288 -0.102646 -0.485979 4.000000
-0.290288 -0.392022 -0.228226 4.000000
-0.290288 0.437074 -0.239608 4.000000
-0.290288 0.178790 -0.460191 4.000000
-0.290288 -0.209662 0.435693 4.000000
-0.290288 -0.484420 0.035797 4.000000
-0.290288 -0.233306 -0.396598 4.000000
-0.290288 0.011911 0.455038 4.000000
-0.290288 0.152334 0.453729 4.000000
-0.290288 0.469080 0.113264 4.000000
-0.290288 -0.403608 -0.275490 4.000000
-0.290288 0.453975 -0.098866 4.000000
-0.290288 0.133046 0.454956 4.000000
-0.290288 -0.052871 -0.462956 4.000000
-0.290288 -0.441136 0.109225 4.000000
-0.290288 -0.182810 -0.409580 4.000000
-0.290288 -0.431586 0.186559 4.000000
-0.290288 0.301379 0.355350 4.000000
-0.290288 -0.255156 0.417085 4.000000
-0.290288 -0.091622 0.486087 4.000000
-0.290288 -0.230692 0.434397 4.000000
-0.290288 0.461068 -0.061142 4.000000
-0.290288 -0.364550 -0.286889 4.000000
-0.290288 0.461165 -0.108004 4.000000
-0.290288 0.175248 -0.468353 4.000000
-0.290288 0.488771 -0.053815 4.000000
-0.290288 0.264492 -0.361277 4.000000
-0.290288 -0.282588 0.405327 4.000000
-0.290288 0.330334 0.360951 4.000000
-0.290288 0.489986 0.057075 4.000000
-0.290288 0.157840 -0.442975 4.000000
-0.290288 -0.478109 -0.138407 4.000000
-0.290288 -0.124196 -0.451782 4.000000
-0.290288 0.103368 0.485099 4.000000
-0.290288 0.318274 -0.344529 4.000000
-0.290288 -0.390772 -0.232034 4.000000
-0.290288 -0.022264 0.483524 4.000000
-0.290288 0.058821 -0.449553 4.000000
-0.290288 -0.166871 0.445912 4.000000
-0.290288 0.134447 -0.445412 4.000000
-0.290288 0.459473 -0.056936 4.000000
-0.290288 -0.388403 -0.274753 4.000000
-0.290288 -0.451476 -0.141387 4.000000
-0.290288 0.232446 -0.384083 4.000000
-0.290288 0.461521 -0.038870 4.000000
-0.290288 -0.373463 -0.292370 4.000000
-0.290288 -0.311804 0.381010 4.000000
-0.290288 -0.473114 0.133337 4.000000
-0.290288 0.493873 0.034574 4.000000
-0.290288 -0.421534 -0.158699 4.000000
-0.290288 0.288805 -0.387008 4.000000
-0.290288 -0.366735 -0.333039 4.000000
-0.290288 0.435220 -0.173616 4.000000
-0.290288 -0.326092 0.317720 4.000000
-0.290288 0.104090 0.457742 4.000000
-0.290288 0.418826 0.217426 4.000000
-0.290288 -0.447903 0.000298 4.000000
-0.290288 -0.226164 -0.426117 4.000000
-0.290288 -0.454921 -0.066070 4.000000
-0.290288 0.388372 -0.287885 4.000000
-0.290288 -0.199647 0.445120 4.000000
-0.290288 -0.460675 0.124301 4.000000
-0.290288 -0.459394 0.186827 4.000000
-0.290288 0.402429 0.267501 4.000000
-0.290288 0.387698 -0.303380 4.000000
-0.290288 -0.313458 -0.333233 4.000000
-0.290288 -0.356531 0.331733 4.000000
-0.290288 0.073431 0.484965 4.000000
-0.290288 0.048797 0.466586 4.000000
-0.290288 -0.439993 0.129677 4.000000
-0.290288 0.250378 -0.375892 4.000000
-0.290288 -0.425486 0.241592 4.000000
-0.290288 -0.349483 0.325000 4.000000
-0.290288 -0.245289 0.427502 4.000000
-0.290288 -0.141348 0.469811 4.000000
-0.290288 -0.097018 -0.476676 4.000000
-0.290288 0.115089 -0.478585 4.000000
-0.290288 0.457465 0.127282 4.000000
-0.290288 0.363308 0.338955 4.000000
-0.290288 -0.013391 0.474935 4.000000
-0.290288 -0.005814 0.448787 4.000000
-0.290288 0.349064 0.319044 4.000000
-0.290288 0.272928 0.358310 4.000000
-0.290288 -0.049019 -0.452326 4.000000
-0.290288 0.348447 -0.293173 4.000000
-0.290288 -0.473520 0.117853 4.000000
-0.290288 0.082331 0.474211 4.000000
-0.290288 0.390883 -0.285241 4.000000
-0.290288 -0.059595 0.480648 4.000000
-0.290288 -0.474709 0.103468 4.000000
-0.290288 0.235198 -0.388952 4.000000
-0.290288 -0.092293 0.460091 4.000000
-0.290288 -0.339989 -0.303173 4.000000
-0.290288 -0.090255 -0.459898 4.000000
-0.290288 0.431863 0.180054 4.000000
-0.290288 -0.212241 0.444647 4.000000
-0.290288 0.184620 0.459798 4.000000
-0.290288 -0.207714 -0.418107 4.000000
-0.290288 -0.417979 0.223906 4.000000
-0.290288 0.280603 -0.365427 4.000000
-0.290288 -0.450568 0.163335 4.000000
-0.290288 0.422822 -0.243895 4.000000
-0.290288 -0.459114 -0.075704 4.000000
-0.290288 -0.272093 -0.400395 4.000000
-0.290288 -0.148866 -0.438430 4.000000
-0.290288 0.279301 0.373325 4.000000
-0.290288 -0.362459 0.292224 4.000000
-0.290288 -0.298334 -0.386149 4.000000
-0.290288 -0.458989 -0.026045 4.000000
-0.290288 0.378454 0.281908 4.000000
-0.290288 -0.238242 -0.429845 4.000000
-0.290288 0.404512 -0.262549 4.000000
-0.290288 -0.294980 0.349897 4.000000
-0.290288 0.445182 0.107603 4.000000
-0.290288 -0.490271 -0.073894 4.000000
-0.290288 -0.436861 0.163675 4.000000
-0.290288 0.298956 -0.367356 4.000000
-0.290288 0.299682 0.339180 4.000000
-0.290288 -0.240829 -0.427678 4.000000
-0.290288 -0.430222 0.205675 4.000000
-0.290288 -0.170786 -0.419904 4.000000
-0.290288 -0.414182 -0.262032 4.000000
-0.290288 -0.496696 -0.010997 4.000000
-0.290288 -0.128587 0.424310 4.000000
-0.290288 -0.197005 -0.434826 4.000000
-0.290288 -0.454358 0.134863 4.000000
-0.290288 -0.277112 0.369769 4.000000
-0.290288 0.371364 -0.251099 4.000000
-0.290288 0.037080 -0.458297 4.000000
-0.290288 -0.475839 -0.114283 4.000000
-0.290288 -0.323769 -0.372820 4.000000
-0.290288 -0.219969 0.424035 4.000000
-0.290288 -0.261415 -0.369133 4.000000
-0.290288 0.418395 -0.210738 4.000000
-0.290288 0.287667 -0.409086 4.000000
-0.290288 -0.230880 -0.421192 4.000000
-0.290288 0.357083 0.324299 4.000000
-0.290288 -0.027358 0.488028 4.000000
-0.290288 0.024260 -0.468229 4.000000
-0.290288 -0.394570 0.285807 4.000000
-0.290288 -0.369273 0.254008 4.000000
-0.290288 -0.439932 0.083857 4.000000
-0.290288 -0.385110 0.299664 4.000000
-0.290288 -0.483331 0.112127 4.000000
-0.290288 0.396884 -0.280900 4.000000
-0.290288 -0.428399 0.218337 4.000000
-0.290288 -0.256796 -0.416730 4.000000
-0.290288 0.434316 0.159077 4.000000
-0.290288 -0.065099 0.458883 4.000000
-0.290288 0.230305 0.388394 4.000000
-0.290288 -0.432069 0.146119 4.000000
-0.290288 0.108818 -0.455714 4.000000
-0.290288 -0.393410 -0.306306 4.000000
-0.290288 -0.439750 -0.227307 4.000000
-0.290288 0.440589 -0.099671 4.000000
-0.290288 0.330068 0.365378 4.000000
-0.290288 -0.379714 0.249677 4.000000
-0.290288 -0.381610 0.269694 4.000000
-0.290288 0.462463 0.015814 4.000000
-0.290288 -0.263563 0.376226 4.000000
-0.290288 -0.169450 0.437953 4.000000
-0.290288 0.314748 0.334582 4.000000
-0.290288 -0.016493 -0.451169 4.000000
-0.290288 -0.424706 0.185294 4.000000
-0.290288 -0.211018 0.440753 4.000000
-0.290288 0.402610 0.205483 4.000000
-0.290288 0.477382 0.099434 4.000000
-0.290288 -0.445017 -0.058671 4.000000
-0.290288 0.244896 0.399132 4.000000
-0.290288 -0.404851 0.224123 4.000000
-0.290288 0.436963 -0.191440 4.000000
-0.290288 0.414064 0.260013 4.000000
-0.290288 -0.327035 0.299735 4.000000
-0.290288 -0.473074 -0.001242 4.000000
-0.290288 -0.059851 0.476505 4.000000
-0.290288 -0.378832 0.261877 4.000000
-0.290288 -0.032503 -0.496380 4.000000
-0.290288 -0.269663 -0.411359 4.000000
-0.290288 -0.251614 0.413762 4.000000
-0.290288 0.269765 0.383202 4.000000
-0.290288 0.106660 0.482065 4.000000
-0.290288 0.124348 -0.434049 4.000000
-0.290288 0.231076 0.411744 4.000000
-0.290288 -0.037305 -0.495720 4.000000
-0.290288 0.359299 0.287510 4.000000
-0.290288 -0.372017 0.272740 4.000000
-0.290288 0.136397 0.464278 4.000000
-0.290288 0.251744 -0.420397 4.000000
-0.290288 0.259297 0.360345 4.000000
-0.290288 -0.240601 -0.379472 4.000000
-0.290288 -0.236521 0.384579 4.000000
-0.290288 0.468395 -0.077369 4.000000
-0.290288 -0.150998 0.441584 4.000000
-0.290288 -0.220299 -0.393536 4.000000
-0.290288 -0.446928 0.108907 4.000000
-0.290288 0.005524 0.456053 4.000000
-0.290288 0.091269 -0.478280 4.000000
-0.290288 -0.374937 0.312497 4.000000
-0.290288 0.264626 0.371257 4.000000
-0.290288 0.071651 -0.463905 4.000000
-0.290288 -0.479827 0.008644 4.000000
-0.290288 -0.351268 0.286129 4.000000
-0.290288 -0.191746 0.421514 4.000000
-0.290288 -0.413354 0.204604 4.000000
-0.290288 -0.301933 -0.375512 4.000000
-0.290288 -0.463468 -0.144956 4.000000
-0.290288 0.454074 0.066758 4.000000
-0.290288 -0.442560 -0.191966 4.000000
-0.290288 -0.070071 -0.467657 4.000000
-0.290288 -0.465114 -0.105616 4.000000
-0.290288 -0.248134 -0.400141 4.000000
-0.290288 0.219501 0.397181 4.000000
-0.290288 -0.461446 0.118784 4.000000
-0.290288 0.164494 0.448275 4.000000
-0.290288 -0.436175 -0.171329 4.000000
-0.290288 -0.234556 0.380376 4.000000
-0.290288 0.479997 -0.104360 4.000000
-0.290288 -0.339670 -0.358117 4.000000
-0.290288 0.139948 -0.467677 4.000000
-0.290288 0.035887 -0.465203 4.000000
-0.290288 0.371283 -0.285881 4.000000
-0.290288 0.063762 -0.447624 4.000000
-0.290288 -0.420973 -0.190703 4.000000
-0.290288 -0.422908 -0.209663 4.000000
-0.290288 0.156192 -0.473864 4.000000
-0.290288 -0.146089 0.427277 4.000000
-0.290288 0.461638 -0.016952 4.000000
-0.290288 0.347045 -0.358633 4.000000
-0.290288 -0.433176 -0.143765 4.000000
-0.290288 0.425686 -0.158653 4.000000
-0.290288 0.174797 -0.434301 4.000000
-0.290288 0.384888 0.296376 4.000000
-0.290288 -0.429599 -0.128069 4.000000
