-0.263173 0.450436 -0.215776 2.000000
0.266120 0.372427 0.329043 2.000000
0.256576 -0.098399 0.485850 2.000000
0.017164 0.497326 0.031839 2.000000
0.040701 0.489203 -0.098441 2.000000
0.171274 -0.189538 0.458069 2.000000
0.204628 -0.486115 0.103773 2.000000
-0.239992 0.498433 0.003270 2.000000
-0.288518 -0.493916 -0.062269 4.000000
-0.051697 0.360066 -0.346944 2.000000
-0.058258 0.138536 -0.480637 2.000000
-0.143600 -0.173130 0.464656 2.000000
-0.152414 0.259758 0.422951 2.000000
0.056657 -0.317486 0.381082 2.000000
0.157758 -0.316094 -0.386579 2.000000
-0.226884 0.459278 0.191424 2.000000
0.203334 0.446765 -0.223420 2.000000
0.032301 0.330275 0.370966 2.000000
0.193354 -0.493913 0.057158 2.000000
0.198641 0.140121 0.475827 2.000000
0.141967 0.232391 0.438476 2.000000
0.009485 -0.301389 0.393809 2.000000
0.255043 -0.475506 -0.149047 2.000000
-0.149934 0.487747 -0.105570 2.000000
-0.275086 -0.448502 0.213449 2.000000
-0.093079 -0.453381 -0.207462 2.000000
0.010679 0.181874 -0.466045 2.000000
0.162954 -0.482788 -0.122668 2.000000
0.121278 0.211085 -0.453524 2.000000
0.285276 -0.289969 0.402424 1.000000
0.022600 0.458090 0.194273 2.000000
0.194431 0.291482 0.401959 2.000000
0.051302 0.394746 -0.306454 2.000000
-0.204633 0.387024 0.312031 2.000000
0.014374 0.071579 0.490852 2.000000
0.050058 -0.491822 0.072923 2.000000
-0.015415 -0.395060 -0.304625 2.000000
0.159157 0.298466 0.397075 2.000000
-0.279230 0.392078 0.305582 2.000000
0.250005 0.413215 0.276472 2.000000
0.190055 -0.236384 -0.440187 2.000000
-0.140780 0.491686 -0.084016 2.000000
-0.208040 -0.491278 -0.080502 2.000000
0.061103 -0.490096 -0.088673 2.000000
0.029885 0.419701 -0.271165 2.000000
0.272481 -0.467587 -0.172146 2.000000
0.245231 -0.497124 -0.023428 2.000000
-0.003826 0.492071 -0.081779 2.000000
-0.203370 -0.468898 0.164195 2.000000
0.083397 0.443538 -0.229548 2.000000
0.049928 0.156292 0.470893 2.000000
0.240561 -0.442621 -0.229418 2.000000
-0.060321 0.471182 0.160342 2.000000
-0.205753 -0.254225 -0.430054 2.000000
-0.093861 -0.467148 -0.173420 2.000000
-0.124210 0.046409 -0.498028 2.000000
-0.159309 -0.355744 0.345931 2.000000
0.282366 -0.088736 -0.492075 1.000000
-0.065667 -0.354981 0.346673 2.000000
0.121806 0.344647 0.357949 2.000000
-0.194646 0.463561 0.181150 2.000000
0.113151 0.491855 0.079246 2.000000
-0.019564 0.281088 -0.413608 2.000000
0.075927 -0.440891 0.228276 2.000000
0.006652 -0.178900 -0.466694 2.000000
0.184973 -0.103684 -0.489221 2.000000
-0.105554 -0.163529 -0.472462 2.000000
0.134580 0.321172 0.378993 2.000000
0.170881 -0.491134 -0.081496 2.000000
-0.082965 0.495751 -0.053985 2.000000
0.187265 0.371310 0.330344 2.000000
-0.241442 -0.485193 0.107650 2.000000
0.155070 0.218441 -0.449899 2.000000
-0.256362 -0.008881 0.495673 2.000000
-0.089264 0.218451 -0.449894 2.000000
0.272896 -0.487175 0.099311 2.000000
-0.195908 -0.451766 -0.210858 2.000000
-0.019002 0.367416 0.334772 2.000000
-0.290057 0.347248 -0.359552 4.000000
-0.143311 -0.248472 -0.433560 2.000000
-0.110672 -0.468169 0.166138 2.000000
0.012029 0.156722 0.470762 2.000000
-0.241995 0.114048 0.482648 2.000000
-0.037269 0.465751 0.175898 2.000000
0.246612 -0.024450 -0.499496 2.000000
0.059663 -0.497373 -0.009577 2.000000
-0.136881 -0.493445 0.061488 2.000000
0.056779 -0.495947 0.038329 2.000000
-0.019180 -0.245749 -0.435220 2.000000
0.169020 -0.038006 0.494272 2.000000
0.035641 -0.097887 0.485957 2.000000
0.028470 -0.363175 -0.342429 2.000000
-0.055925 0.214368 -0.451906 2.000000
0.000605 -0.261935 0.421222 2.000000
-0.244199 0.470773 0.161529 2.000000
-0.186385 0.150392 0.472693 2.000000
-0.047665 0.326235 0.374626 2.000000
0.037001 0.190864 0.458180 2.000000
-0.011107 0.261308 0.422007 2.000000
-0.130866 -0.395287 0.300136 2.000000
0.210873 0.033684 -0.499059 2.000000
0.245209 0.284303 0.406980 2.000000
-0.018161 -0.449730 -0.214991 2.000000
-0.194482 0.467227 -0.175735 2.000000
0.016319 -0.492045 -0.075205 2.000000
-0.213110 0.096291 0.486597 2.000000
0.049639 0.250745 -0.432681 2.000000
-0.107430 -0.121450 0.480718 2.000000
0.038567 0.424400 -0.263457 2.000000
-0.279706 -0.497205 0.013895 4.000000
0.104950 -0.496708 0.024988 2.000000
0.250780 0.233650 -0.442405 2.000000
-0.033740 -0.393824 -0.306263 2.000000
0.040739 -0.070431 -0.495226 2.000000
0.014837 -0.120596 0.480954 2.000000
-0.287599 -0.489446 -0.091864 4.000000
-0.248747 -0.402556 -0.294689 2.000000
0.027393 0.444145 0.224053 2.000000
-0.277237 -0.209913 0.449243 2.000000
0.038193 0.120339 0.481153 2.000000
-0.290168 -0.343390 -0.362513 4.000000
-0.290272 -0.400142 -0.297889 4.000000
-0.170780 -0.396835 -0.302273 2.000000
0.224606 0.490199 -0.092653 2.000000
-0.208625 0.185485 -0.464539 2.000000
-0.125489 -0.189269 -0.462789 2.000000
0.013957 -0.221619 0.443475 2.000000
0.231908 -0.226145 0.441244 2.000000
-0.040965 0.414721 0.274191 2.000000
-0.256146 0.273609 -0.418545 2.000000
-0.219744 0.409354 0.282322 2.000000
0.196018 -0.123423 -0.484530 2.000000
0.016945 -0.376891 -0.326999 2.000000
-0.018945 -0.383386 -0.319430 2.000000
0.151510 0.441120 0.230191 2.000000
0.247245 0.438545 -0.239032 2.000000
0.099134 0.484790 0.114629 2.000000
-0.159969 -0.100271 0.485457 2.000000
-0.153635 0.436515 -0.242887 2.000000
-0.223561 0.389213 0.309381 2.000000
0.138395 0.159261 -0.474147 2.000000
-0.225473 0.210482 0.449376 2.000000
0.132342 -0.494496 0.051757 2.000000
-0.282058 0.444114 -0.228454 2.000000
-0.182933 0.460310 0.188949 2.000000
-0.070741 -0.126934 -0.483695 2.000000
0.126657 -0.489795 0.084698 2.000000
0.004258 0.318001 0.381522 2.000000
0.171795 -0.486231 0.103284 2.000000
-0.253269 0.387885 0.311027 2.000000
-0.184611 0.455324 0.200907 2.000000
-0.274218 0.455638 0.200153 2.000000
-0.003901 -0.463614 -0.182918 2.000000
-0.128656 0.133895 -0.481919 2.000000
-0.239659 0.255356 -0.430037 2.000000
0.058302 0.496790 0.038453 2.000000
-0.182162 -0.045929 -0.497995 2.000000
0.154025 -0.494429 -0.058725 2.000000
0.169922 -0.493954 0.056775 2.000000
0.054521 -0.415129 -0.276374 2.000000
0.236519 -0.282469 0.407666 2.000000
-0.234523 -0.354003 -0.351850 2.000000
0.214214 0.275622 0.413051 2.000000
-0.057464 0.496657 -0.045604 2.000000
-0.245453 -0.396890 0.298126 2.000000
0.031472 -0.404573 -0.292016 2.000000
-0.193987 0.030499 -0.499317 2.000000
0.153424 0.465688 -0.179836 2.000000
0.077627 0.101085 -0.489855 2.000000
0.115949 0.489571 0.091807 2.000000
-0.286810 -0.237218 0.435497 4.000000
-0.108262 -0.028337 -0.499322 2.000000
0.182197 0.424000 0.260137 2.000000
-0.038261 -0.059672 -0.496510 2.000000
0.279597 0.001613 0.495862 2.000000
0.117792 0.116247 -0.486679 2.000000
-0.031871 -0.262107 -0.425248 2.000000
0.070041 -0.053783 -0.497146 2.000000
-0.273565 0.498563 -0.003967 2.000000
0.095904 -0.300276 0.394648 2.000000
0.073404 -0.452889 -0.208581 2.000000
-0.244457 -0.454006 -0.205965 2.000000
-0.103338 0.185540 0.460234 2.000000
-0.015021 -0.116296 -0.486223 2.000000
-0.075714 0.488958 0.094734 2.000000
-0.098173 0.034433 0.494741 2.000000
0.122618 -0.061147 0.492025 2.000000
0.079015 0.229603 -0.444399 2.000000
-0.163200 0.109888 0.483636 2.000000
0.223306 0.347538 0.355190 2.000000
-0.112197 -0.460054 -0.191459 2.000000
0.021777 0.376047 -0.329299 2.000000
-0.061416 -0.126888 0.479216 2.000000
-0.134581 0.047603 -0.497931 2.000000
0.148079 0.327429 0.373545 2.000000
-0.286583 0.056204 0.492642 4.000000
-0.287797 0.028571 0.495003 4.000000
0.176260 -0.298205 0.396211 2.000000
0.262216 0.468169 0.169076 2.000000
-0.156075 0.298346 0.397158 2.000000
-0.289880 0.390736 -0.311482 4.000000
-0.074814 -0.456926 -0.198961 2.000000
0.090012 0.090617 0.487574 2.000000
-0.274901 -0.490080 -0.088786 2.000000
0.030389 0.344237 -0.362484 2.000000
-0.143880 0.485533 -0.114888 2.000000
0.012302 0.434316 0.242304 2.000000
-0.153214 0.126779 -0.483883 2.000000
-0.067910 0.303598 0.393006 2.000000
0.162311 0.400933 -0.298459 2.000000
0.012984 0.368266 -0.337890 2.000000
0.155753 -0.487743 0.096615 2.000000
0.102467 -0.377430 -0.326371 2.000000
0.141418 0.212593 -0.452781 2.000000
-0.287915 0.496192 0.045836 4.000000
0.204384 -0.436367 -0.241294 2.000000
-0.103354 0.385614 0.313674 2.000000
-0.210146 0.469221 -0.170421 2.000000
0.256260 -0.234350 -0.441258 2.000000
0.169298 -0.495366 0.043711 2.000000
0.046954 -0.354093 0.347537 2.000000
0.029586 0.093370 -0.491471 2.000000
0.153504 0.496703 0.039528 2.000000
-0.099458 -0.083059 -0.493052 2.000000
-0.048482 -0.372067 0.328209 2.000000
0.158220 0.441018 -0.234335 2.000000
0.032892 -0.340921 0.360361 2.000000
0.079094 -0.113258 0.482737 2.000000
0.000595 0.252576 -0.431632 2.000000
0.051711 -0.497051 0.017344 2.000000
-0.268199 0.482697 -0.126821 2.000000
-0.278408 -0.381268 0.317718 2.000000
0.008536 -0.118056 -0.485805 2.000000
-0.093246 -0.479606 0.130502 2.000000
0.117810 -0.166997 0.466771 2.000000
-0.049393 -0.413546 0.274605 2.000000
-0.237332 0.074012 0.490433 2.000000
0.245435 0.472507 -0.161480 2.000000
-0.062534 -0.405027 -0.291414 2.000000
-0.137070 -0.196434 -0.459574 2.000000
-0.282110 0.141204 0.475496 4.000000
0.166094 -0.470296 0.160470 2.000000
0.099940 -0.212018 -0.452580 2.000000
0.040580 -0.341489 -0.364235 2.000000
0.095541 0.357762 -0.349317 2.000000
0.094457 -0.466260 -0.175993 2.000000
-0.288148 -0.497143 -0.022341 4.000000
0.018713 -0.131878 0.477839 2.000000
-0.011933 0.341587 0.360721 2.000000
-0.097650 -0.488913 0.089818 2.000000
0.217937 -0.473733 -0.154331 2.000000
0.049671 -0.345414 -0.360672 2.000000
0.207448 0.239569 0.434697 2.000000
-0.069141 -0.017819 -0.499793 2.000000
-0.075982 -0.033718 0.494620 2.000000
0.151865 0.244309 -0.436372 2.000000
0.281524 0.064599 -0.496027 1.000000
0.143338 -0.477626 0.136991 2.000000
0.228934 -0.487567 -0.100833 2.000000
-0.058966 0.300608 -0.399524 2.000000
-0.015856 0.486918 -0.109059 2.000000
-0.208196 0.416110 0.272088 2.000000
-0.189304 -0.181423 0.461452 2.000000
-0.217346 -0.191814 0.457120 2.000000
-0.161271 0.495423 -0.057016 2.000000
0.186095 -0.279669 -0.413857 2.000000
-0.189024 -0.006879 0.495709 2.000000
-0.000404 0.494932 0.057976 2.000000
0.103050 -0.040266 0.494089 2.000000
0.152186 -0.460903 0.185501 2.000000
-0.225073 -0.392046 -0.308621 2.000000
0.209494 -0.036176 0.494421 2.000000
-0.238031 0.441426 0.229569 2.000000
0.022598 -0.431176 -0.250345 2.000000
-0.191607 -0.115415 -0.486433 2.000000
0.038522 0.404051 -0.294000 2.000000
0.104186 -0.495877 -0.041429 2.000000
-0.262905 -0.265088 0.419141 2.000000
0.007139 -0.032814 -0.499121 2.000000
-0.132130 -0.412788 -0.279922 2.000000
-0.134525 0.420672 -0.269572 2.000000
-0.197262 0.368546 0.333566 2.000000
-0.248200 0.487524 -0.106507 2.000000
0.099795 -0.238070 -0.439299 2.000000
-0.199176 -0.036609 0.494385 2.000000
-0.096335 0.374250 0.326918 2.000000
-0.155457 -0.484997 0.108478 2.000000
-0.219583 -0.115486 0.482270 2.000000
-0.114939 0.156696 -0.475032 2.000000
-0.194692 0.264527 0.420044 2.000000
0.204517 0.483041 -0.125373 2.000000
0.018160 0.454076 0.203898 2.000000
-0.245397 0.270315 -0.420720 2.000000
0.019854 -0.477185 -0.142965 2.000000
0.063205 -0.486625 -0.105329 2.000000
0.260591 0.364778 0.337482 2.000000
0.285600 -0.213680 -0.451835 1.000000
-0.274193 -0.206685 -0.454974 2.000000
-0.215886 -0.485719 -0.109654 2.000000
-0.289950 -0.377401 0.322320 4.000000
-0.248833 0.471721 -0.163758 2.000000
0.199385 0.101723 -0.489721 2.000000
0.066005 -0.237127 0.435550 2.000000
-0.172994 -0.461521 0.183854 2.000000
-0.123035 -0.045853 -0.498003 2.000000
0.129794 -0.485431 -0.111028 2.000000
0.209988 -0.481306 0.124010 2.000000
-0.058258 -0.479940 -0.132984 2.000000
0.118443 -0.349622 0.351890 2.000000
-0.223667 0.372876 0.328519 2.000000
-0.062789 -0.333527 -0.371446 2.000000
-0.052149 0.346805 -0.359983 2.000000
-0.081196 -0.496192 -0.037549 2.000000
-0.273616 0.148897 -0.477722 2.000000
0.012982 0.297426 -0.401925 2.000000
0.243632 0.498319 0.009603 2.000000
-0.025044 -0.005853 -0.500310 2.000000
0.204009 -0.375374 -0.328767 2.000000
-0.145754 -0.334052 0.366867 2.000000
0.224429 0.498252 -0.017753 2.000000
-0.278429 -0.424746 -0.261558 2.000000
0.183723 -0.190521 -0.462227 2.000000
-0.057025 -0.248071 0.429274 2.000000
-0.023632 0.045570 -0.498096 2.000000
-0.180602 0.113468 0.482785 2.000000
-0.213370 0.081583 -0.493570 2.000000
0.096059 0.242453 -0.437437 2.000000
-0.262815 -0.492450 0.069272 2.000000
-0.213881 -0.428559 0.250601 2.000000
0.097352 0.474685 -0.154341 2.000000
0.100388 -0.493603 -0.064429 2.000000
0.209089 0.444320 0.223696 2.000000
-0.001457 0.435672 -0.244488 2.000000
0.000231 -0.358874 0.342775 2.000000
0.177425 0.353802 -0.353172 2.000000
-0.098760 -0.114937 -0.486546 2.000000
-0.026901 0.319733 0.380141 2.000000
0.091576 -0.347179 0.354269 2.000000
-0.131582 0.228959 -0.444716 2.000000
0.047538 -0.435986 0.237591 2.000000
-0.177972 0.024806 0.495172 2.000000
-0.074376 0.495145 0.056504 2.000000
0.181253 0.385239 0.314111 2.000000
-0.226100 -0.406597 0.284540 2.000000
0.212227 0.493658 0.066785 2.000000
-0.128894 0.384861 -0.318851 2.000000
-0.258589 0.461496 0.186104 2.000000
0.147267 -0.322201 0.377036 2.000000
-0.226603 -0.386981 0.310553 2.000000
0.009063 -0.426179 -0.259060 2.000000
0.153068 -0.464979 0.174639 2.000000
-0.158287 -0.063181 -0.496131 2.000000
-0.046623 0.051085 0.493195 2.000000
0.285054 -0.134506 -0.481581 1.000000
0.198436 0.165677 -0.471934 2.000000
0.285391 -0.495914 0.038643 1.000000
0.239278 0.047741 -0.497920 2.000000
-0.084141 0.409388 -0.286369 2.000000
0.096048 -0.390996 0.305517 2.000000
0.064818 0.299910 -0.400051 2.000000
0.029695 -0.471478 -0.160868 2.000000
-0.223492 -0.488771 0.090647 2.000000
0.089114 -0.157483 -0.474570 2.000000
0.077823 -0.009065 0.495670 2.000000
0.075122 -0.321045 0.378029 2.000000
-0.182540 -0.442690 -0.229277 2.000000
-0.163211 0.344135 0.358413 2.000000
0.286616 0.301137 -0.399125 1.000000
-0.177399 -0.158048 -0.474398 2.000000
-0.031196 -0.218630 0.444947 2.000000
-0.148849 0.420059 -0.270579 2.000000
-0.082216 0.352500 0.350093 2.000000
0.076831 -0.239658 0.434098 2.000000
-0.127742 0.407449 -0.289142 2.000000
0.219781 -0.383535 0.314874 2.000000
0.265692 0.462690 -0.187825 2.000000
0.097358 0.481077 -0.133390 2.000000
-0.253965 -0.486239 0.103249 2.000000
-0.259299 -0.495712 -0.043466 2.000000
0.106244 -0.349859 0.351660 2.000000
-0.187970 -0.313027 -0.389024 2.000000
0.086375 0.492638 -0.078487 2.000000
-0.130730 -0.494400 -0.058926 2.000000
0.211333 -0.460432 -0.190552 2.000000
0.226426 0.360882 0.341484 2.000000
0.027858 0.204120 -0.456770 2.000000
0.286820 0.352757 0.349830 1.000000
0.255464 0.488091 -0.104123 2.000000
-0.013614 -0.438074 -0.238316 2.000000
0.185264 0.266907 -0.422970 2.000000
-0.023541 0.484656 -0.118579 2.000000
0.152333 0.484742 0.114857 2.000000
-0.052082 -0.382644 0.315992 2.000000
-0.037786 -0.494856 -0.054032 2.000000
0.192710 -0.287761 0.404090 2.000000
0.192465 -0.416125 -0.274866 2.000000
-0.254708 -0.497525 0.006765 2.000000
0.210661 0.339887 0.362261 2.000000
-0.169653 -0.141479 0.475189 2.000000
0.020455 0.061557 -0.496467 2.000000
-0.031357 0.446216 0.219849 2.000000
0.194317 0.476837 -0.147287 2.000000
0.230121 0.437673 0.236450 2.000000
-0.109959 -0.494355 0.053065 2.000000
0.229904 0.464018 0.180055 2.000000
-0.161997 0.137087 0.476753 2.000000
0.092369 -0.291109 0.401564 2.000000
-0.125610 0.208939 0.450068 2.000000
-0.169130 -0.170838 0.465447 2.000000
-0.093006 -0.478032 -0.139897 2.000000
0.004014 0.145036 -0.478843 2.000000
-0.142989 0.477424 0.141460 2.000000
0.219894 0.260347 -0.427175 2.000000
-0.037976 0.455080 0.201493 2.000000
-0.059840 0.197286 -0.459619 2.000000
-0.238694 -0.393437 -0.306777 2.000000
-0.047138 0.279417 0.410397 2.000000
0.133226 -0.179858 0.462105 2.000000
-0.288718 0.388286 0.310560 4.000000
0.080008 0.407601 0.284977 2.000000
0.256364 -0.458801 -0.194463 2.000000
0.107857 -0.219680 -0.448983 2.000000
0.080252 -0.456497 0.195634 2.000000
0.104288 0.199751 0.454192 2.000000
-0.111280 0.209803 0.449681 2.000000
0.037564 0.482406 0.123413 2.000000
0.255929 -0.204340 -0.456026 2.000000
0.176357 0.197836 -0.459390 2.000000
0.196313 -0.465845 0.172331 2.000000
0.269450 0.203988 -0.456825 2.000000
0.006375 0.311717 -0.391143 2.000000
-0.003043 0.433327 0.244028 2.000000
0.125767 0.035263 0.494703 2.000000
0.123200 0.434304 0.242324 2.000000
0.282809 0.249777 0.429036 1.000000
0.150037 0.296371 -0.402721 2.000000
0.253094 0.497619 0.028223 2.000000
0.002016 -0.190490 0.457672 2.000000
-0.265340 0.476938 0.143220 2.000000
-0.063403 -0.398285 0.296376 2.000000
0.079948 -0.496409 0.031663 2.000000
-0.098462 0.303122 0.393386 2.000000
-0.195352 0.342468 -0.364206 2.000000
0.028336 0.496408 -0.047902 2.000000
-0.059562 0.436751 0.238057 2.000000
-0.110501 0.399543 0.295688 2.000000
0.016064 -0.496298 0.034129 2.000000
-0.241547 -0.483559 -0.119876 2.000000
-0.058119 -0.471009 -0.162226 2.000000
-0.225533 -0.211618 0.448403 2.000000
-0.065354 0.074214 0.490398 2.000000
0.211022 -0.153710 0.471355 2.000000
-0.078991 0.063104 -0.496243 2.000000
0.115822 0.388747 0.309998 2.000000
-0.219328 -0.164982 0.467467 2.000000
-0.150849 0.494939 -0.061495 2.000000
-0.228399 0.279484 -0.414667 2.000000
-0.034096 0.282461 0.408268 2.000000
-0.014471 -0.233891 -0.441500 2.000000
0.054401 -0.051861 -0.497354 2.000000
-0.044179 -0.438239 -0.238030 2.000000
-0.221571 -0.495512 -0.045935 2.000000
0.005934 -0.473235 -0.155773 2.000000
-0.195266 -0.105905 0.484277 2.000000
0.244340 0.491676 -0.084076 2.000000
0.270424 0.396353 0.299916 2.000000
0.052362 0.321365 0.378840 2.000000
0.108006 0.493512 -0.073410 2.000000
0.148804 -0.432467 0.244190 2.000000
0.284541 0.494197 -0.068361 1.000000
-0.126784 0.491746 -0.083672 2.000000
-0.184569 -0.339279 -0.366237 2.000000
0.248569 0.013564 -0.499960 2.000000
-0.229457 -0.301419 -0.398280 2.000000
0.001087 -0.294132 0.399283 2.000000
0.203374 0.045070 0.493845 2.000000
-0.020496 0.406945 -0.289862 2.000000
0.044265 -0.167584 0.466569 2.000000
0.149001 -0.322633 -0.381313 2.000000
-0.091044 0.286417 0.405501 2.000000
0.214069 0.496433 0.042860 2.000000
-0.135789 -0.452853 0.203754 2.000000
-0.166099 -0.016414 0.495537 2.000000
-0.059636 -0.235817 0.436301 2.000000
-0.219001 -0.476199 0.141667 2.000000
0.275428 0.141517 -0.479815 1.000000
-0.278156 0.484757 -0.118152 2.000000
0.068078 -0.494318 0.053404 2.000000
0.140102 0.465019 -0.181618 2.000000
-0.095955 -0.366133 0.334760 2.000000
0.084798 -0.167287 0.466671 2.000000
-0.088140 -0.184820 0.460036 2.000000
0.080404 -0.434592 -0.244388 2.000000
-0.065797 0.188313 0.459193 2.000000
-0.114339 0.494646 -0.064212 2.000000
-0.174031 0.336286 -0.370183 2.000000
-0.125854 -0.454892 0.199209 2.000000
0.209749 0.414491 -0.279072 2.000000
0.021543 0.473883 -0.156970 2.000000
-0.152411 -0.291969 0.400915 2.000000
0.054455 -0.492028 -0.075321 2.000000
-0.208358 -0.240104 -0.438229 2.000000
0.042968 0.475510 0.147795 2.000000
-0.163584 -0.469957 -0.165277 2.000000
-0.202097 -0.149616 0.472767 2.000000
0.089859 0.044869 -0.498153 2.000000
0.157829 0.308568 0.389043 2.000000
0.056802 0.087170 0.488168 2.000000
0.009201 0.011139 0.495785 2.000000
-0.088867 0.493956 -0.070592 2.000000
-0.097309 0.487248 -0.107669 2.000000
-0.088463 0.179831 0.462376 2.000000
0.263456 0.466725 -0.177071 2.000000
0.201661 0.498127 0.020254 2.000000
0.019011 0.466403 0.174196 2.000000
-0.063070 -0.487579 0.097568 2.000000
-0.217594 0.039872 0.494407 2.000000
-0.000144 0.206698 -0.455685 2.000000
-0.242501 0.131080 -0.482696 2.000000
0.033754 0.157568 -0.474731 2.000000
0.016424 -0.252455 0.426760 2.000000
-0.049781 0.438901 0.234308 2.000000
-0.220469 0.477938 0.139595 2.000000
-0.073079 0.493292 0.069311 2.000000
0.192792 0.497558 0.028976 2.000000
0.202914 -0.012640 0.495605 2.000000
0.060781 0.039163 0.494484 2.000000
-0.235740 -0.372642 -0.331951 2.000000
0.213081 0.334485 -0.371729 2.000000
-0.048146 -0.349680 0.351834 2.000000
-0.192030 -0.450941 0.208014 2.000000
0.214589 0.358324 0.344111 2.000000
-0.210458 -0.409527 -0.284861 2.000000
-0.110912 -0.389238 -0.312343 2.000000
0.122957 0.366635 -0.339691 2.000000
0.047903 -0.497413 -0.007388 2.000000
0.035304 0.032109 0.494845 2.000000
0.210117 0.317528 -0.386279 2.000000
0.214252 0.203311 -0.457108 2.000000
-0.252456 -0.495167 0.045551 2.000000
-0.093869 -0.439698 -0.235349 2.000000
0.212802 0.031657 0.494865 2.000000
-0.125243 -0.472754 0.152958 2.000000
0.162943 0.014864 -0.499937 2.000000
-0.171513 -0.487965 -0.098935 2.000000
-0.102029 -0.365814 -0.339718 2.000000
-0.025031 -0.404779 0.287140 2.000000
-0.220871 -0.375232 0.324714 2.000000
-0.064604 0.347879 -0.358938 2.000000
0.193401 0.261419 -0.426561 2.000000
0.029149 0.135356 -0.481515 2.000000
-0.101139 0.454642 0.202543 2.000000
-0.203333 0.497592 -0.032474 2.000000
-0.261700 0.465835 -0.179443 2.000000
-0.197169 -0.488553 0.091913 2.000000
0.174761 0.494739 0.059314 2.000000
0.239633 0.498602 -0.006121 2.000000
-0.227551 -0.424731 -0.261585 2.000000
-0.016827 0.498140 0.019557 2.000000
-0.150870 -0.181363 -0.465770 2.000000
0.102913 0.494643 -0.064237 2.000000
-0.227371 0.472295 -0.162173 2.000000
0.177450 -0.497344 -0.011201 2.000000
-0.224099 -0.266940 0.417918 2.000000
-0.070221 -0.471449 -0.160951 2.000000
0.247892 0.011036 0.495790 2.000000
0.269105 0.164286 -0.472413 2.000000
-0.023557 0.487063 0.103777 2.000000
-0.070458 -0.485301 0.107197 2.000000
-0.108455 0.498131 0.020040 2.000000
-0.133512 0.152771 0.471967 2.000000
0.133312 0.338968 0.363093 2.000000
0.030753 -0.460658 0.186156 2.000000
-0.167047 0.373953 -0.331611 2.000000
0.168098 -0.471372 -0.161175 2.000000
-0.137895 -0.345759 -0.360318 2.000000
0.090556 0.348222 -0.358604 2.000000
-0.138110 0.400645 0.294228 2.000000
0.209622 0.472330 0.157015 2.000000
0.145619 0.469968 0.163863 2.000000
0.074158 0.416487 -0.276218 2.000000
0.202151 0.489773 0.090844 2.000000
-0.128706 -0.495315 -0.048364 2.000000
-0.193133 -0.424107 0.257903 2.000000
0.025418 -0.055611 0.492826 2.000000
0.140362 0.498027 -0.022782 2.000000
0.017759 0.122354 -0.485104 2.000000
-0.185282 0.338888 -0.367691 2.000000
0.061505 0.494475 0.061133 2.000000
0.163183 -0.423494 0.258909 2.000000
-0.230665 -0.468606 -0.169193 2.000000
-0.161496 0.114948 -0.486951 2.000000
0.025137 -0.262731 -0.424868 2.000000
-0.116427 -0.332694 -0.372201 2.000000
-0.059377 0.176805 -0.468095 2.000000
-0.008392 -0.377206 -0.326632 2.000000
0.169770 0.027142 -0.499589 2.000000
-0.072480 0.498265 0.012617 2.000000
0.097219 -0.426868 -0.257858 2.000000
0.162352 -0.252099 -0.431349 2.000000
0.018878 0.495853 -0.053035 2.000000
-0.074844 0.477341 0.141761 2.000000
0.163779 0.491460 -0.085329 2.000000
-0.271053 0.467451 -0.175136 2.000000
0.032190 -0.489530 0.086233 2.000000
0.008403 0.487691 -0.105806 2.000000
0.228915 -0.480302 -0.131673 2.000000
-0.215358 -0.259197 -0.427023 2.000000
-0.066909 -0.481586 -0.127023 2.000000
-0.113224 -0.103553 -0.489252 2.000000
0.072132 0.498446 0.002558 2.000000
-0.153442 0.478316 0.138226 2.000000
-0.033134 -0.292254 -0.405056 2.000000
0.151049 -0.480411 -0.131278 2.000000
0.107798 -0.201524 -0.457289 2.000000
-0.005449 -0.497336 -0.011618 2.000000
0.244081 0.158967 0.470077 2.000000
-0.007099 -0.052372 -0.497299 2.000000
-0.151140 -0.050564 0.493255 2.000000
0.139458 -0.151540 -0.476383 2.000000
0.146886 0.220573 0.444698 2.000000
0.263776 -0.013970 -0.499966 2.000000
0.002515 0.426993 0.255074 2.000000
-0.204705 0.496352 0.043860 2.000000
0.167698 -0.370325 -0.334651 2.000000
0.286756 -0.247026 0.429873 1.000000
0.253248 0.253124 -0.431318 2.000000
-0.128428 -0.495877 0.038982 2.000000
-0.123843 0.473136 -0.159419 2.000000
0.008116 0.439167 -0.237851 2.000000
-0.007364 0.332704 -0.373257 2.000000
-0.052550 -0.308604 0.388365 2.000000
-0.047033 -0.495405 0.043354 2.000000
0.123546 -0.476209 0.141633 2.000000
-0.221495 0.192411 0.457486 2.000000
-0.202619 0.061756 0.492042 2.000000
0.216064 0.482571 -0.127350 2.000000
0.031558 0.481492 -0.131892 2.000000
0.173602 0.496453 0.042613 2.000000
0.226788 -0.326051 -0.378218 2.000000
0.113798 0.313597 0.385034 2.000000
0.019182 -0.363432 0.337742 2.000000
0.248579 0.495745 0.051359 2.000000
0.111961 0.416118 -0.276745 2.000000
0.156720 -0.493879 0.057473 2.000000
0.239302 0.328857 0.372251 2.000000
-0.289971 -0.415066 0.272431 4.000000
-0.243713 -0.108596 -0.488053 2.000000
-0.177294 -0.201804 -0.457164 2.000000
0.142985 0.492126 0.077374 2.000000
-0.194417 -0.300629 -0.398910 2.000000
-0.152039 0.307920 -0.394008 2.000000
0.254850 0.233731 0.437770 2.000000
-0.247097 0.407382 -0.289237 2.000000
0.070372 -0.497180 -0.020326 2.000000
-0.042653 -0.270869 -0.419907 2.000000
0.286833 -0.066447 0.491258 1.000000
-0.261080 0.429230 -0.255535 2.000000
-0.229859 -0.469765 0.161886 2.000000
-0.142478 0.358162 -0.348928 2.000000
-0.125569 0.193755 -0.461091 2.000000
0.114933 -0.485191 0.107661 2.000000
0.277073 0.212294 0.448563 2.000000
-0.280175 -0.118012 0.481667 2.000000
0.245742 -0.490150 0.082632 2.000000
-0.200426 -0.421273 -0.267068 2.000000
0.104268 -0.496810 -0.029916 2.000000
0.020788 -0.424784 -0.261491 2.000000
0.000257 0.496440 -0.047610 2.000000
-0.099751 -0.406637 0.284484 2.000000
0.007210 0.405844 0.287336 2.000000
0.148331 -0.066844 0.491201 2.000000
0.221854 0.472087 -0.162783 2.000000
0.083052 -0.497439 0.008695 2.000000
-0.086347 -0.427293 -0.257117 2.000000
-0.082506 -0.185175 -0.464339 2.000000
0.127873 -0.490284 -0.087376 2.000000
0.251933 -0.346660 0.354774 2.000000
0.019758 0.331889 0.369505 2.000000
-0.237917 0.458435 0.193446 2.000000
-0.038208 -0.387593 -0.314523 2.000000
-0.178248 -0.485823 -0.109159 2.000000
-0.215246 0.470753 0.161585 2.000000
-0.236177 0.462753 0.183089 2.000000
-0.186812 -0.126387 0.479355 2.000000
-0.053105 0.492833 0.072482 2.000000
-0.276009 0.021033 -0.499826 2.000000
-0.059862 0.339656 -0.366943 2.000000
-0.006406 0.497434 -0.036002 2.000000
-0.130255 -0.483659 -0.119489 2.000000
0.278071 -0.403527 0.288931 2.000000
0.195453 0.299382 -0.400449 2.000000
-0.075210 -0.464763 0.175215 2.000000
-0.161773 0.272532 -0.419256 2.000000
-0.019294 -0.495345 0.043908 2.000000
-0.169872 -0.264198 -0.423973 2.000000
-0.085732 0.160133 -0.473846 2.000000
0.199203 -0.470415 0.160152 2.000000
-0.129638 -0.234843 -0.440999 2.000000
0.082613 -0.235832 -0.440478 2.000000
0.244386 -0.462155 -0.186417 2.000000
0.164916 0.206959 -0.455557 2.000000
-0.038560 -0.281655 0.408203 2.000000
0.123553 0.498621 -0.009544 2.000000
0.035571 0.494692 0.059638 2.000000
0.156047 0.475119 -0.152918 2.000000
0.079797 0.060681 -0.496594 2.000000
-0.104340 -0.336025 -0.369184 2.000000
-0.139179 0.434560 -0.246599 2.000000
-0.137954 -0.486282 -0.106968 2.000000
0.018081 -0.432347 0.244388 2.000000
-0.062053 -0.005395 -0.500302 2.000000
-0.156429 0.020212 0.495378 2.000000
0.274815 -0.013498 -0.499987 1.000000
-0.049336 -0.401993 -0.295436 2.000000
-0.099593 -0.011523 -0.500076 2.000000
0.034517 -0.319087 0.379708 2.000000
-0.178360 0.410175 -0.285244 2.000000
0.073993 -0.395974 0.299275 2.000000
-0.180596 -0.024093 -0.499512 2.000000
0.020489 0.012336 0.495732 2.000000
0.055091 -0.321113 -0.382577 2.000000
0.092246 -0.030460 0.494884 2.000000
-0.044924 0.177696 0.463177 2.000000
-0.059193 0.276215 -0.416825 2.000000
-0.073024 -0.490226 0.082194 2.000000
0.097441 0.137787 -0.480844 2.000000
-0.133292 -0.472002 -0.159348 2.000000
0.270128 -0.265467 0.418891 2.000000
0.094896 -0.490083 -0.088762 2.000000
-0.164974 0.079031 0.489569 2.000000
-0.050095 0.104546 0.484906 2.000000
0.158819 -0.101665 0.485165 2.000000
0.284383 -0.423459 0.258967 1.000000
0.125237 0.460906 0.187518 2.000000
-0.276967 -0.108367 0.483761 2.000000
0.051945 0.052045 -0.497571 2.000000
0.213983 0.081974 0.489062 2.000000
-0.023834 0.339699 -0.366902 2.000000
0.096086 -0.082587 -0.493134 2.000000
-0.270259 0.298339 0.397163 2.000000
0.154138 0.387116 0.311924 2.000000
-0.152007 0.435733 0.239833 2.000000
-0.170807 -0.038918 -0.498753 2.000000
0.249376 -0.114582 -0.486631 2.000000
-0.286746 -0.450037 0.210030 4.000000
-0.178472 -0.410189 0.279405 2.000000
-0.049495 0.397825 0.297965 2.000000
-0.063732 0.497436 -0.035957 2.000000
-0.003077 -0.384362 -0.318292 2.000000
-0.177678 0.496094 -0.050809 2.000000
0.008872 -0.159113 -0.474073 2.000000
-0.156955 -0.289867 -0.406725 2.000000
0.255730 -0.495582 -0.045074 2.000000
-0.127319 -0.149396 0.472843 2.000000
0.283404 -0.460551 0.186440 1.000000
0.040815 -0.361438 -0.344213 2.000000
0.238537 0.401522 0.293065 2.000000
-0.142611 0.415808 0.272545 2.000000
0.105192 -0.350261 -0.355694 2.000000
0.284763 -0.474087 0.148588 1.000000
0.226839 0.431714 0.246840 2.000000
-0.243083 -0.206448 0.450950 2.000000
-0.184931 0.496095 0.047039 2.000000
-0.018553 0.073755 0.490477 2.000000
0.048806 -0.487027 0.099936 2.000000
-0.074278 -0.013979 0.495581 2.000000
0.019637 -0.112673 -0.487084 2.000000
-0.149347 0.498492 -0.012403 2.000000
-0.229480 0.161134 0.469392 2.000000
0.070560 -0.495955 0.038265 2.000000
-0.004854 -0.079154 0.489420 2.000000
-0.255761 -0.493776 0.058423 2.000000
0.101627 0.325509 -0.379430 2.000000
-0.121286 -0.313867 0.384188 2.000000
0.233721 -0.413400 -0.278994 2.000000
0.228695 0.318588 0.381054 2.000000
0.100871 0.406467 0.286510 2.000000
-0.078040 -0.474008 -0.153534 2.000000
0.110616 0.046114 0.493733 2.000000
0.016984 -0.256951 -0.428391 2.000000
-0.288690 0.498581 -0.004940 4.000000
-0.258849 -0.189203 0.458208 2.000000
-0.218722 0.260109 0.422738 2.000000
-0.014558 -0.358862 0.342788 2.000000
-0.000099 0.459700 0.190413 2.000000
0.135715 0.285152 -0.410925 2.000000
0.155553 0.009291 0.495868 2.000000
-0.163907 -0.475716 0.143250 2.000000
0.161271 -0.462496 -0.185601 2.000000
-0.069317 0.058061 -0.496973 2.000000
-0.065580 0.113595 -0.487234 2.000000
0.205423 -0.388940 -0.312737 2.000000
0.173604 -0.109411 0.483543 2.000000
-0.171184 -0.296118 0.397785 2.000000
-0.246565 0.294705 -0.403978 2.000000
0.026233 0.202025 0.453171 2.000000
0.140781 0.155988 0.470986 2.000000
0.231932 0.395406 -0.305626 2.000000
0.140542 0.496763 -0.044622 2.000000
-0.037739 -0.003817 0.495764 2.000000
-0.230981 0.129982 0.478861 2.000000
0.145439 0.498332 0.008884 2.000000
-0.279293 0.109853 -0.488018 2.000000
0.274998 -0.214210 -0.451597 1.000000
0.199782 -0.367082 -0.338416 2.000000
-0.134714 -0.329524 0.370753 2.000000
0.068035 -0.250303 -0.432445 2.000000
0.069508 -0.469149 -0.167618 2.000000
0.206438 -0.106999 0.484048 2.000000
-0.160213 -0.493788 0.058312 2.000000
-0.030045 0.386085 -0.317315 2.000000
0.164066 -0.376932 0.322837 2.000000
-0.164869 -0.410901 -0.282779 2.000000
-0.077004 -0.494253 -0.059943 2.000000
0.261010 -0.110403 -0.487624 2.000000
-0.045192 -0.294978 -0.403151 2.000000
0.138847 0.486470 0.106611 2.000000
0.282184 -0.359177 -0.346536 1.000000
-0.108200 -0.283824 -0.410951 2.000000
-0.140695 0.410306 -0.285056 2.000000
-0.110154 -0.496013 -0.039749 2.000000
0.179959 0.325005 0.375740 2.000000
-0.278974 -0.137810 -0.480573 2.000000
0.065488 0.497505 0.029633 2.000000
-0.041137 -0.048821 -0.497683 2.000000
-0.051237 -0.419819 0.264937 2.000000
0.108358 -0.488919 -0.094378 2.000000
-0.245824 -0.354181 -0.351668 2.000000
-0.134565 -0.269829 -0.420540 2.000000
-0.158235 0.198791 0.454622 2.000000
0.243930 -0.274811 0.412722 2.000000
0.210205 -0.360452 0.341032 2.000000
-0.231736 -0.246102 0.430403 2.000000
0.040029 -0.149192 0.472913 2.000000
-0.131783 -0.496826 0.022347 2.000000
-0.288471 0.478294 0.138307 4.000000
0.041565 0.498296 0.010904 2.000000
-0.275840 -0.437528 -0.239268 2.000000
0.004197 -0.215255 0.446610 2.000000
0.073189 -0.428095 0.251361 2.000000
-0.253692 -0.275554 -0.416736 2.000000
0.109142 -0.383903 -0.318827 2.000000
0.180373 -0.265493 -0.423184 2.000000
-0.195653 0.375614 -0.329777 2.000000
0.035906 0.268808 -0.421715 2.000000
-0.067664 -0.467776 0.167185 2.000000
-0.244292 0.085982 0.488372 2.000000
0.118911 0.273752 0.414359 2.000000
0.083496 -0.135519 -0.481272 2.000000
-0.281930 0.229864 -0.444270 2.000000
0.253473 -0.378395 0.321222 2.000000
-0.097692 -0.128777 0.478695 2.000000
0.262421 -0.492117 -0.074702 2.000000
-0.258493 -0.437009 0.235649 2.000000
0.148699 0.454046 0.203959 2.000000
-0.132093 0.485166 -0.116431 2.000000
0.186221 -0.246299 0.430290 2.000000
-0.083690 0.265552 0.419420 2.000000
0.199565 -0.044626 -0.498136 2.000000
-0.045970 -0.087400 0.488154 2.000000
-0.113085 -0.453659 0.201956 2.000000
-0.179615 0.300647 -0.399495 2.000000
-0.133382 0.093196 -0.491508 2.000000
0.189200 -0.373673 -0.330750 2.000000
-0.286734 0.282933 0.407938 4.000000
0.091879 -0.459727 -0.192241 2.000000
-0.016698 0.400424 0.294520 2.000000
0.189787 -0.496101 0.036910 2.000000
-0.001278 -0.493899 0.057288 2.000000
0.160677 -0.492265 -0.073679 2.000000
0.083695 -0.434898 0.239657 2.000000
0.083965 -0.403122 -0.293940 2.000000
0.274055 -0.489381 -0.092175 2.000000
0.149421 0.448223 0.215775 2.000000
-0.127337 -0.233808 0.437453 2.000000
0.041969 0.451863 -0.212597 2.000000
-0.212291 0.049106 0.493409 2.000000
-0.133641 0.394824 -0.306356 2.000000
0.085285 0.463981 -0.184384 2.000000
-0.087720 0.056215 0.492641 2.000000
-0.118746 -0.400093 -0.297953 2.000000
-0.190109 -0.407622 -0.287746 2.000000
-0.205785 0.164619 0.468084 2.000000
-0.107155 0.477930 -0.143705 2.000000
-0.274321 0.182839 0.461247 2.000000
0.233083 0.107129 -0.488588 2.000000
0.165115 0.183826 -0.465231 2.000000
-0.028573 0.257521 -0.428796 2.000000
0.211386 -0.416463 0.270434 2.000000
-0.103779 0.449776 -0.217249 2.000000
0.001639 0.039015 0.494500 2.000000
0.255895 -0.490403 0.081163 2.000000
-0.187127 0.109619 -0.488067 2.000000
0.085474 0.310733 0.387317 2.000000
0.031593 -0.418820 -0.270784 2.000000
0.130125 -0.447245 0.216208 2.000000
-0.073168 -0.420104 0.264470 2.000000
-0.273312 0.497678 -0.030567 2.000000
0.223963 -0.145238 0.474151 2.000000
-0.080186 -0.337344 0.363843 2.000000
0.063259 0.045083 -0.498135 2.000000
-0.109911 -0.379069 0.320475 2.000000
0.088986 -0.365681 0.335260 2.000000
-0.284377 -0.469718 -0.165970 4.000000
-0.188065 0.316821 -0.386885 2.000000
0.062058 -0.017301 0.495521 2.000000
-0.100517 -0.491346 0.075686 2.000000
-0.190556 -0.445770 0.219010 2.000000
-0.035799 -0.390185 0.306534 2.000000
0.180049 0.492486 -0.079373 2.000000
0.192286 -0.424726 0.256888 2.000000
-0.177366 -0.474638 0.146781 2.000000
-0.241222 0.454248 0.203487 2.000000
-0.173763 -0.494189 0.054606 2.000000
-0.074778 -0.212895 -0.452187 2.000000
-0.250006 -0.472072 -0.159144 2.000000
0.011763 -0.438849 -0.236966 2.000000
-0.227183 -0.287774 -0.408189 2.000000
-0.289677 0.447262 0.217726 4.000000
-0.042903 0.284048 -0.411653 2.000000
-0.018262 0.460278 -0.193844 2.000000
0.095370 -0.483687 -0.119353 2.000000
0.182309 0.479246 -0.139392 2.000000
-0.275611 -0.147536 0.473485 2.000000
-0.001652 -0.265791 -0.423002 2.000000
-0.170894 0.485105 0.113122 2.000000
0.194169 0.424937 0.258660 2.000000
-0.269589 0.138459 -0.480659 2.000000
0.278871 0.475527 0.147746 1.000000
0.243094 -0.313920 0.384142 2.000000
0.043281 -0.494989 0.047201 2.000000
0.140660 -0.222966 0.442811 2.000000
0.215691 0.371499 -0.334321 2.000000
-0.251888 0.224636 0.442559 2.000000
-0.190975 0.056998 0.492556 2.000000
0.056165 0.433058 -0.249256 2.000000
-0.140185 -0.325971 -0.378290 2.000000
-0.098857 0.430603 -0.253282 2.000000
-0.016945 -0.443356 0.223595 2.000000
-0.061001 -0.368494 -0.336785 2.000000
0.245687 -0.178930 -0.466683 2.000000
-0.019262 0.357938 -0.349146 2.000000
0.102368 0.331558 0.369804 2.000000
0.130552 -0.487859 -0.099442 2.000000
-0.175464 0.493410 0.068496 2.000000
-0.106184 -0.304657 -0.395698 2.000000
-0.134271 -0.300088 0.394790 2.000000
-0.261307 -0.496791 -0.030143 2.000000
0.124105 0.395788 0.300665 2.000000
0.119233 0.260075 0.422758 2.000000
-0.105377 0.419037 -0.272254 2.000000
-0.054727 0.286664 -0.409927 2.000000
-0.244923 -0.480329 -0.131577 2.000000
-0.210278 0.345411 0.357257 2.000000
0.230709 -0.244659 0.431230 2.000000
0.081949 -0.303404 -0.396698 2.000000
0.026518 -0.118686 0.481481 2.000000
0.274867 0.453601 0.204862 2.000000
0.172710 -0.279717 0.409483 2.000000
0.199098 -0.341417 -0.364300 2.000000
0.109213 -0.465647 0.172860 2.000000
-0.132858 -0.320736 0.378294 2.000000
-0.177568 0.495046 0.057187 2.000000
-0.263616 0.405238 0.288139 2.000000
-0.207640 0.442639 -0.231256 2.000000
-0.041045 0.118631 -0.486132 2.000000
-0.288862 -0.453670 -0.206770 4.000000
-0.099541 -0.097237 0.486093 2.000000
0.279452 -0.311570 0.386128 2.000000
-0.040010 -0.342219 -0.363574 2.000000
-0.056593 -0.436575 0.236473 2.000000
0.203351 0.407426 0.285239 2.000000
-0.000570 -0.067104 -0.495707 2.000000
-0.207391 -0.126160 0.479418 2.000000
-0.031663 0.064764 -0.496003 2.000000
-0.096942 -0.285177 0.405878 2.000000
0.115797 0.424482 -0.263323 2.000000
-0.222177 -0.320672 -0.382928 2.000000
0.063486 0.326198 0.374659 2.000000
0.002465 -0.046692 0.493568 2.000000
-0.100764 -0.024177 0.495393 2.000000
-0.008020 0.365858 -0.340548 2.000000
0.273879 -0.395941 0.299315 2.000000
0.076622 0.478113 0.138963 2.000000
-0.098056 0.474315 -0.155554 2.000000
0.230326 -0.442102 -0.230472 2.000000
0.247945 0.397571 0.298302 2.000000
0.041560 -0.447612 0.215433 2.000000
0.272531 0.406369 0.286641 2.000000
0.148234 0.466681 0.173389 2.000000
0.042832 0.054945 0.492778 2.000000
0.088797 0.395684 0.300803 2.000000
0.139979 -0.329549 0.370731 2.000000
0.061643 0.085398 -0.493018 2.000000
-0.094207 0.256693 -0.429271 2.000000
-0.207239 0.408166 -0.288117 2.000000
-0.044943 0.318079 -0.385806 2.000000
-0.086724 -0.465793 0.172472 2.000000
0.251212 0.498174 0.017662 2.000000
-0.288124 -0.124901 0.479765 4.000000
0.080230 -0.488807 0.090437 2.000000
-0.081712 -0.478881 -0.136821 2.000000
0.275600 0.239672 0.434642 2.000000
-0.131811 0.495146 -0.059581 2.000000
0.216637 -0.243556 0.431863 2.000000
-0.158468 0.443292 0.225783 2.000000
-0.245028 -0.418049 -0.271953 2.000000
0.146628 -0.491269 0.076134 2.000000
-0.289225 0.256107 0.425178 4.000000
0.131137 -0.477424 -0.142099 2.000000
-0.020233 -0.471471 -0.160887 2.000000
0.203714 0.408096 -0.288216 2.000000
0.050686 -0.343941 0.357421 2.000000
-0.241309 -0.132120 0.477772 2.000000
-0.140290 0.483044 -0.125359 2.000000
-0.151134 0.265716 -0.423756 2.000000
-0.221946 -0.414975 0.272562 2.000000
0.021390 0.084973 -0.493080 2.000000
-0.227790 -0.153005 0.471598 2.000000
0.129621 0.150797 -0.477066 2.000000
-0.186105 0.351447 -0.355464 2.000000
0.222294 0.125227 -0.484311 2.000000
-0.172779 -0.120405 -0.485247 2.000000
0.181290 -0.494656 0.050276 2.000000
0.260238 0.003029 0.495888 2.000000
0.188514 -0.446054 0.218470 2.000000
0.049779 0.487688 0.100796 2.000000
0.141610 -0.066615 -0.495760 2.000000
0.125205 0.445534 0.221233 2.000000
-0.238239 -0.147175 -0.477715 2.000000
-0.088818 0.056517 -0.497196 2.000000
-0.114402 0.454139 0.203750 2.000000
0.181526 -0.483090 -0.121575 2.000000
0.018858 -0.345158 -0.360912 2.000000
-0.251207 -0.114653 0.482444 2.000000
0.028694 -0.397348 0.297552 2.000000
-0.273967 -0.478861 -0.136893 2.000000
-0.031806 0.440564 0.231318 2.000000
0.083118 0.498564 -0.003979 2.000000
-0.023717 -0.493958 0.056738 2.000000
-0.245039 0.393768 0.303342 2.000000
-0.224272 0.424482 0.259406 2.000000
0.025861 0.434029 0.242805 2.000000
0.272081 -0.378539 -0.325079 2.000000
-0.161203 -0.365339 0.335637 2.000000
0.085678 0.312121 -0.390838 2.000000
0.096306 0.095683 -0.490986 2.000000
0.132233 -0.041789 -0.498443 2.000000
-0.019230 0.428620 0.252236 2.000000
0.062814 0.457331 0.196093 2.000000
-0.288021 -0.383921 -0.318806 4.000000
-0.181238 -0.497080 0.016683 2.000000
0.001044 -0.067409 0.491119 2.000000
-0.086508 0.388029 0.310860 2.000000
0.028338 -0.490589 -0.085265 2.000000
-0.245090 -0.332421 0.368267 2.000000
-0.050381 0.166254 -0.471735 2.000000
0.104019 0.376403 -0.328906 2.000000
0.069076 -0.264902 0.419264 2.000000
0.019100 -0.461880 0.182898 2.000000
0.094603 -0.432653 -0.247770 2.000000
0.201758 0.025267 -0.499741 2.000000
0.200239 0.271520 0.415781 2.000000
0.009744 0.475321 -0.152257 2.000000
0.032481 -0.044640 -0.498134 2.000000
-0.172306 0.481679 0.126044 2.000000
0.004116 -0.153895 0.471291 2.000000
-0.081572 -0.453938 0.201336 2.000000
0.206547 -0.497626 0.004524 2.000000
0.156678 -0.208283 0.450046 2.000000
-0.005756 -0.370581 -0.334353 2.000000
0.010421 -0.214701 -0.451376 2.000000
-0.081049 0.357696 -0.349381 2.000000
-0.016550 -0.480324 0.128141 2.000000
-0.151895 0.064805 0.491713 2.000000
-0.074813 0.482349 0.123617 2.000000
-0.078345 -0.485465 -0.110866 2.000000
-0.269478 0.478154 -0.142973 2.000000
-0.151936 0.495673 0.052246 2.000000
0.054868 -0.257533 -0.428036 2.000000
-0.233665 0.361023 -0.345887 2.000000
-0.046777 -0.300359 0.394585 2.000000
-0.086405 -0.126629 -0.483768 2.000000
0.039127 -0.314001 -0.388248 2.000000
-0.008067 0.331314 0.370026 2.000000
-0.206921 0.396280 0.300013 2.000000
-0.134180 -0.375725 0.324169 2.000000
-0.167699 0.190160 0.458495 2.000000
-0.136141 -0.461328 -0.188402 2.000000
0.286737 -0.035985 -0.498979 1.000000
-0.180254 0.066565 0.491522 2.000000
0.216892 -0.437946 -0.238539 2.000000
0.181664 -0.062585 0.491817 2.000000
-0.083289 -0.069648 0.490795 2.000000
-0.026736 0.022351 -0.499802 2.000000
0.270976 0.153056 -0.476287 2.000000
0.084190 -0.479245 0.131683 2.000000
0.270581 -0.044401 -0.498160 2.000000
0.160035 -0.106335 -0.488590 2.000000
0.272013 0.043861 0.493976 2.000000
-0.166557 0.237558 -0.440244 2.000000
-0.172339 -0.433306 0.242682 2.000000
0.246224 0.246863 0.430813 2.000000
0.004106 0.064413 0.491755 2.000000
0.271897 0.498498 -0.012268 2.000000
-0.007041 -0.467977 -0.171016 2.000000
-0.013250 0.446083 0.220118 2.000000
0.082527 0.079525 -0.493868 2.000000
0.127667 0.060348 -0.496642 2.000000
-0.024660 -0.391211 0.305247 2.000000
0.108126 0.383028 -0.321149 2.000000
-0.244512 -0.336649 -0.368618 2.000000
-0.143909 -0.395714 0.299600 2.000000
0.205038 -0.024076 0.495399 2.000000
0.185607 0.316507 -0.387155 2.000000
0.250707 0.380341 -0.324518 2.000000
-0.192142 0.430944 -0.252723 2.000000
0.201468 -0.474388 0.147601 2.000000
0.285903 -0.302833 -0.397153 1.000000
-0.050286 0.205118 0.451783 2.000000
-0.244302 -0.384897 -0.317669 2.000000
-0.245519 0.466015 0.175265 2.000000
0.130174 0.311923 0.386368 2.000000
0.088006 -0.493355 -0.066149 2.000000
0.077833 0.478823 -0.140778 2.000000
0.092905 -0.321922 -0.381931 2.000000
-0.120542 -0.471974 -0.159430 2.000000
0.206852 0.472706 -0.160826 2.000000
0.133693 -0.345848 0.355564 2.000000
-0.152592 0.336650 0.365193 2.000000
-0.123484 0.144983 -0.478858 2.000000
-0.145143 0.484346 0.116384 2.000000
-0.289987 -0.496340 -0.035720 4.000000
-0.124354 -0.086343 -0.492487 2.000000
0.165680 0.200552 0.453832 2.000000
0.087708 0.194223 -0.460897 2.000000
0.128174 0.182159 0.461502 2.000000
0.120165 -0.270126 0.415815 2.000000
-0.194243 -0.070744 -0.495173 2.000000
-0.175478 -0.489773 0.084822 2.000000
0.079914 0.443192 0.225985 2.000000
0.141526 0.419131 0.267511 2.000000
-0.118073 0.482205 0.124139 2.000000
-0.191478 -0.364811 0.336219 2.000000
0.163044 -0.085838 0.488453 2.000000
0.061813 0.215445 -0.451375 2.000000
0.153283 0.483484 -0.123507 2.000000
0.228339 0.498257 0.013047 2.000000
-0.162608 -0.495636 -0.044407 2.000000
0.168725 0.440347 0.231760 2.000000
-0.174617 0.346167 0.356573 2.000000
-0.100865 -0.446829 0.216999 2.000000
0.089823 -0.114060 0.482568 2.000000
-0.088440 0.492322 0.076014 2.000000
0.203878 -0.076526 -0.494177 2.000000
-0.186126 0.405720 -0.291614 2.000000
0.186011 0.071802 0.490813 2.000000
-0.260250 -0.218399 0.445062 2.000000
0.275085 -0.117204 -0.486007 1.000000
0.137854 -0.491514 -0.078873 2.000000
-0.033268 -0.316801 0.381670 2.000000
-0.260977 0.196742 -0.459846 2.000000
0.073208 -0.496922 0.020225 2.000000
-0.186333 -0.203588 0.452211 2.000000
-0.094599 -0.205806 -0.455368 2.000000
0.086353 -0.251468 0.427326 2.000000
0.101719 -0.068747 -0.495516 2.000000
0.061337 -0.171581 0.465190 2.000000
-0.038018 0.480706 0.129570 2.000000
-0.151365 0.498258 0.013005 2.000000
-0.082150 0.135994 -0.481339 2.000000
0.175898 0.146588 -0.478415 2.000000
0.202134 0.255549 -0.429927 2.000000
-0.169080 0.326548 0.374343 2.000000
0.272685 -0.442433 -0.229800 2.000000
-0.223742 -0.248674 -0.433438 2.000000
0.082081 -0.287709 0.404129 2.000000
-0.085745 0.447573 0.217094 2.000000
-0.189731 0.194533 -0.460767 2.000000
0.119592 -0.180542 0.461820 2.000000
0.143963 0.365653 0.336583 2.000000
-0.252003 0.498386 0.005863 2.000000
-0.065741 -0.447614 0.215427 2.000000
0.271607 -0.440804 0.228441 2.000000
0.150010 -0.277069 0.411231 2.000000
0.137127 -0.469981 0.161309 2.000000
0.239068 0.434341 0.242260 2.000000
0.101482 0.155915 0.471008 2.000000
-0.042709 -0.469867 -0.165536 2.000000
0.269320 0.473371 0.153997 2.000000
-0.254944 -0.358360 -0.347375 2.000000
0.011876 -0.286812 -0.408861 2.000000
-0.112346 -0.447100 0.216484 2.000000
-0.043675 -0.438126 0.233528 2.000000
0.011114 -0.243397 0.431954 2.000000
-0.275474 0.289527 -0.407884 2.000000
-0.027326 -0.347431 0.354023 2.000000
-0.274510 0.237110 0.435991 2.000000
-0.264691 -0.466948 0.169394 2.000000
0.175436 0.494224 -0.068111 2.000000
0.209848 -0.465541 0.173143 2.000000
0.219566 -0.287440 -0.408423 2.000000
-0.243666 -0.482374 0.119513 2.000000
-0.289414 0.363385 -0.343279 4.000000
0.285092 -0.342235 -0.363559 1.000000
0.063759 0.363962 -0.342642 2.000000
0.155904 -0.021418 -0.499632 2.000000
0.244560 0.181906 -0.466032 2.000000
0.085736 0.303491 -0.397349 2.000000
-0.187243 0.476848 -0.147251 2.000000
-0.266637 -0.136591 0.476538 2.000000
-0.129158 -0.331297 -0.373466 2.000000
-0.031032 0.071544 0.490858 2.000000
0.259679 -0.063960 -0.496047 2.000000
0.164325 -0.223902 0.442350 2.000000
0.156299 -0.390348 0.306330 2.000000
0.052911 0.498466 -0.012980 2.000000
0.095241 -0.469917 -0.165394 2.000000
0.025486 -0.004457 -0.500285 2.000000
0.285322 0.452385 -0.211435 1.000000
0.158372 -0.037824 0.494287 2.000000
0.200466 -0.277059 0.411238 2.000000
-0.237842 -0.404120 0.288082 2.000000
-0.147997 -0.483914 -0.118269 2.000000
-0.286988 0.434904 -0.245946 4.000000
-0.026671 0.000368 0.495840 2.000000
0.143893 0.026448 -0.499645 2.000000
-0.149647 -0.461045 -0.189081 2.000000
0.103580 -0.358196 0.343523 2.000000
0.030412 -0.389723 0.307113 2.000000
-0.009086 -0.311976 0.385810 2.000000
0.254589 0.389858 0.308526 2.000000
-0.185998 0.498617 -0.006957 2.000000
-0.252985 -0.286733 0.404851 2.000000
-0.157125 -0.329928 0.370406 2.000000
0.113730 0.398792 -0.301379 2.000000
-0.137697 0.493252 0.069588 2.000000
-0.018874 0.176345 0.463684 2.000000
0.150621 -0.414199 0.273671 2.000000
0.279031 0.366415 -0.339934 1.000000
-0.118694 -0.364817 -0.340742 2.000000
0.193238 -0.057363 -0.496760 2.000000
0.238937 0.337251 0.364649 2.000000
-0.143209 -0.497090 -0.025318 2.000000
0.043591 -0.496354 0.032885 2.000000
-0.039652 -0.046768 0.493562 2.000000
0.007291 0.132372 -0.482339 2.000000
-0.163216 -0.453773 -0.206522 2.000000
0.286446 0.394890 -0.306273 1.000000
0.161617 -0.489970 -0.089364 2.000000
0.145746 0.497520 -0.034085 2.000000
0.054720 0.192807 -0.461487 2.000000
-0.163348 -0.353496 -0.352371 2.000000
0.079203 -0.486723 -0.104863 2.000000
0.091874 0.256389 0.425005 2.000000
-0.158948 -0.204726 0.451737 2.000000
-0.265211 0.168110 -0.471094 2.000000
-0.115692 0.113368 0.482809 2.000000
0.014668 -0.451785 0.206134 2.000000
0.118347 -0.415394 -0.275973 2.000000
-0.085940 -0.225538 -0.445898 2.000000
0.009355 -0.493387 -0.065926 2.000000
0.177767 0.463667 -0.185221 2.000000
-0.221969 -0.482203 0.120234 2.000000
-0.134448 0.061605 -0.496460 2.000000
-0.133627 -0.337480 0.363711 2.000000
0.048420 -0.382233 -0.320773 2.000000
0.023574 0.370148 0.331698 2.000000
0.224378 -0.441106 0.227867 2.000000
-0.035831 -0.483088 -0.121582 2.000000
0.179059 0.469717 0.164590 2.000000
-0.246150 -0.257559 0.423833 2.000000
-0.225057 -0.451199 -0.212010 2.000000
0.233368 -0.337147 -0.368168 2.000000
0.184297 -0.130960 -0.482663 2.000000
0.115250 0.459750 0.190291 2.000000
0.004449 -0.283785 0.406797 2.000000
-0.126381 -0.160352 -0.473654 2.000000
