-0.290288 -0.137080 -0.480710 4.000000
-0.290288 -0.403078 -0.251251 4.000000
-0.290288 -0.399325 -0.271201 4.000000
-0.290288 0.428180 -0.235273 4.000000
-0.290288 -0.320302 -0.381286 4.000000
-0.290288 -0.489987 0.079711 4.000000
-0.290288 0.197829 0.402449 4.000000
-0.290288 0.419300 0.191563 4.000000
-0.290288 0.108178 -0.483842 4.000000
-0.290288 -0.431683 -0.212371 4.000000
-0.290288 0.066747 -0.450651 4.000000
-0.290288 -0.451746 -0.118822 4.000000
-0.290288 0.006196 0.471528 4.000000
-0.290288 -0.074959 -0.445775 4.000000
-0.290288 0.039479 -0.449575 4.000000
-0.290288 0.236945 -0.383825 4.000000
-0.290288 -0.054643 -0.473168 4.000000
-0.290288 0.453843 -0.095044 4.000000
-0.290288 -0.078971 0.484947 4.000000
-0.290288 -0.314984 -0.336450 4.000000
-0.290288 -0.438248 -0.165049 4.000000
-0.290288 0.429820 -0.123372 4.000000
-0.290288 -0.067125 0.455673 4.000000
-0.290288 -0.091245 -0.452833 4.000000
-0.290288 0.180158 0.450948 4.000000
-0.290288 -0.437139 -0.215977 4.000000
-0.290288 -0.262550 0.382675 4.000000
-0.290288 -0.351421 -0.290028 4.000000
-0.290288 -0.298951 0.347588 4.000000
-0.290288 0.296787 0.350504 4.000000
-0.290288 -0.172600 -0.443062 4.000000
-0.290288 0.449005 0.147930 4.000000
-0.290288 0.419219 -0.203385 4.000000
-0.290288 0.266104 -0.415077 4.000000
-0.290288 0.381981 -0.257180 4.000000
-0.290288 -0.198469 -0.425626 4.000000
-0.290288 0.487624 0.014141 4.000000
-0.290288 0.371896 -0.279853 4.000000
-0.290288 -0.016057 -0.463115 4.000000
-0.290288 0.464040 -0.152095 4.000000
-0.290288 0.155638 -0.430185 4.000000
-0.290288 -0.196441 -0.442063 4.000000
-0.290288 0.297206 -0.341227 4.000000
-0.290288 -0.396654 0.245520 4.000000
-0.290288 0.039710 0.471199 4.000000
-0.290288 -0.018877 -0.481284 4.000000
-0.290288 0.387250 -0.314885 4.000000
-0.290288 0.184792 -0.456041 4.000000
-0.290288 -0.462041 0.100899 4.000000
-0.290288 -0.319482 -0.372072 4.000000
-0.290288 0.308610 0.358158 4.000000
-0.290288 0.434665 0.119188 4.000000
-0.290288 0.113680 -0.480160 4.000000
-0.290288 -0.433577 -0.200558 4.000000
-0.290288 -0.480304 0.096659 4.000000
-0.290288 0.052109 -0.446137 4.000000
-0.290288 -0.157476 -0.472794 4.000000
-0.290288 0.186450 0.453860 4.000000
-0.290288 0.461835 -0.030012 4.000000
-0.290288 -0.039468 -0.468180 4.000000
-0.290288 -0.473093 -0.144920 4.000000
-0.290288 0.383656 0.269973 4.000000
-0.290288 0.033589 -0.466270 4.000000
-0.290288 0.161385 0.458534 4.000000
-0.290288 0.252905 0.371184 4.000000
-0.290288 0.211400 -0.412915 4.000000
-0.290288 -0.436161 0.147781 4.000000
-0.290288 0.188106 0.434394 4.000000
-0.290288 -0.327121 0.325823 4.000000
-0.290288 0.467655 -0.023091 4.000000
-0.290288 -0.210970 -0.409229 4.000000
-0.290288 -0.443081 0.184161 4.000000
-0.290288 -0.029109 -0.489482 4.000000
-0.290288 -0.456911 -0.159125 4.000000
-0.290288 -0.459829 0.032701 4.000000
-0.290288 -0.297728 0.377690 4.000000
-0.290288 0.451147 0.171066 4.000000
-0.290288 0.147449 0.446746 4.000000
-0.290288 -0.223084 0.438333 4.000000
-0.290288 -0.012576 0.474662 4.000000
-0.290288 0.286563 0.365930 4.000000
-0.290288 0.086785 -0.463376 4.000000
-0.290288 0.447410 -0.214005 4.000000
-0.290288 0.105187 0.475443 4.000000
-0.290288 -0.446317 0.174892 4.000000
-0.290288 -0.341910 -0.319763 4.000000
-0.290288 0.222901 0.390758 4.000000
-0.290288 0.416438 0.224201 4.000000
-0.290288 0.465759 -0.050429 4.000000
-0.290288 -0.282914 -0.400241 4.000000
-0.290288 -0.029927 0.493843 4.000000
-0.290288 -0.043749 -0.467692 4.000000
-0.290288 -0.301607 0.334522 4.000000
-0.290288 -0.370584 0.329488 4.000000
-0.290288 -0.419844 0.214937 4.000000
-0.290288 -0.352128 0.297389 4.000000
-0.290288 -0.280348 0.378943 4.000000
-0.290288 -0.227366 0.405836 4.000000
-0.290288 -0.121786 0.455290 4.000000
-0.290288 0.397667 0.255383 4.000000
-0.290288 0.405053 -0.290563 4.000000
-0.290288 0.449471 -0.198034 4.000000
-0.290288 0.142486 0.428220 4.000000
-0.290288 -0.396015 0.213700 4.000000
-0.290288 -0.459377 -0.080957 4.000000
-0.290288 -0.354739 0.287263 4.000000
-0.290288 -0.484073 -0.082178 4.000000
-0.290288 0.099749 -0.477079 4.000000
-0.290288 -0.056610 -0.477731 4.000000
-0.290288 -0.152197 -0.466902 4.000000
-0.290288 0.077894 -0.471186 4.000000
-0.290288 -0.442514 0.121816 4.000000
-0.290288 0.326508 0.360028 4.000000
-0.290288 0.142813 -0.424894 4.000000
-0.290288 -0.296274 -0.356759 4.000000
-0.290288 0.184468 0.442418 4.000000
-0.290288 0.427009 0.184646 4.000000
-0.290288 -0.443137 0.038090 4.000000
-0.290288 0.153360 0.442707 4.000000
-0.290288 0.343809 0.298820 4.000000
-0.290288 -0.171919 0.432395 4.000000
-0.290288 -0.381416 -0.295032 4.000000
-0.290288 -0.495870 0.020147 4.000000
-0.290288 0.493842 -0.009188 4.000000
-0.290288 -0.374005 -0.285943 4.000000
-0.290288 -0.019522 -0.477909 4.000000
-0.290288 -0.344962 -0.360521 4.000000
-0.290288 0.247061 0.430672 4.000000
-0.290288 -0.447378 0.178541 4.000000
-0.290288 -0.359539 -0.288083 4.000000
-0.290288 -0.309841 0.374819 4.000000
-0.290288 0.440065 0.230387 4.000000
-0.290288 -0.328374 -0.347232 4.000000
-0.290288 0.328320 -0.373909 4.000000
-0.290288 -0.395667 0.202991 4.000000
-0.290288 0.458857 -0.196690 4.000000
-0.290288 0.385794 -0.247475 4.000000
-0.290288 0.031840 0.458360 4.000000
-0.290288 -0.333235 0.355134 4.000000
-0.290288 -0.144290 0.474364 4.000000
-0.290288 0.183556 0.428564 4.000000
-0.290288 -0.457629 0.181503 4.000000
-0.290288 -0.411969 0.182082 4.000000
-0.290288 0.448888 0.007615 4.000000
-0.290288 -0.444596 -0.013228 4.000000
-0.290288 -0.410126 0.275678 4.000000
-0.290288 0.068100 0.481252 4.000000
-0.290288 0.493493 0.040296 4.000000
-0.290288 -0.398117 0.266016 4.000000
-0.290288 0.381187 -0.263757 4.000000
-0.290288 0.216358 0.408176 4.000000
-0.290288 0.269665 -0.378943 4.000000
-0.290288 -0.246307 -0.404837 4.000000
-0.290288 -0.407040 0.264135 4.000000
-0.290288 0.351989 -0.339330 4.000000
-0.290288 -0.044805 0.456485 4.000000
-0.290288 -0.492087 0.033540 4.000000
-0.290288 0.455789 0.051218 4.000000
-0.290288 0.095694 0.434721 4.000000
-0.290288 -0.488488 0.010072 4.000000
-0.290288 0.373896 -0.290053 4.000000
-0.290288 -0.432652 0.185648 4.000000
-0.290288 0.430871 -0.176230 4.000000
-0.290288 0.131849 -0.457682 4.000000
-0.290288 -0.185970 -0.409824 4.000000
-0.290288 0.278046 0.402433 4.000000
-0.290288 -0.177356 -0.414329 4.000000
-0.290288 -0.456311 0.021124 4.000000
-0.290288 0.122959 -0.430491 4.000000
-0.290288 -0.455400 0.126930 4.000000
-0.290288 -0.412617 0.204854 4.000000
-0.290288 -0.130889 -0.440625 4.000000
-0.290288 0.471401 0.107405 4.000000
-0.290288 -0.256730 0.390436 4.000000
-0.290288 0.453687 -0.106263 4.000000
-0.290288 -0.337389 0.337234 4.000000
-0.290288 0.455177 0.183323 4.000000
-0.290288 -0.358087 0.285469 4.000000
-0.290288 0.394030 -0.265318 4.000000
-0.290288 0.390706 0.214396 4.000000
-0.290288 0.201660 -0.430744 4.000000
-0.290288 -0.203423 -0.427083 4.000000
-0.290288 -0.347102 -0.353835 4.000000
-0.290288 0.421912 -0.256877 4.000000
-0.290288 -0.224627 0.396535 4.000000
-0.290288 0.225956 0.409395 4.000000
-0.290288 -0.402637 -0.220398 4.000000
-0.290288 0.487138 0.099043 4.000000
-0.290288 -0.227943 -0.389316 4.000000
-0.290288 -0.220770 -0.404311 4.000000
-0.290288 0.012900 -0.484868 4.000000
-0.290288 0.465367 0.138008 4.000000
-0.290288 0.258492 0.373064 4.000000
-0.290288 0.321113 0.307195 4.000000
-0.290288 0.358450 0.301165 4.000000
-0.290288 0.468245 0.148430 4.000000
-0.290288 -0.084300 -0.488172 4.000000
-0.290288 -0.248511 -0.392345 4.000000
-0.290288 -0.471069 0.001345 4.000000
-0.290288 -0.229103 0.427084 4.000000
-0.290288 0.188472 0.437618 4.000000
-0.290288 -0.368373 -0.297831 4.000000
-0.290288 0.449132 0.185333 4.000000
-0.290288 -0.311320 0.328888 4.000000
-0.290288 -0.301638 -0.360508 4.000000
-0.290288 -0.480554 -0.001369 4.000000
-0.290288 -0.440171 -0.118261 4.000000
-0.290288 -0.463438 0.129425 4.000000
-0.290288 0.023745 0.456546 4.000000
-0.290288 -0.217855 0.398590 4.000000
-0.290288 0.281408 -0.410399 4.000000
-0.290288 -0.411721 0.187492 4.000000
-0.290288 0.417414 -0.247681 4.000000
-0.290288 -0.258021 -0.365885 4.000000
-0.290288 0.459981 0.051634 4.000000
-0.290288 -0.085492 -0.465785 4.000000
-0.290288 -0.436126 0.227772 4.000000
-0.290288 0.420404 -0.210345 4.000000
-0.290288 0.438231 -0.186126 4.000000
-0.290288 -0.395075 -0.239358 4.000000
-0.290288 -0.280591 -0.382226 4.000000
-0.290288 -0.144307 0.437395 4.000000
-0.290288 -0.454220 -0.165533 4.000000
-0.290288 0.440141 0.112902 4.000000
-0.290288 0.383500 -0.304148 4.000000
-0.290288 -0.084169 -0.441658 4.000000
-0.290288 0.483488 0.065359 4.000000
-0.290288 -0.362343 -0.261079 4.000000
-0.290288 -0.415975 0.155694 4.000000
-0.290288 0.208006 -0.440944 4.000000
-0.290288 0.430710 -0.212372 4.000000
-0.290288 -0.473301 0.042205 4.000000
-0.290288 -0.370034 0.246150 4.000000
-0.290288 -0.186191 -0.441728 4.000000
-0.290288 0.042650 0.453472 4.000000
-0.290288 0.452901 -0.045937 4.000000
-0.290288 0.349134 0.299548 4.000000
-0.290288 0.451551 -0.174156 4.000000
-0.290288 0.458828 0.146103 4.000000
-0.290288 -0.449426 0.067020 4.000000
-0.290288 -0.242894 -0.388140 4.000000
-0.290288 0.486038 -0.002786 4.000000
-0.290288 0.450791 -0.062072 4.000000
-0.290288 -0.414195 -0.276860 4.000000
-0.290288 0.206915 -0.397372 4.000000
-0.290288 -0.485520 0.004491 4.000000
-0.290288 -0.013374 0.467662 4.000000
-0.290288 0.482490 -0.029537 4.000000
-0.290288 -0.397726 0.206531 4.000000
-0.290288 0.471789 -0.080816 4.000000
-0.290288 0.187467 -0.454569 4.000000
-0.290288 -0.414190 -0.180563 4.000000
-0.290288 -0.028396 -0.449404 4.000000
-0.290288 0.278704 -0.363064 4.000000
-0.290288 0.422838 -0.159970 4.000000
-0.290288 -0.333907 0.310696 4.000000
-0.290288 0.432733 0.116728 4.000000
-0.290288 0.419089 0.162815 4.000000
-0.290288 0.345275 -0.346753 4.000000
-0.290288 0.470769 0.049622 4.000000
-0.290288 -0.361841 -0.297338 4.000000
-0.290288 0.461254 -0.119545 4.000000
-0.290288 -0.028138 0.457204 4.000000
-0.290288 0.215452 -0.449339 4.000000
-0.290288 -0.133080 0.449193 4.000000
-0.290288 0.277853 -0.391030 4.000000
-0.290288 -0.050108 -0.488616 4.000000
-0.290288 -0.212746 -0.405974 4.000000
-0.290288 0.450700 -0.018026 4.000000
-0.290288 0.032696 0.477750 4.000000
-0.290288 0.266196 0.418727 4.000000
-0.290288 -0.401660 -0.263685 4.000000
-0.290288 0.132317 -0.470457 4.000000
-0.290288 0.430399 0.114484 4.000000
-0.290288 -0.402492 0.220954 4.000000
-0.290288 -0.394188 0.243151 4.000000
-0.290288 0.323832 -0.352128 4.000000
-0.290288 0.456821 -0.047112 4.000000
-0.290288 -0.342111 -0.338140 4.000000
-0.290288 0.463878 0.140833 4.000000
-0.290288 0.322453 -0.343716 4.000000
-0.290288 -0.297087 0.387812 4.000000
-0.290288 0.176090 0.457447 4.000000
-0.290288 -0.008315 0.471542 4.000000
-0.290288 -0.482308 -0.031172 4.000000
-0.290288 -0.010269 0.492325 4.000000
-0.290288 -0.393513 0.206425 4.000000
-0.290288 0.308794 0.377717 4.000000
-0.290288 -0.028306 -0.482263 4.000000
-0.290288 0.377588 0.282128 4.000000
-0.290288 -0.483016 0.115791 4.000000
-0.290288 0.186079 -0.460789 4.000000
-0.290288 0.329376 -0.311104 4.000000
-0.290288 0.386240 0.283580 4.000000
-0.290288 -0.163604 0.430259 4.000000
-0.290288 0.022784 -0.468237 4.000000
-0.290288 0.072120 0.472377 4.000000
-0.290288 0.305391 -0.381699 4.000000
-0.290288 -0.023357 -0.458636 4.000000
-0.290288 0.366260 0.321932 4.000000
-0.290288 -0.168883 0.431961 4.000000
-0.290288 0.446171 -0.021086 4.000000
-0.290288 0.475789 0.083680 4.000000
-0.290288 -0.031055 0.461439 4.000000
-0.290288 0.375951 -0.296919 4.000000
-0.290288 0.106671 0.441177 4.000000
-0.290288 0.017175 0.482363 4.000000
-0.290288 0.476761 0.058456 4.000000
-0.290288 -0.476493 0.014386 4.000000
-0.290288 -0.295536 0.347769 4.000000
-0.290288 0.108851 0.483827 4.000000
-0.290288 0.468949 0.157162 4.000000
-0.290288 -0.325116 0.372814 4.000000
-0.290288 0.208218 -0.445178 4.000000
-0.290288 -0.428719 -0.173048 4.000000
-0.290288 -0.237132 0.428963 4.000000
-0.290288 0.308492 -0.383101 4.000000
-0.290288 -0.422710 -0.249030 4.000000
-0.290288 0.431667 -0.209330 4.000000
-0.290288 -0.250717 0.427437 4.000000
-0.290288 -0.278571 -0.374058 4.000000
-0.290288 0.436893 0.234335 4.000000
-0.290288 -0.060089 0.439765 4.000000
-0.290288 -0.374293 0.258617 4.000000
-0.290288 0.127247 0.457523 4.000000
-0.290288 0.311073 -0.323262 4.000000
-0.290288 0.415131 -0.234598 4.000000
-0.290288 -0.394604 -0.290148 4.000000
-0.290288 0.299234 -0.399270 4.000000
-0.290288 -0.425201 0.149365 4.000000
-0.290288 0.018739 0.486662 4.000000
-0.290288 -0.317134 -0.381350 4.000000
-0.290288 0.370860 0.270454 4.000000
-0.290288 -0.343542 0.329700 4.000000
-0.290288 0.322488 -0.311595 4.000000
-0.290288 0.471352 -0.016181 4.000000
-0.290288 -0.385590 0.275861 4.000000
-0.290288 -0.398593 -0.236400 4.000000
-0.290288 -0.291610 -0.351542 4.000000
-0.290288 -0.423386 0.145858 4.000000
-0.290288 0.409045 -0.281199 4.000000
-0.290288 -0.420893 0.221952 4.000000
-0.290288 -0.459939 -0.069465 4.000000
-0.290288 -0.126291 -0.433537 4.000000
-0.290288 -0.492214 0.043686 4.000000
-0.290288 0.482592 -0.126673 4.000000
-0.290288 -0.492027 0.019573 4.000000
-0.290288 0.124070 -0.452306 4.000000
-0.290288 0.450468 -0.210880 4.000000
-0.290288 0.004112 -0.486293 4.000000
-0.290288 -0.382551 0.286507 4.000000
-0.290288 -0.092361 -0.446531 4.000000
-0.290288 -0.386617 -0.223416 4.000000
-0.290288 0.477431 -0.114576 4.000000
-0.290288 0.004847 0.446502 4.000000
-0.290288 0.044338 -0.445464 4.000000
-0.290288 0.454324 -0.027486 4.000000
-0.290288 -0.457628 0.029678 4.000000
-0.290288 -0.330225 0.369065 4.000000
-0.290288 -0.094678 -0.438694 4.000000
-0.290288 -0.458529 0.047074 4.000000
-0.290288 0.384391 0.245652 4.000000
-0.290288 -0.370642 0.251584 4.000000
-0.290288 0.455302 0.026246 4.000000
-0.290288 0.438524 -0.108668 4.000000
-0.290288 -0.427227 0.180538 4.000000
-0.290288 -0.049953 -0.470346 4.000000
-0.290288 0.403974 0.281087 4.000000
-0.290288 -0.357364 -0.297923 4.000000
-0.290288 -0.316371 -0.372317 4.000000
-0.290288 0.401265 0.192429 4.000000
-0.290288 0.461746 0.108690 4.000000
-0.290288 -0.345312 -0.304454 4.000000
-0.290288 -0.108229 0.453209 4.000000
-0.290288 0.306059 -0.341568 4.000000
-0.290288 0.144503 0.462201 4.000000
-0.290288 -0.284070 0.358177 4.000000
-0.290288 0.365743 -0.287045 4.000000
-0.290288 -0.316582 0.377648 4.000000
-0.290288 -0.462914 0.042952 4.000000
-0.290288 0.073383 0.455378 4.000000
-0.290288 -0.452649 -0.057948 4.000000
-0.290288 0.412074 0.248673 4.000000
-0.290288 0.183860 -0.439127 4.000000
-0.290288 -0.146135 0.430545 4.000000
-0.290288 0.157424 0.415070 4.000000
-0.290288 -0.462816 0.133575 4.000000
-0.290288 0.019577 -0.482109 4.000000
-0.290288 -0.338732 -0.290996 4.000000
-0.290288 -0.438100 -0.101251 4.000000
-0.290288 -0.180865 0.443441 4.000000
-0.290288 -0.472137 0.065893 4.000000
-0.290288 -0.131153 -0.456201 4.000000
-0.290288 0.033641 -0.475269 4.000000
-0.290288 -0.354977 0.291073 4.000000
-0.290288 0.076893 -0.460629 4.000000
-0.290288 -0.350669 -0.317543 4.000000
-0.290288 0.473719 0.006696 4.000000
-0.290288 0.446524 0.081452 4.000000
-0.290288 0.298568 -0.337799 4.000000
-0.290288 0.433883 -0.170066 4.000000
-0.290288 0.388871 0.228723 4.000000
-0.290288 0.353506 0.325759 4.000000
-0.290288 -0.441441 -0.180720 4.000000
-0.290288 -0.036954 -0.489972 4.000000
-0.290288 0.446711 -0.186040 4.000000
-0.290288 0.256371 -0.398266 4.000000
-0.290288 -0.364413 -0.269376 4.000000
-0.290288 0.436534 -0.237422 4.000000
-0.290288 0.359291 0.293840 4.000000
-0.290288 0.058046 -0.462942 4.000000
-0.290288 -0.204560 0.413793 4.000000
-0.290288 0.338409 -0.309949 4.000000
-0.290288 -0.128901 -0.465920 4.000000
-0.290288 0.428722 0.212427 4.000000
-0.290288 0.320383 0.330062 4.000000
-0.290288 -0.286037 0.392164 4.000000
-0.290288 0.249253 0.382247 4.000000
-0.290288 -0.133444 -0.481702 4.000000
-0.290288 -0.172412 0.422685 4.000000
-0.290288 -0.022953 0.464996 4.000000
-0.290288 -0.445265 -0.134861 4.000000
-0.290288 0.236479 -0.431822 4.000000
-0.290288 -0.306459 -0.362264 4.000000
-0.290288 0.315057 0.342106 4.000000
-0.290288 0.451749 0.084296 4.000000
-0.290288 0.157769 -0.426233 4.000000
-0.290288 0.488057 -0.041846 4.000000
-0.290288 -0.070305 0.456272 4.000000
-0.290288 0.460460 0.031938 4.000000
-0.290288 0.073830 -0.483470 4.000000
-0.290288 0.406158 0.260042 4.000000
-0.290288 0.328035 0.310268 4.000000
-0.290288 -0.430383 -0.126790 4.000000
-0.290288 -0.415770 -0.160372 4.000000
-0.290288 0.105205 0.438137 4.000000
-0.290288 -0.345563 0.305235 4.000000
-0.290288 -0.138141 0.443185 4.000000
-0.290288 0.002548 0.476175 4.000000
-0.290288 0.486455 0.054829 4.000000
-0.290288 0.353170 -0.289637 4.000000
-0.290288 -0.185642 0.408807 4.000000
-0.290288 0.283155 -0.361808 4.000000
-0.290288 0.476206 0.047497 4.000000
-0.290288 -0.466417 0.001376 4.000000
-0.290288 -0.110638 0.439425 4.000000
-0.290288 0.467900 0.107635 4.000000
-0.290288 -0.414323 0.221199 4.000000
-0.290288 0.348720 -0.338479 4.000000
-0.290288 0.433003 0.104419 4.000000
-0.290288 -0.049820 -0.478347 4.000000
-0.290288 -0.493403 -0.045375 4.000000
-0.290288 0.182147 -0.445923 4.000000
-0.290288 -0.096176 -0.479399 4.000000
-0.290288 -0.472963 -0.083740 4.000000
-0.290288 0.289674 -0.355562 4.000000
-0.290288 0.448093 -0.194601 4.000000
-0.290288 0.445570 -0.094355 4.000000
-0.290288 -0.350757 0.285946 4.000000
-0.290288 0.051301 0.474615 4.000000
-0.290288 -0.452119 -0.073193 4.000000
-0.290288 -0.276424 -0.380033 4.000000
-0.290288 -0.074740 -0.487862 4.000000
-0.290288 -0.036469 0.482793 4.000000
-0.290288 -0.284357 0.397950 4.000000
-0.290288 0.195154 -0.445634 4.000000
-0.290288 -0.421481 -0.235881 4.000000
-0.290288 -0.360930 -0.291670 4.000000
-0.290288 -0.441994 0.146546 4.000000
-0.290288 0.151234 0.429403 4.000000
-0.290288 -0.394249 -0.276592 4.000000
-0.290288 -0.474092 0.137139 4.000000
-0.290288 -0.480376 -0.128765 4.000000
-0.290288 0.455537 -0.065813 4.000000
-0.290288 -0.309238 0.358729 4.000000
-0.290288 -0.362398 0.336726 4.000000
-0.290288 0.445787 0.151565 4.000000
-0.290288 -0.162946 0.435550 4.000000
-0.290288 -0.358342 -0.265968 4.000000
-0.290288 -0.452560 -0.203820 4.000000
-0.290288 -0.127088 -0.440721 4.000000
-0.290288 0.081889 0.485106 4.000000
-0.290288 0.167625 0.411052 4.000000
-0.290288 0.391090 -0.305936 4.000000
-0.290288 -0.472977 0.004252 4.000000
-0.290288 -0.275930 -0.384114 4.000000
-0.290288 -0.221802 0.407325 4.000000
-0.290288 -0.465316 -0.024628 4.000000
-0.290288 -0.448446 -0.158482 4.000000
-0.290288 0.157495 0.419809 4.000000
-0.290288 0.455708 -0.114030 4.000000
-0.290288 -0.446236 -0.206085 4.000000
-0.290288 0.335984 0.307432 4.000000
-0.290288 0.205591 -0.406594 4.000000
-0.290288 0.173901 0.433263 4.000000
-0.290288 -0.334740 -0.300890 4.000000
-0.290288 0.140034 0.444014 4.000000
-0.290288 0.461107 -0.075701 4.000000
-0.290288 0.354192 0.343446 4.000000
-0.290288 0.141517 -0.475985 4.000000
-0.290288 0.451829 -0.014017 4.000000
-0.290288 0.397752 -0.239927 4.000000
-0.290288 -0.128744 -0.458707 4.000000
-0.290288 0.149699 -0.459549 4.000000
-0.290288 0.254468 -0.406883 4.000000
-0.290288 0.103492 -0.481402 4.000000
-0.290288 -0.078910 0.458627 4.000000
-0.290288 0.456190 0.064045 4.000000
-0.290288 0.487355 0.091257 4.000000
-0.290288 0.116600 -0.455883 4.000000
-0.290288 -0.234569 0.410301 4.000000
-0.290288 -0.323792 0.335886 4.000000
-0.290288 0.460012 -0.138698 4.000000
-0.290288 -0.146120 -0.425769 4.000000
-0.290288 -0.233233 -0.384527 4.000000
-0.290288 -0.051325 0.453012 4.000000
-0.290288 -0.445201 0.013438 4.000000
-0.290288 0.381023 -0.296847 4.000000
-0.290288 -0.320567 0.349561 4.000000
-0.290288 -0.089259 0.452158 4.000000
-0.290288 0.406529 0.285921 4.000000
-0.290288 -0.181117 -0.454612 4.000000
-0.290288 0.134992 0.456218 4.000000
-0.290288 0.200562 -0.452645 4.000000
-0.290288 0.389302 -0.287984 4.000000
-0.290288 -0.058331 0.476668 4.000000
-0.290288 0.494533 -0.019255 4.000000
-0.290288 -0.346684 0.291349 4.000000
-0.290288 -0.150267 0.447062 4.000000
-0.290288 0.385186 -0.280248 4.000000
-0.290288 -0.027340 0.444796 4.000000
-0.290288 0.060638 0.464678 4.000000
-0.290288 0.195132 0.433313 4.000000
-0.290288 -0.332244 -0.307873 4.000000
-0.290288 0.348681 0.310004 4.000000
-0.290288 0.049336 0.477864 4.000000
-0.290288 -0.277486 0.346044 4.000000
-0.290288 0.123907 -0.468656 4.000000
-0.290288 0.206193 0.450476 4.000000
-0.290288 -0.380586 -0.252329 4.000000
-0.290288 -0.419030 0.178797 4.000000
-0.290288 0.488134 -0.079498 4.000000
-0.290288 0.275287 -0.376416 4.000000
-0.290288 -0.464947 0.147211 4.000000
-0.290288 -0.103407 -0.482942 4.000000
-0.290288 -0.280612 0.361006 4.000000
-0.290288 -0.277980 0.376035 4.000000
-0.290288 -0.149384 -0.448966 4.000000
-0.290288 -0.278228 0.353101 4.000000
-0.290288 -0.308062 -0.366775 4.000000
-0.290288 0.433671 -0.166518 4.000000
-0.290288 0.155065 -0.469148 4.000000
-0.290288 0.148422 0.439651 4.000000
-0.290288 0.407055 0.207654 4.000000
-0.290288 -0.201120 -0.405034 4.000000
-0.290288 0.487876 -0.032516 4.000000
-0.290288 -0.458426 0.061691 4.000000
-0.290288 -0.442755 0.212710 4.000000
-0.290288 -0.193856 0.436292 4.000000
-0.290288 -0.395680 0.229027 4.000000
-0.290288 -0.173043 0.449432 4.000000
-0.290288 0.282004 0.386474 4.000000
-0.290288 -0.373769 0.297924 4.000000
-0.290288 0.060204 0.444185 4.000000
-0.290288 0.449889 0.040208 4.000000
-0.290288 0.330691 0.326536 4.000000
-0.290288 0.270656 -0.362910 4.000000
-0.290288 0.457620 -0.012258 4.000000
-0.290288 0.044465 -0.496848 4.000000
-0.290288 -0.192770 -0.443231 4.000000
-0.290288 0.007130 -0.477271 4.000000
-0.290288 -0.447458 -0.011018 4.000000
-0.290288 -0.352821 -0.320110 4.000000
-0.290288 -0.136733 0.425255 4.000000
-0.290288 0.191424 0.417738 4.000000
-0.290288 -0.010461 0.489009 4.000000
-0.290288 -0.479767 -0.081525 4.000000
-0.290288 -0.271354 0.358861 4.000000
-0.290288 -0.232299 0.392718 4.000000
-0.290288 0.461171 0.016846 4.000000
-0.290288 -0.470045 -0.077820 4.000000
-0.290288 0.395642 -0.297217 4.000000
-0.290288 -0.106124 -0.434814 4.000000
-0.290288 -0.140799 -0.450463 4.000000
-0.290288 0.100084 -0.473776 4.000000
-0.290288 0.244818 -0.428725 4.000000
-0.290288 -0.330203 0.346032 4.000000
-0.290288 0.412908 -0.174849 4.000000
-0.290288 0.168467 -0.422911 4.000000
-0.290288 0.257257 -0.367115 4.000000
-0.290288 -0.474159 -0.044065 4.000000
-0.290288 -0.437776 -0.104790 4.000000
-0.290288 -0.298918 -0.345159 4.000000
-0.290288 0.093949 -0.438598 4.000000
-0.290288 -0.192873 -0.459192 4.000000
-0.290288 0.402262 -0.288137 4.000000
-0.290288 0.459104 0.100484 4.000000
-0.290288 0.399242 -0.295953 4.000000
-0.290288 -0.326646 0.316329 4.000000
-0.290288 -0.474608 0.020554 4.000000
-0.290288 -0.412607 -0.255731 4.000000
-0.290288 -0.382654 0.314408 4.000000
-0.290288 0.359433 -0.267429 4.000000
-0.290288 -0.399636 0.253064 4.000000
-0.290288 -0.247201 -0.425314 4.000000
-0.290288 -0.481964 0.092762 4.000000
-0.290288 -0.151331 -0.451895 4.000000
-0.290288 0.028479 0.478072 4.000000
-0.290288 0.327054 -0.335616 4.000000
-0.290288 -0.443958 0.177658 4.000000
-0.290288 -0.236786 -0.389504 4.000000
-0.290288 -0.277288 -0.360527 4.000000
-0.290288 -0.433524 -0.217589 4.000000
-0.290288 0.319029 -0.315578 4.000000
-0.290288 -0.434746 0.093639 4.000000
-0.290288 0.320325 0.366646 4.000000
-0.290288 0.323479 0.331849 4.000000
-0.290288 -0.067299 0.449042 4.000000
-0.290288 0.030758 -0.452392 4.000000
-0.290288 -0.309953 0.378622 4.000000
-0.290288 0.429098 0.200881 4.000000
-0.290288 -0.359329 -0.283789 4.000000
-0.290288 0.293739 -0.343762 4.000000
-0.290288 0.134684 0.465063 4.000000
-0.290288 0.492009 0.029407 4.000000
-0.290288 0.473274 -0.044304 4.000000
-0.290288 0.456359 -0.154805 4.000000
-0.290288 0.274530 0.372615 4.000000
-0.290288 0.332908 0.367093 4.000000
-0.290288 -0.002400 -0.476222 4.000000
-0.290288 -0.311314 -0.349516 4.000000
-0.290288 0.385600 0.313657 4.000000
-0.290288 0.402530 -0.278991 4.000000
-0.290288 0.400462 -0.212326 4.000000
-0.290288 0.383508 -0.312883 4.000000
-0.290288 0.436730 -0.167648 4.000000
-0.290288 -0.323408 -0.367514 4.000000
-0.290288 0.181503 0.418690 4.000000
-0.290288 -0.336988 0.295229 4.000000
-0.290288 -0.157279 0.437905 4.000000
-0.290288 0.262848 -0.397102 4.000000
-0.290288 -0.313548 -0.333286 4.000000
-0.290288 -0.017357 0.488666 4.000000
-0.290288 -0.180246 -0.424189 4.000000
-0.290288 -0.479650 -0.039714 4.000000
-0.290288 0.473698 0.099181 4.000000
-0.290288 0.183356 -0.449850 4.000000
-0.290288 0.344205 -0.362235 4.000000
-0.290288 0.376324 0.263937 4.000000
-0.290288 0.464332 0.085496 4.000000
-0.290288 -0.343772 -0.341074 4.000000
-0.290288 -0.311672 -0.345312 4.000000
-0.290288 -0.262554 0.386030 4.000000
-0.290288 -0.460120 0.081649 4.000000
-0.290288 0.084542 0.469836 4.000000
-0.290288 -0.455840 0.000899 4.000000
-0.290288 -0.136791 0.436436 4.000000
-0.290288 -0.448736 -0.071643 4.000000
-0.290288 0.266255 0.394770 4.000000
-0.290288 0.303053 0.342163 4.000000
-0.290288 0.361148 0.275141 4.000000
-0.290288 -0.378853 -0.279872 4.000000
-0.290288 0.426855 0.254218 4.000000
-0.290288 -0.444840 -0.055942 4.000000
-0.290288 -0.161890 -0.471733 4.000000
-0.290288 -0.324337 0.328151 4.000000
-0.290288 -0.489696 -0.005619 4.000000
-0.290288 -0.209560 0.444541 4.000000
-0.290288 0.480786 -0.045362 4.000000
-0.290288 0.188730 -0.407924 4.000000
-0.290288 -0.392658 -0.243955 4.000000
-0.290288 0.186065 -0.443248 4.000000
-0.290288 -0.050992 -0.492525 4.000000
-0.290288 0.391305 0.306035 4.000000
-0.290288 -0.425493 0.183016 4.000000
-0.290288 0.354477 0.302237 4.000000
-0.290288 -0.441027 -0.196347 4.000000
-0.290288 0.412512 0.222112 4.000000
-0.290288 0.228407 -0.417684 4.000000
-0.290288 0.085150 0.437012 4.000000
-0.290288 0.492728 -0.040089 4.000000
-0.290288 0.058938 -0.490024 4.000000
-0.290288 0.019812 -0.485650 4.000000
-0.290288 0.204373 -0.434595 4.000000
-0.290288 -0.306478 0.340338 4.000000
-0.290288 -0.260307 -0.419925 4.000000
-0.290288 -0.441604 0.165854 4.000000
-0.290288 0.078273 0.447627 4.000000
-0.290288 0.404526 0.268819 4.000000
-0.290288 0.043261 -0.464441 4.000000
-0.290288 0.460582 -0.046334 4.000000
-0.290288 -0.456798 -0.014007 4.000000
-0.290288 -0.121695 0.433860 4.000000
-0.290288 -0.474270 0.038800 4.000000
-0.290288 0.333674 -0.310303 4.000000
-0.290288 -0.159686 0.424008 4.000000
-0.290288 -0.424640 -0.255642 4.000000
-0.290288 0.457789 0.060802 4.000000
-0.290288 0.445401 -0.135984 4.000000
-0.290288 0.359628 0.335656 4.000000
-0.290288 -0.097430 -0.487829 4.000000
-0.290288 -0.373854 0.288223 4.000000
-0.290288 -0.447749 -0.195830 4.000000
-0.290288 -0.458471 0.165582 4.000000
-0.290288 0.365423 0.290267 4.000000
-0.290288 -0.139193 -0.466619 4.000000
-0.290288 -0.448316 0.199248 4.000000
-0.290288 0.493378 -0.073090 4.000000
-0.290288 -0.203753 0.418333 4.000000
-0.290288 0.199219 0.420856 4.000000
-0.290288 0.496392 -0.013187 4.000000
-0.290288 0.293622 0.358362 4.000000
-0.290288 0.414434 0.185776 4.000000
-0.290288 -0.465275 0.056026 4.000000
-0.290288 -0.411394 -0.177015 4.000000
-0.290288 -0.201129 0.399217 4.000000
-0.290288 -0.389788 -0.296961 4.000000
-0.290288 -0.056807 0.483218 4.000000
-0.290288 0.342142 -0.347194 4.000000
-0.290288 0.141089 -0.472205 4.000000
-0.290288 -0.181838 0.408765 4.000000
-0.290288 -0.143912 -0.464904 4.000000
-0.290288 -0.451033 -0.023751 4.000000
-0.290288 -0.165911 0.411218 4.000000
-0.290288 -0.373506 0.321603 4.000000
-0.290288 -0.478242 -0.135356 4.000000
-0.290288 -0.250585 -0.380668 4.000000
-0.290288 -0.429889 -0.117194 4.000000
-0.290288 -0.250928 0.423208 4.000000
-0.290288 0.475063 -0.050100 4.000000
-0.290288 0.327716 0.305753 4.000000
-0.290288 -0.415548 -0.241635 4.000000
-0.290288 -0.446148 0.132963 4.000000
-0.290288 -0.013191 0.484374 4.000000
-0.290288 0.161584 -0.427307 4.000000
-0.290288 0.465523 0.001559 4.000000
-0.290288 -0.071876 0.469973 4.000000
-0.290288 0.269937 0.353878 4.000000
-0.290288 -0.403245 -0.194202 4.000000
-0.290288 0.451996 -0.144681 4.000000
-0.290288 -0.401411 -0.279264 4.000000
-0.290288 0.176827 0.411815 4.000000
-0.290288 -0.157294 0.414393 4.000000
-0.290288 0.264917 0.369886 4.000000
-0.290288 0.391049 -0.267451 4.000000
-0.290288 0.379579 -0.244283 4.000000
-0.290288 0.424103 0.232277 4.000000
-0.290288 0.372625 -0.283189 4.000000
-0.290288 0.126568 0.461759 4.000000
-0.290288 0.489317 -0.085833 4.000000
-0.290288 0.421064 -0.226908 4.000000
-0.290288 -0.429404 0.121683 4.000000
-0.290288 0.197633 -0.455928 4.000000
-0.290288 0.019871 -0.495839 4.000000
-0.290288 -0.284299 0.374320 4.000000
-0.290288 -0.294628 -0.336271 4.000000
-0.290288 0.138815 -0.468187 4.000000
-0.290288 0.160934 -0.473069 4.000000
-0.290288 0.399833 0.265495 4.000000
-0.290288 0.457776 0.140277 4.000000
-0.290288 0.262490 0.363623 4.000000
-0.290288 0.426931 -0.215055 4.000000
-0.290288 -0.304718 -0.392368 4.000000
-0.290288 -0.105993 -0.478864 4.000000
-0.290288 0.286213 0.396610 4.000000
-0.290288 -0.223196 0.425786 4.000000
-0.290288 0.474008 0.117265 4.000000
-0.290288 -0.460614 -0.142717 4.000000
-0.290288 0.459874 0.063942 4.000000
-0.290288 -0.405264 -0.270091 4.000000
-0.290288 -0.403026 0.240995 4.000000
-0.290288 0.058574 0.474619 4.000000
-0.290288 0.303791 0.348080 4.000000
-0.290288 0.480188 -0.117022 4.000000
-0.290288 -0.143869 -0.428306 4.000000
-0.290288 -0.434499 0.150852 4.000000
-0.290288 0.117861 0.471434 4.000000
-0.290288 -0.147473 0.426942 4.000000
-0.290288 -0.480795 0.124756 4.000000
-0.290288 0.406679 -0.206134 4.000000
-0.290288 -0.451902 -0.151758 4.000000
-0.290288 0.497594 0.004065 4.000000
-0.290288 -0.464457 -0.151965 4.000000
-0.290288 0.265106 0.405508 4.000000
-0.290288 -0.432460 -0.226785 4.000000
-0.290288 -0.451427 -0.036294 4.000000
-0.290288 -0.469548 -0.141562 4.000000
-0.290288 0.153951 0.419603 4.000000
-0.290288 -0.303148 0.372249 4.000000
-0.290288 -0.347231 -0.309048 4.000000
-0.290288 -0.469536 0.010577 4.000000
-0.290288 0.300965 0.329171 4.000000
-0.290288 -0.363365 -0.310873 4.000000
-0.290288 -0.164797 0.414500 4.000000
-0.290288 0.440865 0.156180 4.000000
-0.290288 -0.101699 -0.445916 4.000000
-0.290288 -0.052570 -0.480453 4.000000
-0.290288 -0.076535 -0.459467 4.000000
-0.290288 0.224979 0.420234 4.000000
-0.290288 -0.204243 0.393393 4.000000
-0.290288 -0.316366 -0.385984 4.000000
-0.290288 -0.396449 0.298618 4.000000
-0.290288 0.192037 0.429412 4.000000
-0.290288 -0.136940 0.466555 4.000000
-0.290288 -0.432183 -0.177178 4.000000
-0.290288 -0.072143 -0.442094 4.000000
-0.290288 -0.351291 0.313198 4.000000
-0.290288 0.445686 -0.142147 4.000000
-0.290288 -0.182126 -0.447812 4.000000
-0.290288 0.278924 0.382435 4.000000
-0.290288 0.042138 0.487532 4.000000
-0.290288 0.426349 0.167401 4.000000
-0.290288 0.454703 -0.173294 4.000000
-0.290288 -0.376218 -0.300137 4.000000
-0.290288 -0.453277 -0.147712 4.000000
-0.290288 0.345199 0.333872 4.000000
-0.290288 -0.441815 -0.088880 4.000000
-0.290288 -0.292110 0.337370 4.000000
-0.290288 -0.483744 0.028424 4.000000
-0.290288 -0.392402 0.229470 4.000000
-0.290288 0.411436 -0.273284 4.000000
-0.290288 0.490229 0.032677 4.000000
-0.290288 -0.195452 -0.408161 4.000000
-0.290288 -0.468805 0.120331 4.000000
-0.290288 -0.423468 0.185656 4.000000
-0.290288 -0.013011 -0.487205 4.000000
-0.290288 -0.327440 -0.353137 4.000000
-0.290288 -0.421991 -0.168952 4.000000
-0.290288 0.134907 0.440771 4.000000
-0.290288 -0.397552 -0.232745 4.000000
-0.290288 -0.239755 -0.423064 4.000000
-0.290288 -0.106290 0.464460 4.000000
-0.290288 0.016958 -0.478294 4.000000
-0.290288 -0.413970 0.167644 4.000000
-0.290288 -0.417790 0.166746 4.000000
-0.290288 -0.226429 0.388039 4.000000
-0.290288 0.324942 -0.322954 4.000000
-0.290288 -0.423459 -0.141190 4.000000
-0.290288 -0.250490 0.366571 4.000000
-0.290288 0.475348 0.042897 4.000000
-0.290288 -0.436274 0.170145 4.000000
-0.290288 0.462928 -0.072795 4.000000
-0.290288 -0.429861 0.182373 4.000000
-0.290288 0.203514 0.410554 4.000000
-0.290288 0.383326 -0.250070 4.000000
-0.290288 0.458242 0.106594 4.000000
-0.290288 0.444926 0.203641 4.000000
-0.290288 0.474768 -0.023073 4.000000
-0.290288 -0.347153 0.308574 4.000000
-0.290288 -0.452379 -0.082442 4.000000
-0.290288 0.176680 0.449054 4.000000
-0.290288 -0.164420 -0.419605 4.000000
-0.290288 0.005835 0.495558 4.000000
-0.290288 0.450330 0.004322 4.000000
-0.290288 -0.156212 -0.461057 4.000000
-0.290288 0.275548 -0.398899 4.000000
-0.290288 -0.292344 0.366372 4.000000
-0.290288 0.477977 0.004460 4.000000
-0.290288 0.254545 0.408776 4.000000
-0.290288 -0.102437 -0.456313 4.000000
-0.290288 -0.438089 -0.127923 4.000000
-0.290288 0.022691 -0.448566 4.000000
-0.290288 0.449484 0.196113 4.000000
-0.290288 -0.331531 -0.364793 4.000000
-0.290288 0.433658 0.209898 4.000000
-0.290288 0.397735 0.219517 4.000000
-0.290288 0.006555 -0.466030 4.000000
-0.290288 0.054705 -0.484376 4.000000
-0.290288 -0.331579 0.363826 4.000000
-0.290288 -0.287181 -0.350555 4.000000
-0.290288 -0.384571 0.304885 4.000000
-0.290288 -0.443764 -0.174665 4.000000
-0.290288 0.235536 -0.399092 4.000000
-0.290288 0.401885 0.278520 4.000000
-0.290288 0.054775 -0.479907 4.000000
-0.290288 0.427078 0.226360 4.000000
-0.290288 0.468593 -0.113265 4.000000
-0.290288 -0.439911 -0.199586 4.000000
-0.290288 0.432000 -0.162561 4.000000
-0.290288 0.307223 0.368831 4.000000
-0.290288 0.063263 -0.473326 4.000000
-0.290288 0.066531 0.484608 4.000000
-0.290288 -0.419376 0.161178 4.000000
-0.290288 0.120695 0.436699 4.000000
-0.290288 0.455448 -0.054337 4.000000
-0.290288 0.207938 0.393009 4.000000
-0.290288 0.390838 -0.235839 4.000000
-0.290288 -0.385883 0.311796 4.000000
-0.290288 0.479471 0.125510 4.000000
-0.290288 0.046479 0.481098 4.000000
-0.290288 -0.425560 -0.208723 4.000000
-0.290288 -0.384731 0.246295 4.000000
-0.290288 -0.180523 -0.409033 4.000000
-0.290288 -0.474693 -0.072236 4.000000
-0.290288 -0.335988 0.306098 4.000000
-0.290288 0.105821 0.450327 4.000000
-0.290288 0.266505 0.399723 4.000000
-0.290288 -0.192323 0.404721 4.000000
-0.290288 -0.476502 -0.104295 4.000000
-0.290288 0.016513 0.467555 4.000000
-0.290288 0.282684 0.394014 4.000000
-0.290288 0.425392 -0.136329 4.000000
-0.290288 0.013781 -0.467853 4.000000
-0.290288 -0.428275 0.149505 4.000000
-0.290288 -0.140320 -0.474263 4.000000
-0.290288 -0.438340 -0.225993 4.000000
-0.290288 -0.039625 0.452969 4.000000
-0.290288 -0.435798 0.134025 4.000000
-0.290288 0.192707 -0.419036 4.000000
-0.290288 -0.099147 0.473553 4.000000
-0.290288 -0.240464 -0.405392 4.000000
-0.290288 0.447150 0.075209 4.000000
-0.290288 0.406219 0.244118 4.000000
-0.290288 -0.476114 0.108923 4.000000
-0.290288 -0.479217 0.031123 4.000000
-0.290288 0.242982 0.421779 4.000000
-0.290288 -0.409272 0.270231 4.000000
-0.290288 -0.486884 0.096122 4.000000
-0.290288 0.055775 -0.459531 4.000000
-0.290288 0.057111 -0.449960 4.000000
-0.290288 -0.469790 -0.152963 4.000000
-0.290288 -0.136809 -0.454015 4.000000
-0.290288 -0.032913 0.464080 4.000000
-0.290288 -0.385516 -0.267409 4.000000
-0.290288 0.000123 -0.491275 4.000000
-0.290288 0.008267 0.448864 4.000000
-0.290288 -0.422796 -0.218333 4.000000
-0.290288 0.265581 -0.423725 4.000000
-0.290288 0.401065 -0.196993 4.000000
-0.290288 -0.317704 -0.319305 4.000000
-0.290288 -0.418310 -0.217442 4.000000
-0.290288 -0.093602 -0.487358 4.000000
-0.290288 -0.436276 -0.117195 4.000000
-0.290288 0.198864 -0.417195 4.000000
-0.290288 0.340261 -0.333453 4.000000
-0.290288 0.445449 -0.055488 4.000000
-0.290288 0.448335 0.168869 4.000000
-0.290288 0.022224 0.460413 4.000000
-0.290288 0.106268 0.454829 4.000000
-0.290288 0.377935 0.237038 4.000000
-0.290288 -0.428353 0.209486 4.000000
-0.290288 -0.422477 0.158634 4.000000
-0.290288 -0.352984 -0.297903 4.000000
-0.290288 0.444893 0.208837 4.000000
-0.290288 0.387165 -0.239197 4.000000
-0.290288 0.194153 -0.413831 4.000000
-0.290288 0.097122 -0.447096 4.000000
-0.290288 0.346504 -0.307970 4.000000
-0.290288 -0.453785 0.056103 4.000000
-0.290288 0.223590 0.442516 4.000000
-0.290288 -0.057117 0.447302 4.000000
-0.290288 0.246904 -0.377454 4.000000
-0.290288 -0.284662 0.389221 4.000000
-0.290288 -0.109158 -0.435007 4.000000
-0.290288 -0.146491 0.457716 4.000000
-0.290288 0.028168 -0.471821 4.000000
-0.290288 0.484903 -0.090745 4.000000
-0.290288 -0.483726 0.063113 4.000000
-0.290288 0.379644 -0.275948 4.000000
-0.290288 0.163662 0.422554 4.000000
-0.290288 -0.251388 -0.384442 4.000000
-0.290288 0.420340 0.153580 4.000000
-0.290288 -0.360532 -0.276315 4.000000
-0.290288 0.323734 -0.314732 4.000000
-0.290288 -0.437335 0.208912 4.000000
-0.290288 -0.469974 -0.137051 4.000000
-0.290288 -0.039135 -0.447149 4.000000
-0.290288 0.197940 0.427172 4.000000
-0.290288 0.431290 0.215420 4.000000
-0.290288 0.182325 0.405232 4.000000
-0.290288 0.081486 0.440673 4.000000
-0.290288 0.449835 -0.070317 4.000000
-0.290288 -0.455308 -0.106697 4.000000
-0.290288 -0.049551 -0.483389 4.000000
-0.290288 -0.474035 -0.010114 4.000000
-0.290288 0.032892 0.481042 4.000000
-0.290288 -0.472412 0.069232 4.000000
-0.290288 0.483992 -0.056184 4.000000
-0.290288 -0.471641 -0.016471 4.000000
-0.290288 0.281630 -0.379882 4.000000
-0.290288 -0.110042 0.480050 4.000000
-0.290288 -0.127762 0.478074 4.000000
-0.290288 -0.432353 0.164739 4.000000
-0.290288 0.293420 -0.365863 4.000000
-0.290288 0.337322 -0.304882 4.000000
-0.290288 0.025642 -0.454347 4.000000
-0.290288 -0.057800 -0.489869 4.000000
-0.290288 0.007537 0.474369 4.000000
-0.290288 -0.459020 0.023134 4.000000
-0.290288 -0.275601 -0.357870 4.000000
-0.290288 -0.464081 0.016856 4.000000
-0.290288 0.231614 0.392686 4.000000
-0.290288 -0.492573 0.010324 4.000000
-0.290288 0.326118 -0.330213 4.000000
-0.290288 -0.467038 -0.036983 4.000000
-0.290288 0.027012 -0.483427 4.000000
-0.290288 0.455531 0.156602 4.000000
-0.290288 0.469483 -0.040878 4.000000
-0.290288 0.363024 -0.303782 4.000000
-0.290288 0.436375 -0.121775 4.000000
-0.290288 -0.102734 -0.473763 4.000000
-0.290288 0.190169 0.407252 4.000000
-0.290288 -0.090921 -0.441980 4.000000
-0.290288 -0.063581 0.480216 4.000000
-0.290288 0.295593 0.337650 4.000000
-0.290288 0.426638 0.208985 4.000000
-0.290288 -0.060188 0.465269 4.000000
-0.290288 -0.272878 -0.377946 4.000000
-0.290288 0.279516 -0.382445 4.000000
-0.290288 0.053776 0.467278 4.000000
-0.290288 0.127405 0.424731 4.000000
-0.290288 0.398617 -0.243335 4.000000
-0.290288 -0.196989 0.399599 4.000000
-0.290288 0.255672 0.411745 4.000000
-0.290288 -0.452759 0.063420 4.000000
-0.290288 -0.210845 -0.422022 4.000000
-0.290288 -0.106125 -0.448360 4.000000
-0.290288 -0.256464 0.415541 4.000000
-0.290288 0.492539 0.073400 4.000000
-0.290288 0.265606 -0.387049 4.000000
-0.290288 0.388158 0.221701 4.000000
-0.290288 0.466614 -0.064987 4.000000
-0.290288 0.057849 0.451904 4.000000
-0.290288 -0.380966 -0.233470 4.000000
-0.290288 0.447749 0.172469 4.000000
-0.290288 -0.385302 0.283424 4.000000
-0.290288 -0.425724 0.142935 4.000000
-0.290288 -0.244626 -0.385183 4.000000
-0.290288 -0.196020 0.417514 4.000000
-0.290288 0.011108 -0.447785 4.000000
-0.290288 0.441986 0.068883 4.000000
-0.290288 -0.352318 -0.302689 4.000000
-0.290288 -0.475136 -0.006612 4.000000
-0.290288 -0.175308 -0.453771 4.000000
-0.290288 -0.377391 0.311411 4.000000
-0.290288 0.000732 0.478794 4.000000
-0.290288 0.418900 0.251587 4.000000
-0.290288 -0.332899 0.305135 4.000000
-0.290288 0.276191 -0.412572 4.000000
-0.290288 0.257428 -0.385781 4.000000
-0.290288 -0.042987 0.486219 4.000000
-0.290288 0.273579 0.408752 4.000000
-0.290288 0.311357 0.339456 4.000000
-0.290288 -0.476659 -0.023843 4.000000
-0.290288 0.119738 -0.465206 4.000000
-0.290288 -0.255286 0.364688 4.000000
-0.290288 -0.416018 0.206872 4.000000
-0.290288 -0.379764 -0.298302 4.000000
-0.290288 -0.367784 -0.312844 4.000000
-0.290288 -0.492008 -0.071208 4.000000
-0.290288 -0.375170 -0.253131 4.000000
-0.290288 0.178756 -0.413833 4.000000
-0.290288 -0.484238 0.070524 4.000000
-0.290288 -0.256680 0.408728 4.000000
-0.290288 -0.162391 0.448234 4.000000
-0.290288 0.453626 -0.022861 4.000000
-0.290288 0.475313 -0.016857 4.000000
-0.290288 -0.246932 0.372553 4.000000
-0.290288 0.020540 0.475778 4.000000
-0.290288 -0.158800 0.467373 4.000000
-0.290288 -0.453392 -0.122231 4.000000
-0.290288 -0.270150 0.369608 4.000000
-0.290288 0.419669 -0.264470 4.000000
-0.290288 0.481047 0.110120 4.000000
-0.290288 0.441000 0.124630 4.000000
-0.290288 0.443700 0.216212 4.000000
-0.290288 0.339706 0.288271 4.000000
-0.290288 0.378714 0.266590 4.000000
-0.290288 -0.064029 0.458022 4.000000
-0.290288 0.004252 0.464564 4.000000
-0.290288 0.069988 -0.459584 4.000000
-0.290288 0.484486 -0.032716 4.000000
-0.290288 -0.477537 -0.020889 4.000000
-0.290288 0.411787 -0.224359 4.000000
-0.290288 0.376590 -0.287936 4.000000
-0.290288 -0.079361 0.444909 4.000000
-0.290288 0.253319 0.395823 4.000000
-0.290288 -0.222110 0.420581 4.000000
-0.290288 -0.002573 0.462907 4.000000
-0.290288 0.477597 -0.038164 4.000000
-0.290288 0.439992 0.203967 4.000000
-0.290288 0.203917 -0.438806 4.000000
-0.290288 0.299538 -0.354220 4.000000
-0.290288 0.148799 0.466761 4.000000
-0.290288 -0.133372 0.471332 4.000000
-0.290288 -0.357403 0.321288 4.000000
-0.290288 -0.252342 0.377605 4.000000
-0.290288 0.127521 -0.457934 4.000000
-0.290288 -0.414178 -0.251461 4.000000
-0.290288 -0.192893 -0.422801 4.000000
-0.290288 0.277939 0.352068 4.000000
-0.290288 0.447011 0.059601 4.000000
-0.290288 0.245143 -0.393549 4.000000
-0.290288 -0.427755 -0.161685 4.000000
-0.290288 0.165236 -0.462348 4.000000
-0.290288 0.441276 -0.090919 4.000000
-0.290288 0.279353 -0.353367 4.000000
-0.290288 0.196090 0.424703 4.000000
-0.290288 0.091971 0.454357 4.000000
-0.290288 -0.391327 -0.257426 4.000000
-0.290288 -0.193767 0.427407 4.000000
-0.290288 0.192569 -0.405002 4.000000
-0.290288 -0.479731 0.103610 4.000000
-0.290288 -0.220206 0.391204 4.000000
-0.290288 -0.442139 0.082705 4.000000
-0.290288 0.447062 -0.011992 4.000000
-0.290288 0.155102 -0.464904 4.000000
-0.290288 -0.336249 0.313402 4.000000
-0.290288 -0.029259 0.479546 4.000000
-0.290288 -0.378812 -0.273204 4.000000
-0.290288 -0.156249 -0.422045 4.000000
-0.290288 -0.487388 -0.030108 4.000000
-0.290288 -0.177793 -0.418199 4.000000
-0.290288 -0.100852 0.455403 4.000000
-0.290288 -0.388918 -0.219720 4.000000
-0.290288 0.452874 -0.002229 4.000000
-0.290288 0.460652 0.104289 4.000000
-0.290288 -0.163879 0.425482 4.000000
-0.290288 -0.294450 -0.402194 4.000000
-0.290288 -0.120120 -0.452200 4.000000
-0.290288 -0.178439 -0.433074 4.000000
-0.290288 0.343942 0.290377 4.000000
-0.290288 0.184889 -0.425587 4.000000
-0.290288 0.030585 -0.485518 4.000000
-0.290288 0.467149 0.091800 4.000000
-0.290288 -0.471964 -0.093050 4.000000
-0.290288 0.409179 0.241192 4.000000
-0.290288 0.312005 0.359010 4.000000
-0.290288 -0.443037 -0.047964 4.000000
-0.290288 -0.024454 -0.447019 4.000000
-0.290288 -0.445764 -0.124335 4.000000
-0.290288 -0.367811 0.256172 4.000000
-0.290288 0.071428 -0.485545 4.000000
-0.290288 -0.385619 -0.245085 4.000000
-0.290288 -0.017472 0.483768 4.000000
-0.290288 0.425751 0.215394 4.000000
-0.290288 0.453118 -0.152656 4.000000
-0.290288 0.460947 0.028613 4.000000
-0.290288 -0.409492 -0.215679 4.000000
-0.290288 0.275175 -0.405736 4.000000
-0.290288 -0.472286 0.018067 4.000000
-0.290288 0.439621 -0.177085 4.000000
-0.290288 -0.070508 0.449198 4.000000
-0.290288 0.461352 0.129223 4.000000
-0.290288 -0.460215 0.019896 4.000000
-0.290288 -0.085250 -0.472615 4.000000
-0.290288 -0.259342 0.422378 4.000000
-0.290288 0.168724 -0.463918 4.000000
-0.290288 -0.018809 0.444176 4.000000
-0.290288 0.492091 -0.054790 4.000000
-0.290288 0.102337 -0.445718 4.000000
-0.290288 0.323832 -0.334399 4.000000
-0.290288 -0.099101 0.440787 4.000000
-0.290288 -0.126884 -0.428884 4.000000
-0.290288 0.209874 -0.437579 4.000000
-0.290288 -0.430397 0.235641 4.000000
-0.290288 0.451239 0.045017 4.000000
-0.290288 -0.472015 0.111840 4.000000
-0.290288 -0.373863 -0.266987 4.000000
-0.290288 -0.065778 -0.492517 4.000000
-0.290288 -0.317577 0.372373 4.000000
-0.290288 -0.153496 0.436405 4.000000
-0.290288 -0.257398 -0.395008 4.000000
-0.290288 0.420585 0.234949 4.000000
-0.290288 0.032621 -0.493427 4.000000
-0.290288 -0.011280 -0.462573 4.000000
-0.290288 -0.392691 0.284029 4.000000
-0.290288 -0.464243 0.139905 4.000000
-0.290288 -0.300633 -0.398842 4.000000
-0.290288 -0.006527 0.464456 4.000000
-0.290288 0.476572 -0.134005 4.000000
-0.290288 0.186536 -0.447635 4.000000
-0.290288 -0.329133 0.342791 4.000000
-0.290288 0.371760 0.304230 4.000000
-0.290288 0.212095 -0.394580 4.000000
-0.290288 -0.250044 0.396931 4.000000
-0.290288 -0.397468 0.269911 4.000000
-0.290288 0.122144 0.449948 4.000000
-0.290288 -0.308134 -0.369893 4.000000
-0.290288 -0.452206 0.126840 4.000000
-0.290288 -0.044343 0.449321 4.000000
-0.290288 -0.129057 -0.462509 4.000000
-0.290288 -0.348619 0.311435 4.000000
-0.290288 0.421682 0.199120 4.000000
-0.290288 -0.277078 -0.351907 4.000000
-0.290288 0.237127 0.435359 4.000000
-0.290288 -0.476946 0.041216 4.000000
-0.290288 0.295694 -0.390847 4.000000
-0.290288 0.427438 0.222974 4.000000
-0.290288 0.414862 -0.237855 4.000000
-0.290288 0.110137 0.450402 4.000000
-0.290288 0.305921 0.390469 4.000000
-0.290288 0.037537 -0.475528 4.000000
-0.290288 0.068493 -0.484555 4.000000
-0.290288 0.394079 -0.235189 4.000000
-0.290288 -0.324232 -0.363966 4.000000
-0.290288 0.465929 -0.177768 4.000000
-0.290288 -0.381816 0.264468 4.000000
-0.290288 -0.365894 0.311442 4.000000
-0.290288 0.484685 0.094848 4.000000
-0.290288 0.311849 -0.332806 4.000000
-0.290288 -0.461194 0.147294 4.000000
-0.290288 0.209267 0.433651 4.000000
-0.290288 0.436708 -0.151051 4.000000
-0.290288 0.034054 0.446826 4.000000
-0.290288 -0.395450 -0.267984 4.000000
-0.290288 0.345320 0.322063 4.000000
-0.290288 -0.455445 0.049645 4.000000
-0.290288 0.348963 -0.302960 4.000000
-0.290288 0.196953 0.448799 4.000000
-0.290288 0.382710 -0.245474 4.000000
-0.290288 0.256752 0.370270 4.000000
-0.290288 -0.405130 0.212610 4.000000
-0.290288 -0.366494 -0.290581 4.000000
-0.290288 -0.374151 -0.290092 4.000000
-0.290288 0.464531 0.146362 4.000000
-0.290288 0.436235 -0.127896 4.000000
-0.290288 0.451849 -0.179394 4.000000
-0.290288 0.268009 -0.419278 4.000000
-0.290288 0.147444 -0.448884 4.000000
-0.290288 -0.228885 0.438805 4.000000
-0.290288 -0.434351 -0.241343 4.000000
-0.290288 -0.471849 -0.012358 4.000000
-0.290288 -0.095676 0.452445 4.000000
-0.290288 -0.428554 0.139751 4.000000
-0.290288 -0.438599 0.214327 4.000000
-0.290288 -0.432363 0.148559 4.000000
-0.290288 0.367978 0.279180 4.000000
-0.290288 -0.355509 0.331387 4.000000
-0.290288 -0.464703 0.173506 4.000000
-0.290288 0.429624 0.240483 4.000000
-0.290288 -0.180444 0.439503 4.000000
-0.290288 0.472849 -0.154579 4.000000
-0.290288 0.333187 0.361648 4.000000
-0.290288 0.360765 -0.310011 4.000000
-0.290288 0.427112 0.197025 4.000000
-0.290288 -0.307047 -0.379555 4.000000
-0.290288 0.163624 -0.468580 4.000000
-0.290288 -0.469207 -0.158339 4.000000
-0.290288 -0.444649 0.017322 4.000000
-0.290288 0.266546 -0.383556 4.000000
-0.290288 -0.051938 0.447152 4.000000
-0.290288 -0.249652 0.409400 4.000000
-0.290288 0.060982 -0.496516 4.000000
-0.290288 -0.065750 -0.485102 4.000000
-0.290288 -0.404764 -0.281663 4.000000
-0.290288 -0.413797 0.237492 4.000000
-0.290288 -0.272750 0.390913 4.000000
-0.290288 -0.019161 -0.473464 4.000000
-0.290288 0.173084 -0.440404 4.000000
-0.290288 0.038717 -0.498055 4.000000
-0.290288 0.126657 0.471556 4.000000
-0.290288 0.286678 0.339875 4.000000
-0.290288 -0.432781 -0.234543 4.000000
-0.290288 -0.419674 0.242010 4.000000
-0.290288 -0.221990 -0.422780 4.000000
-0.290288 -0.447391 -0.161433 4.000000
-0.290288 0.327890 -0.322323 4.000000
-0.290288 -0.271675 0.386747 4.000000
-0.290288 -0.355495 0.336407 4.000000
-0.290288 -0.141872 0.425837 4.000000
-0.290288 -0.348337 -0.340691 4.000000
