-0.290288 -0.199289 -0.445305 4.000000
-0.290288 0.445845 0.211029 4.000000
-0.290288 0.241820 -0.398508 4.000000
-0.290288 0.303605 -0.347149 4.000000
-0.290288 0.436805 0.206464 4.000000
-0.290288 -0.389879 -0.233208 4.000000
-0.290288 -0.221711 0.388454 4.000000
-0.290288 0.488297 -0.099208 4.000000
-0.290288 0.130448 -0.439569 4.000000
-0.290288 -0.460787 -0.178364 4.000000
-0.290288 -0.443048 -0.214813 4.000000
-0.290288 0.354148 -0.292576 4.000000
-0.290288 -0.467984 0.005298 4.000000
-0.290288 0.056110 0.441610 4.000000
-0.290288 -0.125461 -0.483274 4.000000
-0.290288 0.481300 0.076209 4.000000
-0.290288 -0.045950 -0.484719 4.000000
-0.290288 -0.429201 0.189919 4.000000
-0.290288 -0.038800 0.456645 4.000000
-0.290288 0.100494 -0.481300 4.000000
-0.290288 -0.428925 0.249253 4.000000
-0.290288 0.491968 0.065955 4.000000
-0.290288 0.480952 0.000495 4.000000
-0.290288 0.120727 0.472420 4.000000
-0.290288 -0.228747 -0.391493 4.000000
-0.290288 0.307690 0.326471 4.000000
-0.290288 0.438058 0.086965 4.000000
-0.290288 -0.422184 0.236686 4.000000
-0.290288 0.363317 0.267836 4.000000
-0.290288 0.254748 -0.369004 4.000000
-0.290288 -0.014514 0.456497 4.000000
-0.290288 0.388320 -0.269688 4.000000
-0.290288 0.120610 -0.450519 4.000000
-0.290288 -0.363650 -0.319739 4.000000
-0.290288 -0.183796 -0.412466 4.000000
-0.290288 0.298809 -0.360427 4.000000
-0.290288 -0.430300 0.166139 4.000000
-0.290288 0.111274 0.472388 4.000000
-0.290288 0.185832 -0.426572 4.000000
-0.290288 0.436579 -0.165831 4.000000
-0.290288 0.199299 -0.415721 4.000000
-0.290288 -0.453603 -0.007949 4.000000
-0.290288 -0.395911 -0.250387 4.000000
-0.290288 -0.067693 -0.471516 4.000000
-0.290288 -0.437123 0.139439 4.000000
-0.290288 -0.284138 0.374776 4.000000
-0.290288 -0.152495 -0.448429 4.000000
-0.290288 0.252202 -0.410783 4.000000
-0.290288 -0.434704 -0.229998 4.000000
-0.290288 -0.371436 0.248781 4.000000
-0.290288 -0.301947 -0.366817 4.000000
-0.290288 -0.451454 0.094323 4.000000
-0.290288 -0.128271 0.443343 4.000000
-0.290288 0.008833 0.454780 4.000000
-0.290288 -0.372325 -0.305324 4.000000
-0.290288 0.204126 -0.436548 4.000000
-0.290288 -0.345496 -0.353348 4.000000
-0.290288 -0.456063 0.123870 4.000000
-0.290288 -0.026538 0.479694 4.000000
-0.290288 0.105749 0.446679 4.000000
-0.290288 0.148275 0.440309 4.000000
-0.290288 -0.179343 0.422794 4.000000
-0.290288 -0.396237 -0.302521 4.000000
-0.290288 0.482532 -0.109834 4.000000
-0.290288 0.408768 -0.232019 4.000000
-0.290288 -0.208914 -0.439514 4.000000
-0.290288 -0.460828 0.147226 4.000000
-0.290288 -0.378638 -0.311225 4.000000
-0.290288 0.306847 -0.394402 4.000000
-0.290288 0.036345 -0.491599 4.000000
-0.290288 -0.089858 -0.479220 4.000000
-0.290288 0.250953 0.402259 4.000000
-0.290288 0.300389 -0.353463 4.000000
-0.290288 0.049914 0.440944 4.000000
-0.290288 -0.340761 -0.347744 4.000000
-0.290288 -0.275304 0.367883 4.000000
-0.290288 -0.040947 -0.446580 4.000000
-0.290288 0.043955 0.476623 4.000000
-0.290288 0.407109 0.244136 4.000000
-0.290288 0.396292 0.219168 4.000000
-0.290288 0.473642 0.103032 4.000000
-0.290288 0.438012 -0.151585 4.000000
-0.290288 0.187631 -0.449434 4.000000
-0.290288 -0.446932 -0.017958 4.000000
-0.290288 0.174655 -0.435361 4.000000
-0.290288 0.381261 -0.261976 4.000000
-0.290288 0.353765 -0.346115 4.000000
-0.290288 -0.464532 0.089984 4.000000
-0.290288 0.468085 -0.101233 4.000000
-0.290288 0.215014 0.395759 4.000000
-0.290288 0.400014 0.261366 4.000000
-0.290288 -0.377757 -0.283492 4.000000
-0.290288 -0.228299 -0.422437 4.000000
-0.290288 -0.261666 -0.403913 4.000000
-0.290288 0.450585 -0.084705 4.000000
-0.290288 -0.293066 -0.383140 4.000000
-0.290288 -0.409975 -0.283548 4.000000
-0.290288 -0.195606 0.441148 4.000000
-0.290288 0.467898 -0.008452 4.000000
-0.290288 0.110229 0.433977 4.000000
-0.290288 0.432556 0.205239 4.000000
-0.290288 -0.453090 -0.169990 4.000000
-0.290288 -0.439865 -0.164901 4.000000
-0.290288 0.394980 -0.302249 4.000000
-0.290288 0.342744 -0.356287 4.000000
-0.290288 0.250440 -0.383366 4.000000
-0.290288 -0.356185 -0.309545 4.000000
-0.290288 0.453717 0.152572 4.000000
-0.290288 -0.124241 0.464231 4.000000
-0.290288 -0.471128 0.103546 4.000000
-0.290288 -0.480659 0.110521 4.000000
-0.290288 -0.452685 0.166979 4.000000
-0.290288 -0.386153 -0.281804 4.000000
-0.290288 0.488100 -0.000174 4.000000
-0.290288 0.454864 -0.037616 4.000000
-0.290288 0.341418 -0.359296 4.000000
-0.290288 0.460212 -0.087768 4.000000
-0.290288 -0.403585 0.200378 4.000000
-0.290288 0.032094 0.469740 4.000000
-0.290288 -0.069486 -0.449046 4.000000
-0.290288 -0.412111 0.231415 4.000000
-0.290288 0.415548 0.272776 4.000000
-0.290288 0.068416 0.479542 4.000000
-0.290288 0.369924 0.265809 4.000000
-0.290288 -0.298397 -0.384063 4.000000
-0.290288 0.263873 0.392780 4.000000
-0.290288 -0.442226 -0.186427 4.000000
-0.290288 -0.420026 0.203320 4.000000
-0.290288 0.012898 -0.483505 4.000000
-0.290288 -0.095156 0.483097 4.000000
-0.290288 0.398930 0.257639 4.000000
-0.290288 0.125273 -0.465209 4.000000
-0.290288 -0.356865 0.304742 4.000000
-0.290288 -0.271252 0.374386 4.000000
-0.290288 0.449381 -0.121535 4.000000
-0.290288 0.013375 -0.499742 4.000000
-0.290288 -0.000610 0.481162 4.000000
-0.290288 0.314470 0.361388 4.000000
-0.290288 0.397709 -0.210802 4.000000
-0.290288 -0.313217 0.321997 4.000000
-0.290288 0.216627 -0.415108 4.000000
-0.290288 0.287595 -0.361575 4.000000
-0.290288 -0.463618 -0.175675 4.000000
-0.290288 -0.350839 -0.315442 4.000000
-0.290288 -0.090842 0.437203 4.000000
-0.290288 0.014203 0.445191 4.000000
-0.290288 -0.330579 0.369503 4.000000
-0.290288 0.242932 0.427339 4.000000
-0.290288 -0.490932 0.036608 4.000000
-0.290288 0.429612 -0.175745 4.000000
-0.290288 0.308715 -0.354729 4.000000
-0.290288 -0.486232 -0.058866 4.000000
-0.290288 -0.179877 0.457196 4.000000
-0.290288 0.310628 -0.377902 4.000000
-0.290288 -0.395440 0.226126 4.000000
-0.290288 0.274003 -0.412525 4.000000
-0.290288 -0.099149 -0.455217 4.000000
-0.290288 -0.449585 0.000517 4.000000
-0.290288 -0.077752 -0.482968 4.000000
-0.290288 0.354933 -0.310266 4.000000
-0.290288 0.060158 0.440836 4.000000
-0.290288 0.052464 -0.484252 4.000000
-0.290288 0.457498 0.116032 4.000000
-0.290288 0.096589 0.432618 4.000000
-0.290288 0.107706 -0.465954 4.000000
-0.290288 0.431708 -0.148397 4.000000
-0.290288 -0.418225 0.161988 4.000000
-0.290288 -0.482693 0.093618 4.000000
-0.290288 0.000405 -0.496222 4.000000
-0.290288 -0.441390 0.145238 4.000000
-0.290288 -0.442583 -0.221378 4.000000
-0.290288 -0.081313 0.480443 4.000000
-0.290288 0.446084 -0.002064 4.000000
-0.290288 -0.428355 0.202644 4.000000
-0.290288 0.297100 0.353950 4.000000
-0.290288 0.431196 0.147804 4.000000
-0.290288 0.331921 -0.328976 4.000000
-0.290288 -0.383921 -0.243619 4.000000
-0.290288 -0.462411 -0.052256 4.000000
-0.290288 0.484294 -0.115760 4.000000
-0.290288 -0.196469 0.405347 4.000000
-0.290288 -0.239664 0.406355 4.000000
-0.290288 -0.370583 -0.326114 4.000000
-0.290288 -0.122846 -0.438070 4.000000
-0.290288 -0.181315 -0.463269 4.000000
-0.290288 0.312829 0.369650 4.000000
-0.290288 0.343909 -0.353304 4.000000
-0.290288 0.311602 -0.332770 4.000000
-0.290288 0.318115 -0.372201 4.000000
-0.290288 0.438804 0.120724 4.000000
-0.290288 0.245787 -0.384474 4.000000
-0.290288 -0.239307 0.383464 4.000000
-0.290288 -0.065997 -0.483353 4.000000
-0.290288 -0.352215 -0.345705 4.000000
-0.290288 -0.277884 -0.373548 4.000000
-0.290288 -0.066344 -0.486777 4.000000
-0.290288 -0.026293 -0.499370 4.000000
-0.290288 -0.443789 0.187720 4.000000
-0.290288 -0.098897 -0.446705 4.000000
-0.290288 0.193104 0.447257 4.000000
-0.290288 -0.383601 0.230398 4.000000
-0.290288 0.168609 -0.469735 4.000000
-0.290288 0.408597 -0.194600 4.000000
-0.290288 -0.163453 -0.464272 4.000000
-0.290288 0.324812 0.375197 4.000000
-0.290288 -0.282236 0.368781 4.000000
-0.290288 0.103541 -0.444717 4.000000
-0.290288 -0.435257 0.154779 4.000000
-0.290288 -0.452723 -0.079120 4.000000
-0.290288 0.387231 -0.276210 4.000000
-0.290288 0.449453 -0.044671 4.000000
-0.290288 -0.208240 0.406722 4.000000
-0.290288 0.376913 -0.312001 4.000000
-0.290288 0.304179 0.347419 4.000000
-0.290288 -0.469025 0.032325 4.000000
-0.290288 0.082188 0.445914 4.000000
-0.290288 0.422211 0.198121 4.000000
-0.290288 -0.267271 -0.366763 4.000000
-0.290288 0.282577 -0.381428 4.000000
-0.290288 -0.023847 -0.460017 4.000000
-0.290288 -0.446336 0.081397 4.000000
-0.290288 0.427357 -0.217785 4.000000
-0.290288 0.428100 0.200826 4.000000
-0.290288 -0.116024 0.461614 4.000000
-0.290288 -0.487226 -0.064085 4.000000
-0.290288 -0.450685 -0.087261 4.000000
-0.290288 -0.237939 0.403801 4.000000
-0.290288 0.454260 -0.158605 4.000000
-0.290288 -0.342341 -0.344885 4.000000
-0.290288 0.170145 0.410598 4.000000
-0.290288 0.445554 0.165966 4.000000
-0.290288 -0.492307 -0.016489 4.000000
-0.290288 -0.475588 0.097586 4.000000
-0.290288 -0.270191 -0.355946 4.000000
-0.290288 0.383948 0.268340 4.000000
-0.290288 -0.201103 -0.456056 4.000000
-0.290288 -0.477100 0.053728 4.000000
-0.290288 -0.453692 -0.032503 4.000000
-0.290288 0.387949 -0.298843 4.000000
-0.290288 0.047606 -0.475477 4.000000
-0.290288 -0.398082 -0.299187 4.000000
-0.290288 0.064390 -0.479968 4.000000
-0.290288 0.199559 0.404114 4.000000
-0.290288 -0.172333 0.448919 4.000000
-0.290288 0.229010 0.404327 4.000000
-0.290288 0.410055 0.204119 4.000000
-0.290288 0.059219 0.471477 4.000000
-0.290288 0.449960 -0.013008 4.000000
-0.290288 -0.072338 -0.491387 4.000000
-0.290288 -0.090792 0.440682 4.000000
-0.290288 -0.441122 0.089089 4.000000
-0.290288 -0.357716 0.294138 4.000000
-0.290288 -0.477422 0.072087 4.000000
-0.290288 -0.233933 0.390918 4.000000
-0.290288 0.380937 -0.251002 4.000000
-0.290288 -0.336325 -0.338941 4.000000
-0.290288 -0.490864 0.062634 4.000000
-0.290288 0.078286 0.487922 4.000000
-0.290288 -0.403036 -0.255273 4.000000
-0.290288 -0.195544 0.414652 4.000000
-0.290288 -0.370121 0.291331 4.000000
-0.290288 0.437175 -0.172951 4.000000
-0.290288 0.475648 0.052082 4.000000
-0.290288 0.160907 -0.449151 4.000000
-0.290288 -0.011408 0.443041 4.000000
-0.290288 0.401787 0.214470 4.000000
-0.290288 0.384093 -0.300809 4.000000
-0.290288 0.080595 -0.487928 4.000000
-0.290288 0.437042 -0.206964 4.000000
-0.290288 -0.411872 0.222644 4.000000
-0.290288 0.178336 -0.410607 4.000000
-0.290288 0.457917 0.109207 4.000000
-0.290288 -0.445745 0.198046 4.000000
-0.290288 -0.353326 0.279089 4.000000
-0.290288 0.280308 -0.409388 4.000000
-0.290288 0.048620 0.467357 4.000000
-0.290288 -0.389352 0.219736 4.000000
-0.290288 -0.474648 -0.150553 4.000000
-0.290288 -0.454399 0.070517 4.000000
-0.290288 -0.119020 -0.477631 4.000000
-0.290288 0.394868 0.224695 4.000000
-0.290288 0.051505 -0.459129 4.000000
-0.290288 0.425157 0.177149 4.000000
-0.290288 -0.434465 0.094365 4.000000
-0.290288 -0.452961 -0.113945 4.000000
-0.290288 -0.327808 0.319622 4.000000
-0.290288 -0.327234 -0.369575 4.000000
-0.290288 0.357564 0.305250 4.000000
-0.290288 0.061095 0.468250 4.000000
-0.290288 -0.181831 -0.459607 4.000000
-0.290288 0.219673 -0.417689 4.000000
-0.290288 -0.443334 -0.135676 4.000000
-0.290288 -0.225518 -0.398926 4.000000
-0.290288 0.443928 -0.108840 4.000000
-0.290288 -0.394190 0.223156 4.000000
-0.290288 -0.155235 -0.455893 4.000000
-0.290288 -0.379595 0.260664 4.000000
-0.290288 -0.206180 0.442117 4.000000
-0.290288 -0.270879 0.386421 4.000000
-0.290288 0.135888 -0.458542 4.000000
-0.290288 -0.220421 -0.411972 4.000000
-0.290288 0.136066 0.423280 4.000000
-0.290288 0.213221 -0.408672 4.000000
-0.290288 -0.217314 -0.418441 4.000000
-0.290288 -0.479013 -0.005207 4.000000
-0.290288 0.348798 0.282974 4.000000
-0.290288 0.461014 0.186475 4.000000
-0.290288 0.414215 -0.177382 4.000000
-0.290288 0.289390 0.364707 4.000000
-0.290288 -0.484961 -0.012478 4.000000
-0.290288 -0.303637 0.370484 4.000000
-0.290288 0.390671 0.278358 4.000000
-0.290288 -0.396258 0.261707 4.000000
-0.290288 0.306844 -0.347441 4.000000
-0.290288 0.348035 -0.334468 4.000000
-0.290288 0.380761 0.313628 4.000000
-0.290288 0.305619 -0.339147 4.000000
-0.290288 -0.111691 0.469618 4.000000
-0.290288 0.314495 -0.322961 4.000000
-0.290288 -0.469793 -0.132213 4.000000
-0.290288 0.483991 -0.048747 4.000000
-0.290288 0.414073 -0.172585 4.000000
-0.290288 0.457480 0.064726 4.000000
-0.290288 0.226726 -0.422488 4.000000
-0.290288 0.358935 -0.312952 4.000000
-0.290288 0.162811 -0.425690 4.000000
-0.290288 0.328613 0.324445 4.000000
-0.290288 -0.381147 -0.231759 4.000000
-0.290288 -0.020892 0.484036 4.000000
-0.290288 -0.138600 0.469297 4.000000
-0.290288 0.398363 0.198322 4.000000
-0.290288 0.487840 0.028828 4.000000
-0.290288 0.195695 -0.440933 4.000000
-0.290288 0.322490 0.311212 4.000000
-0.290288 -0.352750 0.284526 4.000000
-0.290288 0.299568 0.386033 4.000000
-0.290288 -0.454503 -0.146532 4.000000
-0.290288 -0.019977 0.469441 4.000000
-0.290288 0.255566 -0.375979 4.000000
-0.290288 0.224693 0.402719 4.000000
-0.290288 0.286662 0.345583 4.000000
-0.290288 -0.025814 0.489480 4.000000
-0.290288 0.415053 -0.221863 4.000000
-0.290288 0.374291 0.242330 4.000000
-0.290288 -0.306221 0.363241 4.000000
-0.290288 0.435943 0.114167 4.000000
-0.290288 -0.122229 0.446695 4.000000
-0.290288 -0.371564 -0.282925 4.000000
-0.290288 -0.342009 -0.312925 4.000000
-0.290288 0.448997 0.168086 4.000000
-0.290288 0.161621 -0.436053 4.000000
-0.290288 -0.492823 -0.039789 4.000000
-0.290288 0.462310 0.093774 4.000000
-0.290288 0.433090 -0.113461 4.000000
-0.290288 -0.017929 -0.471781 4.000000
-0.290288 0.413824 0.166610 4.000000
-0.290288 -0.288120 -0.375089 4.000000
-0.290288 0.016246 0.488921 4.000000
-0.290288 0.480902 -0.012995 4.000000
-0.290288 0.463452 0.165338 4.000000
-0.290288 0.142586 0.433590 4.000000
-0.290288 0.292859 -0.390448 4.000000
-0.290288 -0.090916 -0.451621 4.000000
-0.290288 0.466057 -0.064551 4.000000
-0.290288 0.396522 -0.298198 4.000000
-0.290288 -0.309839 0.322003 4.000000
-0.290288 0.356914 0.296343 4.000000
-0.290288 -0.403618 -0.291793 4.000000
-0.290288 -0.014070 0.445819 4.000000
-0.290288 -0.157959 0.436811 4.000000
-0.290288 -0.453782 -0.014476 4.000000
-0.290288 -0.487539 0.073155 4.000000
-0.290288 0.443954 0.049497 4.000000
-0.290288 -0.383360 -0.295014 4.000000
-0.290288 -0.437840 0.108859 4.000000
-0.290288 -0.191148 0.428150 4.000000
-0.290288 0.311038 0.366820 4.000000
-0.290288 -0.452621 -0.028248 4.000000
-0.290288 -0.453204 -0.001152 4.000000
-0.290288 -0.330262 0.352025 4.000000
-0.290288 0.046436 -0.486463 4.000000
-0.290288 0.074930 0.471056 4.000000
-0.290288 0.395532 0.272056 4.000000
-0.290288 -0.458192 -0.138579 4.000000
-0.290288 0.076986 -0.485508 4.000000
-0.290288 -0.194376 0.437325 4.000000
-0.290288 -0.333931 0.352466 4.000000
-0.290288 -0.479336 0.066738 4.000000
-0.290288 -0.208883 0.392066 4.000000
-0.290288 -0.438651 -0.214614 4.000000
-0.290288 -0.440629 -0.227910 4.000000
-0.290288 -0.399686 -0.198336 4.000000
-0.290288 0.444301 0.194488 4.000000
-0.290288 0.485839 0.018630 4.000000
-0.290288 0.321114 -0.342063 4.000000
-0.290288 -0.187259 0.432525 4.000000
-0.290288 -0.451415 -0.053665 4.000000
-0.290288 0.047008 0.449800 4.000000
-0.290288 0.382733 0.262685 4.000000
-0.290288 0.279562 -0.374617 4.000000
-0.290288 -0.275598 -0.396778 4.000000
-0.290288 -0.257000 0.417015 4.000000
-0.290288 -0.351130 -0.278643 4.000000
-0.290288 0.414690 0.221943 4.000000
-0.290288 0.423055 -0.203290 4.000000
-0.290288 -0.012588 -0.465101 4.000000
-0.290288 0.206202 -0.450791 4.000000
-0.290288 0.236664 -0.389322 4.000000
-0.290288 -0.470520 -0.102312 4.000000
-0.290288 0.007061 0.473729 4.000000
-0.290288 -0.319076 0.369327 4.000000
-0.290288 -0.388616 0.215773 4.000000
-0.290288 0.460011 -0.059936 4.000000
-0.290288 0.343685 0.303713 4.000000
-0.290288 0.045171 0.488742 4.000000
-0.290288 -0.193510 -0.460521 4.000000
-0.290288 -0.460636 -0.040442 4.000000
-0.290288 -0.175369 0.451259 4.000000
-0.290288 0.133060 0.431048 4.000000
-0.290288 0.471326 0.009975 4.000000
-0.290288 -0.489419 -0.002531 4.000000
-0.290288 -0.493075 -0.031101 4.000000
-0.290288 0.196582 0.408569 4.000000
-0.290288 0.448313 -0.089458 4.000000
-0.290288 -0.283809 0.340877 4.000000
-0.290288 -0.463260 -0.140702 4.000000
-0.290288 -0.416623 -0.212449 4.000000
-0.290288 -0.332383 -0.297945 4.000000
-0.290288 -0.118989 0.452375 4.000000
-0.290288 -0.148419 -0.445971 4.000000
-0.290288 0.433090 -0.155916 4.000000
-0.290288 -0.430302 -0.224887 4.000000
-0.290288 -0.350288 -0.283553 4.000000
-0.290288 -0.173475 0.419367 4.000000
-0.290288 -0.236480 0.407379 4.000000
-0.290288 0.034347 0.455582 4.000000
-0.290288 0.259091 0.375170 4.000000
-0.290288 0.431207 -0.241963 4.000000
-0.290288 -0.344721 0.327326 4.000000
-0.290288 0.154221 0.430010 4.000000
-0.290288 -0.077509 -0.479059 4.000000
-0.290288 0.445408 0.071383 4.000000
-0.290288 -0.490778 -0.075041 4.000000
-0.290288 0.303510 -0.343416 4.000000
-0.290288 -0.281049 0.391333 4.000000
-0.290288 0.274844 -0.361971 4.000000
-0.290288 0.424640 -0.153013 4.000000
-0.290288 -0.381540 -0.267378 4.000000
-0.290288 -0.319301 0.319983 4.000000
-0.290288 0.371043 -0.289742 4.000000
-0.290288 -0.280675 -0.382643 4.000000
-0.290288 -0.447991 -0.198459 4.000000
-0.290288 -0.047473 0.481577 4.000000
-0.290288 -0.453711 -0.024478 4.000000
-0.290288 0.275505 0.353493 4.000000
-0.290288 0.432502 -0.178056 4.000000
-0.290288 -0.199221 -0.408860 4.000000
-0.290288 0.299854 0.382816 4.000000
-0.290288 0.363835 -0.318429 4.000000
-0.290288 0.035739 -0.463332 4.000000
-0.290288 -0.461344 -0.012869 4.000000
-0.290288 -0.212699 0.396402 4.000000
-0.290288 0.451243 0.155097 4.000000
-0.290288 -0.367176 -0.285023 4.000000
-0.290288 -0.253517 0.407827 4.000000
-0.290288 0.080473 -0.453549 4.000000
-0.290288 -0.124104 0.451016 4.000000
-0.290288 0.051250 -0.454485 4.000000
-0.290288 0.006032 0.463473 4.000000
-0.290288 -0.018582 0.451308 4.000000
-0.290288 0.428536 -0.164552 4.000000
-0.290288 -0.113486 -0.437936 4.000000
-0.290288 -0.404955 -0.232849 4.000000
-0.290288 0.231293 -0.436233 4.000000
-0.290288 -0.250717 -0.400139 4.000000
-0.290288 -0.461723 -0.068297 4.000000
-0.290288 -0.352256 -0.338197 4.000000
-0.290288 0.266970 0.391242 4.000000
-0.290288 -0.390962 -0.268022 4.000000
-0.290288 0.325841 0.368678 4.000000
-0.290288 -0.452965 0.102793 4.000000
-0.290288 0.316224 0.358304 4.000000
-0.290288 0.452484 0.093295 4.000000
-0.290288 -0.496811 0.022055 4.000000
-0.290288 -0.288619 -0.387800 4.000000
-0.290288 -0.367933 0.264522 4.000000
-0.290288 0.179570 0.406334 4.000000
-0.290288 0.169100 -0.443442 4.000000
-0.290288 0.259014 -0.419460 4.000000
-0.290288 -0.271313 0.412903 4.000000
-0.290288 0.444096 -0.214929 4.000000
-0.290288 0.019227 0.490375 4.000000
-0.290288 -0.416692 -0.216986 4.000000
-0.290288 -0.273380 0.357987 4.000000
-0.290288 -0.352023 0.291809 4.000000
-0.290288 -0.447317 0.153427 4.000000
-0.290288 -0.379919 -0.243834 4.000000
-0.290288 0.021541 0.494506 4.000000
-0.290288 0.465679 -0.150268 4.000000
-0.290288 -0.363553 0.325311 4.000000
-0.290288 -0.327314 0.350336 4.000000
-0.290288 0.437728 -0.088076 4.000000
-0.290288 -0.445984 -0.085997 4.000000
-0.290288 0.308475 0.369563 4.000000
-0.290288 0.340400 0.311390 4.000000
-0.290288 -0.440265 0.065450 4.000000
-0.290288 -0.363184 0.293455 4.000000
-0.290288 0.360246 -0.265222 4.000000
-0.290288 0.395210 -0.253429 4.000000
-0.290288 0.423424 0.138285 4.000000
-0.290288 0.256723 -0.401823 4.000000
-0.290288 -0.455403 -0.197867 4.000000
-0.290288 0.425213 -0.156789 4.000000
-0.290288 -0.401040 0.264953 4.000000
-0.290288 -0.169060 0.425856 4.000000
-0.290288 -0.411247 -0.270756 4.000000
-0.290288 0.062975 -0.475958 4.000000
-0.290288 -0.299914 -0.353335 4.000000
-0.290288 0.268497 -0.402255 4.000000
-0.290288 0.247089 -0.397515 4.000000
-0.290288 -0.056220 -0.451631 4.000000
-0.290288 0.471252 -0.016187 4.000000
-0.290288 -0.373229 -0.308981 4.000000
-0.290288 -0.199565 -0.400204 4.000000
-0.290288 -0.285661 -0.344950 4.000000
-0.290288 0.077415 -0.453167 4.000000
-0.290288 0.462576 -0.006427 4.000000
-0.290288 0.397093 0.293354 4.000000
-0.290288 0.430990 -0.218694 4.000000
-0.290288 0.301902 0.366389 4.000000
-0.290288 0.111447 -0.471330 4.000000
-0.290288 -0.464003 -0.103401 4.000000
-0.290288 -0.336860 0.354630 4.000000
-0.290288 -0.463921 -0.086958 4.000000
-0.290288 0.491586 0.049596 4.000000
-0.290288 -0.379859 0.268364 4.000000
-0.290288 0.352656 -0.302539 4.000000
-0.290288 -0.093641 -0.463746 4.000000
-0.290288 -0.412476 0.168724 4.000000
-0.290288 -0.380503 -0.308295 4.000000
-0.290288 -0.383537 0.243485 4.000000
-0.290288 -0.478540 0.061157 4.000000
-0.290288 0.442234 -0.083305 4.000000
-0.290288 -0.384761 -0.317250 4.000000
-0.290288 -0.426501 0.174412 4.000000
-0.290288 -0.247654 0.398681 4.000000
-0.290288 0.187910 -0.453349 4.000000
-0.290288 -0.087887 -0.440401 4.000000
-0.290288 0.401111 -0.236912 4.000000
-0.290288 0.261080 -0.381891 4.000000
-0.290288 -0.373430 0.288639 4.000000
-0.290288 0.466178 -0.083379 4.000000
-0.290288 -0.398839 0.282925 4.000000
-0.290288 -0.278513 -0.360681 4.000000
-0.290288 -0.277141 0.345981 4.000000
-0.290288 -0.251638 0.385777 4.000000
-0.290288 -0.457181 -0.025548 4.000000
-0.290288 -0.164147 0.435406 4.000000
-0.290288 -0.432564 0.124595 4.000000
-0.290288 -0.446349 0.191702 4.000000
-0.290288 0.447962 -0.127987 4.000000
-0.290288 -0.199022 -0.451668 4.000000
-0.290288 -0.329201 -0.337573 4.000000
-0.290288 -0.435918 -0.105765 4.000000
-0.290288 -0.349455 -0.324263 4.000000
-0.290288 0.445925 -0.191862 4.000000
-0.290288 0.299009 0.359168 4.000000
-0.290288 0.026141 -0.457556 4.000000
-0.290288 0.385030 0.280544 4.000000
-0.290288 -0.258606 -0.411466 4.000000
-0.290288 0.317028 -0.369293 4.000000
-0.290288 -0.407046 -0.191800 4.000000
-0.290288 0.402623 0.191875 4.000000
-0.290288 0.471709 0.090497 4.000000
-0.290288 -0.378159 0.286677 4.000000
-0.290288 -0.235145 -0.410242 4.000000
-0.290288 0.316936 0.382186 4.000000
-0.290288 0.479464 0.098892 4.000000
-0.290288 -0.055956 0.465812 4.000000
-0.290288 -0.279060 -0.379369 4.000000
-0.290288 0.444033 -0.162286 4.000000
-0.290288 0.076635 0.440353 4.000000
-0.290288 -0.348091 0.326632 4.000000
-0.290288 0.452420 -0.154712 4.000000
-0.290288 0.117213 0.453531 4.000000
-0.290288 0.491929 0.021126 4.000000
-0.290288 -0.404318 0.207582 4.000000
-0.290288 -0.225956 -0.390252 4.000000
-0.290288 0.462055 -0.027002 4.000000
-0.290288 -0.129971 0.448652 4.000000
-0.290288 0.345352 0.284699 4.000000
-0.290288 0.181796 -0.410885 4.000000
-0.290288 -0.346274 -0.283495 4.000000
-0.290288 0.132753 0.437960 4.000000
-0.290288 -0.420978 0.156674 4.000000
-0.290288 0.410308 0.264500 4.000000
-0.290288 -0.377964 -0.253782 4.000000
-0.290288 -0.124379 0.442580 4.000000
-0.290288 0.212431 0.436523 4.000000
-0.290288 -0.028292 -0.465564 4.000000
-0.290288 -0.456080 0.150781 4.000000
-0.290288 0.164028 -0.452396 4.000000
-0.290288 -0.073477 0.475545 4.000000
-0.290288 0.385768 -0.266049 4.000000
-0.290288 0.378008 0.296458 4.000000
-0.290288 0.186211 0.447144 4.000000
-0.290288 0.493365 -0.040946 4.000000
-0.290288 0.427422 0.138741 4.000000
-0.290288 -0.126670 -0.464153 4.000000
-0.290288 -0.384467 -0.305210 4.000000
-0.290288 -0.091698 0.459781 4.000000
-0.290288 -0.021098 0.474311 4.000000
-0.290288 0.004778 0.480807 4.000000
-0.290288 0.161371 0.464577 4.000000
-0.290288 -0.291528 -0.362531 4.000000
-0.290288 0.333311 -0.335187 4.000000
-0.290288 -0.444964 0.170796 4.000000
-0.290288 -0.467459 0.115615 4.000000
-0.290288 -0.419821 -0.178531 4.000000
-0.290288 0.447999 -0.179004 4.000000
-0.290288 -0.369129 -0.303760 4.000000
-0.290288 -0.139942 -0.475229 4.000000
-0.290288 -0.283289 -0.356178 4.000000
-0.290288 0.424255 0.249398 4.000000
-0.290288 0.389500 -0.311498 4.000000
-0.290288 0.369355 0.315696 4.000000
-0.290288 -0.457906 -0.051099 4.000000
-0.290288 0.397791 0.289784 4.000000
-0.290288 -0.061680 -0.476277 4.000000
-0.290288 0.010996 -0.461558 4.000000
-0.290288 -0.385922 0.278169 4.000000
-0.290288 0.452332 -0.163281 4.000000
-0.290288 -0.415930 -0.186722 4.000000
-0.290288 0.452739 0.199558 4.000000
-0.290288 -0.424150 0.133748 4.000000
-0.290288 0.442368 0.179631 4.000000
-0.290288 0.012902 0.450060 4.000000
-0.290288 0.225450 0.441456 4.000000
-0.290288 -0.036712 -0.450651 4.000000
-0.290288 0.447945 0.183235 4.000000
-0.290288 0.430423 -0.222998 4.000000
-0.290288 -0.343341 0.349807 4.000000
-0.290288 -0.442774 -0.150093 4.000000
-0.290288 0.432780 0.124493 4.000000
-0.290288 -0.463387 -0.027766 4.000000
-0.290288 0.250168 0.381035 4.000000
-0.290288 -0.402997 -0.264212 4.000000
-0.290288 0.200132 0.421181 4.000000
-0.290288 0.103617 -0.441567 4.000000
-0.290288 -0.451559 -0.158798 4.000000
-0.290288 -0.217554 0.427764 4.000000
-0.290288 0.074879 -0.481915 4.000000
-0.290288 0.264934 -0.394978 4.000000
-0.290288 0.251932 -0.373824 4.000000
-0.290288 0.332172 -0.364471 4.000000
-0.290288 0.432133 -0.201654 4.000000
-0.290288 -0.051923 -0.467808 4.000000
-0.290288 0.407786 -0.261075 4.000000
-0.290288 -0.322413 0.320256 4.000000
-0.290288 0.381067 0.307814 4.000000
-0.290288 -0.465046 0.146375 4.000000
-0.290288 0.351983 0.295518 4.000000
-0.290288 -0.336565 -0.327533 4.000000
-0.290288 -0.451066 0.068494 4.000000
-0.290288 0.325289 -0.341788 4.000000
-0.290288 0.203468 0.407730 4.000000
-0.290288 0.427108 0.125676 4.000000
-0.290288 -0.374032 -0.259059 4.000000
-0.290288 0.391561 -0.233464 4.000000
-0.290288 -0.124765 0.435216 4.000000
-0.290288 0.368574 0.249404 4.000000
-0.290288 0.292735 -0.354260 4.000000
-0.290288 0.201820 0.411040 4.000000
-0.290288 -0.026789 -0.491803 4.000000
-0.290288 0.008193 0.443443 4.000000
-0.290288 -0.300116 -0.364232 4.000000
-0.290288 -0.345617 -0.301175 4.000000
-0.290288 -0.004713 -0.448431 4.000000
-0.290288 0.055377 -0.467627 4.000000
-0.290288 0.462073 -0.072229 4.000000
-0.290288 0.160237 0.443277 4.000000
-0.290288 -0.153836 0.458824 4.000000
-0.290288 0.440493 -0.196185 4.000000
-0.290288 -0.360014 0.328591 4.000000
-0.290288 -0.343529 0.341964 4.000000
-0.290288 -0.172126 0.439972 4.000000
-0.290288 0.293140 0.390409 4.000000
-0.290288 -0.168678 -0.421815 4.000000
-0.290288 -0.282426 0.345352 4.000000
-0.290288 -0.396243 0.234209 4.000000
-0.290288 0.000951 -0.473086 4.000000
-0.290288 0.383060 0.258290 4.000000
-0.290288 0.080341 0.484974 4.000000
-0.290288 0.404351 -0.192894 4.000000
-0.290288 0.460356 -0.111792 4.000000
-0.290288 0.374217 -0.306795 4.000000
-0.290288 -0.490810 0.048836 4.000000
-0.290288 -0.113330 -0.478096 4.000000
-0.290288 0.451944 0.127455 4.000000
-0.290288 -0.095639 -0.478423 4.000000
-0.290288 -0.418716 0.212395 4.000000
-0.290288 -0.379289 -0.300031 4.000000
-0.290288 -0.086885 -0.459690 4.000000
-0.290288 -0.369647 -0.251241 4.000000
-0.290288 -0.331109 0.362653 4.000000
-0.290288 0.308397 -0.391248 4.000000
-0.290288 -0.158454 0.417435 4.000000
-0.290288 0.416569 -0.255129 4.000000
-0.290288 -0.421373 0.251698 4.000000
-0.290288 0.428332 0.207360 4.000000
-0.290288 -0.231243 0.422167 4.000000
-0.290288 -0.064876 0.467701 4.000000
-0.290288 -0.446063 0.113604 4.000000
-0.290288 -0.065335 -0.493826 4.000000
-0.290288 -0.320438 -0.331684 4.000000
-0.290288 -0.461742 0.118600 4.000000
-0.290288 -0.087421 -0.455398 4.000000
-0.290288 -0.459621 -0.072677 4.000000
-0.290288 0.400760 -0.289088 4.000000
-0.290288 -0.016704 0.477551 4.000000
-0.290288 0.214119 -0.417842 4.000000
-0.290288 -0.260438 -0.368945 4.000000
-0.290288 -0.260974 -0.425021 4.000000
-0.290288 -0.363357 0.274399 4.000000
-0.290288 -0.246862 0.404429 4.000000
-0.290288 0.441469 -0.117658 4.000000
-0.290288 0.458746 0.058385 4.000000
-0.290288 -0.265824 0.415846 4.000000
-0.290288 -0.322777 0.344121 4.000000
-0.290288 0.037370 -0.460343 4.000000
-0.290288 -0.081210 0.455785 4.000000
-0.290288 -0.473340 -0.075809 4.000000
-0.290288 0.081969 0.456056 4.000000
-0.290288 -0.461738 0.008248 4.000000
-0.290288 0.441623 0.172736 4.000000
-0.290288 0.026680 0.472581 4.000000
-0.290288 0.465399 0.124992 4.000000
-0.290288 0.485472 -0.004284 4.000000
-0.290288 0.098013 -0.478087 4.000000
-0.290288 0.422836 0.241632 4.000000
-0.290288 -0.489211 0.052933 4.000000
-0.290288 0.474256 -0.088700 4.000000
-0.290288 -0.045701 0.469601 4.000000
-0.290288 0.228027 -0.430681 4.000000
-0.290288 -0.391554 -0.250312 4.000000
-0.290288 0.125316 -0.453862 4.000000
-0.290288 0.218446 0.440360 4.000000
-0.290288 0.492683 -0.063191 4.000000
-0.290288 0.456256 0.165796 4.000000
-0.290288 0.037846 0.490569 4.000000
-0.290288 0.317318 0.364314 4.000000
-0.290288 0.367344 -0.300248 4.000000
-0.290288 0.216541 -0.392007 4.000000
-0.290288 -0.161852 -0.429408 4.000000
-0.290288 -0.144450 -0.461792 4.000000
-0.290288 0.427987 -0.243514 4.000000
-0.290288 -0.006889 -0.456240 4.000000
-0.290288 -0.053510 -0.459200 4.000000
-0.290288 0.271284 -0.394132 4.000000
-0.290288 0.279122 -0.387885 4.000000
-0.290288 -0.187297 0.403869 4.000000
-0.290288 0.131413 -0.446131 4.000000
-0.290288 -0.309686 0.353917 4.000000
-0.290288 -0.206240 0.417506 4.000000
-0.290288 0.467516 -0.136504 4.000000
-0.290288 0.449291 -0.007267 4.000000
-0.290288 -0.199299 -0.412702 4.000000
-0.290288 0.144714 0.427783 4.000000
-0.290288 -0.274930 0.399210 4.000000
-0.290288 0.414481 -0.264053 4.000000
-0.290288 0.057376 0.468657 4.000000
-0.290288 0.288245 -0.342183 4.000000
-0.290288 0.464544 -0.043079 4.000000
-0.290288 0.041962 -0.495043 4.000000
-0.290288 0.067071 -0.484945 4.000000
-0.290288 -0.157297 0.414284 4.000000
-0.290288 0.345032 -0.340510 4.000000
-0.290288 0.236236 0.421118 4.000000
-0.290288 0.366963 -0.330944 4.000000
-0.290288 -0.397426 -0.270292 4.000000
-0.290288 0.372707 -0.282340 4.000000
-0.290288 -0.467622 0.074543 4.000000
-0.290288 -0.414526 0.210042 4.000000
-0.290288 -0.363461 0.289965 4.000000
-0.290288 -0.220132 0.395559 4.000000
-0.290288 -0.095676 0.452002 4.000000
-0.290288 0.384401 -0.297284 4.000000
-0.290288 0.430328 0.232432 4.000000
-0.290288 0.419072 -0.183129 4.000000
-0.290288 0.392100 0.258899 4.000000
-0.290288 0.347682 0.339060 4.000000
-0.290288 -0.311765 -0.367396 4.000000
-0.290288 -0.478748 0.050898 4.000000
-0.290288 0.422092 0.174441 4.000000
-0.290288 -0.392798 -0.265110 4.000000
-0.290288 0.147993 -0.440135 4.000000
-0.290288 -0.102022 0.455817 4.000000
-0.290288 0.456975 -0.065745 4.000000
-0.290288 0.469285 -0.012434 4.000000
-0.290288 0.006304 0.477444 4.000000
-0.290288 -0.456735 -0.013527 4.000000
-0.290288 -0.267756 0.384098 4.000000
-0.290288 -0.476075 0.029591 4.000000
-0.290288 0.471527 -0.138106 4.000000
-0.290288 0.306826 -0.370201 4.000000
-0.290288 -0.436576 -0.191916 4.000000
-0.290288 0.151643 0.439880 4.000000
-0.290288 0.101517 -0.471874 4.000000
-0.290288 -0.427431 -0.154863 4.000000
-0.290288 0.373461 0.324995 4.000000
-0.290288 -0.040454 -0.462046 4.000000
-0.290288 -0.299626 0.354346 4.000000
-0.290288 -0.458623 0.141193 4.000000
-0.290288 0.416493 -0.228212 4.000000
-0.290288 -0.330859 -0.333332 4.000000
-0.290288 -0.462435 -0.185563 4.000000
-0.290288 0.288399 0.379548 4.000000
-0.290288 0.463017 0.066911 4.000000
-0.290288 -0.423051 -0.201188 4.000000
-0.290288 0.339865 0.298529 4.000000
-0.290288 0.476856 0.142405 4.000000
-0.290288 0.467588 0.008562 4.000000
-0.290288 -0.066061 -0.452217 4.000000
-0.290288 -0.305541 -0.385222 4.000000
-0.290288 0.081638 -0.468118 4.000000
-0.290288 -0.461477 0.115001 4.000000
-0.290288 -0.065461 -0.448782 4.000000
-0.290288 -0.136115 0.430067 4.000000
-0.290288 -0.484609 -0.110346 4.000000
-0.290288 -0.437503 0.162943 4.000000
-0.290288 -0.365440 -0.256360 4.000000
-0.290288 -0.259457 -0.400740 4.000000
-0.290288 0.137348 0.457886 4.000000
-0.290288 0.374148 -0.294087 4.000000
-0.290288 0.375340 0.239147 4.000000
-0.290288 0.484937 -0.037208 4.000000
-0.290288 -0.447274 -0.063693 4.000000
-0.290288 0.147238 -0.458985 4.000000
-0.290288 -0.215474 0.414587 4.000000
-0.290288 0.397776 -0.237680 4.000000
-0.290288 0.471589 -0.029632 4.000000
-0.290288 -0.318291 0.338659 4.000000
-0.290288 0.448979 0.211964 4.000000
-0.290288 0.443636 0.045177 4.000000
-0.290288 -0.101012 0.479868 4.000000
-0.290288 -0.242041 0.412902 4.000000
-0.290288 -0.310112 -0.333904 4.000000
-0.290288 0.366800 -0.315653 4.000000
-0.290288 0.439609 -0.121212 4.000000
-0.290288 0.464511 -0.099492 4.000000
-0.290288 -0.107751 -0.440103 4.000000
-0.290288 0.040574 -0.480495 4.000000
-0.290288 -0.236294 -0.401369 4.000000
-0.290288 -0.416017 -0.228640 4.000000
-0.290288 -0.438816 -0.148053 4.000000
-0.290288 -0.456415 0.011824 4.000000
-0.290288 0.224934 -0.403256 4.000000
-0.290288 -0.347977 -0.286901 4.000000
-0.290288 -0.321922 0.366264 4.000000
-0.290288 0.337027 -0.318901 4.000000
-0.290288 -0.410047 -0.216317 4.000000
-0.290288 0.091922 -0.459897 4.000000
-0.290288 -0.228561 0.411826 4.000000
-0.290288 0.293616 0.383683 4.000000
-0.290288 0.453755 -0.004080 4.000000
-0.290288 0.387841 -0.247494 4.000000
-0.290288 -0.171304 0.429124 4.000000
-0.290288 0.419813 -0.212002 4.000000
-0.290288 0.268626 -0.382046 4.000000
-0.290288 0.384723 -0.253465 4.000000
-0.290288 -0.451718 0.178699 4.000000
-0.290288 -0.080219 -0.476972 4.000000
-0.290288 -0.348602 -0.354096 4.000000
-0.290288 0.452080 -0.072268 4.000000
-0.290288 -0.202596 -0.410445 4.000000
-0.290288 0.239592 0.397762 4.000000
-0.290288 0.003041 0.492699 4.000000
-0.290288 -0.475737 0.081475 4.000000
-0.290288 -0.105981 0.441537 4.000000
-0.290288 0.481532 0.061327 4.000000
-0.290288 0.125762 0.435255 4.000000
-0.290288 0.423799 0.191122 4.000000
-0.290288 0.309209 0.341879 4.000000
-0.290288 -0.203078 0.394892 4.000000
-0.290288 0.272847 0.366241 4.000000
-0.290288 0.084155 -0.486514 4.000000
-0.290288 -0.461727 0.162559 4.000000
-0.290288 -0.178610 0.444686 4.000000
-0.290288 -0.414238 -0.269678 4.000000
-0.290288 0.133389 -0.475729 4.000000
-0.290288 -0.441383 0.190659 4.000000
-0.290288 -0.032921 0.469706 4.000000
-0.290288 0.455074 0.191818 4.000000
-0.290288 -0.189237 0.439987 4.000000
-0.290288 0.165228 -0.458725 4.000000
-0.290288 -0.289617 -0.392057 4.000000
-0.290288 0.224065 0.417008 4.000000
-0.290288 -0.282010 -0.346754 4.000000
-0.290288 -0.089129 0.468725 4.000000
-0.290288 -0.180049 -0.429002 4.000000
-0.290288 0.360636 0.289798 4.000000
-0.290288 -0.323540 -0.316097 4.000000
-0.290288 -0.357221 0.284016 4.000000
-0.290288 -0.448970 0.138285 4.000000
-0.290288 -0.157265 0.420954 4.000000
-0.290288 -0.346885 -0.294626 4.000000
-0.290288 0.445435 0.090278 4.000000
-0.290288 0.453482 -0.083249 4.000000
-0.290288 0.207015 -0.412129 4.000000
-0.290288 -0.269288 0.370909 4.000000
-0.290288 0.313158 0.382842 4.000000
-0.290288 -0.454971 0.134664 4.000000
-0.290288 -0.119348 0.430349 4.000000
-0.290288 -0.480855 -0.082292 4.000000
-0.290288 0.090593 0.483531 4.000000
-0.290288 0.474120 0.096215 4.000000
-0.290288 -0.132257 0.459721 4.000000
-0.290288 -0.396076 -0.263002 4.000000
-0.290288 0.215774 0.438335 4.000000
-0.290288 -0.342025 0.291878 4.000000
-0.290288 0.117514 0.465450 4.000000
-0.290288 -0.342868 -0.323023 4.000000
-0.290288 -0.226953 -0.394371 4.000000
-0.290288 -0.340097 0.328161 4.000000
-0.290288 0.315931 -0.326316 4.000000
-0.290288 0.463329 -0.079427 4.000000
-0.290288 0.320765 -0.380181 4.000000
-0.290288 -0.251028 0.380990 4.000000
-0.290288 -0.380636 0.257678 4.000000
-0.290288 0.118122 0.434735 4.000000
-0.290288 -0.249822 0.407700 4.000000
-0.290288 -0.352723 -0.299888 4.000000
-0.290288 0.187211 0.450646 4.000000
-0.290288 0.004401 0.454405 4.000000
-0.290288 0.453247 -0.167571 4.000000
-0.290288 -0.400737 -0.222338 4.000000
-0.290288 -0.258154 0.407384 4.000000
-0.290288 0.452490 0.143581 4.000000
-0.290288 0.397892 -0.205154 4.000000
-0.290288 0.449738 0.095165 4.000000
-0.290288 -0.394988 -0.297976 4.000000
-0.290288 -0.127931 -0.473945 4.000000
-0.290288 -0.443043 0.119503 4.000000
-0.290288 -0.128164 -0.460626 4.000000
-0.290288 -0.483843 -0.055098 4.000000
-0.290288 -0.284818 0.347756 4.000000
-0.290288 -0.310962 -0.382144 4.000000
-0.290288 0.239095 0.388761 4.000000
-0.290288 -0.342671 0.285090 4.000000
-0.290288 -0.092409 0.466474 4.000000
-0.290288 -0.370243 0.301021 4.000000
-0.290288 0.253100 0.385497 4.000000
-0.290288 -0.300659 0.378300 4.000000
-0.290288 -0.200030 -0.416367 4.000000
-0.290288 -0.457791 0.154884 4.000000
-0.290288 -0.371750 -0.270246 4.000000
-0.290288 -0.157757 -0.466711 4.000000
-0.290288 0.494403 -0.033899 4.000000
-0.290288 0.454129 0.043613 4.000000
-0.290288 0.479771 -0.096443 4.000000
-0.290288 0.237402 0.404398 4.000000
-0.290288 0.469033 -0.127708 4.000000
-0.290288 0.218042 -0.431021 4.000000
-0.290288 0.411261 0.169802 4.000000
-0.290288 -0.467018 -0.018127 4.000000
-0.290288 0.197187 -0.456571 4.000000
-0.290288 0.153051 0.471668 4.000000
-0.290288 -0.021420 -0.471041 4.000000
-0.290288 0.265715 -0.383574 4.000000
-0.290288 -0.376682 -0.249768 4.000000
-0.290288 0.109187 -0.462650 4.000000
-0.290288 -0.492102 -0.071301 4.000000
-0.290288 -0.176081 0.406898 4.000000
-0.290288 0.464133 -0.137865 4.000000
-0.290288 0.050620 0.478866 4.000000
-0.290288 0.243449 0.404987 4.000000
-0.290288 -0.226950 -0.431363 4.000000
-0.290288 0.406071 -0.204061 4.000000
-0.290288 0.432351 0.228722 4.000000
-0.290288 0.481025 -0.031964 4.000000
-0.290288 -0.070611 -0.445234 4.000000
-0.290288 -0.453562 0.153774 4.000000
-0.290288 -0.352757 -0.318654 4.000000
-0.290288 0.308154 -0.350676 4.000000
-0.290288 -0.007987 0.448776 4.000000
-0.290288 -0.462481 -0.108822 4.000000
-0.290288 -0.475593 -0.072480 4.000000
-0.290288 -0.058109 -0.477376 4.000000
-0.290288 -0.199260 0.429496 4.000000
-0.290288 -0.024285 0.476085 4.000000
-0.290288 0.468194 0.096839 4.000000
-0.290288 -0.416438 -0.190383 4.000000
-0.290288 -0.147270 -0.469214 4.000000
-0.290288 0.419495 -0.259488 4.000000
-0.290288 -0.192245 -0.414152 4.000000
-0.290288 -0.428814 0.207262 4.000000
-0.290288 -0.051637 -0.451197 4.000000
-0.290288 0.118573 0.481018 4.000000
-0.290288 0.425320 0.133294 4.000000
-0.290288 0.411154 -0.263237 4.000000
-0.290288 0.470818 0.037613 4.000000
-0.290288 -0.009524 0.464763 4.000000
-0.290288 0.263435 0.419948 4.000000
-0.290288 0.445767 -0.020734 4.000000
-0.290288 -0.274927 -0.375745 4.000000
-0.290288 0.048734 0.443932 4.000000
-0.290288 0.045194 0.479974 4.000000
-0.290288 0.426342 0.239467 4.000000
-0.290288 -0.484937 0.081333 4.000000
-0.290288 -0.438982 -0.123601 4.000000
-0.290288 -0.401032 -0.225718 4.000000
-0.290288 0.314483 -0.371470 4.000000
-0.290288 0.411027 -0.174846 4.000000
-0.290288 0.369227 0.312598 4.000000
-0.290288 0.061004 0.449293 4.000000
-0.290288 -0.205865 0.413890 4.000000
-0.290288 -0.326355 -0.365039 4.000000
-0.290288 -0.085964 0.485172 4.000000
-0.290288 -0.412273 -0.207651 4.000000
-0.290288 -0.307310 -0.343263 4.000000
-0.290288 0.241855 0.391138 4.000000
-0.290288 -0.115624 0.442473 4.000000
-0.290288 0.449939 -0.165673 4.000000
-0.290288 0.297132 -0.370878 4.000000
-0.290288 0.262576 -0.420902 4.000000
-0.290288 -0.390970 -0.217741 4.000000
-0.290288 -0.483046 -0.098320 4.000000
-0.290288 0.324440 0.306720 4.000000
-0.290288 0.024445 -0.485130 4.000000
-0.290288 -0.021067 -0.475802 4.000000
-0.290288 0.043266 0.483570 4.000000
-0.290288 -0.443029 0.223872 4.000000
-0.290288 0.319821 -0.376406 4.000000
-0.290288 -0.432605 0.121464 4.000000
-0.290288 0.432835 -0.249390 4.000000
-0.290288 0.220607 -0.434323 4.000000
-0.290288 0.478459 0.135658 4.000000
-0.290288 0.436864 -0.161031 4.000000
-0.290288 -0.325499 -0.344389 4.000000
-0.290288 -0.026819 -0.456147 4.000000
-0.290288 0.123947 0.464383 4.000000
-0.290288 -0.322682 0.304867 4.000000
-0.290288 0.241038 0.416849 4.000000
-0.290288 -0.434846 0.183667 4.000000
-0.290288 0.192649 -0.405293 4.000000
-0.290288 0.196113 0.413293 4.000000
-0.290288 0.491316 -0.082589 4.000000
-0.290288 0.452296 0.187679 4.000000
-0.290288 0.386612 -0.302932 4.000000
-0.290288 0.400753 -0.285917 4.000000
-0.290288 0.080184 0.463702 4.000000
-0.290288 -0.270151 0.380444 4.000000
-0.290288 0.436363 0.156760 4.000000
-0.290288 0.243231 0.412962 4.000000
-0.290288 -0.135222 0.467740 4.000000
-0.290288 0.277664 0.361026 4.000000
-0.290288 -0.121501 0.476197 4.000000
-0.290288 -0.439029 -0.118000 4.000000
-0.290288 -0.455695 -0.055732 4.000000
-0.290288 0.019099 -0.490402 4.000000
-0.290288 0.078660 0.478763 4.000000
-0.290288 0.279458 -0.396518 4.000000
-0.290288 -0.440409 -0.217299 4.000000
-0.290288 0.231773 0.396156 4.000000
-0.290288 -0.226031 -0.425458 4.000000
-0.290288 0.158259 -0.436065 4.000000
-0.290288 0.471329 0.147617 4.000000
-0.290288 0.194433 0.401093 4.000000
-0.290288 0.121190 -0.481850 4.000000
-0.290288 -0.098380 0.471704 4.000000
-0.290288 -0.078383 0.439747 4.000000
-0.290288 0.061382 0.485114 4.000000
-0.290288 0.376019 0.257802 4.000000
-0.290288 -0.276495 0.364652 4.000000
-0.290288 -0.239913 -0.392548 4.000000
-0.290288 -0.160219 0.423201 4.000000
-0.290288 -0.491579 0.040730 4.000000
-0.290288 -0.424199 0.168917 4.000000
-0.290288 -0.442698 -0.102389 4.000000
-0.290288 0.191007 -0.457734 4.000000
-0.290288 -0.436490 -0.111987 4.000000
-0.290288 0.440960 -0.210506 4.000000
-0.290288 0.075502 0.478480 4.000000
-0.290288 -0.190022 -0.449332 4.000000
-0.290288 0.467498 0.121257 4.000000
-0.290288 -0.202758 -0.444026 4.000000
-0.290288 0.256271 -0.381097 4.000000
-0.290288 0.378636 -0.253789 4.000000
-0.290288 -0.409864 0.204841 4.000000
-0.290288 -0.491155 0.073577 4.000000
-0.290288 -0.164993 0.443091 4.000000
-0.290288 0.433409 0.118370 4.000000
-0.290288 0.319785 0.345945 4.000000
-0.290288 0.444426 -0.100822 4.000000
-0.290288 0.014147 -0.474172 4.000000
-0.290288 -0.325848 0.358236 4.000000
-0.290288 -0.477040 -0.099259 4.000000
-0.290288 0.458473 -0.165059 4.000000
-0.290288 0.388908 0.217243 4.000000
-0.290288 -0.403305 -0.214207 4.000000
-0.290288 -0.291991 0.396062 4.000000
-0.290288 0.211087 0.414109 4.000000
-0.290288 0.005722 0.486658 4.000000
-0.290288 -0.456067 0.086896 4.000000
-0.290288 0.130303 0.458976 4.000000
-0.290288 0.447941 -0.157728 4.000000
-0.290288 0.450036 -0.138753 4.000000
-0.290288 -0.449292 0.031738 4.000000
-0.290288 -0.078725 0.477548 4.000000
-0.290288 0.438115 0.104003 4.000000
-0.290288 0.448383 0.102386 4.000000
-0.290288 0.067522 0.445590 4.000000
-0.290288 -0.448334 0.206224 4.000000
-0.290288 0.084339 0.487938 4.000000
-0.290288 -0.258868 0.402898 4.000000
-0.290288 -0.465448 0.043925 4.000000
-0.290288 0.272392 -0.357510 4.000000
-0.290288 -0.458500 -0.189336 4.000000
-0.290288 -0.092339 0.446563 4.000000
-0.290288 -0.201546 -0.439332 4.000000
-0.290288 -0.263981 -0.414742 4.000000
-0.290288 0.488936 0.017073 4.000000
-0.290288 0.490440 -0.009978 4.000000
-0.290288 -0.355054 0.325649 4.000000
-0.290288 -0.261494 0.421072 4.000000
-0.290288 0.454845 -0.111895 4.000000
-0.290288 0.400100 0.203977 4.000000
-0.290288 -0.461053 -0.059750 4.000000
-0.290288 -0.094516 -0.490865 4.000000
-0.290288 -0.078701 -0.486235 4.000000
-0.290288 -0.487631 0.096658 4.000000
-0.290288 0.404218 -0.256818 4.000000
-0.290288 0.464193 0.113169 4.000000
-0.290288 0.239704 -0.381309 4.000000
-0.290288 0.447935 0.203182 4.000000
-0.290288 0.190439 -0.430621 4.000000
-0.290288 0.362816 -0.261935 4.000000
-0.290288 -0.100797 0.475882 4.000000
-0.290288 0.196491 0.403889 4.000000
-0.290288 -0.042965 -0.452201 4.000000
-0.290288 0.368410 0.258472 4.000000
-0.290288 0.366062 -0.283777 4.000000
-0.290288 -0.384190 -0.288741 4.000000
-0.290288 -0.321174 -0.327011 4.000000
-0.290288 0.112315 -0.475939 4.000000
-0.290288 0.460180 0.103156 4.000000
-0.290288 0.447777 0.047575 4.000000
-0.290288 -0.448017 -0.067493 4.000000
-0.290288 0.107074 0.443461 4.000000
-0.290288 0.005570 -0.472244 4.000000
-0.290288 0.315281 0.367384 4.000000
-0.290288 -0.420293 0.188343 4.000000
-0.290288 -0.433456 -0.177580 4.000000
-0.290288 -0.161533 0.448949 4.000000
-0.290288 -0.218499 0.400273 4.000000
-0.290288 0.247775 -0.415512 4.000000
-0.290288 0.472911 -0.101170 4.000000
-0.290288 0.156429 0.442302 4.000000
-0.290288 0.004545 0.444326 4.000000
-0.290288 0.337430 0.350439 4.000000
-0.290288 -0.325509 0.321868 4.000000
-0.290288 0.279020 0.392529 4.000000
-0.290288 -0.449832 0.084322 4.000000
-0.290288 0.352092 -0.298870 4.000000
-0.290288 -0.284746 -0.381825 4.000000
-0.290288 0.275960 0.349109 4.000000
-0.290288 0.384812 -0.317951 4.000000
-0.290288 0.307410 -0.384334 4.000000
-0.290288 0.295948 0.398722 4.000000
-0.290288 -0.355870 -0.301248 4.000000
-0.290288 0.381029 0.275778 4.000000
-0.290288 0.420299 -0.186748 4.000000
-0.290288 0.450633 -0.195127 4.000000
-0.290288 0.463798 0.168625 4.000000
-0.290288 -0.204246 0.451562 4.000000
-0.290288 -0.307799 0.340581 4.000000
-0.290288 0.459341 0.144187 4.000000
-0.290288 -0.476749 -0.141733 4.000000
-0.290288 -0.459564 0.101345 4.000000
-0.290288 -0.141941 0.421752 4.000000
-0.290288 -0.476455 0.136282 4.000000
-0.290288 0.436293 0.089703 4.000000
-0.290288 0.327514 -0.349342 4.000000
-0.290288 -0.472358 -0.071046 4.000000
-0.290288 0.460546 0.032759 4.000000
-0.290288 0.024640 -0.481837 4.000000
-0.290288 -0.398135 -0.230150 4.000000
-0.290288 0.163625 -0.438713 4.000000
-0.290288 -0.478878 0.003696 4.000000
-0.290288 0.212251 -0.431479 4.000000
-0.290288 -0.267816 0.377429 4.000000
-0.290288 0.234585 -0.439117 4.000000
-0.290288 0.340015 0.344878 4.000000
-0.290288 0.244754 -0.375792 4.000000
-0.290288 -0.457014 0.054587 4.000000
-0.290288 -0.465985 0.008187 4.000000
-0.290288 -0.223628 -0.428328 4.000000
-0.290288 -0.111802 -0.462617 4.000000
-0.290288 -0.280178 0.375110 4.000000
-0.290288 0.098147 0.441351 4.000000
-0.290288 -0.397517 -0.217559 4.000000
-0.290288 -0.452164 -0.152690 4.000000
-0.290288 0.259183 -0.378866 4.000000
-0.290288 -0.419437 -0.255831 4.000000
-0.290288 -0.241571 -0.387306 4.000000
-0.290288 0.190362 0.402530 4.000000
-0.290288 -0.309806 0.332151 4.000000
-0.290288 0.289366 0.356726 4.000000
-0.290288 0.269027 -0.409509 4.000000
-0.290288 0.094612 0.461932 4.000000
-0.290288 0.029935 0.472007 4.000000
-0.290288 0.150605 -0.422129 4.000000
-0.290288 -0.449771 0.202872 4.000000
-0.290288 0.437314 -0.186945 4.000000
-0.290288 -0.218789 -0.446845 4.000000
-0.290288 -0.163427 0.456304 4.000000
-0.290288 -0.446939 0.068703 4.000000
-0.290288 -0.366784 0.298453 4.000000
-0.290288 -0.151422 -0.445046 4.000000
-0.290288 -0.249556 0.427829 4.000000
-0.290288 -0.464997 -0.106681 4.000000
-0.290288 0.452823 -0.000367 4.000000
-0.290288 -0.092092 0.450138 4.000000
-0.290288 -0.037992 0.446084 4.000000
-0.290288 0.427822 0.173021 4.000000
-0.290288 0.017761 0.474867 4.000000
-0.290288 0.366071 -0.274853 4.000000
-0.290288 0.456157 -0.056221 4.000000
-0.290288 -0.369852 -0.279949 4.000000
-0.290288 -0.333852 0.322795 4.000000
-0.290288 -0.244370 0.401165 4.000000
-0.290288 -0.471546 0.130494 4.000000
-0.290288 0.251757 -0.431621 4.000000
-0.290288 0.339140 -0.367232 4.000000
-0.290288 0.256997 0.368092 4.000000
-0.290288 -0.454691 0.025191 4.000000
-0.290288 -0.239320 -0.416258 4.000000
-0.290288 0.453289 0.074902 4.000000
-0.290288 -0.149806 -0.451553 4.000000
-0.290288 0.299556 0.378545 4.000000
-0.290288 0.006761 0.466768 4.000000
-0.290288 0.059411 -0.449714 4.000000
-0.290288 -0.451696 -0.111003 4.000000
-0.290288 0.173075 -0.428563 4.000000
-0.290288 0.211689 -0.453056 4.000000
-0.290288 0.448838 0.126982 4.000000
-0.290288 -0.262100 0.391542 4.000000
-0.290288 0.061275 0.490617 4.000000
-0.290288 -0.288965 0.366868 4.000000
-0.290288 0.103429 0.478932 4.000000
-0.290288 0.365698 -0.258985 4.000000
-0.290288 0.025646 -0.493961 4.000000
-0.290288 -0.443925 0.033032 4.000000
-0.290288 0.476189 -0.107749 4.000000
-0.290288 0.440574 0.155564 4.000000
-0.290288 0.476346 0.034675 4.000000
-0.290288 0.095166 0.475434 4.000000
-0.290288 -0.453921 -0.011252 4.000000
-0.290288 0.472955 -0.054555 4.000000
-0.290288 0.439414 0.090003 4.000000
-0.290288 0.046803 -0.464028 4.000000
-0.290288 0.093171 -0.449916 4.000000
