0.286960 -0.261928 0.389604 1.000000
0.286960 -0.397796 -0.266414 1.000000
0.286960 -0.209433 -0.411189 1.000000
0.286960 -0.211230 0.403290 1.000000
0.286960 0.236747 0.397965 1.000000
0.286960 -0.375049 -0.294816 1.000000
0.286960 0.437675 0.156491 1.000000
0.286960 0.375678 -0.306676 1.000000
0.286960 0.372985 0.278929 1.000000
0.286960 -0.441245 -0.163881 1.000000
0.286960 0.349323 -0.346940 1.000000
0.286960 0.470662 -0.166372 1.000000
0.286960 -0.459699 0.141325 1.000000
0.286960 -0.254190 -0.423301 1.000000
0.286960 0.481274 0.038889 1.000000
0.286960 -0.350254 -0.319648 1.000000
0.286960 0.342790 0.307244 1.000000
0.286960 0.104791 0.480703 1.000000
0.286960 0.441391 0.107815 1.000000
0.286960 0.417220 -0.238540 1.000000
0.286960 -0.449002 0.141316 1.000000
0.286960 0.371856 -0.282664 1.000000
0.286960 -0.211019 -0.448665 1.000000
0.286960 0.010958 -0.459019 1.000000
0.286960 -0.181964 0.419325 1.000000
0.286960 0.483799 -0.054336 1.000000
0.286960 -0.490370 -0.083952 1.000000
0.286960 0.490145 0.034599 1.000000
0.286960 0.236076 0.401541 1.000000
0.286960 -0.240608 0.431462 1.000000
0.286960 0.096276 -0.452617 1.000000
0.286960 0.445094 -0.157049 1.000000
0.286960 0.294345 -0.400925 1.000000
0.286960 -0.273047 -0.383454 1.000000
0.286960 -0.424832 0.246179 1.000000
0.286960 -0.002010 0.485757 1.000000
0.286960 -0.171981 -0.417261 1.000000
0.286960 0.409003 0.245379 1.000000
0.286960 0.248509 0.394759 1.000000
0.286960 0.459274 -0.174868 1.000000
0.286960 -0.116398 0.467918 1.000000
0.286960 0.263357 0.357780 1.000000
0.286960 -0.220783 0.401948 1.000000
0.286960 -0.446040 -0.136133 1.000000
0.286960 -0.493747 0.056881 1.000000
0.286960 -0.442083 0.139283 1.000000
0.286960 -0.271609 -0.390177 1.000000
0.286960 -0.464045 -0.126346 1.000000
0.286960 0.455750 -0.138537 1.000000
0.286960 0.459048 -0.034289 1.000000
0.286960 -0.485084 -0.087746 1.000000
0.286960 -0.008398 -0.461249 1.000000
0.286960 -0.322806 0.366025 1.000000
0.286960 -0.323760 -0.326388 1.000000
0.286960 -0.464289 -0.105202 1.000000
0.286960 0.193662 0.447343 1.000000
0.286960 -0.028196 -0.492196 1.000000
0.286960 -0.056622 -0.475301 1.000000
0.286960 -0.136545 0.433646 1.000000
0.286960 -0.143745 0.439769 1.000000
0.286960 0.398460 -0.287501 1.000000
0.286960 0.102790 -0.476287 1.000000
0.286960 -0.162949 -0.471975 1.000000
0.286960 -0.255241 0.367034 1.000000
0.286960 -0.081137 0.436311 1.000000
0.286960 -0.008211 0.466460 1.000000
0.286960 0.349095 0.278672 1.000000
0.286960 0.302004 -0.397637 1.000000
0.286960 0.413791 -0.171946 1.000000
0.286960 0.022777 0.457452 1.000000
0.286960 0.316183 -0.324200 1.000000
0.286960 0.448197 -0.158832 1.000000
0.286960 -0.169942 -0.442014 1.000000
0.286960 0.462389 -0.001087 1.000000
0.286960 -0.292571 0.345739 1.000000
0.286960 0.313498 -0.339173 1.000000
0.286960 0.060090 -0.482339 1.000000
0.286960 -0.382958 -0.295172 1.000000
0.286960 0.168135 -0.443029 1.000000
0.286960 0.184777 -0.424793 1.000000
0.286960 -0.080379 -0.477501 1.000000
0.286960 -0.389831 0.213775 1.000000
0.286960 0.215288 0.427557 1.000000
0.286960 -0.308862 -0.352663 1.000000
0.286960 -0.031623 0.451654 1.000000
0.286960 0.304490 0.345754 1.000000
0.286960 0.381115 -0.272521 1.000000
0.286960 0.001442 -0.461743 1.000000
0.286960 0.325834 -0.320561 1.000000
0.286960 0.026678 0.491589 1.000000
0.286960 -0.487974 -0.014741 1.000000
0.286960 0.427754 -0.141945 1.000000
0.286960 -0.229677 -0.406076 1.000000
0.286960 -0.013367 0.470309 1.000000
0.286960 0.412808 0.252870 1.000000
0.286960 -0.470471 0.047749 1.000000
0.286960 -0.392202 -0.254313 1.000000
0.286960 -0.102086 0.481127 1.000000
0.286960 -0.379978 -0.308222 1.000000
0.286960 -0.242232 0.371309 1.000000
0.286960 0.426702 -0.153153 1.000000
0.286960 -0.449019 0.054685 1.000000
0.286960 -0.438391 -0.181877 1.000000
0.286960 -0.283430 0.361930 1.000000
0.286960 -0.167418 0.435483 1.000000
0.286960 0.272474 0.398376 1.000000
0.286960 0.462690 -0.159353 1.000000
0.286960 0.485222 0.049743 1.000000
0.286960 -0.136880 0.421686 1.000000
0.286960 -0.060312 0.458789 1.000000
0.286960 -0.478207 -0.134087 1.000000
0.286960 0.369147 -0.336849 1.000000
0.286960 0.144338 0.461046 1.000000
0.286960 0.251106 0.367754 1.000000
0.286960 -0.382217 -0.282907 1.000000
0.286960 -0.461045 -0.171691 1.000000
0.286960 -0.473638 -0.133395 1.000000
0.286960 0.273844 -0.358978 1.000000
0.286960 0.001689 0.473288 1.000000
0.286960 0.466846 -0.028146 1.000000
0.286960 0.288819 -0.341689 1.000000
0.286960 0.020716 0.486883 1.000000
0.286960 -0.492057 0.007798 1.000000
0.286960 0.194882 -0.403037 1.000000
0.286960 0.245138 -0.420493 1.000000
0.286960 0.453364 -0.209146 1.000000
0.286960 0.221892 -0.415047 1.000000
0.286960 -0.453128 -0.110665 1.000000
0.286960 0.333778 0.354973 1.000000
0.286960 -0.480753 -0.031233 1.000000
0.286960 -0.450820 -0.162549 1.000000
0.286960 -0.453685 0.041889 1.000000
0.286960 0.485561 0.083554 1.000000
0.286960 -0.303479 0.367408 1.000000
0.286960 -0.445439 0.056763 1.000000
0.286960 0.047649 0.490218 1.000000
0.286960 -0.179448 0.428467 1.000000
0.286960 0.011558 -0.455275 1.000000
0.286960 -0.425602 0.198870 1.000000
0.286960 -0.098383 -0.478386 1.000000
0.286960 -0.393766 -0.293675 1.000000
0.286960 -0.063561 0.446734 1.000000
0.286960 -0.480845 -0.046610 1.000000
0.286960 0.461514 -0.075105 1.000000
0.286960 -0.184958 -0.434563 1.000000
0.286960 0.462494 0.099587 1.000000
0.286960 -0.437398 -0.100131 1.000000
0.286960 0.346719 -0.307644 1.000000
0.286960 -0.416217 0.233397 1.000000
0.286960 -0.185723 -0.443433 1.000000
0.286960 -0.225964 0.386023 1.000000
0.286960 -0.351087 -0.281645 1.000000
0.286960 -0.456635 0.139376 1.000000
0.286960 0.065858 0.455418 1.000000
0.286960 0.482699 -0.004964 1.000000
0.286960 -0.229747 0.388078 1.000000
0.286960 -0.265111 -0.402770 1.000000
0.286960 -0.074251 0.441469 1.000000
0.286960 -0.133028 -0.442529 1.000000
0.286960 0.392413 0.234978 1.000000
0.286960 0.219821 0.444494 1.000000
0.286960 -0.045611 -0.475834 1.000000
0.286960 0.118101 -0.434916 1.000000
0.286960 0.431448 -0.241743 1.000000
0.286960 -0.203796 -0.430701 1.000000
0.286960 0.275433 -0.393863 1.000000
0.286960 -0.428239 0.141920 1.000000
0.286960 -0.100755 0.466351 1.000000
0.286960 0.282321 0.394428 1.000000
0.286960 -0.455362 -0.054232 1.000000
0.286960 0.225726 -0.429157 1.000000
0.286960 -0.260147 0.361388 1.000000
0.286960 -0.339604 -0.327716 1.000000
0.286960 0.422567 -0.225219 1.000000
0.286960 0.086121 -0.492653 1.000000
0.286960 0.131609 -0.445814 1.000000
0.286960 0.103537 -0.452152 1.000000
0.286960 -0.456411 -0.075526 1.000000
0.286960 -0.399491 -0.261235 1.000000
0.286960 0.019790 0.477345 1.000000
0.286960 0.233383 0.428425 1.000000
0.286960 -0.454423 -0.024619 1.000000
0.286960 0.053511 0.455839 1.000000
0.286960 -0.351987 -0.353649 1.000000
0.286960 0.430395 -0.125746 1.000000
0.286960 0.428307 -0.227159 1.000000
0.286960 -0.443391 -0.113396 1.000000
0.286960 0.010594 0.467880 1.000000
0.286960 -0.003848 -0.474277 1.000000
0.286960 -0.089711 -0.456452 1.000000
0.286960 0.460149 -0.082456 1.000000
0.286960 -0.427584 0.226434 1.000000
0.286960 0.411829 -0.281317 1.000000
0.286960 0.443459 0.201642 1.000000
0.286960 -0.168230 0.440761 1.000000
0.286960 0.050488 -0.449529 1.000000
0.286960 0.269256 -0.376646 1.000000
0.286960 -0.379017 0.310901 1.000000
0.286960 0.486957 0.041279 1.000000
0.286960 0.460737 0.175127 1.000000
0.286960 0.399715 -0.257618 1.000000
0.286960 0.453012 -0.185145 1.000000
0.286960 0.416737 -0.266002 1.000000
0.286960 0.379337 0.273561 1.000000
0.286960 -0.491496 -0.077121 1.000000
0.286960 -0.457514 0.043133 1.000000
0.286960 0.202976 -0.436721 1.000000
0.286960 -0.238372 -0.406475 1.000000
0.286960 -0.463588 0.017316 1.000000
0.286960 -0.065858 -0.471146 1.000000
0.286960 0.070892 -0.477417 1.000000
0.286960 0.471798 0.054855 1.000000
0.286960 0.332625 0.294757 1.000000
0.286960 -0.372792 0.306197 1.000000
0.286960 -0.184269 0.436201 1.000000
0.286960 -0.469314 0.019896 1.000000
0.286960 -0.118840 -0.462314 1.000000
0.286960 -0.181217 0.408768 1.000000
0.286960 0.072525 0.451314 1.000000
0.286960 0.274447 -0.372833 1.000000
0.286960 0.037806 -0.474604 1.000000
0.286960 0.080404 -0.484570 1.000000
0.286960 -0.348483 0.287930 1.000000
0.286960 0.484526 0.016652 1.000000
0.286960 -0.002317 0.482572 1.000000
0.286960 -0.299282 0.334663 1.000000
0.286960 -0.042506 0.491533 1.000000
0.286960 0.461871 -0.186536 1.000000
0.286960 0.369416 0.332423 1.000000
0.286960 -0.473266 0.127295 1.000000
0.286960 -0.413433 0.171351 1.000000
0.286960 0.345553 0.326301 1.000000
0.286960 0.351061 -0.276941 1.000000
0.286960 -0.420152 -0.195775 1.000000
0.286960 0.453342 -0.046366 1.000000
0.286960 0.009042 0.470723 1.000000
0.286960 0.174585 -0.422556 1.000000
0.286960 -0.330565 -0.351513 1.000000
0.286960 -0.192492 -0.444542 1.000000
0.286960 0.469534 -0.082068 1.000000
0.286960 -0.227357 0.439558 1.000000
0.286960 -0.219862 -0.424929 1.000000
0.286960 0.358887 -0.283078 1.000000
0.286960 -0.438621 0.085037 1.000000
0.286960 -0.461693 -0.112311 1.000000
0.286960 0.178104 -0.457859 1.000000
0.286960 -0.235152 -0.427592 1.000000
0.286960 0.208963 -0.454293 1.000000
0.286960 -0.467755 0.062292 1.000000
0.286960 -0.458300 0.164244 1.000000
0.286960 0.231214 -0.443310 1.000000
0.286960 -0.245687 -0.376501 1.000000
0.286960 -0.116957 -0.459573 1.000000
0.286960 0.384248 -0.274246 1.000000
0.286960 0.327006 0.312798 1.000000
0.286960 -0.406068 0.249190 1.000000
0.286960 -0.362009 0.311115 1.000000
0.286960 -0.109710 0.437770 1.000000
0.286960 0.276079 -0.416752 1.000000
0.286960 0.316188 -0.361159 1.000000
0.286960 0.316989 -0.377302 1.000000
0.286960 -0.464711 -0.030882 1.000000
0.286960 0.366514 0.317065 1.000000
0.286960 0.463909 0.083406 1.000000
0.286960 0.284721 0.383088 1.000000
0.286960 0.464079 -0.143236 1.000000
0.286960 0.483792 0.045352 1.000000
0.286960 -0.249665 0.396812 1.000000
0.286960 0.244876 -0.378113 1.000000
0.286960 -0.185995 -0.423258 1.000000
0.286960 0.383308 0.293998 1.000000
0.286960 -0.445799 -0.014560 1.000000
0.286960 -0.020846 0.452355 1.000000
0.286960 0.459547 0.127793 1.000000
0.286960 0.362828 0.269816 1.000000
0.286960 -0.088729 0.476973 1.000000
0.286960 0.175668 0.426584 1.000000
0.286960 0.131413 0.427921 1.000000
0.286960 0.096836 0.475300 1.000000
0.286960 0.224251 -0.412249 1.000000
0.286960 0.108217 0.445098 1.000000
0.286960 0.469064 -0.050273 1.000000
0.286960 0.233779 -0.437202 1.000000
0.286960 -0.376539 -0.305227 1.000000
0.286960 0.448602 -0.119342 1.000000
0.286960 -0.484049 -0.115856 1.000000
0.286960 -0.327341 0.324841 1.000000
0.286960 -0.037147 0.450973 1.000000
0.286960 0.085351 -0.477502 1.000000
0.286960 -0.430114 -0.168089 1.000000
0.286960 -0.314082 0.347176 1.000000
0.286960 -0.435249 0.228851 1.000000
0.286960 -0.086149 -0.467312 1.000000
0.286960 0.073403 0.478385 1.000000
0.286960 -0.379204 0.288913 1.000000
0.286960 0.085552 -0.482225 1.000000
0.286960 -0.339412 -0.303305 1.000000
0.286960 -0.110932 0.478073 1.000000
0.286960 0.006921 -0.469404 1.000000
0.286960 -0.249617 0.376360 1.000000
0.286960 0.355525 -0.296925 1.000000
0.286960 -0.290543 -0.398160 1.000000
0.286960 0.317184 -0.355435 1.000000
0.286960 -0.454188 -0.032831 1.000000
0.286960 -0.246862 -0.434204 1.000000
0.286960 -0.267130 0.402260 1.000000
0.286960 -0.447161 0.126644 1.000000
0.286960 0.138239 0.426117 1.000000
0.286960 -0.252101 0.394276 1.000000
0.286960 0.484449 -0.111755 1.000000
0.286960 0.100921 0.482599 1.000000
0.286960 -0.299117 0.387073 1.000000
0.286960 0.487124 -0.071719 1.000000
0.286960 0.467178 0.150563 1.000000
0.286960 0.212521 -0.396888 1.000000
0.286960 -0.022985 -0.462611 1.000000
0.286960 -0.268063 -0.412065 1.000000
0.286960 -0.281714 0.358368 1.000000
0.286960 0.430827 0.162508 1.000000
0.286960 0.176512 0.407134 1.000000
0.286960 0.105817 0.463635 1.000000
0.286960 -0.014473 0.478012 1.000000
0.286960 -0.462779 0.106721 1.000000
0.286960 -0.382994 0.250119 1.000000
0.286960 -0.336011 0.339355 1.000000
0.286960 0.101127 -0.468194 1.000000
0.286960 -0.453905 0.011865 1.000000
0.286960 -0.357819 -0.282185 1.000000
0.286960 -0.318708 -0.357333 1.000000
0.286960 0.260660 0.367123 1.000000
0.286960 -0.475844 0.107981 1.000000
0.286960 0.497862 -0.023621 1.000000
0.286960 -0.121739 -0.439138 1.000000
0.286960 0.492005 0.077489 1.000000
0.286960 -0.368032 -0.257187 1.000000
0.286960 0.080611 0.459383 1.000000
0.286960 0.139801 -0.471382 1.000000
0.286960 -0.325935 -0.333272 1.000000
0.286960 0.149892 0.429860 1.000000
0.286960 -0.295274 -0.379751 1.000000
0.286960 0.040589 -0.490800 1.000000
0.286960 0.457227 -0.075032 1.000000
0.286960 0.043679 0.475329 1.000000
0.286960 -0.482222 -0.034690 1.000000
0.286960 -0.189784 0.456431 1.000000
0.286960 -0.100402 0.461295 1.000000
0.286960 0.461924 -0.015977 1.000000
0.286960 0.252821 0.393348 1.000000
0.286960 -0.447096 0.091330 1.000000
0.286960 0.386389 -0.237031 1.000000
0.286960 -0.166557 -0.460426 1.000000
0.286960 0.398424 -0.249526 1.000000
0.286960 0.023984 -0.452416 1.000000
0.286960 -0.455140 -0.085543 1.000000
0.286960 0.402609 0.247863 1.000000
0.286960 -0.412086 -0.177418 1.000000
0.286960 0.369797 0.247263 1.000000
0.286960 -0.184496 0.426313 1.000000
0.286960 -0.343214 -0.352346 1.000000
0.286960 -0.148764 0.455749 1.000000
0.286960 -0.442645 0.110465 1.000000
0.286960 0.434086 0.128541 1.000000
0.286960 0.339941 -0.309119 1.000000
0.286960 -0.437678 -0.149078 1.000000
0.286960 -0.444969 -0.057258 1.000000
0.286960 0.066270 -0.459001 1.000000
0.286960 -0.457950 -0.078277 1.000000
0.286960 0.425235 -0.187570 1.000000
0.286960 0.068173 0.482876 1.000000
0.286960 0.416775 -0.210600 1.000000
0.286960 0.433872 0.237883 1.000000
0.286960 0.432856 0.117954 1.000000
0.286960 -0.463605 0.083272 1.000000
0.286960 -0.333885 0.316778 1.000000
0.286960 -0.299256 -0.399448 1.000000
0.286960 0.488947 -0.089401 1.000000
0.286960 -0.026390 -0.473165 1.000000
0.286960 -0.294624 -0.391551 1.000000
0.286960 0.377137 0.241818 1.000000
0.286960 0.090803 -0.471976 1.000000
0.286960 -0.307147 0.383892 1.000000
0.286960 0.098718 0.479847 1.000000
0.286960 -0.004241 0.444739 1.000000
0.286960 -0.446081 -0.121701 1.000000
0.286960 -0.214061 -0.422897 1.000000
0.286960 -0.362135 0.328108 1.000000
0.286960 0.425768 -0.248426 1.000000
0.286960 -0.384208 0.241883 1.000000
0.286960 -0.398025 -0.277265 1.000000
0.286960 -0.330794 -0.371879 1.000000
0.286960 -0.482585 0.079214 1.000000
0.286960 0.450525 0.047873 1.000000
0.286960 -0.397657 -0.252456 1.000000
0.286960 -0.351013 0.326103 1.000000
0.286960 -0.079969 -0.490478 1.000000
0.286960 -0.252311 -0.395560 1.000000
0.286960 -0.479508 0.088382 1.000000
0.286960 0.485645 0.108317 1.000000
0.286960 0.022815 -0.495101 1.000000
0.286960 0.165299 0.442223 1.000000
0.286960 0.132228 0.423605 1.000000
0.286960 0.353108 0.311202 1.000000
0.286960 0.328839 -0.375001 1.000000
0.286960 0.248077 -0.404689 1.000000
0.286960 -0.484981 0.052930 1.000000
0.286960 0.484109 -0.065038 1.000000
0.286960 0.379323 -0.252384 1.000000
0.286960 -0.266741 -0.399224 1.000000
0.286960 0.311678 0.371221 1.000000
0.286960 -0.334805 -0.313693 1.000000
0.286960 -0.400201 -0.247212 1.000000
0.286960 -0.302121 0.351929 1.000000
0.286960 0.434188 -0.189290 1.000000
0.286960 0.243479 0.397024 1.000000
0.286960 0.301263 -0.345229 1.000000
0.286960 -0.332076 -0.363611 1.000000
0.286960 -0.268151 0.359697 1.000000
0.286960 0.381411 -0.268066 1.000000
0.286960 0.362388 -0.325134 1.000000
0.286960 0.012729 0.449249 1.000000
0.286960 -0.303404 -0.376996 1.000000
0.286960 0.062589 0.457240 1.000000
0.286960 -0.175973 -0.425405 1.000000
0.286960 0.352176 -0.296109 1.000000
0.286960 -0.457817 -0.010232 1.000000
0.286960 -0.050851 0.448596 1.000000
0.286960 -0.443369 -0.132765 1.000000
0.286960 0.367163 0.290066 1.000000
0.286960 0.000853 -0.466007 1.000000
0.286960 0.384281 0.274468 1.000000
0.286960 0.481196 0.105859 1.000000
0.286960 -0.073241 0.456256 1.000000
0.286960 -0.190291 0.443301 1.000000
0.286960 0.000260 0.459951 1.000000
0.286960 0.284105 -0.358904 1.000000
0.286960 -0.388776 -0.228897 1.000000
0.286960 -0.242029 -0.430681 1.000000
0.286960 0.390458 -0.232156 1.000000
0.286960 0.058045 -0.479784 1.000000
0.286960 0.265048 0.404821 1.000000
0.286960 0.063761 -0.461198 1.000000
0.286960 -0.342205 0.284466 1.000000
0.286960 0.185390 -0.463215 1.000000
0.286960 0.455040 -0.015172 1.000000
0.286960 -0.248270 0.383816 1.000000
0.286960 0.314416 0.320790 1.000000
0.286960 0.477773 0.074848 1.000000
0.286960 0.299577 -0.400254 1.000000
0.286960 -0.472098 -0.118483 1.000000
0.286960 0.379634 0.309710 1.000000
0.286960 0.459532 0.112755 1.000000
0.286960 0.374459 0.291478 1.000000
0.286960 0.490016 0.025841 1.000000
0.286960 0.163424 -0.468080 1.000000
0.286960 0.227856 -0.399993 1.000000
0.286960 0.114965 -0.449936 1.000000
0.286960 -0.143076 0.429746 1.000000
0.286960 -0.408886 0.186435 1.000000
0.286960 0.290694 -0.402488 1.000000
0.286960 0.343647 -0.362774 1.000000
0.286960 -0.475471 -0.041753 1.000000
0.286960 0.151584 -0.450402 1.000000
0.286960 0.156184 -0.461963 1.000000
0.286960 0.186540 0.424548 1.000000
0.286960 0.125080 0.440285 1.000000
0.286960 0.474144 -0.129087 1.000000
0.286960 0.375522 0.285483 1.000000
0.286960 0.331216 0.298596 1.000000
0.286960 -0.355080 0.289735 1.000000
0.286960 0.339501 -0.319046 1.000000
0.286960 -0.440483 0.180455 1.000000
0.286960 -0.002265 0.451458 1.000000
0.286960 -0.440711 -0.138468 1.000000
0.286960 0.219495 -0.426411 1.000000
0.286960 -0.271192 -0.397081 1.000000
0.286960 0.211082 -0.450367 1.000000
0.286960 -0.096051 -0.474754 1.000000
0.286960 0.418818 0.158668 1.000000
0.286960 -0.086714 0.468378 1.000000
0.286960 -0.219759 -0.444625 1.000000
0.286960 -0.454694 0.059160 1.000000
0.286960 0.285192 0.369325 1.000000
0.286960 0.191784 -0.420158 1.000000
0.286960 -0.376751 0.236439 1.000000
0.286960 -0.283782 -0.397427 1.000000
0.286960 -0.372111 -0.246739 1.000000
0.286960 -0.003093 0.454859 1.000000
0.286960 -0.379210 0.278057 1.000000
0.286960 -0.071410 0.488368 1.000000
0.286960 -0.387765 0.295723 1.000000
0.286960 0.099810 0.452879 1.000000
0.286960 0.434202 -0.158078 1.000000
0.286960 0.357526 -0.274758 1.000000
0.286960 -0.136802 0.451332 1.000000
0.286960 0.011697 0.487252 1.000000
0.286960 0.443837 -0.160855 1.000000
0.286960 0.375884 0.247546 1.000000
0.286960 0.124997 0.427651 1.000000
0.286960 0.141270 0.444757 1.000000
0.286960 -0.407143 -0.273310 1.000000
0.286960 0.079281 -0.448694 1.000000
0.286960 0.427296 0.138427 1.000000
0.286960 0.349727 0.315381 1.000000
0.286960 0.432932 -0.207170 1.000000
0.286960 0.424872 0.181266 1.000000
0.286960 0.333906 0.338444 1.000000
0.286960 0.086014 0.447935 1.000000
0.286960 -0.419705 0.223536 1.000000
0.286960 0.187456 -0.418081 1.000000
0.286960 -0.452020 0.069682 1.000000
0.286960 0.053929 -0.452938 1.000000
0.286960 0.304391 -0.352342 1.000000
0.286960 -0.251418 0.416672 1.000000
0.286960 -0.396446 0.284421 1.000000
0.286960 -0.432330 -0.124048 1.000000
0.286960 -0.445582 -0.034574 1.000000
0.286960 0.439568 -0.150982 1.000000
0.286960 -0.297011 0.355742 1.000000
0.286960 0.427617 0.156912 1.000000
0.286960 0.268457 0.382041 1.000000
0.286960 -0.006040 0.483108 1.000000
0.286960 0.463805 0.011272 1.000000
0.286960 0.092909 -0.453157 1.000000
0.286960 -0.120318 -0.483995 1.000000
0.286960 0.165721 0.439081 1.000000
0.286960 0.076670 0.464709 1.000000
0.286960 0.287858 -0.379770 1.000000
0.286960 0.339833 0.334350 1.000000
0.286960 -0.452199 0.131123 1.000000
0.286960 0.306970 -0.326961 1.000000
0.286960 -0.447991 0.169892 1.000000
0.286960 0.259858 0.388111 1.000000
0.286960 -0.134445 -0.426703 1.000000
0.286960 -0.484040 -0.031892 1.000000
0.286960 0.467476 0.170587 1.000000
0.286960 0.418871 -0.231854 1.000000
0.286960 0.361064 0.276295 1.000000
0.286960 0.437153 0.206041 1.000000
0.286960 0.444607 -0.111560 1.000000
0.286960 -0.336208 -0.350179 1.000000
0.286960 -0.476924 -0.137510 1.000000
0.286960 -0.160790 -0.445116 1.000000
0.286960 0.424918 0.158672 1.000000
0.286960 -0.058730 -0.448652 1.000000
0.286960 0.473766 -0.029840 1.000000
0.286960 -0.391531 -0.299595 1.000000
0.286960 -0.454271 -0.158358 1.000000
0.286960 -0.247911 0.424016 1.000000
0.286960 -0.486267 -0.081168 1.000000
0.286960 0.433603 -0.182008 1.000000
0.286960 0.408749 0.266116 1.000000
0.286960 0.059257 0.457359 1.000000
0.286960 0.392782 0.299564 1.000000
0.286960 0.471712 0.051301 1.000000
0.286960 -0.472995 0.004561 1.000000
0.286960 -0.190112 -0.453210 1.000000
0.286960 -0.431391 -0.207424 1.000000
0.286960 0.194574 0.429199 1.000000
0.286960 0.412991 0.191939 1.000000
0.286960 0.470665 0.043783 1.000000
0.286960 -0.367318 -0.260696 1.000000
0.286960 -0.065323 0.473425 1.000000
0.286960 -0.269357 0.394529 1.000000
0.286960 -0.441767 -0.128249 1.000000
0.286960 0.319325 0.316189 1.000000
0.286960 0.366328 -0.286498 1.000000
0.286960 -0.168520 -0.447711 1.000000
0.286960 0.299255 -0.337277 1.000000
0.286960 0.476512 -0.078171 1.000000
0.286960 0.402932 -0.293999 1.000000
0.286960 0.372038 -0.273349 1.000000
0.286960 -0.050251 -0.469058 1.000000
0.286960 0.437158 0.107767 1.000000
0.286960 -0.247318 0.369183 1.000000
0.286960 0.463637 0.068074 1.000000
0.286960 0.419845 -0.256761 1.000000
0.286960 -0.445161 0.166235 1.000000
0.286960 -0.305923 -0.368414 1.000000
0.286960 -0.447669 -0.069564 1.000000
0.286960 -0.482617 -0.008757 1.000000
0.286960 0.127735 0.437909 1.000000
0.286960 0.381683 -0.277013 1.000000
0.286960 0.479842 0.067746 1.000000
0.286960 -0.220961 0.385407 1.000000
0.286960 -0.040015 0.494051 1.000000
0.286960 -0.355274 0.278818 1.000000
0.286960 -0.383959 0.304217 1.000000
0.286960 -0.478089 -0.018551 1.000000
0.286960 0.149351 0.433749 1.000000
0.286960 -0.359306 0.306613 1.000000
0.286960 0.287089 0.401674 1.000000
0.286960 -0.465002 -0.174831 1.000000
0.286960 -0.445957 -0.042403 1.000000
0.286960 0.433866 0.124455 1.000000
0.286960 0.164494 0.451431 1.000000
0.286960 0.483744 0.008792 1.000000
0.286960 0.159890 0.428725 1.000000
0.286960 0.409141 0.185009 1.000000
0.286960 -0.429092 -0.229455 1.000000
0.286960 -0.440773 0.154036 1.000000
0.286960 -0.430673 0.208689 1.000000
0.286960 0.439183 -0.119832 1.000000
0.286960 -0.392215 0.303150 1.000000
0.286960 0.478045 -0.070801 1.000000
0.286960 -0.449977 -0.125789 1.000000
0.286960 -0.474724 -0.095163 1.000000
0.286960 0.429096 -0.206665 1.000000
0.286960 0.459809 -0.072581 1.000000
0.286960 -0.304436 0.356759 1.000000
0.286960 0.463618 -0.168168 1.000000
0.286960 -0.072091 -0.482826 1.000000
0.286960 -0.452260 0.085708 1.000000
0.286960 -0.459873 0.156506 1.000000
0.286960 -0.135218 0.461195 1.000000
0.286960 -0.022794 -0.451221 1.000000
0.286960 -0.022577 -0.478322 1.000000
0.286960 0.465374 0.050269 1.000000
0.286960 0.081111 0.473369 1.000000
0.286960 -0.247822 0.393980 1.000000
0.286960 -0.217223 0.413945 1.000000
0.286960 -0.184930 0.415596 1.000000
0.286960 -0.310731 -0.377155 1.000000
0.286960 -0.053668 0.487744 1.000000
0.286960 0.304545 0.337757 1.000000
0.286960 0.162705 -0.425098 1.000000
0.286960 0.019713 0.480635 1.000000
0.286960 0.478662 0.118704 1.000000
0.286960 0.041516 0.485649 1.000000
0.286960 -0.333172 0.363682 1.000000
0.286960 0.445930 -0.010406 1.000000
0.286960 -0.264086 -0.407085 1.000000
0.286960 0.325702 -0.346340 1.000000
0.286960 -0.409130 -0.251153 1.000000
0.286960 0.369555 -0.321006 1.000000
0.286960 -0.037154 -0.458018 1.000000
0.286960 0.105752 -0.473025 1.000000
0.286960 -0.192284 -0.440854 1.000000
0.286960 -0.135523 0.430204 1.000000
0.286960 0.364349 0.326553 1.000000
0.286960 -0.413968 -0.174347 1.000000
0.286960 0.467291 0.126359 1.000000
0.286960 0.345491 0.315423 1.000000
0.286960 0.432003 0.159240 1.000000
0.286960 -0.228900 -0.415592 1.000000
0.286960 0.206169 0.418555 1.000000
0.286960 0.288892 -0.399599 1.000000
0.286960 -0.282697 0.346944 1.000000
0.286960 0.343727 -0.314189 1.000000
0.286960 0.413190 0.276162 1.000000
0.286960 -0.066629 0.448536 1.000000
0.286960 0.397212 -0.283626 1.000000
0.286960 0.416233 0.234896 1.000000
0.286960 -0.418088 0.214861 1.000000
0.286960 -0.405128 0.215041 1.000000
0.286960 -0.089793 0.442358 1.000000
0.286960 0.280482 0.350263 1.000000
0.286960 -0.385181 0.252845 1.000000
0.286960 -0.464081 0.067872 1.000000
0.286960 0.320771 -0.341836 1.000000
0.286960 -0.460959 -0.188395 1.000000
0.286960 0.464261 0.024145 1.000000
0.286960 0.123041 0.447129 1.000000
0.286960 -0.326799 0.347182 1.000000
0.286960 -0.365342 -0.316762 1.000000
0.286960 -0.302581 0.385651 1.000000
0.286960 -0.133908 -0.476747 1.000000
0.286960 -0.342885 0.313347 1.000000
0.286960 -0.260298 0.421696 1.000000
0.286960 0.446655 -0.069063 1.000000
0.286960 -0.465717 0.005298 1.000000
0.286960 -0.157571 0.446854 1.000000
0.286960 0.429623 0.148135 1.000000
0.286960 -0.444432 -0.027035 1.000000
0.286960 -0.128382 0.429525 1.000000
0.286960 -0.457393 -0.037965 1.000000
0.286960 -0.379693 -0.292651 1.000000
0.286960 0.144362 -0.458094 1.000000
0.286960 -0.458752 0.111589 1.000000
0.286960 -0.439381 0.123126 1.000000
0.286960 -0.206502 -0.410018 1.000000
0.286960 0.420823 -0.151877 1.000000
0.286960 -0.422621 0.204488 1.000000
0.286960 0.449910 0.184806 1.000000
0.286960 -0.226858 -0.398551 1.000000
0.286960 -0.359689 0.333677 1.000000
0.286960 0.193526 -0.454704 1.000000
0.286960 -0.248251 0.413102 1.000000
0.286960 0.015999 -0.486073 1.000000
0.286960 -0.221617 -0.393695 1.000000
0.286960 0.439138 0.114421 1.000000
0.286960 -0.078945 -0.459719 1.000000
0.286960 -0.475440 0.092108 1.000000
0.286960 0.318331 0.320820 1.000000
0.286960 0.239837 0.419094 1.000000
0.286960 0.295774 -0.340927 1.000000
0.286960 -0.324845 -0.363669 1.000000
0.286960 -0.095234 0.470199 1.000000
0.286960 0.059740 0.446928 1.000000
0.286960 -0.286262 -0.386101 1.000000
0.286960 -0.425542 -0.209010 1.000000
0.286960 0.200109 -0.454371 1.000000
0.286960 0.421877 -0.228654 1.000000
0.286960 0.450349 -0.001619 1.000000
0.286960 -0.246004 -0.388935 1.000000
0.286960 -0.362294 0.257674 1.000000
0.286960 -0.407357 -0.233693 1.000000
0.286960 -0.442313 -0.109802 1.000000
0.286960 0.184666 0.455896 1.000000
0.286960 0.121595 -0.473871 1.000000
0.286960 0.421908 0.179690 1.000000
0.286960 0.457215 -0.068931 1.000000
0.286960 -0.367454 -0.319728 1.000000
0.286960 0.484249 0.097559 1.000000
0.286960 -0.466668 -0.070498 1.000000
0.286960 -0.239091 -0.411701 1.000000
0.286960 -0.156002 0.435238 1.000000
0.286960 0.273964 -0.390117 1.000000
0.286960 0.311419 -0.372667 1.000000
0.286960 -0.044768 -0.487125 1.000000
0.286960 -0.146459 0.472087 1.000000
0.286960 -0.013081 -0.474793 1.000000
0.286960 -0.309706 0.386668 1.000000
0.286960 0.317843 0.359161 1.000000
0.286960 -0.216048 -0.401478 1.000000
0.286960 0.344212 -0.291728 1.000000
0.286960 0.073300 0.445717 1.000000
0.286960 0.453470 -0.093798 1.000000
0.286960 -0.480092 0.029128 1.000000
0.286960 -0.393370 0.232390 1.000000
0.286960 -0.197402 0.441749 1.000000
0.286960 0.009605 0.456474 1.000000
0.286960 0.450655 -0.052307 1.000000
0.286960 -0.008561 0.443583 1.000000
0.286960 0.065188 -0.475448 1.000000
0.286960 -0.216757 0.392745 1.000000
0.286960 0.361048 -0.289853 1.000000
0.286960 0.438679 0.079711 1.000000
0.286960 -0.461582 -0.063845 1.000000
0.286960 -0.384401 -0.310888 1.000000
0.286960 -0.423279 0.164622 1.000000
0.286960 0.005410 -0.493539 1.000000
0.286960 0.402406 0.195486 1.000000
0.286960 -0.461006 -0.039251 1.000000
0.286960 -0.018844 -0.476170 1.000000
0.286960 -0.328640 -0.322904 1.000000
0.286960 0.078919 0.446748 1.000000
0.286960 0.377342 0.237058 1.000000
0.286960 0.476078 0.062602 1.000000
0.286960 0.417921 0.231536 1.000000
0.286960 0.245398 0.431219 1.000000
0.286960 0.292579 -0.342525 1.000000
0.286960 0.196099 -0.445245 1.000000
0.286960 -0.482416 -0.001669 1.000000
0.286960 -0.031963 0.456687 1.000000
0.286960 0.416988 -0.168704 1.000000
0.286960 0.498105 -0.019906 1.000000
0.286960 -0.186077 -0.419848 1.000000
0.286960 0.054621 0.473214 1.000000
0.286960 0.475975 0.143469 1.000000
0.286960 -0.252544 0.398352 1.000000
0.286960 0.266205 0.384776 1.000000
0.286960 -0.424745 -0.227309 1.000000
0.286960 0.415651 0.219919 1.000000
0.286960 -0.164827 -0.424941 1.000000
0.286960 0.480735 -0.115115 1.000000
0.286960 0.101761 0.467487 1.000000
0.286960 0.369051 0.264595 1.000000
0.286960 0.438501 -0.184230 1.000000
0.286960 0.138142 0.429286 1.000000
0.286960 -0.327345 0.307485 1.000000
0.286960 -0.441463 0.212714 1.000000
0.286960 -0.152985 0.443026 1.000000
0.286960 0.337214 -0.321465 1.000000
0.286960 -0.454060 -0.078725 1.000000
0.286960 -0.282382 0.374434 1.000000
0.286960 -0.151685 -0.455340 1.000000
0.286960 -0.457592 0.182678 1.000000
0.286960 -0.104787 0.467405 1.000000
0.286960 0.443514 -0.100369 1.000000
0.286960 0.442192 0.091179 1.000000
0.286960 0.103343 -0.470309 1.000000
0.286960 0.152545 -0.436878 1.000000
0.286960 0.461147 0.016720 1.000000
0.286960 -0.391947 -0.213210 1.000000
0.286960 0.442374 0.057953 1.000000
0.286960 -0.020932 0.459600 1.000000
0.286960 0.017303 -0.499804 1.000000
0.286960 -0.461674 0.117789 1.000000
0.286960 -0.011954 0.448651 1.000000
0.286960 -0.116403 0.454723 1.000000
0.286960 -0.086413 -0.456090 1.000000
0.286960 0.036688 -0.483429 1.000000
0.286960 -0.475069 -0.114499 1.000000
0.286960 0.463285 -0.062395 1.000000
0.286960 0.262469 -0.389619 1.000000
0.286960 -0.419386 -0.150271 1.000000
0.286960 -0.262334 0.408392 1.000000
0.286960 -0.029313 0.491661 1.000000
0.286960 0.482380 -0.107399 1.000000
0.286960 0.446362 0.006085 1.000000
0.286960 -0.448360 0.166592 1.000000
0.286960 0.410806 0.233904 1.000000
0.286960 -0.343800 -0.308406 1.000000
0.286960 0.296741 -0.371943 1.000000
0.286960 -0.127544 -0.470393 1.000000
0.286960 -0.366744 0.321036 1.000000
0.286960 0.378129 0.301613 1.000000
0.286960 -0.287098 0.378477 1.000000
0.286960 -0.446994 0.159368 1.000000
0.286960 0.467103 -0.173099 1.000000
0.286960 0.190152 0.429706 1.000000
0.286960 0.160151 -0.437943 1.000000
0.286960 -0.462730 0.134608 1.000000
0.286960 0.347300 -0.284403 1.000000
0.286960 -0.179451 -0.426196 1.000000
0.286960 -0.452218 0.089794 1.000000
0.286960 0.275202 0.375452 1.000000
0.286960 -0.259766 -0.420319 1.000000
0.286960 0.174162 -0.438424 1.000000
0.286960 -0.421824 0.243487 1.000000
0.286960 0.239576 0.401519 1.000000
0.286960 0.168253 0.462348 1.000000
0.286960 -0.367428 -0.327814 1.000000
0.286960 -0.328359 0.330767 1.000000
0.286960 0.430220 -0.179392 1.000000
0.286960 0.317186 0.324512 1.000000
0.286960 0.353927 0.274838 1.000000
0.286960 -0.101135 -0.467039 1.000000
0.286960 -0.452102 0.186572 1.000000
0.286960 0.205411 -0.422060 1.000000
0.286960 -0.472800 -0.123623 1.000000
0.286960 0.229606 0.412271 1.000000
0.286960 0.003616 0.466078 1.000000
0.286960 -0.023090 0.495336 1.000000
0.286960 0.046583 0.456221 1.000000
0.286960 -0.011804 0.481213 1.000000
0.286960 -0.432772 -0.196084 1.000000
0.286960 0.265103 0.368114 1.000000
0.286960 -0.158823 0.443114 1.000000
0.286960 -0.203583 0.402888 1.000000
0.286960 0.415150 0.272410 1.000000
0.286960 -0.468651 0.138531 1.000000
0.286960 -0.056246 -0.450666 1.000000
0.286960 -0.079366 -0.454953 1.000000
0.286960 0.332477 0.366544 1.000000
0.286960 0.041922 0.462067 1.000000
0.286960 0.397814 -0.244807 1.000000
0.286960 -0.099709 -0.473605 1.000000
0.286960 -0.235014 0.415878 1.000000
0.286960 0.493700 -0.012486 1.000000
0.286960 -0.006542 -0.481777 1.000000
0.286960 -0.099667 -0.481418 1.000000
0.286960 0.196849 0.447242 1.000000
0.286960 -0.425868 -0.237627 1.000000
0.286960 -0.451466 -0.022177 1.000000
0.286960 0.053566 0.440433 1.000000
0.286960 0.277906 -0.384630 1.000000
0.286960 -0.028673 -0.460377 1.000000
0.286960 -0.151977 0.435721 1.000000
0.286960 0.407066 0.188319 1.000000
0.286960 0.304517 -0.347888 1.000000
0.286960 -0.072262 0.448340 1.000000
0.286960 0.185943 0.459603 1.000000
0.286960 -0.143161 0.465861 1.000000
0.286960 -0.483666 -0.048139 1.000000
0.286960 -0.143967 0.424950 1.000000
0.286960 -0.388887 -0.253074 1.000000
0.286960 -0.426403 -0.130804 1.000000
0.286960 0.267610 -0.367078 1.000000
0.286960 0.296389 0.346128 1.000000
0.286960 -0.036534 -0.467538 1.000000
0.286960 0.482899 -0.013514 1.000000
0.286960 -0.478678 0.073528 1.000000
0.286960 -0.397071 0.238690 1.000000
0.286960 0.336551 0.308982 1.000000
0.286960 0.378099 -0.294161 1.000000
0.286960 0.410074 -0.205157 1.000000
0.286960 -0.454941 -0.011405 1.000000
0.286960 -0.292415 -0.400734 1.000000
0.286960 0.444575 0.098086 1.000000
0.286960 -0.334777 -0.366488 1.000000
0.286960 0.483177 -0.030461 1.000000
0.286960 -0.487665 0.024420 1.000000
0.286960 0.425532 0.220160 1.000000
0.286960 0.436029 0.216339 1.000000
0.286960 -0.101264 -0.487660 1.000000
0.286960 0.231125 -0.430217 1.000000
0.286960 0.321683 0.326732 1.000000
0.286960 -0.127942 0.475094 1.000000
0.286960 -0.227306 -0.408635 1.000000
0.286960 0.484667 0.039229 1.000000
0.286960 0.403313 -0.276195 1.000000
0.286960 0.237111 -0.388547 1.000000
0.286960 -0.249697 -0.424146 1.000000
0.286960 0.325798 0.337222 1.000000
0.286960 0.399665 0.211164 1.000000
0.286960 0.394779 0.273944 1.000000
0.286960 0.184384 -0.440021 1.000000
0.286960 -0.317672 -0.370129 1.000000
0.286960 0.332662 -0.347530 1.000000
0.286960 -0.097181 0.483207 1.000000
0.286960 -0.254426 -0.409332 1.000000
0.286960 0.452764 0.178324 1.000000
0.286960 -0.151927 -0.423504 1.000000
0.286960 -0.421153 0.175461 1.000000
0.286960 -0.119167 0.449801 1.000000
0.286960 -0.362304 0.265046 1.000000
0.286960 -0.486543 -0.061512 1.000000
0.286960 -0.030362 -0.472552 1.000000
0.286960 0.332323 -0.344446 1.000000
0.286960 0.043703 -0.455914 1.000000
0.286960 0.419765 -0.206061 1.000000
0.286960 -0.129681 -0.438701 1.000000
0.286960 0.199331 0.433800 1.000000
0.286960 -0.342418 -0.288241 1.000000
0.286960 -0.091040 0.461122 1.000000
0.286960 -0.121330 0.436258 1.000000
0.286960 -0.457096 -0.034018 1.000000
0.286960 0.430669 -0.183569 1.000000
0.286960 0.481888 0.079933 1.000000
0.286960 -0.445800 -0.181056 1.000000
0.286960 -0.462443 -0.004871 1.000000
0.286960 -0.336277 0.328304 1.000000
0.286960 0.330140 -0.323352 1.000000
0.286960 -0.206900 -0.432393 1.000000
0.286960 0.201185 -0.400702 1.000000
0.286960 0.120926 -0.484388 1.000000
0.286960 0.459883 0.082764 1.000000
0.286960 -0.321784 -0.315944 1.000000
0.286960 -0.352208 -0.337419 1.000000
0.286960 0.136414 -0.471457 1.000000
0.286960 0.449535 -0.185138 1.000000
0.286960 0.173850 -0.455693 1.000000
0.286960 -0.139559 -0.474455 1.000000
0.286960 -0.373380 0.313140 1.000000
0.286960 0.280970 0.382863 1.000000
0.286960 -0.117106 0.429362 1.000000
0.286960 0.453116 0.062347 1.000000
0.286960 -0.344405 0.306020 1.000000
0.286960 0.346131 0.322519 1.000000
0.286960 -0.462253 0.050198 1.000000
0.286960 0.077312 -0.476333 1.000000
0.286960 0.015615 -0.479592 1.000000
0.286960 -0.443393 -0.060533 1.000000
0.286960 0.250845 0.427811 1.000000
0.286960 0.124833 0.460174 1.000000
0.286960 -0.115363 -0.448259 1.000000
0.286960 0.295451 0.338151 1.000000
0.286960 0.476132 -0.074596 1.000000
0.286960 -0.205382 -0.437791 1.000000
0.286960 -0.118579 0.470174 1.000000
0.286960 -0.211774 0.396064 1.000000
0.286960 -0.208423 -0.396236 1.000000
0.286960 0.455550 0.181153 1.000000
0.286960 -0.051471 0.485074 1.000000
0.286960 0.026499 0.464824 1.000000
0.286960 0.364914 -0.320494 1.000000
0.286960 -0.435096 0.172580 1.000000
0.286960 0.083141 -0.448287 1.000000
0.286960 0.050302 -0.497460 1.000000
0.286960 -0.436427 -0.223998 1.000000
0.286960 0.258383 0.423020 1.000000
0.286960 0.440530 -0.218197 1.000000
0.286960 0.182857 0.431822 1.000000
0.286960 0.122270 -0.481638 1.000000
0.286960 -0.459029 0.051664 1.000000
0.286960 0.269266 0.359870 1.000000
0.286960 0.151044 -0.454538 1.000000
0.286960 0.403588 -0.281141 1.000000
0.286960 -0.107511 -0.471607 1.000000
0.286960 -0.422416 -0.202615 1.000000
0.286960 -0.469177 -0.030006 1.000000
0.286960 0.418343 0.193187 1.000000
0.286960 -0.319385 0.332378 1.000000
0.286960 -0.392072 0.242024 1.000000
0.286960 0.144445 -0.431714 1.000000
0.286960 0.488667 -0.024444 1.000000
0.286960 0.147826 0.467001 1.000000
0.286960 0.401506 -0.284601 1.000000
0.286960 0.323054 -0.325328 1.000000
0.286960 -0.407218 0.218791 1.000000
0.286960 -0.387130 -0.259131 1.000000
0.286960 -0.433242 -0.174687 1.000000
0.286960 0.341046 0.345317 1.000000
0.286960 -0.470416 -0.096125 1.000000
0.286960 0.424855 0.235803 1.000000
0.286960 -0.152378 0.454005 1.000000
0.286960 -0.373077 0.290141 1.000000
0.286960 0.053618 -0.470117 1.000000
0.286960 -0.011982 -0.489739 1.000000
0.286960 0.337385 0.363487 1.000000
0.286960 -0.351405 -0.311131 1.000000
0.286960 0.437721 -0.233636 1.000000
0.286960 0.448098 -0.111663 1.000000
0.286960 0.488549 -0.053976 1.000000
0.286960 0.219606 0.402826 1.000000
0.286960 0.235318 0.379967 1.000000
0.286960 0.445739 -0.092809 1.000000
0.286960 0.203300 0.394906 1.000000
0.286960 -0.203627 0.394389 1.000000
0.286960 -0.474668 0.133899 1.000000
0.286960 -0.094963 0.479757 1.000000
0.286960 0.374521 0.309017 1.000000
0.286960 -0.060058 -0.479710 1.000000
0.286960 0.451161 -0.030860 1.000000
0.286960 0.412819 -0.251573 1.000000
0.286960 0.456003 0.109326 1.000000
0.286960 0.453284 0.053361 1.000000
0.286960 -0.425398 -0.180201 1.000000
0.286960 -0.484538 -0.004333 1.000000
0.286960 -0.302221 -0.380540 1.000000
0.286960 -0.018262 -0.492644 1.000000
0.286960 -0.354403 0.286364 1.000000
0.286960 -0.411107 0.168357 1.000000
0.286960 -0.099159 0.432816 1.000000
0.286960 -0.478274 0.055935 1.000000
0.286960 -0.099540 -0.440186 1.000000
0.286960 -0.421116 0.161230 1.000000
0.286960 -0.472051 -0.014534 1.000000
0.286960 -0.283739 -0.388236 1.000000
0.286960 -0.450078 0.099373 1.000000
0.286960 0.216459 -0.431146 1.000000
0.286960 0.402718 0.223740 1.000000
0.286960 -0.467080 0.046907 1.000000
0.286960 -0.375984 -0.265060 1.000000
0.286960 0.059951 -0.485481 1.000000
0.286960 -0.474673 -0.151498 1.000000
0.286960 0.095781 -0.482493 1.000000
0.286960 0.415338 -0.262489 1.000000
0.286960 0.488803 -0.095492 1.000000
0.286960 0.461058 0.085875 1.000000
0.286960 0.451934 0.199755 1.000000
0.286960 0.160328 -0.466309 1.000000
0.286960 0.299001 0.367555 1.000000
0.286960 -0.092725 0.475797 1.000000
0.286960 0.410429 -0.201020 1.000000
0.286960 -0.017158 0.446966 1.000000
0.286960 0.306096 -0.381296 1.000000
0.286960 -0.187605 0.452576 1.000000
0.286960 -0.141424 0.470133 1.000000
0.286960 -0.178262 -0.432832 1.000000
0.286960 -0.419003 -0.178032 1.000000
0.286960 0.205852 0.422039 1.000000
0.286960 0.451333 0.094146 1.000000
0.286960 -0.465063 -0.137762 1.000000
0.286960 0.225548 -0.445329 1.000000
0.286960 0.113455 0.465498 1.000000
0.286960 0.052053 -0.480055 1.000000
0.286960 -0.415013 -0.219027 1.000000
0.286960 0.447765 -0.038447 1.000000
0.286960 -0.386768 -0.313910 1.000000
0.286960 -0.350584 0.303582 1.000000
0.286960 -0.465681 -0.159979 1.000000
0.286960 0.316331 0.372398 1.000000
0.286960 -0.446762 0.043412 1.000000
0.286960 -0.179151 -0.439649 1.000000
0.286960 -0.426225 0.217333 1.000000
0.286960 -0.032872 -0.452248 1.000000
0.286960 -0.087308 0.457308 1.000000
0.286960 -0.479227 -0.040237 1.000000
0.286960 -0.159034 0.437044 1.000000
0.286960 0.320554 0.323527 1.000000
0.286960 0.192827 0.423516 1.000000
0.286960 -0.203816 -0.434290 1.000000
0.286960 0.417133 -0.178239 1.000000
0.286960 -0.423182 -0.152775 1.000000
0.286960 0.090581 0.473337 1.000000
0.286960 -0.430753 -0.215530 1.000000
0.286960 -0.306320 -0.372067 1.000000
0.286960 0.064459 0.484019 1.000000
0.286960 0.445776 -0.182079 1.000000
0.286960 -0.406114 0.244332 1.000000
0.286960 0.332287 -0.366625 1.000000
0.286960 0.039475 0.479534 1.000000
0.286960 -0.200133 0.424606 1.000000
0.286960 -0.171284 -0.436668 1.000000
0.286960 -0.360852 -0.324581 1.000000
0.286960 0.292289 -0.379341 1.000000
0.286960 -0.348438 -0.293620 1.000000
0.286960 0.298754 0.396123 1.000000
0.286960 -0.069000 -0.483389 1.000000
0.286960 0.294711 -0.354627 1.000000
0.286960 -0.202879 0.447754 1.000000
0.286960 0.183878 -0.428000 1.000000
0.286960 -0.359309 -0.313891 1.000000
0.286960 -0.152222 -0.440846 1.000000
0.286960 -0.022313 0.449155 1.000000
0.286960 0.352997 0.314593 1.000000
0.286960 0.260165 -0.420678 1.000000
0.286960 0.410187 0.213851 1.000000
0.286960 -0.098569 0.469790 1.000000
0.286960 -0.144651 -0.438002 1.000000
0.286960 0.475838 -0.052548 1.000000
0.286960 0.313024 -0.386687 1.000000
0.286960 -0.460305 -0.122775 1.000000
0.286960 0.381351 0.268388 1.000000
0.286960 0.407408 0.204531 1.000000
0.286960 0.367060 0.312950 1.000000
0.286960 -0.278284 0.366580 1.000000
0.286960 0.463658 -0.007284 1.000000
0.286960 -0.021087 -0.456219 1.000000
0.286960 -0.387461 -0.301585 1.000000
0.286960 -0.490815 -0.020042 1.000000
0.286960 0.369480 -0.330359 1.000000
0.286960 0.476592 0.056179 1.000000
0.286960 0.300924 0.370997 1.000000
0.286960 -0.402212 0.276376 1.000000
0.286960 0.290560 -0.386668 1.000000
0.286960 -0.075217 -0.461716 1.000000
0.286960 -0.467320 -0.162534 1.000000
0.286960 -0.088989 -0.479964 1.000000
0.286960 0.184108 -0.460395 1.000000
0.286960 0.433632 -0.123931 1.000000
0.286960 -0.060748 0.486738 1.000000
0.286960 0.198316 -0.447947 1.000000
0.286960 0.389779 0.251180 1.000000
0.286960 0.012925 -0.499686 1.000000
0.286960 0.312825 -0.360802 1.000000
0.286960 -0.224303 -0.406798 1.000000
0.286960 -0.196525 0.438780 1.000000
0.286960 0.088759 -0.441250 1.000000
0.286960 0.422960 0.140178 1.000000
0.286960 0.375708 0.251277 1.000000
0.286960 -0.279352 -0.413574 1.000000
0.286960 -0.449676 -0.061538 1.000000
0.286960 -0.211596 0.443749 1.000000
0.286960 -0.290991 0.369778 1.000000
0.286960 0.427596 -0.159019 1.000000
0.286960 -0.394697 -0.270818 1.000000
0.286960 -0.032381 -0.498300 1.000000
0.286960 0.353892 -0.353013 1.000000
0.286960 -0.410000 -0.246832 1.000000
0.286960 -0.490004 0.035111 1.000000
0.286960 0.136800 0.471504 1.000000
0.286960 -0.486091 -0.076654 1.000000
0.286960 -0.358458 -0.310481 1.000000
0.286960 0.191165 0.449834 1.000000
0.286960 0.443001 -0.230526 1.000000
0.286960 0.162473 0.439049 1.000000
0.286960 0.032584 0.488815 1.000000
0.286960 0.027320 -0.484918 1.000000
0.286960 -0.004382 0.467969 1.000000
0.286960 -0.263557 0.386470 1.000000
0.286960 0.394322 -0.231531 1.000000
0.286960 -0.405895 0.228193 1.000000
0.286960 -0.462865 0.008147 1.000000
0.286960 0.092892 -0.462422 1.000000
0.286960 0.205920 -0.409294 1.000000
0.286960 0.150453 0.443435 1.000000
0.286960 -0.493652 -0.022876 1.000000
0.286960 -0.369212 0.249641 1.000000
0.286960 -0.101503 -0.458049 1.000000
0.286960 -0.234834 0.423741 1.000000
0.286960 -0.422726 -0.158019 1.000000
0.286960 0.090396 0.453754 1.000000
0.286960 -0.467286 -0.083883 1.000000
0.286960 -0.129250 0.458533 1.000000
0.286960 -0.008738 0.492090 1.000000
0.286960 -0.045062 -0.495700 1.000000
0.286960 0.072041 0.470404 1.000000
0.286960 0.010802 0.495097 1.000000
0.286960 0.329379 0.367572 1.000000
0.286960 -0.005338 0.486557 1.000000
0.286960 -0.223579 0.404356 1.000000
0.286960 -0.483082 0.082763 1.000000
0.286960 -0.313891 -0.350434 1.000000
0.286960 0.423274 -0.167036 1.000000
0.286960 0.439422 -0.169945 1.000000
0.286960 -0.434451 -0.097587 1.000000
0.286960 -0.269007 0.369163 1.000000
0.286960 0.430318 -0.122413 1.000000
0.286960 0.462675 0.116635 1.000000
0.286960 -0.432307 0.164594 1.000000
0.286960 0.472896 -0.003914 1.000000
0.286960 0.086007 -0.470869 1.000000
0.286960 0.176329 0.438636 1.000000
0.286960 -0.072262 0.483505 1.000000
0.286960 -0.324794 -0.369990 1.000000
0.286960 0.459520 0.190439 1.000000
0.286960 0.379303 0.305297 1.000000
0.286960 -0.493788 0.026555 1.000000
0.286960 -0.282006 0.386919 1.000000
0.286960 -0.239782 0.383798 1.000000
0.286960 -0.287049 0.404482 1.000000
0.286960 0.486640 0.032658 1.000000
0.286960 -0.470028 0.157922 1.000000
0.286960 0.308961 0.334203 1.000000
0.286960 0.317035 0.328967 1.000000
0.286960 -0.127868 0.442581 1.000000
0.286960 -0.472088 -0.011097 1.000000
0.286960 0.481768 -0.000273 1.000000
0.286960 0.286803 -0.385469 1.000000
0.286960 0.378192 -0.259914 1.000000
0.286960 -0.219582 0.416554 1.000000
0.286960 0.461085 0.005382 1.000000
0.286960 0.289532 0.377310 1.000000
0.286960 0.347137 -0.325133 1.000000
0.286960 0.271987 0.406054 1.000000
0.286960 -0.375847 -0.298334 1.000000
0.286960 -0.452582 -0.014320 1.000000
0.286960 -0.466070 0.070546 1.000000
0.286960 -0.489323 -0.079264 1.000000
0.286960 -0.260865 -0.411558 1.000000
0.286960 -0.113685 -0.473258 1.000000
0.286960 0.317522 0.333054 1.000000
0.286960 0.027908 0.471284 1.000000
0.286960 -0.032255 0.464476 1.000000
0.286960 0.412197 0.225098 1.000000
0.286960 -0.421200 -0.146649 1.000000
0.286960 -0.033588 -0.474516 1.000000
0.286960 -0.099997 -0.461942 1.000000
0.286960 -0.447242 0.211320 1.000000
0.286960 -0.108942 0.456480 1.000000
0.286960 -0.013216 0.443897 1.000000
0.286960 0.470564 0.103488 1.000000
0.286960 0.302714 -0.363372 1.000000
0.286960 0.319947 -0.331112 1.000000
0.286960 -0.289199 -0.377526 1.000000
0.286960 -0.265080 -0.389115 1.000000
0.286960 -0.150888 -0.437535 1.000000
0.286960 0.229688 -0.415018 1.000000
0.286960 0.121585 -0.458855 1.000000
0.286960 0.395075 0.215203 1.000000
0.286960 0.080738 -0.444922 1.000000
0.286960 -0.422441 0.200781 1.000000
0.286960 0.312461 0.382272 1.000000
0.286960 -0.441362 0.077767 1.000000
0.286960 0.468977 -0.025964 1.000000
0.286960 0.470656 0.062779 1.000000
0.286960 -0.386898 -0.278608 1.000000
0.286960 -0.417954 -0.170102 1.000000
0.286960 0.449311 0.157607 1.000000
0.286960 -0.203407 -0.422746 1.000000
0.286960 -0.082103 -0.462112 1.000000
0.286960 -0.407908 -0.190481 1.000000
0.286960 0.459762 0.185956 1.000000
0.286960 0.405078 0.198773 1.000000
0.286960 -0.481447 -0.113202 1.000000
0.286960 -0.382186 0.298951 1.000000
0.286960 0.124911 -0.467198 1.000000
0.286960 0.299392 0.359489 1.000000
0.286960 0.069270 -0.490624 1.000000
0.286960 0.383303 0.301798 1.000000
0.286960 -0.406791 0.252562 1.000000
0.286960 -0.303679 -0.342843 1.000000
0.286960 0.409870 -0.274002 1.000000
0.286960 -0.459443 0.134252 1.000000
0.286960 -0.045158 -0.453203 1.000000
0.286960 0.462090 -0.095223 1.000000
0.286960 0.490670 -0.003981 1.000000
0.286960 -0.370016 0.254894 1.000000
0.286960 -0.207117 -0.442859 1.000000
0.286960 0.362836 -0.307661 1.000000
0.286960 0.370767 0.274242 1.000000
0.286960 -0.429911 -0.158357 1.000000
0.286960 0.456345 0.010637 1.000000
0.286960 0.173698 0.454452 1.000000
0.286960 -0.300422 -0.350543 1.000000
0.286960 -0.403763 -0.281236 1.000000
0.286960 0.482661 0.035645 1.000000
0.286960 0.320784 0.329825 1.000000
0.286960 -0.086656 0.435202 1.000000
0.286960 -0.174594 0.424277 1.000000
0.286960 0.463043 0.027710 1.000000
0.286960 -0.172689 0.415386 1.000000
0.286960 0.138498 -0.439778 1.000000
0.286960 0.468134 -0.131461 1.000000
0.286960 0.447187 0.144998 1.000000
0.286960 -0.452252 0.015031 1.000000
0.286960 0.415479 0.256891 1.000000
0.286960 -0.102390 0.431068 1.000000
0.286960 -0.445703 -0.142221 1.000000
0.286960 0.017731 0.470034 1.000000
0.286960 -0.171906 0.456933 1.000000
0.286960 0.375893 0.299166 1.000000
0.286960 -0.165554 -0.456425 1.000000
0.286960 -0.281122 -0.349174 1.000000
0.286960 0.415498 0.202613 1.000000
0.286960 -0.271992 -0.358413 1.000000
0.286960 0.443449 -0.146642 1.000000
0.286960 0.327233 -0.371018 1.000000
0.286960 0.154721 0.469625 1.000000
0.286960 -0.003648 -0.486691 1.000000
0.286960 -0.469953 0.085127 1.000000
0.286960 0.104084 -0.466768 1.000000
0.286960 0.256539 0.369189 1.000000
0.286960 0.415248 0.174757 1.000000
0.286960 0.256484 0.386093 1.000000
0.286960 0.208324 -0.432962 1.000000
0.286960 0.111152 0.453584 1.000000
0.286960 -0.417982 0.188130 1.000000
0.286960 0.436667 -0.110505 1.000000
0.286960 -0.400024 -0.268842 1.000000
0.286960 0.388431 0.218879 1.000000
0.286960 -0.046184 0.452764 1.000000
0.286960 -0.458668 0.190609 1.000000
