-0.290288 0.449279 -0.078169 4.000000
-0.290288 -0.446724 0.038522 4.000000
-0.290288 0.200720 0.416900 4.000000
-0.290288 0.384426 0.243922 4.000000
-0.290288 -0.278478 0.400375 4.000000
-0.290288 -0.091164 0.452620 4.000000
-0.290288 0.033685 -0.476982 4.000000
-0.290288 0.385137 -0.234725 4.000000
-0.290288 0.243492 0.432344 4.000000
-0.290288 0.327208 0.334737 4.000000
-0.290288 -0.436781 0.219805 4.000000
-0.290288 0.081882 0.450886 4.000000
-0.290288 -0.071436 -0.485721 4.000000
-0.290288 0.365287 -0.306364 4.000000
-0.290288 0.417028 -0.203313 4.000000
-0.290288 0.385987 -0.299148 4.000000
-0.290288 0.485270 -0.032652 4.000000
-0.290288 -0.261689 -0.382806 4.000000
-0.290288 -0.465817 -0.151184 4.000000
-0.290288 -0.438501 -0.148586 4.000000
-0.290288 -0.423422 0.203365 4.000000
-0.290288 -0.463514 0.150059 4.000000
-0.290288 -0.235830 0.406464 4.000000
-0.290288 -0.470961 0.102288 4.000000
-0.290288 -0.439195 -0.084984 4.000000
-0.290288 0.175265 0.420380 4.000000
-0.290288 -0.093495 -0.485691 4.000000
-0.290288 0.344195 -0.325716 4.000000
-0.290288 -0.403934 0.277551 4.000000
-0.290288 -0.158742 -0.438021 4.000000
-0.290288 -0.185196 -0.428283 4.000000
-0.290288 0.216912 -0.433607 4.000000
-0.290288 0.180195 -0.433138 4.000000
-0.290288 -0.446495 -0.170885 4.000000
-0.290288 0.403936 0.239075 4.000000
-0.290288 -0.299262 0.331325 4.000000
-0.290288 -0.174314 0.444565 4.000000
-0.290288 -0.226524 -0.435824 4.000000
-0.290288 0.216712 -0.407007 4.000000
-0.290288 -0.177073 -0.446558 4.000000
-0.290288 0.108545 0.466651 4.000000
-0.290288 0.431750 -0.155032 4.000000
-0.290288 -0.172263 -0.425458 4.000000
-0.290288 -0.459344 0.057886 4.000000
-0.290288 0.230506 -0.442077 4.000000
-0.290288 -0.171903 -0.418356 4.000000
-0.290288 -0.368373 0.330240 4.000000
-0.290288 0.076117 0.436861 4.000000
-0.290288 -0.208753 -0.429431 4.000000
-0.290288 0.153985 -0.470990 4.000000
-0.290288 0.154148 0.445933 4.000000
-0.290288 -0.307514 0.335257 4.000000
-0.290288 0.043285 0.475848 4.000000
-0.290288 -0.444690 -0.061933 4.000000
-0.290288 -0.215042 0.425721 4.000000
-0.290288 -0.399266 -0.230926 4.000000
-0.290288 0.342350 -0.342317 4.000000
-0.290288 0.000307 0.452481 4.000000
-0.290288 0.418941 -0.164237 4.000000
-0.290288 -0.390549 -0.256601 4.000000
-0.290288 -0.455256 -0.202322 4.000000
-0.290288 -0.245578 0.372858 4.000000
-0.290288 0.491094 0.049438 4.000000
-0.290288 0.466610 0.021531 4.000000
-0.290288 -0.368205 -0.284648 4.000000
-0.290288 -0.458459 -0.007923 4.000000
-0.290288 0.090510 0.443696 4.000000
-0.290288 -0.475421 -0.031795 4.000000
-0.290288 0.420666 -0.258246 4.000000
-0.290288 -0.299255 -0.360492 4.000000
-0.290288 0.022587 0.453146 4.000000
-0.290288 0.179775 0.429469 4.000000
-0.290288 0.020913 -0.460724 4.000000
-0.290288 -0.408543 -0.273624 4.000000
-0.290288 -0.450618 -0.137588 4.000000
-0.290288 -0.381541 -0.280456 4.000000
-0.290288 -0.459279 0.034472 4.000000
-0.290288 0.347053 0.296618 4.000000
-0.290288 -0.327844 0.299212 4.000000
-0.290288 0.436461 0.089258 4.000000
-0.290288 0.406745 -0.205614 4.000000
-0.290288 -0.265966 -0.420861 4.000000
-0.290288 0.276194 0.352793 4.000000
-0.290288 0.189336 -0.414138 4.000000
-0.290288 -0.069374 0.484151 4.000000
-0.290288 0.178581 -0.436244 4.000000
-0.290288 0.413351 -0.262914 4.000000
-0.290288 -0.424493 0.222468 4.000000
-0.290288 0.460245 -0.120100 4.000000
-0.290288 0.242461 0.419088 4.000000
-0.290288 0.281423 -0.383331 4.000000
-0.290288 0.002894 0.484134 4.000000
-0.290288 0.293214 0.342109 4.000000
-0.290288 0.218456 -0.428733 4.000000
-0.290288 -0.019490 -0.494631 4.000000
-0.290288 0.479553 0.117055 4.000000
-0.290288 -0.325929 0.307026 4.000000
-0.290288 0.029686 -0.454067 4.000000
-0.290288 0.312688 0.322865 4.000000
-0.290288 -0.430261 -0.170923 4.000000
-0.290288 -0.460450 0.065584 4.000000
-0.290288 0.456840 0.050584 4.000000
-0.290288 -0.399572 -0.242411 4.000000
-0.290288 0.344167 0.333579 4.000000
-0.290288 0.226022 0.382849 4.000000
-0.290288 0.017515 -0.482475 4.000000
-0.290288 -0.404541 0.234800 4.000000
-0.290288 -0.416741 -0.203193 4.000000
-0.290288 0.329983 -0.356883 4.000000
-0.290288 -0.360350 -0.274704 4.000000
-0.290288 0.330916 -0.301061 4.000000
-0.290288 0.350747 0.273034 4.000000
-0.290288 -0.073037 0.490102 4.000000
-0.290288 0.366645 -0.286827 4.000000
-0.290288 0.223825 -0.432317 4.000000
-0.290288 -0.375745 0.278782 4.000000
-0.290288 -0.423391 -0.148175 4.000000
-0.290288 0.401143 0.253962 4.000000
-0.290288 -0.389937 0.262535 4.000000
-0.290288 -0.287326 -0.353021 4.000000
-0.290288 0.052296 -0.471137 4.000000
-0.290288 -0.379544 -0.250623 4.000000
-0.290288 -0.432441 -0.179773 4.000000
-0.290288 0.374230 -0.283305 4.000000
-0.290288 -0.228093 -0.418650 4.000000
-0.290288 0.461619 -0.032675 4.000000
-0.290288 0.448433 0.201636 4.000000
-0.290288 0.443215 0.177676 4.000000
-0.290288 -0.422319 0.158732 4.000000
-0.290288 -0.326711 -0.336742 4.000000
-0.290288 -0.074675 -0.474130 4.000000
-0.290288 0.459567 -0.106728 4.000000
-0.290288 0.050673 0.474484 4.000000
-0.290288 0.328217 0.370822 4.000000
-0.290288 -0.442399 -0.169655 4.000000
-0.290288 -0.314737 0.365150 4.000000
-0.290288 0.073442 0.438229 4.000000
-0.290288 0.482312 -0.029873 4.000000
-0.290288 -0.169668 -0.428323 4.000000
-0.290288 0.471468 0.018111 4.000000
-0.290288 0.194984 -0.452732 4.000000
-0.290288 -0.314003 -0.387961 4.000000
-0.290288 -0.417569 -0.170980 4.000000
-0.290288 -0.406526 -0.220390 4.000000
-0.290288 0.325674 -0.311935 4.000000
-0.290288 0.216655 0.405816 4.000000
-0.290288 0.497839 -0.023957 4.000000
-0.290288 0.342106 0.323816 4.000000
-0.290288 0.403245 -0.237173 4.000000
-0.290288 -0.106683 0.434223 4.000000
-0.290288 0.432652 -0.140210 4.000000
-0.290288 0.128559 0.438722 4.000000
-0.290288 -0.467214 -0.172097 4.000000
-0.290288 0.415165 -0.243567 4.000000
-0.290288 0.254731 0.372654 4.000000
-0.290288 0.247798 0.383512 4.000000
-0.290288 -0.132236 -0.466450 4.000000
-0.290288 -0.468986 -0.132107 4.000000
-0.290288 -0.435903 0.107195 4.000000
-0.290288 -0.398445 -0.270921 4.000000
-0.290288 -0.435889 -0.184696 4.000000
-0.290288 -0.114357 -0.478623 4.000000
-0.290288 0.116429 -0.486465 4.000000
-0.290288 -0.297178 -0.389970 4.000000
-0.290288 0.246839 -0.419791 4.000000
-0.290288 -0.444998 -0.207725 4.000000
-0.290288 0.417617 0.244631 4.000000
-0.290288 -0.437200 -0.239288 4.000000
-0.290288 0.344861 0.287638 4.000000
-0.290288 -0.129535 0.443919 4.000000
-0.290288 -0.072898 -0.442394 4.000000
-0.290288 -0.274025 0.393196 4.000000
-0.290288 -0.452807 -0.048673 4.000000
-0.290288 0.438740 -0.228090 4.000000
-0.290288 -0.227249 0.402488 4.000000
-0.290288 0.400372 0.212528 4.000000
-0.290288 0.399927 -0.292236 4.000000
-0.290288 0.102428 -0.461179 4.000000
-0.290288 -0.044234 0.468226 4.000000
-0.290288 -0.203570 0.402405 4.000000
-0.290288 0.436592 -0.158823 4.000000
-0.290288 0.477496 -0.094090 4.000000
-0.290288 -0.214224 0.421670 4.000000
-0.290288 0.448566 0.108682 4.000000
-0.290288 -0.083022 0.484985 4.000000
-0.290288 0.223681 -0.392962 4.000000
-0.290288 0.192034 0.409178 4.000000
-0.290288 -0.396751 0.291649 4.000000
-0.290288 -0.406081 0.257145 4.000000
-0.290288 0.431289 0.118690 4.000000
-0.290288 -0.385715 -0.256075 4.000000
-0.290288 -0.483098 0.112532 4.000000
-0.290288 0.383010 0.231380 4.000000
-0.290288 -0.375722 0.274857 4.000000
-0.290288 -0.484237 -0.024037 4.000000
-0.290288 0.179603 -0.413921 4.000000
-0.290288 0.081230 0.476486 4.000000
-0.290288 0.067118 -0.488730 4.000000
-0.290288 0.142346 -0.478972 4.000000
-0.290288 -0.318642 -0.377066 4.000000
-0.290288 0.430857 0.134627 4.000000
-0.290288 -0.276573 -0.361597 4.000000
-0.290288 0.494506 0.007735 4.000000
-0.290288 0.184210 0.427821 4.000000
-0.290288 -0.290588 0.372888 4.000000
-0.290288 -0.248286 -0.427314 4.000000
-0.290288 0.179908 0.426153 4.000000
-0.290288 -0.474526 0.114338 4.000000
-0.290288 0.040015 -0.478258 4.000000
-0.290288 0.441402 0.224741 4.000000
-0.290288 -0.149519 -0.468112 4.000000
-0.290288 0.425292 -0.167969 4.000000
-0.290288 0.441104 -0.105661 4.000000
-0.290288 -0.471376 0.099148 4.000000
-0.290288 0.318964 0.318423 4.000000
-0.290288 -0.435004 0.161554 4.000000
-0.290288 0.485788 0.085726 4.000000
-0.290288 0.396357 -0.293358 4.000000
-0.290288 -0.280756 0.357849 4.000000
-0.290288 -0.240556 -0.431572 4.000000
-0.290288 -0.066800 0.457338 4.000000
-0.290288 0.039450 0.453788 4.000000
-0.290288 -0.375107 0.309844 4.000000
-0.290288 -0.440360 -0.221394 4.000000
-0.290288 -0.204577 0.418704 4.000000
-0.290288 -0.042987 0.441330 4.000000
-0.290288 -0.347063 -0.327853 4.000000
-0.290288 0.261546 -0.363266 4.000000
-0.290288 0.365424 -0.257319 4.000000
-0.290288 -0.147641 -0.473582 4.000000
-0.290288 -0.318187 -0.363257 4.000000
-0.290288 0.220588 0.396428 4.000000
-0.290288 -0.160906 0.428690 4.000000
-0.290288 0.496108 0.045946 4.000000
-0.290288 -0.045868 -0.449134 4.000000
-0.290288 0.400718 0.193456 4.000000
-0.290288 0.454693 -0.011209 4.000000
-0.290288 0.391107 0.248607 4.000000
-0.290288 -0.421531 0.178558 4.000000
-0.290288 -0.487678 0.019247 4.000000
-0.290288 -0.399122 -0.226352 4.000000
-0.290288 0.335940 0.350148 4.000000
-0.290288 0.070595 -0.489646 4.000000
-0.290288 0.218015 0.431832 4.000000
-0.290288 0.444877 -0.040333 4.000000
-0.290288 0.459578 0.024457 4.000000
-0.290288 -0.358726 -0.333104 4.000000
-0.290288 0.296707 -0.392619 4.000000
-0.290288 0.456682 -0.185255 4.000000
-0.290288 -0.371790 -0.303498 4.000000
-0.290288 0.357396 0.283614 4.000000
-0.290288 -0.264210 -0.380130 4.000000
-0.290288 -0.380078 -0.284542 4.000000
-0.290288 0.420781 -0.233173 4.000000
-0.290288 -0.392739 0.264537 4.000000
-0.290288 -0.347794 -0.338150 4.000000
-0.290288 0.489584 -0.000450 4.000000
-0.290288 0.476714 0.066094 4.000000
-0.290288 -0.042587 -0.477369 4.000000
-0.290288 -0.383213 -0.266553 4.000000
-0.290288 0.159330 0.458642 4.000000
-0.290288 -0.226669 -0.412427 4.000000
-0.290288 -0.446499 0.046327 4.000000
-0.290288 0.139631 -0.433099 4.000000
-0.290288 -0.387540 0.242823 4.000000
-0.290288 -0.128536 -0.477648 4.000000
-0.290288 -0.435591 -0.143092 4.000000
-0.290288 -0.352754 0.296091 4.000000
-0.290288 -0.452619 0.136900 4.000000
-0.290288 -0.371518 -0.291263 4.000000
-0.290288 -0.428762 0.249236 4.000000
-0.290288 -0.289311 0.354393 4.000000
-0.290288 -0.217507 -0.439535 4.000000
-0.290288 -0.371431 0.300382 4.000000
-0.290288 -0.454767 0.060370 4.000000
-0.290288 0.297519 0.380145 4.000000
-0.290288 0.483295 0.117164 4.000000
-0.290288 0.484824 -0.085068 4.000000
-0.290288 -0.320853 -0.344985 4.000000
-0.290288 0.290677 0.392297 4.000000
-0.290288 -0.280368 -0.391780 4.000000
-0.290288 -0.099303 -0.446095 4.000000
-0.290288 0.432747 0.211637 4.000000
-0.290288 0.488082 0.013784 4.000000
-0.290288 0.339286 0.299292 4.000000
-0.290288 0.354803 -0.289570 4.000000
-0.290288 0.111218 -0.456360 4.000000
-0.290288 0.391961 -0.282655 4.000000
-0.290288 -0.344367 -0.339376 4.000000
-0.290288 0.439718 -0.124055 4.000000
-0.290288 -0.262608 -0.394212 4.000000
-0.290288 -0.258432 0.386090 4.000000
-0.290288 -0.451522 -0.118297 4.000000
-0.290288 -0.030869 0.445372 4.000000
-0.290288 0.047030 0.446734 4.000000
-0.290288 -0.175399 -0.467926 4.000000
-0.290288 -0.024185 -0.454871 4.000000
-0.290288 0.467105 0.108997 4.000000
-0.290288 -0.133018 0.444068 4.000000
-0.290288 0.424352 -0.173705 4.000000
-0.290288 -0.454492 0.133539 4.000000
-0.290288 -0.369783 0.297203 4.000000
-0.290288 0.446342 -0.033096 4.000000
-0.290288 0.456048 -0.048645 4.000000
-0.290288 -0.448489 0.156338 4.000000
-0.290288 -0.030876 0.458580 4.000000
-0.290288 -0.288933 -0.371599 4.000000
-0.290288 0.077779 0.442360 4.000000
-0.290288 -0.267275 0.389301 4.000000
-0.290288 0.313634 0.316487 4.000000
-0.290288 0.414176 0.163376 4.000000
-0.290288 -0.425078 0.238426 4.000000
-0.290288 -0.482048 0.060845 4.000000
-0.290288 0.293751 0.361940 4.000000
-0.290288 -0.388406 0.217650 4.000000
-0.290288 -0.106060 -0.464125 4.000000
-0.290288 -0.130782 0.431494 4.000000
-0.290288 0.188945 0.403100 4.000000
-0.290288 0.414510 -0.229857 4.000000
-0.290288 -0.170678 0.419372 4.000000
-0.290288 -0.315912 -0.340973 4.000000
-0.290288 -0.215159 -0.431047 4.000000
-0.290288 0.400038 -0.255924 4.000000
-0.290288 -0.310359 -0.321518 4.000000
-0.290288 0.415807 0.256772 4.000000
-0.290288 -0.469203 0.078656 4.000000
-0.290288 0.466677 -0.154691 4.000000
-0.290288 0.137114 -0.450890 4.000000
-0.290288 0.339935 0.339206 4.000000
-0.290288 -0.348834 0.303547 4.000000
-0.290288 -0.309182 0.369709 4.000000
-0.290288 -0.490093 0.082430 4.000000
-0.290288 -0.465043 0.173040 4.000000
-0.290288 -0.098590 -0.460566 4.000000
-0.290288 -0.214821 -0.446757 4.000000
-0.290288 -0.427051 -0.221370 4.000000
-0.290288 -0.116669 0.463624 4.000000
-0.290288 -0.239686 0.380222 4.000000
-0.290288 -0.271472 0.355327 4.000000
-0.290288 0.367727 0.291991 4.000000
-0.290288 0.197217 -0.404418 4.000000
-0.290288 0.439976 0.070836 4.000000
-0.290288 0.133069 0.476185 4.000000
-0.290288 -0.313387 -0.334903 4.000000
-0.290288 0.365184 -0.321420 4.000000
-0.290288 -0.462900 -0.148124 4.000000
-0.290288 -0.303558 -0.346465 4.000000
-0.290288 -0.445263 -0.011214 4.000000
-0.290288 -0.410599 -0.238820 4.000000
-0.290288 0.143611 -0.425379 4.000000
-0.290288 -0.128768 -0.441521 4.000000
-0.290288 0.439742 -0.085101 4.000000
-0.290288 0.269898 -0.366712 4.000000
-0.290288 0.051441 -0.496796 4.000000
-0.290288 0.038094 0.477355 4.000000
-0.290288 0.454648 -0.171951 4.000000
-0.290288 -0.365461 -0.335263 4.000000
-0.290288 0.462086 -0.094775 4.000000
-0.290288 0.183669 -0.458443 4.000000
-0.290288 -0.421591 -0.169307 4.000000
-0.290288 0.193355 -0.460986 4.000000
-0.290288 -0.402175 -0.244927 4.000000
-0.290288 0.363683 0.272472 4.000000
-0.290288 0.445598 0.109498 4.000000
-0.290288 -0.396912 0.232850 4.000000
-0.290288 -0.480686 -0.091206 4.000000
-0.290288 0.348922 0.309560 4.000000
-0.290288 -0.387945 0.286540 4.000000
-0.290288 -0.280304 -0.350755 4.000000
-0.290288 0.063370 0.485913 4.000000
-0.290288 0.343573 0.284501 4.000000
-0.290288 0.460655 0.136749 4.000000
-0.290288 0.125314 0.472696 4.000000
-0.290288 -0.460492 0.047433 4.000000
-0.290288 0.448966 -0.209770 4.000000
-0.290288 -0.481787 -0.080051 4.000000
-0.290288 0.488534 0.062729 4.000000
-0.290288 0.394470 -0.227101 4.000000
-0.290288 -0.348834 -0.313949 4.000000
-0.290288 0.161870 0.419447 4.000000
-0.290288 -0.325066 0.317108 4.000000
-0.290288 -0.379628 -0.300715 4.000000
-0.290288 0.488892 -0.072825 4.000000
-0.290288 0.437828 0.165873 4.000000
-0.290288 0.376351 0.295084 4.000000
-0.290288 -0.479818 0.063937 4.000000
-0.290288 0.218380 0.420116 4.000000
-0.290288 0.495916 -0.039666 4.000000
-0.290288 0.215641 -0.416209 4.000000
-0.290288 -0.112063 -0.461685 4.000000
-0.290288 -0.078502 -0.469853 4.000000
-0.290288 0.242542 0.384314 4.000000
-0.290288 0.350195 -0.334843 4.000000
-0.290288 -0.377066 0.313511 4.000000
-0.290288 0.367902 -0.300682 4.000000
-0.290288 0.420265 -0.252848 4.000000
-0.290288 0.072020 -0.445176 4.000000
-0.290288 -0.476843 0.038583 4.000000
-0.290288 0.443671 0.049313 4.000000
-0.290288 -0.475937 0.018905 4.000000
-0.290288 0.214639 0.433670 4.000000
-0.290288 0.422829 -0.210251 4.000000
-0.290288 -0.401277 -0.286973 4.000000
-0.290288 -0.049649 -0.463437 4.000000
-0.290288 0.227841 0.418846 4.000000
-0.290288 0.187843 -0.425350 4.000000
-0.290288 0.428442 0.163897 4.000000
-0.290288 -0.401638 -0.195121 4.000000
-0.290288 0.333059 -0.330773 4.000000
-0.290288 0.184897 -0.454757 4.000000
-0.290288 -0.447249 -0.104964 4.000000
-0.290288 0.454320 0.190207 4.000000
-0.290288 0.349512 0.343184 4.000000
-0.290288 -0.395417 0.204548 4.000000
-0.290288 -0.008776 0.495611 4.000000
-0.290288 -0.324612 -0.339880 4.000000
-0.290288 -0.304458 0.326840 4.000000
-0.290288 0.498065 0.005176 4.000000
-0.290288 0.459290 -0.017563 4.000000
-0.290288 0.380952 -0.245796 4.000000
-0.290288 0.185943 -0.451392 4.000000
-0.290288 -0.259547 0.421552 4.000000
-0.290288 0.470673 -0.079361 4.000000
-0.290288 -0.151855 0.426511 4.000000
-0.290288 -0.107429 -0.479963 4.000000
-0.290288 -0.214218 -0.440962 4.000000
-0.290288 -0.302270 -0.372379 4.000000
-0.290288 0.153838 0.451195 4.000000
-0.290288 -0.495030 -0.032080 4.000000
-0.290288 0.136469 0.430975 4.000000
-0.290288 -0.061390 -0.495776 4.000000
-0.290288 0.485632 0.007258 4.000000
-0.290288 0.215379 -0.394878 4.000000
-0.290288 0.355589 0.286799 4.000000
-0.290288 -0.377423 -0.243432 4.000000
-0.290288 -0.217965 -0.433715 4.000000
-0.290288 0.450207 0.204330 4.000000
-0.290288 0.028246 0.481334 4.000000
-0.290288 0.468155 -0.095153 4.000000
-0.290288 -0.272448 -0.382341 4.000000
-0.290288 0.022512 0.480841 4.000000
-0.290288 0.343979 -0.357276 4.000000
-0.290288 0.393870 -0.246122 4.000000
-0.290288 -0.337005 0.290955 4.000000
-0.290288 0.316713 0.379670 4.000000
-0.290288 -0.317016 -0.344875 4.000000
-0.290288 -0.157044 -0.473736 4.000000
-0.290288 -0.208170 0.405722 4.000000
-0.290288 -0.422749 0.206536 4.000000
-0.290288 -0.221473 0.427201 4.000000
-0.290288 -0.049432 -0.449222 4.000000
-0.290288 0.235113 0.394615 4.000000
-0.290288 -0.458403 0.116023 4.000000
-0.290288 -0.397584 0.255503 4.000000
-0.290288 0.262015 0.364571 4.000000
-0.290288 0.426565 -0.171293 4.000000
-0.290288 -0.279223 -0.383171 4.000000
-0.290288 0.482665 -0.105739 4.000000
-0.290288 0.396929 -0.275360 4.000000
-0.290288 -0.440594 0.214302 4.000000
-0.290288 0.072776 0.469944 4.000000
-0.290288 0.352229 -0.341039 4.000000
-0.290288 0.250585 0.416244 4.000000
-0.290288 -0.430749 -0.234335 4.000000
-0.290288 -0.490306 0.045065 4.000000
-0.290288 -0.052930 -0.487890 4.000000
-0.290288 -0.445541 0.053443 4.000000
-0.290288 -0.446019 0.082693 4.000000
-0.290288 -0.303459 0.344054 4.000000
-0.290288 -0.480423 -0.017582 4.000000
-0.290288 0.443520 -0.139219 4.000000
-0.290288 0.093361 -0.471313 4.000000
-0.290288 0.453835 -0.083008 4.000000
-0.290288 0.278102 -0.362784 4.000000
-0.290288 -0.412250 -0.177860 4.000000
-0.290288 -0.353781 -0.318196 4.000000
-0.290288 -0.458492 0.025313 4.000000
-0.290288 0.478588 -0.118248 4.000000
-0.290288 0.423943 -0.251038 4.000000
-0.290288 -0.144539 0.436807 4.000000
-0.290288 -0.320012 0.334248 4.000000
-0.290288 0.469781 -0.013086 4.000000
-0.290288 -0.396040 0.273883 4.000000
-0.290288 -0.463642 -0.052218 4.000000
-0.290288 -0.496579 -0.029235 4.000000
-0.290288 -0.099082 -0.442231 4.000000
-0.290288 -0.485682 0.034816 4.000000
-0.290288 0.460458 0.169108 4.000000
-0.290288 -0.115156 -0.457063 4.000000
-0.290288 0.449239 -0.176367 4.000000
-0.290288 0.461682 0.117426 4.000000
-0.290288 0.442224 0.110794 4.000000
-0.290288 0.227380 -0.417065 4.000000
-0.290288 -0.234740 -0.385469 4.000000
-0.290288 0.467166 0.003357 4.000000
-0.290288 0.442527 -0.108686 4.000000
-0.290288 0.451383 0.137164 4.000000
-0.290288 -0.267414 0.374299 4.000000
-0.290288 0.412455 0.196031 4.000000
-0.290288 -0.044023 -0.463783 4.000000
-0.290288 -0.442910 0.042262 4.000000
-0.290288 -0.343739 0.318417 4.000000
-0.290288 0.321726 -0.346013 4.000000
-0.290288 -0.470134 0.081762 4.000000
-0.290288 -0.448321 -0.114059 4.000000
-0.290288 0.129125 -0.460380 4.000000
-0.290288 0.464301 -0.030676 4.000000
-0.290288 -0.454636 0.122349 4.000000
-0.290288 0.466422 -0.130116 4.000000
-0.290288 -0.157671 0.433736 4.000000
-0.290288 -0.271653 0.395206 4.000000
-0.290288 -0.450479 -0.181634 4.000000
-0.290288 -0.463548 0.109486 4.000000
-0.290288 -0.437591 0.151251 4.000000
-0.290288 0.015926 0.466457 4.000000
-0.290288 -0.316714 0.313560 4.000000
-0.290288 0.179242 0.435722 4.000000
-0.290288 -0.326807 0.329510 4.000000
-0.290288 -0.217841 0.414860 4.000000
-0.290288 -0.074777 -0.446270 4.000000
-0.290288 0.465510 0.155608 4.000000
-0.290288 -0.155431 0.466860 4.000000
-0.290288 0.470033 -0.147622 4.000000
-0.290288 0.146329 0.461034 4.000000
-0.290288 0.492045 -0.017676 4.000000
-0.290288 -0.015518 -0.490000 4.000000
-0.290288 -0.174892 -0.436519 4.000000
-0.290288 -0.212680 0.392942 4.000000
-0.290288 -0.313886 -0.382563 4.000000
-0.290288 -0.411645 -0.232705 4.000000
-0.290288 0.019890 -0.448157 4.000000
-0.290288 -0.448551 -0.069479 4.000000
-0.290288 -0.398797 0.261732 4.000000
-0.290288 0.118014 -0.434601 4.000000
-0.290288 -0.421384 0.185496 4.000000
-0.290288 0.122128 -0.468118 4.000000
-0.290288 -0.112161 0.449744 4.000000
-0.290288 -0.014104 0.472139 4.000000
-0.290288 0.030809 0.462159 4.000000
-0.290288 0.437159 -0.116629 4.000000
-0.290288 -0.272888 -0.414083 4.000000
-0.290288 -0.420332 0.263455 4.000000
-0.290288 -0.466467 -0.145540 4.000000
-0.290288 -0.268914 -0.374757 4.000000
-0.290288 -0.155865 -0.460227 4.000000
-0.290288 0.240382 -0.431786 4.000000
-0.290288 -0.408872 -0.202429 4.000000
-0.290288 0.201229 -0.436697 4.000000
-0.290288 -0.461491 -0.001488 4.000000
-0.290288 -0.472464 0.001150 4.000000
-0.290288 0.413830 -0.195729 4.000000
-0.290288 0.361433 -0.307798 4.000000
-0.290288 -0.398095 -0.286958 4.000000
-0.290288 0.428383 0.211016 4.000000
-0.290288 -0.444575 0.068273 4.000000
-0.290288 -0.319899 -0.380879 4.000000
-0.290288 0.057931 0.470591 4.000000
-0.290288 0.413213 -0.258282 4.000000
-0.290288 0.125508 -0.479395 4.000000
-0.290288 -0.075906 0.447495 4.000000
-0.290288 0.432948 0.124711 4.000000
-0.290288 0.378994 -0.241955 4.000000
-0.290288 -0.422824 0.198766 4.000000
-0.290288 -0.407114 -0.210319 4.000000
-0.290288 -0.493179 0.024594 4.000000
-0.290288 0.155186 0.416448 4.000000
-0.290288 0.318691 -0.384821 4.000000
-0.290288 0.059516 -0.478995 4.000000
-0.290288 -0.399150 0.195413 4.000000
-0.290288 0.079519 0.468407 4.000000
-0.290288 0.106902 -0.464441 4.000000
-0.290288 -0.006331 -0.464360 4.000000
-0.290288 -0.229993 -0.397649 4.000000
-0.290288 -0.040461 0.490401 4.000000
-0.290288 -0.414096 0.240108 4.000000
-0.290288 0.449528 0.212167 4.000000
-0.290288 -0.085890 -0.454881 4.000000
-0.290288 -0.486633 0.082894 4.000000
-0.290288 0.439607 0.171995 4.000000
-0.290288 -0.203363 -0.411106 4.000000
-0.290288 -0.164704 -0.466044 4.000000
-0.290288 0.328905 -0.351164 4.000000
-0.290288 -0.235508 -0.410636 4.000000
-0.290288 0.412766 0.167466 4.000000
-0.290288 -0.285474 -0.380487 4.000000
-0.290288 -0.428281 0.194867 4.000000
-0.290288 0.322956 0.351898 4.000000
-0.290288 0.340595 0.307148 4.000000
-0.290288 -0.370218 -0.274891 4.000000
-0.290288 0.475824 -0.067939 4.000000
-0.290288 -0.433244 0.183967 4.000000
-0.290288 -0.175161 0.437832 4.000000
-0.290288 0.277796 -0.370129 4.000000
-0.290288 -0.392700 0.277804 4.000000
-0.290288 0.081406 -0.448473 4.000000
-0.290288 0.170206 -0.417594 4.000000
-0.290288 0.225553 0.421365 4.000000
-0.290288 0.356333 -0.320978 4.000000
-0.290288 -0.381697 -0.297048 4.000000
-0.290288 0.280155 0.372240 4.000000
-0.290288 0.053103 0.444230 4.000000
-0.290288 0.453048 0.129317 4.000000
-0.290288 0.358684 -0.347217 4.000000
-0.290288 0.085484 -0.451386 4.000000
-0.290288 -0.446570 -0.214232 4.000000
-0.290288 0.366303 -0.274366 4.000000
-0.290288 0.147700 -0.430869 4.000000
-0.290288 0.414252 -0.179957 4.000000
-0.290288 0.391354 0.305828 4.000000
-0.290288 0.421414 0.249013 4.000000
-0.290288 0.274784 0.379466 4.000000
-0.290288 -0.426973 -0.216996 4.000000
-0.290288 -0.410273 -0.218600 4.000000
-0.290288 -0.012581 -0.451132 4.000000
-0.290288 -0.460508 0.111656 4.000000
-0.290288 -0.338355 0.294577 4.000000
-0.290288 0.422330 -0.225707 4.000000
-0.290288 0.326874 -0.332772 4.000000
-0.290288 0.487512 0.095753 4.000000
-0.290288 0.086620 0.470769 4.000000
-0.290288 -0.484747 0.031615 4.000000
-0.290288 0.186066 -0.411670 4.000000
-0.290288 -0.472380 -0.002346 4.000000
-0.290288 -0.471430 0.031349 4.000000
-0.290288 -0.040545 0.486256 4.000000
-0.290288 0.454305 0.125964 4.000000
-0.290288 0.420518 0.227513 4.000000
-0.290288 -0.153294 0.463847 4.000000
-0.290288 0.135107 -0.476868 4.000000
-0.290288 -0.303323 -0.337003 4.000000
-0.290288 -0.391834 0.211281 4.000000
-0.290288 -0.134897 0.438461 4.000000
-0.290288 0.458892 0.185418 4.000000
-0.290288 -0.202575 0.399077 4.000000
-0.290288 -0.389918 -0.310261 4.000000
-0.290288 0.130291 -0.481699 4.000000
-0.290288 0.234308 -0.401849 4.000000
-0.290288 0.346757 -0.323452 4.000000
-0.290288 0.166596 0.466209 4.000000
-0.290288 0.117845 -0.452134 4.000000
-0.290288 0.097197 -0.474119 4.000000
-0.290288 0.308952 0.367241 4.000000
-0.290288 -0.443394 -0.214550 4.000000
-0.290288 0.407234 -0.257272 4.000000
-0.290288 -0.472479 0.017964 4.000000
-0.290288 -0.392654 -0.245749 4.000000
-0.290288 -0.103747 0.469079 4.000000
-0.290288 -0.267301 0.368014 4.000000
-0.290288 -0.380114 0.247418 4.000000
-0.290288 -0.075418 0.458628 4.000000
-0.290288 -0.196490 0.443507 4.000000
-0.290288 0.049953 0.493112 4.000000
-0.290288 0.414830 -0.271404 4.000000
-0.290288 0.436192 0.178751 4.000000
-0.290288 0.247510 -0.429569 4.000000
-0.290288 0.165713 -0.433422 4.000000
-0.290288 0.449134 -0.020033 4.000000
-0.290288 -0.445940 0.217975 4.000000
-0.290288 0.278024 0.386510 4.000000
-0.290288 -0.090935 -0.482412 4.000000
-0.290288 0.285497 -0.389476 4.000000
-0.290288 -0.297473 0.377199 4.000000
-0.290288 -0.052374 -0.484352 4.000000
-0.290288 0.381575 0.307176 4.000000
-0.290288 -0.206919 0.422751 4.000000
-0.290288 0.271142 0.380093 4.000000
-0.290288 -0.006405 -0.476870 4.000000
-0.290288 -0.484188 -0.071413 4.000000
-0.290288 -0.081422 -0.460253 4.000000
-0.290288 -0.445945 -0.053598 4.000000
-0.290288 0.087873 -0.484764 4.000000
-0.290288 0.182179 0.461285 4.000000
-0.290288 0.015581 -0.463671 4.000000
-0.290288 -0.444041 -0.043790 4.000000
-0.290288 -0.431338 -0.226572 4.000000
-0.290288 -0.209174 -0.415199 4.000000
-0.290288 -0.245150 -0.395263 4.000000
-0.290288 -0.047431 0.464239 4.000000
-0.290288 0.219351 0.387712 4.000000
-0.290288 -0.425071 0.143856 4.000000
-0.290288 -0.035773 0.471997 4.000000
-0.290288 0.398564 0.278715 4.000000
-0.290288 0.464399 -0.053504 4.000000
-0.290288 0.381940 -0.277680 4.000000
-0.290288 -0.463545 0.082069 4.000000
-0.290288 0.355594 0.346733 4.000000
-0.290288 -0.135460 0.432020 4.000000
-0.290288 -0.477469 0.030790 4.000000
-0.290288 -0.476844 0.035020 4.000000
-0.290288 0.134451 0.446388 4.000000
-0.290288 0.427916 -0.174829 4.000000
-0.290288 -0.243506 -0.417198 4.000000
-0.290288 0.450269 -0.118394 4.000000
-0.290288 0.387474 -0.274955 4.000000
-0.290288 -0.392631 -0.235437 4.000000
-0.290288 0.332038 0.336124 4.000000
-0.290288 -0.120072 -0.445180 4.000000
-0.290288 -0.403598 0.216200 4.000000
-0.290288 -0.434608 0.189916 4.000000
-0.290288 -0.456718 -0.057015 4.000000
-0.290288 -0.440893 0.070098 4.000000
-0.290288 -0.345817 0.294592 4.000000
-0.290288 -0.159317 0.461728 4.000000
-0.290288 0.452005 0.114389 4.000000
-0.290288 0.377189 -0.316885 4.000000
-0.290288 0.486991 -0.042327 4.000000
-0.290288 0.393002 0.226639 4.000000
-0.290288 0.371557 -0.299602 4.000000
-0.290288 -0.080570 0.479973 4.000000
-0.290288 -0.460412 0.139355 4.000000
-0.290288 -0.131034 -0.475472 4.000000
-0.290288 -0.445964 0.158987 4.000000
-0.290288 0.425736 0.228747 4.000000
-0.290288 0.276841 -0.415937 4.000000
-0.290288 -0.211855 0.404979 4.000000
-0.290288 0.244718 0.414863 4.000000
-0.290288 0.441766 0.158749 4.000000
-0.290288 0.443257 0.147762 4.000000
-0.290288 -0.376880 0.248530 4.000000
-0.290288 0.364801 -0.330200 4.000000
-0.290288 -0.480194 -0.098382 4.000000
-0.290288 -0.147066 -0.457097 4.000000
-0.290288 -0.473707 0.038167 4.000000
-0.290288 0.251693 0.382888 4.000000
-0.290288 -0.419439 -0.200376 4.000000
-0.290288 -0.420052 0.166916 4.000000
-0.290288 0.130671 0.457529 4.000000
-0.290288 0.273469 -0.401927 4.000000
-0.290288 -0.429968 -0.177233 4.000000
-0.290288 -0.421368 -0.232427 4.000000
-0.290288 0.120682 -0.453649 4.000000
-0.290288 -0.333925 -0.310054 4.000000
-0.290288 0.393754 -0.211617 4.000000
-0.290288 0.458224 -0.175249 4.000000
-0.290288 -0.448497 -0.161229 4.000000
-0.290288 -0.478506 0.059014 4.000000
-0.290288 -0.444880 0.059843 4.000000
-0.290288 -0.438142 -0.118701 4.000000
-0.290288 0.073384 0.473360 4.000000
-0.290288 -0.261999 -0.367725 4.000000
-0.290288 0.226114 0.408044 4.000000
-0.290288 -0.421333 0.150583 4.000000
-0.290288 -0.236890 -0.388309 4.000000
-0.290288 0.364953 -0.317816 4.000000
-0.290288 -0.483693 -0.083213 4.000000
-0.290288 0.360518 -0.293662 4.000000
-0.290288 0.333424 -0.322612 4.000000
-0.290288 -0.450481 0.133046 4.000000
-0.290288 0.370080 0.327136 4.000000
-0.290288 0.282180 -0.366450 4.000000
-0.290288 0.107711 0.443238 4.000000
-0.290288 0.383494 0.271960 4.000000
-0.290288 -0.002484 0.473312 4.000000
-0.290288 0.329595 0.365824 4.000000
-0.290288 -0.034319 -0.465357 4.000000
-0.290288 0.197098 0.432420 4.000000
-0.290288 0.385862 -0.271029 4.000000
-0.290288 0.433028 0.228475 4.000000
-0.290288 0.446181 -0.112754 4.000000
-0.290288 0.440203 0.142978 4.000000
-0.290288 -0.221802 0.417832 4.000000
-0.290288 -0.120065 -0.433225 4.000000
-0.290288 -0.147387 0.464917 4.000000
-0.290288 -0.447837 -0.079552 4.000000
-0.290288 0.496798 -0.027625 4.000000
-0.290288 -0.414951 0.183414 4.000000
-0.290288 -0.383165 0.248663 4.000000
-0.290288 -0.445984 -0.176499 4.000000
-0.290288 0.294062 0.380861 4.000000
-0.290288 -0.475340 0.088733 4.000000
-0.290288 -0.015592 -0.460017 4.000000
-0.290288 -0.368172 0.320771 4.000000
-0.290288 -0.417687 0.209059 4.000000
-0.290288 0.479894 0.062948 4.000000
-0.290288 -0.403151 0.250193 4.000000
-0.290288 0.236322 -0.420354 4.000000
-0.290288 -0.479707 -0.014210 4.000000
-0.290288 0.325652 -0.351429 4.000000
-0.290288 -0.362346 -0.316912 4.000000
-0.290288 0.139939 -0.442929 4.000000
-0.290288 -0.037410 -0.489962 4.000000
-0.290288 0.327311 0.342956 4.000000
-0.290288 0.450450 0.080047 4.000000
-0.290288 -0.156134 -0.448922 4.000000
-0.290288 -0.039380 0.477513 4.000000
-0.290288 -0.133729 0.460443 4.000000
-0.290288 -0.312860 0.367989 4.000000
-0.290288 -0.225407 -0.428402 4.000000
-0.290288 -0.279865 0.389413 4.000000
-0.290288 -0.280522 -0.396497 4.000000
-0.290288 -0.330137 -0.320651 4.000000
-0.290288 -0.379536 -0.304695 4.000000
-0.290288 0.020938 -0.480458 4.000000
-0.290288 0.437850 -0.194638 4.000000
-0.290288 -0.457335 -0.122480 4.000000
-0.290288 0.408036 -0.183662 4.000000
-0.290288 -0.455969 0.107363 4.000000
-0.290288 0.166273 0.444427 4.000000
-0.290288 -0.404274 -0.217200 4.000000
-0.290288 -0.355071 -0.292571 4.000000
-0.290288 0.428672 0.152665 4.000000
-0.290288 -0.195443 0.450625 4.000000
-0.290288 0.409420 0.231221 4.000000
-0.290288 0.205682 -0.443398 4.000000
-0.290288 0.454025 -0.141060 4.000000
-0.290288 0.372251 -0.294144 4.000000
-0.290288 0.374841 -0.300459 4.000000
-0.290288 0.134215 -0.480063 4.000000
-0.290288 0.296900 -0.369413 4.000000
-0.290288 -0.451938 0.070448 4.000000
-0.290288 -0.226583 -0.403201 4.000000
-0.290288 -0.396749 0.270519 4.000000
-0.290288 -0.422546 0.233136 4.000000
-0.290288 0.295531 -0.384791 4.000000
-0.290288 0.243073 -0.394534 4.000000
-0.290288 -0.352743 -0.351542 4.000000
-0.290288 -0.141534 0.465896 4.000000
-0.290288 -0.487650 0.037358 4.000000
-0.290288 0.289799 0.338767 4.000000
-0.290288 -0.433526 0.175914 4.000000
-0.290288 0.467678 0.088596 4.000000
-0.290288 0.290237 0.368116 4.000000
-0.290288 0.318882 0.338660 4.000000
-0.290288 -0.461085 0.062146 4.000000
-0.290288 0.437884 0.218585 4.000000
-0.290288 -0.137202 0.450871 4.000000
-0.290288 0.100533 -0.448496 4.000000
-0.290288 0.054375 -0.462290 4.000000
-0.290288 -0.230582 0.438555 4.000000
-0.290288 0.391086 0.253275 4.000000
-0.290288 0.387441 0.261467 4.000000
-0.290288 -0.187675 0.414779 4.000000
-0.290288 0.491180 0.056809 4.000000
-0.290288 -0.154295 -0.444628 4.000000
-0.290288 0.371615 -0.321113 4.000000
-0.290288 0.388963 0.257204 4.000000
-0.290288 0.344497 -0.290603 4.000000
-0.290288 -0.444101 -0.142272 4.000000
-0.290288 0.449871 -0.206631 4.000000
-0.290288 0.316472 0.382726 4.000000
-0.290288 0.454011 -0.090719 4.000000
-0.290288 0.173325 0.446101 4.000000
-0.290288 0.358138 0.318225 4.000000
-0.290288 0.345381 0.337512 4.000000
-0.290288 -0.496934 -0.007923 4.000000
-0.290288 0.356320 0.290409 4.000000
-0.290288 -0.494327 -0.021007 4.000000
-0.290288 -0.308102 0.377876 4.000000
-0.290288 0.467381 0.057266 4.000000
-0.290288 -0.449614 0.073025 4.000000
-0.290288 0.332863 0.315411 4.000000
-0.290288 0.045691 0.487241 4.000000
-0.290288 -0.164986 0.467305 4.000000
-0.290288 -0.398164 0.251502 4.000000
-0.290288 0.463890 0.086636 4.000000
-0.290288 0.400126 0.289193 4.000000
-0.290288 0.204567 0.433784 4.000000
-0.290288 -0.254517 0.382571 4.000000
-0.290288 -0.195186 -0.453911 4.000000
-0.290288 -0.232532 -0.407318 4.000000
-0.290288 -0.457931 -0.178546 4.000000
-0.290288 -0.303820 0.369784 4.000000
-0.290288 0.461162 -0.001159 4.000000
-0.290288 -0.323715 -0.371742 4.000000
-0.290288 0.098786 0.458931 4.000000
-0.290288 0.311107 0.355547 4.000000
-0.290288 0.318753 -0.325220 4.000000
-0.290288 0.314471 0.338693 4.000000
-0.290288 0.114051 0.455908 4.000000
-0.290288 -0.442681 -0.164064 4.000000
-0.290288 0.414947 -0.173955 4.000000
-0.290288 0.287561 -0.356807 4.000000
-0.290288 -0.367588 0.248501 4.000000
-0.290288 -0.196799 0.402945 4.000000
-0.290288 0.274023 -0.377887 4.000000
-0.290288 -0.321327 0.319355 4.000000
-0.290288 0.101528 -0.479066 4.000000
-0.290288 0.468597 -0.082398 4.000000
-0.290288 0.151072 0.445389 4.000000
-0.290288 0.193907 0.427479 4.000000
-0.290288 0.310052 -0.379200 4.000000
-0.290288 0.448884 -0.161311 4.000000
-0.290288 -0.449262 0.168020 4.000000
-0.290288 -0.269181 -0.371413 4.000000
-0.290288 -0.105613 0.461074 4.000000
-0.290288 -0.100185 0.438257 4.000000
-0.290288 0.279852 0.352874 4.000000
-0.290288 0.133605 0.427183 4.000000
-0.290288 0.004504 -0.488110 4.000000
-0.290288 -0.326315 -0.321019 4.000000
-0.290288 0.388553 -0.308131 4.000000
-0.290288 0.467656 0.151571 4.000000
-0.290288 -0.446678 0.102081 4.000000
-0.290288 0.117967 0.466598 4.000000
-0.290288 0.448309 -0.073054 4.000000
-0.290288 0.482704 0.085003 4.000000
-0.290288 -0.051454 0.479317 4.000000
-0.290288 -0.037280 0.490565 4.000000
-0.290288 -0.087274 -0.445075 4.000000
-0.290288 0.074743 -0.458388 4.000000
-0.290288 -0.103407 0.473294 4.000000
-0.290288 0.433582 0.208149 4.000000
-0.290288 0.242262 0.408196 4.000000
-0.290288 -0.397014 0.200600 4.000000
-0.290288 -0.178322 0.427616 4.000000
-0.290288 0.274562 -0.382266 4.000000
-0.290288 0.166960 0.438362 4.000000
-0.290288 0.454712 0.108742 4.000000
-0.290288 0.372644 -0.264153 4.000000
-0.290288 -0.024841 -0.483833 4.000000
-0.290288 0.279001 -0.376096 4.000000
-0.290288 -0.099739 0.476432 4.000000
-0.290288 0.140769 0.423772 4.000000
-0.290288 -0.450961 0.020854 4.000000
-0.290288 0.100828 -0.488407 4.000000
-0.290288 -0.013814 0.493057 4.000000
-0.290288 -0.049711 -0.468521 4.000000
-0.290288 -0.027717 -0.489269 4.000000
-0.290288 0.474036 0.037151 4.000000
-0.290288 0.306164 0.322571 4.000000
-0.290288 -0.424830 -0.231528 4.000000
-0.290288 0.227961 0.386246 4.000000
-0.290288 0.403603 -0.293984 4.000000
-0.290288 -0.273316 -0.358134 4.000000
-0.290288 0.220307 0.439035 4.000000
-0.290288 -0.186605 0.409195 4.000000
-0.290288 0.061771 -0.472409 4.000000
-0.290288 -0.201318 0.434467 4.000000
-0.290288 -0.411583 0.250145 4.000000
-0.290288 -0.439378 -0.131765 4.000000
-0.290288 -0.415579 0.218787 4.000000
-0.290288 0.261220 0.401353 4.000000
-0.290288 0.434804 -0.233279 4.000000
-0.290288 -0.287680 -0.359912 4.000000
-0.290288 0.480258 -0.067321 4.000000
-0.290288 -0.457941 0.061759 4.000000
-0.290288 -0.484359 -0.050130 4.000000
-0.290288 -0.221851 -0.443537 4.000000
-0.290288 -0.185687 -0.416981 4.000000
-0.290288 -0.398538 -0.245750 4.000000
-0.290288 -0.427858 -0.164545 4.000000
-0.290288 -0.416981 -0.189458 4.000000
-0.290288 0.418896 0.239209 4.000000
-0.290288 -0.476956 0.041890 4.000000
-0.290288 0.159960 -0.462829 4.000000
-0.290288 0.370526 0.306046 4.000000
-0.290288 -0.426330 0.167152 4.000000
-0.290288 -0.459539 -0.141240 4.000000
-0.290288 -0.246269 0.379036 4.000000
-0.290288 -0.379732 0.258580 4.000000
-0.290288 -0.439012 0.141305 4.000000
-0.290288 -0.451237 -0.125229 4.000000
-0.290288 -0.394239 -0.222115 4.000000
-0.290288 0.196467 0.436024 4.000000
-0.290288 -0.133575 0.426548 4.000000
-0.290288 -0.308949 0.374103 4.000000
-0.290288 -0.054162 0.447397 4.000000
-0.290288 -0.390171 0.230237 4.000000
-0.290288 0.386366 -0.267421 4.000000
-0.290288 -0.497435 0.006419 4.000000
-0.290288 0.282378 0.354827 4.000000
-0.290288 -0.448475 0.014429 4.000000
-0.290288 0.088073 -0.464363 4.000000
-0.290288 -0.101471 -0.478574 4.000000
-0.290288 -0.055222 0.455943 4.000000
-0.290288 0.078493 -0.446414 4.000000
-0.290288 -0.134783 -0.460709 4.000000
-0.290288 -0.429352 -0.118761 4.000000
-0.290288 -0.354640 0.314011 4.000000
-0.290288 0.164368 -0.430356 4.000000
-0.290288 -0.191463 -0.454102 4.000000
-0.290288 0.441596 -0.130859 4.000000
-0.290288 -0.129406 0.454650 4.000000
-0.290288 -0.431533 -0.218685 4.000000
-0.290288 -0.226275 0.427808 4.000000
-0.290288 0.453363 -0.116983 4.000000
-0.290288 -0.212676 -0.437767 4.000000
-0.290288 -0.418008 0.241012 4.000000
-0.290288 0.109255 0.474214 4.000000
-0.290288 0.010735 -0.484234 4.000000
-0.290288 0.028743 0.449672 4.000000
-0.290288 -0.431214 0.178393 4.000000
-0.290288 0.270952 0.389367 4.000000
-0.290288 0.476957 0.103290 4.000000
-0.290288 -0.315361 -0.348928 4.000000
-0.290288 0.322566 -0.349219 4.000000
-0.290288 0.455630 0.062402 4.000000
-0.290288 0.112379 -0.473725 4.000000
-0.290288 0.212563 0.445495 4.000000
-0.290288 -0.292742 0.352478 4.000000
-0.290288 -0.435717 -0.224152 4.000000
-0.290288 0.247330 -0.432946 4.000000
-0.290288 0.264010 -0.387868 4.000000
-0.290288 -0.465329 0.119096 4.000000
-0.290288 0.272851 -0.373632 4.000000
-0.290288 -0.454801 -0.166798 4.000000
-0.290288 -0.361874 0.313709 4.000000
-0.290288 -0.489874 -0.049255 4.000000
-0.290288 0.460232 0.088635 4.000000
-0.290288 -0.096859 0.460442 4.000000
-0.290288 -0.467837 0.089550 4.000000
-0.290288 -0.049902 0.471675 4.000000
-0.290288 -0.070413 -0.464823 4.000000
-0.290288 -0.474850 0.045511 4.000000
-0.290288 -0.339757 -0.307663 4.000000
-0.290288 0.311431 0.363276 4.000000
-0.290288 -0.015178 0.475414 4.000000
-0.290288 -0.063591 0.469326 4.000000
-0.290288 -0.115853 -0.471140 4.000000
-0.290288 0.434353 0.171731 4.000000
-0.290288 0.456267 -0.037822 4.000000
-0.290288 0.460205 0.146277 4.000000
-0.290288 -0.364185 0.271518 4.000000
-0.290288 -0.012177 -0.494520 4.000000
-0.290288 -0.194855 -0.411859 4.000000
-0.290288 0.260423 0.415094 4.000000
-0.290288 0.385006 0.311020 4.000000
-0.290288 -0.369842 -0.295121 4.000000
-0.290288 0.087813 0.453831 4.000000
-0.290288 0.124630 0.428212 4.000000
-0.290288 -0.361301 0.336864 4.000000
-0.290288 -0.088875 0.472016 4.000000
-0.290288 0.142876 -0.448275 4.000000
-0.290288 -0.000143 -0.448078 4.000000
-0.290288 -0.470085 -0.083813 4.000000
-0.290288 0.297859 -0.340548 4.000000
-0.290288 -0.490398 0.001429 4.000000
-0.290288 -0.044063 -0.454403 4.000000
-0.290288 0.058391 -0.454119 4.000000
-0.290288 0.382511 -0.297053 4.000000
-0.290288 -0.337001 0.305651 4.000000
-0.290288 0.120598 -0.475467 4.000000
-0.290288 0.416866 -0.170873 4.000000
-0.290288 0.184067 -0.431990 4.000000
-0.290288 0.464822 0.113738 4.000000
-0.290288 0.274516 -0.398155 4.000000
-0.290288 -0.421703 -0.235990 4.000000
-0.290288 0.352491 0.295382 4.000000
-0.290288 0.188324 -0.440681 4.000000
-0.290288 -0.036788 0.479677 4.000000
-0.290288 0.173618 0.427816 4.000000
-0.290288 -0.442100 -0.083660 4.000000
-0.290288 -0.466886 0.101777 4.000000
-0.290288 -0.159038 0.455709 4.000000
-0.290288 -0.222668 0.424420 4.000000
-0.290288 -0.461524 0.050635 4.000000
-0.290288 0.453710 -0.094120 4.000000
-0.290288 -0.431383 0.113842 4.000000
-0.290288 -0.133566 -0.455795 4.000000
-0.290288 0.380073 0.270720 4.000000
-0.290288 -0.081901 0.454672 4.000000
-0.290288 0.313894 -0.368515 4.000000
-0.290288 -0.442821 0.156270 4.000000
-0.290288 -0.439627 0.144796 4.000000
-0.290288 0.012680 -0.488297 4.000000
-0.290288 0.034391 0.455752 4.000000
-0.290288 0.020300 -0.453470 4.000000
-0.290288 0.445023 0.190353 4.000000
-0.290288 0.384829 -0.261348 4.000000
-0.290288 0.050217 -0.453887 4.000000
-0.290288 0.335906 -0.326881 4.000000
-0.290288 0.445685 0.056245 4.000000
-0.290288 0.448056 0.155968 4.000000
-0.290288 -0.179471 0.423061 4.000000
-0.290288 0.152383 -0.460430 4.000000
-0.290288 -0.385770 0.220343 4.000000
-0.290288 0.398818 0.197756 4.000000
-0.290288 -0.246452 0.389625 4.000000
-0.290288 -0.337278 -0.366151 4.000000
-0.290288 -0.408855 -0.255425 4.000000
-0.290288 -0.322589 0.368083 4.000000
-0.290288 -0.138705 -0.472956 4.000000
-0.290288 -0.285342 0.351911 4.000000
-0.290288 -0.340157 0.306892 4.000000
-0.290288 -0.044342 -0.458143 4.000000
-0.290288 0.253133 0.406626 4.000000
-0.290288 -0.470998 -0.099112 4.000000
-0.290288 -0.404494 0.212668 4.000000
-0.290288 0.099309 -0.476524 4.000000
-0.290288 -0.110581 0.443286 4.000000
-0.290288 -0.022878 0.479860 4.000000
-0.290288 0.440357 0.191193 4.000000
-0.290288 -0.348024 0.275260 4.000000
-0.290288 -0.234730 -0.425946 4.000000
-0.290288 -0.410712 0.225501 4.000000
-0.290288 0.218474 -0.449033 4.000000
-0.290288 -0.473198 0.108614 4.000000
-0.290288 0.002743 0.491547 4.000000
-0.290288 -0.264874 0.407978 4.000000
-0.290288 0.197597 0.397664 4.000000
-0.290288 -0.269614 0.397844 4.000000
-0.290288 0.367419 -0.312569 4.000000
-0.290288 -0.312994 -0.358651 4.000000
-0.290288 0.110286 -0.442609 4.000000
-0.290288 -0.269175 0.385287 4.000000
-0.290288 -0.409448 -0.270126 4.000000
-0.290288 -0.237679 0.401421 4.000000
-0.290288 -0.474902 -0.150726 4.000000
-0.290288 0.403261 0.226293 4.000000
-0.290288 -0.473415 -0.009070 4.000000
-0.290288 0.370311 -0.290461 4.000000
-0.290288 0.468302 0.018294 4.000000
-0.290288 0.344745 -0.353503 4.000000
-0.290288 -0.445829 0.063868 4.000000
-0.290288 0.082598 -0.441340 4.000000
-0.290288 0.425285 0.207176 4.000000
-0.290288 -0.282013 -0.385689 4.000000
-0.290288 0.373845 0.305129 4.000000
-0.290288 -0.085157 0.435077 4.000000
-0.290288 -0.250187 -0.376492 4.000000
-0.290288 0.214295 0.423291 4.000000
-0.290288 0.209176 0.417649 4.000000
-0.290288 0.094354 0.462219 4.000000
-0.290288 0.303862 0.324816 4.000000
-0.290288 0.276736 -0.403211 4.000000
-0.290288 0.465112 -0.018533 4.000000
-0.290288 0.449899 -0.169102 4.000000
-0.290288 -0.029037 -0.459388 4.000000
-0.290288 0.262265 -0.374944 4.000000
-0.290288 0.395458 -0.266140 4.000000
-0.290288 -0.177098 0.431306 4.000000
-0.290288 0.311744 -0.348637 4.000000
-0.290288 -0.475730 -0.028087 4.000000
-0.290288 -0.441922 0.140547 4.000000
-0.290288 -0.358509 -0.322993 4.000000
-0.290288 -0.309499 0.340396 4.000000
-0.290288 -0.391448 0.243454 4.000000
-0.290288 0.097273 0.443294 4.000000
-0.290288 0.047109 -0.471693 4.000000
-0.290288 -0.092937 -0.447746 4.000000
-0.290288 -0.440649 -0.212441 4.000000
-0.290288 0.246176 0.411980 4.000000
-0.290288 -0.372684 0.261071 4.000000
-0.290288 0.463432 0.010165 4.000000
-0.290288 0.471813 -0.137151 4.000000
-0.290288 -0.430929 -0.154591 4.000000
-0.290288 -0.261779 -0.406291 4.000000
-0.290288 -0.114436 -0.434365 4.000000
-0.290288 0.311334 0.340709 4.000000
-0.290288 0.455619 -0.134442 4.000000
-0.290288 0.421239 -0.150895 4.000000
-0.290288 -0.365208 -0.301251 4.000000
-0.290288 0.239910 -0.422713 4.000000
-0.290288 0.260577 0.391940 4.000000
-0.290288 0.446743 0.067427 4.000000
-0.290288 0.269777 0.405127 4.000000
-0.290288 0.332505 0.364009 4.000000
-0.290288 0.446418 -0.213934 4.000000
-0.290288 0.397600 0.261288 4.000000
-0.290288 0.392291 -0.307697 4.000000
-0.290288 0.221138 0.422622 4.000000
-0.290288 -0.149342 0.424136 4.000000
-0.290288 -0.435308 -0.098749 4.000000
-0.290288 0.003802 0.473164 4.000000
-0.290288 -0.224568 0.416392 4.000000
-0.290288 0.010633 -0.453242 4.000000
-0.290288 -0.276591 -0.400258 4.000000
-0.290288 -0.402966 0.258382 4.000000
-0.290288 0.481124 -0.033593 4.000000
-0.290288 0.369848 0.265086 4.000000
-0.290288 -0.458618 0.169275 4.000000
-0.290288 -0.018689 -0.484876 4.000000
-0.290288 -0.425486 0.160135 4.000000
-0.290288 0.126874 -0.445251 4.000000
-0.290288 0.410912 -0.282178 4.000000
-0.290288 -0.443888 0.222452 4.000000
-0.290288 -0.137057 0.442429 4.000000
-0.290288 -0.462541 0.043001 4.000000
-0.290288 0.245939 0.380730 4.000000
-0.290288 -0.384113 -0.246576 4.000000
-0.290288 -0.457353 0.149652 4.000000
-0.290288 -0.110699 -0.451311 4.000000
-0.290288 0.483594 0.014660 4.000000
-0.290288 -0.007634 -0.494489 4.000000
-0.290288 0.304953 0.371084 4.000000
-0.290288 0.347349 0.340401 4.000000
-0.290288 0.244057 -0.431850 4.000000
-0.290288 0.008403 0.446985 4.000000
-0.290288 -0.152595 0.439784 4.000000
-0.290288 -0.280728 0.366719 4.000000
-0.290288 0.044290 -0.484397 4.000000
-0.290288 -0.450399 -0.038355 4.000000
-0.290288 0.092013 -0.447427 4.000000
-0.290288 -0.381256 -0.244130 4.000000
-0.290288 0.371186 0.247943 4.000000
-0.290288 -0.389155 0.298011 4.000000
-0.290288 -0.463834 0.176141 4.000000
-0.290288 0.448042 0.039165 4.000000
-0.290288 0.433637 0.102860 4.000000
-0.290288 0.469989 0.021113 4.000000
-0.290288 -0.013795 0.455019 4.000000
-0.290288 0.472260 -0.097544 4.000000
-0.290288 -0.412114 -0.250160 4.000000
-0.290288 -0.187476 -0.456393 4.000000
-0.290288 -0.440871 0.081080 4.000000
-0.290288 0.317963 -0.332040 4.000000
-0.290288 0.489108 -0.097542 4.000000
-0.290288 -0.004696 -0.488534 4.000000
-0.290288 0.051473 0.454105 4.000000
-0.290288 0.422323 0.174254 4.000000
-0.290288 0.123592 -0.436455 4.000000
-0.290288 -0.013339 -0.471977 4.000000
-0.290288 0.379549 -0.256922 4.000000
-0.290288 -0.418657 0.212431 4.000000
-0.290288 -0.411013 -0.277803 4.000000
-0.290288 0.172219 0.452557 4.000000
-0.290288 -0.448634 0.061127 4.000000
-0.290288 -0.433515 0.155414 4.000000
-0.290288 0.422934 0.214649 4.000000
-0.290288 0.467128 -0.015146 4.000000
-0.290288 -0.391525 -0.232343 4.000000
-0.290288 0.449586 -0.089718 4.000000
-0.290288 0.081423 -0.444577 4.000000
-0.290288 -0.452145 0.003587 4.000000
-0.290288 -0.175435 -0.433387 4.000000
-0.290288 0.233438 0.403698 4.000000
-0.290288 -0.354073 -0.281175 4.000000
-0.290288 -0.391701 0.224900 4.000000
-0.290288 0.469049 -0.073507 4.000000
-0.290288 0.482810 0.081730 4.000000
-0.290288 -0.393826 0.240224 4.000000
-0.290288 -0.139971 0.446010 4.000000
-0.290288 0.077758 -0.494111 4.000000
-0.290288 -0.070748 -0.445662 4.000000
-0.290288 -0.122997 0.430922 4.000000
-0.290288 0.490630 -0.089148 4.000000
-0.290288 -0.487004 -0.040057 4.000000
-0.290288 0.477478 0.141243 4.000000
-0.290288 0.448038 -0.164943 4.000000
-0.290288 -0.334717 0.294178 4.000000
-0.290288 0.161608 0.439453 4.000000
-0.290288 -0.418973 0.218372 4.000000
-0.290288 -0.425720 0.234809 4.000000
-0.290288 0.463527 -0.073306 4.000000
-0.290288 0.461678 0.156421 4.000000
-0.290288 -0.474889 0.048674 4.000000
-0.290288 -0.272540 -0.374169 4.000000
-0.290288 -0.482922 0.066870 4.000000
-0.290288 -0.291923 -0.352436 4.000000
-0.290288 -0.275179 -0.355038 4.000000
-0.290288 -0.465912 0.017910 4.000000
-0.290288 0.006821 0.443746 4.000000
-0.290288 -0.412489 0.234463 4.000000
-0.290288 0.436568 -0.181447 4.000000
-0.290288 0.197624 -0.448919 4.000000
-0.290288 -0.481549 -0.063821 4.000000
-0.290288 -0.284779 -0.409509 4.000000
-0.290288 -0.417942 0.171063 4.000000
-0.290288 0.303985 -0.381229 4.000000
-0.290288 -0.374826 -0.292219 4.000000
-0.290288 -0.316881 -0.334830 4.000000
-0.290288 0.310857 -0.359231 4.000000
-0.290288 0.292620 0.358104 4.000000
-0.290288 0.249268 -0.427013 4.000000
-0.290288 0.372095 0.275099 4.000000
-0.290288 0.026948 -0.480897 4.000000
-0.290288 0.065335 0.475528 4.000000
-0.290288 0.164827 -0.436676 4.000000
-0.290288 -0.401985 -0.269761 4.000000
-0.290288 0.147721 0.425123 4.000000
-0.290288 -0.350890 0.324276 4.000000
-0.290288 -0.022522 -0.468842 4.000000
