-0.055273 -0.032801 0.494694 2.000000
0.143721 0.492028 0.078046 2.000000
-0.248136 -0.102013 0.485092 2.000000
-0.044420 -0.225542 0.441542 2.000000
0.286129 -0.305826 -0.394766 1.000000
-0.209574 0.363344 0.338955 2.000000
0.010155 0.402795 0.291377 2.000000
0.069638 -0.426127 0.254591 2.000000
-0.219584 -0.321598 0.377553 2.000000
0.045493 0.104162 0.484997 2.000000
-0.110845 -0.035596 -0.498996 2.000000
0.016548 0.478746 -0.141030 2.000000
0.254317 -0.226292 0.441172 2.000000
0.134203 -0.431322 0.246068 2.000000
0.051550 0.224671 0.442541 2.000000
-0.053032 -0.497058 -0.026856 2.000000
0.067635 0.015208 0.495603 2.000000
0.219170 0.293251 0.400721 2.000000
-0.015117 -0.368622 -0.336636 2.000000
0.195716 0.388772 -0.313946 2.000000
0.093645 -0.189833 0.457946 2.000000
-0.257704 -0.492168 -0.074350 2.000000
-0.095073 -0.492980 0.065785 2.000000
0.081562 0.312196 0.386151 2.000000
-0.093701 -0.478895 -0.136771 2.000000
-0.195429 0.463535 -0.185573 2.000000
-0.041535 0.121229 0.480941 2.000000
0.140150 0.481731 -0.130885 2.000000
0.269512 -0.195702 -0.459902 2.000000
0.045199 -0.199534 -0.458183 2.000000
-0.077500 0.485922 0.109225 2.000000
-0.017944 0.236518 -0.440840 2.000000
0.036089 0.240665 0.434120 2.000000
-0.005108 -0.476314 0.141289 2.000000
0.050531 -0.473041 0.152015 2.000000
-0.073666 -0.461710 0.183352 2.000000
-0.228042 0.483846 0.118196 2.000000
-0.072895 -0.473199 0.151500 2.000000
0.051175 -0.483185 -0.121229 2.000000
-0.061213 0.111863 -0.487597 2.000000
-0.128644 0.470574 0.162104 2.000000
-0.189095 -0.496683 0.025534 2.000000
0.040250 -0.465254 0.173908 2.000000
-0.114212 -0.151719 0.472042 2.000000
-0.154225 0.185068 0.460411 2.000000
-0.188042 -0.169255 0.465993 2.000000
-0.092886 0.297420 0.397806 2.000000
0.147581 -0.467686 0.167425 2.000000
-0.083352 0.498519 -0.001506 2.000000
-0.001850 -0.232884 -0.442030 2.000000
0.271424 -0.497503 -0.002390 2.000000
-0.029721 -0.370174 -0.334827 2.000000
-0.222758 0.398745 -0.301438 2.000000
-0.286982 0.220839 -0.448717 4.000000
0.012529 -0.348769 -0.357227 2.000000
-0.090492 -0.256836 -0.428462 2.000000
-0.060970 0.041044 -0.498463 2.000000
-0.180513 0.488642 -0.101700 2.000000
-0.147135 0.467563 -0.174839 2.000000
0.234624 -0.479421 -0.134864 2.000000
0.038457 -0.174915 0.464040 2.000000
-0.288623 -0.461444 -0.188123 4.000000
-0.072031 0.396024 0.300352 2.000000
-0.129751 -0.369804 0.330707 2.000000
0.038139 -0.388316 0.308879 2.000000
0.159910 0.129756 -0.483061 2.000000
-0.024333 0.308569 -0.393518 2.000000
0.136068 0.299461 0.396305 2.000000
0.197473 0.455694 0.200020 2.000000
-0.119526 0.370807 0.330930 2.000000
0.008866 0.081600 -0.493568 2.000000
0.032341 0.472286 0.157142 2.000000
-0.098480 0.380457 0.319684 2.000000
0.053344 0.490923 -0.088452 2.000000
0.083315 -0.083181 -0.493032 2.000000
0.074730 -0.032882 -0.499118 2.000000
0.047190 -0.497095 0.016365 2.000000
0.130760 -0.353569 -0.352296 2.000000
-0.138520 -0.209193 0.449598 2.000000
-0.181517 -0.428899 -0.254317 2.000000
0.076393 0.098880 -0.490317 2.000000
-0.160662 0.469666 -0.169234 2.000000
-0.042383 0.100162 0.485931 2.000000
0.017887 -0.429475 -0.253311 2.000000
0.006221 -0.490211 -0.087877 2.000000
-0.075223 0.366287 -0.340075 2.000000
-0.137408 0.393525 0.303665 2.000000
0.151664 0.477735 -0.144345 2.000000
-0.169087 -0.472449 0.153958 2.000000
-0.288234 -0.471042 -0.162130 4.000000
0.283204 -0.431752 -0.249341 1.000000
-0.080386 0.418890 0.267877 2.000000
0.160115 0.442973 0.226430 2.000000
-0.156788 -0.001233 0.495811 2.000000
0.159188 0.348493 -0.358340 2.000000
-0.001942 -0.065981 -0.495828 2.000000
0.145756 -0.196432 0.455195 2.000000
0.142773 -0.299744 -0.399616 2.000000
0.244069 0.421886 -0.267582 2.000000
-0.090010 0.463315 0.181741 2.000000
-0.184024 0.435566 -0.244689 2.000000
0.284091 0.337570 -0.368975 1.000000
-0.020311 0.444790 -0.227171 2.000000
0.020122 0.467980 0.169626 2.000000
-0.252250 0.302107 0.394195 2.000000
0.150810 0.480958 -0.133781 2.000000
-0.069967 -0.393906 -0.306154 2.000000
-0.233710 -0.083123 0.488846 2.000000
0.162312 -0.478017 0.135708 2.000000
0.079235 0.383678 0.315931 2.000000
-0.024667 0.491478 0.081849 2.000000
-0.027754 0.449498 0.213189 2.000000
-0.005481 -0.046223 -0.497963 2.000000
-0.197311 -0.332343 0.368334 2.000000
0.054480 0.265301 0.419573 2.000000
0.162674 0.459266 -0.196100 2.000000
0.103213 0.143279 0.474863 2.000000
-0.269532 0.201677 -0.457789 2.000000
0.058182 0.237876 -0.440061 2.000000
0.222291 0.180907 -0.466448 2.000000
-0.007944 0.428760 -0.256305 2.000000
-0.255500 0.391892 0.305829 2.000000
-0.133826 -0.466239 -0.176054 2.000000
0.193583 -0.006580 0.495714 2.000000
-0.272430 -0.442252 0.225691 2.000000
-0.135858 0.486634 0.105826 2.000000
0.073215 -0.453930 -0.206146 2.000000
-0.265125 -0.403012 -0.294085 2.000000
-0.191377 -0.345223 0.356173 2.000000
0.234180 0.315398 -0.388107 2.000000
0.012560 -0.445949 0.218670 2.000000
0.022241 0.314364 0.384422 2.000000
-0.261739 0.488641 0.096247 2.000000
0.009425 0.495685 0.052099 2.000000
0.066930 0.493907 -0.071045 2.000000
0.203086 -0.417471 0.268789 2.000000
0.170795 -0.092807 0.487021 2.000000
0.280930 -0.496403 0.031778 1.000000
0.002783 -0.450717 0.208514 2.000000
0.043505 0.056918 0.492565 2.000000
0.022959 0.039308 0.494468 2.000000
0.100375 0.007527 -0.500069 2.000000
-0.038367 0.254628 0.426079 2.000000
-0.103600 -0.497429 -0.006463 2.000000
0.078623 0.301341 -0.398971 2.000000
0.259179 0.497929 -0.024974 2.000000
0.195926 0.030080 -0.499351 2.000000
-0.064296 -0.089899 -0.491875 2.000000
0.273049 0.498606 -0.009876 2.000000
0.005763 -0.052315 0.493113 2.000000
-0.173316 0.476073 0.146164 2.000000
-0.190419 -0.285770 -0.409590 2.000000
0.141110 -0.493662 0.059477 2.000000
0.155536 0.020421 0.495369 2.000000
-0.021744 -0.118833 -0.485621 2.000000
0.117626 0.320339 -0.383867 2.000000
-0.287991 0.487385 -0.107091 4.000000
0.268032 -0.155002 -0.475327 2.000000
0.141476 -0.491365 0.075578 2.000000
0.217251 0.322313 0.378084 2.000000
-0.027685 0.397925 -0.302467 2.000000
0.171205 -0.107854 -0.488230 2.000000
-0.177739 -0.278497 -0.414677 2.000000
-0.086498 0.408356 0.283834 2.000000
0.286172 0.206361 0.451226 1.000000
0.275999 -0.089334 -0.491972 1.000000
0.286521 0.096726 0.486523 1.000000
-0.235623 -0.437462 -0.239383 2.000000
0.064026 0.398877 -0.301273 2.000000
-0.049271 0.417052 0.270661 2.000000
0.063707 0.285489 -0.410702 2.000000
-0.203617 0.493779 -0.071859 2.000000
-0.282691 0.321867 -0.382556 4.000000
-0.005978 0.397116 -0.303481 2.000000
0.237170 -0.496736 0.024368 2.000000
0.239627 -0.243776 0.431737 2.000000
-0.001090 0.297372 -0.401966 2.000000
0.086842 -0.447817 -0.218873 2.000000
0.016045 0.388657 0.310117 2.000000
0.045314 -0.491151 -0.081379 2.000000
0.034708 -0.134441 -0.481601 2.000000
0.249862 -0.123795 0.480071 2.000000
-0.255068 -0.446602 -0.221339 2.000000
0.019594 0.322273 -0.382208 2.000000
0.055672 -0.389391 -0.312140 2.000000
0.085386 0.307679 -0.394190 2.000000
0.092151 -0.200299 0.453583 2.000000
0.152480 -0.019171 0.495488 2.000000
-0.039040 0.088398 0.487956 2.000000
0.228843 0.403323 -0.295041 2.000000
0.206703 0.462447 -0.188472 2.000000
0.080748 -0.171185 0.465327 2.000000
-0.118365 0.257090 -0.429043 2.000000
-0.203048 0.315824 0.383258 2.000000
-0.215583 0.114207 0.482610 2.000000
-0.146899 -0.149729 -0.476936 2.000000
-0.213973 0.138313 -0.480699 2.000000
-0.265739 -0.395906 -0.303504 2.000000
0.261361 -0.023268 -0.499549 2.000000
-0.190057 0.454744 -0.206177 2.000000
-0.075212 -0.097844 -0.490507 2.000000
-0.079616 0.383886 0.315688 2.000000
-0.288516 -0.437423 -0.239452 4.000000
-0.194315 -0.376467 0.323350 2.000000
0.089553 0.447120 0.218014 2.000000
0.270633 0.033378 -0.499084 2.000000
0.116655 0.492317 0.076051 2.000000
0.171599 -0.386714 -0.315551 2.000000
-0.015899 0.095141 0.486795 2.000000
0.117038 -0.458615 -0.194909 2.000000
0.048934 -0.349236 -0.356747 2.000000
0.181105 -0.215371 0.446553 2.000000
0.162209 0.298876 -0.400831 2.000000
-0.095466 0.268300 -0.422050 2.000000
-0.214470 -0.457755 0.192829 2.000000
-0.277777 -0.409985 0.279697 2.000000
0.165573 0.472312 0.157066 2.000000
0.021805 0.171539 0.465487 2.000000
0.086717 0.098097 -0.490481 2.000000
0.026448 -0.024907 -0.499475 2.000000
0.130100 0.173797 0.464640 2.000000
0.078635 -0.423649 0.258654 2.000000
-0.029711 -0.410517 -0.283361 2.000000
-0.004182 -0.497598 0.005147 2.000000
0.195374 0.414803 -0.278626 2.000000
-0.238389 0.419500 0.266952 2.000000
0.258295 -0.497452 -0.005182 2.000000
-0.200089 0.168151 0.466759 2.000000
0.203843 -0.022552 0.495427 2.000000
-0.124212 0.493949 0.064770 2.000000
-0.275316 -0.320795 0.378243 2.000000
-0.083412 -0.468524 0.165192 2.000000
0.180333 0.172627 0.465079 2.000000
0.007543 0.063519 0.491852 2.000000
0.114589 0.126823 0.479612 2.000000
0.075339 0.376517 -0.328781 2.000000
-0.064668 0.325584 0.375215 2.000000
0.264376 -0.056829 -0.496817 2.000000
0.196144 0.322170 0.378197 2.000000
-0.123969 0.103032 0.485265 2.000000
-0.061343 -0.201085 0.453255 2.000000
-0.155163 0.476479 0.144884 2.000000
-0.083729 0.039735 0.494422 2.000000
-0.240319 0.196438 0.455678 2.000000
0.174256 0.112148 -0.487537 2.000000
-0.118264 0.399423 -0.300589 2.000000
-0.248552 0.495041 -0.060554 2.000000
-0.051932 -0.460667 -0.189987 2.000000
0.249574 0.498399 0.005171 2.000000
-0.263517 0.378848 -0.326206 2.000000
-0.135542 -0.393387 0.302519 2.000000
0.206296 0.495869 0.049827 2.000000
0.244459 0.343203 0.359258 2.000000
0.281010 0.301019 -0.399214 1.000000
0.096624 0.307730 0.389712 2.000000
-0.276073 0.456348 0.198451 2.000000
-0.060572 0.473386 0.153953 2.000000
-0.022119 0.498631 -0.007726 2.000000
0.184498 0.262516 -0.425869 2.000000
-0.071810 -0.452987 -0.208381 2.000000
-0.167437 -0.386746 0.310848 2.000000
0.250531 -0.014621 0.495570 2.000000
-0.176595 0.397505 0.298389 2.000000
-0.245043 0.143097 0.474919 2.000000
-0.189659 0.490850 0.085703 2.000000
-0.243797 -0.479906 -0.133109 2.000000
-0.147109 0.081066 0.489219 2.000000
0.278740 0.479560 0.133722 1.000000
-0.044438 -0.200198 -0.457885 2.000000
0.093804 -0.176228 0.463587 2.000000
0.233218 -0.490283 -0.087379 2.000000
-0.110080 0.155003 0.471286 2.000000
-0.135164 0.067588 -0.495595 2.000000
0.007453 0.107840 0.484123 2.000000
0.052972 -0.459444 -0.192922 2.000000
0.019384 -0.312997 -0.389048 2.000000
-0.112507 -0.283244 0.407155 2.000000
-0.227280 -0.300008 0.394850 2.000000
0.128992 -0.273822 -0.417946 2.000000
-0.109654 0.150041 -0.477327 2.000000
-0.105458 0.314932 0.383969 2.000000
-0.100545 0.136070 -0.481318 2.000000
-0.028849 -0.497601 0.003060 2.000000
-0.063573 0.213299 0.448112 2.000000
0.190976 0.490110 0.089232 2.000000
-0.200597 0.290710 0.402499 2.000000
-0.119022 -0.421235 0.262615 2.000000
-0.203379 0.473628 -0.157806 2.000000
-0.044760 0.394315 0.302617 2.000000
0.091657 -0.166801 0.466839 2.000000
0.154111 -0.145883 0.473973 2.000000
-0.089907 0.490110 -0.093170 2.000000
0.035832 0.457027 0.196822 2.000000
-0.094771 -0.366299 0.334577 2.000000
-0.223235 -0.409219 -0.285327 2.000000
-0.278796 -0.049857 -0.497571 2.000000
-0.288480 -0.476222 -0.146455 4.000000
-0.288658 -0.019767 -0.499706 4.000000
0.119130 -0.409680 -0.284628 2.000000
-0.099517 -0.188717 -0.463011 2.000000
0.045654 -0.416280 -0.274631 2.000000
-0.093740 -0.306071 -0.394571 2.000000
-0.190296 -0.395298 0.300122 2.000000
0.253411 0.288611 -0.408575 2.000000
-0.035335 0.223674 -0.447321 2.000000
-0.088754 0.463417 -0.185886 2.000000
0.230421 -0.475899 0.142649 2.000000
-0.276247 0.469376 -0.170006 2.000000
0.179338 -0.259492 0.422725 2.000000
0.261782 0.482660 0.122490 2.000000
-0.227788 -0.343789 -0.362152 2.000000
0.263167 0.478980 -0.140264 2.000000
0.032998 0.051013 0.493203 2.000000
-0.101442 -0.398659 -0.299855 2.000000
0.263991 -0.045724 -0.498017 2.000000
0.251917 -0.287471 -0.408401 2.000000
0.285271 -0.472436 0.154001 1.000000
0.006701 -0.257411 0.423918 2.000000
-0.209736 -0.182513 0.460998 2.000000
0.216273 -0.315506 0.382781 2.000000
0.214689 0.299958 -0.400014 2.000000
0.070340 0.379855 0.320386 2.000000
0.247428 -0.151929 -0.476265 2.000000
-0.145022 0.477590 0.140858 2.000000
-0.200315 -0.457527 0.193337 2.000000
0.141801 -0.497201 -0.019119 2.000000
0.112858 -0.270498 0.415569 2.000000
0.167232 0.014834 0.495620 2.000000
-0.076273 0.012096 -0.499987 2.000000
-0.051169 0.364771 -0.341749 2.000000
-0.141704 0.307535 -0.394298 2.000000
0.207279 -0.221657 0.443456 2.000000
0.263410 0.427267 0.254596 2.000000
0.069224 -0.013864 -0.499971 2.000000
0.007383 -0.388691 0.308408 2.000000
0.101844 -0.485320 -0.111560 2.000000
0.198699 0.362049 0.340285 2.000000
0.092170 -0.100167 0.485479 2.000000
0.216033 0.064755 0.491718 2.000000
-0.274457 -0.290960 0.401677 2.000000
0.037679 0.394829 -0.306349 2.000000
0.070702 -0.267557 0.417511 2.000000
0.177726 0.496734 0.039152 2.000000
-0.263962 -0.286819 0.404794 2.000000
-0.289405 0.099046 0.486123 4.000000
-0.256363 0.045146 -0.498130 2.000000
0.175115 0.450478 0.211199 2.000000
-0.097210 -0.343669 0.357686 2.000000
-0.207692 -0.439253 -0.236253 2.000000
0.170167 0.058009 0.492447 2.000000
-0.109054 0.492372 0.075669 2.000000
0.126125 0.302562 -0.398050 2.000000
-0.033742 0.293388 -0.404971 2.000000
0.095043 0.397865 -0.302542 2.000000
-0.075209 0.257198 0.424512 2.000000
0.267288 -0.019201 0.495487 2.000000
-0.028764 -0.075802 0.489905 2.000000
-0.052123 -0.218208 -0.449757 2.000000
0.120715 -0.494389 0.052754 2.000000
0.086951 -0.021978 -0.499607 2.000000
-0.143377 -0.056579 -0.496844 2.000000
0.158011 -0.485774 0.105207 2.000000
-0.186834 -0.066241 -0.495800 2.000000
-0.078389 -0.283372 -0.411268 2.000000
-0.165377 0.357000 -0.350058 2.000000
-0.023657 0.211029 -0.453551 2.000000
-0.156147 0.452161 -0.211932 2.000000
0.099902 -0.334318 -0.370729 2.000000
-0.089734 -0.335658 0.365485 2.000000
-0.251312 0.227466 -0.445452 2.000000
-0.145569 -0.033858 -0.499074 2.000000
0.228390 0.497257 -0.039947 2.000000
-0.160646 -0.380295 0.318938 2.000000
-0.169093 -0.481120 -0.128712 2.000000
0.152362 0.310512 0.387494 2.000000
-0.136903 0.418959 0.267773 2.000000
-0.030620 -0.122774 0.480352 2.000000
0.003472 0.249327 -0.433495 2.000000
0.115430 -0.477341 0.137923 2.000000
-0.125641 -0.440271 0.229453 2.000000
-0.109300 0.370912 0.330808 2.000000
-0.122931 0.284107 -0.411615 2.000000
0.048123 0.466471 0.173999 2.000000
0.283819 0.245922 -0.435447 1.000000
-0.242744 0.431156 0.247813 2.000000
0.191528 0.270198 0.416587 2.000000
0.278553 -0.059193 0.492308 2.000000
0.208354 0.001677 0.495863 2.000000
0.088673 -0.304288 -0.395993 2.000000
-0.085244 -0.243046 0.432156 2.000000
0.159385 0.431628 -0.251602 2.000000
0.193299 0.032788 0.494814 2.000000
0.271108 -0.301965 -0.397845 2.000000
-0.052472 -0.366628 0.334213 2.000000
-0.233773 -0.234332 0.437152 2.000000
0.118388 -0.302927 0.392648 2.000000
0.258423 -0.144017 -0.478679 2.000000
0.088097 0.109501 0.483728 2.000000
-0.079294 -0.049068 -0.497656 2.000000
0.198149 -0.497277 0.012302 2.000000
-0.187122 0.171800 0.465389 2.000000
-0.109305 0.497250 -0.040103 2.000000
0.242287 0.063673 0.491835 2.000000
-0.192404 0.072914 0.490622 2.000000
0.166886 0.325326 0.375449 2.000000
0.274488 0.145331 0.474237 2.000000
0.067447 0.488348 0.097642 2.000000
0.220943 0.278475 0.411056 2.000000
-0.176136 0.498464 0.001560 2.000000
0.144304 0.155442 0.471152 2.000000
-0.145026 -0.148525 0.473144 2.000000
-0.193441 0.411451 -0.283419 2.000000
0.030647 0.448564 0.215084 2.000000
-0.010746 0.449005 0.214189 2.000000
0.026453 -0.291890 -0.405310 2.000000
-0.058553 -0.402527 0.290360 2.000000
0.238072 -0.212010 0.448210 2.000000
0.249993 -0.443690 0.222961 2.000000
0.219710 0.046214 0.493722 2.000000
-0.024273 -0.477423 0.137654 2.000000
0.064878 -0.099128 -0.490286 2.000000
0.272696 -0.250970 0.427612 2.000000
-0.068267 -0.250073 0.428126 2.000000
0.056589 0.368197 -0.337966 2.000000
-0.090346 -0.031011 -0.499202 2.000000
0.212500 -0.240831 -0.437846 2.000000
0.130256 -0.300055 0.394815 2.000000
0.142142 -0.485925 -0.108672 2.000000
0.091506 0.346697 0.356054 2.000000
-0.012010 -0.161733 -0.473136 2.000000
-0.096822 0.284971 -0.411044 2.000000
0.010235 0.371576 -0.334236 2.000000
0.048089 0.193921 -0.461022 2.000000
-0.156467 -0.483740 0.113766 2.000000
-0.212888 0.497870 -0.026275 2.000000
-0.194462 -0.177724 0.462995 2.000000
0.183898 0.497676 -0.030595 2.000000
-0.000823 0.442425 -0.231661 2.000000
0.143302 0.032089 -0.499188 2.000000
-0.282621 0.152989 0.471901 4.000000
0.142032 -0.320743 -0.382872 2.000000
-0.240811 0.493849 0.065460 2.000000
0.225448 -0.140198 -0.479844 2.000000
0.249870 -0.438538 -0.237508 2.000000
-0.036047 0.497642 0.027937 2.000000
-0.246127 0.362994 0.339314 2.000000
-0.221677 0.129466 0.478984 2.000000
-0.187299 -0.306698 0.389803 2.000000
0.201861 -0.065034 0.491463 2.000000
0.172154 0.101604 -0.489746 2.000000
-0.247905 -0.272313 0.414371 2.000000
-0.258832 -0.451536 0.206688 2.000000
0.267481 -0.288712 0.403372 2.000000
0.105600 0.477647 0.140652 2.000000
-0.219548 -0.495295 -0.048612 2.000000
-0.082308 0.447939 -0.221190 2.000000
0.108196 0.498647 -0.008618 2.000000
0.018863 0.496326 0.044183 2.000000
-0.094970 0.453999 0.204053 2.000000
-0.021778 -0.012888 -0.500014 2.000000
-0.007263 0.377665 -0.327512 2.000000
-0.252142 0.360154 -0.346846 2.000000
-0.093352 -0.255365 0.425091 2.000000
0.118921 -0.391190 -0.309755 2.000000
0.239183 -0.463826 -0.182409 2.000000
0.134306 -0.027998 0.495083 2.000000
-0.222102 0.461412 0.186306 2.000000
-0.073682 0.443909 -0.228844 2.000000
-0.006023 0.496019 -0.051502 2.000000
-0.255824 -0.441550 -0.231592 2.000000
0.284397 0.403859 0.289967 1.000000
0.024981 -0.487993 0.095162 2.000000
-0.203011 -0.442531 0.225161 2.000000
0.216375 0.200401 -0.458321 2.000000
-0.272972 0.334170 -0.371999 2.000000
-0.269412 0.134271 -0.481815 2.000000
-0.123077 -0.415201 0.272238 2.000000
0.263310 0.472149 -0.162618 2.000000
-0.114022 -0.133784 0.477313 2.000000
0.267131 0.392316 -0.309501 2.000000
-0.287151 0.196403 0.455694 4.000000
0.268581 0.293995 0.400202 2.000000
0.270745 0.048176 -0.497885 2.000000
-0.047044 -0.212756 0.447842 2.000000
0.188507 0.091081 -0.491950 2.000000
0.192019 0.331309 0.370030 2.000000
0.125649 -0.474145 0.148397 2.000000
-0.147307 0.020394 -0.499837 2.000000
0.190776 -0.241392 0.433104 2.000000
-0.266938 0.498574 -0.010592 2.000000
0.109682 0.220221 0.444884 2.000000
0.135257 -0.197223 0.454865 2.000000
-0.224258 0.497515 -0.034189 2.000000
0.064528 -0.039540 -0.498686 2.000000
-0.189850 -0.198808 -0.458508 2.000000
-0.163303 0.222639 0.443611 2.000000
0.114919 -0.263464 -0.424421 2.000000
0.074515 0.025730 -0.499703 2.000000
-0.084933 0.362895 0.339416 2.000000
0.209135 -0.054983 0.492897 2.000000
-0.027393 -0.111493 0.483106 2.000000
-0.218541 -0.078766 0.489476 2.000000
-0.264253 -0.464528 -0.180727 2.000000
-0.001168 -0.348430 -0.357575 2.000000
0.284566 -0.425324 -0.260551 1.000000
0.275963 0.472107 0.157662 2.000000
-0.233511 -0.373019 0.327157 2.000000
-0.013140 0.488354 -0.103018 2.000000
-0.009145 -0.497011 0.018231 2.000000
-0.276737 0.144588 -0.478967 2.000000
0.036279 -0.457190 0.194088 2.000000
0.254428 0.200853 0.453697 2.000000
-0.049922 -0.278587 -0.414614 2.000000
0.182301 -0.490080 -0.088781 2.000000
0.066792 0.098546 0.486209 2.000000
-0.140846 -0.470259 -0.164400 2.000000
-0.238629 0.482876 0.121708 2.000000
-0.062609 0.426507 -0.260001 2.000000
0.225201 -0.481292 -0.128087 2.000000
0.277605 -0.305060 0.391039 2.000000
0.123296 0.469107 0.166358 2.000000
0.160031 -0.412106 0.276663 2.000000
0.227802 -0.494136 -0.060749 2.000000
0.263299 -0.417988 0.267941 2.000000
0.250404 0.174937 0.464212 2.000000
0.013141 -0.328631 0.371519 2.000000
0.039739 -0.490545 0.080340 2.000000
0.060296 0.479494 0.133961 2.000000
-0.038066 0.418372 -0.273346 2.000000
0.220099 -0.431475 -0.249824 2.000000
0.245140 0.466900 0.172756 2.000000
-0.242833 -0.360469 0.341014 2.000000
0.001017 -0.329084 -0.375471 2.000000
-0.290133 0.286036 0.405768 4.000000
-0.090162 0.469447 -0.169817 2.000000
-0.103269 -0.487020 0.099963 2.000000
-0.083419 0.486994 -0.108739 2.000000
0.243720 0.485735 -0.114036 2.000000
0.108625 -0.448766 0.212861 2.000000
0.212238 -0.489832 0.084480 2.000000
0.026340 0.029349 0.494969 2.000000
-0.154099 -0.247182 -0.434347 2.000000
-0.133771 0.248536 0.429793 2.000000
-0.011246 0.355901 -0.351129 2.000000
0.098319 -0.257815 -0.427865 2.000000
-0.150272 0.242400 0.433206 2.000000
0.056956 -0.280949 0.408670 2.000000
0.171423 -0.442873 -0.228906 2.000000
-0.210161 -0.496140 -0.038183 2.000000
-0.061915 0.483159 -0.124878 2.000000
0.278346 -0.078497 0.489515 2.000000
-0.166224 0.482656 -0.126993 2.000000
0.258557 0.348094 0.354619 2.000000
0.285978 -0.452039 0.205567 1.000000
0.194517 -0.039339 -0.498707 2.000000
-0.238458 -0.113900 -0.486793 2.000000
-0.194031 0.497335 -0.038214 2.000000
0.199076 -0.398417 -0.300175 2.000000
0.098893 -0.247453 -0.434182 2.000000
-0.275836 0.418803 -0.272638 2.000000
-0.133349 -0.282416 -0.411936 2.000000
-0.091104 -0.395695 0.299624 2.000000
0.099994 -0.011013 0.495635 2.000000
-0.004537 0.410169 -0.285252 2.000000
0.069599 -0.453841 0.201551 2.000000
0.174465 0.497215 -0.040441 2.000000
-0.274063 -0.446550 -0.221445 2.000000
-0.195935 -0.301528 0.393704 2.000000
-0.133062 -0.008771 0.495675 2.000000
-0.219968 0.127059 -0.483806 2.000000
-0.289824 -0.497571 0.001380 4.000000
0.283000 0.234381 -0.442044 1.000000
0.204094 -0.465538 -0.178085 2.000000
-0.287783 0.086614 0.488263 4.000000
0.212332 -0.165221 0.467384 2.000000
-0.021948 0.080634 -0.493707 2.000000
0.210080 0.498621 -0.007175 2.000000
-0.054875 0.296761 0.398267 2.000000
0.023175 -0.495863 -0.041605 2.000000
0.247751 0.111776 0.483188 2.000000
-0.062177 -0.254183 -0.430079 2.000000
-0.127711 0.482294 -0.128515 2.000000
-0.275500 -0.110803 0.483251 2.000000
-0.183311 0.498096 0.021981 2.000000
0.071402 -0.474991 0.145625 2.000000
0.026713 -0.458842 0.190408 2.000000
0.181179 -0.331605 0.368967 2.000000
0.035802 -0.041900 0.493957 2.000000
0.023459 0.150376 -0.477212 2.000000
-0.222395 -0.497249 -0.016474 2.000000
-0.188371 0.048277 -0.497877 2.000000
0.251778 -0.459496 0.188950 2.000000
-0.141909 0.210612 0.449318 2.000000
0.013354 -0.415450 -0.275888 2.000000
0.215395 0.483230 0.120427 2.000000
0.180326 0.350475 -0.356411 2.000000
-0.110442 0.491095 -0.087449 2.000000
-0.072445 -0.149937 0.472657 2.000000
0.062012 -0.488270 0.093557 2.000000
0.167572 -0.415049 -0.276496 2.000000
0.225699 0.381853 -0.322623 2.000000
0.011724 0.418106 -0.273781 2.000000
-0.069055 0.405834 0.287349 2.000000
-0.275491 -0.427406 0.252492 2.000000
-0.151640 0.229782 0.439850 2.000000
-0.164507 0.485570 -0.114731 2.000000
0.049892 -0.316074 -0.386594 2.000000
0.155787 0.357510 -0.349562 2.000000
-0.194713 -0.082003 -0.493234 2.000000
-0.157183 -0.026318 -0.499412 2.000000
-0.276453 0.173592 -0.469203 2.000000
0.196879 0.005168 0.495926 2.000000
-0.259697 -0.494844 0.048543 2.000000
0.126054 -0.418426 0.267223 2.000000
-0.045230 0.464911 -0.181905 2.000000
0.144532 0.087874 -0.492622 2.000000
-0.144156 -0.082486 0.488938 2.000000
0.042270 -0.098287 0.485873 2.000000
0.198658 0.446840 0.218583 2.000000
-0.012116 0.025824 -0.499696 2.000000
0.268297 0.010899 0.495796 2.000000
-0.003747 -0.382015 -0.321028 2.000000
0.132549 -0.080765 -0.493447 2.000000
-0.241628 0.305607 0.391404 2.000000
-0.251061 0.318687 -0.385285 2.000000
-0.033017 0.498437 0.003064 2.000000
0.054620 -0.391223 0.305233 2.000000
0.202817 0.435739 -0.244361 2.000000
-0.065556 0.475380 -0.152063 2.000000
-0.286106 0.049434 -0.497783 4.000000
0.098589 0.200874 0.453688 2.000000
-0.186626 0.195348 0.456168 2.000000
0.142831 -0.316157 0.382222 2.000000
-0.090083 -0.465027 0.174512 2.000000
0.265975 0.177030 0.463427 2.000000
-0.193072 0.018009 -0.499880 2.000000
0.286013 -0.006987 -0.500279 1.000000
-0.049143 0.177612 -0.467817 2.000000
-0.082538 0.479864 -0.137367 2.000000
0.057135 -0.007483 0.495698 2.000000
-0.085973 0.401770 0.292736 2.000000
0.128153 0.046179 -0.498047 2.000000
-0.188523 -0.129485 -0.483089 2.000000
-0.213966 -0.465872 0.172259 2.000000
-0.012958 0.480861 0.129007 2.000000
0.041956 -0.039618 -0.498677 2.000000
-0.114513 -0.317424 -0.385518 2.000000
0.213964 0.320327 -0.383877 2.000000
-0.073820 0.054994 -0.497332 2.000000
0.263418 0.399170 -0.300905 2.000000
0.153361 0.453090 0.205900 2.000000
-0.228477 -0.093373 0.486902 2.000000
-0.117584 0.037959 0.494582 2.000000
0.211444 -0.497503 -0.002349 2.000000
-0.232302 0.083925 -0.493231 2.000000
-0.130764 0.402187 -0.296665 2.000000
0.231942 -0.295858 -0.402535 2.000000
-0.205439 -0.497328 -0.012077 2.000000
0.096400 0.338897 -0.367682 2.000000
0.176423 -0.453953 0.201303 2.000000
-0.242199 -0.178317 0.462747 2.000000
-0.269455 -0.372904 -0.331645 2.000000
-0.115015 -0.453648 -0.206822 2.000000
-0.147660 -0.396891 -0.302198 2.000000
0.102003 0.129072 0.479077 2.000000
-0.238340 -0.122992 0.480292 2.000000
0.216760 -0.132104 0.477777 2.000000
-0.071233 -0.493301 -0.066522 2.000000
-0.062809 0.349031 -0.357817 2.000000
-0.133000 -0.395280 -0.304333 2.000000
-0.081449 0.091223 0.487470 2.000000
0.081666 -0.219631 -0.449008 2.000000
-0.068884 -0.462377 -0.185886 2.000000
-0.179069 0.353652 -0.353318 2.000000
-0.274810 -0.385965 0.311827 2.000000
0.037938 0.021051 -0.499826 2.000000
-0.006616 -0.486768 -0.104646 2.000000
-0.182044 -0.487753 0.096556 2.000000
-0.014528 -0.324306 0.375231 2.000000
-0.028855 -0.491456 -0.079275 2.000000
0.038857 -0.263754 -0.424244 2.000000
-0.012589 -0.488170 0.094137 2.000000
0.021877 -0.454738 0.199554 2.000000
0.042985 -0.135873 0.476736 2.000000
0.206732 -0.177244 0.463194 2.000000
-0.196937 -0.468552 0.165118 2.000000
0.008214 -0.370936 0.329457 2.000000
-0.257955 -0.372666 -0.331923 2.000000
0.041504 0.486655 -0.110166 2.000000
-0.077520 -0.321417 -0.382335 2.000000
0.089725 0.226907 -0.445727 2.000000
-0.079110 0.496776 0.038631 2.000000
0.025067 -0.093928 -0.491181 2.000000
-0.034403 0.464095 0.179869 2.000000
0.174888 0.495551 -0.055830 2.000000
0.021442 -0.137826 -0.480568 2.000000
0.034875 0.221436 0.444244 2.000000
0.054485 -0.193205 0.456540 2.000000
0.036933 -0.064074 -0.496034 2.000000
-0.204927 0.026992 -0.499601 2.000000
-0.029213 -0.035952 -0.498980 2.000000
-0.231279 -0.422329 -0.265468 2.000000
-0.074026 -0.440952 -0.232805 2.000000
-0.237065 -0.492016 0.071794 2.000000
0.267392 -0.209350 0.449520 2.000000
-0.122718 0.393309 -0.308256 2.000000
-0.117717 0.372638 -0.333063 2.000000
-0.137401 0.159050 0.470051 2.000000
-0.045404 0.318468 0.381150 2.000000
-0.192964 0.273077 0.414831 2.000000
0.281104 0.498234 0.014308 1.000000
-0.148593 0.197005 0.455424 2.000000
0.260398 0.065960 -0.495830 2.000000
-0.188867 0.292529 0.401227 2.000000
0.126056 0.483933 0.117881 2.000000
-0.285524 0.497490 0.029813 4.000000
-0.124530 -0.178292 -0.466922 2.000000
0.230999 0.495524 0.053883 2.000000
0.224360 -0.229387 -0.443871 2.000000
0.173289 -0.311650 -0.390122 2.000000
-0.172258 -0.484838 -0.113861 2.000000
-0.203793 -0.038565 -0.498791 2.000000
-0.086146 0.258116 0.423952 2.000000
-0.186477 -0.271256 -0.419671 2.000000
0.036826 0.274909 0.413550 2.000000
0.224893 -0.411266 0.277864 2.000000
-0.066529 -0.050440 -0.497508 2.000000
-0.012968 0.391401 0.306481 2.000000
0.032857 -0.193586 0.456381 2.000000
0.221618 -0.116269 -0.486230 2.000000
-0.049097 0.491606 0.080964 2.000000
-0.206252 -0.494258 0.053962 2.000000
0.200499 -0.158025 -0.474405 2.000000
0.208717 0.457794 -0.199381 2.000000
-0.221618 0.195348 0.456167 2.000000
0.231711 -0.462187 0.182081 2.000000
-0.198529 0.377017 0.323693 2.000000
0.045710 -0.409068 0.281008 2.000000
-0.140299 0.055525 0.492715 2.000000
-0.136168 -0.250707 0.427762 2.000000
-0.113970 -0.458997 -0.193993 2.000000
-0.265426 0.073511 0.490519 2.000000
-0.096625 0.377220 -0.328005 2.000000
-0.144541 0.203985 -0.456826 2.000000
-0.085571 0.350182 0.352475 2.000000
0.231788 -0.224175 0.442215 2.000000
0.147806 0.498483 0.000511 2.000000
0.066043 0.462263 0.184264 2.000000
0.113769 -0.155520 0.470731 2.000000
0.228969 -0.326802 0.373088 2.000000
-0.204771 -0.447129 -0.220269 2.000000
0.263066 -0.120034 0.481109 2.000000
0.204461 0.184705 0.460547 2.000000
-0.163622 0.294275 -0.404302 2.000000
0.235108 0.072925 -0.494823 2.000000
0.072874 0.005296 0.495928 2.000000
-0.163628 -0.318777 0.379974 2.000000
0.118110 -0.178425 -0.466872 2.000000
0.026818 -0.496652 0.026229 2.000000
0.058552 -0.290014 -0.406622 2.000000
-0.079034 -0.180935 0.461656 2.000000
-0.077635 0.497953 -0.024437 2.000000
0.039257 0.432593 0.245309 2.000000
-0.220158 0.474629 -0.154523 2.000000
0.162867 0.438089 -0.239897 2.000000
-0.029413 -0.460502 -0.190383 2.000000
0.188291 0.020914 -0.499828 2.000000
-0.017417 -0.441737 -0.231211 2.000000
0.133977 0.421297 0.264231 2.000000
-0.103250 0.494232 -0.068036 2.000000
0.286347 0.343081 0.359368 1.000000
0.219689 -0.201425 -0.457334 2.000000
-0.066546 -0.478901 -0.136750 2.000000
0.104367 0.211342 0.448990 2.000000
0.003681 -0.421205 0.262664 2.000000
-0.277923 -0.237868 -0.439406 2.000000
-0.181956 0.156296 0.470892 2.000000
-0.228742 0.466356 -0.178054 2.000000
0.273759 0.449202 0.213789 2.000000
-0.270405 -0.362786 0.338456 2.000000
-0.047849 -0.003026 -0.500259 2.000000
0.005197 -0.268375 0.416971 2.000000
-0.047265 0.498585 -0.010336 2.000000
-0.249178 0.405011 0.288440 2.000000
-0.166629 -0.306229 -0.394445 2.000000
-0.111644 -0.413357 0.274875 2.000000
-0.159790 -0.495514 -0.045911 2.000000
0.073666 -0.493797 0.058227 2.000000
0.250821 -0.449228 0.211832 2.000000
-0.206875 0.482794 0.122006 2.000000
-0.266551 0.308650 0.388978 2.000000
0.258961 -0.178704 -0.466768 2.000000
-0.017942 -0.410725 -0.283046 2.000000
-0.178429 0.433786 0.243227 2.000000
-0.141487 -0.115203 -0.486483 2.000000
-0.288417 -0.001387 0.495808 4.000000
0.053883 0.498383 0.006070 2.000000
0.269929 -0.359339 0.342261 2.000000
-0.058851 -0.445967 0.218636 2.000000
0.113794 0.496890 -0.043440 2.000000
-0.061041 0.493814 -0.071657 2.000000
-0.156245 0.357937 0.344509 2.000000
-0.053463 -0.423038 0.259658 2.000000
0.235879 0.404422 0.289221 2.000000
-0.287262 0.036044 -0.498868 4.000000
0.003112 0.144016 0.474639 2.000000
0.242950 0.398208 0.297458 2.000000
-0.007354 -0.381608 0.317291 2.000000
0.264288 -0.430326 0.247703 2.000000
-0.284351 0.242169 -0.437599 4.000000
-0.045476 -0.033884 -0.499073 2.000000
-0.120793 0.328972 -0.376459 2.000000
-0.125667 0.218377 -0.449930 2.000000
-0.012841 -0.491550 -0.078624 2.000000
-0.097243 -0.362376 -0.343250 2.000000
-0.207244 0.088568 0.487927 2.000000
-0.224014 0.487513 0.101628 2.000000
0.055918 0.379337 0.320990 2.000000
-0.245318 0.121998 0.480759 2.000000
0.081331 0.127700 -0.483629 2.000000
-0.029191 0.227568 0.441015 2.000000
-0.236355 0.151572 0.472333 2.000000
-0.231424 0.243711 -0.436715 2.000000
-0.071999 -0.436828 0.235992 2.000000
0.145061 -0.051669 -0.497375 2.000000
0.063658 -0.412420 0.276215 2.000000
0.009977 0.287134 0.405000 2.000000
-0.076512 0.168711 -0.470887 2.000000
-0.063713 -0.001853 0.495800 2.000000
0.211195 -0.486674 -0.105098 2.000000
0.112231 -0.497164 -0.021210 2.000000
-0.035237 -0.217308 0.445599 2.000000
0.027329 -0.060122 -0.496461 2.000000
-0.047366 0.189040 -0.463057 2.000000
0.211995 -0.120194 0.481064 2.000000
-0.092094 -0.496556 0.028366 2.000000
0.140970 -0.338142 -0.367266 2.000000
-0.120725 -0.100361 -0.490010 2.000000
0.206996 0.286323 0.405567 2.000000
0.087615 0.292952 -0.405300 2.000000
0.111557 -0.261116 0.421763 2.000000
-0.148607 -0.093761 0.486821 2.000000
-0.108746 0.480759 -0.134434 2.000000
0.113249 0.483289 0.120214 2.000000
-0.007323 0.444798 0.222727 2.000000
0.266353 0.489733 0.091032 2.000000
-0.232121 0.118085 0.481688 2.000000
0.012044 -0.425200 0.256111 2.000000
-0.266471 0.107547 0.484193 2.000000
-0.135810 -0.137906 0.476175 2.000000
0.258207 0.115062 -0.486927 2.000000
0.234630 0.498590 -0.005444 2.000000
-0.113246 -0.073604 0.490223 2.000000
0.250404 -0.465526 -0.178122 2.000000
0.034694 -0.420047 0.264564 2.000000
0.259457 0.494117 -0.069101 2.000000
-0.244109 0.215374 -0.451410 2.000000
0.000899 0.498534 -0.002317 2.000000
0.249189 -0.402975 -0.294134 2.000000
0.189291 0.414780 0.274102 2.000000
-0.196098 -0.456442 -0.200121 2.000000
-0.025794 0.086835 0.488225 2.000000
-0.206054 -0.429139 -0.253899 2.000000
-0.015815 0.477930 0.139625 2.000000
-0.264487 0.498294 0.010996 2.000000
-0.090423 -0.011416 0.495627 2.000000
-0.220174 0.243241 -0.436985 2.000000
0.053802 -0.173732 0.464448 2.000000
0.117351 0.287557 -0.409337 2.000000
0.228936 -0.484238 0.111669 2.000000
-0.159412 -0.082741 -0.493107 2.000000
-0.046950 0.302711 0.393714 2.000000
0.042106 0.460547 0.188379 2.000000
-0.188706 -0.341757 -0.363992 2.000000
-0.122212 -0.466583 -0.175057 2.000000
0.052474 -0.086857 0.488267 2.000000
-0.257807 -0.131528 -0.482489 2.000000
-0.041544 0.001355 0.495857 2.000000
-0.283300 0.413525 0.276003 4.000000
-0.240159 0.024059 0.495206 2.000000
-0.033612 -0.257587 0.423817 2.000000
0.016632 -0.457208 -0.198284 2.000000
-0.238438 0.379678 0.320592 2.000000
-0.286646 0.097926 -0.490517 4.000000
0.143022 -0.137067 0.476407 2.000000
0.263240 0.110990 0.483374 2.000000
0.266887 0.498082 0.022509 2.000000
-0.214338 0.451685 -0.212994 2.000000
-0.042409 0.498164 -0.019715 2.000000
-0.152952 -0.470584 -0.163458 2.000000
0.172474 -0.181952 -0.465549 2.000000
0.121239 0.436891 -0.242173 2.000000
-0.058428 0.358441 -0.348655 2.000000
0.112760 -0.375987 0.323880 2.000000
-0.040745 -0.374851 0.325135 2.000000
0.036287 0.482512 0.123028 2.000000
-0.075552 0.483406 0.119788 2.000000
-0.048750 -0.496023 -0.039625 2.000000
-0.131044 0.040337 0.494357 2.000000
0.014906 -0.409978 0.279707 2.000000
-0.166985 0.080271 -0.493760 2.000000
-0.066189 -0.475387 -0.149478 2.000000
-0.270256 0.230041 0.439713 2.000000
0.124747 -0.490727 -0.084311 2.000000
-0.225399 -0.343893 0.357467 2.000000
0.143967 -0.012429 -0.500035 2.000000
-0.003289 -0.357322 -0.348441 2.000000
-0.071420 -0.469096 -0.167771 2.000000
-0.116613 0.360927 0.341437 2.000000
0.070583 0.484700 -0.118393 2.000000
-0.289781 -0.324085 -0.379999 4.000000
-0.122192 0.449151 -0.218641 2.000000
-0.269656 -0.457056 0.194387 2.000000
-0.278504 -0.242292 0.432588 2.000000
-0.101000 0.253694 0.426649 2.000000
0.244162 -0.489894 -0.089727 2.000000
0.285593 0.396640 0.299535 1.000000
0.111382 -0.353844 0.347780 2.000000
0.058029 -0.475364 -0.149562 2.000000
-0.124748 0.205894 -0.456031 2.000000
0.153071 -0.246022 -0.435054 2.000000
-0.141021 0.077824 -0.494114 2.000000
0.118653 0.114842 -0.486973 2.000000
0.105813 0.397934 -0.302456 2.000000
-0.261716 -0.497558 0.000670 2.000000
0.194986 -0.142526 0.474900 2.000000
-0.077714 -0.086902 -0.492391 2.000000
-0.146510 -0.089366 -0.491967 2.000000
0.202650 -0.346161 0.355260 2.000000
0.029638 0.428517 0.252415 2.000000
0.277111 0.410037 0.281287 2.000000
0.212161 0.309763 0.388091 2.000000
0.239869 0.331712 -0.374108 2.000000
0.248701 0.071158 -0.495078 2.000000
-0.075706 -0.011231 -0.500089 2.000000
0.190592 -0.454526 -0.204718 2.000000
0.005237 0.358797 0.343625 2.000000
-0.020714 0.464434 0.179058 2.000000
0.230836 -0.472486 -0.157946 2.000000
-0.050372 -0.440427 0.229158 2.000000
-0.178129 -0.431730 0.245399 2.000000
0.286429 -0.062596 -0.496194 1.000000
-0.033569 0.089427 -0.492297 2.000000
-0.190622 0.434996 0.241118 2.000000
-0.212959 0.456524 -0.202210 2.000000
0.283491 0.417280 0.270316 1.000000
-0.019257 -0.220369 -0.448620 2.000000
-0.061548 -0.161456 -0.473240 2.000000
-0.190192 -0.447401 0.215902 2.000000
-0.185800 -0.469340 -0.167066 2.000000
-0.059956 -0.471240 -0.161558 2.000000
0.018762 0.204000 0.452285 2.000000
-0.236707 -0.134271 0.477178 2.000000
0.242244 -0.481542 -0.127181 2.000000
0.025609 0.458641 -0.197493 2.000000
-0.085810 0.224338 0.442716 2.000000
-0.101056 0.078938 0.489585 2.000000
-0.286457 -0.038871 0.494202 4.000000
0.133238 0.191208 0.458025 2.000000
0.134255 0.162937 0.468715 2.000000
-0.075385 -0.391217 0.305240 2.000000
-0.201963 0.487143 0.103396 2.000000
-0.221476 -0.266361 0.418300 2.000000
-0.182330 -0.080065 -0.493568 2.000000
-0.223773 0.000026 -0.500204 2.000000
-0.186791 -0.474081 -0.153322 2.000000
0.024226 0.488403 -0.102810 2.000000
0.157739 0.485338 -0.115708 2.000000
0.090516 -0.033151 -0.499106 2.000000
0.162866 -0.491459 -0.079248 2.000000
0.113075 -0.214988 -0.451248 2.000000
0.060443 -0.130537 0.478209 2.000000
0.104405 -0.296638 -0.401989 2.000000
-0.246560 -0.051580 0.493172 2.000000
-0.054034 -0.424415 -0.262135 2.000000
0.038295 0.305846 -0.395572 2.000000
-0.037119 -0.385755 0.312091 2.000000
-0.094518 -0.247984 -0.433858 2.000000
0.045206 -0.497306 -0.013294 2.000000
0.120253 -0.160738 -0.473509 2.000000
-0.018967 -0.375703 0.324194 2.000000
-0.131435 -0.406173 -0.289896 2.000000
0.149202 -0.037714 -0.498883 2.000000
-0.194826 -0.451277 -0.211851 2.000000
-0.169646 -0.495738 0.040270 2.000000
-0.230281 -0.196240 -0.459661 2.000000
0.256246 -0.189044 0.458275 2.000000
0.150912 -0.262810 -0.424820 2.000000
-0.055443 0.488785 0.095560 2.000000
-0.004785 0.185145 -0.464681 2.000000
0.187694 -0.205260 0.451514 2.000000
0.188453 0.224289 0.442742 2.000000
0.022195 -0.311853 0.385914 2.000000
-0.058540 -0.212694 0.447872 2.000000
-0.202583 0.276516 0.412426 2.000000
-0.047239 -0.412526 0.276064 2.000000
-0.180920 -0.347758 0.353705 2.000000
-0.085878 -0.497128 -0.023197 2.000000
-0.098778 0.373454 0.327846 2.000000
-0.213460 0.005744 -0.500101 2.000000
-0.124204 -0.104926 0.484482 2.000000
0.123616 -0.350057 0.351467 2.000000
0.159540 -0.031940 -0.499160 2.000000
0.242382 0.487361 0.102354 2.000000
-0.039914 0.364107 0.338171 2.000000
-0.165624 -0.497185 0.014352 2.000000
0.155258 0.173536 0.464738 2.000000
0.099988 -0.490556 0.080276 2.000000
0.173158 -0.428415 -0.255160 2.000000
0.170454 0.027298 0.495061 2.000000
0.177745 -0.362560 0.338705 2.000000
0.112535 -0.450520 -0.213388 2.000000
-0.059174 -0.310610 -0.390951 2.000000
-0.112822 0.498209 0.015701 2.000000
0.060785 -0.455353 -0.202733 2.000000
-0.225272 -0.133560 -0.481870 2.000000
0.274489 -0.420911 -0.267617 1.000000
-0.050031 -0.015890 -0.499880 2.000000
-0.259277 -0.373163 0.326998 2.000000
0.125196 -0.080118 0.489280 2.000000
0.062109 0.429814 -0.254577 2.000000
-0.152196 0.161673 0.469190 2.000000
0.250235 0.480902 -0.133964 2.000000
-0.223498 -0.322918 -0.381055 2.000000
-0.280657 0.436574 0.238367 2.000000
0.133927 -0.100570 0.485395 2.000000
-0.207214 -0.219614 -0.449017 2.000000
0.131974 -0.236551 -0.440099 2.000000
0.219672 0.360028 -0.346985 2.000000
0.070127 -0.311649 -0.390123 2.000000
-0.080189 0.379778 -0.325179 2.000000
-0.153546 -0.306899 -0.393911 2.000000
-0.261292 0.059202 0.492318 2.000000
0.284111 -0.389112 0.307880 1.000000
-0.139032 0.352888 0.349695 2.000000
-0.183832 0.446761 -0.223428 2.000000
0.258384 -0.298811 0.395753 2.000000
-0.058843 0.467518 -0.174957 2.000000
0.181518 -0.321552 0.377594 2.000000
0.037076 -0.364110 0.336994 2.000000
-0.155173 0.028238 -0.499500 2.000000
-0.170251 0.031589 0.494868 2.000000
0.049561 0.440915 -0.234530 2.000000
0.143734 0.404582 -0.293241 2.000000
-0.234200 -0.165670 -0.471659 2.000000
-0.078068 0.476899 -0.147085 2.000000
-0.053401 -0.468228 -0.170290 2.000000
0.170085 0.177983 -0.467667 2.000000
-0.240882 -0.020330 0.495467 2.000000
-0.089377 -0.381303 0.317674 2.000000
0.066362 0.308785 0.388871 2.000000
0.204749 -0.451640 -0.211115 2.000000
-0.270116 -0.193924 0.456240 2.000000
0.026367 -0.242470 -0.436983 2.000000
0.190209 -0.363458 0.337713 2.000000
-0.046372 0.261986 0.421594 2.000000
0.224254 0.498579 -0.004832 2.000000
-0.016815 -0.037351 -0.498917 2.000000
-0.076775 -0.497469 -0.004244 2.000000
0.092271 0.384203 0.315318 2.000000
-0.243968 0.043809 -0.498239 2.000000
0.000398 -0.216200 -0.450704 2.000000
0.263385 0.318592 0.381051 2.000000
-0.127936 -0.040538 -0.498578 2.000000
0.083090 -0.485769 -0.109418 2.000000
-0.079597 -0.203674 -0.456325 2.000000
-0.262339 -0.428212 -0.255514 2.000000
0.260448 -0.133200 -0.481979 2.000000
-0.056736 -0.045784 0.493642 2.000000
-0.074635 -0.457322 0.193795 2.000000
0.167022 0.037001 -0.498790 2.000000
-0.265304 0.475113 -0.152939 2.000000
-0.000428 -0.023147 -0.499554 2.000000
0.070984 0.235996 0.436578 2.000000
-0.196355 0.033298 0.494791 2.000000
0.055245 0.013490 0.495680 2.000000
0.254655 0.422722 0.262072 2.000000
0.227218 0.493636 0.066936 2.000000
-0.164249 0.043497 -0.498264 2.000000
0.065913 0.265429 0.419495 2.000000
0.071200 -0.013154 0.495596 2.000000
0.072463 -0.284841 -0.410240 2.000000
-0.161636 0.324134 -0.380611 2.000000
-0.208118 -0.300187 -0.399263 2.000000
-0.263153 -0.111508 0.483103 2.000000
0.031822 0.196866 0.455486 2.000000
-0.044134 -0.324244 -0.379854 2.000000
-0.062768 0.263985 0.420375 2.000000
-0.045367 0.232781 -0.442833 2.000000
0.116386 -0.494817 -0.054516 2.000000
0.056338 0.196467 0.455665 2.000000
0.055059 0.159476 -0.474073 2.000000
-0.060271 -0.398631 -0.299892 2.000000
0.015911 -0.495877 0.038982 2.000000
-0.026233 -0.179189 -0.466586 2.000000
-0.283877 -0.430072 -0.252270 4.000000
-0.283329 0.411497 -0.283354 4.000000
0.229300 0.225447 0.442132 2.000000
0.223611 0.451665 0.208790 2.000000
0.251915 -0.158548 0.469686 2.000000
-0.287988 0.355619 -0.351403 4.000000
0.173658 -0.112489 0.482898 2.000000
-0.039293 0.158042 -0.474568 2.000000
-0.261568 -0.433350 -0.246554 2.000000
-0.097478 -0.426972 0.253204 2.000000
0.032690 -0.482791 -0.122657 2.000000
-0.005308 0.497453 -0.035587 2.000000
-0.265868 -0.380852 0.318240 2.000000
-0.262049 -0.446692 0.217259 2.000000
0.160759 0.417448 -0.274844 2.000000
-0.021808 0.038439 0.494561 2.000000
0.005153 -0.160513 0.469008 2.000000
-0.007306 -0.468317 0.165746 2.000000
-0.168977 0.364084 0.338195 2.000000
0.128090 0.250933 -0.432574 2.000000
-0.234012 0.141767 0.475325 2.000000
-0.263964 0.099031 -0.490285 2.000000
0.162633 0.254207 -0.430696 2.000000
0.189203 0.211554 0.448895 2.000000
0.049669 0.330980 -0.374736 2.000000
0.186902 0.348045 0.354670 2.000000
0.094912 0.250970 0.428309 2.000000
-0.139902 -0.386592 0.311041 2.000000
-0.070948 0.044669 -0.498169 2.000000
-0.122658 0.381478 0.318495 2.000000
0.129717 -0.495115 0.046033 2.000000
0.051555 0.040108 -0.498538 2.000000
-0.106897 0.467978 -0.173731 2.000000
0.210072 0.262451 -0.425912 2.000000
-0.222562 0.219375 0.445329 2.000000
0.189628 0.260668 0.422397 2.000000
0.216879 -0.494085 -0.061100 2.000000
-0.204574 -0.090650 0.487473 2.000000
-0.160651 0.463238 -0.186365 2.000000
-0.217104 -0.208265 0.450055 2.000000
-0.043677 -0.320937 0.378121 2.000000
-0.212649 -0.325079 -0.379098 2.000000
0.173413 0.411757 -0.282982 2.000000
-0.244640 -0.479089 0.132195 2.000000
-0.191114 -0.418873 -0.270704 2.000000
0.272568 0.422496 0.262415 2.000000
0.246479 0.215490 -0.451353 2.000000
-0.068001 0.094143 0.486967 2.000000
-0.256092 -0.087894 -0.492220 2.000000
-0.062467 -0.370672 -0.334247 2.000000
-0.081827 0.458848 0.192454 2.000000
-0.078684 0.158266 0.470290 2.000000
-0.239964 0.487332 0.102496 2.000000
0.280500 -0.361806 0.339537 1.000000
-0.126838 0.498490 0.000089 2.000000
0.151625 0.432280 0.245854 2.000000
-0.215304 0.290073 -0.407472 2.000000
0.208645 -0.353056 0.348548 2.000000
0.145886 -0.495291 -0.048665 2.000000
0.286339 0.185354 -0.464594 1.000000
0.246746 0.470570 0.162116 2.000000
0.046074 0.176251 -0.468286 2.000000
0.156040 -0.280351 -0.413380 2.000000
0.256570 -0.492672 0.067984 2.000000
0.151996 0.073827 0.490465 2.000000
0.122551 0.197733 0.455097 2.000000
0.154563 -0.030038 0.494918 2.000000
0.235882 0.456513 0.198056 2.000000
0.146742 0.492618 -0.078603 2.000000
0.264164 0.204858 -0.456463 2.000000
0.000655 0.006313 -0.500091 2.000000
-0.289635 0.418867 0.267912 4.000000
0.077518 0.315834 -0.387733 2.000000
0.282820 0.353142 -0.353814 1.000000
-0.063885 0.273199 -0.418816 2.000000
-0.024343 0.483466 -0.123585 2.000000
0.024774 -0.385145 -0.317380 2.000000
-0.053248 0.497383 -0.037146 2.000000
0.157155 -0.331108 0.369394 2.000000
-0.117862 -0.482403 -0.124063 2.000000
0.127331 0.496245 -0.049412 2.000000
-0.079668 0.183679 0.460932 2.000000
0.156501 -0.460518 -0.190345 2.000000
-0.199536 0.045493 0.493800 2.000000
0.028604 0.394731 0.302067 2.000000
-0.191508 -0.454038 0.201112 2.000000
0.084281 -0.496927 0.020093 2.000000
0.043811 -0.495479 -0.046337 2.000000
-0.057470 0.133333 -0.482074 2.000000
-0.217828 -0.473501 0.150508 2.000000
0.276756 -0.461533 0.183822 2.000000
-0.031834 0.408595 -0.287502 2.000000
-0.168431 -0.331076 -0.373666 2.000000
0.284003 0.160710 -0.473647 1.000000
0.116296 0.333667 0.367895 2.000000
0.201517 0.149311 -0.477579 2.000000
0.203801 -0.183376 -0.465014 2.000000
-0.199276 -0.496668 0.025880 2.000000
-0.265456 -0.166596 -0.471311 2.000000
0.198227 -0.357387 0.344330 2.000000
-0.019084 -0.164668 0.467575 2.000000
-0.194982 -0.390293 -0.310944 2.000000
-0.022325 -0.317964 0.380672 2.000000
-0.203746 -0.469295 -0.167197 2.000000
-0.149695 0.133382 -0.482060 2.000000
0.172270 -0.435479 0.238554 2.000000
-0.011330 0.345272 -0.361476 2.000000
0.028109 -0.386798 0.310783 2.000000
0.122570 -0.432190 0.244644 2.000000
-0.005596 0.498001 -0.023349 2.000000
0.169470 -0.458070 0.192128 2.000000
-0.288912 0.492283 0.076289 4.000000
0.098596 -0.352214 0.349367 2.000000
0.186985 0.467243 -0.175690 2.000000
0.254950 -0.236143 0.436114 2.000000
-0.206891 -0.454489 -0.204805 2.000000
0.241565 -0.477736 0.136629 2.000000
-0.196394 0.229273 -0.444562 2.000000
-0.138645 0.464390 -0.183293 2.000000
-0.070291 -0.078184 -0.493892 2.000000
0.153612 -0.489314 0.087493 2.000000
0.042891 0.128425 0.479231 2.000000
-0.229039 -0.497393 -0.008503 2.000000
-0.052161 -0.268789 -0.421174 2.000000
0.085918 0.484630 0.115355 2.000000
0.029232 -0.268321 -0.421460 2.000000
0.049287 0.397234 -0.303333 2.000000
0.044595 -0.056425 0.492708 2.000000
0.112670 -0.321460 -0.382300 2.000000
-0.180299 0.492301 0.076165 2.000000
-0.021563 -0.456967 -0.198863 2.000000
0.093042 0.460505 -0.193339 2.000000
-0.241799 0.373899 -0.331671 2.000000
0.196640 0.464227 -0.183729 2.000000
0.273508 -0.274376 -0.417559 2.000000
-0.087214 -0.414982 -0.276597 2.000000
0.255151 0.474878 -0.153709 2.000000
0.002739 -0.495711 -0.043483 2.000000
-0.250841 0.347064 -0.359732 2.000000
0.041578 0.483821 -0.122090 2.000000
-0.277359 -0.122298 -0.484797 2.000000
0.126562 -0.294898 -0.403206 2.000000
0.259231 -0.129782 0.478418 2.000000
-0.135417 -0.458674 -0.194769 2.000000
-0.247049 0.482279 -0.128579 2.000000
0.015317 0.494256 -0.067819 2.000000
0.213274 -0.435768 -0.242338 2.000000
-0.077366 -0.481950 -0.125703 2.000000
-0.032713 0.233408 -0.442524 2.000000
-0.032536 -0.497278 -0.014879 2.000000
0.031085 0.081323 0.489174 2.000000
-0.284196 0.231825 0.438774 4.000000
0.154467 -0.212095 0.448168 2.000000
0.285111 -0.497168 -0.020983 1.000000
-0.004240 -0.370569 -0.334366 2.000000
-0.060672 0.492036 -0.081988 2.000000
-0.132976 0.105912 -0.488844 2.000000
-0.162797 -0.372227 0.328032 2.000000
-0.241365 0.479848 0.132679 2.000000
0.144776 0.465635 -0.179977 2.000000
0.170023 0.346625 -0.360159 2.000000
0.159297 -0.358964 0.342675 2.000000
0.119968 0.260304 -0.427200 2.000000
-0.179297 0.410233 -0.285161 2.000000
-0.162727 0.005560 -0.500105 2.000000
-0.059293 0.435828 0.239667 2.000000
-0.213535 -0.485563 0.106095 2.000000
0.105252 0.498185 -0.019266 2.000000
-0.013410 -0.267462 0.417573 2.000000
-0.171687 0.214751 -0.451718 2.000000
0.265719 0.218006 0.446000 2.000000
0.222136 0.473096 -0.159550 2.000000
-0.240344 0.308977 -0.393210 2.000000
-0.214681 -0.291372 -0.405673 2.000000
-0.043046 -0.027636 0.495112 2.000000
-0.015934 0.093052 -0.491538 2.000000
-0.085965 0.026291 -0.499658 2.000000
-0.065133 -0.264534 -0.423768 2.000000
0.168235 -0.286963 -0.408756 2.000000
0.006854 0.465474 -0.180406 2.000000
-0.234903 0.080506 0.489315 2.000000
-0.139340 -0.376676 -0.327250 2.000000
-0.135137 -0.029444 0.494966 2.000000
-0.222972 0.307468 -0.394349 2.000000
