0.195708 0.047037 -0.444979 3.000000
-0.258411 0.356325 0.265512 3.000000
-0.203076 -0.170916 -0.413107 3.000000
0.269085 0.385597 -0.225650 3.000000
-0.280342 -0.444757 -0.007463 4.000000
0.200262 -0.131851 -0.427346 3.000000
-0.175654 -0.191497 -0.404020 3.000000
0.046090 -0.349494 -0.277350 3.000000
-0.085031 0.060029 -0.443515 3.000000
-0.116509 -0.216485 -0.391091 3.000000
0.281705 0.444193 0.035058 1.000000
-0.176841 -0.443358 -0.037404 3.000000
-0.137862 0.445268 -0.023780 3.000000
0.187053 0.349559 -0.278587 3.000000
-0.127107 0.445369 0.016214 3.000000
0.094949 0.393594 -0.211382 3.000000
-0.156829 0.174370 0.407702 3.000000
0.263342 0.323633 0.304332 3.000000
-0.050021 -0.437866 -0.080384 3.000000
-0.195212 0.434019 -0.103712 3.000000
-0.239015 0.406681 -0.184608 3.000000
0.036305 -0.329719 0.296480 3.000000
0.060421 0.443476 -0.046997 3.000000
-0.279310 0.062033 0.438844 3.000000
-0.166171 -0.297083 -0.333344 3.000000
-0.241614 0.423825 -0.140715 3.000000
-0.201450 -0.441612 -0.055872 3.000000
0.181426 -0.259791 -0.363572 3.000000
0.206974 -0.419006 -0.151256 3.000000
-0.287060 -0.240191 0.372539 4.000000
0.285774 0.112563 0.428894 1.000000
0.164832 -0.284547 -0.344396 3.000000
-0.128429 -0.442323 -0.048347 3.000000
0.082654 0.046786 -0.445002 3.000000
-0.209328 -0.444543 0.009906 3.000000
-0.092799 -0.022931 -0.446875 3.000000
0.052912 0.227982 0.380544 3.000000
0.008548 -0.444469 -0.016617 3.000000
-0.217913 0.370764 0.245095 3.000000
0.085033 0.264895 -0.360553 3.000000
-0.146722 -0.417489 0.151114 3.000000
0.083943 0.391883 0.210386 3.000000
-0.003511 0.401657 0.191204 3.000000
-0.216943 0.442937 -0.052697 3.000000
0.282589 0.291013 -0.339599 1.000000
0.262451 -0.438678 -0.075254 3.000000
0.250172 -0.137723 0.421245 3.000000
0.036855 -0.392690 0.206791 3.000000
-0.088979 0.294693 0.332000 3.000000
-0.109064 -0.210157 -0.394512 3.000000
-0.257251 0.442952 0.048184 3.000000
0.076825 -0.024872 -0.446814 3.000000
-0.287259 0.363526 0.255746 4.000000
0.166239 0.415639 0.159099 3.000000
-0.080279 0.359278 -0.266058 3.000000
-0.051974 0.401677 -0.195518 3.000000
-0.113950 0.013869 -0.447192 3.000000
-0.073291 0.419684 -0.152219 3.000000
0.065006 -0.363645 0.254062 3.000000
0.091656 0.275385 0.348063 3.000000
0.180402 0.209691 0.390918 3.000000
0.173129 0.075419 -0.441078 3.000000
0.062773 0.082213 0.435648 3.000000
-0.174040 -0.155515 0.414840 3.000000
0.236000 0.437704 0.082872 3.000000
-0.070497 -0.444045 -0.030114 3.000000
-0.054871 -0.437062 0.081107 3.000000
-0.160664 -0.404383 0.183197 3.000000
-0.290150 0.344858 0.280294 4.000000
0.285773 -0.425429 0.127527 1.000000
-0.007958 0.320560 -0.311759 3.000000
0.110311 -0.195471 0.397642 3.000000
-0.164245 -0.396904 0.198521 3.000000
0.202372 0.403470 0.187645 3.000000
0.016532 0.424613 -0.138216 3.000000
-0.147593 0.224493 0.382607 3.000000
0.039868 0.400761 0.192961 3.000000
0.023556 -0.431258 0.107122 3.000000
-0.217292 0.445756 0.003905 3.000000
0.032387 0.339244 0.286838 3.000000
-0.103197 0.377013 0.235810 3.000000
0.283996 0.445309 0.018141 1.000000
0.257054 -0.285112 0.339544 3.000000
-0.052398 0.332252 0.294769 3.000000
0.018451 -0.061721 0.438731 3.000000
-0.095812 0.215267 -0.392417 3.000000
-0.227200 -0.396107 -0.204438 3.000000
-0.228089 -0.214850 0.387704 3.000000
0.201140 -0.160647 0.412992 3.000000
0.059209 -0.432359 -0.106554 3.000000
-0.279562 0.395032 0.204207 3.000000
-0.019423 0.364116 0.254878 3.000000
0.238835 -0.423061 -0.139993 3.000000
0.258227 -0.441613 -0.055864 3.000000
0.140559 0.412475 0.166864 3.000000
-0.118620 0.114574 0.428309 3.000000
0.082912 0.408837 0.175272 3.000000
-0.043434 0.121286 0.426359 3.000000
0.024917 0.424052 0.135731 3.000000
0.260320 0.347943 0.276318 3.000000
-0.189313 0.133388 -0.427197 3.000000
-0.158718 -0.216419 -0.391130 3.000000
-0.090033 -0.132836 -0.427059 3.000000
-0.148875 0.293042 -0.337809 3.000000
-0.173272 0.358978 0.262091 3.000000
-0.188370 0.434048 0.099226 3.000000
0.167813 -0.431617 -0.109874 3.000000
-0.061166 0.101186 -0.435876 3.000000
-0.206646 0.076375 0.436573 3.000000
0.051810 -0.323019 0.303922 3.000000
0.168569 0.145002 0.418994 3.000000
0.165233 -0.441536 -0.056671 3.000000
-0.043538 -0.139953 0.420443 3.000000
0.196106 -0.086175 -0.439002 3.000000
0.070687 0.181508 -0.408967 3.000000
0.180832 0.432541 0.105969 3.000000
0.110234 0.438509 0.078439 3.000000
-0.247921 0.328359 -0.303538 3.000000
0.064893 -0.411435 0.166900 3.000000
0.264494 0.242615 0.371588 3.000000
0.104419 0.066766 0.438095 3.000000
-0.289926 0.443258 -0.049296 4.000000
-0.190648 -0.308568 -0.322726 3.000000
-0.083842 -0.014402 0.442790 3.000000
-0.053210 0.037409 0.441535 3.000000
0.047066 0.047603 -0.444925 3.000000
0.042555 0.219506 -0.389910 3.000000
0.247946 0.403717 -0.191457 3.000000
0.268257 0.437406 0.084205 3.000000
0.251859 -0.216235 -0.391239 3.000000
-0.074555 0.261719 0.358605 3.000000
0.017545 -0.318268 -0.313025 3.000000
-0.140318 0.351049 0.272313 3.000000
0.276616 0.157501 -0.418847 1.000000
-0.174213 -0.423171 0.135301 3.000000
-0.135105 0.170062 0.409566 3.000000
0.047833 0.419375 0.148723 3.000000
-0.104607 0.034896 -0.446126 3.000000
-0.270182 0.250344 0.366335 3.000000
-0.186514 -0.021696 -0.446914 3.000000
-0.204701 -0.432507 -0.105889 3.000000
-0.196940 0.011407 0.442916 3.000000
-0.238338 0.370046 -0.250506 3.000000
-0.098326 0.120528 0.426580 3.000000
-0.203049 0.321105 0.306860 3.000000
0.146409 0.161981 0.412881 3.000000
-0.023189 -0.389894 0.212279 3.000000
0.012812 -0.443276 -0.038265 3.000000
-0.273812 0.445437 -0.018423 3.000000
-0.011658 -0.042726 0.440936 3.000000
-0.029725 0.253653 -0.368440 3.000000
0.115592 0.443180 0.045765 3.000000
-0.277605 -0.073876 -0.441160 3.000000
0.285699 0.373801 -0.244979 1.000000
-0.146363 0.445845 -0.005429 3.000000
-0.078335 0.079564 0.436068 3.000000
-0.289133 0.429378 0.117463 4.000000
0.098345 -0.434332 -0.097726 3.000000
0.261022 -0.223332 0.382688 3.000000
0.194221 0.148448 -0.422107 3.000000
0.194311 -0.442838 0.038550 3.000000
-0.222174 -0.434371 0.093197 3.000000
-0.185518 -0.222147 0.383389 3.000000
-0.067071 0.308862 -0.323457 3.000000
0.262372 0.445833 0.001458 3.000000
0.046793 -0.049577 0.440288 3.000000
0.241269 -0.444103 -0.028263 3.000000
-0.094829 -0.231459 0.377882 3.000000
-0.152827 0.437233 0.084977 3.000000
-0.058881 0.169504 -0.414161 3.000000
-0.190529 0.341976 0.283739 3.000000
-0.051988 0.343942 0.281476 3.000000
-0.153513 -0.157906 -0.418333 3.000000
-0.275198 0.158006 0.414312 3.000000
-0.206775 0.045941 -0.445082 3.000000
-0.155661 -0.443935 -0.031294 3.000000
-0.162406 -0.337266 -0.292273 3.000000
0.134524 0.015333 -0.447146 3.000000
0.084346 0.166744 0.411002 3.000000
0.054336 0.245482 -0.373993 3.000000
0.201431 0.392296 -0.213929 3.000000
0.067228 -0.444773 -0.006925 3.000000
-0.251743 0.257733 -0.365667 3.000000
-0.263464 -0.443551 -0.035360 3.000000
-0.066551 -0.412013 -0.169919 3.000000
0.083387 -0.268031 -0.357326 3.000000
-0.000587 -0.301129 0.325423 3.000000
0.057182 -0.423204 -0.139540 3.000000
-0.099909 -0.239878 0.372752 3.000000
0.023588 0.411482 0.169159 3.000000
0.218814 0.149971 0.417205 3.000000
-0.242224 -0.046084 0.440619 3.000000
0.006531 0.183007 -0.408318 3.000000
-0.020965 0.383780 -0.228721 3.000000
-0.025834 0.237147 -0.379477 3.000000
0.237464 0.445447 -0.018089 3.000000
0.034206 -0.004287 0.443107 3.000000
-0.082864 0.028278 -0.446739 3.000000
0.155075 0.389860 0.214088 3.000000
-0.048297 0.438468 -0.083054 3.000000
-0.159671 0.064408 -0.442821 3.000000
0.043942 -0.357959 0.262084 3.000000
-0.010650 0.312100 -0.320219 3.000000
0.136564 -0.379583 0.229732 3.000000
-0.125749 0.373313 -0.245698 3.000000
-0.129835 -0.065446 -0.442495 3.000000
-0.056788 -0.441017 0.056136 3.000000
-0.187312 -0.442736 0.039629 3.000000
-0.040267 -0.268263 0.352793 3.000000
-0.223311 -0.045187 -0.445057 3.000000
0.100212 -0.226132 0.381032 3.000000
0.135077 -0.434345 -0.097668 3.000000
-0.006142 0.439518 0.072068 3.000000
0.121954 0.237999 0.374620 3.000000
0.254380 -0.424619 -0.134669 3.000000
-0.010974 -0.159753 0.413314 3.000000
-0.159443 -0.371675 -0.246601 3.000000
0.077819 -0.359961 -0.263836 3.000000
0.015576 -0.429287 0.114247 3.000000
0.284413 0.441292 -0.065224 1.000000
-0.264966 0.346806 0.277783 3.000000
0.089380 -0.285071 -0.343933 3.000000
-0.171166 0.163294 0.412408 3.000000
-0.189887 -0.325896 0.300816 3.000000
0.088312 0.342931 0.282656 3.000000
-0.038920 0.251006 0.365885 3.000000
0.127133 0.052553 0.440104 3.000000
-0.048066 -0.274702 -0.352152 3.000000
0.268209 0.375688 -0.242203 3.000000
0.264803 -0.258006 0.360432 3.000000
0.257481 0.171731 0.408844 3.000000
0.115098 -0.323428 0.303513 3.000000
0.002946 0.119274 -0.431297 3.000000
-0.063867 -0.295601 0.330297 3.000000
-0.158195 0.163242 0.412427 3.000000
-0.112359 0.440085 0.068489 3.000000
-0.280666 -0.239601 -0.377293 4.000000
-0.135000 -0.155686 0.414778 3.000000
0.286670 0.433930 -0.104108 1.000000
-0.213381 0.018005 0.442709 3.000000
0.257129 0.426114 -0.133050 3.000000
-0.188699 0.444677 0.029933 3.000000
0.105183 0.224227 -0.387118 3.000000
-0.045117 -0.265651 -0.359173 3.000000
0.262993 -0.089578 -0.438241 3.000000
0.270197 0.117576 -0.431790 3.000000
0.169403 0.313253 0.314712 3.000000
-0.239192 0.401331 -0.196197 3.000000
0.285494 0.433239 0.102849 1.000000
-0.179896 -0.125416 -0.429215 3.000000
0.164957 -0.123488 0.425422 3.000000
0.107340 -0.439755 0.064105 3.000000
0.264350 -0.009042 0.442958 3.000000
-0.213434 0.053281 0.440035 3.000000
0.226294 0.445893 -0.003908 3.000000
-0.230829 0.340953 0.284899 3.000000
-0.080033 0.390806 -0.216841 3.000000
-0.108064 0.375041 -0.243154 3.000000
-0.254078 0.158333 0.414194 3.000000
-0.051435 0.443450 -0.047265 3.000000
-0.177400 -0.435349 0.088820 3.000000
0.035331 0.059056 -0.443669 3.000000
0.278048 -0.221748 -0.387978 1.000000
-0.134867 -0.187765 0.401462 3.000000
0.227947 -0.214656 -0.392173 3.000000
-0.244046 0.019277 0.442669 3.000000
-0.232031 0.422879 -0.143344 3.000000
-0.117793 -0.145530 -0.422788 3.000000
0.163276 0.256260 0.362315 3.000000
0.148718 -0.325278 -0.305870 3.000000
-0.056038 0.270426 -0.356264 3.000000
-0.173309 -0.355162 0.265690 3.000000
-0.288272 -0.443845 -0.032248 4.000000
0.285233 -0.343096 0.281246 1.000000
-0.199423 0.095711 -0.437099 3.000000
0.005743 -0.421037 -0.145613 3.000000
0.260514 -0.021454 0.442568 3.000000
-0.272788 -0.390725 -0.215001 3.000000
0.211180 -0.382865 0.224182 3.000000
0.246387 -0.441895 0.048523 3.000000
-0.039250 -0.019047 0.442644 3.000000
0.012467 0.349695 -0.278413 3.000000
-0.207680 -0.246752 0.368080 3.000000
0.237930 0.375424 -0.242591 3.000000
-0.090425 -0.284529 0.340058 3.000000
-0.165742 -0.201484 -0.398931 3.000000
0.002093 0.445110 -0.028815 3.000000
0.199833 0.353119 -0.273998 3.000000
0.185848 -0.296447 -0.333904 3.000000
0.089914 -0.299358 -0.331338 3.000000
-0.027862 0.435011 0.094920 3.000000
0.263287 -0.343865 0.280254 3.000000
0.204401 0.002634 -0.447545 3.000000
0.039988 0.429459 0.117184 3.000000
0.161697 -0.434769 0.091418 3.000000
-0.187898 -0.187032 -0.406133 3.000000
-0.227751 0.377756 0.234555 3.000000
-0.287662 -0.280516 0.343288 4.000000
-0.192592 0.357742 -0.268038 3.000000
0.209024 -0.436714 -0.087067 3.000000
0.112475 -0.077597 -0.440570 3.000000
-0.007906 0.437560 0.083516 3.000000
-0.163847 -0.350287 0.271975 3.000000
0.083598 0.335611 -0.295312 3.000000
0.202315 -0.442101 0.046346 3.000000
-0.078644 -0.331283 0.294706 3.000000
0.124609 0.419179 -0.153621 3.000000
0.129024 0.393103 -0.212346 3.000000
-0.240213 0.195056 -0.402729 3.000000
0.180996 0.249235 0.367089 3.000000
-0.124965 -0.161492 0.412688 3.000000
-0.183704 -0.318199 -0.313095 3.000000
0.185189 -0.407873 0.175132 3.000000
-0.232790 0.444656 0.030151 3.000000
-0.192047 -0.439699 -0.068808 3.000000
-0.061424 0.373032 0.241758 3.000000
0.207400 0.067089 0.438043 3.000000
0.266753 -0.299395 -0.331305 3.000000
0.286855 0.052171 0.440140 1.000000
-0.251400 -0.409630 0.171072 3.000000
0.254837 -0.317064 -0.314229 3.000000
0.066110 -0.444483 0.011815 3.000000
-0.186330 0.410456 -0.175885 3.000000
0.007240 -0.382310 0.225121 3.000000
-0.035411 0.413800 -0.168156 3.000000
-0.046437 -0.308898 0.318043 3.000000
0.197894 -0.398930 -0.198898 3.000000
0.267864 -0.364409 -0.257292 3.000000
0.204333 0.444738 0.029286 3.000000
0.048502 0.436966 -0.090527 3.000000
-0.012222 -0.436899 -0.086243 3.000000
0.166291 -0.344181 -0.284199 3.000000
-0.266246 0.202097 0.394787 3.000000
-0.225699 -0.444598 0.008149 3.000000
0.204392 0.333798 -0.297369 3.000000
0.011369 0.181660 0.404547 3.000000
0.227549 -0.196546 -0.401447 3.000000
-0.254702 0.015362 0.442792 3.000000
-0.182856 0.415471 -0.163921 3.000000
-0.207284 -0.426684 0.123210 3.000000
0.258537 0.429307 0.117708 3.000000
0.266372 0.397692 0.198984 3.000000
0.013602 0.364298 0.254610 3.000000
0.244882 0.413659 -0.168482 3.000000
0.272170 -0.018258 0.442668 3.000000
0.049102 -0.114018 -0.432527 3.000000
-0.267723 0.426039 -0.133310 3.000000
-0.028471 -0.321500 0.305440 3.000000
0.200333 -0.028266 0.442303 3.000000
0.078190 0.286727 -0.343377 3.000000
-0.261002 0.197398 -0.401535 3.000000
-0.229599 0.064835 0.438400 3.000000
0.052073 -0.429903 -0.116482 3.000000
0.283307 -0.391342 -0.213791 1.000000
-0.193451 -0.430503 -0.114417 3.000000
-0.018477 -0.298471 -0.332119 3.000000
-0.169443 -0.305997 -0.325296 3.000000
0.075230 -0.312162 -0.319132 3.000000
0.032629 0.406454 -0.185132 3.000000
0.272027 -0.283485 0.340978 3.000000
0.241361 0.070636 0.437482 3.000000
0.141634 0.404675 0.184889 3.000000
-0.234826 -0.439626 -0.069268 3.000000
-0.021416 0.175077 0.407396 3.000000
0.171260 -0.404958 0.181868 3.000000
-0.041180 -0.249434 0.366257 3.000000
-0.195718 0.334824 0.291852 3.000000
-0.114326 0.445330 -0.021836 3.000000
0.142464 -0.256966 0.361139 3.000000
-0.276838 0.364942 0.253662 3.000000
0.250490 -0.428106 0.118313 3.000000
-0.085474 0.422071 0.141236 3.000000
-0.037707 0.389180 -0.219590 3.000000
-0.175344 -0.427491 0.120431 3.000000
-0.248246 -0.440115 -0.066180 3.000000
-0.250331 0.226379 0.381492 3.000000
-0.107918 0.165783 -0.415771 3.000000
-0.128482 -0.378809 -0.235394 3.000000
-0.173697 -0.398701 -0.199348 3.000000
0.192830 0.249672 0.366792 3.000000
-0.019381 -0.138682 0.420900 3.000000
0.119199 -0.336677 -0.292941 3.000000
-0.211912 -0.441171 -0.059514 3.000000
-0.043284 -0.220097 -0.388954 3.000000
0.238538 -0.098958 -0.436144 3.000000
-0.012789 -0.443826 0.028091 3.000000
-0.031747 0.004762 -0.447478 3.000000
-0.075897 -0.058123 -0.443655 3.000000
-0.088533 0.374535 0.239546 3.000000
0.057463 0.022337 -0.446926 3.000000
0.058845 -0.419932 0.144330 3.000000
0.119780 -0.444182 -0.025730 3.000000
-0.158085 0.021887 0.442587 3.000000
-0.042091 -0.444400 0.014456 3.000000
-0.272547 0.002159 -0.447560 3.000000
0.038401 -0.144588 0.418774 3.000000
0.252403 -0.175720 0.406674 3.000000
0.221800 -0.031221 0.442024 3.000000
0.054370 -0.278614 -0.349117 3.000000
0.165824 -0.077805 -0.440537 3.000000
-0.175795 -0.089945 0.433806 3.000000
-0.253702 -0.369987 -0.249083 3.000000
-0.039848 0.443430 -0.047476 3.000000
-0.040184 -0.357609 0.262535 3.000000
0.042154 -0.357490 -0.267042 3.000000
-0.275506 -0.431632 0.105451 3.000000
-0.247691 -0.299374 -0.331324 3.000000
-0.117747 -0.022067 -0.446902 3.000000
-0.201625 0.274281 -0.353273 3.000000
-0.060930 0.443728 -0.044328 3.000000
-0.241688 0.304893 -0.327362 3.000000
0.070745 -0.427826 -0.123630 3.000000
-0.144608 0.434704 -0.100645 3.000000
-0.084160 -0.144161 0.418928 3.000000
-0.189694 0.339072 -0.291387 3.000000
0.186982 -0.440028 -0.066729 3.000000
0.094074 -0.212661 0.388883 3.000000
0.178141 0.122018 0.426147 3.000000
-0.286243 0.003997 -0.447502 4.000000
0.221824 -0.432582 -0.105553 3.000000
-0.132411 -0.226276 -0.385300 3.000000
0.061141 0.113047 0.428753 3.000000
-0.068121 -0.444540 0.010012 3.000000
0.114226 0.153832 -0.420168 3.000000
-0.075305 -0.435249 0.089271 3.000000
-0.193062 -0.130831 -0.427642 3.000000
-0.199682 0.443941 -0.042075 3.000000
0.232026 -0.079137 0.435973 3.000000
-0.015233 -0.115977 0.427604 3.000000
0.049444 0.427165 -0.129432 3.000000
0.244270 0.118136 -0.431628 3.000000
-0.045274 -0.337140 -0.292416 3.000000
-0.273751 -0.438052 -0.079209 3.000000
-0.153633 -0.236501 -0.379253 3.000000
-0.126600 -0.260580 0.358682 3.000000
0.037002 -0.162655 0.412269 3.000000
-0.007238 0.440384 -0.070957 3.000000
0.054090 0.239197 0.373911 3.000000
-0.203891 0.330372 -0.301255 3.000000
-0.072490 0.321409 -0.310909 3.000000
-0.101079 0.188551 -0.405919 3.000000
-0.205590 -0.437043 0.081225 3.000000
0.020515 0.363655 -0.259909 3.000000
-0.181854 -0.444363 0.015644 3.000000
-0.289597 -0.408610 0.173429 4.000000
-0.181661 -0.430367 -0.114886 3.000000
-0.177646 0.434348 0.097886 3.000000
0.113540 -0.089235 0.433964 3.000000
0.258248 0.277746 -0.350585 3.000000
-0.031775 0.124690 -0.429724 3.000000
-0.257556 -0.299396 0.326951 3.000000
-0.227208 -0.327182 -0.303711 3.000000
-0.142740 0.247441 -0.372661 3.000000
-0.262337 -0.289396 0.335767 3.000000
-0.260079 -0.417086 0.152235 3.000000
0.125528 -0.322657 -0.308637 3.000000
-0.093726 -0.436940 0.081707 3.000000
0.191354 0.366883 0.250806 3.000000
0.233898 -0.030013 -0.446491 3.000000
-0.178096 -0.441669 -0.055264 3.000000
-0.036455 0.442539 -0.056906 3.000000
0.066739 0.305496 0.322469 3.000000
-0.123998 -0.116806 -0.431717 3.000000
0.124316 -0.443285 -0.038171 3.000000
0.144407 0.011758 0.442905 3.000000
0.132981 -0.089303 0.433949 3.000000
-0.173751 0.048813 0.440457 3.000000
-0.252664 -0.249211 0.366409 3.000000
-0.131365 0.425776 -0.134213 3.000000
-0.173752 -0.165145 -0.415604 3.000000
-0.117455 -0.202377 0.394123 3.000000
-0.225818 -0.279010 0.344457 3.000000
-0.028496 0.164026 0.412145 3.000000
0.237265 -0.444537 0.010101 3.000000
0.134464 0.266446 -0.359350 3.000000
0.031838 -0.444655 -0.010699 3.000000
-0.243974 0.441404 0.060161 3.000000
0.009896 0.410033 0.172509 3.000000
0.153976 0.170488 -0.413735 3.000000
0.022454 -0.374429 0.238194 3.000000
-0.018546 -0.223351 -0.387030 3.000000
-0.036602 0.282915 -0.346576 3.000000
-0.009399 -0.294912 0.330904 3.000000
-0.102525 0.288050 0.337857 3.000000
-0.249148 0.125549 0.425121 3.000000
-0.290233 0.445394 0.015439 4.000000
0.173871 0.075263 0.436749 3.000000
-0.271569 -0.135937 -0.426159 3.000000
-0.163386 0.416360 -0.161452 3.000000
-0.185449 0.445474 0.012888 3.000000
0.055255 0.142541 -0.424233 3.000000
-0.074578 -0.269751 0.351638 3.000000
0.228730 -0.173947 0.407441 3.000000
0.059540 -0.240873 -0.376429 3.000000
0.228093 -0.395660 -0.205316 3.000000
-0.288716 -0.383137 -0.228077 4.000000
0.267470 -0.158255 0.413854 3.000000
-0.026663 -0.113434 0.428343 3.000000
-0.051557 -0.313356 -0.317938 3.000000
-0.144956 0.064825 -0.442756 3.000000
0.154276 0.350949 0.272443 3.000000
-0.142657 -0.314706 0.312235 3.000000
0.234058 0.201029 0.395332 3.000000
-0.114499 0.402166 0.190204 3.000000
0.181161 0.405659 0.182616 3.000000
0.052872 -0.011733 -0.447227 3.000000
-0.089300 0.054751 0.439896 3.000000
0.045748 0.199802 0.395957 3.000000
0.165046 0.212662 0.389404 3.000000
-0.001748 -0.414866 0.158402 3.000000
0.008454 -0.314649 0.312292 3.000000
-0.109457 -0.245287 0.369075 3.000000
0.130748 -0.383742 -0.227053 3.000000
-0.114160 0.416435 -0.161242 3.000000
-0.156845 0.339355 0.286712 3.000000
-0.236668 -0.168146 -0.414305 3.000000
-0.120667 0.239061 0.373992 3.000000
-0.056514 0.445790 -0.007188 3.000000
-0.282756 0.117432 0.427479 3.000000
-0.131203 -0.413704 0.161628 3.000000
0.187850 0.303020 -0.329013 3.000000
-0.234344 -0.158535 0.413752 3.000000
0.271701 -0.355873 -0.269127 3.000000
0.266587 0.341309 0.284496 3.000000
-0.100482 0.403264 0.188049 3.000000
0.125185 -0.342358 -0.286497 3.000000
-0.064508 -0.133419 0.422537 3.000000
-0.170307 -0.238280 0.373838 3.000000
-0.217004 -0.225832 -0.385563 3.000000
0.159072 -0.056347 -0.443936 3.000000
-0.264747 -0.427567 -0.124521 3.000000
0.008259 0.000490 -0.447611 3.000000
0.052906 0.076276 0.436588 3.000000
0.079580 -0.114318 0.428086 3.000000
0.213999 -0.277459 -0.350013 3.000000
-0.204285 0.399503 0.195431 3.000000
0.275387 -0.353200 0.268219 3.000000
-0.230622 -0.061794 -0.443073 3.000000
-0.108728 -0.138659 -0.425262 3.000000
0.227604 0.361546 0.258658 3.000000
-0.048907 -0.373719 -0.243592 3.000000
0.122775 -0.394109 -0.208360 3.000000
-0.115732 -0.064720 0.438256 3.000000
0.132832 0.265794 0.355503 3.000000
-0.190249 -0.298940 -0.331706 3.000000
-0.032072 0.153836 0.415813 3.000000
-0.009832 -0.179638 0.404979 3.000000
-0.275742 -0.130969 0.423249 3.000000
-0.053482 0.432532 -0.110362 3.000000
-0.028185 0.367165 0.250391 3.000000
-0.097072 0.379436 -0.236067 3.000000
-0.275193 0.401558 -0.195751 3.000000
0.043660 -0.170487 -0.413292 3.000000
-0.185094 0.394879 0.204506 3.000000
0.127001 -0.332623 -0.297539 3.000000
-0.009311 0.306817 0.321148 3.000000
-0.114484 0.008473 0.443008 3.000000
0.174843 0.445798 0.002585 3.000000
0.241799 -0.365386 0.251501 3.000000
0.140440 -0.421773 0.139217 3.000000
0.194501 -0.444469 -0.016609 3.000000
0.155428 -0.181245 0.404283 3.000000
0.157388 0.344928 0.280205 3.000000
0.218637 0.184487 -0.407677 3.000000
0.142386 -0.039326 0.441257 3.000000
-0.274416 0.390615 0.212810 3.000000
0.269560 0.416256 -0.161739 3.000000
0.259456 0.206880 0.392351 3.000000
-0.164177 0.435352 -0.097748 3.000000
0.094299 -0.374066 0.238728 3.000000
0.047475 -0.097605 0.432094 3.000000
-0.270045 0.441134 -0.066219 3.000000
0.196613 -0.225751 0.381258 3.000000
-0.126585 0.392443 -0.213641 3.000000
-0.148876 0.443423 0.043204 3.000000
-0.131534 -0.431508 -0.110360 3.000000
-0.075445 0.221580 0.384330 3.000000
-0.143145 0.048767 0.440462 3.000000
0.218949 0.299787 0.327510 3.000000
-0.240564 -0.260803 0.358531 3.000000
-0.289277 0.022944 -0.446907 4.000000
-0.288817 0.040064 0.441284 4.000000
0.225756 0.404412 0.185497 3.000000
0.162749 0.070760 0.437462 3.000000
0.176067 -0.295379 -0.334845 3.000000
-0.034696 -0.167321 -0.414662 3.000000
-0.273092 -0.085804 -0.439085 3.000000
0.125642 -0.399342 -0.198089 3.000000
-0.288236 -0.108618 -0.433985 4.000000
0.205986 -0.139367 -0.425007 3.000000
0.242912 0.007121 0.443051 3.000000
0.222748 -0.400689 0.191092 3.000000
-0.211176 -0.303303 -0.327860 3.000000
0.008332 0.023657 -0.446884 3.000000
-0.135726 0.274763 0.348546 3.000000
-0.201036 -0.318610 0.308331 3.000000
0.044963 0.136488 -0.426296 3.000000
-0.277751 -0.255154 -0.366723 3.000000
-0.000443 0.189186 0.401290 3.000000
-0.117718 0.164420 -0.416356 3.000000
-0.237824 -0.430300 0.110761 3.000000
-0.150650 0.428629 -0.124394 3.000000
-0.264818 0.081737 -0.440077 3.000000
0.212206 0.243716 0.370839 3.000000
0.271627 -0.439772 0.063996 3.000000
-0.174393 0.416416 0.156943 3.000000
0.154931 0.285055 -0.344851 3.000000
-0.227596 0.439265 -0.078021 3.000000
-0.215325 -0.153294 0.415639 3.000000
-0.104003 -0.229751 -0.383245 3.000000
-0.044562 -0.025121 -0.446806 3.000000
0.047170 0.014562 0.442817 3.000000
-0.232120 -0.443451 -0.036418 3.000000
0.133944 0.371927 0.243383 3.000000
0.002617 -0.026191 -0.446773 3.000000
0.095220 -0.423438 -0.138735 3.000000
-0.119704 0.391282 0.211566 3.000000
-0.213595 0.286055 0.339616 3.000000
0.103109 -0.057380 -0.443772 3.000000
-0.158262 0.385081 0.222169 3.000000
0.007337 -0.444062 -0.029574 3.000000
-0.236717 -0.060768 0.438882 3.000000
-0.173014 -0.280985 0.342925 3.000000
-0.090483 0.016958 -0.447095 3.000000
-0.220015 -0.322075 -0.309219 3.000000
-0.151273 -0.103205 0.430842 3.000000
-0.085077 0.232188 -0.382410 3.000000
-0.213736 0.164307 0.412043 3.000000
0.182284 -0.444460 -0.016895 3.000000
-0.030489 -0.329426 0.296812 3.000000
0.000581 0.100272 -0.436080 3.000000
0.244298 0.439746 -0.074984 3.000000
-0.232301 -0.422059 0.138421 3.000000
-0.236831 -0.272535 -0.353833 3.000000
-0.152696 -0.393225 -0.210094 3.000000
0.045985 -0.243188 0.370502 3.000000
-0.126485 -0.444182 -0.025733 3.000000
-0.214468 0.302750 0.324897 3.000000
-0.070309 0.409689 -0.177657 3.000000
0.174646 -0.389264 0.213363 3.000000
0.111504 -0.154302 -0.419630 3.000000
-0.100309 0.370093 -0.250435 3.000000
-0.112910 -0.026333 0.442415 3.000000
-0.186230 -0.367072 -0.253373 3.000000
0.177671 0.378994 0.232460 3.000000
-0.211397 -0.007747 -0.447352 3.000000
0.202257 0.284574 -0.345275 3.000000
-0.088512 0.341579 0.284189 3.000000
-0.032802 0.422459 -0.144511 3.000000
-0.096936 0.313648 -0.318671 3.000000
0.070105 -0.190430 -0.404563 3.000000
0.146072 0.188170 0.401730 3.000000
-0.106258 -0.080216 -0.440156 3.000000
0.285713 -0.393154 0.205881 1.000000
-0.144002 0.444384 0.033035 3.000000
-0.189836 -0.444069 0.024987 3.000000
-0.247850 -0.017118 0.442704 3.000000
-0.218825 -0.281401 -0.346955 3.000000
0.102140 -0.361182 -0.262040 3.000000
0.137357 -0.439525 -0.069906 3.000000
0.193825 0.364419 -0.258784 3.000000
-0.064136 -0.316959 0.309982 3.000000
-0.099567 -0.109878 -0.433704 3.000000
-0.275280 -0.293753 -0.336280 3.000000
-0.045445 -0.440205 -0.065614 3.000000
-0.237295 -0.124884 0.425016 3.000000
-0.066121 0.274462 -0.353132 3.000000
-0.228171 0.435723 0.091735 3.000000
0.215690 0.271165 -0.355690 3.000000
-0.105370 0.432584 0.105778 3.000000
-0.070864 0.325000 0.302966 3.000000
-0.040470 0.229439 0.379682 3.000000
-0.120382 0.442743 -0.054745 3.000000
-0.043975 0.178304 0.405999 3.000000
-0.218033 0.445480 -0.017036 3.000000
0.052033 -0.444448 0.012919 3.000000
-0.000670 -0.318915 -0.312379 3.000000
0.211055 0.036107 -0.446012 3.000000
-0.155865 0.445897 -0.000583 3.000000
0.134902 0.406522 -0.184975 3.000000
0.133421 0.391554 0.211032 3.000000
0.286890 0.246071 0.369239 1.000000
0.033195 -0.443520 0.031335 3.000000
-0.078953 0.428070 0.121966 3.000000
-0.097034 -0.170355 0.408996 3.000000
-0.008964 -0.269941 -0.355844 3.000000
-0.149628 0.364583 0.254190 3.000000
0.198273 0.314960 0.313005 3.000000
0.048864 0.097451 0.432357 3.000000
0.187056 -0.163921 0.411780 3.000000
-0.108379 0.182898 -0.408365 3.000000
-0.218168 0.445820 -0.006226 3.000000
-0.085601 -0.391240 0.209636 3.000000
0.218247 -0.294149 0.331577 3.000000
0.169890 -0.044834 -0.445090 3.000000
0.115758 -0.390817 -0.214820 3.000000
-0.215971 -0.425991 -0.129945 3.000000
0.218773 0.445067 0.025803 3.000000
0.092156 -0.444757 0.003098 3.000000
0.156189 0.445852 -0.005226 3.000000
-0.128900 -0.205514 0.392524 3.000000
0.106636 -0.300233 -0.330566 3.000000
-0.035325 0.059417 -0.443612 3.000000
-0.007788 -0.205381 -0.396945 3.000000
0.235892 -0.428017 -0.122973 3.000000
0.035943 -0.428844 -0.120127 3.000000
-0.005744 0.445703 0.005589 3.000000
-0.012147 -0.444434 0.013363 3.000000
-0.123334 0.413380 -0.169128 3.000000
0.203094 -0.443337 -0.037624 3.000000
0.009408 -0.416479 0.153919 3.000000
-0.246441 -0.221179 0.383961 3.000000
0.051072 -0.443820 -0.032509 3.000000
-0.024983 0.402563 0.189425 3.000000
0.048704 -0.285323 -0.343711 3.000000
-0.010349 -0.417465 -0.155536 3.000000
-0.164734 -0.444643 -0.011059 3.000000
-0.130440 0.430935 0.112103 3.000000
-0.179004 0.292226 -0.338529 3.000000
0.155149 -0.280229 0.343511 3.000000
-0.061591 0.422109 -0.145482 3.000000
0.200955 -0.270419 0.351121 3.000000
0.263042 -0.012316 -0.447209 3.000000
-0.097106 -0.160777 0.412945 3.000000
-0.057624 0.006551 0.443069 3.000000
-0.105863 -0.430633 -0.113968 3.000000
0.183734 0.316990 0.310975 3.000000
-0.021697 0.426673 -0.131125 3.000000
-0.131780 -0.272536 -0.353832 3.000000
0.128381 0.442192 -0.059542 3.000000
-0.039029 0.130667 0.423634 3.000000
-0.065837 -0.314204 -0.317090 3.000000
0.132705 -0.331106 0.294907 3.000000
-0.057869 0.420369 0.145963 3.000000
0.064933 -0.061898 0.438703 3.000000
-0.261159 0.438894 0.076008 3.000000
0.099693 0.364344 0.254541 3.000000
0.129581 -0.060285 0.438959 3.000000
0.131291 0.069009 -0.442093 3.000000
-0.166534 0.197429 -0.401520 3.000000
0.026655 -0.122683 0.425656 3.000000
-0.045898 -0.028838 0.442249 3.000000
0.142965 0.424123 -0.139887 3.000000
-0.095156 0.164364 -0.416376 3.000000
0.030501 0.326338 0.301478 3.000000
-0.140731 0.144268 0.419258 3.000000
0.285552 -0.114513 0.428029 1.000000
0.248955 -0.252164 -0.368755 3.000000
-0.242941 0.148603 -0.422051 3.000000
0.178356 -0.076339 -0.440769 3.000000
-0.185078 -0.065774 -0.442443 3.000000
-0.107634 0.442517 -0.057139 3.000000
-0.236091 0.225518 -0.386355 3.000000
-0.010648 0.301593 -0.330271 3.000000
-0.275182 -0.437285 0.079700 3.000000
-0.115283 0.318563 0.309402 3.000000
0.091557 -0.211240 -0.393960 3.000000
-0.245757 -0.074073 0.436775 3.000000
0.032323 0.439978 0.069165 3.000000
-0.087986 0.271558 -0.355385 3.000000
-0.260832 -0.443529 0.031234 3.000000
0.044714 -0.153661 0.415507 3.000000
-0.007829 0.433320 0.102485 3.000000
-0.190360 0.062952 0.438699 3.000000
0.284616 0.234416 0.376739 1.000000
0.048342 -0.330655 0.295418 3.000000
-0.017540 0.279840 -0.348961 3.000000
0.252407 -0.376316 0.235257 3.000000
-0.101728 -0.086811 0.434506 3.000000
0.274878 -0.417030 0.152391 3.000000
-0.124335 0.404261 0.185846 3.000000
-0.251446 -0.398814 0.194771 3.000000
0.271137 0.021111 0.442611 3.000000
0.041416 0.054078 0.439960 3.000000
-0.128940 0.161842 -0.417284 3.000000
-0.063547 -0.357996 0.262036 3.000000
0.116726 -0.245369 0.369020 3.000000
0.153711 -0.260267 0.358895 3.000000
-0.266680 0.360903 0.259605 3.000000
0.080789 -0.443365 0.032967 3.000000
0.092887 0.440106 -0.072710 3.000000
0.198507 -0.248964 0.366577 3.000000
0.066617 0.256519 -0.366492 3.000000
0.205483 0.418149 0.152127 3.000000
-0.026443 0.145727 -0.423086 3.000000
-0.182711 -0.385320 0.220031 3.000000
-0.244022 0.250487 -0.370591 3.000000
0.229326 -0.442268 -0.048926 3.000000
-0.009169 0.334884 -0.296136 3.000000
0.009360 0.193374 -0.403585 3.000000
-0.265224 -0.094949 0.432687 3.000000
0.276543 0.314739 -0.317580 1.000000
-0.027179 -0.423335 0.134735 3.000000
-0.105534 -0.435651 -0.091823 3.000000
0.172219 0.025632 0.442469 3.000000
-0.171698 -0.040308 0.441165 3.000000
0.180574 -0.045486 -0.445028 3.000000
0.183913 0.234934 0.376433 3.000000
-0.113357 0.441847 0.057362 3.000000
0.256269 0.348660 -0.279746 3.000000
-0.290288 0.206992 0.431886 4.000000
-0.290288 -0.294620 0.387301 4.000000
-0.290288 0.416822 0.166574 4.000000
-0.290288 0.216259 0.401852 4.000000
-0.290288 0.175862 -0.427970 4.000000
-0.290288 0.467879 -0.046119 4.000000
-0.290288 0.404598 -0.267984 4.000000
-0.290288 -0.418184 -0.237271 4.000000
-0.290288 -0.368080 -0.265410 4.000000
-0.290288 0.430460 0.179348 4.000000
-0.290288 0.476585 -0.140919 4.000000
-0.290288 0.191490 -0.407799 4.000000
-0.290288 -0.414392 0.237350 4.000000
-0.290288 -0.381418 0.226757 4.000000
-0.290288 0.084722 -0.467217 4.000000
-0.290288 -0.391019 -0.270183 4.000000
-0.290288 0.304348 0.391961 4.000000
-0.290288 0.228140 -0.410318 4.000000
-0.290288 0.172678 -0.453458 4.000000
-0.290288 0.258775 -0.365165 4.000000
-0.290288 0.420157 -0.227837 4.000000
-0.290288 0.308399 0.331519 4.000000
-0.290288 0.044793 -0.473082 4.000000
-0.290288 -0.471539 -0.063151 4.000000
-0.290288 0.469021 0.094949 4.000000
-0.290288 0.452275 -0.151767 4.000000
-0.290288 -0.070605 0.460849 4.000000
-0.290288 0.429746 0.207246 4.000000
-0.290288 0.154733 0.466459 4.000000
-0.290288 0.256520 -0.384284 4.000000
-0.290288 0.425361 0.209295 4.000000
-0.290288 -0.451344 -0.013308 4.000000
-0.290288 0.465437 -0.167651 4.000000
-0.290288 -0.465568 0.011476 4.000000
-0.290288 -0.329774 0.342901 4.000000
-0.290288 -0.099844 0.472482 4.000000
-0.290288 0.048106 -0.466331 4.000000
-0.290288 0.378549 0.313287 4.000000
-0.290288 0.325433 -0.332080 4.000000
-0.290288 0.442060 0.058196 4.000000
-0.290288 -0.369071 -0.329851 4.000000
-0.290288 -0.352331 -0.274013 4.000000
-0.290288 -0.022239 0.476677 4.000000
-0.290288 0.355624 -0.338678 4.000000
-0.290288 -0.166272 0.437753 4.000000
-0.290288 0.273771 0.365088 4.000000
-0.290288 0.376109 -0.323719 4.000000
-0.290288 0.151258 0.466357 4.000000
-0.290288 0.424825 -0.194283 4.000000
-0.290288 0.068028 -0.490321 4.000000
-0.290288 0.473013 0.108033 4.000000
-0.290288 -0.381453 0.297108 4.000000
-0.290288 -0.100955 0.481199 4.000000
-0.290288 0.137494 0.429861 4.000000
-0.290288 0.472594 -0.151212 4.000000
-0.290288 -0.389495 0.217800 4.000000
-0.290288 0.377761 -0.326929 4.000000
-0.290288 -0.304364 -0.351971 4.000000
-0.290288 -0.421897 0.260651 4.000000
-0.290288 -0.241496 -0.426997 4.000000
-0.290288 0.217317 0.415009 4.000000
-0.290288 -0.156444 0.447645 4.000000
-0.290288 -0.482833 0.024135 4.000000
-0.290288 -0.424087 -0.141375 4.000000
-0.290288 0.037056 0.443839 4.000000
-0.290288 0.020553 -0.472666 4.000000
-0.290288 -0.328566 -0.369685 4.000000
-0.290288 -0.276294 0.364014 4.000000
-0.290288 -0.422922 0.201451 4.000000
-0.290288 -0.294719 0.370900 4.000000
-0.290288 -0.127365 -0.474177 4.000000
-0.290288 -0.383307 -0.282680 4.000000
-0.290288 0.319846 -0.321834 4.000000
-0.290288 -0.437198 0.159864 4.000000
-0.290288 -0.437185 -0.119792 4.000000
-0.290288 -0.435122 -0.144902 4.000000
-0.290288 0.427852 0.211583 4.000000
-0.290288 -0.061326 0.453456 4.000000
-0.290288 0.473332 0.047542 4.000000
-0.290288 -0.208260 0.430571 4.000000
-0.290288 -0.460742 0.138579 4.000000
-0.290288 -0.134359 -0.471415 4.000000
-0.290288 0.226036 0.384344 4.000000
-0.290288 -0.345342 0.293907 4.000000
-0.290288 0.446606 0.210356 4.000000
-0.290288 0.471866 -0.076122 4.000000
-0.290288 -0.211177 -0.411177 4.000000
-0.290288 -0.405629 0.210570 4.000000
-0.290288 -0.080477 -0.455373 4.000000
-0.290288 0.022333 0.466153 4.000000
-0.290288 -0.065092 -0.487905 4.000000
-0.290288 0.390147 -0.305621 4.000000
-0.290288 -0.454310 0.132266 4.000000
-0.290288 -0.383243 0.283646 4.000000
-0.290288 -0.471609 -0.118056 4.000000
-0.290288 0.146514 0.461276 4.000000
-0.290288 0.445952 -0.155797 4.000000
-0.290288 -0.012787 -0.464573 4.000000
-0.290288 -0.424281 0.226847 4.000000
-0.290288 -0.436275 -0.154112 4.000000
-0.290288 0.439415 0.128782 4.000000
-0.290288 -0.144765 -0.466638 4.000000
-0.290288 0.434679 -0.184842 4.000000
-0.290288 0.294493 0.352325 4.000000
-0.290288 0.050653 -0.459206 4.000000
-0.290288 0.264082 0.368443 4.000000
-0.290288 0.420890 -0.265013 4.000000
-0.290288 -0.155620 -0.470887 4.000000
-0.290288 0.481008 -0.097710 4.000000
-0.290288 -0.460072 0.164953 4.000000
-0.290288 0.366059 0.305925 4.000000
-0.290288 0.382974 0.238125 4.000000
-0.290288 0.308416 -0.353748 4.000000
-0.290288 -0.318915 -0.340762 4.000000
-0.290288 -0.408103 -0.186646 4.000000
-0.290288 -0.214116 -0.451409 4.000000
-0.290288 0.067490 -0.461810 4.000000
-0.290288 0.149621 0.445068 4.000000
-0.290288 -0.468798 0.144278 4.000000
-0.290288 0.076914 0.460866 4.000000
-0.290288 -0.417587 0.235995 4.000000
-0.290288 -0.160890 -0.418194 4.000000
-0.290288 0.055087 -0.444376 4.000000
-0.290288 0.404514 -0.233764 4.000000
-0.290288 -0.462116 0.037291 4.000000
-0.290288 -0.376600 0.282490 4.000000
-0.290288 0.468619 0.136576 4.000000
-0.290288 0.277150 0.405328 4.000000
-0.290288 0.348926 -0.288103 4.000000
-0.290288 0.410752 -0.258480 4.000000
-0.290288 -0.249818 -0.412101 4.000000
-0.290288 0.066613 -0.443413 4.000000
-0.290288 0.133497 0.441305 4.000000
-0.290288 -0.044906 -0.465576 4.000000
-0.290288 -0.330310 0.302396 4.000000
-0.290288 -0.388622 -0.267727 4.000000
-0.290288 -0.213492 0.400463 4.000000
-0.290288 0.133841 0.459398 4.000000
-0.290288 -0.355545 0.310955 4.000000
-0.290288 -0.217513 0.396684 4.000000
-0.290288 -0.114412 -0.463939 4.000000
-0.290288 -0.487499 0.061269 4.000000
-0.290288 0.407628 -0.253780 4.000000
-0.290288 -0.280468 0.355055 4.000000
-0.290288 -0.462436 0.085681 4.000000
-0.290288 -0.301131 -0.352761 4.000000
-0.290288 -0.134387 0.428284 4.000000
-0.290288 0.477614 0.042932 4.000000
-0.290288 0.297857 0.374929 4.000000
-0.290288 -0.026274 0.490459 4.000000
-0.290288 -0.300341 -0.335056 4.000000
-0.290288 -0.450628 0.087217 4.000000
-0.290288 -0.173346 0.458393 4.000000
-0.290288 -0.371421 -0.290636 4.000000
-0.290288 0.006069 -0.455661 4.000000
-0.290288 -0.481269 0.036893 4.000000
-0.290288 -0.474635 0.140245 4.000000
-0.290288 -0.470649 -0.089232 4.000000
-0.290288 -0.398218 0.289981 4.000000
-0.290288 -0.419803 0.155540 4.000000
-0.290288 0.343469 0.311121 4.000000
-0.290288 0.234480 0.378285 4.000000
-0.290288 0.452923 0.095734 4.000000
-0.290288 -0.317764 0.345168 4.000000
-0.290288 0.129102 -0.481256 4.000000
-0.290288 0.481790 0.076677 4.000000
-0.290288 -0.403953 -0.269928 4.000000
-0.290288 -0.451116 0.128269 4.000000
-0.290288 0.143052 0.443209 4.000000
-0.290288 -0.326220 0.311035 4.000000
-0.290288 0.293504 0.358086 4.000000
-0.290288 0.211512 0.448393 4.000000
-0.290288 0.308801 -0.326609 4.000000
-0.290288 -0.434479 -0.171754 4.000000
-0.290288 -0.344114 0.326219 4.000000
-0.290288 0.463784 0.029067 4.000000
-0.290288 -0.185165 0.440696 4.000000
-0.290288 -0.476090 -0.097842 4.000000
-0.290288 -0.402820 -0.221069 4.000000
-0.290288 0.473008 0.087990 4.000000
-0.290288 0.044964 0.490083 4.000000
-0.290288 -0.106984 0.460097 4.000000
-0.290288 -0.342037 0.341889 4.000000
-0.290288 0.441275 -0.163354 4.000000
-0.290288 -0.199822 0.443590 4.000000
-0.290288 0.063259 -0.467596 4.000000
-0.290288 -0.436915 0.167933 4.000000
-0.290288 -0.095548 -0.485127 4.000000
-0.290288 0.394040 -0.306694 4.000000
-0.290288 -0.037551 0.446530 4.000000
-0.290288 0.436463 -0.232791 4.000000
-0.290288 0.307012 0.377585 4.000000
-0.290288 0.197197 -0.441975 4.000000
-0.290288 0.459844 -0.047244 4.000000
-0.290288 0.487699 0.035431 4.000000
-0.290288 0.443666 -0.188747 4.000000
-0.290288 -0.153425 -0.425469 4.000000
-0.290288 -0.013915 0.454156 4.000000
-0.290288 -0.337933 0.288056 4.000000
-0.290288 -0.466417 -0.150632 4.000000
-0.290288 0.358230 0.310023 4.000000
-0.290288 -0.472994 0.009909 4.000000
-0.290288 0.257144 -0.397362 4.000000
-0.290288 -0.018789 0.467211 4.000000
-0.290288 -0.460544 -0.092282 4.000000
-0.290288 -0.431122 0.114850 4.000000
-0.290288 -0.456964 -0.047936 4.000000
-0.290288 0.372603 0.294608 4.000000
-0.290288 0.280347 0.390842 4.000000
-0.290288 -0.029876 0.491523 4.000000
-0.290288 -0.461910 0.167764 4.000000
-0.290288 0.498258 0.000102 4.000000
-0.290288 0.481130 -0.028318 4.000000
-0.290288 0.101100 -0.458448 4.000000
-0.290288 -0.470417 0.110744 4.000000
-0.290288 0.350629 -0.332788 4.000000
-0.290288 -0.081284 -0.492874 4.000000
-0.290288 -0.337174 0.327793 4.000000
-0.290288 0.495787 0.042474 4.000000
-0.290288 0.436623 0.173782 4.000000
-0.290288 -0.291005 0.347476 4.000000
-0.290288 0.493290 0.060337 4.000000
-0.290288 -0.449564 -0.110800 4.000000
-0.290288 -0.399334 -0.227244 4.000000
-0.290288 0.411315 0.258693 4.000000
-0.290288 -0.292671 -0.365262 4.000000
-0.290288 -0.386531 -0.302342 4.000000
-0.290288 -0.415415 0.208100 4.000000
-0.290288 -0.062773 0.482198 4.000000
-0.290288 -0.450024 -0.214015 4.000000
-0.290288 0.185747 -0.453291 4.000000
-0.290288 -0.213677 0.412510 4.000000
-0.290288 -0.345482 0.334012 4.000000
-0.290288 0.449742 0.080170 4.000000
-0.290288 0.090389 -0.486681 4.000000
-0.290288 0.453335 0.037878 4.000000
-0.290288 0.118917 0.428097 4.000000
-0.290288 0.076687 0.442835 4.000000
-0.290288 -0.444241 0.203861 4.000000
-0.290288 0.463713 -0.040250 4.000000
-0.290288 0.263088 -0.392952 4.000000
-0.290288 -0.238452 0.399682 4.000000
-0.290288 -0.419572 0.191146 4.000000
-0.290288 0.297720 -0.373520 4.000000
-0.290288 0.073199 -0.480137 4.000000
-0.290288 0.403833 -0.237882 4.000000
-0.290288 0.301617 -0.348920 4.000000
-0.290288 -0.458901 0.035403 4.000000
-0.290288 -0.208350 -0.422509 4.000000
-0.290288 0.413452 0.228780 4.000000
-0.290288 -0.339595 -0.325406 4.000000
-0.290288 -0.238330 0.416743 4.000000
-0.290288 -0.069499 0.488606 4.000000
-0.290288 0.437946 -0.223069 4.000000
-0.290288 0.375787 -0.255856 4.000000
-0.290288 -0.369939 0.307802 4.000000
-0.290288 0.194280 -0.413294 4.000000
-0.290288 -0.371783 -0.274119 4.000000
-0.290288 0.395925 -0.224083 4.000000
-0.290288 -0.263681 -0.416182 4.000000
-0.290288 0.426774 0.200290 4.000000
-0.290288 0.431570 -0.207901 4.000000
-0.290288 -0.274038 -0.406898 4.000000
-0.290288 -0.459979 0.025486 4.000000
-0.290288 -0.479343 0.029398 4.000000
-0.290288 -0.011357 -0.485438 4.000000
-0.290288 -0.426975 -0.243445 4.000000
-0.290288 -0.457649 -0.183960 4.000000
-0.290288 -0.228137 0.426090 4.000000
-0.290288 0.265151 -0.381200 4.000000
-0.290288 0.468546 -0.170636 4.000000
-0.290288 -0.450757 -0.087736 4.000000
-0.290288 -0.462465 0.132895 4.000000
-0.290288 -0.273528 0.355339 4.000000
-0.290288 -0.456160 -0.169608 4.000000
-0.290288 -0.440466 -0.119830 4.000000
-0.290288 -0.486714 0.096681 4.000000
-0.290288 0.040510 0.457239 4.000000
-0.290288 -0.446011 0.067067 4.000000
-0.290288 0.335315 0.309809 4.000000
-0.290288 -0.284751 0.342390 4.000000
-0.290288 -0.420686 -0.239162 4.000000
-0.290288 -0.211936 -0.422771 4.000000
-0.290288 -0.322928 0.325054 4.000000
-0.290288 -0.107364 -0.435122 4.000000
-0.290288 0.454791 0.012118 4.000000
-0.290288 0.120088 0.437746 4.000000
-0.290288 -0.190584 0.425427 4.000000
-0.290288 -0.467086 -0.172265 4.000000
-0.290288 -0.230329 -0.402863 4.000000
-0.290288 0.240492 0.431544 4.000000
-0.290288 -0.299031 0.327327 4.000000
-0.290288 0.239122 0.427174 4.000000
-0.290288 -0.435004 -0.136714 4.000000
-0.290288 -0.277845 -0.370739 4.000000
-0.290288 0.399490 -0.209058 4.000000
-0.290288 -0.150452 0.427849 4.000000
-0.290288 0.444746 0.047718 4.000000
-0.290288 -0.472264 0.082376 4.000000
-0.290288 -0.266179 -0.390576 4.000000
-0.290288 -0.406978 -0.287703 4.000000
-0.290288 -0.282784 -0.396826 4.000000
-0.290288 0.333614 -0.333534 4.000000
-0.290288 0.262695 0.419973 4.000000
-0.290288 0.105804 -0.443364 4.000000
-0.290288 0.460077 -0.144589 4.000000
-0.290288 -0.229724 0.422594 4.000000
-0.290288 -0.029688 0.442554 4.000000
-0.290288 0.132885 0.424070 4.000000
-0.290288 0.054323 0.446585 4.000000
-0.290288 -0.205057 -0.414553 4.000000
-0.290288 0.364107 -0.295254 4.000000
-0.290288 0.371139 0.319655 4.000000
-0.290288 0.468031 -0.055592 4.000000
-0.290288 0.108447 -0.461531 4.000000
-0.290288 0.173226 -0.449979 4.000000
-0.290288 0.136598 -0.470209 4.000000
-0.290288 -0.084816 0.456326 4.000000
-0.290288 -0.321079 0.367757 4.000000
-0.290288 -0.067632 -0.442166 4.000000
-0.290288 0.461511 0.154066 4.000000
-0.290288 -0.059276 0.445172 4.000000
-0.290288 -0.263198 0.370692 4.000000
-0.290288 0.446966 -0.176542 4.000000
-0.290288 -0.158524 -0.457583 4.000000
-0.290288 0.115832 0.464528 4.000000
-0.290288 -0.319029 0.308773 4.000000
-0.290288 -0.364380 0.313814 4.000000
-0.290288 -0.428050 -0.214470 4.000000
-0.290288 0.412084 -0.212605 4.000000
-0.290288 0.369514 0.316886 4.000000
-0.290288 0.232100 -0.422691 4.000000
-0.290288 -0.056710 -0.474367 4.000000
-0.290288 -0.418879 0.206726 4.000000
-0.290288 -0.377638 0.253064 4.000000
-0.290288 -0.060288 0.448141 4.000000
-0.290288 -0.396988 0.284887 4.000000
-0.290288 -0.225981 -0.396380 4.000000
-0.290288 0.282685 -0.347162 4.000000
-0.290288 0.172657 0.443822 4.000000
-0.290288 0.279823 0.350191 4.000000
-0.290288 0.229702 -0.402668 4.000000
-0.290288 0.413602 0.205836 4.000000
-0.290288 -0.149388 -0.421769 4.000000
-0.290288 -0.462925 -0.078139 4.000000
-0.290288 0.473118 -0.051098 4.000000
-0.290288 0.451865 0.026470 4.000000
-0.290288 -0.425061 0.212290 4.000000
-0.290288 0.259383 0.411967 4.000000
-0.290288 -0.357638 0.297878 4.000000
-0.290288 -0.376829 0.271559 4.000000
-0.290288 0.129713 -0.434072 4.000000
-0.290288 0.255538 -0.369169 4.000000
-0.290288 -0.081783 0.472494 4.000000
-0.290288 -0.390687 -0.249597 4.000000
-0.290288 0.429298 -0.177331 4.000000
-0.290288 0.404845 0.194174 4.000000
-0.290288 0.034133 0.453843 4.000000
-0.290288 0.332949 -0.370377 4.000000
-0.290288 0.435184 -0.103999 4.000000
-0.290288 -0.318613 0.356035 4.000000
-0.290288 -0.045533 -0.445525 4.000000
-0.290288 0.210239 -0.418850 4.000000
-0.290288 0.498206 -0.004363 4.000000
-0.290288 -0.443563 0.157272 4.000000
-0.290288 0.437059 -0.213054 4.000000
-0.290288 0.472291 0.038682 4.000000
-0.290288 0.176408 0.437856 4.000000
-0.290288 -0.118386 0.448557 4.000000
-0.290288 -0.013840 0.489187 4.000000
-0.290288 0.375572 0.255261 4.000000
-0.290288 -0.472791 0.093151 4.000000
-0.290288 0.477700 -0.097441 4.000000
-0.290288 -0.096988 0.455589 4.000000
-0.290288 0.313658 -0.367672 4.000000
-0.290288 -0.187880 0.427319 4.000000
-0.290288 -0.177974 0.430093 4.000000
-0.290288 0.440282 0.175336 4.000000
-0.290288 -0.166704 -0.450463 4.000000
-0.290288 -0.434954 0.199377 4.000000
-0.290288 -0.021375 0.469529 4.000000
-0.290288 0.465150 0.113688 4.000000
-0.290288 -0.063357 0.474738 4.000000
-0.290288 0.454665 -0.183693 4.000000
-0.290288 0.387691 0.237134 4.000000
-0.290288 0.339941 -0.326451 4.000000
-0.290288 -0.434824 0.144506 4.000000
-0.290288 0.415616 0.266985 4.000000
-0.290288 -0.484717 0.038815 4.000000
-0.290288 -0.418878 -0.215704 4.000000
-0.290288 -0.084826 -0.482254 4.000000
-0.290288 0.317105 -0.368687 4.000000
-0.290288 -0.448992 0.042945 4.000000
-0.290288 0.429011 0.230183 4.000000
-0.290288 0.030430 -0.478376 4.000000
-0.290288 0.126200 0.462824 4.000000
-0.290288 0.399860 -0.263612 4.000000
-0.290288 0.330472 -0.366611 4.000000
-0.290288 -0.419193 0.255146 4.000000
-0.290288 -0.035118 0.468531 4.000000
-0.290288 -0.399298 -0.256570 4.000000
-0.290288 -0.347405 -0.345394 4.000000
-0.290288 0.483031 -0.122535 4.000000
-0.290288 0.414580 -0.190908 4.000000
-0.290288 -0.430256 -0.187645 4.000000
-0.290288 -0.448687 0.084732 4.000000
-0.290288 0.135961 -0.437984 4.000000
-0.290288 0.491246 0.057868 4.000000
-0.290288 0.217090 -0.425196 4.000000
-0.290288 -0.392544 0.298531 4.000000
-0.290288 0.394901 0.283280 4.000000
-0.290288 -0.031633 0.467747 4.000000
-0.290288 0.007479 -0.448489 4.000000
-0.290288 -0.317759 0.370629 4.000000
-0.290288 -0.281233 -0.410810 4.000000
-0.290288 -0.067473 0.471994 4.000000
-0.290288 -0.407087 -0.199279 4.000000
-0.290288 0.399066 0.212438 4.000000
-0.290288 0.479223 -0.087965 4.000000
-0.290288 0.245069 -0.388528 4.000000
-0.290288 0.488302 0.091202 4.000000
-0.290288 -0.389138 -0.306322 4.000000
-0.290288 -0.275169 -0.366946 4.000000
-0.290288 0.164493 -0.444018 4.000000
-0.290288 -0.358127 0.309269 4.000000
-0.290288 0.343586 0.332950 4.000000
-0.290288 0.329102 0.349269 4.000000
-0.290288 0.370247 0.273096 4.000000
-0.290288 0.109444 -0.435444 4.000000
-0.290288 -0.374524 -0.260659 4.000000
-0.290288 -0.193030 -0.454343 4.000000
-0.290288 -0.430548 0.172055 4.000000
-0.290288 -0.328454 0.346637 4.000000
-0.290288 0.439544 -0.188107 4.000000
-0.290288 -0.275500 -0.352007 4.000000
-0.290288 0.350032 -0.326191 4.000000
-0.290288 0.426056 -0.135335 4.000000
-0.290288 -0.310120 -0.344585 4.000000
-0.290288 -0.157318 -0.422219 4.000000
-0.290288 -0.302370 -0.348707 4.000000
-0.290288 -0.215257 -0.401340 4.000000
-0.290288 -0.209168 0.395009 4.000000
-0.290288 -0.442310 -0.191673 4.000000
-0.290288 0.463791 0.163691 4.000000
-0.290288 -0.240716 0.421764 4.000000
-0.290288 -0.066072 0.448218 4.000000
-0.290288 -0.248735 0.379488 4.000000
-0.290288 0.287023 -0.373664 4.000000
-0.290288 0.096624 -0.464849 4.000000
-0.290288 -0.378154 -0.320568 4.000000
-0.290288 -0.483625 0.010413 4.000000
-0.290288 0.180837 0.422567 4.000000
-0.290288 -0.455621 0.165342 4.000000
-0.290288 0.181824 0.416670 4.000000
-0.290288 -0.452897 -0.207964 4.000000
-0.290288 -0.127652 0.437541 4.000000
-0.290288 -0.382828 0.274839 4.000000
-0.290288 -0.335983 -0.311571 4.000000
-0.290288 -0.380742 0.305523 4.000000
-0.290288 -0.307557 0.365386 4.000000
-0.290288 0.131935 0.452934 4.000000
-0.290288 0.496080 0.020634 4.000000
-0.290288 0.452429 0.190477 4.000000
-0.290288 0.232317 -0.399085 4.000000
-0.290288 0.151792 -0.447511 4.000000
-0.290288 -0.374431 0.325518 4.000000
-0.290288 -0.109438 0.477129 4.000000
-0.290288 0.116704 0.436935 4.000000
-0.290288 0.344117 -0.327759 4.000000
-0.290288 0.466883 0.165733 4.000000
-0.290288 -0.167701 0.429563 4.000000
-0.290288 -0.100067 -0.459501 4.000000
-0.290288 -0.392283 0.209946 4.000000
