0.286960 0.216212 -0.444009 1.000000
0.286960 -0.340723 -0.346417 1.000000
0.286960 -0.474048 0.070064 1.000000
0.286960 0.367378 -0.332414 1.000000
0.286960 -0.216347 -0.440303 1.000000
0.286960 -0.363018 0.273991 1.000000
0.286960 0.368480 0.332257 1.000000
0.286960 -0.439386 0.199002 1.000000
0.286960 0.465210 0.151285 1.000000
0.286960 0.117687 0.433259 1.000000
0.286960 -0.408670 0.181478 1.000000
0.286960 0.491229 0.017152 1.000000
0.286960 0.274164 -0.402161 1.000000
0.286960 0.453223 -0.160399 1.000000
0.286960 0.471492 0.158042 1.000000
0.286960 0.324386 -0.318113 1.000000
0.286960 0.384363 0.263147 1.000000
0.286960 -0.054621 0.455926 1.000000
0.286960 -0.292874 -0.337320 1.000000
0.286960 -0.449202 0.059199 1.000000
0.286960 -0.306973 0.366098 1.000000
0.286960 -0.445008 0.123132 1.000000
0.286960 -0.452098 0.173432 1.000000
0.286960 -0.337721 -0.291831 1.000000
0.286960 -0.118198 0.474793 1.000000
0.286960 0.216082 -0.410055 1.000000
0.286960 0.091688 -0.458120 1.000000
0.286960 -0.126784 -0.476562 1.000000
0.286960 -0.473413 -0.005712 1.000000
0.286960 0.048742 0.448379 1.000000
0.286960 -0.072311 -0.484796 1.000000
0.286960 -0.379882 -0.261546 1.000000
0.286960 0.213235 -0.407100 1.000000
0.286960 0.463828 -0.090746 1.000000
0.286960 -0.178688 0.437302 1.000000
0.286960 0.309355 0.334364 1.000000
0.286960 -0.058994 -0.454291 1.000000
0.286960 0.493818 -0.044775 1.000000
0.286960 -0.101622 0.447328 1.000000
0.286960 -0.476372 -0.059985 1.000000
0.286960 0.267666 -0.409950 1.000000
0.286960 -0.467277 0.072049 1.000000
0.286960 -0.477340 -0.075624 1.000000
0.286960 0.248654 0.377197 1.000000
0.286960 0.240476 0.377312 1.000000
0.286960 -0.066115 -0.484348 1.000000
0.286960 0.059205 0.477647 1.000000
0.286960 0.449879 0.126449 1.000000
0.286960 0.468464 0.069549 1.000000
0.286960 -0.410651 0.251004 1.000000
0.286960 0.003541 0.459229 1.000000
0.286960 -0.421981 0.252708 1.000000
0.286960 0.383031 -0.293001 1.000000
0.286960 -0.195031 -0.447456 1.000000
0.286960 0.061055 0.451283 1.000000
0.286960 -0.372359 -0.248371 1.000000
0.286960 -0.236915 0.387161 1.000000
0.286960 -0.449857 -0.014298 1.000000
0.286960 0.313573 0.334611 1.000000
0.286960 -0.476567 0.031331 1.000000
0.286960 -0.426192 -0.131123 1.000000
0.286960 0.057905 0.459454 1.000000
0.286960 0.371864 -0.267758 1.000000
0.286960 0.047990 -0.445265 1.000000
0.286960 -0.352820 -0.324898 1.000000
0.286960 0.416234 0.215216 1.000000
0.286960 -0.388891 -0.308118 1.000000
0.286960 0.323861 0.311974 1.000000
0.286960 -0.452041 0.012432 1.000000
0.286960 -0.242963 0.396925 1.000000
0.286960 -0.056088 -0.492748 1.000000
0.286960 0.321536 0.363205 1.000000
0.286960 0.135388 -0.448083 1.000000
0.286960 0.170587 0.439716 1.000000
0.286960 -0.255533 -0.404553 1.000000
0.286960 0.471576 -0.164043 1.000000
0.286960 0.322084 -0.340207 1.000000
0.286960 0.278164 0.404796 1.000000
0.286960 -0.476675 0.047612 1.000000
0.286960 -0.441533 -0.154104 1.000000
0.286960 0.149031 -0.476973 1.000000
0.286960 -0.322452 -0.320086 1.000000
0.286960 -0.342662 -0.300660 1.000000
0.286960 -0.470627 0.046560 1.000000
0.286960 -0.387743 0.282580 1.000000
0.286960 -0.116238 0.465122 1.000000
0.286960 0.330822 -0.366009 1.000000
0.286960 -0.418552 -0.215696 1.000000
0.286960 0.332703 -0.342983 1.000000
0.286960 -0.247699 -0.410638 1.000000
0.286960 -0.346680 -0.295427 1.000000
0.286960 0.228885 0.423780 1.000000
0.286960 0.310920 -0.389189 1.000000
0.286960 0.448263 0.078664 1.000000
0.286960 -0.420398 -0.158894 1.000000
0.286960 0.368971 -0.336705 1.000000
0.286960 0.462156 -0.180899 1.000000
0.286960 -0.264469 -0.397740 1.000000
0.286960 -0.185090 0.437764 1.000000
0.286960 0.033515 0.466227 1.000000
0.286960 -0.485615 0.099713 1.000000
0.286960 0.396709 -0.277191 1.000000
0.286960 0.345396 -0.323467 1.000000
0.286960 0.079533 -0.493677 1.000000
0.286960 -0.168442 -0.427735 1.000000
0.286960 0.351788 0.312718 1.000000
0.286960 -0.261996 -0.395783 1.000000
0.286960 -0.113480 0.460099 1.000000
0.286960 -0.071353 0.460242 1.000000
0.286960 0.278639 0.373868 1.000000
0.286960 0.081377 -0.452267 1.000000
0.286960 -0.338062 -0.362865 1.000000
0.286960 -0.475355 0.091334 1.000000
0.286960 -0.466950 0.136191 1.000000
0.286960 0.477536 0.004904 1.000000
0.286960 -0.337724 0.288001 1.000000
0.286960 0.019563 0.467412 1.000000
0.286960 -0.213358 -0.418403 1.000000
0.286960 0.477562 0.065197 1.000000
0.286960 0.000602 0.489709 1.000000
0.286960 0.449840 -0.170328 1.000000
0.286960 0.422784 -0.224219 1.000000
0.286960 0.443535 0.109386 1.000000
0.286960 -0.347718 -0.352243 1.000000
0.286960 0.190830 -0.411373 1.000000
0.286960 0.416413 -0.182444 1.000000
0.286960 -0.090526 -0.490624 1.000000
0.286960 0.460425 0.179579 1.000000
0.286960 -0.457729 -0.082722 1.000000
0.286960 0.245193 -0.397273 1.000000
0.286960 0.387274 -0.256391 1.000000
0.286960 -0.068668 -0.473626 1.000000
0.286960 0.208164 0.438871 1.000000
0.286960 -0.318304 -0.377015 1.000000
0.286960 0.172088 -0.413267 1.000000
0.286960 -0.438928 -0.151677 1.000000
0.286960 -0.447922 -0.004768 1.000000
0.286960 -0.475762 0.059190 1.000000
0.286960 0.456051 0.065017 1.000000
0.286960 -0.168008 0.415664 1.000000
0.286960 -0.455197 -0.000482 1.000000
0.286960 0.425004 0.224131 1.000000
0.286960 -0.391082 0.219726 1.000000
0.286960 0.139368 -0.460812 1.000000
0.286960 -0.425706 0.221534 1.000000
0.286960 -0.270102 0.382867 1.000000
0.286960 -0.278782 -0.353973 1.000000
0.286960 -0.358034 0.266336 1.000000
0.286960 -0.227957 0.389308 1.000000
0.286960 -0.051534 0.458239 1.000000
0.286960 -0.455840 -0.086422 1.000000
0.286960 -0.202134 -0.421080 1.000000
0.286960 -0.192273 -0.437592 1.000000
0.286960 -0.279220 -0.390442 1.000000
0.286960 0.045798 0.444343 1.000000
0.286960 0.068914 -0.447432 1.000000
0.286960 -0.414517 0.187599 1.000000
0.286960 -0.283816 0.382969 1.000000
0.286960 0.075596 -0.472993 1.000000
0.286960 0.478544 -0.080326 1.000000
0.286960 0.232028 -0.423479 1.000000
0.286960 0.389585 -0.264061 1.000000
0.286960 0.319491 0.337211 1.000000
0.286960 0.176086 -0.412003 1.000000
0.286960 0.461722 -0.187932 1.000000
0.286960 0.440761 -0.108416 1.000000
0.286960 0.383165 0.227541 1.000000
0.286960 -0.442100 -0.203892 1.000000
0.286960 0.390209 0.306333 1.000000
0.286960 0.118720 0.451157 1.000000
0.286960 -0.178895 0.448413 1.000000
0.286960 -0.323165 -0.376241 1.000000
0.286960 -0.116482 -0.435531 1.000000
0.286960 -0.177593 -0.416014 1.000000
0.286960 -0.140481 -0.454552 1.000000
0.286960 -0.132234 0.472465 1.000000
0.286960 0.125908 -0.432866 1.000000
0.286960 -0.415908 0.195608 1.000000
0.286960 -0.257878 -0.371451 1.000000
0.286960 0.466231 -0.066370 1.000000
0.286960 0.236855 0.421264 1.000000
0.286960 -0.172338 -0.428304 1.000000
0.286960 0.157999 0.447044 1.000000
0.286960 -0.452982 0.126031 1.000000
0.286960 -0.399615 -0.247126 1.000000
0.286960 -0.166794 -0.463010 1.000000
0.286960 0.365105 0.331396 1.000000
0.286960 -0.456323 -0.063904 1.000000
0.286960 -0.346946 -0.341146 1.000000
0.286960 -0.467526 -0.057941 1.000000
0.286960 0.200840 0.410940 1.000000
0.286960 -0.075953 0.437140 1.000000
0.286960 0.388766 0.303306 1.000000
0.286960 0.388426 -0.260049 1.000000
0.286960 -0.487919 0.054448 1.000000
0.286960 -0.359683 0.288157 1.000000
0.286960 -0.264927 0.386819 1.000000
0.286960 -0.228178 -0.402311 1.000000
0.286960 0.454974 -0.086200 1.000000
0.286960 -0.342821 -0.323647 1.000000
0.286960 0.300035 0.346520 1.000000
0.286960 -0.355606 0.292971 1.000000
0.286960 -0.321994 -0.381376 1.000000
0.286960 0.115477 0.481522 1.000000
0.286960 0.345567 0.298111 1.000000
0.286960 0.245802 -0.406136 1.000000
0.286960 0.268487 0.364529 1.000000
0.286960 -0.455935 0.138856 1.000000
0.286960 -0.135161 -0.462848 1.000000
0.286960 0.436770 -0.223345 1.000000
0.286960 -0.379363 0.291176 1.000000
0.286960 -0.481979 -0.056948 1.000000
0.286960 -0.224083 0.441696 1.000000
0.286960 -0.265959 0.360472 1.000000
0.286960 0.406104 0.244977 1.000000
0.286960 0.445634 0.143633 1.000000
0.286960 -0.308878 0.351919 1.000000
0.286960 0.064592 0.467568 1.000000
0.286960 -0.391498 0.271973 1.000000
0.286960 0.241763 -0.407376 1.000000
0.286960 0.431194 0.118182 1.000000
0.286960 -0.350991 -0.278393 1.000000
0.286960 0.265656 -0.383896 1.000000
0.286960 -0.164861 -0.428120 1.000000
0.286960 0.102892 -0.477352 1.000000
0.286960 -0.037902 -0.446303 1.000000
0.286960 0.403147 -0.245848 1.000000
0.286960 0.482231 0.031936 1.000000
0.286960 0.439976 -0.090626 1.000000
0.286960 -0.301922 0.342293 1.000000
0.286960 0.395058 -0.226312 1.000000
0.286960 0.317458 0.351249 1.000000
0.286960 0.466887 0.005173 1.000000
0.286960 -0.010179 0.477341 1.000000
0.286960 -0.487769 -0.074239 1.000000
0.286960 -0.047723 0.478668 1.000000
0.286960 -0.056726 -0.461994 1.000000
0.286960 0.002601 -0.481910 1.000000
0.286960 -0.443962 0.220899 1.000000
0.286960 -0.450141 -0.201212 1.000000
0.286960 -0.403525 0.208764 1.000000
0.286960 0.068338 0.461183 1.000000
0.286960 -0.070597 0.449587 1.000000
0.286960 0.269996 0.406232 1.000000
0.286960 -0.397502 0.238078 1.000000
0.286960 0.188523 -0.431138 1.000000
0.286960 -0.279794 0.357899 1.000000
0.286960 -0.218087 -0.427589 1.000000
0.286960 0.449278 0.029539 1.000000
0.286960 0.272764 0.394984 1.000000
0.286960 -0.123488 -0.469189 1.000000
0.286960 0.326635 0.333068 1.000000
0.286960 -0.182644 -0.420862 1.000000
0.286960 -0.407458 0.275412 1.000000
0.286960 0.272236 -0.387528 1.000000
0.286960 0.007936 0.486827 1.000000
0.286960 -0.413649 0.243883 1.000000
0.286960 -0.058907 0.485954 1.000000
0.286960 0.306702 -0.383261 1.000000
0.286960 0.306147 -0.393164 1.000000
0.286960 0.424710 -0.204548 1.000000
0.286960 -0.173741 0.452641 1.000000
0.286960 0.248706 -0.394139 1.000000
0.286960 0.032135 -0.492735 1.000000
0.286960 -0.290318 0.389816 1.000000
0.286960 0.237650 0.414746 1.000000
0.286960 -0.365097 0.285288 1.000000
0.286960 -0.408304 0.233841 1.000000
0.286960 0.237704 -0.413413 1.000000
0.286960 0.442595 -0.096779 1.000000
0.286960 -0.459786 0.175807 1.000000
0.286960 0.439368 -0.218516 1.000000
0.286960 -0.324125 -0.327967 1.000000
0.286960 -0.367813 -0.323942 1.000000
0.286960 0.327495 0.361935 1.000000
0.286960 -0.185329 0.424049 1.000000
0.286960 -0.347331 -0.336801 1.000000
0.286960 -0.324095 0.334279 1.000000
0.286960 -0.236423 -0.421525 1.000000
0.286960 0.286300 0.351425 1.000000
0.286960 0.177543 0.421449 1.000000
0.286960 0.040832 -0.488995 1.000000
0.286960 -0.075255 -0.454109 1.000000
0.286960 -0.021074 -0.483949 1.000000
0.286960 0.197395 0.413392 1.000000
0.286960 -0.452943 0.112968 1.000000
0.286960 0.436709 -0.114818 1.000000
0.286960 -0.457436 -0.115515 1.000000
0.286960 -0.458237 0.074474 1.000000
0.286960 0.446602 0.146880 1.000000
0.286960 0.347494 -0.284618 1.000000
0.286960 -0.241801 -0.393521 1.000000
0.286960 0.428613 0.120253 1.000000
0.286960 0.405129 -0.225018 1.000000
0.286960 0.460329 0.015933 1.000000
0.286960 -0.271053 -0.373127 1.000000
0.286960 -0.442628 0.127288 1.000000
0.286960 -0.153869 -0.428527 1.000000
0.286960 -0.340822 0.294406 1.000000
0.286960 0.094693 0.459069 1.000000
0.286960 -0.428172 0.195039 1.000000
0.286960 -0.358821 -0.298384 1.000000
0.286960 -0.460431 -0.177427 1.000000
0.286960 -0.235124 -0.408553 1.000000
0.286960 0.434465 0.161023 1.000000
0.286960 -0.451015 -0.045788 1.000000
0.286960 0.286531 -0.344478 1.000000
0.286960 0.088758 -0.468216 1.000000
0.286960 0.381985 0.289256 1.000000
0.286960 0.391041 0.287897 1.000000
0.286960 -0.484974 -0.047416 1.000000
0.286960 -0.084053 -0.456688 1.000000
0.286960 0.492752 -0.032853 1.000000
0.286960 0.379540 0.251876 1.000000
0.286960 -0.448109 0.072514 1.000000
0.286960 -0.408504 -0.279313 1.000000
0.286960 0.335845 -0.341998 1.000000
0.286960 0.065031 -0.466731 1.000000
0.286960 0.370596 -0.313830 1.000000
0.286960 0.171791 -0.426700 1.000000
0.286960 0.476741 0.046556 1.000000
0.286960 0.471582 -0.000195 1.000000
0.286960 0.357863 0.277332 1.000000
0.286960 0.470224 -0.003533 1.000000
0.286960 0.405819 0.282464 1.000000
0.286960 0.437394 0.095626 1.000000
0.286960 0.424753 0.211060 1.000000
0.286960 -0.148817 0.444043 1.000000
0.286960 0.308433 0.388885 1.000000
0.286960 -0.437791 -0.227333 1.000000
0.286960 -0.477420 0.022150 1.000000
0.286960 -0.343960 0.322149 1.000000
0.286960 -0.425924 0.127556 1.000000
0.286960 -0.448622 -0.132679 1.000000
0.286960 0.332515 0.356765 1.000000
0.286960 -0.456806 0.014196 1.000000
0.286960 -0.397319 -0.263616 1.000000
0.286960 -0.418868 -0.236108 1.000000
0.286960 -0.488033 0.088968 1.000000
0.286960 -0.438315 0.183544 1.000000
0.286960 -0.437462 0.186745 1.000000
0.286960 0.375219 -0.268644 1.000000
0.286960 0.295535 -0.388011 1.000000
0.286960 0.308530 -0.344028 1.000000
0.286960 -0.433987 -0.224301 1.000000
0.286960 0.233955 0.395370 1.000000
0.286960 0.447267 -0.066624 1.000000
0.286960 0.399282 0.241604 1.000000
0.286960 0.268863 -0.383256 1.000000
0.286960 0.131940 0.445778 1.000000
0.286960 -0.451116 -0.181842 1.000000
0.286960 -0.439097 -0.088449 1.000000
0.286960 0.408654 0.281011 1.000000
0.286960 -0.458123 -0.144919 1.000000
0.286960 -0.453306 -0.036469 1.000000
0.286960 0.142441 -0.474256 1.000000
0.286960 -0.169777 0.450928 1.000000
0.286960 0.401117 -0.243266 1.000000
0.286960 -0.145017 -0.452962 1.000000
0.286960 -0.010697 0.482053 1.000000
0.286960 -0.059265 -0.496550 1.000000
0.286960 0.461234 0.030987 1.000000
0.286960 0.249184 0.387923 1.000000
0.286960 0.103834 -0.460285 1.000000
0.286960 0.036662 0.490722 1.000000
0.286960 -0.452062 -0.190162 1.000000
0.286960 -0.275249 0.393706 1.000000
0.286960 0.332849 0.338456 1.000000
0.286960 -0.187437 0.404159 1.000000
0.286960 0.010815 -0.467682 1.000000
0.286960 0.471421 -0.113149 1.000000
0.286960 0.387190 0.229471 1.000000
0.286960 0.261354 -0.394958 1.000000
0.286960 0.066804 -0.490555 1.000000
0.286960 -0.345330 0.297821 1.000000
0.286960 -0.094436 -0.442634 1.000000
0.286960 -0.142923 0.438124 1.000000
0.286960 -0.459725 -0.102379 1.000000
0.286960 -0.405426 -0.283125 1.000000
0.286960 -0.489316 -0.033265 1.000000
0.286960 0.206460 0.401602 1.000000
0.286960 -0.129633 -0.439761 1.000000
0.286960 0.141999 0.444345 1.000000
0.286960 -0.091258 -0.463494 1.000000
0.286960 0.401677 -0.225461 1.000000
0.286960 0.159156 -0.472290 1.000000
0.286960 0.371817 0.305764 1.000000
0.286960 0.429395 0.178820 1.000000
0.286960 0.214439 -0.451465 1.000000
0.286960 0.209854 -0.423839 1.000000
0.286960 0.403004 0.273518 1.000000
0.286960 -0.086952 0.468458 1.000000
0.286960 -0.153044 -0.444222 1.000000
0.286960 0.386144 0.294605 1.000000
0.286960 0.157488 0.450668 1.000000
0.286960 -0.177941 0.458890 1.000000
0.286960 -0.445766 0.179843 1.000000
0.286960 -0.141713 -0.451447 1.000000
0.286960 -0.463855 -0.104984 1.000000
0.286960 -0.421743 -0.151062 1.000000
0.286960 -0.383789 0.306581 1.000000
0.286960 -0.371390 -0.264713 1.000000
0.286960 -0.184599 0.412293 1.000000
0.286960 -0.245618 0.412770 1.000000
0.286960 0.477495 0.099176 1.000000
0.286960 0.402851 -0.222079 1.000000
0.286960 -0.405142 -0.262747 1.000000
0.286960 0.113863 -0.455627 1.000000
0.286960 -0.396323 0.274447 1.000000
0.286960 -0.222125 -0.391834 1.000000
0.286960 0.456631 0.074286 1.000000
0.286960 0.258058 0.382991 1.000000
0.286960 0.355688 0.328408 1.000000
0.286960 0.284302 -0.411414 1.000000
0.286960 -0.271180 0.405739 1.000000
0.286960 -0.039021 0.493677 1.000000
0.286960 0.427932 -0.174015 1.000000
0.286960 0.273247 -0.417258 1.000000
0.286960 -0.357794 -0.320505 1.000000
0.286960 -0.304683 0.345721 1.000000
0.286960 0.327617 0.305974 1.000000
0.286960 0.495809 -0.031836 1.000000
0.286960 0.148743 0.429417 1.000000
0.286960 0.482522 -0.027583 1.000000
0.286960 0.444754 0.197904 1.000000
0.286960 0.341634 0.323048 1.000000
0.286960 0.409332 0.274278 1.000000
0.286960 -0.331550 -0.368102 1.000000
0.286960 -0.296819 -0.373180 1.000000
0.286960 -0.143673 0.449651 1.000000
0.286960 -0.453272 0.184569 1.000000
0.286960 -0.214704 0.414043 1.000000
0.286960 0.431423 0.131811 1.000000
0.286960 -0.455010 0.031036 1.000000
0.286960 0.399447 -0.247946 1.000000
0.286960 -0.442126 0.099351 1.000000
0.286960 0.419492 0.171314 1.000000
0.286960 -0.487657 -0.098660 1.000000
0.286960 0.268605 -0.413375 1.000000
0.286960 -0.117638 0.480421 1.000000
0.286960 -0.440455 -0.148836 1.000000
0.286960 0.448911 0.103162 1.000000
0.286960 0.275790 -0.406292 1.000000
0.286960 0.347231 0.348646 1.000000
0.286960 -0.108409 -0.458962 1.000000
0.286960 0.408356 -0.218810 1.000000
0.286960 -0.039436 -0.459725 1.000000
0.286960 0.379707 -0.293721 1.000000
0.286960 -0.097608 -0.483608 1.000000
0.286960 0.227711 0.388642 1.000000
0.286960 -0.445742 -0.111234 1.000000
0.286960 0.296948 0.376417 1.000000
0.286960 -0.155229 0.422858 1.000000
0.286960 -0.452775 -0.084103 1.000000
0.286960 -0.338439 0.329765 1.000000
0.286960 -0.265183 0.411196 1.000000
0.286960 0.027672 0.463372 1.000000
0.286960 -0.227242 -0.431858 1.000000
0.286960 -0.019972 -0.489941 1.000000
0.286960 -0.381733 -0.287929 1.000000
0.286960 0.228202 -0.397647 1.000000
0.286960 -0.362152 0.290456 1.000000
0.286960 0.228505 0.400983 1.000000
0.286960 -0.460937 -0.173725 1.000000
0.286960 -0.360655 -0.271216 1.000000
0.286960 -0.288660 0.384140 1.000000
0.286960 -0.118557 0.433706 1.000000
0.286960 0.456581 -0.049344 1.000000
0.286960 -0.441118 0.110592 1.000000
0.286960 0.356914 0.297084 1.000000
0.286960 0.198524 0.429462 1.000000
0.286960 -0.469135 0.113077 1.000000
0.286960 -0.237859 -0.417950 1.000000
0.286960 0.392862 0.235910 1.000000
0.286960 0.453051 0.108161 1.000000
0.286960 0.011822 0.462780 1.000000
0.286960 -0.456712 -0.009813 1.000000
0.286960 -0.380580 0.284160 1.000000
0.286960 0.438284 -0.129990 1.000000
0.286960 -0.379522 -0.244358 1.000000
0.286960 0.251147 -0.405216 1.000000
0.286960 -0.450121 -0.025689 1.000000
0.286960 0.136777 0.432835 1.000000
0.286960 -0.231732 -0.422742 1.000000
0.286960 -0.357712 0.329998 1.000000
0.286960 0.404335 -0.204577 1.000000
0.286960 0.261427 -0.426353 1.000000
0.286960 0.442085 -0.092959 1.000000
0.286960 -0.049641 -0.455606 1.000000
0.286960 0.240582 0.427199 1.000000
0.286960 0.482043 0.124541 1.000000
0.286960 -0.325188 -0.317871 1.000000
0.286960 -0.396069 0.279738 1.000000
0.286960 -0.175796 0.449982 1.000000
0.286960 0.340999 -0.300066 1.000000
0.286960 -0.092171 0.445502 1.000000
0.286960 -0.476414 -0.002492 1.000000
0.286960 0.285650 0.342568 1.000000
0.286960 0.278675 -0.388893 1.000000
0.286960 0.237375 -0.397935 1.000000
0.286960 -0.485231 -0.089307 1.000000
0.286960 -0.480600 -0.072853 1.000000
0.286960 0.339626 0.352401 1.000000
0.286960 0.276449 -0.395635 1.000000
0.286960 0.391742 0.297012 1.000000
0.286960 -0.018324 -0.480746 1.000000
0.286960 -0.337133 0.363289 1.000000
0.286960 0.356785 -0.295406 1.000000
0.286960 0.054874 0.460913 1.000000
0.286960 -0.235595 -0.424881 1.000000
0.286960 -0.423307 -0.257344 1.000000
0.286960 0.416522 0.245195 1.000000
0.286960 -0.423125 -0.261893 1.000000
0.286960 0.051328 -0.468119 1.000000
0.286960 0.441463 0.183385 1.000000
0.286960 -0.117460 0.430504 1.000000
0.286960 -0.458086 0.063266 1.000000
0.286960 -0.155953 0.435858 1.000000
0.286960 0.405912 0.269482 1.000000
0.286960 -0.193663 0.403210 1.000000
0.286960 0.341970 0.328685 1.000000
0.286960 -0.136234 -0.443436 1.000000
0.286960 -0.348778 0.325623 1.000000
0.286960 -0.395536 0.228827 1.000000
0.286960 -0.462304 0.038264 1.000000
0.286960 0.474638 -0.071305 1.000000
0.286960 -0.235019 -0.388217 1.000000
0.286960 0.110147 0.429711 1.000000
0.286960 0.423139 0.169631 1.000000
0.286960 0.195470 0.415884 1.000000
0.286960 0.347153 -0.341494 1.000000
0.286960 0.382797 0.296711 1.000000
0.286960 0.139264 0.446500 1.000000
0.286960 -0.280973 -0.381648 1.000000
0.286960 -0.471672 0.052932 1.000000
0.286960 -0.209744 0.413628 1.000000
0.286960 0.006246 0.469838 1.000000
0.286960 -0.044224 -0.445210 1.000000
0.286960 -0.377431 0.247616 1.000000
0.286960 -0.463203 0.060196 1.000000
0.286960 0.018232 -0.477462 1.000000
0.286960 0.167278 -0.459721 1.000000
0.286960 0.062735 0.490726 1.000000
0.286960 0.342376 -0.323790 1.000000
0.286960 -0.262568 -0.424077 1.000000
0.286960 0.453362 0.200517 1.000000
0.286960 -0.445198 -0.202368 1.000000
0.286960 0.275173 -0.363728 1.000000
0.286960 -0.091481 -0.468845 1.000000
0.286960 -0.322887 -0.340451 1.000000
0.286960 -0.333592 0.342313 1.000000
0.286960 -0.444594 -0.069053 1.000000
0.286960 0.456180 0.051128 1.000000
0.286960 -0.452249 -0.143458 1.000000
0.286960 -0.166256 0.455201 1.000000
0.286960 -0.386104 -0.263514 1.000000
0.286960 -0.464495 -0.021268 1.000000
0.286960 0.460038 -0.116042 1.000000
0.286960 0.360702 -0.300143 1.000000
0.286960 -0.356219 -0.292516 1.000000
0.286960 0.321943 -0.361618 1.000000
0.286960 -0.274981 -0.362761 1.000000
0.286960 -0.134335 0.476402 1.000000
0.286960 0.069779 0.444053 1.000000
0.286960 -0.247668 -0.390134 1.000000
0.286960 0.171793 0.432879 1.000000
0.286960 -0.108881 -0.434470 1.000000
0.286960 -0.363885 -0.302773 1.000000
0.286960 0.310066 -0.323528 1.000000
0.286960 0.407360 -0.288551 1.000000
0.286960 0.394385 0.216259 1.000000
0.286960 0.004570 -0.449585 1.000000
0.286960 -0.358904 -0.332245 1.000000
0.286960 -0.378077 0.242693 1.000000
0.286960 -0.179886 -0.461979 1.000000
0.286960 0.145294 0.462044 1.000000
0.286960 0.439296 0.129739 1.000000
0.286960 0.244270 -0.415485 1.000000
0.286960 -0.222268 -0.440087 1.000000
0.286960 -0.486740 0.040006 1.000000
0.286960 0.476127 0.108098 1.000000
0.286960 -0.479970 0.034217 1.000000
0.286960 -0.312538 -0.385684 1.000000
0.286960 -0.413567 -0.194148 1.000000
0.286960 -0.400382 -0.256573 1.000000
0.286960 0.067164 0.456802 1.000000
0.286960 -0.485924 -0.102802 1.000000
0.286960 0.044506 -0.463900 1.000000
0.286960 -0.476321 0.004304 1.000000
0.286960 0.458021 0.044160 1.000000
0.286960 0.262973 0.406146 1.000000
0.286960 -0.399811 -0.289825 1.000000
0.286960 -0.463045 -0.090633 1.000000
0.286960 -0.467490 -0.128444 1.000000
0.286960 0.291807 -0.387180 1.000000
0.286960 -0.346290 -0.298809 1.000000
0.286960 -0.460074 -0.096329 1.000000
0.286960 0.278519 -0.369045 1.000000
0.286960 -0.293979 0.380633 1.000000
0.286960 -0.258941 -0.424450 1.000000
0.286960 -0.121639 -0.453520 1.000000
0.286960 0.063543 -0.445185 1.000000
0.286960 -0.372916 0.319519 1.000000
0.286960 -0.384701 -0.260314 1.000000
0.286960 -0.447475 -0.074595 1.000000
0.286960 -0.479627 -0.107786 1.000000
0.286960 0.471671 -0.050077 1.000000
0.286960 0.117258 0.458035 1.000000
0.286960 -0.476699 0.001093 1.000000
0.286960 -0.411385 0.264449 1.000000
0.286960 0.384677 -0.316218 1.000000
0.286960 0.430730 0.125382 1.000000
0.286960 -0.409837 -0.178887 1.000000
0.286960 -0.482670 -0.091441 1.000000
0.286960 0.044051 0.456906 1.000000
0.286960 0.365522 -0.281815 1.000000
0.286960 0.029495 0.466558 1.000000
0.286960 0.390307 -0.294205 1.000000
0.286960 -0.418912 -0.211716 1.000000
0.286960 0.013585 0.453905 1.000000
0.286960 -0.425328 -0.197786 1.000000
0.286960 -0.450442 0.140263 1.000000
0.286960 0.464071 -0.110066 1.000000
0.286960 0.283440 0.392915 1.000000
0.286960 -0.368311 0.325398 1.000000
0.286960 0.061568 -0.468453 1.000000
0.286960 0.339693 0.309200 1.000000
0.286960 -0.096244 0.460799 1.000000
0.286960 -0.160738 0.413458 1.000000
0.286960 0.473251 -0.107016 1.000000
0.286960 0.404212 0.238278 1.000000
0.286960 0.352063 0.316099 1.000000
0.286960 0.208905 -0.437187 1.000000
0.286960 0.426473 -0.163509 1.000000
0.286960 0.366521 0.335014 1.000000
0.286960 -0.318731 0.316266 1.000000
0.286960 -0.238553 -0.397434 1.000000
0.286960 0.443389 0.097157 1.000000
0.286960 0.189455 -0.454628 1.000000
0.286960 0.470956 -0.109714 1.000000
0.286960 -0.467768 -0.000650 1.000000
0.286960 0.459783 0.126839 1.000000
0.286960 -0.069385 0.438512 1.000000
0.286960 0.451291 -0.053958 1.000000
0.286960 -0.413737 -0.178238 1.000000
0.286960 0.145557 -0.423702 1.000000
0.286960 -0.483612 0.087502 1.000000
0.286960 0.421357 -0.229223 1.000000
0.286960 0.043145 0.487663 1.000000
0.286960 0.148262 0.439462 1.000000
0.286960 0.176302 -0.421243 1.000000
0.286960 -0.460937 0.113295 1.000000
0.286960 -0.350987 0.288474 1.000000
0.286960 -0.089474 -0.446695 1.000000
0.286960 -0.428851 0.141620 1.000000
0.286960 0.079529 -0.483414 1.000000
0.286960 0.253296 -0.378701 1.000000
0.286960 0.495379 -0.050389 1.000000
0.286960 -0.410133 0.244478 1.000000
0.286960 0.481599 -0.067183 1.000000
0.286960 0.111926 -0.449229 1.000000
0.286960 -0.160443 0.440626 1.000000
0.286960 -0.351311 0.284210 1.000000
0.286960 -0.129273 0.430664 1.000000
0.286960 0.433068 -0.190760 1.000000
0.286960 -0.430873 0.147061 1.000000
0.286960 0.428961 -0.161082 1.000000
0.286960 0.326573 0.313790 1.000000
0.286960 -0.167597 -0.452401 1.000000
0.286960 0.410354 -0.226190 1.000000
0.286960 -0.274365 -0.373598 1.000000
0.286960 0.473133 0.006488 1.000000
0.286960 0.396285 0.265167 1.000000
0.286960 0.407886 0.214397 1.000000
0.286960 0.288791 -0.353773 1.000000
0.286960 0.486572 -0.080021 1.000000
0.286960 -0.089491 0.486989 1.000000
0.286960 0.173978 -0.465267 1.000000
0.286960 -0.334814 -0.343009 1.000000
0.286960 0.443493 0.123384 1.000000
0.286960 -0.358153 0.311082 1.000000
0.286960 0.449344 0.149797 1.000000
0.286960 0.091757 0.455890 1.000000
0.286960 -0.041489 -0.491949 1.000000
0.286960 0.468028 -0.172502 1.000000
0.286960 0.187921 -0.423280 1.000000
0.286960 -0.085045 0.448797 1.000000
0.286960 0.346903 0.277987 1.000000
0.286960 -0.469599 0.129576 1.000000
0.286960 -0.093908 -0.482722 1.000000
0.286960 0.305875 0.383476 1.000000
0.286960 -0.441147 0.187725 1.000000
0.286960 0.439912 0.204921 1.000000
0.286960 -0.265740 0.414230 1.000000
0.286960 0.014165 -0.498608 1.000000
0.286960 -0.460292 -0.074123 1.000000
0.286960 -0.249803 -0.423256 1.000000
0.286960 -0.419339 -0.200942 1.000000
0.286960 -0.433242 -0.195040 1.000000
0.286960 -0.497374 0.007086 1.000000
0.286960 -0.385021 0.279828 1.000000
0.286960 0.338282 -0.334016 1.000000
0.286960 -0.195290 0.440282 1.000000
0.286960 0.034389 -0.483048 1.000000
0.286960 -0.087967 0.455105 1.000000
0.286960 -0.436095 -0.092872 1.000000
0.286960 -0.025487 -0.462957 1.000000
0.286960 0.228564 0.432240 1.000000
0.286960 -0.391242 -0.218963 1.000000
0.286960 0.443462 0.053906 1.000000
0.286960 -0.496236 -0.016549 1.000000
0.286960 -0.459509 -0.162376 1.000000
0.286960 -0.413566 -0.201786 1.000000
0.286960 -0.399648 -0.277313 1.000000
0.286960 -0.465278 0.110887 1.000000
0.286960 -0.299976 0.361435 1.000000
0.286960 0.159554 0.424946 1.000000
0.286960 -0.263606 -0.382591 1.000000
0.286960 0.070047 -0.458757 1.000000
0.286960 -0.400396 -0.211719 1.000000
0.286960 0.463349 0.093364 1.000000
0.286960 0.333066 0.349860 1.000000
0.286960 0.064437 -0.452587 1.000000
0.286960 -0.473252 -0.141690 1.000000
0.286960 0.185936 -0.427830 1.000000
0.286960 -0.452297 0.025162 1.000000
0.286960 0.260592 0.364732 1.000000
0.286960 0.131851 0.424114 1.000000
0.286960 -0.092713 -0.475005 1.000000
0.286960 -0.072119 -0.457547 1.000000
0.286960 -0.214891 0.430063 1.000000
0.286960 -0.105449 0.465754 1.000000
0.286960 -0.181244 -0.438038 1.000000
0.286960 -0.423811 -0.226963 1.000000
0.286960 0.351364 -0.321821 1.000000
0.286960 0.456153 0.185835 1.000000
0.286960 0.497698 0.007394 1.000000
0.286960 -0.193896 0.430655 1.000000
0.286960 0.357845 0.330985 1.000000
0.286960 0.476708 -0.017253 1.000000
0.286960 0.420231 0.183074 1.000000
0.286960 0.253852 0.417856 1.000000
0.286960 -0.319150 -0.380123 1.000000
0.286960 0.399240 -0.209503 1.000000
0.286960 0.084176 0.436949 1.000000
0.286960 0.152186 -0.444979 1.000000
0.286960 -0.483308 0.041880 1.000000
0.286960 -0.240462 0.394043 1.000000
0.286960 -0.461966 0.017714 1.000000
0.286960 -0.269761 -0.407671 1.000000
0.286960 0.241199 -0.426471 1.000000
0.286960 0.411612 0.169194 1.000000
0.286960 0.421205 -0.267975 1.000000
0.286960 0.214256 0.428465 1.000000
0.286960 -0.073233 -0.442281 1.000000
0.286960 -0.450662 0.018672 1.000000
0.286960 -0.154736 0.457724 1.000000
0.286960 -0.361325 0.261793 1.000000
0.286960 -0.410340 0.257796 1.000000
0.286960 -0.350064 0.348645 1.000000
0.286960 -0.423141 -0.183860 1.000000
0.286960 -0.479562 -0.046306 1.000000
0.286960 0.363986 0.258538 1.000000
0.286960 -0.478643 -0.006058 1.000000
0.286960 0.386582 -0.292314 1.000000
0.286960 -0.474812 0.098396 1.000000
0.286960 -0.417742 0.165542 1.000000
0.286960 0.446446 0.155913 1.000000
0.286960 -0.194148 -0.402839 1.000000
0.286960 -0.414924 0.271435 1.000000
0.286960 0.439318 -0.180971 1.000000
0.286960 0.353468 0.298867 1.000000
0.286960 0.358857 -0.309602 1.000000
0.286960 -0.310309 0.326419 1.000000
0.286960 -0.020710 0.487818 1.000000
0.286960 0.487617 -0.054469 1.000000
0.286960 0.369790 -0.295557 1.000000
0.286960 0.350686 0.295021 1.000000
0.286960 -0.393059 -0.261177 1.000000
0.286960 0.482141 -0.036467 1.000000
0.286960 -0.278931 -0.362065 1.000000
0.286960 0.407702 -0.270913 1.000000
0.286960 -0.449328 0.114176 1.000000
0.286960 0.232673 0.392624 1.000000
0.286960 -0.447325 0.199908 1.000000
0.286960 0.444561 -0.077077 1.000000
0.286960 0.093785 -0.450937 1.000000
0.286960 0.436133 -0.125233 1.000000
0.286960 -0.207359 -0.425838 1.000000
0.286960 -0.222286 -0.443473 1.000000
0.286960 0.282336 0.389855 1.000000
0.286960 0.305263 0.332159 1.000000
0.286960 -0.279827 -0.403688 1.000000
0.286960 0.055703 0.464625 1.000000
0.286960 -0.437854 0.091212 1.000000
0.286960 0.228105 -0.444676 1.000000
0.286960 0.154037 0.450624 1.000000
0.286960 -0.329257 0.324747 1.000000
0.286960 0.058756 0.455336 1.000000
0.286960 -0.478170 -0.030022 1.000000
0.286960 0.373274 0.321954 1.000000
0.286960 0.492254 0.063672 1.000000
0.286960 -0.299244 0.394227 1.000000
0.286960 -0.436396 0.204069 1.000000
0.286960 0.200335 -0.403890 1.000000
0.286960 0.397625 0.245288 1.000000
0.286960 0.363330 0.299633 1.000000
0.286960 -0.391198 0.262440 1.000000
0.286960 0.165333 -0.443089 1.000000
0.286960 -0.132912 -0.427203 1.000000
0.286960 0.439198 -0.079356 1.000000
0.286960 0.453277 -0.177278 1.000000
0.286960 0.013789 -0.464747 1.000000
0.286960 0.466406 0.100279 1.000000
0.286960 -0.418195 0.231483 1.000000
0.286960 0.451531 -0.121438 1.000000
0.286960 -0.148569 0.435037 1.000000
0.286960 0.423033 0.185531 1.000000
0.286960 0.457155 0.057923 1.000000
0.286960 0.449460 -0.159103 1.000000
0.286960 0.389549 -0.229355 1.000000
0.286960 0.428572 -0.129671 1.000000
0.286960 0.457204 0.085640 1.000000
0.286960 -0.183053 -0.442668 1.000000
0.286960 -0.416139 -0.175067 1.000000
0.286960 0.355689 -0.303115 1.000000
0.286960 -0.076215 0.481502 1.000000
0.286960 -0.183870 0.450424 1.000000
0.286960 0.399007 -0.234231 1.000000
0.286960 -0.282797 -0.356448 1.000000
0.286960 -0.313631 0.327453 1.000000
0.286960 0.473454 0.025863 1.000000
0.286960 0.381758 -0.289960 1.000000
0.286960 -0.103344 -0.461309 1.000000
0.286960 -0.270664 0.373950 1.000000
0.286960 0.479026 0.092454 1.000000
0.286960 0.270955 0.402746 1.000000
0.286960 0.146880 -0.463339 1.000000
0.286960 -0.418346 0.241098 1.000000
0.286960 -0.362151 0.265150 1.000000
0.286960 -0.011849 0.468499 1.000000
0.286960 0.104465 0.452200 1.000000
0.286960 -0.042596 -0.465050 1.000000
0.286960 -0.242745 0.384143 1.000000
0.286960 -0.457354 0.097136 1.000000
0.286960 0.433388 -0.176277 1.000000
0.286960 -0.321037 0.310924 1.000000
0.286960 -0.294845 -0.396885 1.000000
0.286960 -0.181396 0.434610 1.000000
0.286960 0.147049 0.433041 1.000000
0.286960 -0.175512 0.434960 1.000000
0.286960 -0.379867 0.231616 1.000000
0.286960 0.453094 0.086413 1.000000
0.286960 0.305368 -0.374761 1.000000
0.286960 -0.182545 -0.416806 1.000000
0.286960 0.053442 0.492757 1.000000
0.286960 0.081396 -0.490799 1.000000
0.286960 0.459020 0.024561 1.000000
0.286960 -0.294057 -0.375143 1.000000
0.286960 -0.400956 0.290085 1.000000
0.286960 -0.419999 0.180464 1.000000
0.286960 -0.463954 -0.084663 1.000000
0.286960 -0.226342 0.381796 1.000000
0.286960 -0.256766 0.423077 1.000000
0.286960 0.318167 -0.374198 1.000000
0.286960 -0.289175 -0.406717 1.000000
0.286960 0.490686 0.033059 1.000000
0.286960 0.044103 0.452670 1.000000
0.286960 0.366506 -0.263802 1.000000
0.286960 0.456232 0.004317 1.000000
0.286960 -0.039221 0.478524 1.000000
0.286960 0.143579 0.424722 1.000000
0.286960 0.100215 0.439886 1.000000
0.286960 -0.402500 -0.227940 1.000000
0.286960 0.343420 -0.309924 1.000000
0.286960 -0.480600 -0.002726 1.000000
0.286960 -0.220123 0.395392 1.000000
0.286960 0.090916 0.468649 1.000000
0.286960 -0.098764 0.439798 1.000000
0.286960 0.095182 0.450389 1.000000
0.286960 -0.463139 -0.117351 1.000000
0.286960 -0.403467 0.224691 1.000000
0.286960 -0.413320 -0.271455 1.000000
0.286960 0.186457 0.452946 1.000000
0.286960 -0.392236 0.275538 1.000000
0.286960 -0.079884 -0.478963 1.000000
0.286960 0.420690 -0.155676 1.000000
0.286960 0.453241 0.045092 1.000000
0.286960 0.435946 0.212560 1.000000
0.286960 0.347871 -0.319791 1.000000
0.286960 0.210546 -0.452727 1.000000
0.286960 -0.375473 -0.247951 1.000000
0.286960 0.337345 0.305686 1.000000
0.286960 0.220182 -0.447810 1.000000
0.286960 0.267416 0.403408 1.000000
0.286960 0.171674 0.409132 1.000000
0.286960 -0.491096 -0.044281 1.000000
0.286960 -0.178648 -0.422289 1.000000
0.286960 0.285693 0.386706 1.000000
0.286960 0.417000 0.234562 1.000000
0.286960 -0.388314 0.217191 1.000000
0.286960 -0.310186 0.378668 1.000000
0.286960 0.133427 -0.468224 1.000000
0.286960 -0.137091 -0.474071 1.000000
0.286960 0.461653 0.102256 1.000000
0.286960 -0.284664 -0.371630 1.000000
0.286960 0.277829 -0.415449 1.000000
0.286960 -0.171218 0.460619 1.000000
0.286960 -0.472903 -0.034990 1.000000
0.286960 0.416976 -0.235011 1.000000
0.286960 0.365482 0.319457 1.000000
0.286960 0.086183 -0.476213 1.000000
0.286960 -0.180863 0.460714 1.000000
0.286960 -0.246158 -0.422131 1.000000
0.286960 0.413291 0.213812 1.000000
0.286960 -0.402299 -0.241587 1.000000
0.286960 -0.187927 0.429383 1.000000
0.286960 -0.054129 0.487804 1.000000
0.286960 -0.459878 -0.128959 1.000000
0.286960 -0.474893 -0.052652 1.000000
0.286960 0.427918 -0.167468 1.000000
0.286960 0.299253 -0.334543 1.000000
0.286960 -0.219590 -0.401938 1.000000
0.286960 0.235345 0.400132 1.000000
0.286960 -0.445517 -0.002895 1.000000
0.286960 -0.207070 0.410836 1.000000
0.286960 -0.286075 -0.366629 1.000000
0.286960 -0.350110 -0.344081 1.000000
0.286960 0.374887 0.256018 1.000000
0.286960 0.190861 0.436585 1.000000
0.286960 0.352336 0.271524 1.000000
0.286960 0.384371 -0.275740 1.000000
0.286960 -0.413939 0.203072 1.000000
0.286960 0.302242 -0.332480 1.000000
0.286960 -0.482908 -0.061404 1.000000
0.286960 -0.429408 -0.167703 1.000000
0.286960 0.134176 -0.437505 1.000000
0.286960 -0.155529 0.465822 1.000000
0.286960 -0.454956 0.187200 1.000000
0.286960 0.375708 0.281009 1.000000
0.286960 -0.409382 0.174263 1.000000
0.286960 0.441502 0.119813 1.000000
0.286960 -0.203107 -0.431057 1.000000
0.286960 -0.006348 0.490648 1.000000
0.286960 0.477266 0.027872 1.000000
0.286960 0.195597 -0.402588 1.000000
0.286960 0.066173 0.479489 1.000000
0.286960 0.043886 -0.490536 1.000000
0.286960 -0.092467 0.485058 1.000000
0.286960 -0.076139 -0.466487 1.000000
0.286960 -0.389238 -0.248931 1.000000
0.286960 -0.016741 0.488454 1.000000
0.286960 0.141884 0.449153 1.000000
0.286960 0.403926 -0.275218 1.000000
0.286960 -0.438310 0.169501 1.000000
0.286960 -0.456524 0.092997 1.000000
0.286960 0.091525 -0.440915 1.000000
0.286960 -0.163444 0.420014 1.000000
0.286960 0.264760 -0.394320 1.000000
0.286960 0.415438 -0.173111 1.000000
0.286960 -0.145914 -0.430257 1.000000
0.286960 0.079472 -0.459454 1.000000
0.286960 -0.405352 -0.205166 1.000000
0.286960 0.481689 -0.107734 1.000000
0.286960 0.461172 0.095656 1.000000
0.286960 0.418205 -0.166362 1.000000
0.286960 0.432151 -0.235447 1.000000
0.286960 -0.153991 0.428971 1.000000
0.286960 -0.018772 0.443929 1.000000
0.286960 0.009349 -0.447890 1.000000
0.286960 0.268237 0.392862 1.000000
0.286960 -0.457943 -0.019185 1.000000
0.286960 -0.304947 -0.334429 1.000000
0.286960 -0.360538 -0.317672 1.000000
0.286960 -0.323012 0.350508 1.000000
0.286960 -0.041541 0.459354 1.000000
0.286960 0.490142 -0.009230 1.000000
0.286960 0.449368 0.180493 1.000000
0.286960 -0.254202 -0.425033 1.000000
0.286960 0.410304 -0.264726 1.000000
0.286960 -0.452023 0.109635 1.000000
0.286960 0.201915 -0.408720 1.000000
0.286960 0.471433 0.040387 1.000000
0.286960 0.148662 -0.445101 1.000000
0.286960 -0.478941 0.084736 1.000000
0.286960 0.461528 -0.053652 1.000000
0.286960 0.462832 -0.103119 1.000000
0.286960 -0.364813 0.311852 1.000000
0.286960 -0.427080 0.170005 1.000000
0.286960 0.442237 -0.230093 1.000000
0.286960 -0.491443 0.073660 1.000000
0.286960 0.424669 0.249309 1.000000
0.286960 -0.069384 -0.476850 1.000000
0.286960 -0.448817 0.090873 1.000000
0.286960 -0.443503 -0.164355 1.000000
0.286960 0.001151 -0.456742 1.000000
0.286960 -0.336920 0.348553 1.000000
0.286960 0.016543 0.490219 1.000000
0.286960 -0.247320 0.403939 1.000000
0.286960 -0.482782 0.084007 1.000000
0.286960 -0.223992 0.399141 1.000000
0.286960 -0.445447 -0.131734 1.000000
0.286960 0.348020 -0.325523 1.000000
0.286960 -0.091657 -0.439006 1.000000
0.286960 0.119107 0.441897 1.000000
0.286960 -0.448463 -0.048170 1.000000
0.286960 -0.203956 -0.424315 1.000000
0.286960 -0.190526 0.431383 1.000000
0.286960 -0.209122 -0.395640 1.000000
0.286960 0.324481 0.329133 1.000000
0.286960 -0.448322 -0.196638 1.000000
0.286960 -0.073248 0.475749 1.000000
0.286960 0.041718 0.446504 1.000000
0.286960 0.333383 -0.318427 1.000000
0.286960 -0.272090 0.359781 1.000000
0.286960 -0.243596 -0.387505 1.000000
0.286960 -0.344550 -0.338718 1.000000
0.286960 0.016373 -0.462567 1.000000
0.286960 0.047730 -0.484382 1.000000
0.286960 -0.441664 0.224921 1.000000
0.286960 -0.375021 -0.315357 1.000000
0.286960 -0.438631 0.138593 1.000000
0.286960 -0.454705 0.199192 1.000000
0.286960 -0.397126 -0.253684 1.000000
0.286960 0.485057 0.029927 1.000000
0.286960 0.025535 0.484738 1.000000
0.286960 -0.467703 -0.118602 1.000000
0.286960 -0.237910 -0.383430 1.000000
0.286960 -0.481819 -0.043442 1.000000
0.286960 -0.411384 0.208632 1.000000
0.286960 -0.463004 0.069246 1.000000
0.286960 -0.460911 0.072515 1.000000
0.286960 0.302092 0.377944 1.000000
0.286960 0.336569 0.302586 1.000000
0.286960 0.043411 0.484305 1.000000
0.286960 -0.435451 -0.190044 1.000000
0.286960 -0.346817 0.278114 1.000000
0.286960 -0.374303 -0.319341 1.000000
0.286960 0.298485 0.392231 1.000000
0.286960 -0.057589 -0.471378 1.000000
0.286960 -0.452751 0.093077 1.000000
0.286960 0.228117 -0.403402 1.000000
0.286960 0.391224 0.239136 1.000000
0.286960 -0.419211 0.245682 1.000000
0.286960 0.282692 -0.403549 1.000000
0.286960 0.108489 -0.438347 1.000000
0.286960 -0.392512 -0.236400 1.000000
0.286960 0.272202 -0.361757 1.000000
0.286960 -0.345634 -0.358634 1.000000
0.286960 -0.126309 0.434447 1.000000
0.286960 -0.445118 0.154061 1.000000
0.286960 -0.166754 0.447458 1.000000
0.286960 0.191189 -0.448482 1.000000
0.286960 0.463674 0.077411 1.000000
0.286960 -0.386806 0.245009 1.000000
0.286960 -0.445585 -0.170659 1.000000
0.286960 0.068229 0.447371 1.000000
0.286960 -0.452468 -0.011918 1.000000
0.286960 -0.220674 -0.419466 1.000000
0.286960 0.477495 0.125003 1.000000
0.286960 0.411377 -0.234250 1.000000
0.286960 -0.161155 -0.457455 1.000000
0.286960 0.461048 -0.166981 1.000000
0.286960 -0.048327 0.449346 1.000000
0.286960 0.253763 -0.382813 1.000000
0.286960 0.396515 -0.289241 1.000000
0.286960 0.438667 -0.197629 1.000000
0.286960 0.157395 -0.429610 1.000000
0.286960 -0.365044 0.296131 1.000000
0.286960 0.222105 -0.405890 1.000000
0.286960 -0.432097 -0.215311 1.000000
0.286960 0.409257 0.233750 1.000000
0.286960 0.199520 0.396115 1.000000
0.286960 0.047889 0.455833 1.000000
0.286960 -0.444216 0.114693 1.000000
0.286960 -0.354856 -0.287849 1.000000
0.286960 0.462775 -0.045451 1.000000
0.286960 -0.111739 -0.456150 1.000000
0.286960 0.241484 0.412717 1.000000
0.286960 0.438960 -0.123514 1.000000
0.286960 0.463087 0.146314 1.000000
0.286960 0.454727 -0.027681 1.000000
0.286960 -0.065920 -0.478963 1.000000
0.286960 0.083881 -0.441803 1.000000
0.286960 -0.331495 0.346765 1.000000
0.286960 0.457292 0.151646 1.000000
0.286960 -0.022880 -0.491767 1.000000
0.286960 0.227609 0.410579 1.000000
0.286960 -0.247252 0.408807 1.000000
0.286960 -0.250520 -0.426813 1.000000
0.286960 -0.492028 0.055083 1.000000
0.286960 -0.303763 0.330590 1.000000
0.286960 -0.479933 0.108330 1.000000
0.286960 0.339709 0.335662 1.000000
0.286960 -0.385443 0.222967 1.000000
0.286960 -0.353939 -0.295968 1.000000
0.286960 0.450735 0.162349 1.000000
0.286960 -0.320467 0.370146 1.000000
0.286960 0.273183 0.368793 1.000000
0.286960 0.465891 -0.018834 1.000000
0.286960 0.425197 0.256357 1.000000
0.286960 0.023690 -0.499673 1.000000
0.286960 -0.087826 -0.468175 1.000000
0.286960 0.129793 -0.451181 1.000000
0.286960 -0.478452 -0.104496 1.000000
0.286960 -0.313826 0.323600 1.000000
0.286960 -0.472918 0.048739 1.000000
0.286960 0.249461 -0.432279 1.000000
0.286960 -0.089806 0.436184 1.000000
0.286960 0.399424 -0.275160 1.000000
0.286960 0.464175 -0.094312 1.000000
0.286960 -0.479367 -0.116308 1.000000
0.286960 -0.160197 -0.447776 1.000000
0.286960 0.167985 0.419770 1.000000
0.286960 -0.453803 0.002449 1.000000
0.286960 0.457834 -0.026216 1.000000
0.286960 -0.458923 -0.092887 1.000000
0.286960 0.311606 -0.366601 1.000000
0.286960 0.429878 0.208572 1.000000
0.286960 -0.408925 -0.261251 1.000000
0.286960 -0.151600 0.432443 1.000000
0.286960 0.235658 -0.423623 1.000000
0.286960 -0.413113 0.174077 1.000000
0.286960 0.381925 -0.296986 1.000000
0.286960 0.271227 0.391916 1.000000
0.286960 -0.371050 -0.278770 1.000000
0.286960 0.022671 0.456318 1.000000
0.286960 -0.173368 0.408506 1.000000
0.286960 0.394201 0.291417 1.000000
0.286960 -0.254940 -0.419159 1.000000
0.286960 0.353162 -0.281295 1.000000
0.286960 0.434858 0.114232 1.000000
0.286960 0.105929 0.471159 1.000000
0.286960 0.184846 -0.409713 1.000000
0.286960 -0.390973 0.280658 1.000000
0.286960 0.080230 -0.466206 1.000000
0.286960 0.102209 0.436946 1.000000
0.286960 0.449102 -0.013017 1.000000
0.286960 -0.360323 0.305263 1.000000
0.286960 -0.301669 0.381301 1.000000
0.286960 -0.464292 0.118811 1.000000
0.286960 -0.263255 -0.370704 1.000000
0.286960 -0.079591 -0.465322 1.000000
0.286960 0.304262 0.351201 1.000000
0.286960 -0.098312 -0.453796 1.000000
0.286960 0.067559 0.490738 1.000000
0.286960 0.285847 -0.375404 1.000000
0.286960 0.434762 -0.101083 1.000000
0.286960 -0.383607 0.282862 1.000000
0.286960 0.468229 0.154793 1.000000
0.286960 0.433746 0.135577 1.000000
0.286960 -0.151943 0.466790 1.000000
0.286960 -0.344902 -0.304090 1.000000
0.286960 0.479459 -0.091528 1.000000
0.286960 0.472447 0.104050 1.000000
0.286960 -0.390917 0.256426 1.000000
0.286960 -0.397837 -0.226676 1.000000
0.286960 -0.483592 0.073216 1.000000
0.286960 -0.015381 0.459691 1.000000
0.286960 0.337301 0.349886 1.000000
0.286960 -0.009789 0.453878 1.000000
0.286960 0.484837 -0.022186 1.000000
0.286960 -0.479472 -0.134404 1.000000
0.286960 -0.129091 -0.433182 1.000000
0.286960 0.391810 -0.255964 1.000000
0.286960 -0.426247 0.239475 1.000000
0.286960 -0.409073 -0.245384 1.000000
0.286960 -0.420163 0.184857 1.000000
0.286960 0.245656 0.398831 1.000000
0.286960 -0.333554 -0.324381 1.000000
0.286960 -0.278743 -0.384736 1.000000
0.286960 0.114486 -0.432970 1.000000
0.286960 0.368145 -0.301934 1.000000
0.286960 0.386331 0.269787 1.000000
0.286960 0.153795 -0.436412 1.000000
0.286960 -0.030128 0.462575 1.000000
0.286960 0.455055 -0.191171 1.000000
0.286960 -0.435785 -0.132403 1.000000
0.286960 -0.434917 0.097274 1.000000
0.286960 0.211849 0.440106 1.000000
0.286960 0.443166 -0.055418 1.000000
0.286960 -0.364279 -0.323783 1.000000
0.286960 0.489250 -0.014456 1.000000
0.286960 0.302807 0.366659 1.000000
0.286960 0.372560 -0.302494 1.000000
0.286960 -0.219087 -0.438006 1.000000
0.286960 0.257132 0.368156 1.000000
0.286960 -0.224636 -0.400573 1.000000
0.286960 -0.219548 -0.415845 1.000000
0.286960 0.470887 0.134577 1.000000
0.286960 -0.250225 0.378119 1.000000
0.286960 0.314719 0.371569 1.000000
0.286960 0.219435 0.411378 1.000000
0.286960 -0.446776 -0.219169 1.000000
0.286960 -0.106445 -0.467954 1.000000
0.286960 -0.429395 0.150773 1.000000
0.286960 -0.422021 0.149389 1.000000
0.286960 -0.329881 -0.312632 1.000000
0.286960 -0.340345 -0.289812 1.000000
0.286960 -0.114286 0.467623 1.000000
0.286960 -0.383363 -0.319281 1.000000
0.286960 -0.218323 0.430297 1.000000
0.286960 0.048551 -0.449926 1.000000
0.286960 -0.175075 0.414256 1.000000
0.286960 -0.160069 -0.427470 1.000000
0.286960 0.481474 0.112888 1.000000
0.286960 -0.354358 0.313811 1.000000
0.286960 0.472733 0.142215 1.000000
0.286960 0.443819 -0.080900 1.000000
0.286960 0.359315 0.299276 1.000000
0.286960 0.470321 -0.148063 1.000000
0.286960 0.461645 0.042299 1.000000
0.286960 0.293308 -0.396008 1.000000
0.286960 -0.015172 0.484248 1.000000
0.286960 -0.401627 -0.234133 1.000000
0.286960 0.315630 0.337127 1.000000
0.286960 0.277745 -0.379781 1.000000
0.286960 -0.013849 0.471034 1.000000
0.286960 0.028624 -0.473358 1.000000
0.286960 -0.104525 -0.456880 1.000000
0.286960 -0.488828 0.037810 1.000000
0.286960 -0.268037 -0.363390 1.000000
0.286960 -0.063945 0.491445 1.000000
0.286960 -0.435248 -0.096872 1.000000
0.286960 -0.152837 -0.440487 1.000000
0.286960 -0.306567 0.377944 1.000000
0.286960 -0.261813 0.368288 1.000000
0.286960 -0.094057 0.471463 1.000000
0.286960 -0.259051 0.414838 1.000000
0.286960 -0.424858 -0.174151 1.000000
0.286960 0.182720 -0.442047 1.000000
0.286960 0.231551 -0.391048 1.000000
0.286960 0.160601 -0.437688 1.000000
0.286960 0.006051 -0.495979 1.000000
0.286960 0.217751 0.422798 1.000000
0.286960 -0.440009 0.120217 1.000000
0.286960 -0.244771 0.406831 1.000000
0.286960 0.371998 -0.323429 1.000000
0.286960 0.366477 0.300623 1.000000
0.286960 0.469467 0.111821 1.000000
0.286960 0.030874 0.478292 1.000000
0.286960 0.155018 0.463765 1.000000
0.286960 -0.278559 0.391835 1.000000
0.286960 0.316920 0.340864 1.000000
0.286960 -0.475878 0.073016 1.000000
0.286960 0.426768 -0.211325 1.000000
0.286960 -0.281654 0.368370 1.000000
0.286960 0.482922 -0.059113 1.000000
0.286960 -0.481451 0.118603 1.000000
0.286960 -0.307463 0.334118 1.000000
0.286960 0.335501 0.308731 1.000000
0.286960 -0.234825 0.417060 1.000000
0.286960 0.301325 0.331841 1.000000
0.286960 -0.089562 0.452253 1.000000
0.286960 0.410739 0.259893 1.000000
0.286960 -0.365316 0.269389 1.000000
0.286960 0.059730 0.482943 1.000000
0.286960 -0.076041 -0.477850 1.000000
0.286960 -0.048635 0.456727 1.000000
0.286960 -0.208256 0.440956 1.000000
0.286960 -0.449956 -0.140434 1.000000
0.286960 0.284640 0.371149 1.000000
0.286960 0.247513 -0.390996 1.000000
0.286960 0.159132 -0.454331 1.000000
0.286960 -0.210885 -0.441012 1.000000
0.286960 0.369843 0.247715 1.000000
0.286960 -0.133719 -0.447944 1.000000
0.286960 0.442297 0.139561 1.000000
0.286960 0.465802 0.126251 1.000000
0.286960 -0.483994 0.076339 1.000000
0.286960 -0.460392 0.117092 1.000000
0.286960 0.282926 -0.394096 1.000000
0.286960 0.468031 -0.161101 1.000000
0.286960 -0.266200 0.418110 1.000000
0.286960 0.425617 -0.159560 1.000000
0.286960 -0.435043 0.141043 1.000000
0.286960 0.493755 0.008926 1.000000
0.286960 -0.454075 -0.033220 1.000000
0.286960 -0.395139 -0.273052 1.000000
0.286960 0.486013 -0.103784 1.000000
0.286960 -0.431950 0.186162 1.000000
0.286960 0.451638 0.056952 1.000000
0.286960 0.349451 -0.301443 1.000000
0.286960 -0.243608 -0.401653 1.000000
0.286960 0.203666 0.437657 1.000000
0.286960 0.454453 -0.110940 1.000000
0.286960 0.148136 -0.455368 1.000000
0.286960 0.239367 0.381453 1.000000
0.286960 0.354945 0.325002 1.000000
0.286960 0.442865 -0.065012 1.000000
0.286960 0.452225 -0.001388 1.000000
0.286960 0.340185 -0.291323 1.000000
0.286960 0.471297 0.019892 1.000000
0.286960 0.320191 0.348339 1.000000
0.286960 -0.483298 -0.069824 1.000000
0.286960 0.016063 0.486002 1.000000
