-0.114771 0.339785 0.362353 2.000000
-0.134407 0.159409 -0.474096 2.000000
0.046159 -0.253344 0.426250 2.000000
0.066328 -0.296671 -0.401967 2.000000
0.181684 -0.497591 0.002541 2.000000
-0.152927 0.269414 -0.421315 2.000000
-0.269642 0.107382 -0.488536 2.000000
-0.124133 0.498292 -0.016869 2.000000
0.057060 0.223640 -0.447337 2.000000
-0.289305 -0.495246 0.044825 4.000000
0.054396 -0.476977 -0.143718 2.000000
0.104971 -0.496433 -0.034573 2.000000
-0.000616 0.497261 -0.039856 2.000000
-0.094317 0.287262 -0.409532 2.000000
0.151611 0.051492 -0.497616 2.000000
-0.028554 -0.444270 -0.226071 2.000000
-0.125312 0.269190 -0.421462 2.000000
0.263868 0.218785 0.445640 2.000000
-0.150025 -0.489022 -0.093890 2.000000
0.160469 -0.308996 -0.392238 2.000000
0.112223 0.494633 -0.064330 2.000000
0.142887 -0.484769 0.109435 2.000000
0.113803 -0.465042 0.174472 2.000000
0.027923 0.477998 -0.143484 2.000000
0.235960 0.479012 0.135706 2.000000
-0.256471 -0.455001 -0.203577 2.000000
-0.158707 -0.022609 0.495426 2.000000
-0.077761 0.153761 0.471665 2.000000
-0.032104 0.071125 0.490930 2.000000
-0.148926 -0.093373 0.486902 2.000000
0.071694 0.462543 -0.188216 2.000000
-0.199984 0.051350 0.493167 2.000000
-0.229336 -0.372123 -0.332556 2.000000
0.008714 -0.494388 -0.059009 2.000000
0.047072 -0.437894 -0.238630 2.000000
-0.122667 -0.388466 0.308690 2.000000
-0.147332 -0.333234 0.367570 2.000000
0.055936 -0.483044 -0.121739 2.000000
0.148662 -0.391268 -0.309651 2.000000
0.109955 0.226703 -0.445828 2.000000
-0.021656 -0.017133 -0.499824 2.000000
0.152902 0.445797 -0.225257 2.000000
0.030666 -0.014959 0.495563 2.000000
0.045583 -0.273767 -0.417985 2.000000
-0.038727 -0.138208 -0.480451 2.000000
-0.115082 0.081975 0.489062 2.000000
0.162843 0.096067 0.486636 2.000000
0.272091 -0.147890 -0.477497 2.000000
0.167717 -0.453593 0.202105 2.000000
0.214343 -0.475131 0.145167 2.000000
0.193975 0.446976 -0.223019 2.000000
0.059108 -0.175981 -0.467790 2.000000
-0.224517 0.325352 0.375425 2.000000
0.282600 -0.253805 -0.430309 1.000000
0.030637 0.385641 0.313643 2.000000
0.050813 -0.433070 0.243130 2.000000
0.100826 0.036634 0.494642 2.000000
0.156264 -0.493771 0.058470 2.000000
0.094417 -0.206546 -0.455036 2.000000
0.145896 0.268599 -0.421853 2.000000
-0.155920 -0.095235 -0.490956 2.000000
0.166941 -0.472703 0.153124 2.000000
0.098753 0.397138 0.298876 2.000000
-0.028259 0.436511 0.238477 2.000000
0.177152 0.372242 -0.333500 2.000000
-0.218506 -0.463445 -0.183324 2.000000
-0.131885 -0.313065 -0.388994 2.000000
0.166439 -0.140218 -0.479838 2.000000
0.187820 -0.344971 0.356418 2.000000
0.219470 -0.065946 -0.495832 2.000000
-0.214163 -0.188270 -0.463178 2.000000
-0.016059 -0.332108 -0.372731 2.000000
0.141972 0.300777 -0.399396 2.000000
-0.117408 0.486797 0.105048 2.000000
0.081371 0.214085 0.447759 2.000000
0.079844 0.006196 -0.500093 2.000000
0.030123 -0.465394 0.173534 2.000000
0.166635 -0.497255 -0.016117 2.000000
-0.130411 -0.425773 0.255171 2.000000
-0.261381 0.434432 -0.246844 2.000000
0.150902 -0.122701 -0.484701 2.000000
-0.019715 0.052407 -0.497542 2.000000
-0.148717 -0.279321 0.409744 2.000000
0.255506 0.495256 -0.058562 2.000000
-0.232500 -0.470778 0.159185 2.000000
0.095298 -0.035532 -0.498999 2.000000
0.059148 0.494306 -0.067358 2.000000
-0.135527 -0.169966 0.465748 2.000000
0.115938 -0.361067 -0.344595 2.000000
-0.240170 -0.268737 -0.421206 2.000000
0.009368 -0.467685 -0.171864 2.000000
0.037100 -0.399805 0.294252 2.000000
-0.116984 0.441775 0.228861 2.000000
0.271627 -0.464884 -0.179873 2.000000
0.000282 -0.481861 0.121671 2.000000
-0.153440 0.467554 -0.174863 2.000000
-0.167914 -0.430453 0.247494 2.000000
-0.277375 -0.004332 0.495755 2.000000
-0.213483 -0.238139 -0.439263 2.000000
0.118228 -0.485377 0.106877 2.000000
0.185732 0.122989 0.480523 2.000000
0.096661 -0.195385 -0.460044 2.000000
0.241038 -0.104496 0.484572 2.000000
0.131970 -0.250336 -0.432424 2.000000
0.091222 -0.489677 -0.090762 2.000000
0.235747 -0.490545 -0.085567 2.000000
-0.256104 -0.469491 0.162614 2.000000
0.049414 -0.181107 -0.465866 2.000000
0.053550 0.496198 0.045758 2.000000
-0.141783 -0.370699 -0.334215 2.000000
0.277366 -0.461893 0.182864 2.000000
0.031980 0.482254 0.123962 2.000000
0.283819 -0.422783 -0.264781 1.000000
0.005241 0.391255 -0.310832 2.000000
-0.244075 -0.342027 0.359284 2.000000
-0.192103 0.144734 -0.478927 2.000000
-0.144869 0.159747 0.469839 2.000000
-0.056159 -0.055777 0.492802 2.000000
0.097046 -0.333218 0.367583 2.000000
0.183654 -0.251119 -0.431947 2.000000
0.277373 -0.333398 -0.371563 1.000000
0.052536 0.100303 -0.490019 2.000000
-0.230232 0.279832 -0.414437 2.000000
-0.202619 0.150635 -0.477123 2.000000
-0.060843 0.339739 0.362395 2.000000
-0.066021 -0.377397 -0.326409 2.000000
0.116690 -0.440894 -0.232924 2.000000
-0.269123 0.370211 0.331624 2.000000
-0.187366 -0.394339 -0.305580 2.000000
0.263563 -0.484808 -0.114003 2.000000
-0.114019 0.258424 0.423765 2.000000
0.243749 -0.033409 0.494645 2.000000
-0.259092 0.117487 -0.486419 2.000000
0.227069 -0.438653 0.232526 2.000000
0.123290 0.491625 0.080836 2.000000
0.028879 -0.080429 -0.493505 2.000000
0.131369 -0.462922 -0.184578 2.000000
0.027671 0.496022 0.047941 2.000000
0.282656 -0.250135 0.428091 1.000000
0.053833 0.490409 -0.091436 2.000000
-0.266226 0.495726 0.051583 2.000000
-0.108089 -0.352039 -0.353867 2.000000
-0.232275 0.490088 0.089337 2.000000
0.264715 0.061994 -0.496404 2.000000
0.249376 0.351507 -0.355406 2.000000
-0.079097 -0.350831 -0.355109 2.000000
-0.121771 -0.430777 0.246962 2.000000
-0.149588 -0.336437 -0.368810 2.000000
-0.001759 -0.323524 0.375901 2.000000
0.286552 -0.488543 -0.096174 1.000000
-0.252223 -0.042701 -0.498344 2.000000
-0.270541 0.229739 -0.444332 2.000000
0.133880 -0.264007 0.419855 2.000000
0.229012 0.253976 0.426477 2.000000
0.255474 -0.305168 0.390958 2.000000
-0.185983 -0.050270 0.493279 2.000000
0.069220 0.498346 0.008085 2.000000
-0.289627 -0.330683 -0.374023 4.000000
-0.038948 -0.484553 0.110346 2.000000
-0.067400 -0.401834 0.291351 2.000000
0.182240 -0.345589 -0.360493 2.000000
0.251183 -0.475038 -0.150546 2.000000
-0.024667 0.496747 0.038990 2.000000
-0.140812 -0.476405 0.140993 2.000000
-0.177341 0.495186 -0.059216 2.000000
0.192510 0.463275 0.181836 2.000000
-0.136644 -0.084922 0.488585 2.000000
0.130687 -0.133779 0.477314 2.000000
0.086273 -0.280989 0.408644 2.000000
-0.272189 0.362686 0.339631 2.000000
-0.170997 -0.233953 0.437370 2.000000
0.237713 -0.423458 0.258969 2.000000
0.116413 0.096469 0.486567 2.000000
0.216057 -0.279032 0.409935 2.000000
-0.088716 -0.410262 0.279300 2.000000
0.101727 0.260180 -0.427271 2.000000
-0.261660 -0.076444 0.489812 2.000000
0.045489 -0.327151 -0.377221 2.000000
0.199972 0.418511 -0.273117 2.000000
0.263713 0.375652 -0.329735 2.000000
0.057204 -0.458956 0.190154 2.000000
0.255952 -0.087365 -0.492311 2.000000
-0.267776 -0.490284 0.081855 2.000000
-0.271074 0.449368 0.213453 2.000000
0.221187 0.023856 -0.499775 2.000000
-0.032506 0.046932 0.493644 2.000000
0.269599 -0.249075 -0.433193 2.000000
0.215788 -0.161978 0.468503 2.000000
0.034211 -0.471327 -0.161304 2.000000
-0.231000 0.245447 -0.435720 2.000000
-0.276786 0.421909 -0.267543 2.000000
-0.279197 -0.310328 -0.391176 4.000000
-0.092335 0.371756 -0.334037 2.000000
0.167054 0.422192 -0.267078 2.000000
0.137157 -0.477293 0.138080 2.000000
0.001270 0.005992 0.495941 2.000000
-0.137108 -0.024124 -0.499510 2.000000
-0.109907 -0.301348 0.393840 2.000000
0.115165 -0.286633 0.404917 2.000000
-0.253919 -0.359442 0.342148 2.000000
0.200483 -0.300790 -0.398782 2.000000
0.246850 0.308242 0.389303 2.000000
0.170875 -0.383614 -0.319165 2.000000
0.176759 0.473319 -0.158817 2.000000
-0.047290 -0.489078 -0.093619 2.000000
0.028109 -0.024226 -0.499506 2.000000
0.059967 -0.487703 0.096849 2.000000
-0.254194 0.258909 0.423469 2.000000
0.126970 -0.026404 -0.499408 2.000000
-0.042447 -0.007614 -0.500251 2.000000
0.274306 -0.492118 0.071205 2.000000
0.078437 0.420916 -0.269173 2.000000
-0.232275 0.256884 -0.429161 2.000000
-0.229657 -0.496339 0.033220 2.000000
0.080090 0.498129 -0.020498 2.000000
0.237968 0.415654 -0.277409 2.000000
0.260284 0.422345 -0.266828 2.000000
0.136009 -0.088054 0.488017 2.000000
0.089186 -0.493587 0.060172 2.000000
-0.117175 -0.269001 -0.421046 2.000000
0.079206 0.466272 -0.178279 2.000000
-0.105882 -0.156607 -0.474837 2.000000
0.017288 0.475925 -0.150276 2.000000
0.144851 -0.450937 -0.212543 2.000000
0.175165 0.376455 0.324348 2.000000
-0.004742 -0.382144 0.316619 2.000000
0.066467 -0.161616 0.468628 2.000000
-0.149533 -0.201693 -0.457213 2.000000
-0.104471 0.496344 -0.048493 2.000000
0.001423 -0.451204 0.207428 2.000000
-0.247904 -0.216667 -0.450494 2.000000
-0.057504 -0.423979 0.258114 2.000000
0.045395 0.096777 0.486514 2.000000
0.263408 0.012850 0.495709 2.000000
0.238961 -0.074312 -0.494558 2.000000
0.071258 -0.487828 0.096121 2.000000
0.000076 -0.221850 -0.447840 2.000000
-0.233516 0.456247 -0.202828 2.000000
0.071350 0.492102 0.077536 2.000000
-0.089312 -0.413347 -0.279075 2.000000
0.195569 0.309482 0.388315 2.000000
0.084880 -0.137822 0.476198 2.000000
-0.265984 -0.496955 -0.028125 2.000000
-0.197436 -0.401805 -0.295685 2.000000
0.084662 0.494832 -0.062483 2.000000
0.092402 0.118709 -0.486111 2.000000
0.280485 -0.078354 0.489536 2.000000
0.069553 -0.370391 0.330059 2.000000
0.141432 -0.364926 0.336092 2.000000
-0.080694 0.429383 -0.255283 2.000000
-0.133734 0.398954 0.296469 2.000000
0.254203 0.317037 0.382291 2.000000
0.042368 0.383585 -0.320451 2.000000
0.194324 -0.445939 0.218688 2.000000
0.006144 -0.489960 0.083737 2.000000
0.166611 -0.126985 -0.483683 2.000000
0.170199 -0.215420 0.446529 2.000000
-0.158553 -0.490933 -0.082891 2.000000
-0.093904 -0.303460 -0.396653 2.000000
-0.244384 0.483022 -0.125451 2.000000
-0.270037 0.483425 0.119720 2.000000
0.286793 -0.494898 -0.053509 1.000000
0.064886 -0.130053 -0.482940 2.000000
0.019430 -0.446977 0.216717 2.000000
0.043119 0.491604 0.080979 2.000000
0.204378 -0.275289 -0.416920 2.000000
-0.246331 0.363762 0.338526 2.000000
-0.003792 -0.239710 -0.438436 2.000000
0.200575 0.211040 -0.453546 2.000000
-0.069783 0.471092 0.160603 2.000000
0.188880 0.293737 -0.404708 2.000000
0.013015 0.344908 0.357713 2.000000
-0.167633 -0.493101 0.064669 2.000000
0.193294 0.451738 -0.212875 2.000000
-0.099862 -0.374662 -0.329597 2.000000
0.134787 -0.402944 -0.294176 2.000000
-0.006890 -0.323272 -0.380735 2.000000
0.203343 0.346572 -0.360211 2.000000
0.239868 -0.219340 0.444598 2.000000
-0.200701 -0.345730 0.355679 2.000000
0.250855 -0.359907 -0.345786 2.000000
-0.076861 -0.241685 0.432936 2.000000
0.169965 -0.050834 0.493233 2.000000
0.042414 -0.481693 -0.126634 2.000000
-0.120939 0.498227 0.014714 2.000000
-0.259446 -0.264286 -0.423920 2.000000
-0.069595 -0.485849 0.104893 2.000000
-0.122916 -0.220043 0.444251 2.000000
-0.230631 -0.485600 -0.110224 2.000000
0.216337 -0.353586 0.348031 2.000000
-0.063933 -0.115336 -0.486451 2.000000
-0.219180 -0.380589 0.318570 2.000000
-0.172129 0.080540 0.489309 2.000000
0.004513 -0.491032 -0.082205 2.000000
0.081245 -0.171155 0.465337 2.000000
0.102676 -0.452991 -0.208374 2.000000
0.265618 0.300533 0.395450 2.000000
-0.007901 0.384679 0.314764 2.000000
0.147628 -0.425821 -0.259684 2.000000
0.133417 0.470942 -0.165834 2.000000
-0.236500 -0.114911 -0.486552 2.000000
-0.052806 0.484119 -0.120836 2.000000
0.074314 -0.028518 -0.499313 2.000000
0.115966 -0.327949 -0.376498 2.000000
-0.198279 -0.447939 -0.218625 2.000000
-0.213176 -0.362976 -0.342634 2.000000
0.202679 0.491959 0.078528 2.000000
-0.065140 -0.382752 0.315856 2.000000
-0.018958 -0.450079 0.209935 2.000000
0.018918 -0.274857 -0.417223 2.000000
0.091947 0.045885 0.493757 2.000000
0.017764 -0.388191 0.309035 2.000000
-0.188254 0.088444 -0.492503 2.000000
0.156999 -0.195827 0.455447 2.000000
-0.065101 0.498303 -0.016629 2.000000
0.283510 -0.051186 -0.497427 1.000000
-0.041290 -0.075923 0.489887 2.000000
-0.013230 0.416699 -0.275915 2.000000
0.112513 -0.352679 0.348914 2.000000
-0.247686 -0.379367 0.320102 2.000000
0.245549 -0.453187 0.203009 2.000000
-0.006432 -0.414543 0.273180 2.000000
-0.075464 -0.166862 -0.471211 2.000000
-0.117362 0.496590 0.040923 2.000000
-0.266915 0.456994 0.196903 2.000000
-0.050329 0.485959 0.109047 2.000000
-0.169140 -0.383613 0.314777 2.000000
0.089009 0.498363 -0.015298 2.000000
-0.273982 0.497523 0.029414 2.000000
0.228801 -0.115878 0.482188 2.000000
-0.229038 0.382473 0.317334 2.000000
0.070244 0.086430 -0.492869 2.000000
-0.086094 -0.438313 0.233173 2.000000
0.186285 0.273468 -0.418638 2.000000
0.197846 -0.239641 0.434108 2.000000
0.005798 0.314149 -0.389178 2.000000
-0.194347 -0.119865 -0.485375 2.000000
0.257323 0.428217 -0.257196 2.000000
0.192378 -0.405536 0.286058 2.000000
0.132372 -0.336567 -0.368693 2.000000
0.271076 0.484568 0.115579 2.000000
0.163081 0.385058 0.314322 2.000000
0.099886 0.382975 -0.321216 2.000000
0.031542 0.259891 0.422870 2.000000
-0.234538 -0.342108 -0.363675 2.000000
0.140824 -0.387703 0.309647 2.000000
-0.215577 0.385791 -0.317684 2.000000
-0.010411 -0.496315 0.033750 2.000000
-0.097896 0.442160 0.228080 2.000000
0.070252 -0.351995 0.349580 2.000000
-0.063297 -0.225554 -0.445890 2.000000
-0.041276 -0.244005 0.431606 2.000000
0.224954 -0.395907 0.299359 2.000000
-0.016053 0.143809 0.474701 2.000000
-0.027468 0.488859 -0.100441 2.000000
-0.065982 -0.466739 0.169949 2.000000
0.242090 -0.362948 0.338277 2.000000
0.180738 -0.361139 -0.344521 2.000000
0.121132 -0.078923 -0.493765 2.000000
-0.148720 -0.181779 -0.465614 2.000000
-0.207109 -0.118960 -0.485590 2.000000
0.228770 0.340110 -0.366501 2.000000
0.183605 -0.463352 0.178975 2.000000
-0.246417 -0.484010 0.112629 2.000000
0.055250 0.376051 0.324819 2.000000
-0.117740 -0.336837 0.364337 2.000000
-0.151612 -0.440779 -0.233156 2.000000
-0.100944 0.273657 0.414425 2.000000
-0.105865 0.469216 -0.170434 2.000000
-0.157700 0.308239 0.389306 2.000000
-0.121291 0.368468 -0.337667 2.000000
0.212603 0.243598 -0.436780 2.000000
-0.053573 -0.479780 0.129930 2.000000
0.121499 -0.334005 0.366908 2.000000
-0.047154 -0.267346 -0.422055 2.000000
0.115427 -0.294992 0.398634 2.000000
0.034869 -0.356722 0.344978 2.000000
0.060930 0.284359 -0.411448 2.000000
0.106353 -0.035888 0.494444 2.000000
0.141188 0.480355 -0.135756 2.000000
0.274782 0.260482 0.422510 2.000000
-0.179468 0.073068 0.490595 2.000000
-0.212278 0.356409 -0.350634 2.000000
0.105985 0.203424 -0.457060 2.000000
-0.124449 0.426936 -0.259298 2.000000
-0.008653 0.415919 0.272378 2.000000
-0.197558 -0.217779 -0.449983 2.000000
-0.240739 -0.025244 0.495306 2.000000
-0.177626 0.496374 -0.048223 2.000000
-0.024613 0.291260 -0.406577 2.000000
0.054275 -0.292143 -0.405133 2.000000
0.188111 -0.212864 -0.452201 2.000000
0.221336 -0.120278 -0.485277 2.000000
0.175141 -0.261996 0.421182 2.000000
0.227882 0.472727 -0.160757 2.000000
0.231455 0.009322 0.495867 2.000000
0.033737 -0.123008 -0.484628 2.000000
-0.239670 0.312624 -0.390459 2.000000
0.273046 0.486730 0.105366 2.000000
0.146685 0.398822 0.296643 2.000000
0.010871 -0.495914 0.038635 2.000000
0.109921 0.459230 0.191539 2.000000
-0.205520 -0.414148 -0.277861 2.000000
-0.065474 -0.392240 -0.308364 2.000000
-0.181119 0.483879 0.118074 2.000000
-0.134111 -0.159736 0.469276 2.000000
0.118733 -0.347877 -0.358143 2.000000
-0.202756 -0.181113 -0.465864 2.000000
0.105031 -0.484235 -0.116740 2.000000
0.011453 -0.168994 -0.470411 2.000000
-0.152724 -0.276545 -0.416042 2.000000
-0.196940 0.104387 0.484944 2.000000
0.139151 0.412799 0.277104 2.000000
-0.186319 0.353051 -0.353903 2.000000
0.030501 -0.364319 0.336763 2.000000
-0.248419 0.314532 0.384288 2.000000
0.159442 0.257769 0.424164 2.000000
-0.129526 -0.287463 0.404314 2.000000
-0.212742 0.497196 0.033442 2.000000
-0.021892 -0.496394 0.031995 2.000000
0.001651 -0.439505 0.230907 2.000000
0.259084 0.228065 0.440754 2.000000
0.088417 0.479765 -0.137690 2.000000
-0.066009 -0.495137 -0.050566 2.000000
-0.127011 0.038944 0.494507 2.000000
0.137864 -0.380374 0.318838 2.000000
-0.174312 -0.497615 0.003859 2.000000
-0.283214 0.161993 -0.473205 4.000000
-0.279103 -0.182076 -0.465502 2.000000
-0.075324 0.486174 -0.112191 2.000000
0.027476 0.420523 -0.269817 2.000000
-0.101724 0.125109 0.480019 2.000000
0.106452 0.011187 0.495783 2.000000
-0.280813 -0.352376 0.349209 4.000000
0.070912 0.441952 0.228503 2.000000
0.070683 0.246205 0.431203 2.000000
-0.206921 0.415232 -0.278012 2.000000
0.246578 0.101728 -0.489720 2.000000
0.103757 0.120449 -0.485630 2.000000
-0.016623 -0.289350 -0.407087 2.000000
-0.067265 -0.287629 -0.408290 2.000000
-0.289468 0.497444 -0.035786 4.000000
0.095917 -0.415347 0.272029 2.000000
0.158263 0.076329 0.490034 2.000000
-0.085153 0.455416 -0.204680 2.000000
0.125085 -0.379538 -0.323914 2.000000
0.088841 -0.357287 -0.348477 2.000000
-0.103908 -0.278046 -0.414992 2.000000
0.222169 0.414161 -0.279544 2.000000
-0.287634 -0.322707 -0.381246 4.000000
0.054435 0.389720 -0.312757 2.000000
0.044317 -0.485974 0.104364 2.000000
-0.290091 -0.434689 0.240055 4.000000
0.246476 -0.397948 -0.300798 2.000000
-0.064090 0.407816 0.284651 2.000000
0.262417 -0.227433 -0.444900 2.000000
0.180889 0.481716 0.125912 2.000000
0.236280 0.353612 0.348952 2.000000
-0.017543 0.224523 0.442618 2.000000
-0.052624 0.358346 0.344089 2.000000
0.088610 0.252687 -0.431568 2.000000
0.221927 0.420172 0.265935 2.000000
-0.132615 -0.256901 -0.428422 2.000000
0.148971 0.140968 -0.479966 2.000000
-0.172620 0.430478 0.248996 2.000000
-0.183769 -0.357346 -0.348417 2.000000
0.029176 -0.496895 0.020812 2.000000
0.058785 -0.066893 0.491194 2.000000
0.159824 -0.489118 -0.093429 2.000000
0.059686 -0.365847 -0.339685 2.000000
0.209551 0.388250 0.310602 2.000000
-0.184918 0.034494 0.494738 2.000000
-0.187658 -0.416121 0.270923 2.000000
0.198467 0.385016 0.314371 2.000000
0.129589 -0.362318 0.338972 2.000000
0.199886 -0.468167 -0.170464 2.000000
0.098102 0.406016 0.287108 2.000000
-0.208704 0.097535 0.486383 2.000000
-0.263352 0.216127 -0.451039 2.000000
0.101974 -0.488688 -0.095483 2.000000
-0.286196 0.479771 -0.137671 4.000000
-0.005217 -0.267614 -0.421891 2.000000
0.034695 0.491369 -0.085857 2.000000
-0.185176 -0.277417 0.411001 2.000000
0.204167 0.462048 -0.189537 2.000000
-0.210946 0.329238 0.371906 2.000000
0.171684 -0.445936 0.218694 2.000000
0.185889 0.498647 -0.008606 2.000000
-0.289466 0.191724 -0.461938 4.000000
0.116035 0.416961 -0.275540 2.000000
0.148495 -0.022314 -0.499592 2.000000
0.038087 0.471773 -0.163620 2.000000
-0.007769 -0.255609 0.424951 2.000000
-0.069977 0.487091 0.103645 2.000000
-0.175383 -0.235787 -0.440502 2.000000
0.244903 0.261923 0.421632 2.000000
0.195140 -0.425213 0.256090 2.000000
0.042185 0.472359 0.156932 2.000000
0.271723 0.202201 -0.457570 2.000000
0.286932 -0.379859 -0.323540 1.000000
0.151358 -0.082840 0.488887 2.000000
0.272608 0.405026 -0.292606 2.000000
-0.072864 0.180306 -0.466699 2.000000
0.001212 -0.005745 0.495729 2.000000
0.221492 0.261543 -0.426490 2.000000
0.217647 0.435059 -0.245651 2.000000
-0.219505 0.206383 0.451215 2.000000
-0.120960 -0.477537 -0.141692 2.000000
0.163392 0.497989 0.023661 2.000000
-0.064446 -0.409722 0.280072 2.000000
0.023045 -0.484435 -0.115782 2.000000
-0.004183 -0.497388 0.009832 2.000000
-0.151425 -0.476836 0.139578 2.000000
-0.218136 -0.489731 0.085070 2.000000
0.105843 0.375399 -0.330014 2.000000
-0.152823 -0.433916 -0.245567 2.000000
-0.270125 -0.487916 -0.099170 2.000000
0.080123 0.407986 -0.288374 2.000000
0.108825 0.496053 0.047551 2.000000
0.197830 -0.314556 -0.387805 2.000000
0.122302 0.493325 0.069084 2.000000
0.042008 0.402222 0.292136 2.000000
-0.256575 -0.389981 -0.311357 2.000000
0.149723 -0.118357 0.481572 2.000000
0.126718 -0.158584 0.469674 2.000000
0.167018 0.123259 0.480459 2.000000
-0.165651 -0.002291 0.495792 2.000000
0.034818 0.129575 0.478958 2.000000
-0.013021 0.015540 -0.499925 2.000000
-0.044822 -0.477070 0.138812 2.000000
-0.089861 -0.473941 -0.153728 2.000000
0.033448 -0.354824 -0.351007 2.000000
0.003604 -0.323618 -0.380421 2.000000
0.286932 0.326455 0.374427 1.000000
0.132156 0.474671 -0.154388 2.000000
-0.256087 -0.481221 0.124366 2.000000
0.053791 0.220197 0.444896 2.000000
-0.015293 -0.383133 -0.319724 2.000000
0.001767 -0.384221 -0.318456 2.000000
0.191038 -0.053947 0.492981 2.000000
-0.155133 -0.485610 0.105895 2.000000
0.155051 0.444348 0.223639 2.000000
-0.078896 0.466732 0.173243 2.000000
0.143886 0.498208 -0.018746 2.000000
0.030126 0.010918 -0.500008 2.000000
0.160600 -0.039837 -0.498654 2.000000
-0.164018 -0.497532 -0.000783 2.000000
0.144524 0.497218 0.033172 2.000000
0.066425 -0.492835 0.067037 2.000000
-0.036626 -0.366698 0.334137 2.000000
0.247684 0.242864 -0.437201 2.000000
-0.157842 0.473999 -0.156588 2.000000
-0.013125 -0.389789 -0.311612 2.000000
0.001052 -0.444758 -0.225081 2.000000
0.049512 -0.494320 0.053385 2.000000
-0.247134 -0.174685 -0.468276 2.000000
0.064263 0.466647 0.173490 2.000000
0.151349 -0.387596 0.309782 2.000000
0.148233 -0.089814 -0.491890 2.000000
0.087812 0.482770 -0.126512 2.000000
0.210516 -0.424556 -0.261890 2.000000
0.285036 0.498595 -0.005699 1.000000
-0.106561 0.110562 0.483476 2.000000
-0.056456 -0.434549 0.240321 2.000000
-0.143874 -0.392187 0.304025 2.000000
0.245279 0.035982 -0.498873 2.000000
-0.254780 0.285616 0.406061 2.000000
0.149656 0.479339 0.134523 2.000000
-0.026998 -0.482216 -0.124739 2.000000
-0.262706 -0.296959 -0.401765 2.000000
0.219565 0.089250 0.487810 2.000000
0.161564 -0.285479 0.405679 2.000000
0.002559 -0.114344 -0.486687 2.000000
-0.121915 0.463997 0.180105 2.000000
0.159269 0.488203 0.098335 2.000000
-0.118656 0.498611 -0.006625 2.000000
0.200063 -0.487932 -0.099093 2.000000
0.164826 -0.142078 0.475023 2.000000
0.281768 0.380662 0.319445 1.000000
0.280143 -0.385306 -0.317192 1.000000
-0.253735 -0.496781 -0.030268 2.000000
0.276282 -0.486950 0.100259 2.000000
0.213185 0.477330 -0.145673 2.000000
-0.164228 -0.497240 -0.016973 2.000000
0.246213 -0.293880 -0.403918 2.000000
0.240151 -0.373357 -0.331117 2.000000
0.184110 0.455749 -0.203938 2.000000
-0.276998 -0.013638 -0.499981 2.000000
0.005120 -0.494501 0.051717 2.000000
0.236502 0.400589 -0.298950 2.000000
-0.224431 -0.116441 0.482070 2.000000
0.098902 0.283769 0.407353 2.000000
-0.287062 -0.361930 0.339400 4.000000
0.068978 0.496915 -0.043216 2.000000
0.272124 -0.339281 0.361958 2.000000
-0.201838 -0.497129 -0.023125 2.000000
-0.024527 -0.376613 -0.327324 2.000000
-0.135784 0.013613 0.495674 2.000000
-0.260107 -0.484241 -0.116712 2.000000
0.108161 -0.415414 0.271933 2.000000
-0.128586 -0.489691 0.085298 2.000000
-0.209367 0.111430 0.483270 2.000000
-0.204708 -0.443836 0.222684 2.000000
-0.160381 -0.330830 -0.373889 2.000000
-0.274835 0.265018 -0.424217 2.000000
-0.066479 0.496897 -0.043375 2.000000
0.173182 -0.497401 -0.008014 2.000000
0.178271 -0.024855 0.495338 2.000000
0.205649 -0.273124 0.413835 2.000000
-0.071317 0.117364 0.481860 2.000000
-0.013023 -0.247953 -0.433877 2.000000
0.040422 -0.488884 -0.094546 2.000000
-0.036255 0.142188 0.475196 2.000000
-0.177062 0.114783 0.482473 2.000000
0.006320 0.498165 -0.019696 2.000000
-0.159757 0.368419 -0.337721 2.000000
-0.035017 -0.172659 0.464819 2.000000
0.059370 -0.497602 0.003121 2.000000
0.207327 -0.199676 0.453842 2.000000
-0.117644 -0.496393 -0.035058 2.000000
0.245218 0.477689 -0.144495 2.000000
-0.009349 0.281152 -0.413565 2.000000
-0.215941 0.481558 -0.131611 2.000000
0.104735 0.388931 0.309754 2.000000
0.032252 -0.303893 -0.396308 2.000000
-0.238388 0.277415 0.411797 2.000000
-0.265665 0.083252 0.488842 2.000000
0.178458 0.497354 0.031495 2.000000
-0.168098 -0.333002 0.367768 2.000000
-0.159948 -0.276090 0.411877 2.000000
-0.189342 -0.493409 -0.065774 2.000000
0.282768 -0.481667 0.122490 1.000000
0.174157 0.082077 0.489045 2.000000
-0.096614 -0.380627 0.318521 2.000000
0.267242 -0.350034 -0.355928 2.000000
-0.190630 -0.373234 -0.331261 2.000000
0.209018 0.422577 0.262292 2.000000
0.234259 -0.344933 -0.361115 2.000000
0.176238 -0.204284 -0.456051 2.000000
-0.074761 0.424352 -0.263536 2.000000
-0.182905 0.480272 0.131143 2.000000
-0.241654 -0.142327 0.474955 2.000000
-0.109397 0.184288 -0.465038 2.000000
0.227400 -0.164137 -0.472234 2.000000
-0.076855 -0.413371 -0.279038 2.000000
-0.079176 -0.403640 0.288768 2.000000
-0.287756 -0.442825 0.224602 4.000000
0.007974 0.290237 0.402830 2.000000
0.268840 0.498556 -0.003530 2.000000
0.200148 0.481481 0.126761 2.000000
0.181461 -0.035432 0.494481 2.000000
-0.175607 -0.284353 0.406423 2.000000
-0.217122 0.188632 -0.463227 2.000000
-0.052928 -0.204012 -0.456173 2.000000
-0.027846 0.060400 -0.496635 2.000000
0.256645 0.477302 -0.145762 2.000000
0.285081 0.497510 0.029572 1.000000
-0.209174 0.320414 0.379598 2.000000
-0.080965 -0.364980 0.336033 2.000000
0.002626 0.418749 0.268090 2.000000
0.274690 0.456435 -0.202408 2.000000
0.160158 0.247843 0.430216 2.000000
0.127275 -0.485485 -0.110771 2.000000
-0.102130 0.494112 0.063644 2.000000
-0.129890 -0.441595 0.226938 2.000000
0.210113 0.380302 0.319865 2.000000
0.043055 -0.464068 0.177068 2.000000
0.169034 0.490050 -0.093522 2.000000
0.178268 -0.140936 -0.479619 2.000000
-0.098641 -0.111426 0.483120 2.000000
0.161553 -0.071304 0.490556 2.000000
-0.280657 -0.486945 -0.103803 4.000000
-0.100006 -0.239671 -0.438457 2.000000
-0.174599 0.463527 0.181233 2.000000
0.269094 0.246825 -0.434929 2.000000
0.016849 -0.325785 -0.378458 2.000000
-0.224095 0.303006 0.393478 2.000000
-0.131116 -0.394576 0.301028 2.000000
0.077536 0.347367 -0.359436 2.000000
0.004969 -0.398901 -0.299534 2.000000
-0.081721 0.216258 -0.450975 2.000000
-0.170477 0.411230 0.279480 2.000000
-0.166307 0.461826 -0.190128 2.000000
-0.091003 0.498477 -0.012735 2.000000
0.047281 -0.444955 0.220558 2.000000
-0.277263 0.332876 -0.373109 2.000000
0.109058 -0.391385 -0.309496 2.000000
-0.289327 0.201729 -0.457767 4.000000
0.182717 0.400476 0.294451 2.000000
-0.062721 -0.496001 -0.039896 2.000000
-0.226816 -0.454143 -0.205635 2.000000
0.037106 0.498538 -0.002527 2.000000
0.041009 0.493024 -0.076249 2.000000
0.103102 -0.487248 0.099002 2.000000
-0.250717 0.136553 0.476915 2.000000
0.137504 -0.426853 0.253400 2.000000
-0.042954 -0.091769 0.487238 2.000000
-0.080032 0.261240 -0.426664 2.000000
-0.260626 -0.282814 -0.411658 2.000000
0.103990 -0.449974 0.210169 2.000000
-0.085022 0.467531 -0.174923 2.000000
-0.051359 0.313697 0.384954 2.000000
0.167008 -0.226659 0.440991 2.000000
0.198781 0.331972 0.369430 2.000000
-0.092489 -0.434284 0.240824 2.000000
-0.085177 0.325419 -0.379508 2.000000
0.285820 0.427882 -0.257745 1.000000
-0.276007 0.375934 -0.329424 2.000000
0.247888 0.452358 -0.211493 2.000000
-0.255340 0.393856 -0.307570 2.000000
-0.273796 -0.497482 -0.003547 2.000000
-0.273681 -0.135642 -0.481234 2.000000
-0.167674 0.221241 0.444346 2.000000
0.169377 0.024143 -0.499770 2.000000
0.049700 0.497582 0.028683 2.000000
-0.051527 0.494506 -0.065507 2.000000
0.147227 -0.284242 -0.410659 2.000000
0.132733 -0.447690 -0.219131 2.000000
-0.089060 0.004465 0.495913 2.000000
0.146327 -0.105118 0.484442 2.000000
0.186823 0.373271 0.328059 2.000000
0.019394 0.112241 0.483077 2.000000
0.255301 -0.434741 -0.244129 2.000000
-0.026831 -0.497377 0.010063 2.000000
0.053995 0.449773 0.212629 2.000000
-0.103611 0.485185 0.112743 2.000000
0.235755 -0.187358 -0.463520 2.000000
-0.289782 -0.051259 -0.497419 4.000000
0.113822 -0.010019 0.495652 2.000000
-0.052335 -0.473750 0.149694 2.000000
0.090179 0.401959 0.292485 2.000000
0.052123 0.305359 -0.395940 2.000000
-0.279551 -0.496638 -0.032040 4.000000
0.222175 -0.418087 0.267778 2.000000
0.208852 -0.484782 -0.114127 2.000000
-0.071869 0.493425 -0.073916 2.000000
0.175055 0.491839 0.079354 2.000000
-0.143113 0.324762 0.375960 2.000000
-0.186998 -0.178176 -0.466966 2.000000
0.178935 0.437493 0.236763 2.000000
-0.152423 0.488092 0.098865 2.000000
-0.213472 0.498351 0.007850 2.000000
0.247893 -0.041602 -0.498463 2.000000
-0.024061 -0.436341 0.236918 2.000000
0.226404 0.369680 -0.336329 2.000000
0.026805 -0.442670 0.224897 2.000000
-0.144306 -0.450501 -0.213425 2.000000
-0.128248 0.411274 0.279413 2.000000
0.252007 -0.246224 0.430333 2.000000
0.254114 0.047914 -0.497906 2.000000
0.031223 0.223831 -0.447243 2.000000
-0.168771 -0.320455 -0.383102 2.000000
0.098897 0.453526 -0.208891 2.000000
-0.230291 0.178940 0.462710 2.000000
0.152340 0.225579 0.442063 2.000000
-0.289830 -0.117552 0.481794 4.000000
-0.213613 -0.478442 -0.138411 2.000000
-0.242406 0.278370 -0.415402 2.000000
0.088638 -0.105774 -0.488724 2.000000
0.172209 0.392567 0.304935 2.000000
-0.249759 -0.115404 -0.486435 2.000000
-0.039181 -0.497476 0.007855 2.000000
0.237330 0.171350 -0.469977 2.000000
0.165894 0.442303 -0.231894 2.000000
-0.252432 0.079514 -0.493869 2.000000
0.273013 -0.423194 0.259401 2.000000
-0.251214 -0.183357 0.460646 2.000000
-0.152230 0.498385 0.005952 2.000000
0.005152 -0.470214 0.160688 2.000000
0.282418 -0.114017 0.482578 1.000000
-0.026622 0.339665 0.362461 2.000000
-0.009633 -0.043034 0.493865 2.000000
0.041096 0.106549 0.484430 2.000000
0.285633 0.161437 0.469278 1.000000
-0.199255 0.451326 0.209478 2.000000
-0.038400 0.237667 0.435698 2.000000
-0.008335 0.173189 -0.469342 2.000000
0.007468 -0.346137 -0.359930 2.000000
-0.143770 0.025010 0.495163 2.000000
-0.216082 -0.468032 0.166504 2.000000
0.224075 0.498129 0.020133 2.000000
-0.273075 -0.422858 -0.264668 2.000000
-0.200299 -0.287038 0.404635 2.000000
-0.102762 -0.374173 0.325883 2.000000
-0.171628 0.491576 -0.084656 2.000000
0.188143 -0.154128 0.471211 2.000000
0.241526 -0.435995 -0.241941 2.000000
-0.174287 0.120030 -0.485746 2.000000
-0.228588 0.158070 -0.474558 2.000000
0.044798 -0.455239 -0.203006 2.000000
0.121229 0.444186 0.223969 2.000000
0.274186 0.369662 -0.336349 2.000000
0.128647 0.408714 -0.287333 2.000000
0.272756 0.433458 0.243800 2.000000
0.253855 -0.484713 0.109672 2.000000
-0.231222 -0.460905 0.185498 2.000000
0.267917 0.212774 -0.452691 2.000000
-0.155285 -0.001733 -0.500236 2.000000
-0.047090 0.498172 0.017794 2.000000
-0.045028 0.219964 0.445019 2.000000
0.087050 0.008054 0.495924 2.000000
-0.139510 -0.355226 -0.350595 2.000000
0.224722 0.459661 -0.195220 2.000000
0.006831 -0.207650 0.450358 2.000000
-0.112779 -0.496322 0.033589 2.000000
-0.123529 0.450917 0.210308 2.000000
-0.060519 0.455655 0.200114 2.000000
-0.047133 0.386106 -0.317289 2.000000
0.272841 0.168038 0.466801 2.000000
-0.163075 0.478002 0.139364 2.000000
0.266591 -0.469591 -0.166338 2.000000
-0.121961 0.228988 0.440268 2.000000
0.057993 -0.350322 0.351209 2.000000
0.131497 -0.453135 -0.208054 2.000000
-0.234270 -0.490299 -0.087272 2.000000
-0.017345 -0.056532 0.492693 2.000000
-0.110153 0.136279 -0.481261 2.000000
0.081151 -0.162478 -0.472856 2.000000
-0.200636 -0.420679 -0.267968 2.000000
-0.050844 0.406753 0.286132 2.000000
0.085349 -0.442739 0.224766 2.000000
0.271983 0.497943 -0.024645 2.000000
0.090517 0.362244 -0.344539 2.000000
-0.120614 -0.495110 -0.050903 2.000000
-0.127368 -0.486589 0.101778 2.000000
0.268770 -0.487009 -0.103495 2.000000
-0.059931 0.474896 0.149576 2.000000
0.208516 -0.283592 -0.411113 2.000000
0.093039 0.218363 -0.449937 2.000000
-0.015751 -0.493066 -0.068145 2.000000
0.285113 0.075743 0.490135 1.000000
0.266202 0.090197 0.487647 2.000000
-0.273485 -0.398494 -0.300074 2.000000
-0.148001 0.248663 0.429716 2.000000
0.118929 0.235294 -0.441542 2.000000
-0.233802 -0.298108 -0.400921 2.000000
0.244311 -0.280324 -0.413399 2.000000
0.069338 -0.060913 0.492059 2.000000
0.154833 0.194756 -0.460674 2.000000
0.075580 -0.380884 -0.322345 2.000000
-0.019054 -0.495435 0.043069 2.000000
-0.080449 -0.204825 0.451696 2.000000
0.120102 0.273727 0.414376 2.000000
0.036918 -0.495442 0.043008 2.000000
0.021284 0.327833 0.373178 2.000000
0.179141 0.385908 0.313332 2.000000
0.148292 -0.439595 -0.235560 2.000000
0.006672 0.181014 0.461932 2.000000
0.217743 -0.404467 -0.292156 2.000000
0.144572 -0.221493 -0.448028 2.000000
-0.222882 -0.443207 -0.228228 2.000000
0.040057 -0.431334 -0.250071 2.000000
0.245176 0.495037 -0.060590 2.000000
0.019660 0.262364 0.421363 2.000000
-0.042878 0.321524 -0.382850 2.000000
-0.122974 0.028188 0.495021 2.000000
0.242916 -0.195024 -0.460207 2.000000
-0.172889 0.379412 0.320902 2.000000
0.216655 0.495351 -0.057690 2.000000
-0.148446 -0.304825 0.391216 2.000000
0.013080 0.467134 -0.175981 2.000000
0.169000 -0.162288 -0.472928 2.000000
-0.067113 0.071904 -0.494970 2.000000
-0.276218 0.417710 0.269665 2.000000
0.254738 -0.310493 -0.391045 2.000000
0.147064 -0.493799 -0.063078 2.000000
-0.167069 -0.165608 0.467251 2.000000
-0.227961 0.477697 -0.144470 2.000000
-0.125328 -0.077573 0.489649 2.000000
-0.160352 -0.495542 0.042077 2.000000
-0.014042 0.346992 0.355752 2.000000
-0.182554 0.051536 0.493147 2.000000
-0.143466 -0.003223 -0.500263 2.000000
0.152138 0.299954 -0.400018 2.000000
-0.250766 -0.430706 -0.251164 2.000000
-0.099826 0.401229 0.293453 2.000000
-0.015837 0.473326 0.154126 2.000000
0.063774 -0.231492 -0.442763 2.000000
0.244408 0.068814 -0.495417 2.000000
0.148265 -0.322336 0.376921 2.000000
0.164771 -0.173938 0.464377 2.000000
-0.096458 -0.445742 0.219063 2.000000
-0.261526 -0.449711 0.210756 2.000000
0.077605 0.206014 -0.455981 2.000000
-0.139302 0.392903 0.304489 2.000000
0.011996 -0.115288 0.482311 2.000000
0.101177 -0.278288 0.410426 2.000000
0.024314 -0.488123 -0.098182 2.000000
-0.014857 0.050259 0.493285 2.000000
-0.055192 0.414866 0.273971 2.000000
-0.040059 0.005787 -0.500101 2.000000
-0.285837 0.426035 -0.260776 4.000000
0.196881 -0.385657 0.312213 2.000000
-0.266527 -0.128202 0.478854 2.000000
0.241585 0.408654 0.283382 2.000000
0.256808 -0.098811 0.485763 2.000000
-0.024395 0.391047 0.306949 2.000000
-0.113204 0.054648 -0.497360 2.000000
-0.086562 -0.489170 -0.093181 2.000000
0.204728 -0.019882 0.495475 2.000000
-0.276210 -0.186420 0.459369 2.000000
-0.063162 -0.320633 0.378382 2.000000
-0.018099 0.495807 0.050590 2.000000
-0.108211 0.054487 0.492828 2.000000
0.227373 0.492882 -0.077071 2.000000
-0.024056 -0.464577 0.175711 2.000000
0.002485 0.480767 0.129349 2.000000
-0.289050 -0.304152 0.391724 4.000000
0.223932 -0.046974 -0.497882 2.000000
-0.211008 -0.022321 -0.499591 2.000000
-0.067294 -0.236142 0.436114 2.000000
0.223948 -0.484507 0.110538 2.000000
0.101703 -0.465893 -0.177058 2.000000
0.087442 -0.391837 -0.308898 2.000000
-0.196562 0.408058 -0.288270 2.000000
0.215154 0.105962 -0.488833 2.000000
0.154782 0.497612 -0.032030 2.000000
-0.110373 0.398044 0.297675 2.000000
-0.263556 0.311848 -0.391044 2.000000
-0.091306 0.437931 0.236000 2.000000
-0.240200 -0.215481 0.446499 2.000000
0.162622 -0.379217 -0.324288 2.000000
0.085586 -0.403853 0.288464 2.000000
-0.028473 -0.098569 0.485814 2.000000
-0.034063 0.271885 -0.419684 2.000000
-0.227880 0.032239 0.494839 2.000000
0.118134 -0.493863 -0.062637 2.000000
0.080212 -0.181514 0.461414 2.000000
0.172013 0.005436 -0.500107 2.000000
0.134256 0.399301 0.296009 2.000000
0.267915 -0.107075 -0.488415 2.000000
-0.168447 -0.470144 0.160876 2.000000
-0.067858 -0.364226 0.336866 2.000000
0.227971 0.035225 -0.498934 2.000000
0.196785 -0.468728 0.164649 2.000000
-0.020782 -0.370622 0.329804 2.000000
-0.213138 0.397195 0.298801 2.000000
0.192643 0.464289 -0.183562 2.000000
-0.289571 -0.480136 0.128762 4.000000
-0.265148 -0.058556 -0.496631 2.000000
-0.135230 0.492228 0.076666 2.000000
-0.221855 -0.448075 0.214401 2.000000
0.222653 -0.016934 -0.499833 2.000000
0.198754 0.212027 0.448683 2.000000
0.096722 0.358204 0.344234 2.000000
-0.127919 -0.328589 0.371555 2.000000
-0.256220 -0.125013 -0.484152 2.000000
-0.163570 -0.288034 0.403884 2.000000
-0.151592 0.231327 0.439036 2.000000
0.046563 0.048534 0.493471 2.000000
-0.232709 -0.132226 0.477743 2.000000
0.165384 0.302538 -0.398068 2.000000
-0.073942 0.318188 -0.385713 2.000000
0.201327 -0.376899 -0.326989 2.000000
0.147343 0.186525 0.459864 2.000000
-0.175085 0.498227 0.014735 2.000000
0.228106 -0.411499 0.277532 2.000000
-0.190091 0.471989 0.158004 2.000000
0.046467 0.014150 -0.499950 2.000000
0.249429 -0.442178 0.225832 2.000000
-0.015798 -0.298064 0.396317 2.000000
-0.205860 0.435111 0.240917 2.000000
0.141200 0.353619 0.348944 2.000000
-0.244365 0.102973 0.485280 2.000000
-0.217217 -0.456458 -0.200084 2.000000
-0.088128 0.460029 -0.194399 2.000000
-0.156209 -0.257484 -0.428067 2.000000
0.056790 -0.468212 0.166024 2.000000
-0.013235 -0.486493 -0.105960 2.000000
-0.110547 -0.491440 0.075143 2.000000
0.284158 0.268228 0.417788 1.000000
-0.050624 -0.429185 0.249573 2.000000
-0.121619 0.119217 -0.485970 2.000000
0.258783 -0.009664 -0.500159 2.000000
-0.174465 0.402571 0.291674 2.000000
0.106474 0.470710 -0.166452 2.000000
-0.195979 -0.366618 -0.338893 2.000000
-0.000945 0.446623 0.219023 2.000000
-0.055280 -0.378107 0.321539 2.000000
0.081613 0.484811 -0.117923 2.000000
0.243731 0.344041 -0.362675 2.000000
0.276852 0.156698 -0.475031 1.000000
0.283945 -0.496173 0.036240 1.000000
0.114048 0.018276 0.495465 2.000000
-0.001467 0.005493 -0.500106 2.000000
0.092456 -0.184911 -0.464439 2.000000
-0.105677 -0.061181 -0.496347 2.000000
-0.246202 0.085971 0.488374 2.000000
-0.209958 -0.384525 0.313632 2.000000
-0.010412 -0.467770 -0.171618 2.000000
0.040782 -0.477714 -0.141051 2.000000
0.246240 0.485070 0.113290 2.000000
0.014555 -0.459921 -0.191776 2.000000
0.083490 0.493445 -0.073803 2.000000
-0.249570 -0.221545 0.443511 2.000000
-0.270878 0.486657 -0.110156 2.000000
0.090430 -0.218459 -0.449625 2.000000
-0.258421 0.424018 -0.264084 2.000000
0.167826 -0.270967 0.415260 2.000000
0.064258 -0.030814 0.494855 2.000000
-0.054311 0.488983 -0.099717 2.000000
-0.115238 0.331385 0.369962 2.000000
-0.242743 0.439797 0.232746 2.000000
0.269984 -0.484371 0.111108 2.000000
0.235557 0.350175 -0.356703 2.000000
-0.026514 -0.459206 0.189597 2.000000
0.202792 -0.076279 -0.494220 2.000000
0.126091 -0.006186 -0.500315 2.000000
-0.132619 -0.372565 0.327659 2.000000
-0.197226 -0.494653 -0.056538 2.000000
-0.131495 0.363343 -0.343325 2.000000
-0.014278 0.498306 -0.016557 2.000000
0.127809 0.395302 -0.305756 2.000000
0.029275 -0.059015 -0.496581 2.000000
-0.230293 -0.489634 0.085629 2.000000
0.041202 -0.183648 0.460525 2.000000
0.184784 -0.389779 0.307044 2.000000
-0.082385 0.229181 0.440166 2.000000
0.052381 0.342472 -0.364203 2.000000
-0.219099 -0.497566 0.001132 2.000000
0.102726 -0.403344 -0.293644 2.000000
0.003673 0.052847 -0.497506 2.000000
-0.003906 0.163979 -0.472519 2.000000
-0.224388 0.399002 0.296405 2.000000
0.112503 -0.174201 -0.468457 2.000000
0.191261 -0.496230 0.035653 2.000000
0.102548 0.473993 -0.156608 2.000000
-0.005065 0.254861 0.425937 2.000000
0.020746 -0.470397 -0.164000 2.000000
-0.245419 -0.238281 0.434888 2.000000
0.236551 0.104531 0.484909 2.000000
0.149801 -0.277026 0.411259 2.000000
0.267050 -0.490316 0.081668 2.000000
0.012488 0.497565 -0.033070 2.000000
0.231715 0.489235 -0.098253 2.000000
-0.208901 -0.341066 -0.364618 2.000000
-0.169510 0.345792 -0.360970 2.000000
-0.072736 0.467437 -0.175175 2.000000
-0.105675 -0.479956 -0.132927 2.000000
-0.151233 0.364032 0.338248 2.000000
-0.191823 -0.190162 0.457809 2.000000
-0.067913 -0.273406 -0.418237 2.000000
0.006757 -0.419256 -0.270123 2.000000
-0.072339 0.416450 0.271572 2.000000
0.007625 -0.182955 0.460813 2.000000
-0.212208 0.014615 0.495629 2.000000
0.152777 0.456251 -0.202819 2.000000
-0.262336 0.291989 -0.406027 2.000000
-0.030400 -0.280895 -0.413000 2.000000
-0.068377 -0.174961 -0.468172 2.000000
0.129625 -0.496236 0.035508 2.000000
-0.091528 -0.316166 0.382215 2.000000
-0.269402 -0.458793 0.190516 2.000000
0.056579 0.492841 0.072430 2.000000
0.086606 -0.002804 -0.500255 2.000000
0.235223 -0.496319 0.033667 2.000000
-0.257567 -0.154582 0.471054 2.000000
-0.203035 -0.329048 0.371161 2.000000
-0.066216 -0.453677 -0.206753 2.000000
0.065774 0.054635 -0.497361 2.000000
-0.060824 0.348095 0.354618 2.000000
0.198363 0.284790 -0.411163 2.000000
-0.102389 0.496540 0.041545 2.000000
-0.247229 -0.352926 0.348674 2.000000
-0.091789 0.498485 0.000378 2.000000
0.214509 -0.482384 -0.124132 2.000000
0.059576 0.395622 -0.305354 2.000000
0.076642 -0.128915 0.478657 2.000000
-0.081938 -0.268183 -0.421544 2.000000
-0.274963 -0.259169 0.422910 2.000000
-0.232783 -0.347715 0.353747 2.000000
0.227948 -0.352626 0.348965 2.000000
0.068135 0.352559 -0.354382 2.000000
0.030811 0.496054 -0.051176 2.000000
0.240135 -0.365565 -0.339975 2.000000
-0.051176 0.393492 -0.308027 2.000000
0.039729 -0.194936 -0.460246 2.000000
-0.277858 -0.491002 0.077683 4.000000
0.139916 0.449635 -0.217563 2.000000
-0.238988 -0.089791 -0.491894 2.000000
0.155807 0.422711 -0.266228 2.000000
0.016729 0.419227 -0.271944 2.000000
0.271528 0.270043 -0.420900 2.000000
0.020471 -0.327087 0.372844 2.000000
-0.188466 -0.389965 0.306811 2.000000
0.226290 -0.353347 -0.352524 2.000000
0.185944 0.258247 -0.428379 2.000000
0.200369 -0.049421 -0.497618 2.000000
0.046481 0.489037 -0.099403 2.000000
0.053412 -0.076565 0.489794 2.000000
-0.063172 0.111490 0.483256 2.000000
0.128551 0.486955 0.104295 2.000000
-0.258735 -0.250372 -0.432402 2.000000
0.052859 0.362262 0.340066 2.000000
0.184470 -0.200607 0.453454 2.000000
-0.212396 -0.458094 0.192074 2.000000
0.186386 -0.452429 -0.209514 2.000000
-0.025056 0.126336 0.479728 2.000000
-0.223139 0.492996 -0.076409 2.000000
-0.047679 -0.333998 0.366914 2.000000
0.260148 0.492646 0.073778 2.000000
0.286733 -0.496856 -0.029351 1.000000
0.274097 0.457694 0.195224 2.000000
0.213806 -0.398130 0.296570 2.000000
-0.123014 0.285719 -0.410550 2.000000
-0.058282 -0.488949 -0.094235 2.000000
-0.257881 -0.043587 0.493820 2.000000
-0.036917 0.399522 0.295716 2.000000
-0.156614 -0.405808 -0.290379 2.000000
-0.182484 -0.262552 -0.424977 2.000000
0.037537 0.017711 0.495491 2.000000
0.070356 -0.404907 0.286957 2.000000
0.036042 -0.497410 0.009343 2.000000
0.172137 -0.061894 0.491917 2.000000
-0.013707 -0.480704 -0.130217 2.000000
-0.043672 -0.481378 0.123704 2.000000
-0.095988 -0.470987 -0.162290 2.000000
0.252022 0.363893 -0.342718 2.000000
0.243978 -0.011797 -0.500063 2.000000
-0.086754 0.298739 -0.400934 2.000000
-0.106154 0.166266 -0.471730 2.000000
0.247376 -0.409291 -0.285217 2.000000
-0.065037 -0.372197 0.328064 2.000000
-0.061616 0.423149 -0.265509 2.000000
0.259766 -0.216596 0.445950 2.000000
-0.107154 -0.416377 -0.274485 2.000000
0.012178 0.005564 0.495933 2.000000
0.194412 0.487111 0.103549 2.000000
0.047976 -0.333481 0.367357 2.000000
0.029908 -0.269568 -0.420700 2.000000
-0.027991 -0.304222 -0.396046 2.000000
-0.112958 -0.048044 0.493459 2.000000
-0.133771 0.122634 -0.485027 2.000000
-0.046122 -0.446053 0.218471 2.000000
-0.288504 0.380543 -0.324265 4.000000
0.176425 -0.040334 -0.498600 2.000000
0.212970 -0.043616 0.493818 2.000000
-0.031028 -0.420016 0.264615 2.000000
0.003306 0.477510 0.141148 2.000000
-0.148369 -0.212433 0.448001 2.000000
0.131521 0.296183 -0.402862 2.000000
0.037402 0.414213 0.274961 2.000000
-0.261202 -0.018924 0.495492 2.000000
0.010835 0.414438 0.274621 2.000000
-0.248805 0.052493 0.493043 2.000000
0.057093 -0.155261 0.470820 2.000000
-0.131099 -0.452513 0.204512 2.000000
0.107847 0.454836 0.202077 2.000000
-0.262327 -0.437478 0.234758 2.000000
0.026913 -0.361184 -0.344475 2.000000
-0.034916 0.496043 0.047675 2.000000
0.165911 0.293901 -0.404584 2.000000
-0.026523 -0.472590 0.153495 2.000000
0.068386 -0.412191 0.276542 2.000000
0.135186 -0.211038 -0.453020 2.000000
-0.179460 0.376055 -0.329290 2.000000
-0.288330 -0.254501 -0.429885 4.000000
0.063149 0.475756 0.147083 2.000000
0.214340 -0.031557 0.494795 2.000000
-0.220176 0.031858 -0.499207 2.000000
0.164779 0.405114 -0.292481 2.000000
-0.202237 0.495639 0.052663 2.000000
0.163118 -0.479432 0.131071 2.000000
0.264554 0.000247 0.495837 2.000000
0.164713 0.416170 -0.276672 2.000000
0.004463 0.306522 0.390675 2.000000
0.038873 -0.371370 0.328978 2.000000
-0.280520 0.230049 0.439709 2.000000
-0.199035 -0.490726 -0.084320 2.000000
-0.074929 0.462869 0.182811 2.000000
0.094793 0.432625 0.245253 2.000000
-0.128806 0.478232 0.138530 2.000000
-0.020521 0.490981 0.085074 2.000000
0.000764 -0.286377 0.405086 2.000000
0.025815 -0.414326 -0.277591 2.000000
-0.178389 0.282808 0.408025 2.000000
-0.013164 0.447992 0.216245 2.000000
-0.243147 -0.336924 -0.368369 2.000000
-0.036668 0.498637 -0.008046 2.000000
0.018838 -0.193251 -0.461002 2.000000
-0.264229 -0.324839 0.374773 2.000000
-0.184512 -0.458631 0.190878 2.000000
0.041016 -0.136263 0.476629 2.000000
-0.218887 -0.036605 0.494386 2.000000
-0.014922 0.486628 -0.110277 2.000000
0.272071 -0.375018 0.324950 2.000000
0.129725 -0.184420 0.460203 2.000000
0.222132 -0.003929 -0.500276 2.000000
-0.233843 -0.299566 0.395184 2.000000
0.191106 -0.497368 0.010260 2.000000
-0.099773 -0.463000 -0.184393 2.000000
-0.227902 -0.038437 -0.498805 2.000000
-0.163102 0.464173 0.179683 2.000000
0.020137 0.418525 0.268430 2.000000
-0.069023 0.031799 -0.499212 2.000000
-0.093529 -0.046399 0.493592 2.000000
0.035454 0.377409 -0.327795 2.000000
-0.147443 0.339169 -0.367418 2.000000
-0.171325 0.273285 0.414686 2.000000
0.209835 -0.111226 -0.487428 2.000000
-0.004472 -0.495812 -0.042230 2.000000
0.235102 -0.384247 0.313981 2.000000
0.173470 -0.120414 0.481004 2.000000
-0.048965 0.281482 -0.413348 2.000000
0.179524 0.159894 0.469794 2.000000
0.187399 -0.319613 -0.383773 2.000000
0.188462 -0.485703 -0.109730 2.000000
0.087600 0.391411 0.306467 2.000000
-0.159598 0.012864 -0.499973 2.000000
0.148159 0.204232 0.452181 2.000000
0.244625 0.462303 -0.188856 2.000000
0.031667 0.459289 -0.196050 2.000000
0.129883 0.359295 -0.347794 2.000000
-0.244400 0.491565 0.081248 2.000000
0.128944 -0.494027 -0.061500 2.000000
-0.134878 0.459683 -0.195171 2.000000
-0.221350 -0.303070 0.392540 2.000000
0.234051 -0.257261 -0.428203 2.000000
0.110077 0.483676 -0.122702 2.000000
0.025430 -0.311347 -0.390364 2.000000
-0.274690 -0.345204 -0.360870 2.000000
-0.190651 0.252143 -0.431880 2.000000
0.175810 0.461398 -0.191267 2.000000
-0.273865 0.450443 -0.215762 2.000000
0.209769 0.370244 -0.335707 2.000000
0.121759 0.470315 -0.167504 2.000000
-0.252728 0.461152 -0.191898 2.000000
-0.255856 0.237360 0.435860 2.000000
0.131047 0.498650 -0.008747 2.000000
0.279524 -0.274792 -0.417268 1.000000
0.226539 -0.195474 -0.460004 2.000000
-0.034299 -0.346065 0.355353 2.000000
0.139422 0.381249 0.318761 2.000000
-0.029881 0.182971 0.461198 2.000000
0.019306 -0.495787 -0.042544 2.000000
0.139203 -0.021112 0.495453 2.000000
-0.237670 -0.072559 0.490374 2.000000
0.074760 -0.446717 0.217211 2.000000
0.128513 0.376024 -0.329325 2.000000
0.027739 -0.220815 -0.448385 2.000000
-0.175987 -0.301170 -0.398479 2.000000
-0.020583 0.450362 -0.215941 2.000000
-0.198018 -0.051506 0.493178 2.000000
-0.084187 -0.299883 -0.399505 2.000000
0.104383 0.008339 -0.500055 2.000000
-0.245645 -0.466557 0.170436 2.000000
-0.094193 0.478396 0.137938 2.000000
0.243308 0.325869 0.374957 2.000000
0.188598 0.497665 -0.030848 2.000000
0.081428 -0.132016 -0.482341 2.000000
0.146005 0.459005 0.192078 2.000000
0.265988 -0.208255 -0.454269 2.000000
0.181131 -0.352959 -0.352923 2.000000
-0.188740 0.485677 -0.114282 2.000000
-0.212359 0.285375 -0.410777 2.000000
-0.106391 0.452575 0.206943 2.000000
-0.191957 -0.462447 -0.185717 2.000000
0.101298 -0.096297 -0.490774 2.000000
-0.264491 0.086438 -0.492868 2.000000
0.044858 -0.459810 0.188251 2.000000
0.250237 0.483416 -0.123795 2.000000
0.108429 -0.215754 0.446365 2.000000
0.219121 0.259075 0.423368 2.000000
0.108936 0.476251 0.145647 2.000000
-0.089618 0.404928 0.288550 2.000000
-0.259300 0.498373 -0.015061 2.000000
-0.080775 0.072882 -0.494829 2.000000
-0.189059 -0.005553 0.495733 2.000000
0.238403 0.486946 0.104338 2.000000
0.118138 0.201929 -0.457684 2.000000
0.080137 0.434269 -0.247153 2.000000
-0.193813 -0.482767 -0.122744 2.000000
-0.132680 -0.047751 -0.497798 2.000000
-0.016512 0.484315 -0.120012 2.000000
-0.016687 0.497073 -0.041748 2.000000
-0.039743 0.191112 -0.462193 2.000000
0.073523 -0.310346 0.387051 2.000000
0.132919 0.217624 -0.450302 2.000000
0.180257 -0.493469 0.061266 2.000000
