-0.290288 -0.025623 0.472545 4.000000
-0.290288 0.414238 -0.174631 4.000000
-0.290288 -0.230859 -0.391839 4.000000
-0.290288 -0.374215 -0.252540 4.000000
-0.290288 -0.448246 0.123906 4.000000
-0.290288 0.118542 -0.482317 4.000000
-0.290288 0.188277 0.441350 4.000000
-0.290288 -0.461533 -0.165301 4.000000
-0.290288 -0.451670 -0.149937 4.000000
-0.290288 0.034540 0.468303 4.000000
-0.290288 -0.444589 -0.224492 4.000000
-0.290288 -0.306920 -0.387626 4.000000
-0.290288 -0.004029 -0.458628 4.000000
-0.290288 -0.491724 0.069557 4.000000
-0.290288 0.268432 0.355174 4.000000
-0.290288 -0.473191 0.059553 4.000000
-0.290288 0.118470 -0.471410 4.000000
-0.290288 0.356880 0.315800 4.000000
-0.290288 -0.317110 0.335075 4.000000
-0.290288 0.379761 -0.319710 4.000000
-0.290288 0.485005 -0.002593 4.000000
-0.290288 0.492918 -0.035018 4.000000
-0.290288 -0.291449 -0.382257 4.000000
-0.290288 -0.096479 -0.488076 4.000000
-0.290288 0.020278 0.479319 4.000000
-0.290288 -0.433220 0.152999 4.000000
-0.290288 0.035255 -0.464486 4.000000
-0.290288 0.447131 -0.000800 4.000000
-0.290288 0.405570 0.240424 4.000000
-0.290288 0.168530 -0.423777 4.000000
-0.290288 0.260790 0.410665 4.000000
-0.290288 -0.222244 0.408522 4.000000
-0.290288 0.458059 -0.096469 4.000000
-0.290288 -0.310760 0.374154 4.000000
-0.290288 0.384782 0.270056 4.000000
-0.290288 -0.334443 0.339656 4.000000
-0.290288 0.132865 0.477505 4.000000
-0.290288 0.286216 -0.386881 4.000000
-0.290288 0.161160 -0.437491 4.000000
-0.290288 -0.463700 -0.024272 4.000000
-0.290288 0.326430 0.340746 4.000000
-0.290288 -0.155536 0.434990 4.000000
-0.290288 0.388298 -0.276777 4.000000
-0.290288 -0.090746 -0.483501 4.000000
-0.290288 0.339740 0.361484 4.000000
-0.290288 -0.276056 0.371122 4.000000
-0.290288 0.344685 0.325472 4.000000
-0.290288 0.072310 0.488501 4.000000
-0.290288 0.461175 -0.073008 4.000000
-0.290288 -0.187427 -0.430156 4.000000
-0.290288 0.432717 -0.149410 4.000000
-0.290288 -0.132644 -0.456767 4.000000
-0.290288 -0.030075 -0.483950 4.000000
-0.290288 -0.267692 -0.372851 4.000000
-0.290288 -0.422629 0.245629 4.000000
-0.290288 0.452708 -0.115451 4.000000
-0.290288 0.195213 0.423109 4.000000
-0.290288 -0.405417 -0.281275 4.000000
-0.290288 -0.442203 0.169907 4.000000
-0.290288 0.105726 -0.455178 4.000000
-0.290288 0.188397 -0.427056 4.000000
-0.290288 -0.205021 0.428041 4.000000
-0.290288 0.298319 0.393918 4.000000
-0.290288 0.496960 0.019983 4.000000
-0.290288 -0.335139 0.330976 4.000000
-0.290288 -0.173686 0.456715 4.000000
-0.290288 -0.319953 0.352649 4.000000
-0.290288 0.186763 -0.410109 4.000000
-0.290288 -0.422693 0.221386 4.000000
-0.290288 -0.067807 0.465247 4.000000
-0.290288 0.304867 -0.344093 4.000000
-0.290288 0.156667 -0.443359 4.000000
-0.290288 0.449882 -0.165116 4.000000
-0.290288 0.256880 -0.366808 4.000000
-0.290288 0.159521 -0.465825 4.000000
-0.290288 0.224482 -0.411646 4.000000
-0.290288 -0.403387 -0.266942 4.000000
-0.290288 0.021723 -0.499754 4.000000
-0.290288 -0.435284 0.233532 4.000000
-0.290288 -0.381435 0.276469 4.000000
-0.290288 -0.341575 0.347094 4.000000
-0.290288 0.319609 -0.367349 4.000000
-0.290288 0.014806 0.486627 4.000000
-0.290288 0.491885 0.066390 4.000000
-0.290288 -0.204341 0.420706 4.000000
-0.290288 -0.107096 0.478567 4.000000
-0.290288 0.396828 0.275223 4.000000
-0.290288 0.060584 0.444605 4.000000
-0.290288 0.314053 0.365941 4.000000
-0.290288 -0.377195 -0.268688 4.000000
-0.290288 -0.124582 -0.445881 4.000000
-0.290288 -0.289410 -0.374210 4.000000
-0.290288 -0.245130 -0.419396 4.000000
-0.290288 0.268214 0.375842 4.000000
-0.290288 0.442686 -0.086070 4.000000
-0.290288 -0.176353 -0.418470 4.000000
-0.290288 -0.402777 0.267943 4.000000
-0.290288 -0.466005 -0.165497 4.000000
-0.290288 0.231502 0.406934 4.000000
-0.290288 0.414949 -0.185209 4.000000
-0.290288 -0.197520 -0.401353 4.000000
-0.290288 -0.480386 0.033811 4.000000
-0.290288 0.392247 0.272568 4.000000
-0.290288 0.282295 0.384686 4.000000
-0.290288 -0.353694 0.324826 4.000000
-0.290288 0.009084 -0.457698 4.000000
-0.290288 0.475143 -0.132491 4.000000
-0.290288 0.366722 0.321671 4.000000
-0.290288 0.148337 -0.458906 4.000000
-0.290288 -0.445147 0.155594 4.000000
-0.290288 -0.147886 0.449222 4.000000
-0.290288 0.392773 -0.214374 4.000000
-0.290288 0.178081 -0.429696 4.000000
-0.290288 0.222261 -0.389132 4.000000
-0.290288 0.428076 -0.194972 4.000000
-0.290288 -0.460437 -0.187926 4.000000
-0.290288 -0.474259 -0.112966 4.000000
-0.290288 0.058571 -0.479306 4.000000
-0.290288 -0.253404 -0.387511 4.000000
-0.290288 0.345947 -0.296049 4.000000
-0.290288 -0.186630 -0.449740 4.000000
-0.290288 0.397134 -0.281167 4.000000
-0.290288 -0.396696 -0.271381 4.000000
-0.290288 -0.000252 -0.464368 4.000000
-0.290288 0.235119 0.376999 4.000000
-0.290288 -0.280882 0.393767 4.000000
-0.290288 0.063423 -0.482354 4.000000
-0.290288 0.170647 0.447359 4.000000
-0.290288 -0.233263 0.387629 4.000000
-0.290288 -0.438352 0.193761 4.000000
-0.290288 -0.463431 0.130904 4.000000
-0.290288 -0.342241 0.288685 4.000000
-0.290288 -0.071285 0.482686 4.000000
-0.290288 0.290985 -0.406249 4.000000
-0.290288 0.235487 0.411683 4.000000
-0.290288 0.071831 0.475554 4.000000
-0.290288 0.431625 -0.115417 4.000000
-0.290288 -0.286909 -0.382479 4.000000
-0.290288 0.113621 -0.470905 4.000000
-0.290288 0.227368 -0.433953 4.000000
-0.290288 0.223878 -0.428539 4.000000
-0.290288 0.375621 0.265968 4.000000
-0.290288 0.476613 -0.045059 4.000000
-0.290288 0.297212 -0.349704 4.000000
-0.290288 0.354487 0.297482 4.000000
-0.290288 0.182447 -0.417160 4.000000
-0.290288 -0.461615 0.046773 4.000000
-0.290288 0.052125 0.450929 4.000000
-0.290288 0.247093 -0.407835 4.000000
-0.290288 -0.325170 0.361334 4.000000
-0.290288 -0.376171 -0.244070 4.000000
-0.290288 0.345593 -0.299351 4.000000
-0.290288 -0.146277 -0.470839 4.000000
-0.290288 -0.486502 0.094313 4.000000
-0.290288 0.308920 0.357198 4.000000
-0.290288 0.286757 -0.371409 4.000000
-0.290288 0.362728 -0.279350 4.000000
-0.290288 0.237441 -0.396379 4.000000
-0.290288 -0.308770 -0.326235 4.000000
-0.290288 0.335426 -0.328906 4.000000
-0.290288 -0.420692 -0.249557 4.000000
-0.290288 -0.447222 -0.152519 4.000000
-0.290288 0.388894 -0.262557 4.000000
-0.290288 0.311930 0.341512 4.000000
-0.290288 -0.311391 0.345992 4.000000
-0.290288 0.418415 -0.195344 4.000000
-0.290288 0.371035 -0.298014 4.000000
-0.290288 0.472989 0.119258 4.000000
-0.290288 0.349259 -0.338926 4.000000
-0.290288 -0.436027 -0.216356 4.000000
-0.290288 0.453830 0.114485 4.000000
-0.290288 0.227193 0.402034 4.000000
-0.290288 0.460479 -0.123990 4.000000
-0.290288 0.369371 0.302453 4.000000
-0.290288 -0.367331 -0.287504 4.000000
-0.290288 0.291129 0.344196 4.000000
-0.290288 0.343247 -0.286730 4.000000
-0.290288 0.425194 -0.193850 4.000000
-0.290288 0.465045 0.058993 4.000000
-0.290288 -0.489618 0.066509 4.000000
-0.290288 -0.421080 -0.224507 4.000000
-0.290288 -0.241940 0.422283 4.000000
-0.290288 0.204425 0.440938 4.000000
-0.290288 0.317607 -0.318564 4.000000
-0.290288 -0.362888 0.277602 4.000000
-0.290288 0.480820 0.077165 4.000000
-0.290288 0.217281 0.437367 4.000000
-0.290288 -0.350444 -0.323273 4.000000
-0.290288 -0.319423 0.363921 4.000000
-0.290288 -0.442013 -0.130749 4.000000
-0.290288 0.466736 0.144768 4.000000
-0.290288 0.053819 0.461928 4.000000
-0.290288 0.237514 0.398993 4.000000
-0.290288 0.252912 -0.408162 4.000000
-0.290288 -0.185931 -0.419598 4.000000
-0.290288 -0.364850 -0.340053 4.000000
-0.290288 -0.235060 0.397379 4.000000
-0.290288 0.428541 -0.238256 4.000000
-0.290288 0.093444 0.477326 4.000000
-0.290288 0.315278 -0.387909 4.000000
-0.290288 -0.431200 -0.163541 4.000000
-0.290288 0.457908 -0.053981 4.000000
-0.290288 -0.438255 -0.212262 4.000000
-0.290288 -0.385411 -0.278308 4.000000
-0.290288 0.444471 -0.134311 4.000000
-0.290288 -0.275128 0.390918 4.000000
-0.290288 -0.189659 0.405433 4.000000
-0.290288 0.445170 -0.223376 4.000000
-0.290288 0.038928 0.441596 4.000000
-0.290288 0.202196 0.422903 4.000000
-0.290288 -0.490912 0.049316 4.000000
-0.290288 -0.142774 0.472715 4.000000
-0.290288 0.288078 0.365651 4.000000
-0.290288 -0.028445 0.484192 4.000000
-0.290288 -0.468416 -0.099758 4.000000
-0.290288 0.208344 0.394481 4.000000
-0.290288 -0.172798 -0.451710 4.000000
-0.290288 -0.447638 0.009962 4.000000
-0.290288 0.071520 -0.456337 4.000000
-0.290288 0.089622 -0.475580 4.000000
-0.290288 0.076785 -0.469438 4.000000
-0.290288 0.083686 0.476736 4.000000
-0.290288 -0.449085 -0.075710 4.000000
-0.290288 -0.470075 0.027611 4.000000
-0.290288 -0.101954 -0.451261 4.000000
-0.290288 -0.276897 -0.371894 4.000000
-0.290288 -0.154185 0.422503 4.000000
-0.290288 0.467025 0.172242 4.000000
-0.290288 -0.446449 -0.110174 4.000000
-0.290288 -0.466021 0.002079 4.000000
-0.290288 0.275531 0.382684 4.000000
-0.290288 0.407843 0.251768 4.000000
-0.290288 -0.412030 -0.223169 4.000000
-0.290288 0.456110 -0.091803 4.000000
-0.290288 -0.484837 -0.100477 4.000000
-0.290288 -0.132414 -0.434552 4.000000
-0.290288 -0.258825 0.421085 4.000000
-0.290288 -0.203366 -0.405290 4.000000
-0.290288 -0.478987 0.116214 4.000000
-0.290288 0.317403 -0.347714 4.000000
-0.290288 0.216653 0.402938 4.000000
-0.290288 -0.106366 -0.476275 4.000000
-0.290288 0.075926 -0.458951 4.000000
-0.290288 0.079154 -0.461986 4.000000
-0.290288 0.405067 -0.281236 4.000000
-0.290288 0.460593 0.129296 4.000000
-0.290288 0.309651 0.360832 4.000000
-0.290288 0.377764 -0.262715 4.000000
-0.290288 0.117678 -0.464036 4.000000
-0.290288 0.126157 0.457691 4.000000
-0.290288 -0.341546 -0.331602 4.000000
-0.290288 0.236194 -0.439606 4.000000
-0.290288 0.445983 0.210972 4.000000
-0.290288 -0.370902 0.263753 4.000000
-0.290288 0.055774 -0.496858 4.000000
-0.290288 -0.470740 0.049733 4.000000
-0.290288 0.448036 0.120186 4.000000
-0.290288 0.283702 0.390558 4.000000
-0.290288 0.384815 -0.294407 4.000000
-0.290288 0.262349 0.399811 4.000000
-0.290288 -0.047136 0.467685 4.000000
-0.290288 0.437582 0.235400 4.000000
-0.290288 -0.410355 0.213246 4.000000
-0.290288 0.388384 0.297505 4.000000
-0.290288 -0.279126 -0.379556 4.000000
-0.290288 -0.069175 0.480224 4.000000
-0.290288 -0.181716 0.432046 4.000000
-0.290288 0.190032 0.402097 4.000000
-0.290288 0.260445 -0.377672 4.000000
-0.290288 -0.456969 0.169458 4.000000
-0.290288 -0.405177 0.261470 4.000000
-0.290288 0.482518 0.034948 4.000000
-0.290288 -0.109868 -0.473758 4.000000
-0.290288 0.346791 0.302347 4.000000
-0.290288 0.469821 0.081305 4.000000
-0.290288 0.023916 0.467859 4.000000
-0.290288 0.388314 -0.227003 4.000000
-0.290288 0.448312 0.136253 4.000000
-0.290288 -0.190460 -0.423027 4.000000
-0.290288 0.439511 0.119559 4.000000
-0.290288 -0.441484 0.138516 4.000000
-0.290288 -0.111178 0.450128 4.000000
-0.290288 -0.490095 0.004547 4.000000
-0.290288 -0.106795 -0.452695 4.000000
-0.290288 0.105871 0.444837 4.000000
-0.290288 0.006920 0.493756 4.000000
-0.290288 0.139839 0.434398 4.000000
-0.290288 -0.294956 -0.394620 4.000000
-0.290288 -0.427921 -0.129679 4.000000
-0.290288 -0.427613 -0.148702 4.000000
-0.290288 -0.141328 0.451720 4.000000
-0.290288 0.441543 0.159324 4.000000
-0.290288 -0.402009 0.218995 4.000000
-0.290288 0.272310 0.412985 4.000000
-0.290288 -0.151783 -0.435216 4.000000
-0.290288 -0.410163 0.258072 4.000000
-0.290288 -0.155568 -0.434121 4.000000
-0.290288 0.219200 -0.390701 4.000000
-0.290288 -0.269706 0.385938 4.000000
-0.290288 -0.461085 -0.146745 4.000000
-0.290288 0.131870 0.468964 4.000000
-0.290288 0.192265 -0.443262 4.000000
-0.290288 0.001489 0.479017 4.000000
-0.290288 0.482107 -0.056511 4.000000
-0.290288 -0.355011 0.296686 4.000000
-0.290288 0.117060 0.436047 4.000000
-0.290288 -0.147581 0.453383 4.000000
-0.290288 0.259745 -0.364497 4.000000
-0.290288 0.119207 0.427979 4.000000
-0.290288 -0.280902 0.351963 4.000000
-0.290288 -0.400451 0.255679 4.000000
-0.290288 -0.350926 0.288345 4.000000
-0.290288 -0.457247 -0.140157 4.000000
-0.290288 0.453628 -0.034440 4.000000
-0.290288 -0.419317 -0.221388 4.000000
-0.290288 0.125335 0.461519 4.000000
-0.290288 0.310287 0.329194 4.000000
-0.290288 0.236926 -0.384326 4.000000
-0.290288 0.039620 0.463634 4.000000
-0.290288 0.304515 -0.394459 4.000000
-0.290288 0.382461 -0.308295 4.000000
-0.290288 0.223452 -0.433024 4.000000
-0.290288 0.181784 0.447149 4.000000
-0.290288 -0.104596 0.481157 4.000000
-0.290288 0.471176 -0.014726 4.000000
-0.290288 0.370296 0.250063 4.000000
-0.290288 0.054821 0.488801 4.000000
-0.290288 0.364098 0.310092 4.000000
-0.290288 0.184443 -0.407853 4.000000
-0.290288 -0.280499 -0.362763 4.000000
-0.290288 -0.479230 0.013227 4.000000
-0.290288 -0.164306 0.417868 4.000000
-0.290288 0.148093 0.445826 4.000000
-0.290288 0.010244 -0.493256 4.000000
-0.290288 0.483374 -0.078402 4.000000
-0.290288 -0.197691 0.454301 4.000000
-0.290288 0.171909 0.430615 4.000000
-0.290288 -0.490065 -0.083303 4.000000
-0.290288 0.294794 -0.347202 4.000000
-0.290288 -0.038035 -0.448511 4.000000
-0.290288 -0.050853 0.457033 4.000000
-0.290288 -0.017007 0.444298 4.000000
-0.290288 -0.114928 -0.468093 4.000000
-0.290288 0.431674 -0.146199 4.000000
-0.290288 0.401680 0.239048 4.000000
-0.290288 0.225679 0.390115 4.000000
-0.290288 0.448867 -0.032384 4.000000
-0.290288 -0.169750 -0.436596 4.000000
-0.290288 0.329783 0.328799 4.000000
-0.290288 0.261465 -0.422954 4.000000
-0.290288 -0.478732 0.041374 4.000000
-0.290288 0.446913 -0.126972 4.000000
-0.290288 0.235125 -0.426254 4.000000
-0.290288 -0.258841 0.411032 4.000000
-0.290288 -0.470663 -0.132215 4.000000
-0.290288 0.471228 0.145723 4.000000
-0.290288 0.047517 -0.466431 4.000000
-0.290288 -0.361088 0.264324 4.000000
-0.290288 -0.184869 0.433147 4.000000
-0.290288 0.053463 -0.471690 4.000000
-0.290288 -0.190435 -0.460546 4.000000
-0.290288 0.241766 0.431813 4.000000
-0.290288 0.095565 0.442837 4.000000
-0.290288 0.296561 0.351608 4.000000
-0.290288 0.444560 -0.162845 4.000000
-0.290288 0.374656 0.241278 4.000000
-0.290288 -0.469942 -0.157727 4.000000
-0.290288 -0.382618 0.229367 4.000000
-0.290288 0.366532 0.285905 4.000000
-0.290288 -0.005407 0.457719 4.000000
-0.290288 -0.232560 -0.435882 4.000000
-0.290288 -0.186946 0.445300 4.000000
-0.290288 0.399865 0.208375 4.000000
-0.290288 0.044300 -0.446974 4.000000
-0.290288 -0.150723 0.438387 4.000000
-0.290288 0.110511 -0.472258 4.000000
-0.290288 -0.288111 -0.356501 4.000000
-0.290288 0.448633 -0.064165 4.000000
-0.290288 -0.021559 -0.498824 4.000000
-0.290288 0.256912 -0.418132 4.000000
-0.290288 -0.098750 -0.456592 4.000000
-0.290288 -0.121937 -0.458313 4.000000
-0.290288 -0.440499 -0.113813 4.000000
-0.290288 0.492642 -0.052552 4.000000
-0.290288 -0.025238 -0.463765 4.000000
-0.290288 -0.063913 0.455610 4.000000
-0.290288 -0.209314 -0.429204 4.000000
-0.290288 -0.053909 0.453320 4.000000
-0.290288 -0.301030 0.362659 4.000000
-0.290288 0.404504 0.257382 4.000000
-0.290288 0.158829 -0.446091 4.000000
-0.290288 -0.140901 -0.479251 4.000000
-0.290288 -0.453220 0.064172 4.000000
-0.290288 -0.219078 -0.432595 4.000000
-0.290288 0.442056 -0.222994 4.000000
-0.290288 -0.431001 -0.231871 4.000000
-0.290288 0.420867 -0.205338 4.000000
-0.290288 -0.468951 -0.038995 4.000000
-0.290288 -0.192862 0.448590 4.000000
-0.290288 -0.477587 -0.028997 4.000000
-0.290288 -0.373742 0.273525 4.000000
-0.290288 -0.481619 -0.022948 4.000000
-0.290288 0.296419 -0.335574 4.000000
-0.290288 -0.309504 0.387570 4.000000
-0.290288 0.387281 0.234345 4.000000
-0.290288 -0.426286 0.193282 4.000000
-0.290288 -0.187470 -0.423276 4.000000
-0.290288 0.219148 -0.431988 4.000000
-0.290288 0.472282 -0.156378 4.000000
-0.290288 -0.300024 0.330807 4.000000
-0.290288 0.429948 -0.206463 4.000000
-0.290288 -0.463941 0.118557 4.000000
-0.290288 -0.411801 0.168925 4.000000
-0.290288 -0.428822 0.216434 4.000000
-0.290288 0.444240 -0.082621 4.000000
-0.290288 -0.425046 -0.146749 4.000000
-0.290288 0.421189 0.255479 4.000000
-0.290288 -0.476310 -0.033557 4.000000
-0.290288 0.053250 0.454716 4.000000
-0.290288 -0.055140 0.484601 4.000000
-0.290288 -0.388395 0.300715 4.000000
-0.290288 0.339785 0.319949 4.000000
-0.290288 -0.459460 -0.027931 4.000000
-0.290288 0.371686 0.266865 4.000000
-0.290288 -0.397184 -0.286293 4.000000
-0.290288 -0.031941 0.467659 4.000000
-0.290288 0.435694 0.186753 4.000000
-0.290288 0.342665 -0.316514 4.000000
-0.290288 0.158008 0.422950 4.000000
-0.290288 -0.409100 0.203965 4.000000
-0.290288 0.426699 0.245818 4.000000
-0.290288 -0.328376 0.371044 4.000000
-0.290288 0.196546 -0.441698 4.000000
-0.290288 0.051598 -0.464642 4.000000
-0.290288 0.305431 0.383269 4.000000
-0.290288 0.330950 0.307259 4.000000
-0.290288 -0.295486 0.334274 4.000000
-0.290288 -0.375749 -0.240785 4.000000
-0.290288 0.167541 0.433935 4.000000
-0.290288 -0.443345 0.147476 4.000000
-0.290288 0.349656 -0.342390 4.000000
-0.290288 -0.168961 0.465500 4.000000
-0.290288 0.013438 0.479959 4.000000
-0.290288 0.367737 0.312863 4.000000
-0.290288 0.007690 -0.467846 4.000000
-0.290288 0.409559 -0.253361 4.000000
-0.290288 0.177591 0.449206 4.000000
-0.290288 -0.431685 0.222525 4.000000
-0.290288 0.440067 0.172228 4.000000
-0.290288 -0.330561 0.349797 4.000000
-0.290288 0.083726 -0.466672 4.000000
-0.290288 -0.125600 0.449998 4.000000
-0.290288 0.260537 0.363702 4.000000
-0.290288 0.247537 0.368257 4.000000
-0.290288 -0.427660 -0.196776 4.000000
-0.290288 0.443435 -0.227304 4.000000
-0.290288 -0.134903 -0.465423 4.000000
-0.290288 -0.075990 -0.457887 4.000000
-0.290288 -0.313456 0.360238 4.000000
-0.290288 -0.310394 0.342791 4.000000
-0.290288 0.463065 0.117071 4.000000
-0.290288 0.411642 0.180776 4.000000
-0.290288 0.400208 -0.231789 4.000000
-0.290288 0.142935 0.448224 4.000000
-0.290288 0.436905 0.106868 4.000000
-0.290288 0.095588 0.433765 4.000000
-0.290288 0.368910 0.269831 4.000000
-0.290288 0.149153 -0.425206 4.000000
-0.290288 0.486791 0.022434 4.000000
-0.290288 -0.246622 -0.423117 4.000000
-0.290288 -0.000959 0.468610 4.000000
-0.290288 -0.144271 0.425556 4.000000
-0.290288 -0.252451 0.406566 4.000000
-0.290288 -0.459382 -0.074812 4.000000
-0.290288 0.369366 -0.311089 4.000000
-0.290288 -0.022134 0.448019 4.000000
-0.290288 -0.467554 -0.091223 4.000000
-0.290288 -0.373733 0.321466 4.000000
-0.290288 -0.448454 0.095987 4.000000
-0.290288 -0.458368 0.131739 4.000000
-0.290288 0.164134 -0.428082 4.000000
-0.290288 0.219047 0.399622 4.000000
-0.290288 0.401464 0.244312 4.000000
-0.290288 -0.200808 0.432603 4.000000
-0.290288 -0.188293 -0.433922 4.000000
-0.290288 -0.430471 0.157093 4.000000
-0.290288 -0.411919 0.266844 4.000000
-0.290288 -0.355530 -0.323238 4.000000
-0.290288 0.402573 0.191606 4.000000
-0.290288 -0.244075 0.392043 4.000000
-0.290288 -0.136138 0.463932 4.000000
-0.290288 -0.478434 -0.081205 4.000000
-0.290288 0.249337 0.400736 4.000000
-0.290288 -0.104841 -0.480681 4.000000
-0.290288 0.336525 -0.294975 4.000000
-0.290288 0.224140 0.412469 4.000000
-0.290288 0.479777 -0.070583 4.000000
-0.290288 -0.487460 -0.092131 4.000000
-0.290288 0.337231 0.305701 4.000000
-0.290288 -0.427025 -0.246179 4.000000
-0.290288 0.263365 -0.361889 4.000000
-0.290288 0.336546 0.302480 4.000000
-0.290288 0.149605 -0.472625 4.000000
-0.290288 -0.161274 0.420518 4.000000
-0.290288 0.039206 0.445416 4.000000
-0.290288 0.323666 0.359703 4.000000
-0.290288 -0.123987 -0.464994 4.000000
-0.290288 0.117252 -0.486110 4.000000
-0.290288 0.367703 0.256145 4.000000
-0.290288 -0.449995 -0.180425 4.000000
-0.290288 -0.305503 0.381042 4.000000
-0.290288 0.486019 0.068101 4.000000
-0.290288 0.308951 -0.375881 4.000000
-0.290288 0.071185 0.441337 4.000000
-0.290288 0.092764 0.440466 4.000000
-0.290288 0.268743 -0.394388 4.000000
-0.290288 0.496296 0.037064 4.000000
-0.290288 -0.167249 -0.433794 4.000000
-0.290288 -0.226692 0.425991 4.000000
-0.290288 -0.434469 -0.170577 4.000000
-0.290288 -0.349480 0.329983 4.000000
-0.290288 -0.474832 -0.050805 4.000000
-0.290288 -0.457922 -0.010927 4.000000
-0.290288 -0.413809 0.272858 4.000000
-0.290288 0.465504 -0.036326 4.000000
-0.290288 0.324298 0.313180 4.000000
-0.290288 0.488847 -0.084673 4.000000
-0.290288 0.337745 0.346025 4.000000
-0.290288 0.449575 -0.153207 4.000000
-0.290288 0.269646 -0.406167 4.000000
-0.290288 -0.342377 -0.344961 4.000000
-0.290288 -0.305166 -0.338633 4.000000
-0.290288 -0.346503 -0.326251 4.000000
-0.290288 0.254329 -0.380444 4.000000
-0.290288 0.104724 -0.458849 4.000000
-0.290288 -0.471905 0.122488 4.000000
-0.290288 0.459609 0.048996 4.000000
-0.290288 -0.391224 0.294557 4.000000
-0.290288 -0.394342 -0.261293 4.000000
-0.290288 0.371812 0.313799 4.000000
-0.290288 0.217568 0.424943 4.000000
-0.290288 0.391340 -0.265558 4.000000
-0.290288 -0.482518 0.102900 4.000000
-0.290288 0.393478 0.303522 4.000000
-0.290288 -0.146080 0.472731 4.000000
-0.290288 0.453756 0.170753 4.000000
-0.290288 -0.133285 -0.468982 4.000000
-0.290288 0.134666 0.423201 4.000000
-0.290288 -0.212653 -0.408828 4.000000
-0.290288 -0.396357 0.263131 4.000000
-0.290288 -0.353386 -0.278237 4.000000
-0.290288 0.418776 0.222488 4.000000
-0.290288 0.145473 -0.448056 4.000000
-0.290288 0.161668 0.457458 4.000000
-0.290288 -0.463309 -0.017555 4.000000
-0.290288 0.342163 0.298005 4.000000
-0.290288 0.450072 0.144669 4.000000
-0.290288 -0.115845 0.468628 4.000000
-0.290288 -0.051701 0.446770 4.000000
-0.290288 0.494885 0.034096 4.000000
-0.290288 0.392893 0.281404 4.000000
-0.290288 -0.453903 0.085996 4.000000
-0.290288 -0.312204 0.364719 4.000000
-0.290288 0.129921 0.428630 4.000000
-0.290288 -0.452277 0.037015 4.000000
-0.290288 -0.402046 0.245252 4.000000
-0.290288 0.472940 -0.147273 4.000000
-0.290288 0.457032 0.133059 4.000000
-0.290288 -0.262892 0.403902 4.000000
-0.290288 -0.211445 0.437807 4.000000
-0.290288 -0.430104 -0.202929 4.000000
-0.290288 0.314750 0.374411 4.000000
-0.290288 -0.027656 0.445606 4.000000
-0.290288 -0.363833 -0.331801 4.000000
-0.290288 -0.222620 0.384420 4.000000
-0.290288 -0.319185 0.374751 4.000000
-0.290288 -0.088517 -0.491974 4.000000
-0.290288 -0.048048 -0.492144 4.000000
-0.290288 -0.160852 -0.434325 4.000000
-0.290288 -0.004315 0.454432 4.000000
-0.290288 -0.403646 -0.270396 4.000000
-0.290288 -0.414714 -0.210863 4.000000
-0.290288 -0.007528 -0.468580 4.000000
-0.290288 0.468062 -0.119571 4.000000
-0.290288 0.449993 -0.029302 4.000000
-0.290288 -0.082659 -0.442677 4.000000
-0.290288 0.227641 -0.401818 4.000000
-0.290288 0.395775 -0.256428 4.000000
-0.290288 0.452817 0.125692 4.000000
-0.290288 -0.417383 0.176908 4.000000
-0.290288 0.161899 -0.445029 4.000000
-0.290288 0.391622 0.288691 4.000000
-0.290288 0.112802 -0.478606 4.000000
-0.290288 -0.322323 -0.367532 4.000000
-0.290288 0.384488 0.223582 4.000000
-0.290288 -0.295358 -0.336273 4.000000
-0.290288 -0.434867 0.121943 4.000000
-0.290288 0.468407 0.094660 4.000000
-0.290288 -0.289212 0.364294 4.000000
-0.290288 -0.466762 0.089384 4.000000
-0.290288 -0.095749 -0.469943 4.000000
-0.290288 -0.446714 0.212291 4.000000
-0.290288 0.159170 0.444987 4.000000
-0.290288 0.080874 -0.487588 4.000000
-0.290288 -0.450688 0.108979 4.000000
-0.290288 0.361919 0.259923 4.000000
-0.290288 0.494008 0.026027 4.000000
-0.290288 -0.048373 -0.496656 4.000000
-0.290288 -0.461674 0.179113 4.000000
-0.290288 0.320944 -0.364314 4.000000
-0.290288 -0.416897 0.196364 4.000000
-0.290288 0.070165 0.478184 4.000000
-0.290288 0.280057 0.370359 4.000000
-0.290288 -0.113514 -0.435766 4.000000
-0.290288 -0.072406 -0.465823 4.000000
-0.290288 0.412094 0.189944 4.000000
-0.290288 0.039115 -0.493839 4.000000
-0.290288 0.460007 -0.085221 4.000000
-0.290288 0.439054 -0.181853 4.000000
-0.290288 0.200129 -0.433561 4.000000
-0.290288 0.189519 0.410122 4.000000
-0.290288 0.370754 -0.254685 4.000000
-0.290288 -0.117306 -0.446708 4.000000
-0.290288 -0.437026 0.210031 4.000000
-0.290288 0.427301 -0.172307 4.000000
-0.290288 0.458074 -0.178830 4.000000
-0.290288 -0.382259 0.247242 4.000000
-0.290288 0.092753 -0.450365 4.000000
-0.290288 -0.471192 -0.087097 4.000000
-0.290288 0.011431 0.463004 4.000000
-0.290288 0.445679 -0.220239 4.000000
-0.290288 0.165416 0.415903 4.000000
-0.290288 -0.079654 -0.466969 4.000000
-0.290288 0.456226 -0.050943 4.000000
-0.290288 0.254185 -0.430545 4.000000
-0.290288 0.146231 -0.432114 4.000000
-0.290288 0.192973 0.430435 4.000000
-0.290288 0.374910 -0.270954 4.000000
-0.290288 0.310921 -0.356983 4.000000
-0.290288 0.140134 -0.467592 4.000000
-0.290288 -0.108011 -0.480303 4.000000
-0.290288 -0.438502 -0.149009 4.000000
-0.290288 -0.299943 -0.373955 4.000000
-0.290288 0.426833 -0.204284 4.000000
-0.290288 0.334337 -0.307703 4.000000
-0.290288 -0.476987 0.006433 4.000000
-0.290288 -0.071644 0.476852 4.000000
-0.290288 0.413704 -0.220031 4.000000
-0.290288 0.230973 0.385410 4.000000
-0.290288 0.445455 -0.154112 4.000000
-0.290288 -0.047773 0.462463 4.000000
-0.290288 0.331149 -0.324855 4.000000
-0.290288 -0.468227 0.152971 4.000000
-0.290288 -0.418582 0.220218 4.000000
-0.290288 -0.017234 0.495220 4.000000
-0.290288 -0.040070 0.449124 4.000000
-0.290288 -0.081358 0.485056 4.000000
-0.290288 -0.415814 0.256598 4.000000
-0.290288 0.185344 -0.442802 4.000000
-0.290288 -0.166217 0.411023 4.000000
-0.290288 0.398550 0.296113 4.000000
-0.290288 0.208470 0.425256 4.000000
-0.290288 -0.419971 -0.245501 4.000000
-0.290288 -0.379762 -0.318910 4.000000
-0.290288 0.451729 0.038716 4.000000
-0.290288 0.062433 0.476146 4.000000
-0.290288 0.455636 -0.162000 4.000000
-0.290288 0.461201 0.166480 4.000000
-0.290288 -0.218863 -0.401244 4.000000
-0.290288 0.322006 -0.375605 4.000000
-0.290288 0.141739 0.428977 4.000000
-0.290288 0.268900 0.416924 4.000000
-0.290288 -0.419672 0.236294 4.000000
-0.290288 0.458549 -0.010331 4.000000
-0.290288 -0.413669 -0.188081 4.000000
-0.290288 -0.472054 -0.083779 4.000000
-0.290288 -0.421882 -0.216599 4.000000
-0.290288 0.164080 0.430279 4.000000
-0.290288 -0.034288 0.448131 4.000000
-0.290288 -0.158107 0.423024 4.000000
-0.290288 -0.136561 0.430113 4.000000
-0.290288 -0.162052 0.433378 4.000000
-0.290288 -0.307652 -0.332949 4.000000
-0.290288 -0.303086 0.353462 4.000000
-0.290288 -0.445705 -0.118626 4.000000
-0.290288 0.477161 -0.112531 4.000000
-0.290288 0.463085 -0.008261 4.000000
-0.290288 0.433688 -0.193004 4.000000
-0.290288 -0.151828 0.464037 4.000000
-0.290288 -0.050750 0.440747 4.000000
-0.290288 -0.470343 0.079556 4.000000
-0.290288 0.465360 -0.159337 4.000000
-0.290288 0.354061 0.341885 4.000000
-0.290288 0.317393 -0.330569 4.000000
-0.290288 0.248812 -0.419747 4.000000
-0.290288 0.339346 -0.314748 4.000000
-0.290288 -0.474218 0.077629 4.000000
-0.290288 -0.364118 0.309726 4.000000
-0.290288 0.296598 0.397797 4.000000
-0.290288 0.205913 0.403901 4.000000
-0.290288 0.475346 -0.026757 4.000000
-0.290288 -0.211404 0.406167 4.000000
-0.290288 -0.230737 -0.401046 4.000000
-0.290288 0.426269 -0.154315 4.000000
-0.290288 -0.404599 0.254466 4.000000
-0.290288 -0.123944 -0.449083 4.000000
-0.290288 -0.442965 -0.048161 4.000000
-0.290288 0.096295 -0.447747 4.000000
-0.290288 -0.416064 -0.192175 4.000000
-0.290288 0.216049 0.416846 4.000000
-0.290288 -0.223952 -0.429378 4.000000
-0.290288 -0.467889 -0.124947 4.000000
-0.290288 0.256919 0.404212 4.000000
-0.290288 -0.102083 -0.443625 4.000000
-0.290288 -0.464087 0.031746 4.000000
-0.290288 0.347976 0.318150 4.000000
-0.290288 0.463372 0.066607 4.000000
-0.290288 -0.118452 0.477249 4.000000
-0.290288 -0.458593 -0.091119 4.000000
-0.290288 0.491821 0.035550 4.000000
-0.290288 0.156589 -0.463845 4.000000
-0.290288 0.353216 -0.348522 4.000000
-0.290288 0.425809 0.221135 4.000000
-0.290288 0.368356 -0.295837 4.000000
-0.290288 -0.168850 0.428835 4.000000
-0.290288 0.270023 0.400123 4.000000
-0.290288 -0.153442 -0.427479 4.000000
-0.290288 -0.407949 -0.184421 4.000000
-0.290288 0.444577 -0.130693 4.000000
-0.290288 0.308657 0.387160 4.000000
-0.290288 -0.407251 -0.226728 4.000000
-0.290288 -0.412732 -0.228882 4.000000
-0.290288 -0.265239 -0.419603 4.000000
-0.290288 0.445804 -0.007807 4.000000
-0.290288 0.405474 0.205324 4.000000
-0.290288 0.479801 -0.006993 4.000000
-0.290288 0.476620 0.113139 4.000000
-0.290288 -0.219493 0.412914 4.000000
-0.290288 -0.465544 0.045545 4.000000
-0.290288 0.362574 -0.311599 4.000000
-0.290288 0.202024 -0.438313 4.000000
-0.290288 -0.283987 -0.396005 4.000000
-0.290288 -0.240567 0.387184 4.000000
-0.290288 -0.210892 -0.438990 4.000000
-0.290288 -0.360042 -0.321287 4.000000
-0.290288 -0.476244 0.129034 4.000000
-0.290288 0.327548 0.364744 4.000000
-0.290288 0.341588 -0.294717 4.000000
-0.290288 -0.272570 0.408895 4.000000
-0.290288 0.286088 -0.397367 4.000000
-0.290288 -0.443531 -0.116454 4.000000
-0.290288 0.356015 -0.315576 4.000000
-0.290288 0.047612 -0.460132 4.000000
-0.290288 -0.259990 -0.374654 4.000000
-0.290288 0.333523 -0.304067 4.000000
-0.290288 -0.439078 -0.194029 4.000000
-0.290288 -0.025023 0.490303 4.000000
-0.290288 0.390341 0.294729 4.000000
-0.290288 -0.443462 -0.037161 4.000000
-0.290288 0.279212 0.377543 4.000000
-0.290288 0.391627 -0.272860 4.000000
-0.290288 -0.319408 0.344093 4.000000
-0.290288 -0.141823 -0.442417 4.000000
-0.290288 0.438524 0.208803 4.000000
-0.290288 0.445116 0.138490 4.000000
-0.290288 0.063134 -0.460127 4.000000
-0.290288 0.016768 -0.499554 4.000000
-0.290288 -0.251603 -0.375161 4.000000
-0.290288 -0.040482 -0.454678 4.000000
-0.290288 -0.304566 -0.349125 4.000000
-0.290288 0.317517 0.367279 4.000000
-0.290288 -0.386389 0.309407 4.000000
-0.290288 0.283655 -0.377835 4.000000
-0.290288 0.221802 0.387025 4.000000
-0.290288 -0.346256 -0.303361 4.000000
-0.290288 -0.307100 0.361106 4.000000
-0.290288 -0.483612 0.111660 4.000000
-0.290288 -0.227557 -0.434413 4.000000
-0.290288 -0.171211 -0.462240 4.000000
-0.290288 -0.268904 0.372351 4.000000
-0.290288 -0.144973 0.446959 4.000000
-0.290288 0.034780 -0.484646 4.000000
-0.290288 -0.151632 -0.422839 4.000000
-0.290288 -0.470129 -0.065811 4.000000
-0.290288 0.346745 -0.332928 4.000000
-0.290288 -0.358734 -0.337796 4.000000
-0.290288 -0.071943 -0.494221 4.000000
-0.290288 0.397535 -0.253333 4.000000
-0.290288 0.380196 -0.300267 4.000000
-0.290288 0.306114 0.339645 4.000000
-0.290288 0.448652 -0.211052 4.000000
-0.290288 -0.398161 0.258126 4.000000
-0.290288 -0.450775 -0.004250 4.000000
-0.290288 -0.282245 -0.346828 4.000000
-0.290288 -0.194491 0.442182 4.000000
-0.290288 -0.109579 0.464403 4.000000
-0.290288 0.402459 0.232045 4.000000
-0.290288 0.414979 -0.271465 4.000000
-0.290288 -0.457368 -0.136186 4.000000
-0.290288 0.487480 0.073734 4.000000
-0.290288 0.173441 -0.453460 4.000000
-0.290288 -0.416405 -0.197962 4.000000
-0.290288 -0.441618 0.203809 4.000000
-0.290288 -0.244420 0.395447 4.000000
-0.290288 0.351267 0.313058 4.000000
-0.290288 0.473274 -0.114489 4.000000
-0.290288 0.442835 -0.199693 4.000000
-0.290288 0.113660 -0.434101 4.000000
-0.290288 0.402296 -0.229068 4.000000
-0.290288 0.057779 -0.472992 4.000000
-0.290288 0.160640 0.441701 4.000000
-0.290288 0.037207 -0.497371 4.000000
-0.290288 0.267920 0.397400 4.000000
-0.290288 0.451357 0.012485 4.000000
-0.290288 -0.028388 0.466536 4.000000
-0.290288 -0.490486 0.041228 4.000000
-0.290288 0.198778 0.402223 4.000000
-0.290288 0.469380 0.113596 4.000000
-0.290288 0.093506 0.456617 4.000000
-0.290288 0.455130 -0.008654 4.000000
-0.290288 -0.421538 -0.154635 4.000000
-0.290288 -0.423733 -0.161790 4.000000
-0.290288 -0.443230 -0.041497 4.000000
-0.290288 0.478286 0.108367 4.000000
-0.290288 -0.452024 -0.187078 4.000000
-0.290288 0.405519 -0.258408 4.000000
-0.290288 -0.484804 -0.111558 4.000000
-0.290288 0.430271 0.152565 4.000000
-0.290288 0.392819 0.208762 4.000000
-0.290288 0.458705 0.187762 4.000000
-0.290288 0.113272 0.434372 4.000000
-0.290288 -0.457689 0.017511 4.000000
-0.290288 -0.457707 0.086612 4.000000
-0.290288 0.376132 0.280101 4.000000
-0.290288 0.439849 -0.083672 4.000000
-0.290288 -0.324709 0.339749 4.000000
-0.290288 -0.170157 0.447811 4.000000
-0.290288 0.323847 0.363575 4.000000
-0.290288 -0.419194 0.240594 4.000000
-0.290288 0.249432 0.415819 4.000000
-0.290288 -0.423683 0.157445 4.000000
-0.290288 0.306739 -0.358257 4.000000
-0.290288 0.343647 -0.335220 4.000000
-0.290288 0.256785 0.418493 4.000000
-0.290288 -0.452732 0.032116 4.000000
-0.290288 -0.396758 0.231640 4.000000
-0.290288 -0.228824 -0.440792 4.000000
-0.290288 0.478990 0.000929 4.000000
-0.290288 -0.373776 -0.265161 4.000000
-0.290288 0.412523 -0.191987 4.000000
-0.290288 -0.282307 -0.381881 4.000000
-0.290288 0.122171 0.442380 4.000000
-0.290288 -0.405454 -0.186610 4.000000
-0.290288 0.273126 -0.413543 4.000000
-0.290288 -0.063297 -0.462367 4.000000
-0.290288 -0.442453 0.047603 4.000000
-0.290288 0.024381 0.455954 4.000000
-0.290288 -0.142744 0.461782 4.000000
-0.290288 0.403935 0.214049 4.000000
-0.290288 0.483894 -0.103808 4.000000
-0.290288 0.081831 -0.480282 4.000000
-0.290288 0.292588 -0.385151 4.000000
-0.290288 0.152031 -0.449028 4.000000
-0.290288 0.280154 0.360302 4.000000
-0.290288 -0.445761 0.151224 4.000000
-0.290288 0.403538 0.201952 4.000000
-0.290288 -0.469498 0.119255 4.000000
-0.290288 -0.097396 -0.451306 4.000000
-0.290288 -0.436799 0.183972 4.000000
-0.290288 0.422715 0.149808 4.000000
-0.290288 -0.328788 0.307373 4.000000
-0.290288 -0.025475 0.460002 4.000000
-0.290288 -0.426843 0.145967 4.000000
-0.290288 0.440241 -0.188189 4.000000
-0.290288 -0.447522 -0.047172 4.000000
-0.290288 0.320470 -0.312282 4.000000
-0.290288 -0.467035 -0.044899 4.000000
-0.290288 -0.212598 -0.404885 4.000000
-0.290288 -0.269038 -0.382457 4.000000
-0.290288 -0.466482 -0.040919 4.000000
-0.290288 -0.411311 0.216604 4.000000
-0.290288 0.345551 0.355870 4.000000
-0.290288 -0.440832 0.149468 4.000000
-0.290288 -0.266339 0.391057 4.000000
-0.290288 0.347559 -0.356634 4.000000
-0.290288 -0.225179 -0.405378 4.000000
-0.290288 0.382364 0.285289 4.000000
-0.290288 -0.155831 -0.462240 4.000000
-0.290288 -0.057515 -0.454459 4.000000
-0.290288 -0.115152 -0.459750 4.000000
-0.290288 -0.467425 0.149542 4.000000
-0.290288 0.180005 -0.453824 4.000000
-0.290288 -0.455937 -0.083349 4.000000
-0.290288 -0.194923 -0.451177 4.000000
-0.290288 0.107592 0.474192 4.000000
-0.290288 -0.317218 -0.328450 4.000000
-0.290288 -0.443001 0.076553 4.000000
-0.290288 0.292587 0.367443 4.000000
-0.290288 -0.474349 0.091836 4.000000
-0.290288 -0.467656 -0.024872 4.000000
-0.290288 -0.095408 0.442520 4.000000
-0.290288 0.439560 -0.143862 4.000000
-0.290288 0.088264 -0.471256 4.000000
-0.290288 0.232320 0.430792 4.000000
-0.290288 0.098373 0.460268 4.000000
-0.290288 0.478337 0.047139 4.000000
-0.290288 -0.071626 -0.448268 4.000000
-0.290288 -0.250173 -0.406192 4.000000
-0.290288 0.341879 0.313217 4.000000
-0.290288 -0.431542 0.121414 4.000000
-0.290288 0.466283 -0.004417 4.000000
-0.290288 -0.339030 -0.317851 4.000000
-0.290288 0.461172 0.059489 4.000000
-0.290288 0.423606 -0.190657 4.000000
-0.290288 0.086931 0.463585 4.000000
-0.290288 -0.287874 0.398189 4.000000
-0.290288 0.216334 0.443397 4.000000
-0.290288 0.103242 -0.462926 4.000000
-0.290288 0.411824 0.200277 4.000000
-0.290288 -0.495892 -0.040362 4.000000
-0.290288 -0.143794 0.467462 4.000000
-0.290288 -0.493250 0.062790 4.000000
-0.290288 -0.458304 0.060340 4.000000
-0.290288 -0.084190 -0.470095 4.000000
-0.290288 0.094512 -0.467092 4.000000
-0.290288 0.246730 0.390196 4.000000
-0.290288 -0.231936 -0.415527 4.000000
-0.290288 -0.438004 -0.205507 4.000000
-0.290288 0.371868 0.253904 4.000000
-0.290288 0.318214 -0.341879 4.000000
-0.290288 0.477231 -0.062053 4.000000
-0.290288 0.164625 0.459673 4.000000
-0.290288 -0.476791 0.026105 4.000000
-0.290288 -0.343766 -0.300357 4.000000
-0.290288 -0.335998 -0.299059 4.000000
-0.290288 0.380744 0.263288 4.000000
-0.290288 -0.433958 -0.189647 4.000000
-0.290288 0.306999 0.379174 4.000000
-0.290288 0.084353 -0.478379 4.000000
-0.290288 -0.354224 -0.326722 4.000000
-0.290288 0.205389 -0.408424 4.000000
-0.290288 0.373191 -0.274688 4.000000
-0.290288 0.375655 0.306457 4.000000
-0.290288 0.492102 -0.080651 4.000000
-0.290288 -0.045151 -0.475302 4.000000
-0.290288 0.105426 0.460212 4.000000
-0.290288 0.361472 0.263386 4.000000
-0.290288 0.334332 -0.324161 4.000000
-0.290288 0.465675 0.092199 4.000000
-0.290288 -0.210082 0.392359 4.000000
-0.290288 -0.034172 0.441888 4.000000
-0.290288 0.202751 0.447907 4.000000
-0.290288 -0.284421 0.366295 4.000000
-0.290288 -0.422231 0.200379 4.000000
-0.290288 0.020249 0.482618 4.000000
-0.290288 -0.425435 -0.248890 4.000000
-0.290288 -0.468513 0.107764 4.000000
-0.290288 -0.398806 0.295581 4.000000
-0.290288 -0.328727 0.318269 4.000000
-0.290288 0.380032 0.318809 4.000000
-0.290288 0.408199 0.195216 4.000000
-0.290288 0.093105 -0.453799 4.000000
-0.290288 0.157232 0.414722 4.000000
-0.290288 -0.252354 -0.391802 4.000000
-0.290288 0.405116 -0.191574 4.000000
-0.290288 -0.165413 -0.465331 4.000000
-0.290288 -0.128520 0.426044 4.000000
-0.290288 0.097268 -0.456556 4.000000
-0.290288 0.047198 0.440849 4.000000
-0.290288 -0.010679 0.495499 4.000000
-0.290288 -0.434111 -0.138413 4.000000
-0.290288 0.189449 0.457764 4.000000
-0.290288 0.436835 -0.208461 4.000000
-0.290288 -0.308189 0.326229 4.000000
-0.290288 -0.352930 0.268893 4.000000
-0.290288 -0.210049 0.447574 4.000000
-0.290288 -0.475380 0.057206 4.000000
-0.290288 0.228776 0.417772 4.000000
-0.290288 0.141114 -0.470949 4.000000
-0.290288 0.141188 0.473022 4.000000
-0.290288 0.459988 -0.003871 4.000000
-0.290288 0.183194 0.408832 4.000000
-0.290288 0.485187 -0.084447 4.000000
-0.290288 0.323877 -0.323290 4.000000
-0.290288 -0.376540 0.295825 4.000000
-0.290288 0.483440 -0.012900 4.000000
-0.290288 -0.375462 0.256125 4.000000
-0.290288 -0.121108 0.464671 4.000000
-0.290288 0.218484 -0.400663 4.000000
-0.290288 0.189130 -0.430404 4.000000
-0.290288 0.224549 0.398047 4.000000
-0.290288 -0.052670 0.450134 4.000000
-0.290288 -0.438226 -0.079397 4.000000
-0.290288 0.449395 0.207007 4.000000
-0.290288 0.335039 -0.361806 4.000000
-0.290288 0.458012 0.093515 4.000000
-0.290288 -0.308161 -0.383801 4.000000
-0.290288 0.155850 -0.426004 4.000000
-0.290288 0.395630 -0.274173 4.000000
-0.290288 0.492698 -0.077194 4.000000
-0.290288 -0.426963 -0.204150 4.000000
-0.290288 0.107562 0.480878 4.000000
-0.290288 0.247326 -0.434329 4.000000
-0.290288 -0.488565 0.085191 4.000000
-0.290288 0.038179 -0.477912 4.000000
-0.290288 0.425347 -0.211913 4.000000
-0.290288 0.416032 -0.177366 4.000000
-0.290288 0.002873 -0.461552 4.000000
-0.290288 -0.248407 -0.419607 4.000000
-0.290288 -0.435354 -0.099062 4.000000
-0.290288 -0.332737 0.311138 4.000000
-0.290288 0.065542 0.474732 4.000000
-0.290288 0.001615 0.461839 4.000000
-0.290288 -0.091581 0.476168 4.000000
-0.290288 0.199980 -0.441119 4.000000
-0.290288 -0.426655 -0.254151 4.000000
-0.290288 -0.300395 0.377564 4.000000
-0.290288 -0.420063 0.203411 4.000000
-0.290288 0.104079 -0.485135 4.000000
-0.290288 -0.451535 0.205406 4.000000
-0.290288 -0.349145 0.333060 4.000000
-0.290288 -0.302303 0.373922 4.000000
-0.290288 -0.221161 0.439293 4.000000
-0.290288 0.440788 0.115010 4.000000
-0.290288 -0.370002 -0.300866 4.000000
-0.290288 0.422813 0.190634 4.000000
-0.290288 -0.053557 -0.475221 4.000000
-0.290288 -0.200810 -0.427706 4.000000
-0.290288 0.178454 -0.448470 4.000000
-0.290288 0.470398 0.105086 4.000000
-0.290288 -0.159152 -0.466771 4.000000
-0.290288 0.464664 -0.136479 4.000000
-0.290288 0.089745 -0.452590 4.000000
-0.290288 -0.487612 -0.077740 4.000000
-0.290288 -0.233186 0.437292 4.000000
-0.290288 0.339553 -0.291931 4.000000
-0.290288 -0.253353 -0.403809 4.000000
-0.290288 0.447836 -0.103016 4.000000
-0.290288 -0.168167 -0.463190 4.000000
-0.290288 0.410429 -0.262198 4.000000
-0.290288 0.453627 -0.151166 4.000000
-0.290288 -0.476729 0.104289 4.000000
-0.290288 0.350926 -0.321469 4.000000
-0.290288 -0.207542 0.408848 4.000000
-0.290288 0.295858 -0.387599 4.000000
-0.290288 0.072177 -0.478244 4.000000
-0.290288 0.462363 -0.033561 4.000000
-0.290288 0.454199 -0.057924 4.000000
-0.290288 -0.205040 -0.411318 4.000000
-0.290288 0.080218 0.489295 4.000000
-0.290288 -0.391169 0.289081 4.000000
-0.290288 0.441863 0.089519 4.000000
-0.290288 0.092474 -0.461023 4.000000
-0.290288 0.390370 0.219652 4.000000
-0.290288 -0.458298 0.023046 4.000000
-0.290288 0.422343 0.261014 4.000000
-0.290288 0.377443 -0.266136 4.000000
-0.290288 -0.218435 -0.405351 4.000000
-0.290288 0.155144 -0.432067 4.000000
-0.290288 -0.068344 -0.463240 4.000000
-0.290288 -0.258268 -0.408398 4.000000
-0.290288 -0.280238 -0.411924 4.000000
-0.290288 0.012101 0.451663 4.000000
-0.290288 -0.222412 0.442505 4.000000
-0.290288 0.294836 0.362595 4.000000
-0.290288 0.297834 -0.355556 4.000000
-0.290288 -0.422449 0.224685 4.000000
-0.290288 0.279244 0.349573 4.000000
-0.290288 0.402127 -0.287845 4.000000
-0.290288 -0.478492 -0.064594 4.000000
-0.290288 0.127534 0.432384 4.000000
-0.290288 0.175089 0.456554 4.000000
-0.290288 -0.453534 0.080467 4.000000
-0.290288 -0.014563 -0.452235 4.000000
-0.290288 -0.450679 0.027731 4.000000
-0.290288 0.070011 0.460476 4.000000
-0.290288 0.412243 -0.231806 4.000000
-0.290288 0.260529 0.388263 4.000000
-0.290288 -0.469072 0.141254 4.000000
-0.290288 0.287454 0.346067 4.000000
-0.290288 -0.394619 0.206783 4.000000
-0.290288 -0.264217 -0.374793 4.000000
-0.290288 -0.104714 0.464190 4.000000
-0.290288 0.070619 -0.461460 4.000000
-0.290288 -0.120029 -0.479036 4.000000
-0.290288 -0.219491 0.405102 4.000000
-0.290288 0.411188 0.231537 4.000000
-0.290288 0.423802 0.250434 4.000000
-0.290288 0.063505 -0.447365 4.000000
-0.290288 -0.380774 -0.293237 4.000000
-0.290288 0.436422 0.199170 4.000000
-0.290288 -0.404644 -0.190521 4.000000
-0.290288 0.086970 -0.466309 4.000000
-0.290288 0.393794 -0.252971 4.000000
-0.290288 0.058268 -0.469399 4.000000
-0.290288 -0.478227 0.037299 4.000000
-0.290288 0.408339 0.180588 4.000000
-0.290288 0.476123 0.041904 4.000000
-0.290288 0.289180 -0.367643 4.000000
-0.290288 0.478169 -0.017091 4.000000
-0.290288 0.458606 -0.196757 4.000000
-0.290288 -0.366034 0.256047 4.000000
-0.290288 -0.099510 -0.446442 4.000000
-0.290288 -0.340745 -0.363770 4.000000
-0.290288 -0.494255 -0.056549 4.000000
-0.290288 0.455510 -0.071805 4.000000
-0.290288 -0.151532 -0.473562 4.000000
-0.290288 -0.177740 0.446680 4.000000
-0.290288 -0.058262 -0.474000 4.000000
-0.290288 -0.353772 -0.293192 4.000000
-0.290288 0.101901 -0.436771 4.000000
-0.290288 0.266623 0.406301 4.000000
-0.290288 -0.356286 0.272691 4.000000
-0.290288 -0.245862 -0.387063 4.000000
-0.290288 0.373065 0.302540 4.000000
-0.290288 0.466932 -0.092758 4.000000
-0.290288 -0.450782 0.043479 4.000000
-0.290288 -0.447129 0.099124 4.000000
-0.290288 0.168930 0.437344 4.000000
-0.290288 0.222080 -0.436023 4.000000
-0.290288 -0.401430 -0.289589 4.000000
-0.290288 0.439909 0.072368 4.000000
-0.290288 0.030845 0.482772 4.000000
-0.290288 0.257998 0.376221 4.000000
-0.290288 -0.294931 -0.385386 4.000000
-0.290288 0.257029 0.383895 4.000000
-0.290288 -0.083795 0.488562 4.000000
-0.290288 0.116241 0.442005 4.000000
-0.290288 -0.257143 -0.386268 4.000000
-0.290288 -0.097420 -0.465268 4.000000
-0.290288 0.441863 0.140102 4.000000
-0.290288 0.386371 0.244730 4.000000
-0.290288 0.471070 -0.036416 4.000000
-0.290288 0.305802 -0.369033 4.000000
-0.290288 -0.342202 0.340557 4.000000
-0.290288 0.298782 0.355835 4.000000
-0.290288 -0.049657 0.459910 4.000000
-0.290288 0.374230 -0.262801 4.000000
-0.290288 0.209539 -0.424049 4.000000
-0.290288 -0.128963 0.457924 4.000000
-0.290288 -0.414058 -0.175926 4.000000
-0.290288 0.378685 0.295570 4.000000
-0.290288 -0.445478 0.133291 4.000000
-0.290288 0.378981 -0.249351 4.000000
-0.290288 0.186215 -0.457518 4.000000
-0.290288 -0.357997 -0.286987 4.000000
-0.290288 -0.027140 -0.484738 4.000000
-0.290288 0.435873 -0.140644 4.000000
-0.290288 -0.437710 -0.170984 4.000000
-0.290288 -0.457134 -0.178061 4.000000
-0.290288 0.001725 0.451132 4.000000
-0.290288 -0.443940 -0.106093 4.000000
-0.290288 -0.442624 0.153205 4.000000
-0.290288 -0.242232 -0.385890 4.000000
-0.290288 -0.359905 0.327847 4.000000
-0.290288 -0.045777 -0.461836 4.000000
-0.290288 0.049486 0.465479 4.000000
-0.290288 0.035662 -0.450429 4.000000
-0.290288 0.020825 0.468734 4.000000
-0.290288 -0.440163 -0.107534 4.000000
-0.290288 -0.396457 -0.205153 4.000000
-0.290288 0.487909 0.065506 4.000000
-0.290288 0.420150 0.209057 4.000000
-0.290288 -0.107024 0.458239 4.000000
-0.290288 0.420397 0.200877 4.000000
-0.290288 0.429367 0.127190 4.000000
-0.290288 0.298403 -0.400245 4.000000
-0.290288 0.382758 0.254651 4.000000
-0.290288 -0.381696 -0.230917 4.000000
-0.290288 0.123653 -0.459482 4.000000
-0.290288 -0.437631 0.080564 4.000000
-0.290288 -0.454662 -0.063360 4.000000
-0.290288 0.036314 0.492813 4.000000
-0.290288 -0.300551 -0.346055 4.000000
-0.290288 0.256873 0.387324 4.000000
-0.290288 -0.084836 0.471267 4.000000
-0.290288 0.365009 0.292861 4.000000
-0.290288 0.256263 0.395519 4.000000
-0.290288 0.467626 -0.143955 4.000000
-0.290288 -0.007918 -0.452244 4.000000
-0.290288 0.058333 0.451106 4.000000
-0.290288 0.387134 -0.250838 4.000000
-0.290288 -0.436776 0.085269 4.000000
-0.290288 -0.059289 -0.446066 4.000000
-0.290288 -0.488294 -0.004365 4.000000
-0.290288 0.181248 0.425366 4.000000
-0.290288 0.246494 0.430787 4.000000
-0.290288 0.485538 -0.062347 4.000000
-0.290288 0.240655 -0.398410 4.000000
-0.290288 -0.298199 0.371388 4.000000
-0.290288 -0.344495 0.312115 4.000000
-0.290288 -0.048903 0.450184 4.000000
-0.290288 0.431655 0.116528 4.000000
-0.290288 -0.327530 -0.314272 4.000000
-0.290288 -0.402895 0.273160 4.000000
-0.290288 0.443584 -0.144675 4.000000
-0.290288 -0.401875 0.290990 4.000000
-0.290288 -0.484771 0.078711 4.000000
-0.290288 0.066949 -0.460747 4.000000
-0.290288 0.493042 -0.002550 4.000000
-0.290288 0.234435 0.382697 4.000000
-0.290288 -0.160803 0.425180 4.000000
-0.290288 0.178944 -0.413661 4.000000
-0.290288 0.409798 -0.186744 4.000000
-0.290288 0.491391 0.061051 4.000000
-0.290288 0.433970 0.107845 4.000000
-0.290288 -0.094362 0.473932 4.000000
-0.290288 0.358348 0.341135 4.000000
-0.290288 -0.457316 -0.162734 4.000000
-0.290288 0.355593 0.338755 4.000000
-0.290288 0.160185 -0.427551 4.000000
-0.290288 -0.218354 -0.428037 4.000000
-0.290288 -0.224337 -0.396746 4.000000
-0.290288 -0.468297 -0.014160 4.000000
-0.290288 0.201628 0.426539 4.000000
-0.290288 -0.272170 -0.402130 4.000000
-0.290288 0.193034 0.441174 4.000000
-0.290288 -0.249101 0.416669 4.000000
-0.290288 0.482254 -0.088264 4.000000
-0.290288 0.454501 0.150496 4.000000
-0.290288 -0.445127 -0.059424 4.000000
-0.290288 0.482709 0.030734 4.000000
-0.290288 0.443687 0.099165 4.000000
-0.290288 0.423067 -0.230152 4.000000
-0.290288 -0.274196 0.352464 4.000000
-0.290288 0.035498 0.479546 4.000000
-0.290288 0.489732 0.087606 4.000000
-0.290288 0.268075 0.381010 4.000000
-0.290288 -0.461376 0.134092 4.000000
-0.290288 0.399191 -0.265010 4.000000
-0.290288 0.210563 -0.428737 4.000000
-0.290288 -0.379167 -0.243047 4.000000
-0.290288 -0.092324 0.447994 4.000000
-0.290288 0.269736 -0.420182 4.000000
-0.290288 0.425122 0.214455 4.000000
-0.290288 0.145948 0.427239 4.000000
-0.290288 -0.313835 0.330088 4.000000
-0.290288 -0.468795 0.017626 4.000000
-0.290288 -0.159827 -0.417704 4.000000
-0.290288 0.426737 0.129713 4.000000
-0.290288 0.433306 0.225055 4.000000
-0.290288 0.426443 -0.165255 4.000000
-0.290288 -0.359581 0.283736 4.000000
-0.290288 -0.483386 -0.054455 4.000000
-0.290288 -0.268243 -0.403075 4.000000
-0.290288 -0.445053 0.197900 4.000000
-0.290288 -0.054421 0.468287 4.000000
-0.290288 -0.159923 -0.448789 4.000000
-0.290288 0.095577 -0.460978 4.000000
-0.290288 0.457080 -0.184110 4.000000
-0.290288 0.413255 -0.188425 4.000000
-0.290288 -0.374448 0.263823 4.000000
-0.290288 -0.466397 0.010632 4.000000
-0.290288 0.084850 -0.444316 4.000000
-0.290288 0.006404 0.458095 4.000000
-0.290288 -0.200351 -0.457044 4.000000
-0.290288 0.318687 -0.361358 4.000000
-0.290288 -0.331672 0.319590 4.000000
-0.290288 0.082261 0.480430 4.000000
-0.290288 -0.110684 0.470981 4.000000
-0.290288 -0.465234 -0.010737 4.000000
-0.290288 0.008737 0.465031 4.000000
-0.290288 0.436610 -0.203910 4.000000
-0.290288 0.123037 0.433443 4.000000
