-0.290288 -0.446584 -0.021370 4.000000
-0.290288 -0.462080 0.010491 4.000000
-0.290288 0.201421 -0.440274 4.000000
-0.290288 0.356838 0.282283 4.000000
-0.290288 0.428059 0.136292 4.000000
-0.290288 0.236704 0.425034 4.000000
-0.290288 -0.128752 -0.471920 4.000000
-0.290288 0.455506 0.199707 4.000000
-0.290288 -0.133919 -0.428191 4.000000
-0.290288 0.152489 -0.457063 4.000000
-0.290288 -0.406017 0.194668 4.000000
-0.290288 -0.160038 -0.461950 4.000000
-0.290288 0.337958 0.363953 4.000000
-0.290288 0.395714 0.243015 4.000000
-0.290288 0.131153 -0.469196 4.000000
-0.290288 -0.462825 0.151322 4.000000
-0.290288 0.130687 0.440405 4.000000
-0.290288 0.033389 0.452900 4.000000
-0.290288 0.433310 0.152600 4.000000
-0.290288 -0.200476 0.397864 4.000000
-0.290288 0.448871 0.120305 4.000000
-0.290288 -0.410570 -0.196072 4.000000
-0.290288 -0.415724 0.158194 4.000000
-0.290288 -0.390837 0.210827 4.000000
-0.290288 0.317828 0.337359 4.000000
-0.290288 0.311458 -0.376432 4.000000
-0.290288 0.095245 -0.466080 4.000000
-0.290288 0.345995 -0.333030 4.000000
-0.290288 0.471940 -0.150730 4.000000
-0.290288 -0.194662 0.430014 4.000000
-0.290288 -0.143929 -0.453638 4.000000
-0.290288 0.212982 -0.401313 4.000000
-0.290288 0.026830 0.450167 4.000000
-0.290288 0.460224 -0.086306 4.000000
-0.290288 0.382505 -0.319419 4.000000
-0.290288 -0.285607 -0.405517 4.000000
-0.290288 0.284894 0.354567 4.000000
-0.290288 0.400600 0.208517 4.000000
-0.290288 0.005061 0.480939 4.000000
-0.290288 -0.442395 -0.204362 4.000000
-0.290288 -0.068842 0.453924 4.000000
-0.290288 0.223612 0.407153 4.000000
-0.290288 0.397587 -0.264193 4.000000
-0.290288 -0.330981 0.302101 4.000000
-0.290288 0.088464 -0.450906 4.000000
-0.290288 -0.364631 -0.309427 4.000000
-0.290288 -0.137151 0.446792 4.000000
-0.290288 -0.249063 0.370559 4.000000
-0.290288 -0.256286 0.407269 4.000000
-0.290288 0.103231 0.465872 4.000000
-0.290288 -0.355813 0.300564 4.000000
-0.290288 -0.207790 0.405746 4.000000
-0.290288 -0.387303 0.243269 4.000000
-0.290288 0.474248 -0.044399 4.000000
-0.290288 -0.204352 0.436441 4.000000
-0.290288 0.474680 0.087816 4.000000
-0.290288 -0.324337 0.316476 4.000000
-0.290288 0.362982 -0.320251 4.000000
-0.290288 0.447745 -0.220812 4.000000
-0.290288 -0.463577 -0.127148 4.000000
-0.290288 0.368222 -0.325603 4.000000
-0.290288 -0.007161 0.447480 4.000000
-0.290288 -0.411325 0.225651 4.000000
-0.290288 0.279344 -0.370950 4.000000
-0.290288 -0.129732 -0.444249 4.000000
-0.290288 0.470905 0.045178 4.000000
-0.290288 -0.274710 0.395249 4.000000
-0.290288 -0.480127 -0.117254 4.000000
-0.290288 -0.298324 -0.385817 4.000000
-0.290288 0.225744 0.411038 4.000000
-0.290288 0.416387 -0.248829 4.000000
-0.290288 -0.435774 -0.211500 4.000000
-0.290288 -0.304828 -0.336493 4.000000
-0.290288 0.334195 -0.323545 4.000000
-0.290288 -0.254501 0.402300 4.000000
-0.290288 0.275536 -0.376170 4.000000
-0.290288 0.455524 0.052800 4.000000
-0.290288 -0.488629 0.088228 4.000000
-0.290288 0.083314 -0.439837 4.000000
-0.290288 0.436783 -0.140319 4.000000
-0.290288 -0.209899 0.425613 4.000000
-0.290288 0.236104 0.394636 4.000000
-0.290288 -0.463379 0.141747 4.000000
-0.290288 -0.368657 0.246712 4.000000
-0.290288 -0.398940 0.203677 4.000000
-0.290288 -0.474665 -0.064435 4.000000
-0.290288 0.419281 0.258016 4.000000
-0.290288 -0.408995 0.251804 4.000000
-0.290288 -0.471335 0.083984 4.000000
-0.290288 -0.243788 0.409700 4.000000
-0.290288 0.289769 -0.372173 4.000000
-0.290288 0.465643 0.166283 4.000000
-0.290288 -0.059701 -0.465399 4.000000
-0.290288 -0.132893 0.445987 4.000000
-0.290288 -0.188275 0.444198 4.000000
-0.290288 -0.130351 -0.427986 4.000000
-0.290288 -0.417805 -0.175471 4.000000
-0.290288 0.319140 0.372184 4.000000
-0.290288 -0.449785 0.004813 4.000000
-0.290288 0.308882 -0.332397 4.000000
-0.290288 -0.479111 0.014803 4.000000
-0.290288 0.390583 0.226141 4.000000
-0.290288 -0.083168 0.488197 4.000000
-0.290288 -0.313366 -0.357625 4.000000
-0.290288 0.184086 -0.440289 4.000000
-0.290288 -0.430632 0.134603 4.000000
-0.290288 -0.345576 -0.342358 4.000000
-0.290288 -0.248985 -0.376951 4.000000
-0.290288 -0.434541 -0.218297 4.000000
-0.290288 -0.268248 -0.414920 4.000000
-0.290288 -0.478283 0.054016 4.000000
-0.290288 0.170980 -0.441122 4.000000
-0.290288 0.472726 -0.113680 4.000000
-0.290288 -0.132818 -0.463752 4.000000
-0.290288 0.223125 0.414185 4.000000
-0.290288 -0.430095 -0.177265 4.000000
-0.290288 -0.321951 0.360095 4.000000
-0.290288 0.336300 -0.345405 4.000000
-0.290288 0.451505 -0.038129 4.000000
-0.290288 0.335883 -0.342018 4.000000
-0.290288 0.484177 0.051540 4.000000
-0.290288 0.405256 0.194373 4.000000
-0.290288 -0.472857 -0.137899 4.000000
-0.290288 0.153573 0.471646 4.000000
-0.290288 0.393899 -0.241776 4.000000
-0.290288 -0.405221 -0.277954 4.000000
-0.290288 -0.022346 0.488283 4.000000
-0.290288 -0.304452 0.345309 4.000000
-0.290288 -0.183091 -0.412463 4.000000
-0.290288 -0.171758 0.424257 4.000000
-0.290288 0.427744 -0.184557 4.000000
-0.290288 0.332829 -0.350184 4.000000
-0.290288 0.320301 -0.383705 4.000000
-0.290288 0.152152 0.425811 4.000000
-0.290288 -0.407113 -0.242062 4.000000
-0.290288 -0.438722 -0.078252 4.000000
-0.290288 -0.220661 0.435913 4.000000
-0.290288 0.307192 -0.339055 4.000000
-0.290288 -0.466774 0.022098 4.000000
-0.290288 -0.008144 0.462285 4.000000
-0.290288 0.279123 -0.395574 4.000000
-0.290288 -0.004185 -0.481007 4.000000
-0.290288 -0.292332 0.373814 4.000000
-0.290288 -0.431218 -0.118299 4.000000
-0.290288 0.211116 -0.405648 4.000000
-0.290288 0.078988 0.469496 4.000000
-0.290288 0.087955 0.457346 4.000000
-0.290288 0.287704 0.367418 4.000000
-0.290288 0.165962 0.450305 4.000000
-0.290288 -0.304989 0.370086 4.000000
-0.290288 0.164765 0.421812 4.000000
-0.290288 0.267252 0.360587 4.000000
-0.290288 -0.033735 0.444417 4.000000
-0.290288 -0.144043 -0.446142 4.000000
-0.290288 -0.468289 -0.019883 4.000000
-0.290288 -0.273285 -0.376431 4.000000
-0.290288 0.204328 0.433353 4.000000
-0.290288 0.077665 0.461794 4.000000
-0.290288 -0.057379 0.458122 4.000000
-0.290288 0.263963 -0.386754 4.000000
-0.290288 0.344814 0.319794 4.000000
-0.290288 -0.414132 -0.183566 4.000000
-0.290288 -0.003279 -0.496617 4.000000
-0.290288 0.299080 0.371270 4.000000
-0.290288 -0.139524 -0.469117 4.000000
-0.290288 0.456890 -0.024336 4.000000
-0.290288 -0.429671 -0.142197 4.000000
-0.290288 -0.234531 0.385441 4.000000
-0.290288 0.446319 -0.082325 4.000000
-0.290288 -0.182612 -0.436718 4.000000
-0.290288 -0.435793 -0.154661 4.000000
-0.290288 -0.421243 -0.238900 4.000000
-0.290288 -0.278833 -0.410280 4.000000
-0.290288 -0.421556 0.141103 4.000000
-0.290288 -0.248364 0.396125 4.000000
-0.290288 -0.191689 -0.408700 4.000000
-0.290288 0.078699 -0.457546 4.000000
-0.290288 0.300661 -0.353489 4.000000
-0.290288 -0.494038 -0.015433 4.000000
-0.290288 -0.057789 -0.445793 4.000000
-0.290288 -0.454003 0.162588 4.000000
-0.290288 0.449591 -0.084007 4.000000
-0.290288 -0.148592 0.455494 4.000000
-0.290288 -0.471734 -0.085328 4.000000
-0.290288 -0.455498 0.113870 4.000000
-0.290288 0.196953 0.409027 4.000000
-0.290288 -0.377956 0.248401 4.000000
-0.290288 0.119486 -0.454021 4.000000
-0.290288 -0.365194 -0.291713 4.000000
-0.290288 0.356640 -0.278957 4.000000
-0.290288 0.199891 -0.400769 4.000000
-0.290288 -0.063927 0.442024 4.000000
-0.290288 -0.302438 -0.328822 4.000000
-0.290288 -0.325141 -0.322724 4.000000
-0.290288 0.161832 0.427353 4.000000
-0.290288 0.448481 -0.079364 4.000000
-0.290288 0.444584 -0.036277 4.000000
-0.290288 -0.014337 0.442928 4.000000
-0.290288 -0.255016 -0.403089 4.000000
-0.290288 -0.397878 -0.290892 4.000000
-0.290288 0.455255 0.018866 4.000000
-0.290288 -0.469438 0.133001 4.000000
-0.290288 -0.296735 0.375309 4.000000
-0.290288 0.157210 0.444224 4.000000
-0.290288 0.065438 -0.465508 4.000000
-0.290288 0.294161 -0.351919 4.000000
-0.290288 -0.479166 -0.015646 4.000000
-0.290288 0.389622 0.244996 4.000000
-0.290288 0.444273 -0.221798 4.000000
-0.290288 -0.157594 -0.471535 4.000000
-0.290288 0.063487 0.466611 4.000000
-0.290288 0.450439 -0.147745 4.000000
-0.290288 -0.139625 -0.455403 4.000000
-0.290288 -0.363207 -0.327716 4.000000
-0.290288 -0.169100 -0.454064 4.000000
-0.290288 -0.012457 -0.458483 4.000000
-0.290288 0.018726 -0.464227 4.000000
-0.290288 -0.186188 -0.418386 4.000000
-0.290288 -0.350149 -0.331536 4.000000
-0.290288 0.135703 -0.430712 4.000000
-0.290288 -0.090624 -0.482270 4.000000
-0.290288 0.071767 0.439734 4.000000
-0.290288 -0.288825 -0.386838 4.000000
-0.290288 0.433235 0.203365 4.000000
-0.290288 0.460456 -0.000803 4.000000
-0.290288 0.129946 -0.454235 4.000000
-0.290288 -0.466239 0.149584 4.000000
-0.290288 -0.259711 0.394394 4.000000
-0.290288 0.183627 0.437773 4.000000
-0.290288 -0.227259 0.423559 4.000000
-0.290288 0.479939 -0.114191 4.000000
-0.290288 -0.092590 -0.444919 4.000000
-0.290288 -0.470189 -0.037385 4.000000
-0.290288 0.254242 0.367373 4.000000
-0.290288 -0.332267 -0.361968 4.000000
-0.290288 -0.401618 -0.217188 4.000000
-0.290288 -0.212904 -0.404149 4.000000
-0.290288 -0.306973 -0.326227 4.000000
-0.290288 0.465086 0.149045 4.000000
-0.290288 0.393280 -0.226727 4.000000
-0.290288 -0.378836 -0.318563 4.000000
-0.290288 -0.304842 -0.355527 4.000000
-0.290288 -0.420595 -0.214272 4.000000
-0.290288 -0.335243 -0.350751 4.000000
-0.290288 -0.471076 0.139164 4.000000
-0.290288 -0.031580 0.472009 4.000000
-0.290288 -0.247079 -0.390845 4.000000
-0.290288 0.345152 0.339624 4.000000
-0.290288 -0.038953 -0.481657 4.000000
-0.290288 0.316279 0.317536 4.000000
-0.290288 -0.436229 -0.233017 4.000000
-0.290288 -0.133270 0.477233 4.000000
-0.290288 -0.461901 -0.183909 4.000000
-0.290288 -0.341295 -0.288750 4.000000
-0.290288 -0.031482 0.447848 4.000000
-0.290288 0.177443 0.410856 4.000000
-0.290288 -0.349567 0.322027 4.000000
-0.290288 0.448202 -0.198084 4.000000
-0.290288 0.434501 0.211084 4.000000
-0.290288 -0.100278 0.446821 4.000000
-0.290288 -0.480373 0.109187 4.000000
-0.290288 0.229510 0.391010 4.000000
-0.290288 -0.454673 -0.109489 4.000000
-0.290288 -0.416278 0.167022 4.000000
-0.290288 -0.346887 0.323677 4.000000
-0.290288 -0.054945 0.474751 4.000000
-0.290288 0.359139 0.303170 4.000000
-0.290288 -0.313360 0.325617 4.000000
-0.290288 -0.099895 0.455950 4.000000
-0.290288 -0.362275 0.274747 4.000000
-0.290288 0.429296 -0.253382 4.000000
-0.290288 -0.074276 -0.462109 4.000000
-0.290288 -0.224904 0.390092 4.000000
-0.290288 0.442106 0.090318 4.000000
-0.290288 0.468845 -0.016196 4.000000
-0.290288 0.062528 0.491429 4.000000
-0.290288 0.004534 -0.466954 4.000000
-0.290288 0.219171 -0.448778 4.000000
-0.290288 0.345101 0.309789 4.000000
-0.290288 -0.393203 -0.258181 4.000000
-0.290288 0.276864 0.368639 4.000000
-0.290288 -0.442547 -0.208664 4.000000
-0.290288 0.448352 0.158352 4.000000
-0.290288 -0.261574 0.409834 4.000000
-0.290288 -0.471392 0.080696 4.000000
-0.290288 0.444021 0.164560 4.000000
-0.290288 0.362263 0.277728 4.000000
-0.290288 0.378550 -0.281257 4.000000
-0.290288 0.188565 -0.431374 4.000000
-0.290288 0.275479 0.352624 4.000000
-0.290288 0.455909 0.196000 4.000000
-0.290288 0.331472 0.333918 4.000000
-0.290288 0.218722 0.387907 4.000000
-0.290288 0.010926 -0.447661 4.000000
-0.290288 0.457163 0.148620 4.000000
-0.290288 -0.362389 -0.294065 4.000000
-0.290288 -0.145592 -0.460326 4.000000
-0.290288 0.473923 -0.076931 4.000000
-0.290288 0.364835 0.308315 4.000000
-0.290288 0.406655 0.190941 4.000000
-0.290288 -0.444379 0.043491 4.000000
-0.290288 -0.430251 0.211095 4.000000
-0.290288 -0.439791 0.094345 4.000000
-0.290288 0.349479 -0.322144 4.000000
-0.290288 0.354289 0.319652 4.000000
-0.290288 0.494488 0.011555 4.000000
-0.290288 -0.299400 0.340607 4.000000
-0.290288 -0.432930 0.167743 4.000000
-0.290288 0.200490 0.395872 4.000000
-0.290288 0.419836 -0.253643 4.000000
-0.290288 0.424163 -0.258179 4.000000
-0.290288 -0.390317 -0.275384 4.000000
-0.290288 0.026583 -0.473472 4.000000
-0.290288 0.047467 0.482299 4.000000
-0.290288 0.092713 0.477623 4.000000
-0.290288 0.304229 0.338515 4.000000
-0.290288 0.237389 0.391286 4.000000
-0.290288 -0.389854 -0.239870 4.000000
-0.290288 0.387447 -0.228880 4.000000
-0.290288 0.222482 0.410912 4.000000
-0.290288 -0.026635 0.479193 4.000000
-0.290288 -0.013576 0.453566 4.000000
-0.290288 0.418302 0.160736 4.000000
-0.290288 0.435238 -0.245038 4.000000
-0.290288 0.141500 0.469126 4.000000
-0.290288 -0.016103 -0.499262 4.000000
-0.290288 0.113380 0.434924 4.000000
-0.290288 -0.197048 -0.431457 4.000000
-0.290288 0.453976 -0.091976 4.000000
-0.290288 -0.342617 0.293381 4.000000
-0.290288 -0.190743 -0.423576 4.000000
-0.290288 -0.272295 0.350946 4.000000
-0.290288 0.115477 -0.452710 4.000000
-0.290288 -0.280078 0.385532 4.000000
-0.290288 0.275780 0.389370 4.000000
-0.290288 0.283487 -0.386549 4.000000
-0.290288 0.356510 0.311678 4.000000
-0.290288 0.453327 0.075789 4.000000
-0.290288 0.441731 -0.102824 4.000000
-0.290288 0.046395 0.454726 4.000000
-0.290288 0.255189 0.424422 4.000000
-0.290288 0.104925 0.450244 4.000000
-0.290288 0.413739 -0.242882 4.000000
-0.290288 -0.071360 -0.489492 4.000000
-0.290288 -0.392220 -0.293100 4.000000
-0.290288 0.022701 0.463757 4.000000
-0.290288 -0.242166 0.373428 4.000000
-0.290288 0.448991 -0.046383 4.000000
-0.290288 -0.028609 -0.467724 4.000000
-0.290288 0.412570 -0.181730 4.000000
-0.290288 0.433146 -0.152865 4.000000
-0.290288 0.416897 0.246216 4.000000
-0.290288 0.465734 0.040136 4.000000
-0.290288 0.415147 0.236637 4.000000
-0.290288 0.473484 0.141504 4.000000
-0.290288 0.198708 0.405599 4.000000
-0.290288 0.448449 0.151697 4.000000
-0.290288 -0.444241 0.060457 4.000000
-0.290288 -0.468341 0.117334 4.000000
-0.290288 -0.457940 -0.022498 4.000000
-0.290288 -0.049251 0.462120 4.000000
-0.290288 -0.392603 -0.226898 4.000000
-0.290288 0.430204 0.203340 4.000000
-0.290288 -0.451104 -0.141644 4.000000
-0.290288 -0.293608 -0.391312 4.000000
-0.290288 0.197266 -0.417954 4.000000
-0.290288 -0.102007 0.471402 4.000000
-0.290288 -0.174040 -0.426988 4.000000
-0.290288 -0.116906 0.451195 4.000000
-0.290288 0.017515 0.475199 4.000000
-0.290288 0.436099 -0.221679 4.000000
-0.290288 0.031603 0.455557 4.000000
-0.290288 -0.468856 -0.135259 4.000000
-0.290288 0.399462 0.256265 4.000000
-0.290288 -0.247068 -0.403678 4.000000
-0.290288 -0.215630 -0.426645 4.000000
-0.290288 -0.407256 0.221517 4.000000
-0.290288 0.248752 0.386106 4.000000
-0.290288 0.125346 0.444410 4.000000
-0.290288 -0.413085 0.166531 4.000000
-0.290288 0.006288 0.465325 4.000000
-0.290288 -0.406383 -0.228451 4.000000
-0.290288 0.357373 0.264677 4.000000
-0.290288 -0.352633 0.343502 4.000000
-0.290288 -0.254679 -0.417304 4.000000
-0.290288 0.444244 -0.099713 4.000000
-0.290288 -0.159973 0.439174 4.000000
-0.290288 -0.443999 0.090761 4.000000
-0.290288 0.313329 -0.319284 4.000000
-0.290288 0.468184 0.163693 4.000000
-0.290288 -0.390305 0.290829 4.000000
-0.290288 0.069778 -0.473795 4.000000
-0.290288 0.356248 -0.307732 4.000000
-0.290288 0.443329 0.168238 4.000000
-0.290288 -0.453724 0.169271 4.000000
-0.290288 0.032287 -0.484841 4.000000
-0.290288 -0.414911 0.271548 4.000000
-0.290288 0.472595 0.042580 4.000000
-0.290288 0.228514 -0.406257 4.000000
-0.290288 -0.414575 0.260844 4.000000
-0.290288 0.439638 0.140922 4.000000
-0.290288 0.444330 0.039086 4.000000
-0.290288 -0.457451 -0.088367 4.000000
-0.290288 0.064514 0.440579 4.000000
-0.290288 -0.030757 0.442115 4.000000
-0.290288 0.232928 0.427793 4.000000
-0.290288 -0.426797 0.173551 4.000000
-0.290288 -0.233677 0.409978 4.000000
-0.290288 0.019317 -0.479272 4.000000
-0.290288 -0.133535 -0.432831 4.000000
-0.290288 0.101937 -0.436247 4.000000
-0.290288 0.223234 0.402466 4.000000
-0.290288 -0.383278 -0.243827 4.000000
-0.290288 -0.154184 0.463615 4.000000
-0.290288 -0.380893 -0.268311 4.000000
-0.290288 -0.428421 -0.167285 4.000000
-0.290288 -0.276108 -0.403903 4.000000
-0.290288 -0.412314 0.221357 4.000000
-0.290288 -0.192622 -0.426891 4.000000
-0.290288 0.027715 0.494626 4.000000
-0.290288 0.052853 0.484065 4.000000
-0.290288 -0.021056 -0.455514 4.000000
-0.290288 0.218807 -0.407062 4.000000
-0.290288 0.392826 -0.238479 4.000000
-0.290288 -0.207160 -0.438365 4.000000
-0.290288 0.252505 0.417701 4.000000
-0.290288 -0.257887 -0.415947 4.000000
-0.290288 -0.457335 -0.025707 4.000000
-0.290288 0.412322 0.215251 4.000000
-0.290288 -0.240888 -0.412448 4.000000
-0.290288 0.050295 0.472174 4.000000
-0.290288 -0.275574 -0.380743 4.000000
-0.290288 -0.340549 0.296171 4.000000
-0.290288 -0.259068 0.364030 4.000000
-0.290288 -0.248997 -0.394243 4.000000
-0.290288 -0.484933 -0.041164 4.000000
-0.290288 0.382419 -0.274716 4.000000
-0.290288 -0.413562 0.196583 4.000000
-0.290288 -0.415999 -0.261938 4.000000
-0.290288 -0.219226 -0.393216 4.000000
-0.290288 0.363948 0.281375 4.000000
-0.290288 0.044689 0.449800 4.000000
-0.290288 0.421050 0.144365 4.000000
-0.290288 -0.079211 -0.445371 4.000000
-0.290288 -0.429084 -0.181581 4.000000
-0.290288 -0.373534 0.282860 4.000000
-0.290288 0.226269 0.440638 4.000000
-0.290288 0.270867 -0.360606 4.000000
-0.290288 -0.371361 -0.292413 4.000000
-0.290288 -0.069206 0.437775 4.000000
-0.290288 -0.444884 -0.182719 4.000000
-0.290288 0.418381 0.208264 4.000000
-0.290288 0.462440 0.034930 4.000000
-0.290288 0.118130 0.480701 4.000000
-0.290288 0.219913 0.403113 4.000000
-0.290288 0.347541 -0.348920 4.000000
-0.290288 -0.453502 -0.196244 4.000000
-0.290288 0.415050 0.211420 4.000000
-0.290288 0.091298 0.467530 4.000000
-0.290288 0.449521 -0.115628 4.000000
-0.290288 0.483270 0.070649 4.000000
-0.290288 0.016557 -0.472804 4.000000
-0.290288 -0.306472 -0.345835 4.000000
-0.290288 -0.156739 -0.451931 4.000000
-0.290288 0.362209 -0.279823 4.000000
-0.290288 0.040549 0.482838 4.000000
-0.290288 -0.023742 0.443056 4.000000
-0.290288 0.320148 0.316574 4.000000
-0.290288 -0.441859 -0.144622 4.000000
-0.290288 -0.402901 -0.193647 4.000000
-0.290288 -0.484901 0.009883 4.000000
-0.290288 0.230224 0.381308 4.000000
-0.290288 -0.466830 -0.142074 4.000000
-0.290288 -0.474914 -0.120659 4.000000
-0.290288 0.362829 0.265848 4.000000
-0.290288 -0.340421 0.300383 4.000000
-0.290288 0.199918 0.429557 4.000000
-0.290288 -0.312994 0.353034 4.000000
-0.290288 -0.294465 -0.362136 4.000000
-0.290288 0.430503 -0.210842 4.000000
-0.290288 0.132042 0.456955 4.000000
-0.290288 0.292957 -0.354887 4.000000
-0.290288 -0.151559 0.419681 4.000000
-0.290288 -0.438900 -0.171826 4.000000
-0.290288 -0.178001 0.423324 4.000000
-0.290288 0.460171 -0.082090 4.000000
-0.290288 -0.056787 -0.481274 4.000000
-0.290288 0.455666 0.081910 4.000000
-0.290288 -0.319864 0.320130 4.000000
-0.290288 0.465861 -0.040468 4.000000
-0.290288 -0.257533 -0.395743 4.000000
-0.290288 -0.197328 0.411349 4.000000
-0.290288 0.440919 0.156441 4.000000
-0.290288 0.007651 -0.468781 4.000000
-0.290288 -0.004833 0.481488 4.000000
-0.290288 0.416970 -0.270008 4.000000
-0.290288 0.446736 0.013904 4.000000
-0.290288 -0.348274 -0.318035 4.000000
-0.290288 -0.400885 -0.244451 4.000000
-0.290288 0.426385 -0.247159 4.000000
-0.290288 0.415509 0.263146 4.000000
-0.290288 0.330839 0.369169 4.000000
-0.290288 0.482533 0.104697 4.000000
-0.290288 -0.439240 0.217343 4.000000
-0.290288 0.439900 -0.203499 4.000000
-0.290288 0.299822 -0.374406 4.000000
-0.290288 0.460294 -0.189830 4.000000
-0.290288 -0.451411 0.108299 4.000000
-0.290288 -0.472944 -0.078303 4.000000
-0.290288 0.176599 0.434543 4.000000
-0.290288 0.150413 0.458473 4.000000
-0.290288 0.419236 -0.155255 4.000000
-0.290288 -0.470284 0.070170 4.000000
-0.290288 0.285198 -0.355041 4.000000
-0.290288 0.393794 0.239399 4.000000
-0.290288 0.296250 -0.355366 4.000000
-0.290288 -0.374167 -0.246887 4.000000
-0.290288 0.456193 0.128517 4.000000
-0.290288 -0.163239 -0.439409 4.000000
-0.290288 0.164246 0.447397 4.000000
-0.290288 -0.017988 -0.489748 4.000000
-0.290288 0.326640 -0.354702 4.000000
-0.290288 0.376440 -0.296348 4.000000
-0.290288 -0.444292 -0.023417 4.000000
-0.290288 -0.355306 -0.279235 4.000000
-0.290288 -0.160201 0.413295 4.000000
-0.290288 0.160518 -0.473490 4.000000
-0.290288 -0.053896 -0.449953 4.000000
-0.290288 0.477556 0.056645 4.000000
-0.290288 0.164236 0.443443 4.000000
-0.290288 -0.330670 0.311925 4.000000
-0.290288 -0.033154 -0.488436 4.000000
-0.290288 -0.282066 -0.385873 4.000000
-0.290288 -0.262862 0.398545 4.000000
-0.290288 -0.466446 0.014580 4.000000
-0.290288 -0.434295 -0.136569 4.000000
-0.290288 -0.358499 -0.301724 4.000000
-0.290288 -0.467945 -0.033393 4.000000
-0.290288 -0.460610 -0.087483 4.000000
-0.290288 0.266066 -0.378599 4.000000
-0.290288 -0.186242 0.452729 4.000000
-0.290288 0.384396 -0.252660 4.000000
-0.290288 0.458110 -0.110756 4.000000
-0.290288 0.236107 0.429749 4.000000
-0.290288 0.192949 0.405323 4.000000
-0.290288 0.108517 -0.437223 4.000000
-0.290288 0.014813 0.477941 4.000000
-0.290288 -0.012804 0.487755 4.000000
-0.290288 -0.059025 0.461337 4.000000
-0.290288 0.012604 0.470987 4.000000
-0.290288 -0.399133 -0.288119 4.000000
-0.290288 0.130656 -0.450859 4.000000
-0.290288 -0.447671 0.172013 4.000000
-0.290288 0.139174 -0.429099 4.000000
-0.290288 -0.258424 0.399889 4.000000
-0.290288 -0.440115 0.127887 4.000000
-0.290288 0.490311 -0.050068 4.000000
-0.290288 0.352864 -0.326903 4.000000
-0.290288 -0.037368 0.446234 4.000000
-0.290288 -0.447651 0.042136 4.000000
-0.290288 -0.203767 -0.439859 4.000000
-0.290288 -0.104537 -0.461030 4.000000
-0.290288 0.368143 0.312067 4.000000
-0.290288 -0.233798 0.398177 4.000000
-0.290288 -0.200599 -0.410388 4.000000
-0.290288 -0.328685 0.337454 4.000000
-0.290288 0.049971 0.458336 4.000000
-0.290288 -0.044614 0.444814 4.000000
-0.290288 0.250878 -0.386895 4.000000
-0.290288 0.473930 0.079335 4.000000
-0.290288 -0.101154 -0.438892 4.000000
-0.290288 -0.471873 -0.020605 4.000000
-0.290288 -0.405715 0.285216 4.000000
-0.290288 0.329480 -0.302448 4.000000
-0.290288 -0.028148 0.443891 4.000000
-0.290288 -0.125198 0.474330 4.000000
-0.290288 0.287098 -0.382117 4.000000
-0.290288 -0.341999 0.351127 4.000000
-0.290288 -0.484865 0.080518 4.000000
-0.290288 -0.367234 -0.253261 4.000000
-0.290288 -0.361595 -0.288844 4.000000
-0.290288 -0.440382 0.060234 4.000000
-0.290288 0.011734 -0.477758 4.000000
-0.290288 0.095692 0.437239 4.000000
-0.290288 -0.285108 -0.362800 4.000000
-0.290288 -0.327688 0.328738 4.000000
-0.290288 0.420188 -0.211080 4.000000
-0.290288 0.164986 -0.466462 4.000000
-0.290288 0.093910 0.445155 4.000000
-0.290288 -0.221313 -0.420222 4.000000
-0.290288 0.431783 -0.238809 4.000000
-0.290288 -0.488573 -0.088782 4.000000
-0.290288 0.441802 -0.166562 4.000000
-0.290288 0.316048 0.350713 4.000000
-0.290288 -0.092055 0.447391 4.000000
-0.290288 0.422027 -0.213498 4.000000
-0.290288 0.472105 0.117201 4.000000
-0.290288 0.488966 0.008858 4.000000
-0.290288 0.443903 -0.108490 4.000000
-0.290288 -0.391016 -0.260624 4.000000
-0.290288 0.097835 0.470094 4.000000
-0.290288 -0.291115 0.344022 4.000000
-0.290288 0.475833 -0.079547 4.000000
-0.290288 -0.446173 0.075170 4.000000
-0.290288 -0.262456 -0.410547 4.000000
-0.290288 -0.367796 -0.326836 4.000000
-0.290288 0.400978 0.225938 4.000000
-0.290288 -0.070390 0.449698 4.000000
-0.290288 -0.445291 0.051061 4.000000
-0.290288 -0.377251 -0.254967 4.000000
-0.290288 0.229652 -0.435098 4.000000
-0.290288 -0.251556 -0.381257 4.000000
-0.290288 0.162892 -0.417181 4.000000
-0.290288 -0.275658 0.353513 4.000000
-0.290288 0.030384 0.449738 4.000000
-0.290288 0.036485 0.441916 4.000000
-0.290288 -0.432847 0.213012 4.000000
-0.290288 -0.489169 0.030163 4.000000
-0.290288 -0.468061 0.104062 4.000000
-0.290288 -0.470758 -0.119922 4.000000
-0.290288 -0.368994 0.286308 4.000000
-0.290288 0.077881 -0.445219 4.000000
-0.290288 -0.097218 -0.438991 4.000000
-0.290288 0.180433 -0.449490 4.000000
-0.290288 0.022830 0.474701 4.000000
-0.290288 0.148788 -0.450548 4.000000
-0.290288 0.302026 -0.367347 4.000000
-0.290288 -0.368875 -0.315749 4.000000
-0.290288 -0.212088 0.416577 4.000000
-0.290288 -0.145581 0.453389 4.000000
-0.290288 0.352106 -0.296960 4.000000
-0.290288 -0.339179 0.321806 4.000000
-0.290288 0.055955 0.448478 4.000000
-0.290288 -0.469697 -0.101688 4.000000
-0.290288 -0.136726 0.433962 4.000000
-0.290288 -0.151153 -0.443882 4.000000
-0.290288 -0.467404 -0.008173 4.000000
-0.290288 0.434453 0.142645 4.000000
-0.290288 0.442579 0.063476 4.000000
-0.290288 0.212902 0.433353 4.000000
-0.290288 0.419935 0.221629 4.000000
-0.290288 0.465040 0.132045 4.000000
-0.290288 -0.470301 -0.080841 4.000000
-0.290288 0.148529 -0.423675 4.000000
-0.290288 0.145389 0.443125 4.000000
-0.290288 0.353553 -0.289796 4.000000
-0.290288 -0.491046 -0.027315 4.000000
-0.290288 -0.475131 0.009885 4.000000
-0.290288 -0.370598 0.294098 4.000000
-0.290288 0.407322 0.277593 4.000000
-0.290288 0.459682 -0.052368 4.000000
-0.290288 0.086838 0.442453 4.000000
-0.290288 0.422568 0.203428 4.000000
-0.290288 0.019412 0.456464 4.000000
-0.290288 0.140623 0.446841 4.000000
-0.290288 -0.384133 0.259211 4.000000
-0.290288 0.381590 0.262129 4.000000
-0.290288 0.342350 0.291037 4.000000
-0.290288 0.382544 -0.314711 4.000000
-0.290288 -0.107787 -0.487574 4.000000
-0.290288 0.447783 -0.119059 4.000000
-0.290288 -0.434580 0.204361 4.000000
-0.290288 0.043127 0.461512 4.000000
-0.290288 -0.463662 0.069840 4.000000
-0.290288 -0.061619 0.463791 4.000000
-0.290288 -0.445401 0.017747 4.000000
-0.290288 -0.462028 0.037085 4.000000
-0.290288 0.073714 -0.445754 4.000000
-0.290288 0.030904 -0.487852 4.000000
-0.290288 -0.470095 0.035146 4.000000
-0.290288 0.449823 0.077802 4.000000
-0.290288 0.447489 -0.123073 4.000000
-0.290288 0.451199 0.116961 4.000000
-0.290288 0.295679 0.374231 4.000000
-0.290288 0.257398 0.396926 4.000000
-0.290288 -0.108103 0.447264 4.000000
-0.290288 -0.209645 -0.412684 4.000000
-0.290288 -0.446359 0.011304 4.000000
-0.290288 -0.461433 0.059836 4.000000
-0.290288 0.446206 0.065393 4.000000
-0.290288 -0.125164 0.431200 4.000000
-0.290288 -0.404836 0.230819 4.000000
-0.290288 -0.156503 0.429857 4.000000
-0.290288 -0.408568 0.242921 4.000000
-0.290288 -0.300275 0.337475 4.000000
-0.290288 0.109356 0.435623 4.000000
-0.290288 0.217106 0.420133 4.000000
-0.290288 -0.452348 0.199543 4.000000
-0.290288 -0.472005 -0.054519 4.000000
-0.290288 0.412560 0.238654 4.000000
-0.290288 0.186651 -0.411033 4.000000
-0.290288 -0.027106 -0.477710 4.000000
-0.290288 0.147552 -0.455024 4.000000
-0.290288 -0.240884 -0.428373 4.000000
-0.290288 0.264376 -0.405707 4.000000
-0.290288 -0.175471 0.426414 4.000000
-0.290288 0.279982 0.350858 4.000000
-0.290288 0.464847 -0.171053 4.000000
-0.290288 -0.430477 0.215665 4.000000
-0.290288 0.438465 0.092622 4.000000
-0.290288 -0.124070 0.462850 4.000000
-0.290288 -0.440658 0.155826 4.000000
-0.290288 -0.285437 0.378905 4.000000
-0.290288 -0.311017 -0.326548 4.000000
-0.290288 -0.200317 0.417062 4.000000
-0.290288 0.361518 -0.276751 4.000000
-0.290288 0.433815 -0.149039 4.000000
-0.290288 0.142776 -0.467904 4.000000
-0.290288 0.408676 0.244738 4.000000
-0.290288 0.454226 -0.029239 4.000000
-0.290288 0.407825 0.226853 4.000000
-0.290288 0.108770 -0.452521 4.000000
-0.290288 0.201278 0.422446 4.000000
-0.290288 0.194621 0.423966 4.000000
-0.290288 -0.474968 0.085821 4.000000
-0.290288 0.472615 0.049417 4.000000
-0.290288 0.393353 -0.302989 4.000000
-0.290288 0.086371 0.471765 4.000000
-0.290288 0.381111 -0.269921 4.000000
-0.290288 0.466936 0.169479 4.000000
-0.290288 0.268092 -0.421971 4.000000
-0.290288 0.440001 -0.132624 4.000000
-0.290288 -0.314266 -0.332105 4.000000
-0.290288 0.440878 0.165762 4.000000
-0.290288 0.475465 0.062979 4.000000
-0.290288 0.445571 0.058551 4.000000
-0.290288 -0.432418 0.221313 4.000000
-0.290288 0.126931 0.441119 4.000000
-0.290288 0.115238 0.455909 4.000000
-0.290288 0.321046 -0.352470 4.000000
-0.290288 0.059687 -0.490020 4.000000
-0.290288 0.134882 -0.426769 4.000000
-0.290288 0.131264 -0.464353 4.000000
-0.290288 -0.406044 0.281980 4.000000
-0.290288 -0.090402 -0.461743 4.000000
-0.290288 -0.184574 -0.427483 4.000000
-0.290288 0.359535 0.267272 4.000000
-0.290288 -0.322527 -0.346960 4.000000
-0.290288 0.255635 -0.420575 4.000000
-0.290288 -0.484584 -0.044599 4.000000
-0.290288 0.432449 -0.206641 4.000000
-0.290288 -0.450362 -0.021848 4.000000
-0.290288 0.410746 -0.238131 4.000000
-0.290288 0.296926 0.338140 4.000000
-0.290288 -0.402009 -0.280625 4.000000
-0.290288 0.443974 0.117051 4.000000
-0.290288 -0.435084 -0.236166 4.000000
-0.290288 0.372818 0.265372 4.000000
-0.290288 -0.194074 0.450482 4.000000
-0.290288 0.125348 0.456782 4.000000
-0.290288 -0.452293 0.040291 4.000000
-0.290288 -0.244254 -0.425234 4.000000
-0.290288 0.445777 -0.147746 4.000000
-0.290288 0.377178 0.275712 4.000000
-0.290288 0.160466 0.415094 4.000000
-0.290288 0.322523 0.347945 4.000000
-0.290288 0.247727 -0.385666 4.000000
-0.290288 0.450640 -0.120585 4.000000
-0.290288 -0.051909 0.478682 4.000000
-0.290288 -0.404988 -0.191118 4.000000
-0.290288 0.170996 0.460375 4.000000
-0.290288 -0.053350 -0.477813 4.000000
-0.290288 -0.164546 -0.448989 4.000000
-0.290288 -0.448576 0.020341 4.000000
-0.290288 -0.394009 -0.263076 4.000000
-0.290288 0.453509 -0.115695 4.000000
-0.290288 -0.252698 -0.385571 4.000000
-0.290288 -0.225046 -0.386232 4.000000
-0.290288 0.360542 -0.301305 4.000000
-0.290288 0.131560 -0.434749 4.000000
-0.290288 -0.016339 -0.456983 4.000000
-0.290288 -0.443221 -0.067296 4.000000
-0.290288 -0.035460 -0.493629 4.000000
-0.290288 0.408182 -0.191401 4.000000
-0.290288 -0.068930 0.487134 4.000000
-0.290288 -0.013538 -0.475304 4.000000
-0.290288 0.468807 0.149904 4.000000
-0.290288 -0.221046 0.425997 4.000000
-0.290288 -0.466471 -0.080271 4.000000
-0.290288 0.302734 0.389674 4.000000
-0.290288 -0.427825 -0.192844 4.000000
-0.290288 -0.228398 0.431294 4.000000
-0.290288 -0.088040 0.435836 4.000000
-0.290288 0.219126 -0.436648 4.000000
-0.290288 0.196987 0.447167 4.000000
-0.290288 0.189201 -0.457722 4.000000
-0.290288 0.442882 -0.122513 4.000000
-0.290288 -0.335511 0.322835 4.000000
-0.290288 0.086872 0.450356 4.000000
-0.290288 -0.052552 0.451185 4.000000
-0.290288 0.352816 -0.319412 4.000000
-0.290288 -0.460282 0.071287 4.000000
-0.290288 0.107657 -0.461855 4.000000
-0.290288 0.415811 0.162839 4.000000
-0.290288 -0.455516 0.047669 4.000000
-0.290288 -0.420062 0.245671 4.000000
-0.290288 -0.461680 0.147527 4.000000
-0.290288 -0.093107 0.481343 4.000000
-0.290288 -0.032520 0.480845 4.000000
-0.290288 -0.496009 0.001249 4.000000
-0.290288 -0.443035 0.186835 4.000000
-0.290288 -0.297537 -0.343688 4.000000
-0.290288 0.236665 0.400151 4.000000
-0.290288 -0.273073 0.365970 4.000000
-0.290288 0.306478 0.327315 4.000000
-0.290288 -0.365200 0.306211 4.000000
-0.290288 -0.318353 -0.336605 4.000000
-0.290288 0.454444 0.190450 4.000000
-0.290288 -0.444087 -0.103408 4.000000
-0.290288 -0.458826 0.179377 4.000000
-0.290288 0.149312 0.466746 4.000000
-0.290288 0.148846 -0.463088 4.000000
-0.290288 -0.255940 -0.374781 4.000000
-0.290288 -0.444314 0.201931 4.000000
-0.290288 0.473112 0.107584 4.000000
-0.290288 -0.417199 -0.192939 4.000000
-0.290288 -0.140811 0.447879 4.000000
-0.290288 0.065561 0.485789 4.000000
-0.290288 -0.457659 0.131240 4.000000
-0.290288 -0.143482 -0.435610 4.000000
-0.290288 -0.215931 0.421778 4.000000
-0.290288 -0.443658 -0.128747 4.000000
-0.290288 0.117992 -0.473809 4.000000
-0.290288 -0.356632 0.307836 4.000000
-0.290288 -0.019614 -0.483587 4.000000
-0.290288 0.378490 0.293108 4.000000
-0.290288 0.227985 -0.396243 4.000000
-0.290288 -0.118392 -0.468221 4.000000
-0.290288 0.200245 -0.444263 4.000000
-0.290288 0.203971 -0.455805 4.000000
-0.290288 -0.174817 0.454715 4.000000
-0.290288 0.402525 -0.212532 4.000000
-0.290288 0.492143 -0.056625 4.000000
-0.290288 -0.153072 0.453034 4.000000
-0.290288 0.397323 0.249494 4.000000
-0.290288 0.388123 0.276423 4.000000
-0.290288 -0.090729 -0.486635 4.000000
-0.290288 0.411289 -0.225988 4.000000
-0.290288 0.295524 0.377285 4.000000
-0.290288 -0.032547 -0.467785 4.000000
-0.290288 -0.245647 0.406188 4.000000
-0.290288 0.134271 -0.462563 4.000000
-0.290288 0.062365 -0.474316 4.000000
-0.290288 0.389499 -0.222193 4.000000
-0.290288 -0.367530 -0.263439 4.000000
-0.290288 -0.244065 0.396330 4.000000
-0.290288 0.089342 0.438576 4.000000
-0.290288 -0.320101 0.356336 4.000000
-0.290288 -0.091514 -0.464687 4.000000
-0.290288 0.094217 0.441966 4.000000
-0.290288 -0.293840 -0.358309 4.000000
-0.290288 -0.441683 -0.226758 4.000000
-0.290288 0.463790 -0.019298 4.000000
-0.290288 -0.389511 0.240790 4.000000
-0.290288 -0.390494 -0.216078 4.000000
-0.290288 0.103972 -0.454568 4.000000
-0.290288 -0.474782 -0.150033 4.000000
-0.290288 0.497781 -0.022492 4.000000
-0.290288 -0.487986 -0.033978 4.000000
-0.290288 0.170854 0.455202 4.000000
-0.290288 -0.386988 0.279894 4.000000
-0.290288 0.117349 0.436137 4.000000
-0.290288 0.398309 -0.294041 4.000000
-0.290288 0.391300 0.213834 4.000000
-0.290288 -0.128665 0.458096 4.000000
-0.290288 -0.361065 0.283471 4.000000
-0.290288 0.168421 -0.449744 4.000000
-0.290288 -0.281529 0.350003 4.000000
-0.290288 -0.209599 -0.453023 4.000000
-0.290288 0.049194 -0.451511 4.000000
-0.290288 -0.309145 0.353112 4.000000
-0.290288 -0.432428 -0.215687 4.000000
-0.290288 0.457051 0.077268 4.000000
-0.290288 0.490714 0.004783 4.000000
-0.290288 -0.449892 -0.194041 4.000000
-0.290288 -0.460053 0.173060 4.000000
-0.290288 -0.379598 -0.314680 4.000000
-0.290288 0.171648 0.419826 4.000000
-0.290288 0.389152 -0.258273 4.000000
-0.290288 0.207560 -0.444486 4.000000
-0.290288 0.462078 -0.003654 4.000000
-0.290288 0.452854 0.041950 4.000000
-0.290288 0.483097 -0.058331 4.000000
-0.290288 -0.112238 -0.475068 4.000000
-0.290288 0.030163 0.483479 4.000000
-0.290288 0.371315 0.302306 4.000000
-0.290288 -0.396586 0.281751 4.000000
-0.290288 -0.455403 -0.161556 4.000000
-0.290288 0.170630 0.448157 4.000000
-0.290288 0.469019 0.034176 4.000000
-0.290288 0.435792 0.138596 4.000000
-0.290288 0.469539 0.089684 4.000000
-0.290288 0.231036 0.421268 4.000000
-0.290288 -0.247404 0.389080 4.000000
-0.290288 0.410842 -0.185501 4.000000
-0.290288 0.039085 0.461065 4.000000
-0.290288 0.110853 0.432784 4.000000
-0.290288 0.019590 -0.447210 4.000000
-0.290288 -0.249103 0.405234 4.000000
-0.290288 0.437080 0.223599 4.000000
-0.290288 0.427476 -0.250317 4.000000
-0.290288 0.432196 -0.117486 4.000000
-0.290288 0.462520 -0.041322 4.000000
-0.290288 0.332250 -0.335409 4.000000
-0.290288 0.455442 0.072801 4.000000
-0.290288 -0.257630 -0.391670 4.000000
-0.290288 -0.361794 0.286728 4.000000
-0.290288 0.445060 -0.213313 4.000000
-0.290288 -0.372697 0.301755 4.000000
-0.290288 0.251635 0.389666 4.000000
-0.290288 0.339052 0.345710 4.000000
-0.290288 0.435478 0.200362 4.000000
-0.290288 -0.411537 -0.278806 4.000000
-0.290288 0.428962 -0.171223 4.000000
-0.290288 -0.420676 0.206544 4.000000
-0.290288 0.333131 0.341153 4.000000
-0.290288 -0.021570 -0.492087 4.000000
-0.290288 0.291072 0.352868 4.000000
-0.290288 0.054128 -0.449350 4.000000
-0.290288 0.485526 0.093826 4.000000
-0.290288 0.324956 0.321881 4.000000
-0.290288 -0.099650 -0.463558 4.000000
-0.290288 0.406337 -0.196854 4.000000
-0.290288 -0.292069 0.351928 4.000000
-0.290288 0.317336 0.375090 4.000000
-0.290288 0.336347 0.304522 4.000000
-0.290288 0.251003 -0.399646 4.000000
-0.290288 -0.316807 0.310291 4.000000
-0.290288 0.215521 -0.447070 4.000000
-0.290288 0.361936 -0.273057 4.000000
-0.290288 0.474080 -0.065212 4.000000
-0.290288 -0.352831 0.323182 4.000000
-0.290288 -0.216107 0.430456 4.000000
-0.290288 0.003432 0.492639 4.000000
-0.290288 0.228403 -0.412180 4.000000
-0.290288 0.456231 -0.169069 4.000000
-0.290288 -0.453290 0.068754 4.000000
-0.290288 -0.324056 0.309644 4.000000
-0.290288 -0.416842 0.178511 4.000000
-0.290288 0.089456 0.471398 4.000000
-0.290288 -0.018479 -0.493754 4.000000
-0.290288 0.399495 -0.251547 4.000000
-0.290288 0.044298 0.441323 4.000000
-0.290288 -0.469835 -0.165495 4.000000
-0.290288 -0.463544 0.052339 4.000000
-0.290288 0.485331 -0.072200 4.000000
-0.290288 0.448810 0.023355 4.000000
-0.290288 -0.361701 -0.297703 4.000000
-0.290288 -0.265035 0.415226 4.000000
-0.290288 0.018067 0.452268 4.000000
-0.290288 -0.309773 0.374290 4.000000
-0.290288 -0.202778 -0.403169 4.000000
-0.290288 0.237110 0.387739 4.000000
-0.290288 0.404744 0.274343 4.000000
-0.290288 -0.443144 -0.081705 4.000000
-0.290288 -0.021777 -0.452306 4.000000
-0.290288 0.221320 0.442348 4.000000
-0.290288 0.427987 -0.205204 4.000000
-0.290288 0.192698 0.440920 4.000000
-0.290288 0.308140 -0.324225 4.000000
-0.290288 0.469323 0.119303 4.000000
-0.290288 0.026648 0.475174 4.000000
-0.290288 0.147633 0.418160 4.000000
-0.290288 0.166213 -0.463298 4.000000
-0.290288 -0.433655 0.098673 4.000000
-0.290288 0.176184 -0.411302 4.000000
-0.290288 0.155317 0.463759 4.000000
-0.290288 0.143381 0.420024 4.000000
-0.290288 -0.460821 -0.146737 4.000000
-0.290288 -0.188209 0.411008 4.000000
-0.290288 0.432306 -0.172136 4.000000
-0.290288 0.007646 -0.448968 4.000000
-0.290288 -0.446501 0.005799 4.000000
-0.290288 0.473320 0.144825 4.000000
-0.290288 0.186506 0.403799 4.000000
-0.290288 0.448459 0.164564 4.000000
-0.290288 0.495181 -0.056240 4.000000
-0.290288 -0.461760 0.113400 4.000000
-0.290288 0.470960 0.081182 4.000000
-0.290288 0.230227 0.405140 4.000000
-0.290288 -0.310654 0.349340 4.000000
-0.290288 0.262877 -0.379300 4.000000
-0.290288 -0.437113 0.083528 4.000000
-0.290288 -0.423895 -0.195279 4.000000
-0.290288 0.043021 -0.460721 4.000000
-0.290288 0.435747 0.162550 4.000000
-0.290288 0.483387 0.055015 4.000000
-0.290288 0.270565 0.404707 4.000000
-0.290288 0.349955 -0.290894 4.000000
-0.290288 0.193600 -0.425345 4.000000
-0.290288 -0.310243 -0.379243 4.000000
-0.290288 0.044083 0.480689 4.000000
-0.290288 0.456945 0.135655 4.000000
-0.290288 -0.461880 0.083183 4.000000
-0.290288 -0.153548 0.460022 4.000000
-0.290288 -0.307133 -0.352057 4.000000
-0.290288 -0.160998 0.449761 4.000000
-0.290288 -0.369333 -0.289266 4.000000
-0.290288 0.369843 0.252657 4.000000
-0.290288 -0.394217 -0.211468 4.000000
-0.290288 0.365570 0.290014 4.000000
-0.290288 -0.445160 0.014369 4.000000
-0.290288 -0.173833 0.419712 4.000000
-0.290288 0.325957 -0.350468 4.000000
-0.290288 0.316041 -0.330308 4.000000
-0.290288 0.117684 -0.466275 4.000000
-0.290288 0.050090 0.475765 4.000000
-0.290288 0.481861 -0.072217 4.000000
-0.290288 -0.016628 0.478262 4.000000
-0.290288 -0.187747 0.435720 4.000000
-0.290288 0.081005 -0.487475 4.000000
-0.290288 0.407550 0.179442 4.000000
-0.290288 -0.459986 0.159100 4.000000
-0.290288 -0.011472 0.480430 4.000000
-0.290288 0.447217 0.053403 4.000000
-0.290288 0.038492 -0.470346 4.000000
-0.290288 0.178489 -0.430053 4.000000
-0.290288 -0.018360 0.469155 4.000000
-0.290288 -0.211108 0.395719 4.000000
-0.290288 0.204892 0.442309 4.000000
-0.290288 -0.303515 0.339582 4.000000
-0.290288 0.450201 -0.151023 4.000000
-0.290288 0.419609 0.183389 4.000000
-0.290288 -0.069602 -0.473704 4.000000
-0.290288 0.080014 -0.441375 4.000000
-0.290288 0.387864 -0.243816 4.000000
-0.290288 0.294780 -0.371599 4.000000
-0.290288 -0.366537 0.323212 4.000000
-0.290288 -0.116660 0.441515 4.000000
-0.290288 -0.013877 -0.455102 4.000000
-0.290288 -0.432378 -0.208888 4.000000
-0.290288 0.200333 0.409768 4.000000
-0.290288 0.307538 0.339910 4.000000
-0.290288 0.369969 -0.322882 4.000000
-0.290288 -0.459449 0.150320 4.000000
-0.290288 -0.219772 0.444091 4.000000
-0.290288 -0.377113 0.281422 4.000000
-0.290288 -0.055012 -0.496554 4.000000
-0.290288 -0.449029 -0.151496 4.000000
-0.290288 -0.011220 0.490386 4.000000
-0.290288 -0.051921 0.486230 4.000000
-0.290288 0.357600 0.333777 4.000000
-0.290288 0.466436 0.090702 4.000000
-0.290288 -0.482025 -0.061590 4.000000
-0.290288 0.426318 -0.133891 4.000000
-0.290288 0.279792 -0.360850 4.000000
-0.290288 -0.379501 0.317678 4.000000
-0.290288 0.425363 0.257476 4.000000
-0.290288 0.244244 0.376158 4.000000
-0.290288 0.480022 0.072913 4.000000
-0.290288 0.414115 -0.209540 4.000000
-0.290288 0.321045 0.337786 4.000000
-0.290288 0.461806 -0.037711 4.000000
-0.290288 -0.382654 0.243350 4.000000
-0.290288 -0.450949 -0.134705 4.000000
-0.290288 -0.474047 0.145172 4.000000
-0.290288 0.384028 -0.282215 4.000000
-0.290288 -0.430022 -0.225595 4.000000
-0.290288 -0.245496 0.386175 4.000000
-0.290288 0.483923 0.075057 4.000000
-0.290288 -0.408120 0.230796 4.000000
-0.290288 -0.481845 0.021529 4.000000
-0.290288 -0.141787 0.470613 4.000000
-0.290288 0.475141 -0.108751 4.000000
-0.290288 -0.289584 -0.399575 4.000000
-0.290288 -0.053699 -0.485413 4.000000
-0.290288 -0.256109 0.414850 4.000000
-0.290288 0.486184 -0.108580 4.000000
-0.290288 -0.383348 -0.247868 4.000000
-0.290288 0.314970 -0.361338 4.000000
-0.290288 0.478969 0.042901 4.000000
-0.290288 -0.004069 0.448720 4.000000
-0.290288 -0.210334 -0.441808 4.000000
-0.290288 -0.046303 0.441276 4.000000
-0.290288 -0.075068 -0.469481 4.000000
-0.290288 0.069571 0.486388 4.000000
-0.290288 -0.461328 -0.187250 4.000000
-0.290288 -0.072189 -0.485552 4.000000
-0.290288 -0.395068 -0.228913 4.000000
-0.290288 -0.050390 -0.491714 4.000000
-0.290288 -0.067450 -0.459563 4.000000
-0.290288 0.274304 -0.398265 4.000000
-0.290288 0.460377 0.098488 4.000000
-0.290288 0.488778 0.095423 4.000000
-0.290288 -0.198224 -0.401430 4.000000
-0.290288 0.321826 -0.348607 4.000000
-0.290288 -0.386882 -0.266801 4.000000
-0.290288 0.390166 -0.241513 4.000000
-0.290288 -0.241308 0.382837 4.000000
-0.290288 -0.219900 0.405097 4.000000
-0.290288 0.453472 0.016022 4.000000
-0.290288 0.099280 0.479983 4.000000
-0.290288 -0.447406 0.120758 4.000000
-0.290288 0.020137 -0.489097 4.000000
-0.290288 0.363976 -0.265765 4.000000
-0.290288 -0.484803 -0.063911 4.000000
-0.290288 -0.364411 0.335404 4.000000
-0.290288 -0.202422 0.439298 4.000000
-0.290288 0.421917 0.237149 4.000000
-0.290288 -0.439030 0.123864 4.000000
-0.290288 0.092127 0.473934 4.000000
-0.290288 0.416071 0.251372 4.000000
-0.290288 0.122320 -0.438713 4.000000
-0.290288 0.439043 -0.164025 4.000000
-0.290288 0.312947 -0.339690 4.000000
-0.290288 0.368448 0.331029 4.000000
-0.290288 0.309876 -0.327435 4.000000
-0.290288 -0.342040 -0.351609 4.000000
-0.290288 -0.491865 -0.069987 4.000000
-0.290288 -0.136638 -0.442209 4.000000
-0.290288 -0.431389 -0.249337 4.000000
-0.290288 -0.303088 0.329798 4.000000
-0.290288 -0.243039 0.399800 4.000000
-0.290288 0.459379 -0.064872 4.000000
-0.290288 0.479987 -0.133139 4.000000
-0.290288 -0.460328 -0.190739 4.000000
-0.290288 0.208640 0.396128 4.000000
-0.290288 0.489367 -0.018060 4.000000
-0.290288 -0.434840 0.092174 4.000000
-0.290288 -0.431930 0.173311 4.000000
-0.290288 -0.406889 0.211143 4.000000
-0.290288 0.465042 -0.167297 4.000000
-0.290288 -0.263927 0.418133 4.000000
-0.290288 -0.461057 0.098089 4.000000
-0.290288 -0.069316 0.445718 4.000000
-0.290288 -0.121423 0.457736 4.000000
-0.290288 -0.175163 0.459207 4.000000
-0.290288 -0.133457 0.423415 4.000000
-0.290288 0.161672 0.464174 4.000000
-0.290288 0.463593 0.048347 4.000000
-0.290288 -0.409356 -0.187611 4.000000
-0.290288 0.361597 0.273401 4.000000
-0.290288 -0.052551 0.459507 4.000000
-0.290288 0.439828 0.107040 4.000000
-0.290288 -0.456105 -0.101660 4.000000
-0.290288 -0.427525 0.120646 4.000000
-0.290288 -0.457567 0.069754 4.000000
-0.290288 -0.489856 -0.062041 4.000000
-0.290288 -0.413709 0.161861 4.000000
-0.290288 -0.395931 -0.293681 4.000000
-0.290288 0.025659 0.490485 4.000000
-0.290288 -0.435700 0.118289 4.000000
-0.290288 0.424645 -0.216169 4.000000
-0.290288 0.377129 0.314872 4.000000
-0.290288 -0.382714 0.291431 4.000000
-0.290288 0.400879 0.277303 4.000000
-0.290288 -0.144828 0.434885 4.000000
-0.290288 0.173682 -0.435291 4.000000
-0.290288 -0.276650 0.387324 4.000000
-0.290288 0.056058 0.485116 4.000000
-0.290288 0.471568 -0.036432 4.000000
-0.290288 0.189006 -0.439040 4.000000
-0.290288 -0.490126 -0.085444 4.000000
-0.290288 -0.093761 0.434375 4.000000
-0.290288 -0.413698 -0.167610 4.000000
-0.290288 -0.475371 -0.088239 4.000000
-0.290288 -0.447102 0.065731 4.000000
-0.290288 -0.244193 -0.400801 4.000000
-0.290288 -0.455608 -0.015013 4.000000
-0.290288 -0.459834 -0.091180 4.000000
-0.290288 -0.219981 0.429237 4.000000
-0.290288 -0.185138 0.428514 4.000000
-0.290288 0.422458 0.140309 4.000000
-0.290288 0.451153 0.130275 4.000000
-0.290288 -0.364954 0.290495 4.000000
-0.290288 0.478581 0.000725 4.000000
-0.290288 -0.495015 0.041547 4.000000
-0.290288 -0.483054 -0.108771 4.000000
-0.290288 0.355058 -0.282975 4.000000
-0.290288 -0.091003 0.463254 4.000000
-0.290288 -0.119961 -0.485174 4.000000
-0.290288 -0.207439 -0.417089 4.000000
-0.290288 -0.331718 0.323704 4.000000
-0.290288 0.267168 -0.384971 4.000000
-0.290288 0.441248 -0.098389 4.000000
-0.290288 0.466778 -0.044197 4.000000
-0.290288 0.210637 -0.417780 4.000000
-0.290288 0.219854 0.414802 4.000000
-0.290288 0.388257 0.265283 4.000000
-0.290288 0.078272 0.443117 4.000000
-0.290288 -0.352082 0.319242 4.000000
-0.290288 -0.457523 -0.077941 4.000000
-0.290288 0.416811 0.156220 4.000000
-0.290288 0.332773 -0.345709 4.000000
-0.290288 -0.259302 -0.422727 4.000000
-0.290288 0.363833 -0.261331 4.000000
-0.290288 -0.220953 -0.396598 4.000000
-0.290288 -0.210223 0.413639 4.000000
-0.290288 -0.439055 0.187537 4.000000
-0.290288 0.175955 -0.417466 4.000000
-0.290288 0.007662 -0.462520 4.000000
-0.290288 0.467776 -0.066990 4.000000
-0.290288 -0.367360 -0.319628 4.000000
-0.290288 -0.478668 -0.059430 4.000000
-0.290288 -0.454967 -0.191145 4.000000
-0.290288 -0.060984 -0.444697 4.000000
-0.290288 -0.308856 -0.374472 4.000000
-0.290288 0.469153 0.038171 4.000000
-0.290288 0.427288 0.140418 4.000000
-0.290288 -0.306506 0.388809 4.000000
-0.290288 -0.227554 0.427896 4.000000
-0.290288 -0.380495 -0.289569 4.000000
-0.290288 0.253798 -0.427241 4.000000
-0.290288 0.342819 0.326611 4.000000
-0.290288 0.028685 0.478810 4.000000
-0.290288 0.441525 0.211934 4.000000
-0.290288 0.487816 0.003288 4.000000
-0.290288 0.376909 -0.259676 4.000000
-0.290288 -0.238330 -0.380515 4.000000
-0.290288 0.354298 0.323524 4.000000
-0.290288 -0.315760 -0.386591 4.000000
-0.290288 -0.099528 0.480181 4.000000
-0.290288 0.449928 0.155410 4.000000
-0.290288 0.392099 -0.270271 4.000000
-0.290288 0.486157 -0.020599 4.000000
-0.290288 0.407533 -0.228139 4.000000
-0.290288 0.465657 0.127376 4.000000
-0.290288 0.272801 0.355421 4.000000
-0.290288 -0.040053 0.472858 4.000000
-0.290288 -0.446569 -0.204712 4.000000
-0.290288 -0.281948 0.396354 4.000000
-0.290288 0.445990 -0.016542 4.000000
-0.290288 0.164512 -0.421898 4.000000
-0.290288 -0.455415 0.022786 4.000000
-0.290288 -0.433055 0.144408 4.000000
-0.290288 0.089512 -0.445156 4.000000
-0.290288 0.203000 -0.419600 4.000000
-0.290288 0.077906 0.483873 4.000000
-0.290288 0.471040 -0.004222 4.000000
-0.290288 -0.183552 0.420352 4.000000
-0.290288 0.094517 0.448733 4.000000
-0.290288 0.446152 -0.092246 4.000000
-0.290288 0.400836 -0.280215 4.000000
-0.290288 0.444963 -0.154782 4.000000
-0.290288 0.404342 -0.204060 4.000000
-0.290288 -0.231843 0.419871 4.000000
-0.290288 0.028293 0.454926 4.000000
-0.290288 0.172171 -0.421911 4.000000
-0.290288 0.274945 0.378329 4.000000
-0.290288 0.448898 0.068282 4.000000
-0.290288 -0.358113 0.287837 4.000000
-0.290288 -0.483407 0.033964 4.000000
-0.290288 -0.414805 -0.265054 4.000000
-0.290288 0.398063 0.200932 4.000000
-0.290288 -0.347367 0.287382 4.000000
-0.290288 -0.368409 -0.256372 4.000000
-0.290288 -0.492469 0.067660 4.000000
-0.290288 -0.330516 -0.334232 4.000000
-0.290288 -0.265770 -0.397024 4.000000
-0.290288 0.445264 0.150412 4.000000
-0.290288 0.326242 -0.334467 4.000000
-0.290288 -0.324950 -0.312879 4.000000
-0.290288 0.409676 -0.285795 4.000000
-0.290288 0.323243 -0.310092 4.000000
-0.290288 -0.042851 0.452128 4.000000
-0.290288 -0.420908 -0.162182 4.000000
-0.290288 -0.449449 -0.046630 4.000000
-0.290288 0.463261 0.092176 4.000000
-0.290288 -0.281858 0.382865 4.000000
-0.290288 -0.193901 -0.438247 4.000000
-0.290288 0.436728 0.129103 4.000000
-0.290288 0.420600 -0.242293 4.000000
-0.290288 0.129097 -0.436561 4.000000
-0.290288 -0.447046 0.140102 4.000000
