0.104330 -0.422476 0.137264 3.000000
-0.238051 0.281259 -0.347860 3.000000
0.184381 0.075625 -0.441045 3.000000
0.250025 -0.319096 -0.312198 3.000000
0.064955 -0.444229 -0.024249 3.000000
-0.189942 -0.423828 -0.137394 3.000000
-0.083244 -0.263332 -0.360971 3.000000
-0.160090 0.377957 0.234215 3.000000
-0.132892 0.277933 0.346087 3.000000
0.122111 0.005552 -0.447453 3.000000
0.049521 -0.299149 -0.331522 3.000000
0.119339 -0.435613 -0.091993 3.000000
-0.223756 -0.357312 0.262919 3.000000
-0.072681 -0.399274 -0.198223 3.000000
-0.223888 0.153046 -0.420451 3.000000
0.100846 -0.375822 -0.240446 3.000000
0.073353 0.163405 0.412368 3.000000
-0.246174 0.394808 -0.209000 3.000000
0.035345 -0.082343 -0.439819 3.000000
0.177600 -0.197748 -0.400835 3.000000
-0.277442 -0.177429 -0.410288 3.000000
0.174486 0.443372 -0.048091 3.000000
0.117635 -0.438864 -0.074079 3.000000
0.232991 -0.347887 0.275069 3.000000
-0.245966 0.108425 0.429904 3.000000
0.230519 0.445828 -0.005989 3.000000
0.012323 -0.334584 0.290962 3.000000
0.212511 0.268517 0.353391 3.000000
0.120307 -0.328936 0.297368 3.000000
-0.235140 0.072513 -0.441538 3.000000
0.190476 0.306020 0.321945 3.000000
-0.134822 -0.042511 -0.445310 3.000000
-0.098439 -0.104492 0.430554 3.000000
0.005477 0.422845 0.139086 3.000000
0.250254 0.335045 0.291601 3.000000
-0.288272 -0.167887 -0.414417 4.000000
0.238135 -0.417612 -0.155126 3.000000
-0.058191 -0.337671 0.287460 3.000000
0.181044 -0.309517 -0.321777 3.000000
-0.264724 0.250136 0.366477 3.000000
-0.071900 0.205990 0.392804 3.000000
0.144032 0.427768 -0.127356 3.000000
0.262771 0.066533 0.438132 3.000000
-0.193336 -0.013199 0.442827 3.000000
0.077809 -0.368629 0.246729 3.000000
0.024763 0.438734 0.077020 3.000000
-0.008245 -0.430927 -0.112957 3.000000
-0.172670 -0.388832 -0.218446 3.000000
0.257360 -0.106815 0.430035 3.000000
-0.167089 -0.283738 0.340755 3.000000
0.089041 -0.425349 0.127805 3.000000
-0.067684 0.303624 0.324127 3.000000
-0.151582 0.399273 -0.200237 3.000000
-0.113083 -0.330586 -0.299850 3.000000
-0.064534 -0.179123 0.405202 3.000000
0.250285 -0.408569 0.173524 3.000000
-0.153791 -0.442187 -0.049786 3.000000
0.186975 -0.000312 -0.447586 3.000000
0.109894 0.020007 0.442646 3.000000
-0.289293 -0.444800 0.001738 4.000000
-0.096518 -0.430610 0.109696 3.000000
-0.231150 0.047814 -0.444905 3.000000
0.109024 0.443965 0.037463 3.000000
0.247684 0.003151 -0.447529 3.000000
-0.234038 -0.358406 0.261507 3.000000
-0.289080 -0.247116 -0.372186 4.000000
0.248408 -0.421021 0.141304 3.000000
0.159061 -0.026655 -0.446758 3.000000
0.156143 0.382448 -0.230975 3.000000
0.265566 -0.195671 -0.401893 3.000000
0.286025 -0.282411 -0.346172 1.000000
-0.117675 -0.423619 0.133759 3.000000
-0.229531 0.445147 0.023279 3.000000
0.119615 0.311962 -0.320357 3.000000
0.019957 0.066624 -0.442471 3.000000
0.266446 0.109807 -0.433949 3.000000
0.280969 0.277444 -0.350819 1.000000
-0.268494 0.141980 0.420082 3.000000
0.187270 -0.364604 0.252651 3.000000
0.102433 0.433689 0.100834 3.000000
0.230229 -0.405784 0.179959 3.000000
0.213925 0.432279 -0.111493 3.000000
-0.264079 0.068526 -0.442169 3.000000
0.229321 -0.392326 0.207505 3.000000
0.133567 0.289903 0.336224 3.000000
0.149758 0.080031 0.435994 3.000000
0.100557 -0.428231 -0.122237 3.000000
-0.206005 0.342448 -0.287558 3.000000
0.221721 -0.171775 -0.412735 3.000000
0.093958 0.442876 0.048984 3.000000
-0.126996 0.284774 -0.345099 3.000000
-0.180634 0.001426 -0.447583 3.000000
0.203118 -0.417324 0.151573 3.000000
0.096659 0.381812 0.227696 3.000000
0.231684 -0.443750 0.028904 3.000000
-0.209495 -0.135373 0.421969 3.000000
0.009816 -0.050246 -0.444578 3.000000
-0.008001 -0.341626 -0.287327 3.000000
-0.083024 -0.305741 0.321200 3.000000
0.286327 -0.028154 -0.446667 1.000000
0.283311 0.410206 -0.176462 1.000000
-0.186023 0.198417 0.396663 3.000000
0.234151 0.133611 -0.427132 3.000000
0.133436 -0.444419 -0.018217 3.000000
-0.145429 0.404585 0.185099 3.000000
-0.253689 0.440373 0.066668 3.000000
0.256945 0.268966 -0.357396 3.000000
0.114245 0.388747 0.215969 3.000000
0.074409 0.170940 -0.413539 3.000000
0.282720 -0.228901 0.379395 3.000000
-0.189001 -0.236607 -0.379190 3.000000
-0.004628 0.273145 -0.354154 3.000000
0.072460 -0.302153 -0.328873 3.000000
0.175079 -0.127364 0.424296 3.000000
0.078230 0.181487 -0.408976 3.000000
0.085255 0.230986 0.378767 3.000000
0.159432 0.445575 0.009674 3.000000
-0.185911 0.178738 -0.410165 3.000000
0.067132 -0.236027 -0.379534 3.000000
-0.180519 0.251745 -0.369736 3.000000
-0.083197 0.441536 -0.063681 3.000000
0.195543 -0.406493 0.178320 3.000000
-0.162560 0.113991 0.428479 3.000000
-0.134679 -0.116938 -0.431678 3.000000
-0.106046 0.440392 -0.070901 3.000000
0.245691 -0.316339 0.310601 3.000000
0.274049 -0.430215 -0.115408 3.000000
0.231090 0.317942 0.310023 3.000000
0.048545 -0.425522 0.127209 3.000000
-0.033051 0.109524 -0.434012 3.000000
0.178516 0.383372 0.225058 3.000000
-0.149558 -0.377718 -0.237240 3.000000
0.175146 0.426998 -0.130008 3.000000
0.070591 0.203639 -0.398355 3.000000
0.198074 0.432462 -0.110677 3.000000
0.243744 0.068971 0.437746 3.000000
-0.155289 -0.162524 -0.416670 3.000000
0.141481 0.246779 0.368758 3.000000
0.215444 -0.025798 0.442431 3.000000
0.249898 -0.295596 0.330301 3.000000
0.156136 -0.343488 -0.285093 3.000000
-0.198455 0.426250 0.128231 3.000000
-0.245746 0.366612 0.251204 3.000000
0.011606 0.192542 -0.404009 3.000000
-0.259136 -0.095697 -0.436874 3.000000
0.267570 0.367747 -0.253887 3.000000
0.072881 0.270899 0.351543 3.000000
0.155680 0.224796 -0.386782 3.000000
-0.009225 0.140340 -0.425026 3.000000
-0.194032 0.289188 0.336854 3.000000
0.114686 -0.324245 -0.307042 3.000000
-0.023725 0.445114 0.024344 3.000000
-0.068400 0.132561 0.423084 3.000000
0.146952 0.307385 0.320580 3.000000
0.266563 -0.059030 0.439158 3.000000
-0.028360 0.150536 -0.421355 3.000000
-0.262804 0.358493 0.262716 3.000000
0.108763 0.419335 -0.153188 3.000000
0.048676 -0.105368 -0.434712 3.000000
-0.056558 -0.147483 0.417731 3.000000
-0.121156 0.274788 -0.352879 3.000000
0.073397 0.132539 0.423090 3.000000
0.219368 0.330213 0.297082 3.000000
0.076818 -0.333022 -0.297087 3.000000
-0.089369 0.445343 0.017043 3.000000
-0.056921 -0.403663 0.184860 3.000000
-0.028359 -0.367392 0.248549 3.000000
0.068076 0.434429 0.097523 3.000000
0.010016 0.445810 -0.006551 3.000000
0.286463 -0.353466 0.267876 1.000000
0.129053 -0.145340 0.418503 3.000000
0.080064 -0.442829 0.038639 3.000000
-0.090565 0.425771 -0.134232 3.000000
-0.205420 -0.002326 0.443169 3.000000
0.020979 -0.321377 -0.309917 3.000000
-0.021912 0.159339 -0.418185 3.000000
-0.130815 -0.417558 0.150924 3.000000
0.135550 0.060658 0.439062 3.000000
0.055292 -0.191241 0.399797 3.000000
0.128071 0.416132 0.157730 3.000000
-0.087095 -0.433057 -0.103428 3.000000
0.274160 -0.421919 -0.143163 3.000000
-0.032417 -0.240937 -0.376385 3.000000
0.041517 -0.398861 0.194679 3.000000
-0.215522 -0.272536 -0.353831 3.000000
0.151084 0.444551 -0.035624 3.000000
-0.200778 -0.216430 -0.391123 3.000000
0.039368 0.317851 0.310114 3.000000
-0.173516 0.387199 0.218587 3.000000
-0.286897 -0.315306 -0.315988 4.000000
-0.283282 -0.431612 0.105540 4.000000
0.145529 -0.414169 -0.164689 3.000000
-0.202949 0.076523 -0.440903 3.000000
0.063052 -0.160203 0.413152 3.000000
0.033027 0.223495 -0.387551 3.000000
-0.219489 -0.116966 -0.431670 3.000000
-0.289734 -0.418075 0.149488 4.000000
0.194912 -0.262735 0.357081 3.000000
-0.122760 0.180504 -0.409401 3.000000
-0.162612 -0.058305 -0.443626 3.000000
0.166675 -0.100594 -0.435779 3.000000
-0.261739 0.308348 0.319617 3.000000
-0.263518 -0.213693 -0.392710 3.000000
-0.205453 -0.444907 -0.001672 3.000000
0.165208 -0.362713 0.255433 3.000000
0.126865 0.214586 0.388424 3.000000
-0.032784 -0.077452 -0.440593 3.000000
-0.001493 0.224188 0.382788 3.000000
-0.104225 0.163092 0.412481 3.000000
0.228035 -0.424825 -0.133960 3.000000
0.087660 0.440568 -0.069793 3.000000
-0.077715 -0.433315 0.097922 3.000000
-0.170918 -0.003319 -0.447491 3.000000
0.236209 -0.334360 -0.295569 3.000000
0.135054 0.444828 -0.032694 3.000000
-0.170685 -0.235165 0.375690 3.000000
-0.245913 -0.049493 0.440296 3.000000
0.179049 0.261409 -0.363169 3.000000
-0.195814 -0.195093 -0.402187 3.000000
0.019973 -0.137697 -0.425608 3.000000
-0.228824 -0.277060 -0.350322 3.000000
0.084142 0.229455 -0.384026 3.000000
-0.074571 -0.247491 0.367578 3.000000
-0.070691 0.286218 0.339472 3.000000
-0.020332 0.296939 -0.334374 3.000000
-0.192378 0.051580 0.440196 3.000000
-0.106229 -0.117602 -0.431485 3.000000
0.042641 0.182389 -0.408585 3.000000
0.191633 0.371378 -0.248545 3.000000
-0.025762 0.386998 0.218927 3.000000
-0.171786 0.426608 -0.131350 3.000000
-0.178662 0.411017 -0.174588 3.000000
-0.127944 0.207288 0.392143 3.000000
0.211495 -0.151369 -0.420686 3.000000
-0.020443 0.381798 0.227720 3.000000
-0.049180 0.200371 0.395667 3.000000
-0.170107 0.192478 -0.404042 3.000000
0.274340 0.395957 0.202391 3.000000
-0.207666 -0.441860 0.048897 3.000000
0.101597 -0.057714 -0.443719 3.000000
0.081772 0.278342 -0.350123 3.000000
-0.164637 0.434417 0.097578 3.000000
-0.033485 -0.256017 -0.366137 3.000000
-0.051637 -0.439508 0.065658 3.000000
0.039165 0.410583 -0.175591 3.000000
-0.093390 0.086566 0.434790 3.000000
0.071636 0.272725 -0.354480 3.000000
0.212655 -0.195421 0.397667 3.000000
-0.130884 0.444604 -0.035062 3.000000
-0.186154 0.160287 -0.417844 3.000000
-0.179663 0.084194 -0.439674 3.000000
0.227742 -0.430033 0.111680 3.000000
-0.267935 -0.381603 -0.230669 3.000000
-0.102268 -0.426978 -0.126549 3.000000
0.038561 -0.432811 0.100177 3.000000
0.243739 0.406552 0.180553 3.000000
0.107000 0.393416 0.207377 3.000000
-0.166341 0.234022 0.376972 3.000000
-0.288426 0.342306 0.283365 4.000000
-0.090145 -0.218556 -0.389866 3.000000
0.231015 -0.435196 -0.093859 3.000000
-0.254393 -0.059349 -0.443461 3.000000
-0.016088 0.425047 0.132369 3.000000
0.206477 -0.135283 -0.426349 3.000000
0.284917 -0.380102 0.228854 1.000000
0.163982 0.426912 -0.130303 3.000000
-0.028578 0.418023 0.152478 3.000000
-0.212316 0.445226 -0.025147 3.000000
0.012697 0.445614 0.008441 3.000000
-0.261831 0.107584 -0.434445 3.000000
-0.256790 0.195885 0.397952 3.000000
-0.168653 0.118380 -0.431557 3.000000
-0.065895 0.445329 0.017487 3.000000
-0.256099 0.221639 -0.388649 3.000000
-0.062176 -0.133083 -0.426988 3.000000
-0.013265 0.419236 -0.153462 3.000000
-0.045997 0.414452 -0.166649 3.000000
0.286318 -0.269493 -0.356192 1.000000
-0.029089 -0.128462 0.423977 3.000000
-0.116810 0.300084 0.327248 3.000000
-0.186757 -0.394758 -0.207085 3.000000
-0.282485 -0.443793 -0.032795 4.000000
0.160781 0.422257 0.140717 3.000000
-0.039569 -0.437329 -0.083772 3.000000
0.272468 -0.256667 -0.365695 3.000000
0.087174 0.324049 -0.308270 3.000000
0.087406 0.334076 0.292700 3.000000
0.150641 0.326543 -0.305598 3.000000
0.045735 0.169693 -0.414079 3.000000
-0.025461 -0.185891 -0.406626 3.000000
0.025214 0.091671 0.433649 3.000000
-0.068028 0.444607 -0.035028 3.000000
0.120741 -0.424591 -0.134764 3.000000
0.041984 0.430409 -0.118268 3.000000
0.194911 0.438552 0.078170 3.000000
0.184698 0.400710 -0.197416 3.000000
0.080656 -0.422842 0.136246 3.000000
-0.175033 0.049493 -0.444747 3.000000
-0.228099 0.341716 -0.288387 3.000000
0.286298 0.298055 -0.333390 1.000000
0.224717 0.429327 0.117639 3.000000
-0.181181 -0.283072 -0.345659 3.000000
-0.028810 0.316129 0.311836 3.000000
-0.240144 0.379943 -0.235210 3.000000
-0.106352 -0.143640 -0.423469 3.000000
0.234578 -0.137343 -0.425736 3.000000
-0.168607 0.363667 0.255538 3.000000
-0.252241 0.423168 -0.142540 3.000000
-0.273812 0.038173 0.441463 3.000000
0.177686 -0.219989 0.384665 3.000000
0.068028 0.026217 0.442451 3.000000
0.014365 -0.118382 0.426905 3.000000
0.196516 0.155041 0.415379 3.000000
-0.260816 0.396425 -0.205825 3.000000
0.055632 -0.011179 -0.447244 3.000000
-0.026175 -0.373295 0.239862 3.000000
-0.166443 -0.363700 0.253981 3.000000
-0.166214 -0.350572 -0.275960 3.000000
-0.171810 -0.433132 -0.103093 3.000000
0.107853 0.444898 -0.031951 3.000000
-0.227375 -0.387280 -0.221070 3.000000
0.188539 -0.444548 0.009732 3.000000
-0.218216 0.018639 -0.447042 3.000000
-0.161168 -0.391908 0.208325 3.000000
0.286004 -0.169662 0.409296 1.000000
0.062148 -0.365640 -0.255480 3.000000
0.124350 0.430932 -0.116468 3.000000
0.046466 0.414940 0.161042 3.000000
-0.017846 0.121901 -0.430534 3.000000
0.136516 -0.211042 0.389708 3.000000
-0.131504 0.343900 0.281530 3.000000
-0.192627 -0.079271 0.435952 3.000000
-0.220295 -0.020618 0.442594 3.000000
0.209069 -0.138301 0.421037 3.000000
0.285060 0.445665 0.006807 1.000000
0.019004 0.217362 0.386825 3.000000
-0.232225 0.365373 0.253027 3.000000
0.140338 0.445138 0.023564 3.000000
0.051933 -0.200833 -0.399263 3.000000
0.107299 -0.170487 -0.413292 3.000000
0.054984 -0.444392 0.014707 3.000000
-0.175572 -0.305912 -0.325382 3.000000
-0.236166 0.012819 0.442872 3.000000
-0.143861 0.081499 -0.440115 3.000000
-0.095717 -0.084555 0.435010 3.000000
-0.201078 -0.356358 0.264148 3.000000
-0.164501 0.149769 0.417277 3.000000
0.143805 -0.444867 -0.003963 3.000000
-0.001808 0.417329 -0.158759 3.000000
-0.248527 0.284790 -0.345085 3.000000
0.001738 -0.345470 -0.282538 3.000000
0.260942 0.444692 0.029776 3.000000
-0.277305 -0.403479 0.185285 3.000000
-0.211019 0.388089 -0.221435 3.000000
0.215715 -0.003656 -0.447481 3.000000
-0.141914 -0.386079 -0.223101 3.000000
-0.133279 0.178884 -0.410102 3.000000
0.270210 0.351638 0.271554 3.000000
0.122157 -0.370677 0.243714 3.000000
-0.054168 0.019762 -0.447007 3.000000
0.184449 0.443076 -0.051220 3.000000
0.240788 0.142475 0.419904 3.000000
0.176853 0.445152 -0.027482 3.000000
0.224368 0.387285 0.218441 3.000000
-0.198703 -0.163103 0.412108 3.000000
-0.015744 0.365804 -0.256746 3.000000
-0.103219 0.201085 0.395303 3.000000
-0.076634 0.388415 0.216530 3.000000
-0.020844 0.399182 -0.200414 3.000000
0.208745 -0.384191 -0.226294 3.000000
-0.232829 -0.308553 -0.322741 3.000000
-0.111206 0.061021 -0.443358 3.000000
0.040153 -0.438497 -0.076396 3.000000
-0.179766 -0.107727 0.429831 3.000000
-0.248092 0.444561 0.031165 3.000000
0.218867 -0.065158 -0.442540 3.000000
-0.283218 0.438099 0.081030 4.000000
0.274104 0.442658 0.051290 3.000000
0.187716 0.424224 -0.139558 3.000000
-0.274922 0.343316 0.282219 3.000000
0.170386 -0.315027 0.311913 3.000000
0.036087 -0.444626 0.007247 3.000000
-0.200784 0.036358 -0.445988 3.000000
-0.213304 0.235440 0.376133 3.000000
0.020613 -0.166497 0.410666 3.000000
0.160196 0.054745 0.439897 3.000000
0.104488 -0.353872 0.267352 3.000000
-0.098171 -0.048554 0.440385 3.000000
-0.124442 0.412788 0.166142 3.000000
0.048357 0.202914 0.394371 3.000000
0.074345 -0.383279 0.223483 3.000000
0.086475 -0.265018 0.355310 3.000000
0.158833 0.311624 -0.320695 3.000000
-0.227125 0.201279 0.395204 3.000000
-0.182679 -0.443740 0.029000 3.000000
0.053431 0.350908 0.272495 3.000000
-0.180617 -0.054610 -0.444166 3.000000
-0.251689 -0.285613 -0.343456 3.000000
-0.096273 0.258573 0.360743 3.000000
-0.255557 -0.378423 0.231693 3.000000
0.093657 -0.403736 0.184692 3.000000
0.285518 0.338840 0.287297 1.000000
0.165796 -0.444671 0.005819 3.000000
-0.002367 -0.124526 0.425120 3.000000
-0.182903 0.055054 0.439867 3.000000
-0.027508 0.377177 0.235534 3.000000
-0.226086 -0.348181 -0.279044 3.000000
-0.062474 0.259642 0.360016 3.000000
-0.252241 -0.438064 0.074779 3.000000
-0.208813 -0.378046 0.232331 3.000000
0.241538 -0.414878 0.158366 3.000000
-0.204219 -0.097357 -0.436502 3.000000
-0.037042 0.429994 -0.119697 3.000000
0.264920 -0.435859 0.086541 3.000000
0.205620 -0.335055 0.290428 3.000000
-0.175512 -0.274162 -0.352571 3.000000
0.146649 -0.161390 0.412725 3.000000
0.115329 0.155457 -0.419583 3.000000
-0.288005 -0.441266 -0.058914 4.000000
0.022760 0.405116 -0.188224 3.000000
0.147674 -0.406247 -0.183243 3.000000
-0.105082 0.432440 0.106423 3.000000
-0.047745 0.380710 -0.233913 3.000000
0.246107 0.419382 -0.153057 3.000000
-0.247212 -0.086338 -0.438965 3.000000
-0.140917 -0.442284 -0.048762 3.000000
-0.084621 0.438092 -0.085426 3.000000
0.039630 0.443558 -0.046127 3.000000
-0.111738 -0.253874 0.363240 3.000000
0.054130 0.442612 0.051778 3.000000
-0.100350 0.445676 -0.010828 3.000000
0.286497 0.377124 -0.239976 1.000000
0.159898 0.002430 -0.447551 3.000000
0.272417 -0.444467 0.012309 3.000000
-0.057202 -0.278373 -0.349304 3.000000
0.206924 0.320741 0.307224 3.000000
-0.060137 0.277272 -0.350953 3.000000
-0.232340 -0.441968 -0.052107 3.000000
-0.235573 -0.443164 0.035101 3.000000
-0.210731 0.227141 -0.385395 3.000000
0.270446 0.387216 0.218558 3.000000
0.241737 -0.313988 -0.317306 3.000000
-0.232326 -0.419009 -0.151247 3.000000
0.064721 -0.310570 0.316370 3.000000
-0.248062 -0.215969 0.387042 3.000000
-0.077492 0.402952 0.188661 3.000000
-0.093970 -0.378779 -0.235445 3.000000
-0.288907 0.274078 0.349077 4.000000
0.195304 -0.303504 -0.327683 3.000000
0.096558 -0.417307 -0.155973 3.000000
0.159331 0.168651 -0.414530 3.000000
-0.185189 -0.311577 -0.319717 3.000000
0.030407 0.277263 -0.350960 3.000000
-0.139684 -0.409363 0.171688 3.000000
-0.180423 -0.092157 0.433311 3.000000
-0.081413 -0.329460 -0.301126 3.000000
0.098235 0.414051 -0.167577 3.000000
0.119650 0.052262 -0.444485 3.000000
0.078972 -0.444288 0.018015 3.000000
-0.211938 0.310255 -0.322064 3.000000
0.227274 0.075894 0.436649 3.000000
0.178900 -0.372393 -0.245544 3.000000
-0.095809 0.305537 0.322428 3.000000
-0.240422 0.318773 0.309193 3.000000
0.043044 0.372352 -0.247112 3.000000
-0.149840 -0.148570 0.417340 3.000000
0.070358 -0.294748 0.331049 3.000000
0.002897 -0.275497 -0.351535 3.000000
0.267138 -0.390140 -0.216150 3.000000
-0.177692 -0.042819 0.440927 3.000000
-0.290110 0.154146 -0.420055 4.000000
0.031406 0.086953 -0.439057 3.000000
-0.204440 0.355745 0.266259 3.000000
0.127295 0.194477 0.398670 3.000000
-0.044649 -0.132731 0.422736 3.000000
0.250273 -0.377910 0.232560 3.000000
0.125329 -0.319594 -0.311700 3.000000
-0.121832 0.056363 0.439742 3.000000
-0.212157 0.121056 -0.430780 3.000000
0.055784 0.318220 -0.314099 3.000000
-0.148724 0.443684 -0.044797 3.000000
0.158675 0.442625 0.051644 3.000000
-0.247738 0.411010 0.170251 3.000000
-0.146053 0.221549 -0.388702 3.000000
-0.025076 0.438628 -0.082044 3.000000
0.118151 -0.247922 -0.371638 3.000000
-0.002084 -0.119445 -0.430950 3.000000
0.037084 0.116537 -0.432093 3.000000
-0.094209 -0.390618 0.210857 3.000000
0.028242 -0.248378 -0.371328 3.000000
-0.134159 0.038295 0.441452 3.000000
-0.186206 -0.213023 0.388699 3.000000
-0.259860 -0.419250 -0.150576 3.000000
-0.136219 0.331822 0.295256 3.000000
0.238680 0.444864 -0.032309 3.000000
-0.030165 0.336884 0.289515 3.000000
0.044404 0.286288 -0.343764 3.000000
0.150890 -0.138123 -0.425455 3.000000
0.116320 0.173598 0.408036 3.000000
-0.009712 0.279892 -0.348920 3.000000
0.185917 0.366625 -0.255539 3.000000
-0.061875 -0.191127 0.399855 3.000000
0.200097 0.417271 0.154566 3.000000
-0.279153 -0.377314 -0.237922 4.000000
-0.053503 -0.238350 0.373790 3.000000
0.217650 0.302788 -0.329217 3.000000
0.144561 -0.112460 -0.432979 3.000000
-0.152036 -0.083607 -0.439576 3.000000
0.051719 0.003073 -0.447531 3.000000
-0.078516 0.285231 -0.344696 3.000000
-0.170503 -0.384880 0.220775 3.000000
-0.207120 -0.437405 -0.083291 3.000000
0.002918 -0.006096 -0.447404 3.000000
-0.048818 0.213363 0.389047 3.000000
0.257175 -0.317847 0.309093 3.000000
-0.090310 -0.153381 -0.419961 3.000000
-0.091714 -0.017110 0.442704 3.000000
-0.275027 0.301350 0.326132 3.000000
0.021232 0.048395 -0.444850 3.000000
0.067791 0.373294 -0.245726 3.000000
-0.104844 -0.296692 -0.333688 3.000000
-0.182869 0.272409 0.350372 3.000000
-0.083961 0.258991 -0.364812 3.000000
0.151742 -0.103935 -0.435032 3.000000
0.037946 0.182027 0.404389 3.000000
0.165575 0.437033 -0.090228 3.000000
0.278360 -0.215415 -0.391723 1.000000
0.108423 0.166652 0.411042 3.000000
0.045155 0.127267 -0.428975 3.000000
-0.266346 0.252742 -0.369059 3.000000
-0.248882 0.320876 -0.311442 3.000000
0.267975 -0.108103 0.429747 3.000000
0.086783 0.293772 0.332813 3.000000
0.183396 0.419721 0.147762 3.000000
0.222797 0.119600 -0.431203 3.000000
-0.101023 -0.061221 -0.443164 3.000000
0.137441 -0.271487 -0.354645 3.000000
-0.048258 -0.197922 0.396393 3.000000
-0.268995 0.353984 -0.272883 3.000000
0.099046 -0.289264 0.335884 3.000000
0.285625 0.445438 -0.018400 1.000000
0.074265 -0.427086 0.121824 3.000000
0.115531 0.437351 0.084452 3.000000
0.264468 0.274256 0.348939 3.000000
0.085042 0.444544 0.031338 3.000000
0.283554 -0.437845 -0.080512 1.000000
0.281503 0.421425 -0.147383 1.000000
-0.265591 0.388669 -0.220455 3.000000
-0.208580 -0.158093 -0.418265 3.000000
0.236413 0.261306 0.358885 3.000000
0.271441 -0.138652 -0.425264 3.000000
-0.278011 0.194147 0.398838 3.000000
-0.052654 0.410284 0.171928 3.000000
-0.162968 -0.356462 -0.268368 3.000000
0.239287 0.432164 0.107655 3.000000
-0.040338 0.165492 -0.415897 3.000000
0.158249 0.337704 -0.292938 3.000000
-0.027485 0.312477 -0.319841 3.000000
0.065733 -0.380076 0.228899 3.000000
-0.111201 0.244047 0.370614 3.000000
0.002392 0.184032 -0.407874 3.000000
0.035453 0.365597 -0.257052 3.000000
0.072904 0.324448 0.303517 3.000000
-0.209532 -0.415979 0.155308 3.000000
0.162618 0.437346 0.084473 3.000000
0.208077 -0.061060 0.438836 3.000000
0.138656 -0.020336 0.442603 3.000000
-0.204958 -0.442900 -0.042243 3.000000
-0.223503 -0.296879 0.329170 3.000000
-0.059373 0.180113 0.405217 3.000000
-0.281604 0.027398 0.442413 3.000000
0.138442 0.363143 0.256309 3.000000
0.096864 0.244624 -0.374576 3.000000
-0.095148 0.049872 0.440357 3.000000
0.169833 -0.423796 -0.137502 3.000000
-0.156852 0.427842 -0.127103 3.000000
-0.220620 0.445850 -0.005265 3.000000
0.085067 -0.435639 0.087524 3.000000
-0.228013 0.232577 0.377826 3.000000
-0.043943 -0.312074 0.314866 3.000000
-0.096836 -0.322175 0.304766 3.000000
-0.135801 0.405150 -0.188147 3.000000
-0.055483 0.334496 0.292223 3.000000
-0.036570 -0.164611 -0.415835 3.000000
0.250372 -0.417017 0.152427 3.000000
-0.209282 -0.012492 0.442850 3.000000
0.262161 -0.306766 -0.324527 3.000000
0.166110 0.126065 0.424971 3.000000
0.119551 0.445487 -0.016842 3.000000
-0.288117 0.318996 0.308970 4.000000
0.190321 -0.295821 -0.334456 3.000000
0.179919 0.292074 -0.338663 3.000000
-0.251093 0.175253 0.407320 3.000000
0.213271 0.020035 0.442645 3.000000
0.000170 -0.393818 0.204577 3.000000
0.208027 -0.406145 -0.183479 3.000000
0.069515 -0.090591 -0.438015 3.000000
-0.024903 -0.164092 0.411706 3.000000
0.187318 -0.344888 0.278936 3.000000
0.123563 0.292224 0.334177 3.000000
0.049573 -0.254739 -0.367005 3.000000
0.221510 0.426621 -0.131306 3.000000
0.073033 -0.014933 -0.447126 3.000000
-0.030598 0.441979 0.056528 3.000000
-0.278579 0.429978 -0.119752 3.000000
0.258355 -0.400823 0.190829 3.000000
-0.001098 -0.044364 -0.445135 3.000000
-0.085712 0.062451 -0.443131 3.000000
0.170885 -0.306400 -0.324894 3.000000
-0.153179 -0.064454 0.438299 3.000000
0.273304 0.393999 -0.210587 3.000000
0.117415 0.395904 0.202495 3.000000
-0.099765 -0.093706 -0.437318 3.000000
0.239073 0.443865 0.038524 3.000000
0.267429 -0.410352 0.169404 3.000000
0.235149 0.099925 -0.436157 3.000000
0.035710 -0.444816 -0.005555 3.000000
-0.287097 -0.195763 0.397493 4.000000
0.151076 -0.437071 0.081049 3.000000
-0.142999 -0.122351 -0.430106 3.000000
0.241590 -0.352862 -0.273008 3.000000
0.200481 0.017760 0.442716 3.000000
-0.116196 0.391495 -0.215500 3.000000
0.127733 -0.054391 -0.444187 3.000000
-0.038493 -0.444647 -0.010950 3.000000
0.166570 -0.350091 0.272227 3.000000
-0.187668 0.311453 -0.320866 3.000000
0.075432 -0.173405 -0.412029 3.000000
0.108033 -0.442714 -0.044216 3.000000
0.129843 0.404409 -0.189858 3.000000
-0.148825 0.304460 -0.327743 3.000000
-0.189547 0.435912 -0.095241 3.000000
0.061093 0.437581 0.083422 3.000000
0.119878 -0.215240 -0.391827 3.000000
0.240312 -0.400302 -0.196206 3.000000
-0.116891 0.441302 -0.065156 3.000000
0.230789 -0.412473 0.164502 3.000000
-0.271412 0.397162 0.200026 3.000000
0.069189 -0.443686 -0.033930 3.000000
0.124442 0.363398 -0.260287 3.000000
0.137819 -0.121507 -0.430351 3.000000
-0.288772 0.445357 -0.020954 4.000000
0.125351 0.070016 -0.441933 3.000000
0.172305 0.062409 0.438785 3.000000
0.200931 0.434608 0.096723 3.000000
-0.210404 0.147271 0.418177 3.000000
-0.206160 -0.259234 -0.363951 3.000000
0.022062 0.420899 -0.148844 3.000000
-0.180971 0.323147 0.304818 3.000000
-0.288626 0.200194 -0.400111 4.000000
0.173668 0.403253 0.188071 3.000000
0.201246 0.392658 0.208865 3.000000
-0.189636 -0.219740 -0.389166 3.000000
-0.000252 0.443950 0.037621 3.000000
-0.246504 0.096740 0.432516 3.000000
0.164182 -0.409175 0.172123 3.000000
-0.287051 -0.396007 -0.204634 4.000000
0.048807 0.385683 -0.225504 3.000000
-0.055656 0.000659 0.443254 3.000000
0.038786 0.136875 0.421830 3.000000
0.259483 -0.399956 -0.196883 3.000000
-0.033585 -0.313751 0.313189 3.000000
-0.283625 -0.255349 0.362237 3.000000
0.015483 0.295205 0.331549 3.000000
-0.154182 0.214366 -0.392889 3.000000
0.007766 0.053241 -0.444392 3.000000
-0.133831 0.378303 -0.237982 3.000000
-0.194502 0.416278 -0.161678 3.000000
0.003018 0.118597 -0.431494 3.000000
-0.185911 -0.444614 0.007651 3.000000
0.207736 -0.168735 -0.414050 3.000000
-0.005548 0.151216 -0.421110 3.000000
0.131267 0.324480 0.303485 3.000000
0.199126 0.205953 -0.397176 3.000000
-0.269819 0.199807 0.395954 3.000000
0.236140 -0.271525 -0.354616 3.000000
0.157990 0.440953 -0.067364 3.000000
-0.223607 0.445606 0.008678 3.000000
-0.179084 -0.112255 -0.433039 3.000000
0.059805 -0.385299 -0.224420 3.000000
0.198970 -0.362157 -0.260606 3.000000
-0.045512 0.239267 -0.378216 3.000000
0.127727 0.112916 0.428791 3.000000
0.141992 0.428876 0.119191 3.000000
0.259667 -0.177093 -0.410433 3.000000
0.187588 -0.315824 -0.315470 3.000000
-0.120855 -0.370837 -0.247834 3.000000
-0.047188 -0.397093 -0.202503 3.000000
-0.146296 -0.250432 0.365579 3.000000
-0.138495 0.173013 0.408289 3.000000
0.171889 0.172013 0.408722 3.000000
0.172249 0.053498 -0.444368 3.000000
0.171961 0.429818 0.115950 3.000000
0.158020 -0.405417 0.180807 3.000000
0.192481 0.435382 -0.097612 3.000000
-0.226403 -0.444297 -0.022087 3.000000
0.160949 -0.419598 0.145258 3.000000
0.135497 0.436257 0.089347 3.000000
-0.007417 -0.422126 0.138236 3.000000
-0.131239 -0.434628 -0.096402 3.000000
-0.113876 -0.366892 -0.253638 3.000000
0.219541 0.442638 -0.055857 3.000000
-0.098681 -0.411348 0.167101 3.000000
-0.061873 -0.269743 -0.355998 3.000000
-0.256827 0.291716 -0.338979 3.000000
0.134876 -0.419749 0.144837 3.000000
-0.183036 0.434452 0.097419 3.000000
-0.000343 -0.370384 0.244146 3.000000
0.105239 0.436435 0.088547 3.000000
-0.276542 -0.243774 -0.374457 3.000000
0.238680 0.343002 -0.286929 3.000000
-0.043751 0.317252 -0.315067 3.000000
-0.054678 0.333901 -0.297252 3.000000
-0.041183 -0.415102 0.157746 3.000000
0.069685 -0.332894 0.292879 3.000000
-0.223635 0.292600 -0.338199 3.000000
0.252397 0.443018 0.047483 3.000000
0.271698 -0.124732 -0.429414 3.000000
-0.004250 0.381289 0.228581 3.000000
0.160314 0.201966 -0.399208 3.000000
-0.037689 -0.117277 -0.431580 3.000000
-0.125527 -0.402312 -0.192260 3.000000
-0.195934 -0.331207 -0.299146 3.000000
-0.116631 0.427539 0.123791 3.000000
0.238315 0.182376 -0.408591 3.000000
0.144642 0.443309 0.044410 3.000000
0.018204 -0.365790 -0.255260 3.000000
0.143221 0.407125 0.179229 3.000000
0.209485 -0.429597 -0.117536 3.000000
0.153421 0.404964 0.184222 3.000000
0.139788 0.123395 -0.430100 3.000000
0.240758 0.029904 0.442245 3.000000
0.171327 -0.444249 0.019251 3.000000
-0.095540 0.439901 -0.074002 3.000000
-0.257601 -0.424796 0.129708 3.000000
0.164198 0.107623 0.430083 3.000000
0.267573 0.425674 0.130212 3.000000
-0.192533 -0.444899 -0.001423 3.000000
-0.028347 -0.272085 0.349828 3.000000
-0.271421 -0.004432 -0.447456 3.000000
-0.061458 0.377434 0.235099 3.000000
-0.126093 -0.246614 -0.372527 3.000000
0.003688 0.406146 -0.185844 3.000000
-0.040955 0.417571 0.153735 3.000000
-0.015946 0.095038 0.432896 3.000000
0.184471 -0.397530 0.197292 3.000000
-0.072258 0.299850 -0.331807 3.000000
0.244896 0.443426 -0.047524 3.000000
0.081499 -0.016118 0.442736 3.000000
0.284864 -0.133850 0.422412 1.000000
-0.063226 0.409989 0.172611 3.000000
0.163409 -0.356765 0.263623 3.000000
-0.108543 -0.371776 -0.246452 3.000000
0.072462 0.440003 0.069003 3.000000
-0.161320 0.322970 0.304995 3.000000
0.197557 -0.444784 -0.006574 3.000000
-0.074804 -0.374634 0.237893 3.000000
0.072208 -0.100821 0.431375 3.000000
0.025814 0.036318 -0.445992 3.000000
-0.169348 -0.293431 0.332210 3.000000
-0.109608 0.287188 -0.342971 3.000000
-0.088878 0.124549 0.425411 3.000000
-0.124911 0.307987 0.319978 3.000000
-0.272630 -0.373383 -0.244087 3.000000
-0.148136 -0.009022 0.442959 3.000000
0.125918 0.300892 0.326536 3.000000
-0.078916 -0.220551 -0.388686 3.000000
0.254595 -0.201328 0.394657 3.000000
-0.152514 -0.443448 0.032090 3.000000
0.126427 0.331131 0.296041 3.000000
-0.143662 -0.371682 -0.246590 3.000000
-0.047575 -0.432085 -0.107776 3.000000
0.092282 -0.130111 -0.427851 3.000000
-0.011217 -0.271273 0.350458 3.000000
0.125149 0.445236 0.020449 3.000000
-0.264972 -0.281202 0.342756 3.000000
0.162511 -0.442592 0.041148 3.000000
-0.095190 0.312005 -0.320313 3.000000
0.283653 0.063218 0.438657 3.000000
-0.049602 0.105776 0.430496 3.000000
-0.098726 0.124192 0.425515 3.000000
0.040291 0.248547 0.367557 3.000000
-0.182655 0.433943 -0.104052 3.000000
0.084069 -0.360737 -0.262695 3.000000
0.151700 0.385351 0.221712 3.000000
-0.277327 0.339175 -0.291269 3.000000
0.179306 -0.434806 -0.095605 3.000000
-0.002929 0.300327 0.327033 3.000000
-0.287537 -0.182234 -0.408209 4.000000
-0.071537 0.326163 -0.306029 3.000000
0.233278 0.416338 -0.161512 3.000000
0.221588 0.409123 -0.178965 3.000000
0.135342 0.443124 -0.050714 3.000000
-0.209986 0.089957 0.434032 3.000000
-0.265558 -0.131137 0.423200 3.000000
0.106838 -0.362324 -0.260360 3.000000
0.085621 0.307794 -0.324524 3.000000
0.194283 -0.345628 -0.282334 3.000000
-0.161195 -0.423295 0.134873 3.000000
-0.153836 -0.025177 0.442451 3.000000
-0.013616 -0.436518 0.083594 3.000000
-0.281828 -0.228731 0.379495 3.000000
-0.011246 -0.173482 -0.411996 3.000000
0.210946 0.331305 -0.300196 3.000000
0.286060 0.067241 -0.442373 1.000000
0.080990 -0.241788 -0.375807 3.000000
-0.234092 0.298512 0.328633 3.000000
-0.165334 0.043809 0.440930 3.000000
-0.236898 -0.269719 -0.356017 3.000000
0.013903 -0.017601 0.442689 3.000000
-0.013222 0.443762 -0.043970 3.000000
0.083524 -0.045159 -0.445059 3.000000
0.248607 0.017006 -0.447093 3.000000
0.190518 -0.196513 0.397111 3.000000
0.024113 0.372379 0.242719 3.000000
0.161914 0.188446 0.401611 3.000000
-0.229701 -0.360057 -0.263695 3.000000
0.168385 -0.228827 -0.383792 3.000000
-0.192370 -0.433528 0.096971 3.000000
0.016875 -0.429444 0.113707 3.000000
-0.086838 0.315920 -0.316398 3.000000
0.271936 0.443677 0.040512 3.000000
0.097287 0.198643 0.396548 3.000000
0.163213 -0.441444 0.053291 3.000000
0.261564 -0.416186 0.154734 3.000000
-0.136678 -0.298620 -0.331988 3.000000
0.219630 -0.396479 0.199355 3.000000
0.206140 0.377483 0.235016 3.000000
-0.158593 -0.033881 0.441772 3.000000
0.231162 -0.242457 0.370999 3.000000
0.006906 -0.444141 -0.027055 3.000000
0.035453 0.444899 0.027584 3.000000
-0.030163 -0.374840 -0.241943 3.000000
-0.280823 0.349563 0.274229 3.000000
-0.005855 0.352506 -0.274789 3.000000
0.198093 -0.170784 0.408810 3.000000
0.095519 -0.376302 0.235280 3.000000
0.171606 -0.329552 -0.301022 3.000000
0.069915 0.445706 0.005517 3.000000
-0.058802 0.430153 -0.119149 3.000000
0.183516 -0.443935 0.026942 3.000000
0.285230 0.211062 -0.394573 1.000000
-0.270658 -0.262805 -0.361380 3.000000
-0.055663 -0.427178 -0.125860 3.000000
-0.209354 0.426513 0.127325 3.000000
-0.095935 0.442116 0.055668 3.000000
0.250296 0.190844 -0.404875 3.000000
0.108450 0.445503 0.011949 3.000000
-0.099769 -0.363923 0.253653 3.000000
0.242236 0.361687 0.258452 3.000000
-0.050516 -0.371514 0.242484 3.000000
0.186156 -0.256136 -0.366056 3.000000
-0.008471 0.082888 -0.439895 3.000000
0.109890 -0.409140 -0.176557 3.000000
-0.195060 -0.233273 0.376809 3.000000
-0.038422 -0.263741 -0.360654 3.000000
0.234061 0.396811 -0.205068 3.000000
0.005139 0.310926 0.317039 3.000000
0.204563 -0.429043 0.115088 3.000000
0.090417 0.340007 -0.290326 3.000000
0.174030 -0.424135 0.131983 3.000000
-0.247513 -0.022830 0.442525 3.000000
-0.003093 0.363930 -0.259504 3.000000
0.283034 0.197033 0.397368 1.000000
0.129730 0.351721 -0.275801 3.000000
0.218265 -0.393354 -0.209841 3.000000
-0.149673 -0.074566 0.436697 3.000000
0.117871 0.252329 0.364986 3.000000
0.163220 -0.291098 0.334267 3.000000
0.066305 0.069279 0.437697 3.000000
-0.242277 -0.280373 -0.347752 3.000000
-0.053083 0.189621 0.401102 3.000000
-0.103568 -0.388206 0.215152 3.000000
-0.083584 0.078215 0.436281 3.000000
-0.241736 0.422062 0.141259 3.000000
-0.179368 -0.360909 0.258088 3.000000
-0.179463 0.369726 0.246623 3.000000
0.266073 -0.037221 0.441456 3.000000
0.066296 0.320343 -0.311975 3.000000
0.109319 0.433016 -0.108197 3.000000
-0.164533 0.312154 -0.320165 3.000000
0.076372 -0.420095 -0.148229 3.000000
-0.038926 0.396978 0.200387 3.000000
0.193072 0.319414 -0.312905 3.000000
0.255077 -0.242456 -0.375353 3.000000
0.066563 -0.268298 0.352766 3.000000
-0.165578 -0.035240 -0.445997 3.000000
0.177057 -0.362060 0.256395 3.000000
0.204593 -0.309399 0.317542 3.000000
-0.116011 0.433426 0.102008 3.000000
0.070244 -0.317824 -0.313470 3.000000
-0.086231 0.360553 -0.264414 3.000000
-0.197066 0.383296 -0.229540 3.000000
-0.229100 0.089330 0.434172 3.000000
-0.268996 -0.437309 -0.083901 3.000000
0.186110 -0.143149 -0.423645 3.000000
0.063756 -0.434549 -0.096757 3.000000
-0.288060 -0.382836 -0.228585 4.000000
0.247374 -0.399257 0.193902 3.000000
0.235567 -0.433681 0.096286 3.000000
0.160968 0.191294 -0.404645 3.000000
-0.078345 0.125343 -0.429534 3.000000
0.056785 0.364293 0.254617 3.000000
0.108456 -0.417812 0.150217 3.000000
0.171392 -0.117584 0.427137 3.000000
0.285837 -0.097399 -0.436493 1.000000
-0.230801 -0.444296 0.017764 3.000000
0.093201 -0.214404 0.387968 3.000000
-0.044641 0.130427 -0.428057 3.000000
-0.210557 0.330566 0.296681 3.000000
-0.037659 0.440175 0.067921 3.000000
-0.059680 -0.440305 -0.064981 3.000000
-0.285577 -0.423147 -0.139736 4.000000
0.206849 0.170318 0.409456 3.000000
-0.206527 -0.402236 0.188055 3.000000
-0.195952 -0.309206 0.317734 3.000000
0.276946 -0.429270 0.114308 3.000000
0.087879 -0.180735 -0.408857 3.000000
0.036309 -0.380019 -0.233349 3.000000
0.044587 0.319291 -0.313027 3.000000
0.200109 0.424861 -0.137363 3.000000
-0.082776 0.289223 0.336823 3.000000
-0.135379 -0.431434 -0.110689 3.000000
0.082788 0.381679 0.227921 3.000000
0.068894 -0.427802 -0.123714 3.000000
-0.188793 0.015677 0.442782 3.000000
0.195547 -0.166340 -0.415087 3.000000
0.046840 -0.443035 -0.040816 3.000000
-0.155504 -0.023810 -0.446847 3.000000
-0.250393 -0.061325 0.438794 3.000000
0.082981 0.084137 -0.439686 3.000000
0.091602 0.024922 0.442491 3.000000
-0.100395 -0.178707 0.405382 3.000000
-0.209597 0.114535 0.428321 3.000000
0.017115 -0.380882 -0.231889 3.000000
-0.003046 -0.355829 0.264830 3.000000
0.181019 -0.057408 -0.443768 3.000000
0.215227 -0.304758 0.322182 3.000000
0.183962 0.392471 0.209232 3.000000
0.167708 0.135424 -0.426605 3.000000
0.271985 0.047379 0.440593 3.000000
-0.235707 0.122320 0.426059 3.000000
-0.284841 -0.198217 -0.400596 4.000000
0.197904 -0.366939 0.249215 3.000000
0.217238 -0.348856 -0.278173 3.000000
0.058941 0.268302 0.353558 3.000000
0.101939 0.175754 0.407103 3.000000
0.194280 0.009741 0.442968 3.000000
0.174789 -0.120034 -0.430779 3.000000
-0.270759 0.444518 -0.035971 3.000000
-0.217393 -0.064196 0.438339 3.000000
-0.045453 -0.306912 -0.324382 3.000000
-0.197661 0.445102 0.024714 3.000000
-0.041802 0.045134 0.440805 3.000000
-0.111750 0.409964 0.172667 3.000000
-0.110587 0.372889 -0.246322 3.000000
-0.037974 0.110862 0.429359 3.000000
0.241155 0.237525 -0.379254 3.000000
0.140322 0.106677 -0.434648 3.000000
-0.290043 0.295279 -0.335838 4.000000
0.119015 -0.417848 0.150117 3.000000
-0.212527 -0.310023 -0.321271 3.000000
-0.265856 -0.258605 0.360025 3.000000
-0.162886 -0.135665 -0.426238 3.000000
0.223922 0.261825 0.358533 3.000000
-0.178346 -0.366950 0.249200 3.000000
0.164025 -0.414277 -0.164389 3.000000
0.065949 -0.249195 -0.370773 3.000000
0.246575 0.175136 0.407371 3.000000
0.106960 -0.308948 0.317993 3.000000
0.093578 0.002922 0.443183 3.000000
-0.113559 -0.057182 0.439450 3.000000
0.197534 -0.360738 0.258339 3.000000
-0.064205 -0.307704 -0.323589 3.000000
-0.176485 0.223948 -0.387283 3.000000
0.236804 -0.283369 0.341075 3.000000
0.015664 -0.444495 -0.015794 3.000000
-0.026794 0.445070 -0.030088 3.000000
0.228260 0.189279 -0.405604 3.000000
0.085216 0.445266 -0.023844 3.000000
-0.260515 -0.444466 -0.016699 3.000000
0.133312 -0.401733 0.189043 3.000000
0.035154 -0.134458 0.422235 3.000000
0.201461 -0.194434 0.398170 3.000000
-0.088913 0.288543 -0.341776 3.000000
-0.093647 0.434362 0.097824 3.000000
-0.188657 -0.405450 0.180730 3.000000
-0.017701 0.356643 0.265102 3.000000
0.227880 0.180623 0.404996 3.000000
0.242877 0.066590 -0.442476 3.000000
-0.228641 0.439418 -0.077054 3.000000
-0.283673 -0.340980 -0.288060 4.000000
0.108730 -0.026210 -0.446772 3.000000
-0.122125 -0.430999 0.108282 3.000000
-0.151814 0.364500 -0.258666 3.000000
0.141923 0.163910 -0.416540 3.000000
0.131892 -0.183162 -0.407807 3.000000
0.184581 0.392074 -0.214364 3.000000
0.251009 0.282710 0.342381 3.000000
-0.174220 0.317241 0.310724 3.000000
-0.203071 -0.045980 -0.444982 3.000000
-0.203897 -0.366318 -0.254482 3.000000
0.240041 0.398957 0.196503 3.000000
-0.122083 0.122157 0.426106 3.000000
0.022800 0.374110 -0.244525 3.000000
0.231504 -0.356674 -0.268095 3.000000
-0.256350 0.285126 0.340435 3.000000
0.121798 0.004227 0.443142 3.000000
-0.042894 -0.218829 0.385351 3.000000
0.142608 0.341316 -0.288841 3.000000
0.104471 -0.440001 0.062547 3.000000
0.160306 0.350993 0.272386 3.000000
-0.178944 0.176419 0.406815 3.000000
-0.266006 0.414759 -0.165899 3.000000
0.210259 0.275418 -0.352391 3.000000
-0.114690 -0.444058 0.025328 3.000000
0.087827 -0.343644 -0.284893 3.000000
0.097466 0.443235 -0.049546 3.000000
0.193371 0.418912 -0.154364 3.000000
-0.240719 -0.390941 -0.214577 3.000000
-0.070777 -0.348735 -0.278329 3.000000
-0.204856 0.432769 0.104947 3.000000
-0.245770 -0.281312 0.342671 3.000000
0.021933 -0.369304 0.245736 3.000000
-0.032135 -0.361750 0.256850 3.000000
0.000663 -0.402545 0.187445 3.000000
0.241236 0.323365 -0.308954 3.000000
0.272042 -0.048549 0.440386 3.000000
0.286404 0.427790 -0.127283 1.000000
0.000320 -0.296126 0.329834 3.000000
-0.123780 0.242524 -0.376003 3.000000
0.020689 -0.270624 -0.355315 3.000000
-0.220822 -0.100653 0.431412 3.000000
0.082145 -0.439061 -0.072838 3.000000
0.082623 0.163853 -0.416560 3.000000
0.084918 0.417053 0.155173 3.000000
-0.048723 0.445768 0.003523 3.000000
0.164059 0.432348 -0.111188 3.000000
-0.071347 -0.003896 -0.447473 3.000000
-0.186460 -0.444662 -0.010458 3.000000
0.137283 0.366082 -0.256337 3.000000
0.165660 -0.316533 -0.314761 3.000000
-0.109157 0.309131 0.318834 3.000000
-0.286209 -0.428020 -0.122962 4.000000
-0.142145 -0.336856 0.288385 3.000000
0.186190 -0.300389 0.326075 3.000000
0.022163 -0.331227 -0.299122 3.000000
-0.017719 0.445770 0.003454 3.000000
-0.201881 0.330801 -0.300769 3.000000
0.266358 0.139944 0.420815 3.000000
-0.064802 0.295455 0.331328 3.000000
0.106194 -0.181983 -0.408317 3.000000
0.211106 -0.106388 0.430130 3.000000
-0.124288 0.136970 -0.426156 3.000000
0.157839 -0.396760 -0.203157 3.000000
0.055817 -0.144698 -0.423088 3.000000
0.117524 0.116458 0.427762 3.000000
-0.085129 -0.299617 -0.331109 3.000000
0.045972 -0.434250 -0.098094 3.000000
-0.137264 0.218523 0.386138 3.000000
-0.019509 -0.399928 0.192585 3.000000
-0.107597 0.436827 -0.091147 3.000000
-0.141580 -0.086498 -0.438930 3.000000
-0.184398 0.445926 -0.002871 3.000000
-0.244543 0.010910 -0.447285 3.000000
-0.159892 -0.176173 0.406478 3.000000
0.201662 -0.443363 -0.037350 3.000000
-0.244973 -0.432706 -0.105001 3.000000
-0.243810 0.435267 -0.098129 3.000000
-0.251396 -0.194801 0.397983 3.000000
-0.172911 -0.236355 -0.379340 3.000000
0.148359 0.393721 -0.211133 3.000000
0.039766 0.401106 -0.196638 3.000000
0.077388 -0.047906 0.440446 3.000000
-0.004650 -0.442510 -0.046367 3.000000
0.181345 0.240893 0.372758 3.000000
-0.145451 -0.064269 -0.442681 3.000000
0.229565 0.434892 -0.099805 3.000000
-0.000020 -0.412064 -0.169800 3.000000
0.173157 0.424223 0.135207 3.000000
0.243307 0.328960 0.298503 3.000000
-0.039399 -0.387938 0.215604 3.000000
0.232197 -0.403427 -0.189759 3.000000
0.028722 0.233444 0.377314 3.000000
-0.071997 -0.444876 -0.000698 3.000000
0.012696 0.087406 0.434602 3.000000
-0.274015 -0.286384 -0.342776 3.000000
0.269958 -0.444624 -0.011677 3.000000
0.118987 0.088173 -0.438784 3.000000
0.213097 0.204490 0.393568 3.000000
0.162787 0.443803 -0.043532 3.000000
-0.077552 0.445690 -0.010358 3.000000
-0.245788 0.263893 0.356977 3.000000
0.140024 0.290068 -0.340431 3.000000
0.085534 0.423425 -0.141828 3.000000
0.026910 -0.264127 0.356001 3.000000
0.264668 -0.335067 -0.294767 3.000000
0.283663 -0.218487 0.385553 3.000000
-0.098970 -0.315040 0.311900 3.000000
0.269796 0.054942 -0.444231 3.000000
-0.203909 -0.444077 0.024748 3.000000
0.123603 -0.163985 0.411753 3.000000
-0.181635 0.405849 -0.186529 3.000000
0.237603 -0.353919 0.267292 3.000000
-0.039988 0.038816 -0.445756 3.000000
-0.247210 -0.310855 -0.320439 3.000000
-0.201551 -0.122548 -0.430049 3.000000
0.162266 -0.438446 -0.076719 3.000000
-0.278111 -0.216761 -0.390927 3.000000
-0.144543 0.010974 -0.447283 3.000000
-0.176338 0.428147 0.121698 3.000000
0.146237 0.434241 0.098362 3.000000
-0.262209 0.443945 -0.042030 3.000000
-0.267599 0.445326 -0.021957 3.000000
0.054360 0.445628 0.007989 3.000000
-0.068596 -0.227770 -0.384417 3.000000
0.136325 0.265927 -0.359753 3.000000
-0.027763 -0.442404 -0.047488 3.000000
-0.050651 0.167138 -0.415185 3.000000
-0.111396 -0.100541 0.431437 3.000000
-0.048534 0.419380 -0.153062 3.000000
-0.144989 -0.441378 -0.058210 3.000000
-0.088292 -0.274683 -0.352166 3.000000
0.035726 -0.012605 -0.447200 3.000000
0.194155 0.041865 -0.445468 3.000000
-0.265473 0.300945 0.326489 3.000000
-0.083349 0.442416 0.053773 3.000000
-0.229219 0.061254 -0.443321 3.000000
-0.037314 0.349045 -0.279250 3.000000
-0.025266 0.334792 -0.296241 3.000000
-0.142911 -0.255134 -0.366737 3.000000
0.096282 0.128807 -0.428528 3.000000
0.023796 -0.149997 0.416826 3.000000
-0.232078 -0.338596 -0.290764 3.000000
0.011720 -0.402211 0.188104 3.000000
0.251642 0.236791 -0.379688 3.000000
0.039695 0.404830 0.184531 3.000000
-0.276149 -0.444610 -0.012123 3.000000
0.189032 -0.207341 0.391594 3.000000
0.141999 0.127530 0.424545 3.000000
-0.213086 -0.330967 0.295064 3.000000
0.265344 -0.439731 0.064254 3.000000
-0.186226 0.373852 -0.244905 3.000000
-0.131474 0.138405 0.421369 3.000000
-0.008926 -0.017546 0.442691 3.000000
0.214842 0.413136 -0.169691 3.000000
-0.236698 -0.285732 0.338997 3.000000
-0.166123 -0.095531 0.432557 3.000000
0.260452 0.442464 0.053349 3.000000
0.143283 -0.300671 -0.330181 3.000000
-0.153285 -0.052255 -0.444389 3.000000
0.190340 0.023587 0.442533 3.000000
-0.232927 -0.382091 0.225492 3.000000
-0.115000 0.435792 0.091426 3.000000
0.108707 -0.278880 -0.348911 3.000000
-0.017898 -0.426768 0.122919 3.000000
0.024199 -0.232174 0.377459 3.000000
0.133439 -0.436284 -0.088993 3.000000
-0.263620 0.386978 0.218960 3.000000
-0.071585 0.040864 0.441209 3.000000
0.267913 -0.243741 0.370126 3.000000
-0.002719 0.445816 0.002001 3.000000
0.075688 0.413561 0.164355 3.000000
-0.073907 0.225825 -0.386173 3.000000
0.275561 0.202934 0.394361 3.000000
-0.272621 -0.357635 0.262501 3.000000
-0.173009 0.106286 -0.434735 3.000000
-0.084532 0.362763 0.256868 3.000000
0.238309 -0.408936 0.172676 3.000000
0.056997 0.424731 -0.137812 3.000000
-0.165152 -0.444063 0.025190 3.000000
-0.045474 -0.056752 0.439518 3.000000
0.096695 0.226712 0.381295 3.000000
-0.222593 -0.089740 -0.438205 3.000000
0.104949 0.442159 -0.059747 3.000000
0.170692 0.270706 0.351693 3.000000
-0.111849 -0.313376 0.313564 3.000000
0.238676 -0.395384 0.201504 3.000000
-0.234824 -0.101414 0.431242 3.000000
-0.175702 -0.439701 -0.068798 3.000000
0.251839 0.399344 0.195742 3.000000
-0.037600 0.098616 -0.436450 3.000000
0.041659 0.330137 -0.301522 3.000000
0.211108 -0.419905 -0.148757 3.000000
-0.276896 0.386332 0.220054 3.000000
-0.135758 0.305473 -0.326845 3.000000
0.180522 -0.411114 0.167642 3.000000
0.206510 0.397603 0.199160 3.000000
0.065593 -0.418209 -0.153468 3.000000
0.207474 0.171624 -0.413244 3.000000
0.186475 0.443077 0.046858 3.000000
-0.060991 -0.294425 -0.335687 3.000000
0.091582 -0.398854 0.194694 3.000000
0.050972 0.013753 -0.447196 3.000000
-0.290132 0.414052 0.163221 4.000000
-0.082571 -0.026172 0.442420 3.000000
-0.287854 -0.118145 -0.431328 4.000000
-0.157072 0.304083 0.323722 3.000000
-0.081113 -0.439025 -0.073065 3.000000
0.273449 0.303742 0.324023 3.000000
0.149553 0.441727 0.058122 3.000000
0.131560 -0.194219 -0.402633 3.000000
-0.071695 0.143166 0.419655 3.000000
-0.083591 0.393657 -0.211257 3.000000
0.206288 0.299777 -0.331872 3.000000
0.165075 -0.281471 -0.346901 3.000000
0.035577 -0.391571 0.208987 3.000000
-0.048893 0.080318 0.435948 3.000000
-0.100388 -0.203396 0.393604 3.000000
0.086593 0.092585 0.433445 3.000000
0.226546 -0.419564 -0.149705 3.000000
-0.134624 0.324471 -0.307848 3.000000
0.256842 0.440694 0.064644 3.000000
-0.057102 0.097510 0.432344 3.000000
0.100733 -0.443827 -0.032437 3.000000
-0.282908 0.390322 0.213307 4.000000
-0.168882 -0.408604 -0.177797 3.000000
-0.089209 -0.433407 0.097511 3.000000
-0.141644 0.442850 -0.053614 3.000000
-0.094035 -0.265626 0.354838 3.000000
0.153724 0.443351 -0.048311 3.000000
0.058168 0.106464 0.430342 3.000000
0.276259 -0.082648 0.435417 3.000000
0.055460 0.234971 0.376411 3.000000
-0.100762 0.372775 -0.246489 3.000000
-0.121843 -0.039153 -0.445627 3.000000
-0.278611 0.030978 -0.446497 4.000000
-0.059502 -0.064281 0.438326 3.000000
-0.131273 0.362691 0.256974 3.000000
-0.250185 0.102567 -0.435567 3.000000
0.171757 0.315080 -0.317239 3.000000
0.161673 -0.051051 -0.444502 3.000000
0.121890 -0.338256 -0.291150 3.000000
-0.259194 0.122164 0.426104 3.000000
0.250676 0.183506 0.403749 3.000000
-0.156080 -0.295613 0.330286 3.000000
0.058012 -0.444758 0.003070 3.000000
0.069979 0.390011 0.213832 3.000000
0.115970 0.404011 0.186425 3.000000
-0.199919 0.000165 -0.447601 3.000000
-0.120694 -0.397886 -0.200948 3.000000
0.091280 -0.002336 -0.447522 3.000000
-0.088772 -0.437269 -0.084152 3.000000
0.138196 -0.443999 -0.030617 3.000000
-0.258338 -0.314091 -0.317202 3.000000
-0.289314 -0.362905 -0.259505 4.000000
-0.141125 -0.190069 0.400394 3.000000
-0.104431 -0.045947 -0.444985 3.000000
0.257442 0.320929 0.307036 3.000000
0.284802 -0.433249 0.098215 1.000000
-0.162994 0.070908 -0.441792 3.000000
-0.205832 -0.153061 0.415724 3.000000
-0.114062 0.442518 0.052777 3.000000
0.285351 -0.372802 0.240588 1.000000
0.188802 0.165099 0.411714 3.000000
-0.245175 0.420905 -0.148826 3.000000
0.021297 0.244330 -0.374776 3.000000
-0.156824 -0.394961 -0.206687 3.000000
-0.022370 0.438369 0.079320 3.000000
-0.065550 0.042864 -0.445373 3.000000
0.197907 0.400534 0.193408 3.000000
-0.174160 0.323789 -0.308529 3.000000
-0.232095 -0.309347 0.317593 3.000000
0.001983 -0.333594 -0.296438 3.000000
-0.116148 -0.443354 -0.037443 3.000000
0.054266 0.441465 -0.064126 3.000000
-0.036427 -0.344420 0.279538 3.000000
-0.187208 0.437234 0.084974 3.000000
-0.260823 -0.107220 0.429944 3.000000
-0.109615 0.378881 -0.237005 3.000000
0.105868 0.241036 -0.377014 3.000000
0.057526 -0.016567 0.442722 3.000000
-0.012430 -0.444366 0.015524 3.000000
0.183461 0.441482 -0.064019 3.000000
0.106963 -0.089720 0.433856 3.000000
0.084262 -0.441826 0.049253 3.000000
-0.012701 0.310961 -0.321358 3.000000
-0.221315 -0.444916 -0.001968 3.000000
0.078085 0.248009 0.367922 3.000000
0.069564 0.083982 0.435368 3.000000
