0.286960 0.447725 0.114051 1.000000
0.286960 -0.470217 0.120549 1.000000
0.286960 -0.443145 0.183292 1.000000
0.286960 -0.480490 -0.095035 1.000000
0.286960 -0.271848 0.352955 1.000000
0.286960 -0.484215 0.015039 1.000000
0.286960 -0.042151 -0.445784 1.000000
0.286960 0.263144 0.361593 1.000000
0.286960 -0.468444 0.057699 1.000000
0.286960 0.104546 0.433601 1.000000
0.286960 0.258745 -0.427120 1.000000
0.286960 -0.419078 0.159925 1.000000
0.286960 0.206227 0.409800 1.000000
0.286960 0.469241 0.132949 1.000000
0.286960 -0.493818 0.037825 1.000000
0.286960 0.032144 0.494474 1.000000
0.286960 0.443750 0.100720 1.000000
0.286960 0.339256 -0.326126 1.000000
0.286960 0.398147 0.255488 1.000000
0.286960 -0.391773 -0.240970 1.000000
0.286960 0.494138 0.005954 1.000000
0.286960 0.268321 -0.363530 1.000000
0.286960 -0.387447 0.299931 1.000000
0.286960 -0.377999 0.234446 1.000000
0.286960 -0.410159 -0.257878 1.000000
0.286960 0.301636 0.387467 1.000000
0.286960 0.375557 0.323634 1.000000
0.286960 -0.033218 0.481589 1.000000
0.286960 0.044017 -0.466344 1.000000
0.286960 -0.439022 -0.098867 1.000000
0.286960 0.434208 0.205148 1.000000
0.286960 -0.335418 0.316164 1.000000
0.286960 -0.411095 0.277789 1.000000
0.286960 -0.031530 -0.452259 1.000000
0.286960 0.406370 0.258474 1.000000
0.286960 0.471584 -0.068258 1.000000
0.286960 -0.044095 -0.494031 1.000000
0.286960 0.493306 -0.019832 1.000000
0.286960 -0.025330 0.477967 1.000000
0.286960 0.290426 0.345056 1.000000
0.286960 -0.437475 0.093134 1.000000
0.286960 -0.405982 -0.264509 1.000000
0.286960 -0.467588 -0.024031 1.000000
0.286960 -0.326266 -0.362353 1.000000
0.286960 0.194507 -0.437758 1.000000
0.286960 0.103289 0.443845 1.000000
0.286960 -0.024072 0.442735 1.000000
0.286960 -0.116167 -0.485320 1.000000
0.286960 0.461438 -0.083164 1.000000
0.286960 0.274845 0.368840 1.000000
0.286960 -0.362704 -0.314700 1.000000
0.286960 -0.412198 0.178031 1.000000
0.286960 0.183982 -0.437622 1.000000
0.286960 0.457638 0.173489 1.000000
0.286960 0.467932 0.150786 1.000000
0.286960 -0.255850 -0.394541 1.000000
0.286960 0.157187 -0.455894 1.000000
0.286960 -0.105966 0.449647 1.000000
0.286960 0.416456 -0.255304 1.000000
0.286960 0.321606 0.353321 1.000000
0.286960 -0.372022 -0.319317 1.000000
0.286960 0.464559 0.099913 1.000000
0.286960 -0.475930 0.018177 1.000000
0.286960 -0.266993 -0.419684 1.000000
0.286960 0.480161 0.060407 1.000000
0.286960 -0.349472 0.317524 1.000000
0.286960 -0.400099 0.282185 1.000000
0.286960 -0.115139 -0.459047 1.000000
0.286960 0.455397 0.146949 1.000000
0.286960 -0.421291 0.228042 1.000000
0.286960 0.189779 0.439746 1.000000
0.286960 -0.165811 -0.418685 1.000000
0.286960 0.472594 -0.105310 1.000000
0.286960 -0.081351 0.460225 1.000000
0.286960 -0.058494 -0.460766 1.000000
0.286960 -0.452642 -0.064920 1.000000
0.286960 0.213515 0.394787 1.000000
0.286960 0.328166 0.345403 1.000000
0.286960 0.176765 -0.463728 1.000000
0.286960 -0.474621 0.042271 1.000000
0.286960 0.271556 -0.394177 1.000000
0.286960 -0.091927 -0.446585 1.000000
0.286960 -0.449014 0.037890 1.000000
0.286960 -0.404111 0.232162 1.000000
0.286960 0.142687 -0.424909 1.000000
0.286960 0.178008 -0.454072 1.000000
0.286960 -0.145516 -0.469418 1.000000
0.286960 0.018664 -0.495933 1.000000
0.286960 0.358203 -0.286831 1.000000
0.286960 -0.095222 0.456499 1.000000
0.286960 0.444919 -0.103182 1.000000
0.286960 -0.301331 -0.341395 1.000000
0.286960 -0.297043 -0.349419 1.000000
0.286960 0.060628 -0.452443 1.000000
0.286960 0.071592 -0.478784 1.000000
0.286960 -0.203452 0.417587 1.000000
0.286960 -0.419370 0.247689 1.000000
0.286960 0.445817 0.118947 1.000000
0.286960 0.416623 -0.175649 1.000000
0.286960 0.461534 0.177563 1.000000
0.286960 0.398981 -0.224179 1.000000
0.286960 -0.100452 0.431485 1.000000
0.286960 0.221386 -0.433134 1.000000
0.286960 -0.242191 -0.426872 1.000000
0.286960 0.153709 -0.446546 1.000000
0.286960 0.084849 0.457677 1.000000
0.286960 0.479997 0.041535 1.000000
0.286960 0.036182 -0.465636 1.000000
0.286960 -0.464288 -0.174913 1.000000
0.286960 0.454671 -0.123285 1.000000
0.286960 -0.133722 0.437895 1.000000
0.286960 0.456946 -0.180157 1.000000
0.286960 -0.372502 0.280518 1.000000
0.286960 -0.322634 -0.318413 1.000000
0.286960 0.434989 0.136212 1.000000
0.286960 -0.052088 0.467913 1.000000
0.286960 -0.116522 0.434722 1.000000
0.286960 0.445377 -0.119637 1.000000
0.286960 0.073792 -0.476156 1.000000
0.286960 0.476159 -0.141728 1.000000
0.286960 -0.003651 -0.462775 1.000000
0.286960 0.038738 0.485128 1.000000
0.286960 0.071723 -0.458505 1.000000
0.286960 -0.112714 -0.454743 1.000000
0.286960 -0.345378 0.332772 1.000000
0.286960 -0.392669 0.249157 1.000000
0.286960 0.463414 -0.169736 1.000000
0.286960 0.041383 -0.454866 1.000000
0.286960 -0.126279 0.445686 1.000000
0.286960 0.476489 0.119879 1.000000
0.286960 0.203630 0.443100 1.000000
0.286960 0.196397 -0.423444 1.000000
0.286960 -0.401653 0.255171 1.000000
0.286960 -0.283460 0.346630 1.000000
0.286960 -0.383443 -0.269533 1.000000
0.286960 0.276597 -0.359649 1.000000
0.286960 -0.394154 -0.257271 1.000000
0.286960 -0.224293 0.429872 1.000000
0.286960 -0.131118 -0.433640 1.000000
0.286960 0.158497 -0.449259 1.000000
0.286960 0.075796 0.446861 1.000000
0.286960 0.009226 -0.456220 1.000000
0.286960 -0.035198 -0.484680 1.000000
0.286960 0.336394 0.360253 1.000000
0.286960 -0.116207 0.454084 1.000000
0.286960 -0.111928 -0.442764 1.000000
0.286960 -0.041215 -0.450183 1.000000
0.286960 -0.326549 -0.352454 1.000000
0.286960 -0.205288 -0.419709 1.000000
0.286960 0.372899 0.321392 1.000000
0.286960 0.342027 0.320229 1.000000
0.286960 -0.075442 -0.441052 1.000000
0.286960 0.379808 -0.243211 1.000000
0.286960 -0.466638 0.107588 1.000000
0.286960 0.013583 0.474053 1.000000
0.286960 0.466680 -0.131499 1.000000
0.286960 -0.388593 -0.300857 1.000000
0.286960 0.173578 -0.435366 1.000000
0.286960 -0.202170 0.397932 1.000000
0.286960 0.310794 -0.376298 1.000000
0.286960 0.434834 -0.189518 1.000000
0.286960 0.380207 -0.299797 1.000000
0.286960 -0.196204 -0.413895 1.000000
0.286960 -0.034846 -0.469948 1.000000
0.286960 -0.458910 -0.095736 1.000000
0.286960 -0.466507 -0.090715 1.000000
0.286960 0.215882 0.387865 1.000000
0.286960 -0.057913 0.455363 1.000000
0.286960 -0.464550 -0.099727 1.000000
0.286960 -0.417025 -0.226984 1.000000
0.286960 -0.440755 0.061592 1.000000
0.286960 0.410629 -0.263164 1.000000
0.286960 -0.038662 0.468265 1.000000
0.286960 -0.213345 0.394193 1.000000
0.286960 0.436691 0.196545 1.000000
0.286960 0.151697 0.425331 1.000000
0.286960 -0.342125 -0.307187 1.000000
0.286960 -0.401271 -0.256418 1.000000
0.286960 -0.051228 0.446895 1.000000
0.286960 0.474140 0.042811 1.000000
0.286960 -0.422744 0.213122 1.000000
0.286960 0.153880 0.445448 1.000000
0.286960 -0.437249 0.127268 1.000000
0.286960 0.395704 0.285806 1.000000
0.286960 -0.447630 0.086663 1.000000
0.286960 0.440704 -0.087965 1.000000
0.286960 0.241586 0.392681 1.000000
0.286960 0.466617 -0.104164 1.000000
0.286960 -0.477938 0.020553 1.000000
0.286960 0.033555 0.444969 1.000000
0.286960 0.052028 0.453415 1.000000
0.286960 -0.297668 0.338253 1.000000
0.286960 0.454778 -0.012299 1.000000
0.286960 -0.478641 0.100547 1.000000
0.286960 0.204400 -0.437428 1.000000
0.286960 0.163504 -0.471138 1.000000
0.286960 -0.091595 -0.470182 1.000000
0.286960 -0.196446 -0.435825 1.000000
0.286960 0.484156 0.047286 1.000000
0.286960 -0.359192 0.321112 1.000000
0.286960 -0.238598 0.376842 1.000000
0.286960 0.439565 0.213056 1.000000
0.286960 -0.376060 0.254320 1.000000
0.286960 0.470596 0.002125 1.000000
0.286960 0.090318 -0.477333 1.000000
0.286960 0.316936 -0.386267 1.000000
0.286960 -0.458043 0.069719 1.000000
0.286960 0.209507 0.399592 1.000000
0.286960 -0.269097 0.398048 1.000000
0.286960 -0.460305 0.132335 1.000000
0.286960 -0.443715 0.101601 1.000000
0.286960 -0.459301 0.095139 1.000000
0.286960 -0.358047 0.329005 1.000000
0.286960 0.487251 0.011357 1.000000
0.286960 -0.164188 0.431331 1.000000
0.286960 -0.436116 0.086373 1.000000
0.286960 -0.267166 -0.397702 1.000000
0.286960 -0.477589 0.068225 1.000000
0.286960 0.258357 0.402353 1.000000
0.286960 -0.233319 -0.383602 1.000000
0.286960 -0.464540 -0.041754 1.000000
0.286960 0.343623 -0.320507 1.000000
0.286960 0.208679 0.423214 1.000000
0.286960 -0.478634 0.093284 1.000000
0.286960 0.283771 -0.411554 1.000000
0.286960 0.465953 0.134884 1.000000
0.286960 0.466846 -0.065436 1.000000
0.286960 -0.389691 -0.263977 1.000000
0.286960 0.480885 -0.131743 1.000000
0.286960 -0.065438 0.444239 1.000000
0.286960 0.442517 0.116285 1.000000
0.286960 -0.096455 0.435378 1.000000
0.286960 -0.494131 -0.008733 1.000000
0.286960 -0.209720 0.404094 1.000000
0.286960 -0.355577 -0.282281 1.000000
0.286960 -0.448420 0.023555 1.000000
0.286960 0.347221 0.335934 1.000000
0.286960 0.007957 -0.494361 1.000000
0.286960 0.455390 0.120200 1.000000
0.286960 0.447509 0.005641 1.000000
0.286960 -0.194474 0.451936 1.000000
0.286960 0.455693 -0.145027 1.000000
0.286960 -0.380388 0.266617 1.000000
0.286960 0.194759 0.419301 1.000000
0.286960 -0.435542 -0.167953 1.000000
0.286960 0.381283 0.281292 1.000000
0.286960 -0.163505 0.457019 1.000000
0.286960 -0.457323 -0.003573 1.000000
0.286960 -0.249019 -0.386541 1.000000
0.286960 0.123000 -0.475630 1.000000
0.286960 0.395102 -0.220983 1.000000
0.286960 -0.235215 0.395585 1.000000
0.286960 -0.481161 0.122171 1.000000
0.286960 0.414080 -0.210520 1.000000
0.286960 0.060655 -0.476877 1.000000
0.286960 0.103033 0.457938 1.000000
0.286960 0.123402 -0.430203 1.000000
0.286960 -0.452617 -0.003144 1.000000
0.286960 -0.478208 -0.012890 1.000000
0.286960 0.008602 0.490821 1.000000
0.286960 0.292748 -0.368776 1.000000
0.286960 0.050773 0.449834 1.000000
0.286960 0.422757 0.220261 1.000000
0.286960 -0.345968 0.340021 1.000000
0.286960 0.447896 0.080421 1.000000
0.286960 -0.173135 -0.449001 1.000000
0.286960 0.462981 -0.092287 1.000000
0.286960 0.427320 -0.185019 1.000000
0.286960 0.475255 -0.054529 1.000000
0.286960 -0.423009 0.217915 1.000000
0.286960 0.448099 -0.066613 1.000000
0.286960 -0.175637 0.419909 1.000000
0.286960 -0.014724 0.457771 1.000000
0.286960 -0.270975 -0.356477 1.000000
0.286960 0.242744 0.383474 1.000000
0.286960 0.217841 -0.392819 1.000000
0.286960 0.459202 0.167184 1.000000
0.286960 -0.337594 -0.341545 1.000000
0.286960 -0.339237 -0.294686 1.000000
0.286960 0.081623 0.485205 1.000000
0.286960 0.359751 -0.289774 1.000000
0.286960 0.408897 -0.221444 1.000000
0.286960 0.075832 0.440499 1.000000
0.286960 -0.489572 0.060594 1.000000
0.286960 -0.016905 0.484216 1.000000
0.286960 -0.336840 -0.368123 1.000000
0.286960 -0.369738 0.283340 1.000000
0.286960 0.400207 -0.259594 1.000000
0.286960 -0.254864 -0.408165 1.000000
0.286960 -0.222229 -0.409128 1.000000
0.286960 -0.222193 0.443053 1.000000
0.286960 0.325196 0.372703 1.000000
0.286960 0.385650 0.279143 1.000000
0.286960 -0.350339 -0.312407 1.000000
0.286960 -0.028982 -0.480651 1.000000
0.286960 0.333626 0.367107 1.000000
0.286960 0.239037 0.433744 1.000000
0.286960 0.418530 0.168604 1.000000
0.286960 -0.392308 0.255266 1.000000
0.286960 0.154597 0.435563 1.000000
0.286960 0.202871 0.436097 1.000000
0.286960 -0.161145 -0.455362 1.000000
0.286960 -0.302651 -0.365625 1.000000
0.286960 -0.216022 -0.419421 1.000000
0.286960 -0.392845 -0.236126 1.000000
0.286960 0.138705 0.449064 1.000000
0.286960 -0.333375 -0.352286 1.000000
0.286960 0.141091 0.420887 1.000000
0.286960 -0.036778 0.445336 1.000000
0.286960 -0.187160 0.450407 1.000000
0.286960 -0.450928 -0.047263 1.000000
0.286960 -0.309577 0.372069 1.000000
0.286960 0.055909 0.486663 1.000000
0.286960 -0.117397 -0.455735 1.000000
0.286960 -0.495780 -0.022333 1.000000
0.286960 -0.415586 -0.248868 1.000000
0.286960 -0.288401 -0.406279 1.000000
0.286960 -0.480041 -0.116970 1.000000
0.286960 0.469915 -0.094664 1.000000
0.286960 0.329628 0.371375 1.000000
0.286960 0.409865 0.277735 1.000000
0.286960 0.326922 0.329841 1.000000
0.286960 0.153860 0.469257 1.000000
0.286960 -0.476266 -0.064314 1.000000
0.286960 0.280167 0.356305 1.000000
0.286960 -0.452499 0.095552 1.000000
0.286960 0.276419 -0.416403 1.000000
0.286960 -0.207364 0.421062 1.000000
0.286960 -0.175537 -0.452145 1.000000
0.286960 -0.184471 -0.439968 1.000000
0.286960 -0.467714 -0.157493 1.000000
0.286960 -0.442528 0.045960 1.000000
0.286960 -0.333290 0.335924 1.000000
0.286960 0.322365 -0.346226 1.000000
0.286960 -0.160355 0.458853 1.000000
0.286960 0.437671 0.165581 1.000000
0.286960 0.272355 0.362067 1.000000
0.286960 -0.485734 0.085478 1.000000
0.286960 -0.454348 0.007686 1.000000
0.286960 0.271118 -0.386861 1.000000
0.286960 0.314117 -0.349779 1.000000
0.286960 -0.441174 0.162003 1.000000
0.286960 0.408535 0.179588 1.000000
0.286960 0.392938 0.233167 1.000000
0.286960 -0.063040 -0.495373 1.000000
0.286960 0.126186 -0.478240 1.000000
0.286960 -0.432518 -0.139807 1.000000
0.286960 0.448560 -0.166983 1.000000
0.286960 0.296738 -0.376067 1.000000
0.286960 -0.005903 -0.465203 1.000000
0.286960 -0.437163 -0.157493 1.000000
0.286960 -0.120183 -0.479369 1.000000
0.286960 -0.396607 0.236866 1.000000
0.286960 -0.364573 -0.330241 1.000000
0.286960 0.410828 0.244192 1.000000
0.286960 0.472769 0.057780 1.000000
0.286960 0.019651 0.456696 1.000000
0.286960 0.274273 -0.403333 1.000000
0.286960 -0.211923 -0.405564 1.000000
0.286960 -0.393953 -0.260819 1.000000
0.286960 -0.444007 -0.070778 1.000000
0.286960 0.151273 0.462672 1.000000
0.286960 -0.430266 0.131552 1.000000
0.286960 0.062221 0.444199 1.000000
0.286960 -0.474132 0.021513 1.000000
0.286960 -0.252774 -0.371496 1.000000
0.286960 0.355369 0.310869 1.000000
0.286960 0.385206 -0.315322 1.000000
0.286960 0.189194 0.458820 1.000000
0.286960 0.189462 -0.419304 1.000000
0.286960 -0.413935 -0.238497 1.000000
0.286960 -0.135767 -0.462660 1.000000
0.286960 -0.070040 0.474859 1.000000
0.286960 -0.076453 -0.446094 1.000000
0.286960 0.108124 -0.464039 1.000000
0.286960 0.296733 -0.348332 1.000000
0.286960 0.054681 0.478569 1.000000
0.286960 0.352912 -0.275164 1.000000
0.286960 0.449702 -0.014870 1.000000
0.286960 0.254899 -0.424792 1.000000
0.286960 -0.415127 0.195736 1.000000
0.286960 0.120959 0.465908 1.000000
0.286960 -0.428317 0.241265 1.000000
0.286960 0.368764 0.316168 1.000000
0.286960 0.097108 0.480599 1.000000
0.286960 -0.416044 -0.254907 1.000000
0.286960 -0.468877 -0.149893 1.000000
0.286960 -0.074121 -0.485135 1.000000
0.286960 0.442623 0.174920 1.000000
0.286960 0.365390 -0.265817 1.000000
0.286960 0.293193 -0.390606 1.000000
0.286960 -0.482061 -0.021119 1.000000
0.286960 -0.007054 0.460293 1.000000
0.286960 -0.431323 0.155422 1.000000
0.286960 -0.447525 -0.029485 1.000000
0.286960 0.234145 0.377095 1.000000
0.286960 0.014493 -0.453284 1.000000
0.286960 0.334127 0.324685 1.000000
0.286960 0.334468 -0.321215 1.000000
0.286960 -0.159777 0.461972 1.000000
0.286960 -0.360833 0.303553 1.000000
0.286960 -0.445360 -0.186587 1.000000
0.286960 0.160484 0.422064 1.000000
0.286960 -0.410446 0.210416 1.000000
0.286960 -0.456792 -0.029848 1.000000
0.286960 -0.473438 -0.091483 1.000000
0.286960 0.448490 0.197041 1.000000
0.286960 -0.357329 0.323870 1.000000
0.286960 -0.407518 0.233983 1.000000
0.286960 -0.073591 0.466109 1.000000
0.286960 -0.256185 -0.378519 1.000000
0.286960 -0.185538 -0.415800 1.000000
0.286960 -0.428736 0.145392 1.000000
0.286960 -0.052354 -0.482993 1.000000
0.286960 -0.364379 0.300836 1.000000
0.286960 -0.100990 -0.442823 1.000000
0.286960 -0.055268 0.478642 1.000000
0.286960 0.439912 0.095784 1.000000
0.286960 -0.465001 0.086841 1.000000
0.286960 0.306602 0.368938 1.000000
0.286960 -0.240260 0.411876 1.000000
0.286960 -0.336601 -0.364099 1.000000
0.286960 -0.297589 0.359334 1.000000
0.286960 0.315952 -0.347175 1.000000
0.286960 0.445376 -0.208291 1.000000
0.286960 -0.343424 0.289510 1.000000
0.286960 0.221243 -0.393233 1.000000
0.286960 0.136986 -0.480936 1.000000
0.286960 0.181875 -0.409194 1.000000
0.286960 0.301605 0.341314 1.000000
0.286960 0.319317 0.355998 1.000000
0.286960 0.406335 -0.235560 1.000000
0.286960 -0.467477 0.038459 1.000000
0.286960 0.465077 -0.180283 1.000000
0.286960 -0.471114 -0.028006 1.000000
0.286960 0.306831 0.339543 1.000000
0.286960 -0.401470 -0.209449 1.000000
0.286960 -0.044395 0.456905 1.000000
0.286960 0.132714 -0.481796 1.000000
0.286960 0.358489 -0.300864 1.000000
0.286960 -0.427763 0.237658 1.000000
0.286960 -0.321672 0.329807 1.000000
0.286960 0.057402 0.474774 1.000000
0.286960 -0.404192 -0.286286 1.000000
0.286960 -0.264169 -0.421982 1.000000
0.286960 -0.074202 0.482489 1.000000
0.286960 0.003922 0.475785 1.000000
0.286960 0.264759 0.412887 1.000000
0.286960 0.355259 0.267286 1.000000
0.286960 -0.259698 -0.371665 1.000000
0.286960 -0.484648 -0.023767 1.000000
0.286960 -0.137259 0.462924 1.000000
0.286960 -0.070160 -0.485706 1.000000
0.286960 -0.379846 -0.259507 1.000000
0.286960 0.470885 0.107635 1.000000
0.286960 -0.060322 -0.470400 1.000000
0.286960 -0.437494 -0.086606 1.000000
0.286960 0.184576 -0.415924 1.000000
0.286960 0.470623 0.007148 1.000000
0.286960 0.306336 -0.390653 1.000000
0.286960 0.461338 0.001042 1.000000
0.286960 0.486356 -0.043939 1.000000
0.286960 -0.139341 0.438933 1.000000
0.286960 0.235734 -0.422656 1.000000
0.286960 -0.318577 -0.365438 1.000000
0.286960 -0.394895 0.285131 1.000000
0.286960 0.078563 0.465438 1.000000
0.286960 -0.157864 0.434114 1.000000
0.286960 0.473536 0.135645 1.000000
0.286960 -0.432339 0.172996 1.000000
0.286960 -0.234253 0.422209 1.000000
0.286960 -0.459148 0.142630 1.000000
0.286960 0.253908 0.426456 1.000000
0.286960 0.287731 0.349648 1.000000
0.286960 -0.172993 -0.434375 1.000000
0.286960 -0.387782 0.285980 1.000000
0.286960 0.440944 0.064943 1.000000
0.286960 0.278976 0.375032 1.000000
0.286960 0.447257 -0.105429 1.000000
0.286960 0.382333 -0.303258 1.000000
0.286960 0.291532 0.348416 1.000000
0.286960 -0.063427 0.464424 1.000000
0.286960 0.248680 -0.375671 1.000000
0.286960 0.241531 0.402117 1.000000
0.286960 -0.198572 -0.441660 1.000000
0.286960 -0.279959 -0.388303 1.000000
0.286960 -0.226896 0.394314 1.000000
0.286960 -0.467470 0.050005 1.000000
0.286960 -0.461816 -0.179968 1.000000
0.286960 -0.472982 -0.063409 1.000000
0.286960 -0.113915 0.440911 1.000000
0.286960 0.151364 -0.474560 1.000000
0.286960 0.476937 -0.095656 1.000000
0.286960 0.009580 -0.462598 1.000000
0.286960 -0.007706 -0.451158 1.000000
0.286960 -0.458547 -0.166718 1.000000
0.286960 0.189631 0.446555 1.000000
0.286960 -0.439756 0.139244 1.000000
0.286960 -0.118378 -0.431704 1.000000
0.286960 -0.334040 -0.341478 1.000000
0.286960 -0.381580 -0.291414 1.000000
0.286960 0.490295 0.062591 1.000000
0.286960 0.130994 0.464785 1.000000
0.286960 0.094097 -0.473493 1.000000
0.286960 0.340356 0.290907 1.000000
0.286960 -0.396347 0.226366 1.000000
0.286960 0.191066 -0.434590 1.000000
0.286960 0.080258 0.479081 1.000000
0.286960 0.272731 0.378888 1.000000
0.286960 0.039738 0.469625 1.000000
0.286960 0.145803 -0.466115 1.000000
0.286960 -0.267652 -0.394151 1.000000
0.286960 0.307457 -0.341812 1.000000
0.286960 -0.360890 0.300208 1.000000
0.286960 0.081732 -0.491951 1.000000
0.286960 -0.009961 0.472043 1.000000
0.286960 0.424213 -0.151348 1.000000
0.286960 -0.109239 0.462111 1.000000
0.286960 0.304485 -0.337211 1.000000
0.286960 -0.002833 -0.455916 1.000000
0.286960 0.241975 0.414870 1.000000
0.286960 -0.367002 -0.257045 1.000000
0.286960 -0.104627 0.431124 1.000000
0.286960 0.297742 0.355899 1.000000
0.286960 -0.491486 -0.007295 1.000000
0.286960 -0.152074 -0.422795 1.000000
0.286960 0.458780 -0.103299 1.000000
0.286960 0.158015 0.430812 1.000000
0.286960 0.209204 -0.422981 1.000000
0.286960 0.266763 0.381510 1.000000
0.286960 0.436746 0.184741 1.000000
0.286960 -0.314399 0.369186 1.000000
0.286960 0.116341 0.474223 1.000000
0.286960 0.419172 0.223156 1.000000
0.286960 0.424649 0.169574 1.000000
0.286960 -0.392535 -0.213927 1.000000
0.286960 -0.101427 0.477506 1.000000
0.286960 0.116870 0.454483 1.000000
0.286960 0.426874 0.252308 1.000000
0.286960 -0.474276 0.127510 1.000000
0.286960 0.475745 -0.041306 1.000000
0.286960 0.276975 0.353513 1.000000
0.286960 -0.080138 -0.445688 1.000000
0.286960 -0.213607 0.409889 1.000000
0.286960 0.060944 -0.443431 1.000000
0.286960 -0.481077 -0.033995 1.000000
0.286960 0.228462 -0.391479 1.000000
0.286960 -0.171939 0.451721 1.000000
0.286960 -0.441648 -0.055811 1.000000
0.286960 -0.329014 0.349094 1.000000
0.286960 0.386250 0.222577 1.000000
0.286960 0.459490 0.025487 1.000000
0.286960 0.115771 -0.473770 1.000000
0.286960 0.212032 0.420160 1.000000
0.286960 -0.377234 0.241890 1.000000
0.286960 0.252669 -0.381110 1.000000
0.286960 0.417824 0.180702 1.000000
0.286960 -0.104656 -0.473676 1.000000
0.286960 0.341593 0.308292 1.000000
0.286960 0.310943 0.325272 1.000000
0.286960 -0.251150 0.396403 1.000000
0.286960 -0.395160 0.297336 1.000000
0.286960 0.450153 0.021719 1.000000
0.286960 -0.062198 0.489468 1.000000
0.286960 -0.162024 0.438656 1.000000
0.286960 -0.407113 -0.256401 1.000000
0.286960 -0.266485 0.375265 1.000000
0.286960 -0.117264 -0.476799 1.000000
0.286960 -0.346289 0.345328 1.000000
0.286960 0.152823 0.439568 1.000000
0.286960 0.174285 -0.427704 1.000000
0.286960 -0.206530 0.406588 1.000000
0.286960 -0.400250 0.208841 1.000000
0.286960 -0.457819 0.082995 1.000000
0.286960 -0.399189 0.240171 1.000000
0.286960 -0.367629 -0.260523 1.000000
0.286960 -0.341641 -0.327651 1.000000
0.286960 0.445048 -0.126101 1.000000
0.286960 0.313026 0.320410 1.000000
0.286960 0.467516 0.124730 1.000000
0.286960 -0.481919 -0.112556 1.000000
0.286960 -0.123506 0.438847 1.000000
0.286960 0.129805 -0.432454 1.000000
0.286960 -0.357364 -0.303707 1.000000
0.286960 0.403909 0.270033 1.000000
0.286960 0.305666 -0.370274 1.000000
0.286960 -0.432137 -0.161228 1.000000
0.286960 -0.409861 0.236122 1.000000
0.286960 -0.434475 0.125981 1.000000
0.286960 -0.273920 -0.389580 1.000000
0.286960 0.165576 -0.459066 1.000000
0.286960 -0.443964 0.033116 1.000000
0.286960 0.361492 0.296898 1.000000
0.286960 -0.268633 0.377685 1.000000
0.286960 -0.327400 0.352508 1.000000
0.286960 0.415841 0.241001 1.000000
0.286960 0.058629 0.481349 1.000000
0.286960 -0.455029 -0.038324 1.000000
0.286960 -0.475216 -0.023417 1.000000
0.286960 -0.327003 -0.374896 1.000000
0.286960 -0.148336 0.458507 1.000000
0.286960 -0.197114 0.437965 1.000000
0.286960 0.347226 -0.321013 1.000000
0.286960 -0.390369 0.296690 1.000000
0.286960 0.415036 0.165140 1.000000
0.286960 0.247707 0.412766 1.000000
0.286960 0.094388 -0.441241 1.000000
0.286960 -0.312528 -0.389248 1.000000
0.286960 0.452736 -0.009138 1.000000
0.286960 0.452023 0.024537 1.000000
0.286960 0.416424 0.211653 1.000000
0.286960 -0.146916 0.455241 1.000000
0.286960 -0.237459 0.431472 1.000000
0.286960 0.446049 0.106432 1.000000
0.286960 -0.107198 -0.477654 1.000000
0.286960 -0.190124 0.453351 1.000000
0.286960 -0.450346 0.034504 1.000000
0.286960 -0.457286 0.079655 1.000000
0.286960 0.474497 0.029635 1.000000
0.286960 0.446755 0.217350 1.000000
0.286960 0.254359 -0.397784 1.000000
0.286960 0.250296 0.421503 1.000000
0.286960 -0.489812 0.068635 1.000000
0.286960 -0.271485 -0.381523 1.000000
0.286960 -0.330537 -0.317966 1.000000
0.286960 0.075116 -0.441281 1.000000
0.286960 0.021277 -0.487502 1.000000
0.286960 0.272219 -0.397743 1.000000
0.286960 -0.483873 0.063257 1.000000
0.286960 0.446233 0.042657 1.000000
0.286960 -0.450242 -0.205739 1.000000
0.286960 -0.438166 0.115687 1.000000
0.286960 0.441610 -0.130419 1.000000
0.286960 0.442306 -0.105096 1.000000
0.286960 -0.050799 0.459091 1.000000
0.286960 0.183061 0.420428 1.000000
0.286960 -0.335461 0.306982 1.000000
0.286960 -0.060755 0.452769 1.000000
0.286960 -0.315324 -0.363347 1.000000
0.286960 0.463904 0.145384 1.000000
0.286960 -0.453016 0.063576 1.000000
0.286960 0.022507 0.494447 1.000000
0.286960 0.326587 -0.316783 1.000000
0.286960 0.178862 0.410948 1.000000
0.286960 0.407106 0.271371 1.000000
0.286960 0.385088 -0.234085 1.000000
0.286960 0.343052 0.286829 1.000000
0.286960 -0.450406 0.209020 1.000000
0.286960 0.283011 0.342262 1.000000
0.286960 0.243378 0.431433 1.000000
0.286960 0.445826 -0.164677 1.000000
0.286960 -0.485071 -0.103133 1.000000
0.286960 -0.486342 -0.080348 1.000000
0.286960 -0.416519 0.165002 1.000000
0.286960 -0.270741 -0.369542 1.000000
0.286960 -0.462050 0.091815 1.000000
0.286960 -0.350998 0.333418 1.000000
0.286960 0.465455 -0.009719 1.000000
0.286960 -0.438023 0.109297 1.000000
0.286960 -0.396862 -0.285541 1.000000
0.286960 0.244515 0.394895 1.000000
0.286960 -0.126917 -0.471283 1.000000
0.286960 -0.456268 -0.050079 1.000000
0.286960 0.428328 -0.178666 1.000000
0.286960 -0.112761 -0.471294 1.000000
0.286960 0.373206 0.241969 1.000000
0.286960 -0.467816 0.066079 1.000000
0.286960 0.487295 0.046750 1.000000
0.286960 0.363147 -0.269744 1.000000
0.286960 -0.353862 -0.349614 1.000000
0.286960 0.437085 -0.199345 1.000000
0.286960 -0.173178 0.431460 1.000000
0.286960 -0.461413 -0.039878 1.000000
0.286960 0.426378 0.159690 1.000000
0.286960 -0.299759 -0.337825 1.000000
0.286960 0.267229 -0.412521 1.000000
0.286960 -0.073045 0.476791 1.000000
0.286960 -0.348241 0.295417 1.000000
0.286960 0.456276 -0.007052 1.000000
0.286960 0.279765 0.345853 1.000000
0.286960 0.428482 0.150770 1.000000
0.286960 -0.330221 0.362064 1.000000
0.286960 -0.469756 -0.073843 1.000000
0.286960 -0.251792 0.373838 1.000000
0.286960 -0.495701 0.025571 1.000000
0.286960 -0.463988 -0.061692 1.000000
0.286960 -0.496597 -0.006427 1.000000
0.286960 0.441758 -0.126970 1.000000
0.286960 0.374706 0.303137 1.000000
0.286960 0.234369 0.436879 1.000000
0.286960 -0.464479 -0.019160 1.000000
0.286960 0.029417 -0.479867 1.000000
0.286960 -0.061950 0.460688 1.000000
0.286960 0.113378 0.481093 1.000000
0.286960 -0.287097 -0.360258 1.000000
0.286960 -0.062471 0.449433 1.000000
0.286960 -0.150747 0.464457 1.000000
0.286960 0.201655 -0.432578 1.000000
0.286960 -0.451132 0.143974 1.000000
0.286960 -0.447606 -0.055765 1.000000
0.286960 -0.452514 -0.121346 1.000000
0.286960 0.441282 -0.083923 1.000000
0.286960 0.147618 -0.432070 1.000000
0.286960 -0.191801 -0.461387 1.000000
0.286960 0.476692 0.085414 1.000000
0.286960 -0.329176 0.337511 1.000000
0.286960 0.266320 -0.389365 1.000000
0.286960 0.201115 -0.436789 1.000000
0.286960 -0.084601 0.471012 1.000000
0.286960 0.473391 -0.074877 1.000000
0.286960 0.283015 0.353879 1.000000
0.286960 -0.451763 0.150118 1.000000
0.286960 0.215342 0.446399 1.000000
0.286960 -0.419796 0.178668 1.000000
0.286960 0.358427 0.290530 1.000000
0.286960 0.455966 0.109767 1.000000
0.286960 0.441565 -0.168992 1.000000
0.286960 -0.060742 -0.486807 1.000000
0.286960 0.449698 0.044078 1.000000
0.286960 0.364196 -0.300006 1.000000
0.286960 0.152318 0.459461 1.000000
0.286960 0.347541 0.331190 1.000000
0.286960 0.056834 -0.450138 1.000000
0.286960 -0.415393 -0.235115 1.000000
0.286960 -0.276006 0.382637 1.000000
0.286960 -0.465075 0.143908 1.000000
0.286960 -0.097171 -0.488567 1.000000
0.286960 -0.096407 -0.482853 1.000000
0.286960 -0.391607 -0.297805 1.000000
0.286960 -0.047019 -0.460597 1.000000
0.286960 -0.105354 -0.480190 1.000000
0.286960 -0.350498 -0.335415 1.000000
0.286960 -0.134550 -0.466709 1.000000
0.286960 -0.282042 -0.412142 1.000000
0.286960 0.454128 0.128515 1.000000
0.286960 -0.327629 -0.347848 1.000000
0.286960 -0.260709 0.417393 1.000000
0.286960 0.036223 0.483303 1.000000
0.286960 -0.014279 -0.459069 1.000000
0.286960 -0.331302 -0.305563 1.000000
0.286960 0.192062 0.422113 1.000000
0.286960 -0.148116 0.462148 1.000000
0.286960 0.236391 0.414549 1.000000
0.286960 -0.488678 0.019356 1.000000
0.286960 -0.433220 0.226852 1.000000
0.286960 0.033875 0.461005 1.000000
0.286960 0.448800 0.213716 1.000000
0.286960 -0.258081 -0.390657 1.000000
0.286960 0.152506 0.418154 1.000000
0.286960 0.067807 -0.477377 1.000000
0.286960 0.474811 -0.120316 1.000000
0.286960 -0.457242 -0.103089 1.000000
0.286960 -0.038718 -0.487422 1.000000
0.286960 -0.444039 0.093856 1.000000
0.286960 0.306967 0.332833 1.000000
0.286960 0.090473 0.481944 1.000000
0.286960 0.486031 0.070746 1.000000
0.286960 0.191317 0.408016 1.000000
0.286960 0.089855 -0.462905 1.000000
0.286960 -0.166567 -0.442705 1.000000
0.286960 0.253322 0.373051 1.000000
0.286960 0.278602 -0.373615 1.000000
0.286960 -0.436251 0.089607 1.000000
0.286960 0.193506 0.401811 1.000000
0.286960 0.259639 -0.422421 1.000000
0.286960 -0.455803 0.184922 1.000000
0.286960 -0.037345 -0.458925 1.000000
0.286960 0.434008 0.132594 1.000000
0.286960 0.456576 -0.162078 1.000000
0.286960 -0.429099 -0.162643 1.000000
0.286960 0.479844 0.073317 1.000000
0.286960 0.460806 0.173894 1.000000
0.286960 -0.149285 0.468940 1.000000
0.286960 -0.402593 -0.267923 1.000000
0.286960 -0.049041 -0.478637 1.000000
0.286960 -0.464185 0.094507 1.000000
0.286960 0.180886 0.452839 1.000000
0.286960 0.053087 -0.451080 1.000000
0.286960 0.312670 -0.379985 1.000000
0.286960 0.387970 -0.225857 1.000000
0.286960 0.126751 0.433894 1.000000
0.286960 0.329267 0.363644 1.000000
0.286960 -0.452794 -0.112505 1.000000
0.286960 0.080139 -0.470861 1.000000
0.286960 0.440317 0.216228 1.000000
0.286960 0.227643 0.394827 1.000000
0.286960 0.388316 0.218471 1.000000
0.286960 0.067667 0.442303 1.000000
0.286960 -0.069119 0.458219 1.000000
0.286960 -0.267161 -0.375551 1.000000
0.286960 0.230891 -0.409788 1.000000
0.286960 0.451479 0.119840 1.000000
0.286960 -0.458116 0.097955 1.000000
0.286960 -0.467609 0.122994 1.000000
0.286960 0.395004 0.209751 1.000000
0.286960 -0.037103 0.460304 1.000000
0.286960 0.167356 0.428000 1.000000
0.286960 0.138350 0.465580 1.000000
0.286960 0.102738 -0.471515 1.000000
0.286960 -0.375379 -0.319358 1.000000
0.286960 -0.432779 0.182286 1.000000
0.286960 0.442544 -0.058714 1.000000
0.286960 -0.386860 0.230293 1.000000
0.286960 -0.348967 0.307626 1.000000
0.286960 -0.398704 0.252306 1.000000
0.286960 0.387433 0.281999 1.000000
0.286960 -0.190474 0.400300 1.000000
0.286960 -0.341763 -0.324027 1.000000
0.286960 0.410931 0.274390 1.000000
0.286960 0.165919 -0.464531 1.000000
0.286960 0.246929 -0.413845 1.000000
0.286960 -0.059155 0.487950 1.000000
0.286960 -0.254405 -0.411627 1.000000
0.286960 -0.265821 -0.359437 1.000000
0.286960 0.088400 0.468776 1.000000
0.286960 -0.131257 -0.450477 1.000000
0.286960 0.434244 -0.206559 1.000000
0.286960 -0.369552 0.288937 1.000000
0.286960 -0.418671 0.154285 1.000000
0.286960 0.438448 0.154867 1.000000
0.286960 -0.155237 -0.449963 1.000000
0.286960 -0.449167 -0.174252 1.000000
0.286960 0.411584 0.208233 1.000000
0.286960 -0.347973 0.330825 1.000000
0.286960 -0.416906 -0.165099 1.000000
0.286960 -0.301374 0.366701 1.000000
0.286960 -0.105927 0.470199 1.000000
0.286960 -0.411277 0.217588 1.000000
0.286960 0.226231 -0.437625 1.000000
0.286960 -0.386793 0.242058 1.000000
0.286960 -0.450450 0.111116 1.000000
0.286960 -0.297515 0.389804 1.000000
0.286960 0.105626 0.481004 1.000000
0.286960 0.440172 -0.135824 1.000000
0.286960 -0.154933 -0.439593 1.000000
0.286960 0.202845 -0.407210 1.000000
0.286960 -0.283601 -0.382994 1.000000
0.286960 0.381310 -0.254836 1.000000
0.286960 0.480999 0.026001 1.000000
0.286960 0.396563 0.218228 1.000000
0.286960 -0.451555 -0.178207 1.000000
0.286960 -0.192162 -0.439524 1.000000
0.286960 0.042658 0.446267 1.000000
0.286960 0.227518 -0.386041 1.000000
0.286960 -0.041469 0.480085 1.000000
0.286960 0.357812 -0.281951 1.000000
0.286960 -0.481544 -0.108536 1.000000
0.286960 0.418007 -0.241757 1.000000
0.286960 -0.230358 0.423425 1.000000
0.286960 -0.340155 -0.347932 1.000000
0.286960 -0.436596 0.122811 1.000000
0.286960 -0.313540 -0.351826 1.000000
0.286960 -0.033514 0.441903 1.000000
0.286960 -0.486017 -0.009758 1.000000
0.286960 -0.089679 0.435204 1.000000
0.286960 0.382632 -0.274547 1.000000
0.286960 0.119890 -0.455636 1.000000
0.286960 0.115448 -0.433001 1.000000
0.286960 0.488286 0.030993 1.000000
0.286960 0.265554 0.388970 1.000000
0.286960 0.185264 0.449036 1.000000
0.286960 0.466071 -0.146954 1.000000
0.286960 -0.202755 -0.455403 1.000000
0.286960 -0.435563 0.111369 1.000000
0.286960 0.477168 0.004160 1.000000
0.286960 -0.248881 0.379870 1.000000
0.286960 0.410826 0.202589 1.000000
0.286960 -0.003850 0.453921 1.000000
0.286960 0.460706 0.123394 1.000000
0.286960 0.176190 0.423206 1.000000
0.286960 0.272032 0.401900 1.000000
0.286960 0.440593 0.146390 1.000000
0.286960 -0.448977 -0.043398 1.000000
0.286960 0.474242 0.088354 1.000000
0.286960 -0.101484 0.443916 1.000000
0.286960 0.340208 0.295619 1.000000
0.286960 0.339744 0.298731 1.000000
0.286960 0.337407 -0.307341 1.000000
0.286960 0.409130 -0.187252 1.000000
0.286960 -0.068957 -0.494212 1.000000
0.286960 0.015567 -0.469640 1.000000
0.286960 -0.156791 0.424368 1.000000
0.286960 -0.397472 -0.227853 1.000000
0.286960 -0.129451 0.472589 1.000000
0.286960 0.466386 -0.056141 1.000000
0.286960 -0.431591 0.238595 1.000000
0.286960 -0.358456 0.273186 1.000000
0.286960 -0.443343 0.107010 1.000000
0.286960 0.472459 -0.112873 1.000000
0.286960 -0.151085 0.460978 1.000000
0.286960 0.077631 -0.473433 1.000000
0.286960 -0.385303 -0.252619 1.000000
0.286960 0.403708 0.247103 1.000000
0.286960 -0.359496 0.296399 1.000000
0.286960 -0.290413 0.395545 1.000000
0.286960 0.231324 -0.384166 1.000000
0.286960 0.397930 -0.251545 1.000000
0.286960 -0.359011 -0.344399 1.000000
0.286960 0.431921 0.226093 1.000000
0.286960 0.089324 0.440240 1.000000
0.286960 0.276022 0.393165 1.000000
0.286960 -0.035404 0.467922 1.000000
0.286960 0.485994 0.023892 1.000000
0.286960 0.041749 0.442671 1.000000
0.286960 -0.093397 0.454011 1.000000
0.286960 -0.445336 0.012768 1.000000
0.286960 -0.434140 0.145769 1.000000
0.286960 0.144538 0.474447 1.000000
0.286960 -0.009604 -0.463706 1.000000
0.286960 0.336932 -0.323535 1.000000
0.286960 -0.021819 -0.457479 1.000000
0.286960 0.265731 -0.415472 1.000000
0.286960 0.451300 0.071071 1.000000
0.286960 0.024525 -0.495725 1.000000
0.286960 0.111791 -0.453679 1.000000
0.286960 0.466927 0.046983 1.000000
0.286960 0.239048 -0.390509 1.000000
0.286960 -0.336493 -0.304393 1.000000
0.286960 0.052389 0.476122 1.000000
0.286960 0.034898 0.479985 1.000000
0.286960 0.292722 -0.359978 1.000000
0.286960 -0.230497 -0.419681 1.000000
0.286960 0.349916 -0.318885 1.000000
0.286960 0.427369 0.176063 1.000000
0.286960 0.407059 -0.279906 1.000000
0.286960 0.064227 0.481359 1.000000
0.286960 -0.004642 -0.447596 1.000000
0.286960 -0.067928 0.471979 1.000000
0.286960 0.394530 0.256163 1.000000
0.286960 0.450797 -0.090987 1.000000
0.286960 0.183286 -0.422532 1.000000
0.286960 0.357785 0.306469 1.000000
0.286960 -0.449235 -0.148705 1.000000
0.286960 0.151064 -0.457726 1.000000
0.286960 0.427254 0.245612 1.000000
0.286960 0.283488 0.369422 1.000000
0.286960 0.447411 -0.003733 1.000000
0.286960 -0.452128 -0.146578 1.000000
0.286960 -0.120071 0.433981 1.000000
0.286960 -0.021783 -0.463133 1.000000
0.286960 0.378211 0.261425 1.000000
0.286960 -0.382621 0.257074 1.000000
0.286960 -0.449661 0.002015 1.000000
0.286960 0.473311 0.025980 1.000000
0.286960 -0.400054 0.202418 1.000000
0.286960 -0.435358 -0.174725 1.000000
0.286960 -0.095875 0.477827 1.000000
0.286960 -0.358075 -0.285268 1.000000
0.286960 -0.085778 -0.476970 1.000000
0.286960 -0.207660 -0.435632 1.000000
0.286960 -0.276023 -0.415370 1.000000
0.286960 -0.440075 0.144943 1.000000
0.286960 -0.143958 -0.453523 1.000000
0.286960 0.430344 0.232546 1.000000
0.286960 -0.054946 0.471141 1.000000
0.286960 0.127611 -0.428937 1.000000
0.286960 -0.209351 -0.399540 1.000000
0.286960 0.467903 0.009408 1.000000
0.286960 0.182215 -0.453665 1.000000
0.286960 -0.396770 -0.250351 1.000000
0.286960 -0.345351 -0.350021 1.000000
0.286960 -0.088066 -0.481367 1.000000
0.286960 0.003559 0.456910 1.000000
0.286960 0.164217 -0.439880 1.000000
0.286960 0.239282 -0.438552 1.000000
0.286960 -0.343900 -0.294263 1.000000
0.286960 0.359791 -0.315097 1.000000
0.286960 0.350636 0.332937 1.000000
0.286960 -0.436176 -0.238948 1.000000
0.286960 -0.396976 -0.238461 1.000000
0.286960 0.143410 -0.470903 1.000000
0.286960 0.222432 -0.422472 1.000000
0.286960 -0.427757 0.136524 1.000000
0.286960 0.117381 -0.467051 1.000000
0.286960 -0.086518 0.455313 1.000000
0.286960 -0.258633 -0.381241 1.000000
0.286960 0.204782 0.406301 1.000000
0.286960 -0.291683 -0.351070 1.000000
0.286960 -0.473558 -0.101100 1.000000
0.286960 -0.166379 0.426340 1.000000
0.286960 -0.272289 -0.401034 1.000000
0.286960 0.252670 -0.404951 1.000000
0.286960 -0.386619 -0.293367 1.000000
0.286960 0.321710 -0.311574 1.000000
0.286960 0.113329 0.437967 1.000000
0.286960 0.291891 0.339075 1.000000
0.286960 -0.374133 0.299891 1.000000
0.286960 -0.411126 0.207056 1.000000
0.286960 0.171759 0.464334 1.000000
0.286960 0.466182 0.038107 1.000000
0.286960 0.202872 0.446215 1.000000
0.286960 -0.410599 -0.253424 1.000000
0.286960 -0.040616 -0.458806 1.000000
0.286960 -0.362883 -0.300191 1.000000
0.286960 -0.297813 -0.392855 1.000000
0.286960 -0.277732 0.367867 1.000000
0.286960 -0.427557 0.190993 1.000000
0.286960 0.178250 0.433872 1.000000
0.286960 -0.283969 -0.395218 1.000000
0.286960 0.317208 0.382089 1.000000
0.286960 -0.334972 0.343098 1.000000
0.286960 0.489022 -0.091585 1.000000
0.286960 -0.428857 0.173401 1.000000
0.286960 -0.444940 -0.053731 1.000000
0.286960 0.480974 -0.095241 1.000000
0.286960 -0.458494 -0.190752 1.000000
0.286960 -0.119279 0.473589 1.000000
0.286960 0.143982 -0.440499 1.000000
0.286960 0.267742 -0.385996 1.000000
0.286960 -0.453000 -0.208062 1.000000
0.286960 -0.428178 -0.133716 1.000000
0.286960 -0.471798 -0.022729 1.000000
0.286960 0.032167 0.450076 1.000000
0.286960 0.440904 0.086787 1.000000
0.286960 -0.423378 -0.151524 1.000000
0.286960 -0.416248 0.198564 1.000000
0.286960 0.484274 -0.057638 1.000000
0.286960 -0.450501 0.056505 1.000000
0.286960 0.110342 0.443690 1.000000
0.286960 0.363718 -0.330233 1.000000
0.286960 0.420596 0.200339 1.000000
0.286960 0.476991 0.096271 1.000000
0.286960 -0.357564 -0.319606 1.000000
0.286960 -0.461224 -0.032441 1.000000
0.286960 0.345120 0.316806 1.000000
0.286960 -0.019918 0.472507 1.000000
0.286960 -0.088818 -0.452906 1.000000
0.286960 0.100666 0.481727 1.000000
0.286960 -0.104903 0.473520 1.000000
0.286960 -0.428397 0.176807 1.000000
0.286960 0.279818 -0.410785 1.000000
0.286960 0.325695 -0.309112 1.000000
0.286960 -0.440048 -0.232387 1.000000
0.286960 0.330055 -0.373997 1.000000
0.286960 -0.421297 -0.193894 1.000000
0.286960 -0.476579 0.136711 1.000000
0.286960 0.444083 0.135890 1.000000
0.286960 0.406444 -0.247997 1.000000
0.286960 0.002676 -0.492293 1.000000
0.286960 -0.377048 -0.254537 1.000000
0.286960 0.341837 0.315031 1.000000
0.286960 0.324927 0.353282 1.000000
0.286960 -0.087658 -0.473413 1.000000
0.286960 -0.457804 -0.018182 1.000000
0.286960 -0.383624 0.276798 1.000000
0.286960 0.456968 0.004941 1.000000
0.286960 0.113023 0.461137 1.000000
0.286960 0.313724 0.376773 1.000000
0.286960 0.456679 0.060286 1.000000
0.286960 -0.141691 0.458990 1.000000
0.286960 -0.218226 -0.449245 1.000000
0.286960 0.394905 0.227147 1.000000
0.286960 0.344665 0.351641 1.000000
0.286960 0.461078 -0.177962 1.000000
0.286960 0.407551 0.232071 1.000000
0.286960 0.239601 0.396342 1.000000
0.286960 -0.468090 0.130688 1.000000
0.286960 -0.159559 -0.429451 1.000000
0.286960 0.426033 0.131700 1.000000
0.286960 0.001990 0.485603 1.000000
0.286960 -0.196988 -0.426550 1.000000
0.286960 0.114172 -0.457404 1.000000
0.286960 -0.356909 0.335941 1.000000
0.286960 -0.442699 0.042352 1.000000
0.286960 -0.308738 0.324909 1.000000
0.286960 -0.304553 0.379765 1.000000
0.286960 0.207522 0.397119 1.000000
0.286960 0.037704 -0.480873 1.000000
0.286960 -0.348444 -0.289595 1.000000
0.286960 -0.347505 0.298980 1.000000
0.286960 -0.320811 -0.374689 1.000000
0.286960 0.440342 0.196098 1.000000
0.286960 0.420915 -0.206014 1.000000
0.286960 -0.478044 -0.093128 1.000000
0.286960 -0.480284 -0.063171 1.000000
0.286960 0.137284 0.435602 1.000000
0.286960 -0.371299 0.286217 1.000000
0.286960 0.154058 -0.450395 1.000000
0.286960 -0.277267 -0.373431 1.000000
0.286960 0.418731 -0.261704 1.000000
0.286960 0.166209 -0.442186 1.000000
0.286960 0.449673 -0.054056 1.000000
0.286960 0.084591 0.487348 1.000000
0.286960 0.412255 -0.239491 1.000000
0.286960 0.050271 0.469170 1.000000
0.286960 -0.290198 0.378730 1.000000
0.286960 -0.309818 0.369038 1.000000
0.286960 0.157366 -0.440003 1.000000
0.286960 -0.220668 -0.388811 1.000000
0.286960 0.054021 -0.478683 1.000000
0.286960 0.403305 0.277040 1.000000
0.286960 -0.439257 -0.172252 1.000000
0.286960 0.380681 0.271502 1.000000
0.286960 -0.109443 0.469549 1.000000
0.286960 0.400631 0.246598 1.000000
0.286960 -0.449930 0.089606 1.000000
0.286960 0.397149 0.251511 1.000000
0.286960 0.308905 -0.392324 1.000000
0.286960 -0.429778 0.168004 1.000000
0.286960 -0.099522 -0.455684 1.000000
0.286960 0.354139 0.326899 1.000000
0.286960 -0.081166 -0.470522 1.000000
0.286960 -0.039847 -0.472958 1.000000
0.286960 0.417056 -0.238625 1.000000
0.286960 0.306971 -0.352699 1.000000
0.286960 0.003476 0.448620 1.000000
0.286960 0.487334 -0.056390 1.000000
0.286960 0.342900 -0.305684 1.000000
0.286960 -0.121670 -0.441017 1.000000
0.286960 -0.485678 0.058236 1.000000
0.286960 -0.045042 -0.498032 1.000000
0.286960 0.021162 -0.499609 1.000000
0.286960 0.022435 -0.478397 1.000000
0.286960 -0.278919 -0.352747 1.000000
0.286960 -0.458192 -0.122460 1.000000
0.286960 0.176275 0.413701 1.000000
0.286960 -0.027145 0.467938 1.000000
0.286960 -0.481707 0.017171 1.000000
0.286960 0.033074 -0.486628 1.000000
0.286960 0.364882 0.284749 1.000000
0.286960 -0.488031 0.025821 1.000000
0.286960 0.425011 -0.155197 1.000000
0.286960 0.453958 -0.055920 1.000000
0.286960 -0.395548 0.201796 1.000000
0.286960 0.150792 -0.439805 1.000000
0.286960 -0.374800 -0.242047 1.000000
0.286960 0.483978 0.074897 1.000000
0.286960 0.259084 -0.408625 1.000000
0.286960 0.326104 0.313295 1.000000
0.286960 0.249557 -0.388533 1.000000
0.286960 0.461958 0.045747 1.000000
0.286960 -0.082574 -0.492983 1.000000
0.286960 0.265511 0.365385 1.000000
0.286960 0.433155 0.193802 1.000000
0.286960 0.484385 0.013580 1.000000
0.286960 -0.438866 -0.153532 1.000000
0.286960 0.322309 0.375947 1.000000
0.286960 -0.239089 -0.401479 1.000000
0.286960 0.422815 0.243977 1.000000
0.286960 -0.243517 0.424324 1.000000
0.286960 -0.406833 0.219038 1.000000
0.286960 -0.459429 -0.111680 1.000000
0.286960 -0.468847 0.084705 1.000000
0.286960 -0.371136 0.271756 1.000000
0.286960 0.420728 -0.239825 1.000000
0.286960 -0.445390 -0.175446 1.000000
0.286960 0.042006 -0.485024 1.000000
0.286960 0.435039 0.225477 1.000000
0.286960 0.287789 -0.387343 1.000000
0.286960 0.471598 -0.160633 1.000000
0.286960 0.421442 -0.254547 1.000000
0.286960 -0.094737 -0.471868 1.000000
0.286960 -0.336782 -0.334456 1.000000
0.286960 0.425746 0.199446 1.000000
0.286960 -0.475071 -0.020116 1.000000
0.286960 0.366359 0.275514 1.000000
0.286960 0.448269 -0.084453 1.000000
0.286960 0.326612 0.306371 1.000000
0.286960 0.420811 0.263651 1.000000
0.286960 0.351472 -0.287965 1.000000
0.286960 0.382300 -0.257926 1.000000
0.286960 -0.221734 -0.441352 1.000000
0.286960 -0.255956 -0.401266 1.000000
0.286960 -0.369245 -0.288382 1.000000
0.286960 0.083942 -0.483389 1.000000
0.286960 -0.265690 0.407303 1.000000
0.286960 0.367190 -0.258060 1.000000
0.286960 -0.460528 -0.063478 1.000000
0.286960 0.389820 0.273322 1.000000
0.286960 0.443835 0.160321 1.000000
0.286960 -0.174878 0.440184 1.000000
0.286960 -0.372098 0.319067 1.000000
0.286960 0.141856 -0.449794 1.000000
0.286960 -0.270279 -0.398151 1.000000
0.286960 -0.392243 -0.267027 1.000000
0.286960 -0.481299 0.038416 1.000000
0.286960 -0.248269 -0.428430 1.000000
0.286960 0.311842 -0.357822 1.000000
0.286960 -0.185212 -0.412282 1.000000
0.286960 0.379262 -0.310373 1.000000
0.286960 0.498041 -0.005273 1.000000
0.286960 -0.413413 -0.195512 1.000000
0.286960 -0.376908 0.297996 1.000000
0.286960 0.488278 -0.046554 1.000000
0.286960 0.139134 0.445061 1.000000
0.286960 0.360888 0.265079 1.000000
0.286960 -0.140582 -0.449541 1.000000
0.286960 0.404418 0.251227 1.000000
0.286960 0.098514 0.472622 1.000000
0.286960 -0.493515 -0.037518 1.000000
0.286960 -0.285842 -0.352006 1.000000
0.286960 -0.086940 -0.491932 1.000000
0.286960 0.322374 -0.322517 1.000000
0.286960 0.107737 -0.435844 1.000000
0.286960 -0.263808 0.372785 1.000000
0.286960 0.271469 -0.373135 1.000000
0.286960 -0.417726 0.181454 1.000000
0.286960 -0.480263 -0.027718 1.000000
0.286960 -0.075607 0.456708 1.000000
0.286960 -0.243917 -0.433999 1.000000
0.286960 0.470270 -0.062082 1.000000
0.286960 -0.183422 -0.427049 1.000000
0.286960 -0.207813 -0.448526 1.000000
0.286960 -0.445739 0.200632 1.000000
0.286960 -0.323756 0.349697 1.000000
0.286960 0.265538 0.419290 1.000000
0.286960 0.149819 0.437517 1.000000
0.286960 0.073792 0.452801 1.000000
0.286960 -0.307997 -0.342142 1.000000
0.286960 0.094086 -0.477695 1.000000
0.286960 -0.121540 0.442040 1.000000
0.286960 -0.346841 -0.308540 1.000000
0.286960 -0.234053 0.391993 1.000000
0.286960 0.004475 0.469076 1.000000
0.286960 0.072245 0.442227 1.000000
0.286960 -0.228268 -0.432133 1.000000
0.286960 -0.005129 -0.479392 1.000000
0.286960 0.225429 -0.405452 1.000000
0.286960 0.464007 0.125888 1.000000
0.286960 -0.402489 0.239214 1.000000
0.286960 -0.191994 0.416354 1.000000
0.286960 0.230719 -0.387499 1.000000
0.286960 -0.396409 -0.222774 1.000000
0.286960 0.292492 0.360423 1.000000
0.286960 -0.384159 -0.255938 1.000000
0.286960 -0.244280 0.429956 1.000000
0.286960 -0.090526 -0.449658 1.000000
0.286960 -0.478914 0.083177 1.000000
0.286960 0.275602 0.408770 1.000000
0.286960 -0.069469 -0.479249 1.000000
0.286960 0.410106 -0.276791 1.000000
0.286960 -0.448311 -0.177321 1.000000
0.286960 0.449275 -0.207116 1.000000
0.286960 0.372821 -0.295744 1.000000
0.286960 -0.076198 0.478123 1.000000
0.286960 -0.295211 0.334791 1.000000
0.286960 0.236117 0.404377 1.000000
0.286960 -0.261310 -0.401492 1.000000
0.286960 -0.477492 -0.096642 1.000000
0.286960 0.464522 -0.018289 1.000000
0.286960 -0.381283 0.292665 1.000000
0.286960 0.075100 -0.489021 1.000000
0.286960 -0.158370 -0.464787 1.000000
0.286960 -0.429682 -0.117900 1.000000
0.286960 -0.262899 0.364835 1.000000
0.286960 -0.441160 0.095495 1.000000
0.286960 0.280002 -0.383572 1.000000
0.286960 0.439063 -0.108256 1.000000
0.286960 0.257268 0.424230 1.000000
0.286960 0.487516 0.086194 1.000000
0.286960 0.034661 0.441797 1.000000
0.286960 0.435729 -0.147643 1.000000
0.286960 0.434630 -0.140844 1.000000
0.286960 0.141291 -0.455982 1.000000
0.286960 -0.407701 0.178888 1.000000
0.286960 -0.188849 0.422974 1.000000
0.286960 0.210966 0.438387 1.000000
0.286960 0.072880 0.455852 1.000000
0.286960 -0.464814 -0.114839 1.000000
0.286960 0.454453 0.135443 1.000000
0.286960 -0.334345 -0.296304 1.000000
0.286960 -0.449594 -0.018812 1.000000
0.286960 -0.364281 0.336181 1.000000
0.286960 -0.434922 -0.241903 1.000000
0.286960 0.372947 -0.305449 1.000000
0.286960 -0.360428 -0.334751 1.000000
0.286960 -0.483537 -0.050038 1.000000
0.286960 0.389777 -0.259116 1.000000
0.286960 0.242193 -0.389132 1.000000
0.286960 -0.483075 -0.040340 1.000000
0.286960 -0.247670 0.396877 1.000000
0.286960 -0.295367 -0.345580 1.000000
0.286960 -0.420784 -0.257936 1.000000
0.286960 0.396526 0.222860 1.000000
0.286960 -0.366734 -0.279558 1.000000
0.286960 0.190923 0.443192 1.000000
0.286960 0.095250 -0.459071 1.000000
0.286960 -0.058209 0.443005 1.000000
0.286960 -0.056309 0.491711 1.000000
0.286960 0.493413 -0.005397 1.000000
0.286960 -0.483201 0.048298 1.000000
0.286960 0.263291 -0.399900 1.000000
0.286960 0.476027 -0.029283 1.000000
0.286960 0.224575 0.419938 1.000000
0.286960 0.001106 -0.457938 1.000000
0.286960 -0.459406 -0.072337 1.000000
0.286960 0.433372 0.108400 1.000000
0.286960 0.204987 0.429879 1.000000
0.286960 -0.413618 -0.227529 1.000000
0.286960 0.466585 -0.158163 1.000000
0.286960 0.127887 -0.452037 1.000000
0.286960 0.406619 -0.214704 1.000000
0.286960 0.380952 -0.250419 1.000000
0.286960 0.430431 -0.174715 1.000000
0.286960 -0.417995 0.201288 1.000000
0.286960 -0.446670 0.071601 1.000000
0.286960 -0.101358 0.454539 1.000000
