-0.167134 -0.288128 -0.341238 3.000000
0.207733 -0.307155 0.319785 3.000000
-0.155720 0.154024 0.415745 3.000000
0.129530 0.445745 0.004267 3.000000
-0.033856 -0.420089 -0.148247 3.000000
0.181879 0.371222 0.244420 3.000000
-0.050150 -0.256430 0.361503 3.000000
0.016803 0.438371 0.079310 3.000000
-0.067339 -0.413406 0.162345 3.000000
0.035577 -0.436053 0.085673 3.000000
0.211954 -0.146496 -0.422440 3.000000
0.006118 -0.345135 0.278617 3.000000
-0.136699 0.254181 -0.368081 3.000000
-0.251620 -0.176001 -0.410906 3.000000
0.012748 -0.053032 -0.444315 3.000000
0.051473 -0.431151 0.107605 3.000000
-0.113685 0.007326 -0.447398 3.000000
0.129404 0.329760 0.297596 3.000000
0.010647 0.012939 0.442868 3.000000
0.119277 0.121051 0.426428 3.000000
0.245384 -0.130904 0.423267 3.000000
-0.225867 -0.300711 0.325791 3.000000
0.233417 0.224035 0.382878 3.000000
-0.084484 0.370112 -0.250408 3.000000
-0.063854 0.410216 -0.176440 3.000000
0.027754 0.437166 0.085276 3.000000
-0.225912 -0.274407 0.348027 3.000000
0.091175 -0.003559 -0.447484 3.000000
-0.027908 0.442262 -0.059095 3.000000
-0.105134 -0.159059 0.413564 3.000000
0.158703 0.059826 0.439194 3.000000
-0.089907 -0.022155 0.442546 3.000000
-0.234870 -0.251108 0.365120 3.000000
0.215021 -0.416617 -0.157892 3.000000
0.129735 0.388375 -0.220951 3.000000
0.245014 -0.031783 0.441970 3.000000
0.142863 -0.264437 0.355760 3.000000
-0.154010 -0.014124 0.442798 3.000000
-0.045418 -0.421791 -0.143518 3.000000
0.028530 -0.188727 -0.405399 3.000000
-0.286215 0.310742 -0.321576 4.000000
0.239754 0.092541 -0.437808 3.000000
-0.286566 0.319355 -0.312964 4.000000
0.202471 0.209409 -0.395415 3.000000
-0.142704 0.399153 0.196119 3.000000
0.207444 -0.409066 0.172375 3.000000
0.240429 0.287550 -0.342651 3.000000
-0.106539 -0.112383 0.428648 3.000000
0.165078 -0.198745 -0.400327 3.000000
0.092739 -0.311575 -0.319718 3.000000
-0.141252 -0.321842 0.305098 3.000000
0.207065 -0.347010 0.276200 3.000000
-0.096629 0.445943 -0.002034 3.000000
0.194242 0.333802 0.293011 3.000000
0.090029 -0.198312 -0.400547 3.000000
-0.249577 0.432824 0.104704 3.000000
0.266044 -0.311786 -0.319508 3.000000
0.254758 0.435445 0.092978 3.000000
-0.052420 -0.441460 0.053123 3.000000
0.162745 -0.371491 0.242518 3.000000
-0.000833 0.326820 0.300930 3.000000
-0.053017 0.427077 0.125382 3.000000
0.027202 0.352464 -0.274843 3.000000
0.163294 0.428127 -0.126120 3.000000
-0.100594 -0.351646 -0.274576 3.000000
0.052057 0.393809 -0.210960 3.000000
-0.224397 -0.081313 -0.439982 3.000000
0.167087 -0.422157 0.138150 3.000000
-0.273499 0.219425 0.385605 3.000000
-0.087823 -0.092368 0.433264 3.000000
-0.008819 0.083690 0.435414 3.000000
0.095092 -0.396762 -0.203152 3.000000
0.230482 -0.208851 -0.395177 3.000000
-0.073528 0.275346 0.348093 3.000000
-0.216607 0.125648 -0.429445 3.000000
0.086571 0.335810 0.290734 3.000000
0.038432 -0.443276 -0.038265 3.000000
-0.089004 0.219567 0.385521 3.000000
0.286709 -0.016714 -0.447070 1.000000
-0.094051 0.381918 0.227517 3.000000
-0.222287 -0.239477 -0.377378 3.000000
-0.025854 -0.103453 0.430786 3.000000
-0.050944 -0.008965 0.442960 3.000000
0.140052 -0.148684 -0.421652 3.000000
-0.149342 -0.315830 -0.315464 3.000000
-0.093363 -0.283002 0.341360 3.000000
0.085418 0.099901 -0.436163 3.000000
-0.034874 0.443803 -0.043537 3.000000
-0.095404 -0.191478 0.399676 3.000000
-0.233611 0.294703 -0.336345 3.000000
0.208001 -0.442729 -0.044050 3.000000
0.160893 0.367138 0.250430 3.000000
-0.290288 -0.243524 0.382522 4.000000
-0.290288 -0.084668 0.448318 4.000000
-0.290288 -0.072646 -0.474391 4.000000
-0.290288 -0.447968 0.112528 4.000000
-0.290288 0.265678 -0.415778 4.000000
-0.290288 -0.095183 0.450626 4.000000
-0.290288 -0.071051 -0.461857 4.000000
-0.290288 -0.121176 0.426382 4.000000
-0.290288 0.443986 0.039918 4.000000
-0.290288 -0.379948 0.256586 4.000000
-0.290288 0.335095 -0.321612 4.000000
-0.290288 -0.383948 -0.307434 4.000000
-0.290288 -0.490353 0.066007 4.000000
-0.290288 -0.209696 -0.441026 4.000000
-0.290288 -0.255864 -0.373708 4.000000
-0.290288 -0.392637 0.274755 4.000000
-0.290288 0.292861 -0.365522 4.000000
-0.290288 -0.463535 -0.006098 4.000000
-0.290288 0.467553 -0.163697 4.000000
-0.290288 -0.473935 0.091019 4.000000
-0.290288 0.455551 -0.124221 4.000000
-0.290288 0.179872 0.449167 4.000000
-0.290288 0.099702 -0.477349 4.000000
-0.290288 -0.159866 -0.466477 4.000000
-0.290288 -0.268965 -0.391257 4.000000
-0.290288 0.115478 -0.449571 4.000000
-0.290288 -0.010500 0.444859 4.000000
-0.290288 0.475852 -0.037743 4.000000
-0.290288 -0.244108 -0.387596 4.000000
-0.290288 -0.434562 -0.218455 4.000000
-0.290288 -0.444939 -0.005999 4.000000
-0.290288 0.365785 0.331356 4.000000
-0.290288 -0.242504 -0.375790 4.000000
-0.290288 -0.281659 0.381710 4.000000
-0.290288 0.427035 -0.240015 4.000000
-0.290288 -0.429880 -0.119166 4.000000
-0.290288 -0.310035 0.374489 4.000000
-0.290288 -0.105664 -0.467790 4.000000
-0.290288 0.255649 -0.406140 4.000000
-0.290288 0.145426 0.430887 4.000000
-0.290288 0.478444 -0.116266 4.000000
-0.290288 -0.417135 -0.183012 4.000000
-0.290288 0.205121 0.428958 4.000000
-0.290288 -0.442805 0.058500 4.000000
-0.290288 0.410275 0.267014 4.000000
-0.290288 -0.491569 -0.004241 4.000000
-0.290288 -0.141310 -0.457817 4.000000
-0.290288 0.470492 0.053961 4.000000
-0.290288 0.184242 0.430975 4.000000
-0.290288 -0.101645 -0.476731 4.000000
-0.290288 -0.365417 0.278221 4.000000
-0.290288 -0.251412 -0.383465 4.000000
-0.290288 0.373151 -0.275642 4.000000
-0.290288 -0.156505 -0.469225 4.000000
-0.290288 -0.127951 0.469219 4.000000
-0.290288 -0.414413 0.236014 4.000000
-0.290288 0.447885 -0.173298 4.000000
-0.290288 0.146651 0.434481 4.000000
-0.290288 -0.419093 -0.202797 4.000000
-0.290288 0.082596 -0.474613 4.000000
-0.290288 0.396773 -0.294373 4.000000
-0.290288 -0.312994 -0.357289 4.000000
-0.290288 0.444834 0.029599 4.000000
-0.290288 0.098698 0.452650 4.000000
-0.290288 -0.383408 0.283160 4.000000
-0.290288 -0.402859 -0.278273 4.000000
-0.290288 0.293256 0.333592 4.000000
-0.290288 -0.058541 -0.476598 4.000000
-0.290288 -0.449920 0.152959 4.000000
-0.290288 0.397009 0.234909 4.000000
-0.290288 0.010256 0.465840 4.000000
-0.290288 -0.454837 -0.082033 4.000000
-0.290288 0.363306 0.313527 4.000000
-0.290288 0.478754 -0.062292 4.000000
-0.290288 -0.436866 -0.166018 4.000000
-0.290288 0.429985 -0.213022 4.000000
-0.290288 0.143157 0.447101 4.000000
-0.290288 -0.395097 -0.246845 4.000000
-0.290288 0.446697 0.108731 4.000000
-0.290288 0.467886 0.168106 4.000000
-0.290288 -0.365102 0.286772 4.000000
-0.290288 0.352618 -0.326805 4.000000
-0.290288 0.431748 -0.131996 4.000000
-0.290288 0.073756 -0.473978 4.000000
-0.290288 -0.401469 -0.235174 4.000000
-0.290288 0.432391 -0.172144 4.000000
-0.290288 0.381443 0.259442 4.000000
-0.290288 -0.143683 0.457096 4.000000
-0.290288 -0.422996 0.140875 4.000000
-0.290288 0.311262 -0.383565 4.000000
-0.290288 -0.480649 -0.010296 4.000000
-0.290288 -0.094680 -0.469537 4.000000
-0.290288 -0.389567 -0.308983 4.000000
-0.290288 0.046832 0.455711 4.000000
-0.290288 0.484103 0.116519 4.000000
-0.290288 0.194962 -0.414988 4.000000
-0.290288 0.221657 0.384386 4.000000
-0.290288 0.437009 -0.110033 4.000000
-0.290288 -0.184491 -0.446761 4.000000
-0.290288 0.235855 -0.380799 4.000000
-0.290288 0.341811 0.346374 4.000000
-0.290288 -0.169618 -0.451845 4.000000
-0.290288 0.419145 -0.158962 4.000000
-0.290288 -0.217412 -0.420255 4.000000
-0.290288 0.057470 -0.473351 4.000000
-0.290288 -0.116376 0.466602 4.000000
-0.290288 0.284504 0.391353 4.000000
-0.290288 0.380089 0.299640 4.000000
-0.290288 0.113289 -0.433449 4.000000
-0.290288 -0.490451 -0.037920 4.000000
-0.290288 -0.090572 -0.450367 4.000000
-0.290288 -0.080874 0.475695 4.000000
-0.290288 -0.466323 -0.173473 4.000000
-0.290288 0.237535 -0.406271 4.000000
-0.290288 0.434551 -0.138402 4.000000
-0.290288 -0.052513 0.453586 4.000000
-0.290288 0.245576 -0.399889 4.000000
-0.290288 0.123078 -0.459862 4.000000
-0.290288 -0.137042 0.435111 4.000000
-0.290288 -0.311343 0.381127 4.000000
-0.290288 0.329361 0.326613 4.000000
-0.290288 0.184200 -0.440758 4.000000
-0.290288 0.443067 -0.228928 4.000000
-0.290288 -0.100919 0.444423 4.000000
-0.290288 -0.415664 0.267895 4.000000
-0.290288 -0.282324 0.346086 4.000000
-0.290288 -0.198607 -0.412636 4.000000
-0.290288 0.421020 0.145180 4.000000
-0.290288 0.182678 0.436627 4.000000
-0.290288 -0.478058 0.021213 4.000000
-0.290288 -0.464656 -0.108364 4.000000
-0.290288 -0.068539 0.463035 4.000000
-0.290288 -0.010980 0.474221 4.000000
-0.290288 0.072281 -0.442057 4.000000
-0.290288 0.452992 -0.131934 4.000000
-0.290288 -0.208636 0.442362 4.000000
-0.290288 0.194109 -0.419860 4.000000
-0.290288 0.288689 0.380621 4.000000
-0.290288 -0.322128 -0.319310 4.000000
-0.290288 -0.441190 -0.142324 4.000000
-0.290288 0.462838 -0.008638 4.000000
-0.290288 -0.471771 0.025742 4.000000
-0.290288 -0.426797 -0.165803 4.000000
-0.290288 0.367996 -0.321146 4.000000
-0.290288 0.165105 0.467809 4.000000
-0.290288 0.176316 0.455241 4.000000
-0.290288 -0.072501 0.481480 4.000000
-0.290288 0.165297 0.435529 4.000000
-0.290288 0.375410 -0.245142 4.000000
-0.290288 0.450955 -0.170931 4.000000
-0.290288 -0.306343 0.327577 4.000000
-0.290288 -0.422439 0.253155 4.000000
-0.290288 -0.154769 0.465154 4.000000
-0.290288 -0.259429 -0.393143 4.000000
-0.290288 0.464288 0.065787 4.000000
-0.290288 -0.442548 0.209623 4.000000
-0.290288 -0.388027 -0.220403 4.000000
-0.290288 0.462091 0.094613 4.000000
-0.290288 0.479441 0.110341 4.000000
-0.290288 0.315441 -0.346439 4.000000
-0.290288 -0.141023 0.466387 4.000000
-0.290288 0.424933 -0.160332 4.000000
-0.290288 -0.409691 0.209777 4.000000
-0.290288 -0.087206 -0.491571 4.000000
-0.290288 -0.248250 0.390478 4.000000
-0.290288 -0.479889 -0.057641 4.000000
-0.290288 0.270612 0.415896 4.000000
-0.290288 0.494059 -0.068381 4.000000
-0.290288 0.458307 0.093959 4.000000
-0.290288 -0.239271 -0.406699 4.000000
-0.290288 -0.362506 0.293231 4.000000
-0.290288 0.433512 0.206718 4.000000
-0.290288 0.364150 0.271780 4.000000
-0.290288 0.337945 -0.322843 4.000000
-0.290288 -0.170091 0.421722 4.000000
-0.290288 0.266215 -0.386523 4.000000
-0.290288 -0.223982 0.402084 4.000000
-0.290288 -0.423491 -0.227304 4.000000
-0.290288 0.379190 0.292148 4.000000
-0.290288 -0.407395 0.240268 4.000000
-0.290288 0.446091 -0.121653 4.000000
-0.290288 -0.147945 -0.445519 4.000000
-0.290288 -0.253367 0.376572 4.000000
-0.290288 -0.116097 -0.450551 4.000000
-0.290288 0.497800 0.025060 4.000000
-0.290288 0.050142 -0.460996 4.000000
-0.290288 0.477036 -0.078811 4.000000
-0.290288 -0.455769 0.159254 4.000000
-0.290288 0.407975 -0.270060 4.000000
-0.290288 0.381934 -0.298874 4.000000
-0.290288 -0.266983 0.393281 4.000000
-0.290288 -0.136595 0.466649 4.000000
-0.290288 0.173911 0.411509 4.000000
-0.290288 0.463495 0.139784 4.000000
-0.290288 0.449830 -0.208152 4.000000
-0.290288 0.118846 0.472184 4.000000
-0.290288 0.325569 0.320674 4.000000
-0.290288 -0.037829 -0.461671 4.000000
-0.290288 -0.479176 0.051673 4.000000
-0.290288 -0.364108 -0.273808 4.000000
-0.290288 0.490979 0.053333 4.000000
-0.290288 0.431386 0.155641 4.000000
-0.290288 -0.435113 -0.233058 4.000000
-0.290288 0.234689 0.436975 4.000000
-0.290288 0.459190 -0.087438 4.000000
-0.290288 0.330260 -0.313392 4.000000
-0.290288 -0.479634 -0.115396 4.000000
-0.290288 0.038815 0.483711 4.000000
-0.290288 0.196284 -0.458253 4.000000
-0.290288 -0.450354 -0.153795 4.000000
-0.290288 -0.172583 0.423795 4.000000
-0.290288 0.004303 -0.482544 4.000000
-0.290288 0.049237 -0.456077 4.000000
-0.290288 0.327482 0.373413 4.000000
-0.290288 -0.121390 -0.472514 4.000000
-0.290288 -0.317866 0.373850 4.000000
-0.290288 0.112645 0.479154 4.000000
-0.290288 -0.151503 0.459799 4.000000
-0.290288 0.420961 0.244968 4.000000
-0.290288 0.270266 0.383099 4.000000
-0.290288 0.467520 0.019672 4.000000
-0.290288 0.451701 -0.049321 4.000000
-0.290288 -0.397504 0.235356 4.000000
-0.290288 0.395396 0.231049 4.000000
-0.290288 0.356767 -0.312382 4.000000
-0.290288 -0.447570 -0.179467 4.000000
-0.290288 0.090093 -0.462903 4.000000
-0.290288 -0.372690 -0.278733 4.000000
-0.290288 0.289192 -0.402519 4.000000
-0.290288 0.483027 -0.017991 4.000000
-0.290288 -0.148655 0.424379 4.000000
-0.290288 0.071014 -0.471622 4.000000
-0.290288 0.131934 -0.463878 4.000000
-0.290288 0.414670 -0.220363 4.000000
-0.290288 -0.411461 -0.231456 4.000000
-0.290288 -0.142685 0.429304 4.000000
-0.290288 0.478995 0.099895 4.000000
-0.290288 0.334689 0.350345 4.000000
-0.290288 -0.240176 0.419308 4.000000
-0.290288 0.442843 -0.093551 4.000000
-0.290288 0.358885 0.270694 4.000000
-0.290288 -0.237091 0.384333 4.000000
-0.290288 0.099413 0.485684 4.000000
-0.290288 0.231218 0.414968 4.000000
-0.290288 0.033696 -0.498314 4.000000
-0.290288 0.459869 0.080139 4.000000
-0.290288 -0.454602 -0.062359 4.000000
-0.290288 0.351431 0.312722 4.000000
-0.290288 0.380623 -0.269276 4.000000
-0.290288 0.043552 -0.451502 4.000000
-0.290288 -0.250413 0.383118 4.000000
-0.290288 0.271943 -0.403348 4.000000
-0.290288 0.000727 -0.470239 4.000000
-0.290288 -0.355700 -0.317440 4.000000
-0.290288 0.458585 -0.134097 4.000000
-0.290288 -0.337588 0.354306 4.000000
-0.290288 -0.093899 0.486544 4.000000
-0.290288 -0.112213 -0.459148 4.000000
-0.290288 -0.309307 0.351897 4.000000
-0.290288 0.273660 0.414035 4.000000
-0.290288 -0.314140 -0.331957 4.000000
-0.290288 -0.491471 -0.076903 4.000000
-0.290288 0.430534 0.237160 4.000000
-0.290288 0.411107 -0.194360 4.000000
-0.290288 0.468770 0.157167 4.000000
-0.290288 0.192413 -0.456833 4.000000
-0.290288 -0.080590 0.460568 4.000000
-0.290288 -0.167335 0.426731 4.000000
-0.290288 -0.110870 0.444357 4.000000
-0.290288 0.398003 -0.222983 4.000000
-0.290288 -0.069597 0.438589 4.000000
-0.290288 0.434206 0.189366 4.000000
-0.290288 0.245868 -0.374098 4.000000
-0.290288 0.137420 0.445583 4.000000
-0.290288 -0.396596 0.200107 4.000000
-0.290288 -0.415768 0.167946 4.000000
-0.290288 -0.418649 0.239894 4.000000
-0.290288 0.258562 -0.407896 4.000000
-0.290288 -0.148097 0.468213 4.000000
-0.290288 0.449163 0.161020 4.000000
-0.290288 0.193616 -0.424906 4.000000
-0.290288 0.240364 0.414144 4.000000
-0.290288 0.203513 0.425404 4.000000
-0.290288 -0.002977 -0.448556 4.000000
-0.290288 0.146974 -0.452311 4.000000
-0.290288 0.057388 0.482453 4.000000
-0.290288 0.382774 -0.302604 4.000000
-0.290288 0.354744 0.308248 4.000000
-0.290288 0.130307 -0.428251 4.000000
-0.290288 0.137523 0.422080 4.000000
-0.290288 0.405166 0.280953 4.000000
-0.290288 -0.128391 -0.433189 4.000000
-0.290288 -0.129991 0.463327 4.000000
-0.290288 0.369175 0.324555 4.000000
-0.290288 -0.451475 0.018782 4.000000
-0.290288 -0.147686 0.456988 4.000000
-0.290288 -0.458703 0.078625 4.000000
-0.290288 -0.141391 -0.449994 4.000000
-0.290288 -0.396083 -0.270030 4.000000
-0.290288 -0.302406 -0.361995 4.000000
-0.290288 0.437743 0.182872 4.000000
-0.290288 0.333419 0.294290 4.000000
-0.290288 0.282142 0.352202 4.000000
-0.290288 0.417255 -0.231934 4.000000
-0.290288 0.322874 0.354427 4.000000
-0.290288 -0.444961 -0.199927 4.000000
-0.290288 0.227720 -0.420634 4.000000
-0.290288 0.294904 -0.349880 4.000000
-0.290288 -0.207537 -0.443341 4.000000
-0.290288 0.454114 0.022840 4.000000
-0.290288 0.465416 -0.036500 4.000000
-0.290288 -0.231795 0.437445 4.000000
-0.290288 -0.220249 -0.407539 4.000000
-0.290288 -0.386368 -0.272688 4.000000
-0.290288 0.415708 0.174658 4.000000
-0.290288 0.055188 0.479946 4.000000
-0.290288 0.000814 0.482310 4.000000
-0.290288 0.383527 -0.258809 4.000000
-0.290288 -0.258377 0.421985 4.000000
-0.290288 -0.219862 -0.403137 4.000000
-0.290288 0.381746 -0.312724 4.000000
-0.290288 -0.135768 -0.447782 4.000000
-0.290288 -0.348345 -0.321465 4.000000
-0.290288 -0.138056 0.452941 4.000000
-0.290288 0.289356 -0.387930 4.000000
-0.290288 0.317812 0.371853 4.000000
-0.290288 -0.378692 0.303762 4.000000
-0.290288 0.179073 0.442552 4.000000
-0.290288 -0.398292 0.295286 4.000000
-0.290288 -0.384053 0.238875 4.000000
-0.290288 0.273747 0.383587 4.000000
-0.290288 0.466714 -0.136483 4.000000
-0.290288 -0.132963 0.446133 4.000000
-0.290288 0.469816 0.080558 4.000000
-0.290288 0.481887 -0.000937 4.000000
-0.290288 -0.480684 0.001587 4.000000
-0.290288 0.444650 -0.181426 4.000000
-0.290288 0.387625 0.220193 4.000000
-0.290288 0.117459 0.453972 4.000000
-0.290288 -0.045991 -0.468230 4.000000
-0.290288 -0.438166 0.106020 4.000000
-0.290288 -0.428447 0.205795 4.000000
-0.290288 0.445254 0.062975 4.000000
-0.290288 -0.252243 -0.389194 4.000000
-0.290288 0.365467 -0.340783 4.000000
-0.290288 -0.467372 0.101909 4.000000
-0.290288 0.119653 -0.471116 4.000000
-0.290288 -0.460895 0.167596 4.000000
-0.290288 -0.149143 0.434501 4.000000
-0.290288 -0.263777 0.403442 4.000000
-0.290288 -0.145747 -0.466445 4.000000
-0.290288 0.051215 -0.496901 4.000000
-0.290288 0.362640 0.285503 4.000000
-0.290288 -0.272373 -0.390097 4.000000
-0.290288 0.199064 -0.450608 4.000000
-0.290288 0.428363 -0.243168 4.000000
-0.290288 0.412292 -0.182396 4.000000
-0.290288 -0.368551 0.263968 4.000000
-0.290288 0.426251 -0.231950 4.000000
-0.290288 -0.339120 -0.328822 4.000000
-0.290288 -0.435457 0.233936 4.000000
-0.290288 0.462981 0.131935 4.000000
-0.290288 0.079952 -0.459634 4.000000
-0.290288 0.062383 0.450539 4.000000
-0.290288 0.157402 0.417657 4.000000
-0.290288 -0.417255 0.204541 4.000000
-0.290288 -0.382660 0.315447 4.000000
-0.290288 0.432061 0.147060 4.000000
-0.290288 0.445556 0.201808 4.000000
-0.290288 -0.464406 -0.141652 4.000000
-0.290288 -0.338478 0.312331 4.000000
-0.290288 0.266020 -0.398512 4.000000
-0.290288 -0.200283 0.424628 4.000000
-0.290288 -0.379033 -0.280383 4.000000
-0.290288 -0.054126 0.475688 4.000000
-0.290288 0.075713 -0.479087 4.000000
-0.290288 0.398309 -0.284102 4.000000
-0.290288 -0.143238 0.463047 4.000000
-0.290288 0.394083 0.236940 4.000000
-0.290288 -0.301192 -0.357032 4.000000
-0.290288 -0.406879 -0.261449 4.000000
-0.290288 -0.481877 -0.083073 4.000000
-0.290288 0.467121 0.057816 4.000000
-0.290288 0.124778 0.448217 4.000000
-0.290288 0.429323 -0.139420 4.000000
-0.290288 0.391449 0.220802 4.000000
-0.290288 0.253901 0.423194 4.000000
-0.290288 0.303329 0.351650 4.000000
-0.290288 -0.184976 -0.436772 4.000000
-0.290288 -0.422580 0.153091 4.000000
-0.290288 0.465777 0.005008 4.000000
-0.290288 0.215876 -0.412065 4.000000
-0.290288 0.325967 -0.358414 4.000000
-0.290288 -0.211026 -0.401145 4.000000
-0.290288 0.458002 0.064099 4.000000
-0.290288 -0.454261 0.138000 4.000000
-0.290288 -0.290703 0.387814 4.000000
-0.290288 0.498066 0.008224 4.000000
-0.290288 -0.336045 -0.322879 4.000000
-0.290288 0.313313 0.341259 4.000000
-0.290288 0.438908 0.226854 4.000000
-0.290288 -0.452410 0.114403 4.000000
-0.290288 0.456249 0.184279 4.000000
-0.290288 -0.389797 -0.255890 4.000000
-0.290288 0.262570 -0.382958 4.000000
-0.290288 -0.158224 -0.452707 4.000000
-0.290288 -0.091082 0.455297 4.000000
-0.290288 -0.293972 0.342601 4.000000
-0.290288 0.115774 0.467357 4.000000
-0.290288 -0.341338 -0.288709 4.000000
-0.290288 -0.286002 -0.377927 4.000000
-0.290288 -0.116089 0.435871 4.000000
-0.290288 0.457927 -0.167177 4.000000
-0.290288 -0.463871 -0.169853 4.000000
-0.290288 0.212027 -0.432923 4.000000
-0.290288 0.149390 0.429228 4.000000
-0.290288 -0.450477 0.091019 4.000000
-0.290288 0.376426 0.266264 4.000000
-0.290288 0.289701 0.356863 4.000000
-0.290288 -0.313271 -0.318732 4.000000
-0.290288 -0.430966 0.226920 4.000000
-0.290288 -0.075707 -0.466001 4.000000
-0.290288 -0.456031 0.026254 4.000000
-0.290288 -0.167931 -0.424931 4.000000
-0.290288 -0.426775 0.162887 4.000000
-0.290288 0.459898 -0.031999 4.000000
-0.290288 0.337845 0.344084 4.000000
-0.290288 0.465088 0.030245 4.000000
-0.290288 0.102077 0.446630 4.000000
-0.290288 -0.344645 0.280177 4.000000
-0.290288 -0.169485 -0.469973 4.000000
-0.290288 -0.397551 -0.234565 4.000000
-0.290288 0.156837 -0.428306 4.000000
-0.290288 0.395828 -0.232391 4.000000
-0.290288 -0.436131 -0.204874 4.000000
-0.290288 0.475802 0.099505 4.000000
-0.290288 -0.358131 0.267002 4.000000
-0.290288 -0.014515 0.454099 4.000000
-0.290288 -0.426028 0.254519 4.000000
-0.290288 -0.465126 0.138333 4.000000
-0.290288 -0.208475 0.410785 4.000000
-0.290288 0.443225 -0.199170 4.000000
-0.290288 0.487749 -0.101060 4.000000
-0.290288 0.045500 0.486401 4.000000
-0.290288 0.476322 -0.119766 4.000000
-0.290288 -0.149330 -0.466470 4.000000
-0.290288 -0.445189 0.114680 4.000000
-0.290288 -0.088262 0.480064 4.000000
-0.290288 0.494761 -0.054358 4.000000
-0.290288 0.090627 -0.455749 4.000000
-0.290288 0.461001 -0.026492 4.000000
-0.290288 -0.489487 0.052324 4.000000
-0.290288 -0.330367 0.351690 4.000000
-0.290288 -0.201092 -0.424381 4.000000
-0.290288 0.436000 -0.239218 4.000000
-0.290288 0.294825 0.397527 4.000000
-0.290288 -0.011404 -0.462499 4.000000
-0.290288 0.466559 -0.105356 4.000000
-0.290288 0.270089 -0.361475 4.000000
-0.290288 -0.478001 0.011399 4.000000
-0.290288 -0.397740 0.208672 4.000000
-0.290288 -0.008748 -0.450982 4.000000
-0.290288 0.044434 0.452405 4.000000
-0.290288 -0.260677 -0.411501 4.000000
-0.290288 -0.365350 -0.286757 4.000000
-0.290288 -0.487184 0.067852 4.000000
-0.290288 -0.182754 0.404433 4.000000
-0.290288 0.400909 0.293279 4.000000
-0.290288 -0.028967 -0.484488 4.000000
-0.290288 0.297558 0.351507 4.000000
-0.290288 -0.471992 -0.011255 4.000000
-0.290288 0.060589 -0.491738 4.000000
-0.290288 -0.364036 0.289841 4.000000
-0.290288 -0.377217 -0.260255 4.000000
-0.290288 -0.196347 -0.456314 4.000000
-0.290288 0.492506 0.014599 4.000000
-0.290288 -0.481241 -0.124578 4.000000
-0.290288 0.201555 0.410242 4.000000
-0.290288 0.141730 0.425403 4.000000
-0.290288 0.064432 -0.461946 4.000000
-0.290288 0.439468 -0.149046 4.000000
-0.290288 0.422852 -0.163312 4.000000
-0.290288 -0.099114 0.460095 4.000000
-0.290288 -0.319150 0.378829 4.000000
-0.290288 0.154322 -0.424492 4.000000
-0.290288 -0.171450 -0.422850 4.000000
-0.290288 0.471278 0.069049 4.000000
-0.290288 -0.020221 -0.495362 4.000000
-0.290288 -0.051112 -0.496933 4.000000
-0.290288 0.125368 -0.447549 4.000000
-0.290288 0.422403 -0.245926 4.000000
-0.290288 0.088722 -0.485572 4.000000
-0.290288 0.090940 0.437259 4.000000
-0.290288 0.465612 0.172348 4.000000
-0.290288 -0.072936 -0.456062 4.000000
-0.290288 0.084131 -0.481331 4.000000
-0.290288 -0.456820 -0.006810 4.000000
-0.290288 0.375669 -0.294623 4.000000
-0.290288 0.000856 0.447268 4.000000
-0.290288 -0.371994 0.279877 4.000000
-0.290288 0.056364 0.467885 4.000000
-0.290288 -0.376819 0.244094 4.000000
-0.290288 -0.465084 0.104613 4.000000
-0.290288 -0.277722 0.391683 4.000000
-0.290288 0.472571 0.003751 4.000000
-0.290288 -0.213280 -0.418149 4.000000
-0.290288 0.202179 -0.426633 4.000000
-0.290288 -0.457265 0.113285 4.000000
-0.290288 0.289556 0.363135 4.000000
-0.290288 0.427846 -0.130662 4.000000
-0.290288 -0.153336 0.437593 4.000000
-0.290288 -0.467460 -0.038785 4.000000
-0.290288 0.305286 0.368307 4.000000
-0.290288 -0.441229 0.104905 4.000000
-0.290288 -0.085829 -0.481503 4.000000
-0.290288 0.426103 -0.203794 4.000000
-0.290288 -0.278074 -0.406214 4.000000
-0.290288 -0.163505 -0.461592 4.000000
-0.290288 0.492967 0.069200 4.000000
-0.290288 -0.279238 0.364138 4.000000
-0.290288 0.450001 0.146824 4.000000
-0.290288 -0.459580 0.087610 4.000000
-0.290288 0.470507 -0.145378 4.000000
-0.290288 0.384634 0.270708 4.000000
-0.290288 -0.203481 0.423234 4.000000
-0.290288 0.467136 0.002232 4.000000
-0.290288 -0.409439 0.244039 4.000000
-0.290288 -0.058247 -0.460755 4.000000
-0.290288 0.182788 0.419396 4.000000
-0.290288 0.243662 -0.427034 4.000000
-0.290288 -0.425031 -0.248369 4.000000
-0.290288 -0.350642 -0.326184 4.000000
-0.290288 -0.217140 0.405052 4.000000
-0.290288 0.457408 -0.039120 4.000000
-0.290288 -0.477813 0.094990 4.000000
-0.290288 -0.384234 -0.303382 4.000000
-0.290288 -0.113687 0.455634 4.000000
-0.290288 -0.359421 0.304207 4.000000
-0.290288 0.405549 0.201208 4.000000
-0.290288 0.308361 0.337413 4.000000
-0.290288 -0.456908 -0.122529 4.000000
-0.290288 -0.349485 -0.278287 4.000000
-0.290288 0.392890 0.303154 4.000000
-0.290288 0.459390 -0.075689 4.000000
-0.290288 -0.120554 0.452314 4.000000
-0.290288 0.262389 0.360686 4.000000
-0.290288 -0.379471 -0.245535 4.000000
-0.290288 0.429383 -0.196979 4.000000
-0.290288 -0.456483 -0.075376 4.000000
-0.290288 -0.368165 -0.255219 4.000000
-0.290288 0.316240 -0.316972 4.000000
-0.290288 -0.476393 -0.094517 4.000000
-0.290288 0.310952 0.385588 4.000000
-0.290288 -0.470592 -0.000168 4.000000
-0.290288 0.034056 0.478126 4.000000
-0.290288 -0.389414 0.291982 4.000000
-0.290288 -0.445263 0.068311 4.000000
-0.290288 0.000529 -0.455691 4.000000
-0.290288 0.421475 -0.265027 4.000000
-0.290288 -0.377944 0.240699 4.000000
-0.290288 0.342990 -0.294247 4.000000
-0.290288 0.018277 -0.484079 4.000000
-0.290288 0.437796 -0.152180 4.000000
-0.290288 0.067885 0.472880 4.000000
-0.290288 0.321266 0.377907 4.000000
-0.290288 0.013817 0.473597 4.000000
-0.290288 0.364604 -0.319525 4.000000
-0.290288 -0.414627 -0.231994 4.000000
-0.290288 0.024721 0.461652 4.000000
-0.290288 -0.038125 0.484559 4.000000
-0.290288 -0.207087 -0.409425 4.000000
-0.290288 -0.419931 -0.151014 4.000000
-0.290288 0.453104 -0.114646 4.000000
-0.290288 -0.048460 0.481495 4.000000
-0.290288 -0.479401 -0.042993 4.000000
-0.290288 -0.468175 0.165161 4.000000
-0.290288 0.361999 0.309666 4.000000
-0.290288 0.325717 0.358348 4.000000
-0.290288 -0.124136 -0.450051 4.000000
-0.290288 0.403352 0.198072 4.000000
-0.290288 0.008221 -0.499976 4.000000
-0.290288 0.405541 0.250026 4.000000
-0.290288 -0.441825 0.166003 4.000000
-0.290288 0.123923 -0.450632 4.000000
-0.290288 -0.282174 0.357430 4.000000
-0.290288 -0.462490 -0.079478 4.000000
-0.290288 -0.204175 -0.454943 4.000000
-0.290288 0.430131 -0.193909 4.000000
-0.290288 -0.473459 0.001611 4.000000
-0.290288 0.308296 -0.374543 4.000000
-0.290288 0.287752 0.343229 4.000000
-0.290288 -0.008057 0.456247 4.000000
-0.290288 -0.027226 -0.466925 4.000000
-0.290288 -0.455666 -0.163839 4.000000
-0.290288 -0.249440 0.422882 4.000000
-0.290288 -0.067438 -0.468741 4.000000
-0.290288 -0.441871 0.224622 4.000000
-0.290288 0.024140 0.494569 4.000000
-0.290288 0.423875 -0.173927 4.000000
-0.290288 0.119983 0.458457 4.000000
-0.290288 0.406430 -0.288186 4.000000
-0.290288 0.402345 -0.289668 4.000000
-0.290288 -0.458066 0.006578 4.000000
-0.290288 0.487201 0.055807 4.000000
-0.290288 -0.220431 -0.448101 4.000000
-0.290288 0.252013 0.389773 4.000000
-0.290288 0.072741 -0.468659 4.000000
-0.290288 -0.091797 -0.439694 4.000000
-0.290288 -0.223090 -0.418210 4.000000
-0.290288 0.464749 -0.005228 4.000000
-0.290288 0.394612 0.295475 4.000000
-0.290288 -0.355689 -0.269912 4.000000
-0.290288 -0.284864 -0.366351 4.000000
-0.290288 0.371677 -0.254820 4.000000
-0.290288 -0.406897 0.232780 4.000000
-0.290288 0.200511 -0.447602 4.000000
-0.290288 0.351340 0.339623 4.000000
-0.290288 0.361956 0.258686 4.000000
-0.290288 -0.423003 0.214247 4.000000
-0.290288 -0.470836 0.036591 4.000000
-0.290288 -0.201134 -0.446902 4.000000
-0.290288 0.308183 0.379190 4.000000
-0.290288 -0.096082 0.462199 4.000000
-0.290288 0.189244 0.441123 4.000000
-0.290288 0.397302 -0.279323 4.000000
-0.290288 0.445235 0.021745 4.000000
-0.290288 0.461678 0.011929 4.000000
-0.290288 0.440968 0.118554 4.000000
-0.290288 0.222981 -0.415992 4.000000
-0.290288 -0.381375 0.290064 4.000000
-0.290288 -0.007397 -0.491868 4.000000
-0.290288 -0.281867 0.372767 4.000000
-0.290288 -0.469821 -0.125624 4.000000
-0.290288 -0.481143 -0.074434 4.000000
-0.290288 -0.436764 0.189455 4.000000
-0.290288 -0.137054 -0.470936 4.000000
-0.290288 0.493722 0.051480 4.000000
-0.290288 -0.132885 0.461503 4.000000
-0.290288 -0.452068 0.023437 4.000000
-0.290288 0.272961 -0.368913 4.000000
-0.290288 -0.013992 -0.492802 4.000000
-0.290288 0.441424 -0.179965 4.000000
-0.290288 0.374520 -0.265632 4.000000
-0.290288 -0.060364 -0.495597 4.000000
-0.290288 0.380305 -0.250095 4.000000
-0.290288 0.179761 -0.455504 4.000000
-0.290288 -0.034196 -0.487051 4.000000
-0.290288 0.465245 0.092695 4.000000
-0.290288 0.393374 -0.220872 4.000000
-0.290288 -0.448967 -0.190133 4.000000
-0.290288 -0.356401 -0.335222 4.000000
-0.290288 0.453527 0.040453 4.000000
-0.290288 -0.201144 -0.456193 4.000000
-0.290288 0.387930 -0.281272 4.000000
-0.290288 -0.468994 -0.097204 4.000000
-0.290288 0.186115 -0.461608 4.000000
-0.290288 0.362608 -0.322666 4.000000
-0.290288 -0.256302 -0.383524 4.000000
-0.290288 -0.437527 -0.238460 4.000000
-0.290288 0.217519 0.395439 4.000000
-0.290288 -0.372493 -0.254716 4.000000
-0.290288 0.309797 -0.350264 4.000000
-0.290288 -0.459081 0.036155 4.000000
-0.290288 -0.139595 0.469625 4.000000
-0.290288 -0.333314 -0.327598 4.000000
-0.290288 0.439389 -0.117594 4.000000
-0.290288 0.363182 -0.286705 4.000000
-0.290288 -0.028805 -0.498166 4.000000
-0.290288 0.313623 -0.343719 4.000000
-0.290288 0.064530 -0.479833 4.000000
-0.290288 0.182247 -0.433852 4.000000
-0.290288 -0.289161 -0.401335 4.000000
-0.290288 -0.376672 0.289701 4.000000
-0.290288 -0.294765 -0.387204 4.000000
-0.290288 -0.441738 0.198311 4.000000
-0.290288 -0.448625 -0.182657 4.000000
-0.290288 -0.445664 0.050294 4.000000
-0.290288 -0.434576 0.139874 4.000000
-0.290288 -0.124426 -0.440587 4.000000
-0.290288 -0.423559 0.220770 4.000000
-0.290288 0.080143 -0.481971 4.000000
-0.290288 -0.412168 0.232863 4.000000
-0.290288 -0.410224 0.247091 4.000000
-0.290288 0.031245 0.493489 4.000000
-0.290288 0.279626 0.388635 4.000000
-0.290288 -0.416800 0.232438 4.000000
-0.290288 -0.397248 -0.228016 4.000000
-0.290288 -0.477158 -0.123781 4.000000
-0.290288 0.318781 -0.367243 4.000000
-0.290288 -0.209243 0.446458 4.000000
-0.290288 -0.013451 -0.498004 4.000000
-0.290288 0.143028 -0.424288 4.000000
-0.290288 -0.196014 -0.429612 4.000000
-0.290288 -0.036478 -0.496711 4.000000
-0.290288 -0.130025 -0.428146 4.000000
-0.290288 -0.407367 0.197516 4.000000
-0.290288 0.378389 0.258195 4.000000
-0.290288 0.331749 0.329744 4.000000
-0.290288 0.426946 0.138509 4.000000
-0.290288 -0.035918 0.445984 4.000000
-0.290288 0.391753 -0.293531 4.000000
-0.290288 0.486000 -0.077477 4.000000
-0.290288 0.470366 -0.106115 4.000000
-0.290288 -0.112839 -0.466657 4.000000
-0.290288 0.471670 -0.063802 4.000000
-0.290288 -0.288966 -0.351210 4.000000
-0.290288 0.443178 0.213978 4.000000
-0.290288 -0.162284 -0.426754 4.000000
-0.290288 -0.469107 -0.046429 4.000000
-0.290288 0.359407 -0.284969 4.000000
-0.290288 0.179525 0.420692 4.000000
-0.290288 -0.488206 0.039965 4.000000
-0.290288 -0.467386 0.034141 4.000000
-0.290288 0.131173 -0.440543 4.000000
-0.290288 -0.306061 -0.326004 4.000000
-0.290288 -0.164081 0.412022 4.000000
-0.290288 0.154224 -0.432619 4.000000
-0.290288 -0.213467 -0.451757 4.000000
-0.290288 0.034006 -0.468086 4.000000
-0.290288 -0.170861 -0.419311 4.000000
-0.290288 0.427321 0.196891 4.000000
-0.290288 0.439792 -0.108377 4.000000
-0.290288 0.020649 0.494679 4.000000
-0.290288 -0.443710 -0.154257 4.000000
-0.290288 0.470676 -0.123846 4.000000
-0.290288 0.443079 0.146681 4.000000
-0.290288 -0.203825 0.401723 4.000000
-0.290288 -0.432956 -0.128959 4.000000
-0.290288 -0.490534 0.019148 4.000000
-0.290288 -0.135164 -0.453601 4.000000
-0.290288 -0.195356 -0.413746 4.000000
-0.290288 -0.121840 -0.466377 4.000000
-0.290288 0.344390 0.323248 4.000000
-0.290288 -0.330734 0.314195 4.000000
-0.290288 0.421416 0.228534 4.000000
-0.290288 0.454084 -0.171253 4.000000
-0.290288 0.274060 -0.398400 4.000000
-0.290288 -0.406268 -0.233585 4.000000
-0.290288 0.457595 0.074082 4.000000
-0.290288 -0.377302 -0.253395 4.000000
-0.290288 -0.119177 -0.470395 4.000000
-0.290288 0.234643 -0.433902 4.000000
-0.290288 -0.322224 -0.329041 4.000000
-0.290288 0.077818 -0.476084 4.000000
-0.290288 -0.325500 0.337231 4.000000
-0.290288 0.418434 -0.238462 4.000000
-0.290288 -0.212760 0.445158 4.000000
-0.290288 -0.091247 0.451984 4.000000
-0.290288 -0.116364 -0.453729 4.000000
-0.290288 -0.127487 -0.438930 4.000000
-0.290288 -0.241048 -0.387753 4.000000
-0.290288 -0.389270 -0.245733 4.000000
-0.290288 0.398321 0.274657 4.000000
-0.290288 -0.436491 -0.225088 4.000000
-0.290288 0.467362 -0.145918 4.000000
-0.290288 0.425825 0.240875 4.000000
-0.290288 -0.426704 -0.129115 4.000000
-0.290288 -0.416832 0.154836 4.000000
-0.290288 -0.370900 -0.319212 4.000000
-0.290288 0.248854 0.367714 4.000000
-0.290288 0.233311 0.377609 4.000000
-0.290288 0.447285 0.112264 4.000000
-0.290288 0.430900 0.215168 4.000000
-0.290288 0.448640 0.157140 4.000000
-0.290288 0.424029 0.172211 4.000000
-0.290288 -0.383994 0.257904 4.000000
-0.290288 0.304195 -0.336276 4.000000
-0.290288 -0.309851 0.318374 4.000000
-0.290288 0.451764 0.054858 4.000000
-0.290288 -0.010972 0.458451 4.000000
-0.290288 -0.048989 0.474704 4.000000
-0.290288 0.371171 0.329404 4.000000
-0.290288 -0.163803 0.461785 4.000000
-0.290288 -0.494879 -0.019306 4.000000
-0.290288 -0.208306 0.406069 4.000000
-0.290288 0.284025 -0.360434 4.000000
-0.290288 0.226064 -0.395753 4.000000
-0.290288 -0.381637 -0.241046 4.000000
-0.290288 0.453557 -0.174308 4.000000
-0.290288 -0.127326 -0.443061 4.000000
-0.290288 -0.165623 0.454461 4.000000
-0.290288 0.231470 -0.439152 4.000000
-0.290288 -0.446152 0.041428 4.000000
-0.290288 -0.467429 0.145936 4.000000
-0.290288 0.231540 -0.388243 4.000000
-0.290288 0.001788 -0.452616 4.000000
-0.290288 0.277982 -0.413098 4.000000
-0.290288 -0.333260 -0.296886 4.000000
-0.290288 -0.361369 -0.294847 4.000000
-0.290288 -0.379231 0.246704 4.000000
-0.290288 -0.135233 -0.460556 4.000000
-0.290288 0.084018 0.469237 4.000000
-0.290288 0.354754 -0.275733 4.000000
-0.290288 -0.088525 -0.466296 4.000000
-0.290288 0.436659 0.220010 4.000000
-0.290288 0.471900 -0.082134 4.000000
-0.290288 -0.171418 -0.459084 4.000000
-0.290288 -0.277270 0.404348 4.000000
-0.290288 -0.423449 -0.151281 4.000000
-0.290288 -0.422953 -0.196150 4.000000
-0.290288 0.421348 0.169467 4.000000
-0.290288 -0.268809 0.388995 4.000000
-0.290288 -0.470550 0.156820 4.000000
-0.290288 0.295541 -0.353488 4.000000
-0.290288 0.251924 0.385987 4.000000
-0.290288 0.455853 0.168038 4.000000
-0.290288 0.035128 0.444036 4.000000
-0.290288 0.080819 -0.471015 4.000000
-0.290288 0.143760 -0.429894 4.000000
-0.290288 0.409943 -0.253905 4.000000
-0.290288 0.021774 -0.482325 4.000000
-0.290288 0.342078 -0.359680 4.000000
-0.290288 -0.378207 0.234202 4.000000
-0.290288 -0.074504 0.487737 4.000000
-0.290288 0.282878 -0.364459 4.000000
-0.290288 0.398758 -0.235438 4.000000
-0.290288 0.231433 -0.398097 4.000000
-0.290288 0.414368 0.274451 4.000000
-0.290288 0.308686 -0.381444 4.000000
-0.290288 0.198926 -0.419672 4.000000
-0.290288 -0.427196 0.174639 4.000000
-0.290288 -0.452049 0.188396 4.000000
-0.290288 -0.187538 -0.422798 4.000000
-0.290288 0.440758 0.105693 4.000000
-0.290288 0.492193 -0.063821 4.000000
-0.290288 -0.484390 0.083672 4.000000
-0.290288 0.283599 -0.346295 4.000000
-0.290288 -0.400529 -0.276013 4.000000
-0.290288 0.189690 -0.432786 4.000000
-0.290288 -0.438544 -0.081538 4.000000
-0.290288 0.078589 0.476959 4.000000
-0.290288 0.489061 -0.006197 4.000000
-0.290288 -0.416793 -0.266864 4.000000
-0.290288 0.086796 0.487654 4.000000
-0.290288 -0.149086 0.446004 4.000000
-0.290288 0.004374 -0.491047 4.000000
-0.290288 0.407777 -0.200021 4.000000
-0.290288 -0.326462 0.361613 4.000000
-0.290288 -0.204145 -0.442999 4.000000
-0.290288 0.452375 -0.025769 4.000000
-0.290288 0.308827 -0.337874 4.000000
-0.290288 0.437652 0.110168 4.000000
-0.290288 -0.282609 -0.380742 4.000000
-0.290288 0.036299 0.494121 4.000000
-0.290288 0.198790 0.420042 4.000000
-0.290288 -0.491089 -0.030288 4.000000
-0.290288 -0.079975 0.479260 4.000000
-0.290288 -0.124513 -0.483173 4.000000
-0.290288 0.239812 0.417401 4.000000
-0.290288 -0.457478 -0.088852 4.000000
-0.290288 0.038228 -0.470471 4.000000
-0.290288 0.097427 -0.483900 4.000000
-0.290288 0.462022 0.002236 4.000000
-0.290288 -0.204938 0.420116 4.000000
-0.290288 -0.016842 0.470361 4.000000
-0.290288 -0.143596 0.440051 4.000000
-0.290288 -0.130504 -0.435988 4.000000
-0.290288 0.411522 -0.178773 4.000000
-0.290288 0.401232 0.193737 4.000000
-0.290288 -0.085628 0.471198 4.000000
-0.290288 -0.122627 -0.443542 4.000000
-0.290288 -0.335475 0.301680 4.000000
-0.290288 0.497047 -0.003999 4.000000
-0.290288 0.266948 0.392406 4.000000
-0.290288 -0.468918 0.042118 4.000000
-0.290288 -0.354068 0.268054 4.000000
-0.290288 0.432138 0.171619 4.000000
-0.290288 0.302919 0.393101 4.000000
-0.290288 0.448731 0.164161 4.000000
-0.290288 0.476142 0.088321 4.000000
-0.290288 0.147560 0.461496 4.000000
-0.290288 0.009797 0.445482 4.000000
-0.290288 0.275977 0.411929 4.000000
-0.290288 -0.474787 0.038599 4.000000
-0.290288 0.453517 0.107220 4.000000
-0.290288 -0.429751 0.153362 4.000000
-0.290288 -0.314478 0.329002 4.000000
-0.290288 -0.271772 0.362026 4.000000
-0.290288 0.140677 -0.470518 4.000000
-0.290288 0.060080 -0.448899 4.000000
-0.290288 -0.461395 0.066074 4.000000
-0.290288 -0.077843 -0.489613 4.000000
-0.290288 -0.156172 -0.445773 4.000000
-0.290288 -0.357110 0.263430 4.000000
-0.290288 0.258447 -0.404186 4.000000
-0.290288 0.052753 0.475268 4.000000
-0.290288 0.466722 -0.156323 4.000000
-0.290288 -0.457794 0.053785 4.000000
-0.290288 0.388759 -0.274609 4.000000
-0.290288 0.478615 -0.041246 4.000000
-0.290288 -0.219032 0.423260 4.000000
-0.290288 0.207732 0.406455 4.000000
-0.290288 0.416069 0.239801 4.000000
-0.290288 -0.246585 -0.390257 4.000000
-0.290288 0.056840 0.486611 4.000000
-0.290288 0.445349 -0.035368 4.000000
-0.290288 0.383817 0.309714 4.000000
-0.290288 0.061746 -0.464958 4.000000
-0.290288 -0.493238 0.053984 4.000000
-0.290288 0.430370 0.248834 4.000000
-0.290288 0.034969 -0.480608 4.000000
-0.290288 -0.453484 -0.166536 4.000000
-0.290288 0.283654 0.373411 4.000000
-0.290288 -0.022725 -0.469891 4.000000
-0.290288 -0.460204 -0.133720 4.000000
-0.290288 -0.475146 0.050216 4.000000
-0.290288 -0.487793 -0.031971 4.000000
-0.290288 -0.185048 -0.426766 4.000000
-0.290288 0.268999 -0.406354 4.000000
-0.290288 -0.221258 0.406107 4.000000
-0.290288 -0.167452 -0.460909 4.000000
-0.290288 -0.159446 -0.427922 4.000000
-0.290288 -0.491805 0.069472 4.000000
-0.290288 -0.446588 -0.172057 4.000000
-0.290288 0.002366 -0.461825 4.000000
-0.290288 0.253261 -0.369603 4.000000
-0.290288 0.489358 -0.069737 4.000000
-0.290288 0.042568 0.445040 4.000000
-0.290288 0.230546 -0.422761 4.000000
-0.290288 0.422034 -0.219641 4.000000
-0.290288 -0.045047 -0.461615 4.000000
-0.290288 0.122552 -0.464071 4.000000
-0.290288 -0.249014 0.409900 4.000000
-0.290288 0.452134 -0.018462 4.000000
-0.290288 0.349210 -0.285947 4.000000
-0.290288 0.248618 0.378291 4.000000
-0.290288 -0.093878 0.474619 4.000000
-0.290288 -0.151397 0.452319 4.000000
-0.290288 -0.312641 0.350819 4.000000
-0.290288 -0.486807 -0.097404 4.000000
-0.290288 -0.199670 -0.443751 4.000000
-0.290288 -0.230890 0.411495 4.000000
-0.290288 0.243421 -0.390436 4.000000
-0.290288 -0.077934 -0.458810 4.000000
-0.290288 -0.358353 0.327440 4.000000
-0.290288 -0.076863 0.453747 4.000000
-0.290288 0.486662 -0.065616 4.000000
-0.290288 0.176201 0.424379 4.000000
-0.290288 -0.408074 -0.274608 4.000000
-0.290288 0.277771 0.399714 4.000000
-0.290288 0.355640 0.296612 4.000000
-0.290288 -0.117212 -0.466349 4.000000
-0.290288 -0.081777 0.450674 4.000000
-0.290288 -0.187149 0.452528 4.000000
-0.290288 0.433201 0.151984 4.000000
-0.290288 -0.142953 -0.478503 4.000000
-0.290288 0.466536 0.026649 4.000000
-0.290288 -0.162156 0.465581 4.000000
-0.290288 -0.464864 0.173384 4.000000
-0.290288 -0.338228 -0.357553 4.000000
-0.290288 -0.405353 -0.186290 4.000000
-0.290288 -0.405238 0.211324 4.000000
-0.290288 0.359322 -0.288668 4.000000
-0.290288 0.486635 -0.018599 4.000000
-0.290288 -0.423006 -0.147332 4.000000
-0.290288 0.411107 -0.270547 4.000000
-0.290288 0.385563 -0.297419 4.000000
-0.290288 0.411389 0.262766 4.000000
-0.290288 -0.010441 0.448449 4.000000
-0.290288 -0.487452 0.006342 4.000000
-0.290288 -0.059770 0.446441 4.000000
-0.290288 -0.123200 -0.429869 4.000000
-0.290288 -0.307180 0.354489 4.000000
-0.290288 0.230981 -0.435549 4.000000
-0.290288 -0.044312 0.445296 4.000000
-0.290288 -0.470089 0.081252 4.000000
-0.290288 0.434552 -0.216336 4.000000
-0.290288 -0.471147 -0.118144 4.000000
-0.290288 0.120108 -0.460947 4.000000
-0.290288 -0.467718 -0.134612 4.000000
-0.290288 -0.181693 -0.463186 4.000000
-0.290288 -0.476995 -0.112460 4.000000
-0.290288 -0.444767 0.147304 4.000000
-0.290288 0.057176 0.459447 4.000000
-0.290288 -0.351007 0.320084 4.000000
-0.290288 0.061099 0.459374 4.000000
-0.290288 0.345504 0.341696 4.000000
-0.290288 -0.453953 0.093061 4.000000
-0.290288 -0.218659 -0.439943 4.000000
-0.290288 -0.350204 -0.315817 4.000000
-0.290288 0.464779 0.147175 4.000000
-0.290288 0.128180 -0.444677 4.000000
-0.290288 0.281487 -0.369369 4.000000
-0.290288 -0.129409 0.440013 4.000000
-0.290288 -0.226012 -0.405033 4.000000
-0.290288 -0.424409 0.217591 4.000000
-0.290288 0.367458 0.250996 4.000000
-0.290288 0.389882 0.299685 4.000000
-0.290288 0.369854 0.254571 4.000000
-0.290288 -0.331413 -0.358555 4.000000
-0.290288 0.385227 -0.255009 4.000000
-0.290288 0.069053 0.445473 4.000000
-0.290288 0.448730 -0.096665 4.000000
-0.290288 0.092229 0.448161 4.000000
-0.290288 0.151759 0.421232 4.000000
-0.290288 -0.465527 0.004458 4.000000
-0.290288 -0.184096 0.449262 4.000000
-0.290288 -0.437742 0.231915 4.000000
-0.290288 -0.265018 -0.362344 4.000000
-0.290288 -0.478128 -0.073815 4.000000
-0.290288 -0.226388 0.431370 4.000000
-0.290288 -0.331480 0.357968 4.000000
-0.290288 0.412954 -0.216648 4.000000
-0.290288 0.354093 -0.294747 4.000000
-0.290288 0.475255 0.000164 4.000000
-0.290288 0.295307 0.394268 4.000000
-0.290288 -0.185616 0.420850 4.000000
-0.290288 0.074194 0.485185 4.000000
-0.290288 0.472288 0.101270 4.000000
-0.290288 0.458685 -0.184617 4.000000
-0.290288 0.409119 -0.250972 4.000000
-0.290288 -0.350197 -0.291714 4.000000
-0.290288 -0.230918 -0.431921 4.000000
-0.290288 -0.383239 0.301105 4.000000
-0.290288 -0.198321 0.436283 4.000000
-0.290288 0.443286 -0.108060 4.000000
-0.290288 0.429840 0.166250 4.000000
-0.290288 0.412754 0.225827 4.000000
-0.290288 -0.446977 0.205705 4.000000
-0.290288 -0.317923 0.331127 4.000000
-0.290288 -0.477788 -0.083411 4.000000
-0.290288 -0.468997 0.084810 4.000000
-0.290288 -0.259237 -0.414291 4.000000
-0.290288 0.116517 0.477919 4.000000
-0.290288 0.276374 -0.368450 4.000000
-0.290288 0.340723 -0.349691 4.000000
-0.290288 0.453886 -0.155701 4.000000
-0.290288 0.282447 0.344818 4.000000
-0.290288 -0.409717 0.181020 4.000000
-0.290288 0.358544 -0.304126 4.000000
-0.290288 -0.010408 -0.496339 4.000000
-0.290288 0.268066 0.413076 4.000000
-0.290288 -0.167528 -0.443185 4.000000
-0.290288 -0.431483 0.138357 4.000000
-0.290288 -0.130517 -0.442152 4.000000
-0.290288 -0.132507 0.470126 4.000000
-0.290288 0.129056 0.467211 4.000000
-0.290288 0.063935 0.485920 4.000000
-0.290288 -0.095112 -0.476616 4.000000
-0.290288 -0.362892 -0.305468 4.000000
-0.290288 0.333084 -0.359215 4.000000
-0.290288 -0.115274 -0.470994 4.000000
-0.290288 0.286372 -0.375605 4.000000
-0.290288 -0.153225 -0.451663 4.000000
-0.290288 -0.077446 0.470616 4.000000
-0.290288 -0.475012 -0.105082 4.000000
-0.290288 -0.403068 -0.211244 4.000000
-0.290288 0.233043 -0.426573 4.000000
-0.290288 0.335049 0.353838 4.000000
-0.290288 -0.456914 -0.198262 4.000000
-0.290288 -0.487163 0.079401 4.000000
-0.290288 -0.355566 0.296058 4.000000
-0.290288 -0.022475 0.481480 4.000000
-0.290288 -0.004477 -0.455388 4.000000
-0.290288 -0.246336 -0.375963 4.000000
-0.290288 -0.321465 -0.368789 4.000000
-0.290288 -0.412847 0.199771 4.000000
-0.290288 0.162315 -0.451053 4.000000
-0.290288 -0.445178 0.202400 4.000000
-0.290288 0.290736 0.383771 4.000000
-0.290288 -0.385918 -0.296500 4.000000
-0.290288 -0.289913 0.379810 4.000000
-0.290288 -0.448425 -0.089220 4.000000
-0.290288 0.410420 -0.211305 4.000000
-0.290288 -0.455734 0.098747 4.000000
-0.290288 0.276351 -0.373056 4.000000
-0.290288 -0.432852 -0.230775 4.000000
-0.290288 -0.002723 -0.491706 4.000000
-0.290288 -0.113873 -0.445360 4.000000
-0.290288 0.344591 0.327711 4.000000
-0.290288 0.386211 0.251680 4.000000
-0.290288 0.438878 0.102115 4.000000
-0.290288 -0.388703 0.229008 4.000000
-0.290288 0.403300 -0.277594 4.000000
-0.290288 0.116810 -0.474881 4.000000
-0.290288 -0.401950 0.225078 4.000000
-0.290288 0.054206 0.441225 4.000000
-0.290288 0.486402 -0.071846 4.000000
-0.290288 0.124108 -0.472086 4.000000
-0.290288 -0.084602 0.482232 4.000000
-0.290288 0.338621 0.358547 4.000000
-0.290288 0.485273 -0.000886 4.000000
-0.290288 0.417833 0.268127 4.000000
-0.290288 -0.406140 -0.191378 4.000000
-0.290288 0.216763 -0.420964 4.000000
-0.290288 0.213931 0.428574 4.000000
-0.290288 -0.436441 0.147419 4.000000
-0.290288 -0.272656 -0.359024 4.000000
-0.290288 0.455829 -0.178872 4.000000
-0.290288 0.158545 0.456081 4.000000
-0.290288 0.436719 -0.097118 4.000000
-0.290288 0.329964 -0.336151 4.000000
-0.290288 -0.257734 0.383184 4.000000
-0.290288 -0.479314 -0.068625 4.000000
-0.290288 0.392316 0.259417 4.000000
-0.290288 0.348104 0.291265 4.000000
-0.290288 0.040927 -0.448865 4.000000
-0.290288 0.347147 -0.353849 4.000000
-0.290288 -0.274764 -0.396639 4.000000
-0.290288 -0.456407 0.012590 4.000000
-0.290288 -0.405206 -0.290751 4.000000
-0.290288 -0.262383 0.366689 4.000000
-0.290288 0.229675 0.395251 4.000000
-0.290288 -0.167783 0.445927 4.000000
-0.290288 -0.124888 0.462755 4.000000
-0.290288 -0.122452 0.472492 4.000000
-0.290288 -0.382684 -0.230803 4.000000
-0.290288 0.186900 0.454701 4.000000
-0.290288 -0.318261 -0.364503 4.000000
-0.290288 -0.418019 0.236378 4.000000
-0.290288 0.068697 0.481830 4.000000
-0.290288 0.393125 -0.229385 4.000000
-0.290288 0.206310 -0.412024 4.000000
-0.290288 -0.284730 -0.405523 4.000000
-0.290288 -0.245973 0.411918 4.000000
-0.290288 0.045329 0.489857 4.000000
-0.290288 -0.424926 0.225917 4.000000
-0.290288 -0.460296 -0.156839 4.000000
-0.290288 -0.329068 0.322135 4.000000
-0.290288 0.181019 0.411155 4.000000
-0.290288 -0.418496 -0.155087 4.000000
-0.290288 0.363455 -0.268150 4.000000
-0.290288 -0.175315 0.426242 4.000000
-0.290288 0.060886 -0.458051 4.000000
-0.290288 -0.205634 0.404392 4.000000
-0.290288 0.296564 -0.357742 4.000000
-0.290288 0.208997 0.440565 4.000000
-0.290288 0.062825 0.462937 4.000000
-0.290288 0.420083 0.179061 4.000000
-0.290288 -0.349814 -0.282479 4.000000
-0.290288 -0.421519 0.226030 4.000000
-0.290288 0.467816 -0.102494 4.000000
-0.290288 -0.341334 0.343515 4.000000
-0.290288 -0.276320 -0.387232 4.000000
-0.290288 0.098641 0.482591 4.000000
-0.290288 -0.039626 -0.458191 4.000000
-0.290288 -0.006354 -0.448796 4.000000
-0.290288 -0.001958 0.484469 4.000000
-0.290288 0.484405 -0.105220 4.000000
-0.290288 0.479802 -0.137218 4.000000
-0.290288 -0.294389 0.337023 4.000000
-0.290288 0.364446 0.255806 4.000000
-0.290288 0.269378 0.373729 4.000000
-0.290288 -0.009581 0.479707 4.000000
-0.290288 0.302182 -0.339851 4.000000
-0.290288 0.227662 -0.403681 4.000000
-0.290288 -0.023938 -0.463127 4.000000
-0.290288 0.418649 -0.247514 4.000000
-0.290288 0.404787 0.195031 4.000000
-0.290288 -0.289996 0.365949 4.000000
-0.290288 -0.441807 -0.210362 4.000000
-0.290288 -0.100182 -0.482773 4.000000
-0.290288 0.047523 0.464159 4.000000
-0.290288 -0.059012 0.466211 4.000000
-0.290288 -0.124792 -0.453696 4.000000
-0.290288 0.266241 0.375815 4.000000
-0.290288 0.470798 -0.024081 4.000000
-0.290288 -0.286165 0.400617 4.000000
-0.290288 0.211351 -0.408707 4.000000
-0.290288 -0.301594 -0.383249 4.000000
-0.290288 -0.266032 -0.383266 4.000000
-0.290288 -0.474799 0.026627 4.000000
-0.290288 0.454034 -0.011802 4.000000
-0.290288 0.449265 -0.089241 4.000000
-0.290288 0.440615 0.229762 4.000000
-0.290288 0.115315 -0.439681 4.000000
-0.290288 0.056856 0.492322 4.000000
-0.290288 -0.442979 -0.125882 4.000000
-0.290288 0.408779 -0.180172 4.000000
-0.290288 0.419904 0.156253 4.000000
-0.290288 0.089330 -0.459016 4.000000
-0.290288 -0.476448 0.053958 4.000000
