-0.113969 -0.399695 0.294409 2.000000
-0.249851 -0.459657 -0.192410 2.000000
-0.095129 0.010712 0.495805 2.000000
-0.143583 0.460364 0.188819 2.000000
0.285105 -0.272435 0.414290 1.000000
-0.080705 -0.486231 -0.107210 2.000000
-0.098585 -0.251150 -0.431928 2.000000
-0.081778 -0.429151 0.249630 2.000000
0.159729 0.460290 0.188995 2.000000
-0.034843 0.013163 -0.499968 2.000000
0.214077 -0.108262 -0.488133 2.000000
-0.137502 0.420117 -0.270483 2.000000
-0.140098 0.438188 -0.239709 2.000000
0.286182 0.082843 -0.493388 1.000000
-0.164097 -0.015386 0.495556 2.000000
-0.009145 0.235841 -0.441228 2.000000
-0.249559 0.080696 -0.493698 2.000000
-0.165501 0.091553 -0.491852 2.000000
0.063125 -0.351216 0.350338 2.000000
0.090422 0.435864 0.239603 2.000000
0.003657 0.197129 -0.459685 2.000000
-0.146739 0.073636 0.490498 2.000000
0.253632 0.498240 0.013978 2.000000
0.173689 0.498139 0.019572 2.000000
0.031258 -0.131152 -0.482604 2.000000
0.015159 -0.350488 0.351047 2.000000
-0.087977 -0.484267 -0.116586 2.000000
0.059905 -0.248648 0.428943 2.000000
0.144685 0.287580 -0.409322 2.000000
-0.267842 -0.493801 0.058188 2.000000
-0.065861 0.498492 0.000023 2.000000
0.031279 -0.483151 0.116245 2.000000
0.082216 -0.485055 0.108234 2.000000
0.202445 0.475201 -0.152650 2.000000
0.219912 -0.301725 0.393555 2.000000
-0.107846 -0.157205 0.470149 2.000000
-0.234167 0.136508 -0.481197 2.000000
-0.185714 -0.497622 0.004601 2.000000
-0.074048 -0.328549 -0.375955 2.000000
0.261724 -0.057195 0.492597 2.000000
0.103660 0.268642 0.417535 2.000000
-0.006116 0.287979 0.404409 2.000000
-0.187402 -0.459692 -0.192326 2.000000
-0.284636 -0.180034 0.462031 4.000000
0.047800 0.067983 0.491369 2.000000
0.158408 0.366786 0.335420 2.000000
0.033042 -0.333274 -0.371675 2.000000
0.037146 -0.050824 0.493234 2.000000
0.013576 -0.333978 0.366931 2.000000
0.160633 0.377932 0.322627 2.000000
0.029693 -0.466870 0.169602 2.000000
-0.071372 0.185020 -0.464733 2.000000
-0.225914 -0.203318 -0.456484 2.000000
0.029713 0.034003 -0.499033 2.000000
-0.148299 0.498160 -0.019820 2.000000
-0.054150 0.233798 -0.442332 2.000000
-0.026624 0.392080 -0.309797 2.000000
0.074608 -0.085878 -0.492567 2.000000
0.087797 -0.254872 0.425374 2.000000
0.094885 0.096442 0.486571 2.000000
0.077376 0.019173 0.495425 2.000000
0.202930 -0.435252 -0.243237 2.000000
-0.240175 0.379041 -0.325993 2.000000
0.271497 -0.337557 -0.367796 2.000000
0.016664 -0.493145 -0.067598 2.000000
-0.034216 0.140301 0.475772 2.000000
0.208444 0.090666 0.487566 2.000000
0.052678 0.360608 0.341765 2.000000
0.138229 -0.279613 0.409552 2.000000
-0.171322 -0.330159 -0.374497 2.000000
-0.194387 0.482430 -0.127944 2.000000
-0.032187 -0.370489 -0.334460 2.000000
0.098123 0.384026 0.315525 2.000000
0.119338 0.498283 0.011586 2.000000
-0.173923 -0.473592 -0.154738 2.000000
-0.174386 -0.457479 0.193446 2.000000
-0.176263 -0.395559 0.299795 2.000000
0.286194 0.210674 0.449290 1.000000
-0.200034 -0.160312 -0.473669 2.000000
-0.278215 0.225818 0.441936 2.000000
-0.109817 0.124909 -0.484399 2.000000
-0.232667 0.186771 0.459772 2.000000
-0.224298 0.276037 0.412761 2.000000
0.136579 -0.459423 0.189113 2.000000
-0.275146 0.025108 -0.499752 2.000000
-0.113720 0.197793 -0.459408 2.000000
-0.239775 -0.347911 -0.358108 2.000000
0.074843 -0.411849 -0.281343 2.000000
0.059685 0.436008 -0.243849 2.000000
-0.162005 -0.481218 -0.128356 2.000000
-0.085147 0.097377 0.486410 2.000000
-0.077595 0.497574 -0.032872 2.000000
0.035632 -0.370916 -0.333962 2.000000
-0.204994 0.027693 -0.499544 2.000000
-0.004704 0.172711 -0.469507 2.000000
-0.149930 0.294181 -0.404373 2.000000
-0.094541 0.414256 0.274895 2.000000
0.218733 -0.471060 0.158435 2.000000
-0.080183 -0.490705 -0.084463 2.000000
0.047708 -0.481128 -0.128683 2.000000
0.205799 -0.076193 0.489848 2.000000
0.074586 0.210774 0.449245 2.000000
-0.185054 0.495385 0.054847 2.000000
-0.282711 -0.209407 -0.453752 4.000000
0.228236 0.022135 -0.499806 2.000000
-0.071748 0.291608 -0.406314 2.000000
-0.115676 0.447095 0.218065 2.000000
-0.186732 0.405184 0.288210 2.000000
-0.284557 0.206526 0.451151 4.000000
0.042797 -0.358685 0.342984 2.000000
-0.280655 -0.125605 0.479571 2.000000
0.138509 0.040730 0.494314 2.000000
0.219194 -0.205285 -0.455602 2.000000
-0.288629 -0.497545 -0.000020 4.000000
0.194362 0.359871 0.342522 2.000000
-0.154073 -0.496310 -0.036084 2.000000
0.208192 0.120628 0.481084 2.000000
-0.283180 0.426966 0.255121 4.000000
-0.210078 -0.152170 -0.476191 2.000000
0.066587 0.307938 -0.393994 2.000000
-0.155407 -0.389719 0.307119 2.000000
0.262878 0.496620 0.040561 2.000000
-0.185356 -0.316539 0.381895 2.000000
0.129578 0.314903 0.383993 2.000000
0.011656 0.013339 -0.499965 2.000000
-0.148507 0.479183 -0.139599 2.000000
-0.018883 0.479064 0.135519 2.000000
0.258408 0.243162 0.432805 2.000000
-0.268887 -0.026936 -0.499384 2.000000
0.201581 -0.390716 0.305869 2.000000
0.188668 -0.485531 0.106230 2.000000
-0.111504 -0.417339 -0.273027 2.000000
0.261957 0.014837 0.495619 2.000000
-0.063183 -0.416159 0.270869 2.000000
-0.006526 -0.496578 0.027890 2.000000
-0.057163 -0.496103 -0.038641 2.000000
0.031405 0.407852 -0.288565 2.000000
-0.155158 -0.497194 0.014153 2.000000
-0.149307 -0.472027 -0.159275 2.000000
-0.105644 0.213688 -0.452241 2.000000
-0.109298 0.098962 0.486138 2.000000
0.168688 0.184077 0.460783 2.000000
0.215413 0.473851 -0.157073 2.000000
-0.265073 0.041455 -0.498429 2.000000
0.012536 0.364980 -0.341518 2.000000
-0.174983 0.471967 -0.163101 2.000000
-0.139636 0.095323 -0.491062 2.000000
-0.253271 0.259080 0.423365 2.000000
0.000287 -0.458790 -0.194490 2.000000
0.222234 -0.464479 -0.180844 2.000000
-0.212960 0.491424 -0.085538 2.000000
-0.060504 -0.237009 -0.439858 2.000000
-0.271117 0.137639 0.476584 2.000000
-0.002620 0.384994 -0.318684 2.000000
0.115038 -0.484678 -0.114626 2.000000
0.242905 0.188545 0.459106 2.000000
0.022979 0.143167 0.474897 2.000000
0.046760 0.491583 -0.084617 2.000000
0.013791 0.268748 -0.421755 2.000000
0.190193 0.206609 0.451114 2.000000
-0.265949 -0.497304 -0.013401 2.000000
0.166390 0.235114 -0.441645 2.000000
0.105892 -0.485723 -0.109633 2.000000
-0.204498 0.493176 -0.075363 2.000000
0.228804 0.176283 0.463707 2.000000
-0.099681 0.467133 -0.175983 2.000000
0.244583 0.367920 0.334254 2.000000
0.162023 -0.312526 0.385339 2.000000
0.204088 0.135071 -0.481594 2.000000
-0.093129 0.311332 0.386840 2.000000
-0.234944 -0.441146 -0.232412 2.000000
-0.088856 -0.190089 0.457839 2.000000
-0.199962 0.435572 0.240113 2.000000
-0.182969 0.493451 0.068216 2.000000
-0.008969 0.419902 0.266343 2.000000
-0.136900 -0.268628 -0.421273 2.000000
0.215801 0.263404 0.420729 2.000000
0.004281 0.429402 0.250873 2.000000
0.206072 0.476185 0.145838 2.000000
0.070000 0.366622 0.335588 2.000000
-0.050104 0.410927 -0.284169 2.000000
0.215158 0.272722 0.415048 2.000000
0.171036 -0.390534 0.306097 2.000000
-0.192542 0.371365 -0.334468 2.000000
0.262704 0.145000 0.474338 2.000000
-0.133456 0.206889 -0.455592 2.000000
-0.102606 -0.185497 0.459754 2.000000
0.145502 -0.441699 -0.231290 2.000000
0.286497 0.402996 0.291111 1.000000
0.001779 -0.467726 0.167320 2.000000
0.258591 0.035500 0.494693 2.000000
-0.060905 0.438011 -0.240046 2.000000
-0.032617 -0.257191 0.424044 2.000000
0.019145 0.498431 0.003386 2.000000
0.077305 -0.482413 0.119351 2.000000
0.062208 -0.487282 -0.102194 2.000000
-0.183591 0.464824 0.178121 2.000000
-0.071047 -0.495091 -0.051137 2.000000
0.278330 -0.491280 0.076073 1.000000
-0.118868 -0.293104 0.400059 2.000000
0.200482 0.498307 0.010270 2.000000
-0.180597 0.498347 -0.015653 2.000000
0.215904 0.401168 -0.298123 2.000000
0.040996 0.194743 -0.460680 2.000000
0.009850 0.391779 -0.310174 2.000000
0.283163 -0.128887 -0.483231 1.000000
-0.190146 0.347409 0.355323 2.000000
0.158171 -0.442159 -0.230356 2.000000
-0.080182 -0.460183 -0.191149 2.000000
0.140293 -0.432121 0.244758 2.000000
-0.040930 0.498302 0.010523 2.000000
-0.005773 0.342118 -0.364546 2.000000
-0.048566 -0.031430 -0.499183 2.000000
0.273431 0.278303 -0.415446 2.000000
0.095710 -0.495154 -0.050354 2.000000
0.035328 -0.421645 0.261942 2.000000
0.031361 0.487080 0.103695 2.000000
-0.046122 0.491687 -0.084010 2.000000
0.237336 0.440018 -0.236233 2.000000
-0.230171 -0.354257 -0.351590 2.000000
-0.161504 -0.315505 0.382782 2.000000
0.169675 0.064586 -0.496029 2.000000
0.124516 -0.494336 0.053239 2.000000
0.286541 -0.248987 0.428749 1.000000
-0.107976 -0.224101 -0.446654 2.000000
-0.065040 -0.488545 0.091958 2.000000
0.180936 0.458993 -0.196707 2.000000
-0.003231 0.016396 0.495550 2.000000
-0.076239 -0.052123 -0.497326 2.000000
-0.252184 -0.269520 -0.420729 2.000000
-0.174924 0.341178 0.361092 2.000000
-0.148645 0.153021 -0.476299 2.000000
-0.166917 0.209065 -0.454519 2.000000
-0.289297 0.330084 0.371140 4.000000
0.050700 -0.458577 -0.195001 2.000000
-0.141257 -0.394389 -0.305514 2.000000
0.259862 -0.227745 -0.444736 2.000000
0.255990 -0.344525 0.356853 2.000000
0.273296 0.347283 0.355452 2.000000
0.101672 -0.220366 -0.448621 2.000000
-0.126182 0.342902 0.359530 2.000000
0.105206 -0.357065 0.344644 2.000000
0.084421 -0.063133 0.491738 2.000000
-0.241889 -0.021102 0.495453 2.000000
0.260676 -0.416689 -0.274011 2.000000
0.137954 0.396445 0.299794 2.000000
0.244034 -0.314725 0.383451 2.000000
0.129428 -0.490472 -0.086073 2.000000
-0.100000 -0.238693 -0.438972 2.000000
0.107679 0.249663 -0.433302 2.000000
0.006358 0.481479 -0.131944 2.000000
-0.119920 -0.497354 0.010587 2.000000
0.017680 -0.494931 -0.053110 2.000000
-0.136326 0.330169 -0.375432 2.000000
-0.062141 0.419233 -0.271932 2.000000
-0.086644 0.463892 -0.184620 2.000000
0.042207 -0.252623 0.426664 2.000000
0.227416 0.471876 0.158331 2.000000
-0.134046 0.464279 -0.183591 2.000000
-0.254232 0.349785 -0.357083 2.000000
0.007531 0.218397 -0.449921 2.000000
-0.124969 0.305632 -0.395734 2.000000
0.015590 0.434395 0.242165 2.000000
0.258398 -0.007272 0.495702 2.000000
0.185728 0.433773 0.243251 2.000000
0.204302 -0.239191 0.434366 2.000000
-0.072972 -0.497482 -0.003533 2.000000
-0.211904 0.152484 0.472055 2.000000
-0.290020 0.285769 0.405955 4.000000
0.026015 0.447263 -0.222474 2.000000
0.229778 0.481278 -0.132734 2.000000
-0.009757 -0.072097 0.490441 2.000000
-0.277088 0.470799 -0.166215 2.000000
0.073041 -0.307645 -0.393316 2.000000
0.254129 0.366558 -0.339775 2.000000
-0.179483 0.180696 -0.466536 2.000000
0.146918 0.067789 0.491390 2.000000
0.260710 0.035861 -0.498882 2.000000
-0.266980 0.489537 0.091967 2.000000
0.250880 -0.164815 -0.471979 2.000000
-0.019189 -0.443488 -0.227658 2.000000
-0.025430 -0.086434 0.488356 2.000000
0.088550 0.318418 0.381190 2.000000
-0.242358 -0.103495 -0.489265 2.000000
0.085535 0.386899 -0.316295 2.000000
0.044530 -0.069502 0.490816 2.000000
-0.086433 0.496219 -0.049650 2.000000
-0.234576 -0.321997 -0.381872 2.000000
-0.213148 -0.368259 0.332412 2.000000
-0.188098 0.485372 -0.115562 2.000000
-0.043582 0.497462 -0.035370 2.000000
-0.286688 -0.144920 -0.478403 4.000000
0.020929 -0.371926 -0.332785 2.000000
-0.048675 0.487286 -0.107509 2.000000
0.249964 -0.065794 0.491353 2.000000
0.077186 0.120182 -0.485704 2.000000
-0.017153 -0.327454 -0.376947 2.000000
0.080151 -0.496447 0.030815 2.000000
-0.155584 0.286638 -0.409944 2.000000
-0.222455 0.362221 0.340108 2.000000
0.185428 0.190688 -0.462370 2.000000
0.245548 0.482352 -0.128273 2.000000
0.253265 -0.177018 -0.467400 2.000000
-0.116601 0.233447 -0.442505 2.000000
-0.088984 -0.083101 0.488849 2.000000
0.088745 0.115869 -0.486758 2.000000
0.207404 -0.051218 0.493202 2.000000
0.160528 0.030571 -0.499311 2.000000
-0.184828 -0.141172 -0.479547 2.000000
0.022582 -0.191628 -0.461730 2.000000
0.266010 -0.404430 0.287639 2.000000
0.103403 -0.496610 0.027182 2.000000
-0.227478 0.388176 -0.314692 2.000000
0.261775 0.075944 0.490100 2.000000
0.250247 0.077616 0.489813 2.000000
-0.271003 -0.294076 -0.403781 2.000000
-0.089112 -0.227405 0.440624 2.000000
0.249965 -0.413110 -0.279433 2.000000
-0.051094 0.314271 0.384496 2.000000
-0.180359 -0.063284 -0.496120 2.000000
0.164922 -0.240696 -0.437917 2.000000
-0.209347 -0.251377 -0.431790 2.000000
0.202742 0.335773 0.365987 2.000000
-0.190341 -0.389226 0.307737 2.000000
-0.173299 -0.274316 -0.417601 2.000000
0.072644 0.421168 0.264427 2.000000
-0.038376 0.164357 0.468182 2.000000
0.107037 0.432065 0.246230 2.000000
-0.290256 0.064541 0.491741 4.000000
-0.246042 0.302957 0.393518 2.000000
0.161557 0.384059 -0.319856 2.000000
0.028776 -0.271905 -0.419275 2.000000
-0.004360 0.180284 0.462206 2.000000
-0.119817 -0.166307 0.467010 2.000000
-0.188852 0.000237 -0.500201 2.000000
-0.079622 0.154854 -0.475667 2.000000
0.046769 0.492195 0.076897 2.000000
0.197240 -0.364380 -0.341192 2.000000
-0.248494 0.134852 0.477434 2.000000
0.159371 -0.144016 -0.478679 2.000000
-0.101365 0.305694 0.391336 2.000000
0.209405 -0.369454 -0.335667 2.000000
0.260406 0.478943 -0.140385 2.000000
-0.065641 0.497438 -0.035916 2.000000
-0.140483 -0.255160 -0.429483 2.000000
0.012425 0.088659 0.487911 2.000000
0.231024 0.331100 -0.374633 2.000000
0.019886 0.470227 0.163111 2.000000
-0.175050 -0.439199 -0.236354 2.000000
-0.192418 -0.466541 0.170477 2.000000
0.070852 -0.479840 0.129733 2.000000
0.170111 0.039484 -0.498589 2.000000
-0.180954 0.314573 0.384255 2.000000
-0.240245 0.440076 -0.236124 2.000000
0.156565 0.229305 -0.444546 2.000000
-0.022923 0.393539 0.303647 2.000000
0.207288 0.498464 0.001541 2.000000
0.020900 0.498006 -0.023254 2.000000
0.219378 0.440387 -0.235533 2.000000
-0.151274 0.234898 -0.441769 2.000000
0.048977 -0.164608 -0.472057 2.000000
-0.225426 0.495947 0.048863 2.000000
0.078035 0.485216 -0.116220 2.000000
0.057798 -0.490165 -0.088194 2.000000
-0.243523 0.479434 -0.138775 2.000000
-0.062089 0.489433 0.092467 2.000000
-0.230902 0.108121 0.484056 2.000000
0.080084 0.330060 0.371161 2.000000
-0.271024 -0.491948 -0.075871 2.000000
-0.188958 0.152027 0.472194 2.000000
-0.163334 0.458099 0.194251 2.000000
-0.269148 0.134915 -0.481637 2.000000
-0.160606 0.449695 0.212788 2.000000
-0.196252 0.487008 0.104040 2.000000
-0.014303 -0.449004 -0.216465 2.000000
-0.139214 0.396019 0.300359 2.000000
0.034208 0.319821 -0.384311 2.000000
-0.021047 0.081702 -0.493553 2.000000
0.211217 0.383459 -0.320608 2.000000
-0.207613 0.275830 -0.417079 2.000000
-0.233939 0.492880 0.072161 2.000000
-0.183076 0.451976 0.208159 2.000000
-0.135657 0.486929 -0.109013 2.000000
0.176856 -0.465816 -0.177282 2.000000
0.259081 0.490856 -0.088841 2.000000
0.201165 0.439875 0.232609 2.000000
-0.159160 -0.027069 0.495158 2.000000
-0.112574 0.497543 -0.033579 2.000000
-0.070612 -0.247601 0.429544 2.000000
-0.217180 -0.091862 0.487219 2.000000
-0.035266 0.273653 -0.418516 2.000000
-0.229962 0.326182 -0.378853 2.000000
-0.215984 0.100253 -0.490029 2.000000
0.280619 -0.380089 -0.323272 1.000000
-0.161031 0.403286 0.290727 2.000000
-0.066566 0.200063 -0.458462 2.000000
0.154711 -0.093456 -0.491263 2.000000
0.242080 0.384077 0.315465 2.000000
0.185177 0.493616 0.067076 2.000000
-0.180410 -0.449056 0.212215 2.000000
-0.251732 0.336010 0.365772 2.000000
0.113303 0.409064 -0.286832 2.000000
-0.171725 -0.005009 0.495743 2.000000
0.050400 0.495618 0.052928 2.000000
0.092492 0.304886 0.391979 2.000000
0.170625 -0.250342 0.427972 2.000000
0.234311 0.374232 0.326939 2.000000
-0.133175 0.487548 0.101464 2.000000
-0.181147 -0.013183 -0.500001 2.000000
0.265182 0.375965 0.324919 2.000000
0.131664 0.440641 0.231162 2.000000
0.181796 -0.353001 0.348601 2.000000
0.226636 0.152669 0.471998 2.000000
-0.189383 0.254010 -0.430809 2.000000
-0.011318 0.357330 0.345133 2.000000
-0.247961 -0.313084 0.384859 2.000000
-0.052743 -0.058381 -0.496650 2.000000
0.119105 -0.107345 -0.488351 2.000000
-0.289702 -0.106508 -0.488550 4.000000
-0.086559 0.492261 -0.080680 2.000000
0.008765 0.496402 -0.047957 2.000000
-0.259971 -0.492795 -0.070016 2.000000
0.060766 0.239424 0.434773 2.000000
0.128975 0.127700 0.479404 2.000000
0.095222 -0.462127 0.182241 2.000000
0.079211 0.304458 -0.396620 2.000000
-0.110453 -0.462949 -0.184514 2.000000
-0.095403 -0.297203 -0.401594 2.000000
0.067824 0.494439 0.061380 2.000000
0.019156 0.491602 -0.084506 2.000000
0.193376 -0.497022 0.017977 2.000000
-0.089571 0.445208 0.221895 2.000000
-0.186687 0.474484 0.150771 2.000000
0.264789 0.370084 -0.335883 2.000000
0.253770 -0.153974 0.471264 2.000000
-0.024465 0.081835 0.489086 2.000000
0.107424 0.269893 -0.420998 2.000000
0.121370 -0.427755 -0.256312 2.000000
0.039495 -0.002818 -0.500256 2.000000
-0.005242 0.379234 0.321110 2.000000
-0.284227 -0.218264 0.445128 4.000000
-0.226854 0.396666 0.299501 2.000000
0.146547 -0.187954 -0.463297 2.000000
0.280730 0.257550 -0.428780 1.000000
-0.261188 0.314968 0.383940 2.000000
-0.047122 -0.151566 -0.476376 2.000000
-0.198778 0.392161 0.305472 2.000000
0.210195 0.466862 0.172865 2.000000
-0.065175 -0.275204 0.412462 2.000000
0.170381 0.093374 0.487100 2.000000
0.206530 -0.333538 0.367308 2.000000
0.175285 0.497333 0.031752 2.000000
-0.286677 -0.488683 0.091154 4.000000
0.054302 0.489879 -0.094514 2.000000
-0.145525 0.286298 0.405584 2.000000
-0.173304 0.124484 -0.484516 2.000000
0.118240 0.256348 0.425030 2.000000
0.103032 0.227077 -0.445644 2.000000
0.007142 -0.439580 -0.235589 2.000000
0.285499 -0.476236 0.141545 1.000000
0.159630 -0.494077 -0.061156 2.000000
-0.272181 0.211416 -0.453361 2.000000
0.120185 0.333570 -0.372514 2.000000
-0.088779 -0.317280 -0.385633 2.000000
-0.289734 0.464859 -0.182045 4.000000
-0.275699 -0.035156 -0.499016 2.000000
0.143939 -0.495247 -0.049206 2.000000
0.155485 -0.278258 0.410446 2.000000
0.096966 -0.002392 -0.500248 2.000000
0.155181 0.301945 -0.398516 2.000000
0.089588 0.498304 0.010463 2.000000
-0.005262 -0.049250 -0.497636 2.000000
0.043530 -0.467674 -0.171895 2.000000
0.079385 -0.175401 0.463873 2.000000
0.203450 -0.311524 -0.390223 2.000000
0.097806 -0.195850 -0.459836 2.000000
0.282435 0.168268 0.466715 1.000000
-0.101065 -0.303317 0.392354 2.000000
-0.240751 -0.350839 0.350706 2.000000
-0.245920 0.186697 -0.464034 2.000000
-0.117062 0.322314 -0.382172 2.000000
-0.003003 -0.456091 0.196538 2.000000
-0.059661 -0.233814 0.437449 2.000000
-0.209175 -0.129875 -0.482994 2.000000
0.059467 0.002882 -0.500153 2.000000
-0.245486 -0.278698 -0.414536 2.000000
0.211473 0.054170 0.492862 2.000000
-0.085418 0.441032 -0.234308 2.000000
-0.264912 0.147517 -0.478158 2.000000
0.018906 0.491294 0.083124 2.000000
-0.105725 -0.436775 0.236093 2.000000
0.190406 -0.353644 -0.352219 2.000000
0.211593 0.436290 0.238861 2.000000
0.257764 -0.458956 -0.194092 2.000000
0.042774 -0.122522 -0.484744 2.000000
-0.244606 0.249124 -0.433611 2.000000
0.235646 0.451952 -0.212400 2.000000
0.037838 -0.427740 0.251945 2.000000
0.049512 0.493942 0.064821 2.000000
-0.055781 -0.112935 0.482804 2.000000
-0.031324 -0.343251 0.358093 2.000000
-0.273207 -0.461087 0.185013 2.000000
0.077288 -0.280020 0.409283 2.000000
0.017168 0.316803 0.382478 2.000000
-0.265321 0.389088 -0.313549 2.000000
-0.280210 -0.478021 0.135696 4.000000
-0.070752 -0.217613 -0.450070 2.000000
-0.162625 -0.168216 0.466351 2.000000
0.056873 0.205940 0.451414 2.000000
-0.131154 -0.452932 0.203578 2.000000
-0.211571 0.063063 0.491901 2.000000
0.210033 0.428859 -0.256143 2.000000
0.266224 0.271106 -0.420198 2.000000
0.061898 -0.409221 -0.285324 2.000000
0.104203 0.414394 0.274687 2.000000
0.081780 -0.459749 -0.192188 2.000000
0.083867 -0.134191 0.477201 2.000000
-0.251228 -0.350299 0.351231 2.000000
0.216229 0.027053 -0.499596 2.000000
-0.006681 -0.117306 0.481862 2.000000
-0.253902 0.229582 -0.444409 2.000000
-0.079814 -0.477148 -0.143098 2.000000
0.144619 0.142674 0.475048 2.000000
0.113893 0.436460 -0.242991 2.000000
0.035444 -0.493803 0.058172 2.000000
-0.042494 0.116424 0.482083 2.000000
-0.010284 0.067873 -0.495554 2.000000
0.046739 0.475917 0.146615 2.000000
-0.165013 -0.478917 0.132757 2.000000
-0.202593 0.165810 0.467637 2.000000
-0.059121 -0.489052 -0.093745 2.000000
0.138068 -0.076107 0.489861 2.000000
0.102105 0.496740 -0.044833 2.000000
0.028540 0.456068 0.199123 2.000000
-0.190523 -0.125396 0.479628 2.000000
-0.218870 0.030603 -0.499308 2.000000
-0.174671 0.210694 0.449281 2.000000
0.195837 0.160620 0.469572 2.000000
0.091098 -0.488874 -0.094594 2.000000
-0.068641 -0.182281 0.461095 2.000000
0.131531 0.293962 0.400224 2.000000
0.025379 0.377903 -0.327250 2.000000
-0.155585 0.367459 0.334728 2.000000
0.127095 -0.497404 0.009465 2.000000
-0.127654 0.359435 0.342970 2.000000
0.258863 -0.363789 -0.341799 2.000000
0.091830 0.429428 0.250828 2.000000
0.173829 -0.326009 0.373769 2.000000
0.068448 -0.271129 0.415153 2.000000
-0.148490 -0.176161 -0.467722 2.000000
-0.237134 -0.177944 -0.467053 2.000000
0.147294 0.449085 0.214026 2.000000
0.074165 0.443964 0.224419 2.000000
-0.081446 -0.131218 -0.482584 2.000000
0.187231 0.194603 0.456502 2.000000
0.147513 0.494556 -0.065039 2.000000
-0.079303 -0.497487 0.007623 2.000000
-0.052008 -0.128211 0.478851 2.000000
-0.275382 0.313156 0.385386 2.000000
0.042843 -0.215985 -0.450800 2.000000
-0.081737 0.332190 0.369232 2.000000
-0.178176 -0.356672 -0.349109 2.000000
0.049502 0.151108 0.472474 2.000000
-0.253376 0.107518 0.484199 2.000000
0.147628 -0.032386 0.494728 2.000000
0.262156 0.494151 0.063371 2.000000
-0.014309 -0.449032 0.212268 2.000000
-0.111796 0.466636 0.173521 2.000000
-0.261223 0.207615 -0.455234 2.000000
-0.018201 0.051511 0.493149 2.000000
0.114646 -0.086879 -0.492395 2.000000
-0.274959 0.317749 -0.386089 2.000000
-0.226041 0.495192 -0.059153 2.000000
-0.190824 0.410108 -0.285340 2.000000
-0.265242 -0.475596 -0.148720 2.000000
0.206387 -0.099240 -0.490267 2.000000
-0.268642 0.479221 -0.139476 2.000000
-0.256944 0.038826 0.494520 2.000000
0.092267 -0.302527 -0.397397 2.000000
-0.287607 -0.120662 -0.485186 4.000000
-0.217592 0.488273 0.098000 2.000000
-0.211113 -0.395592 -0.303920 2.000000
-0.078388 -0.198711 -0.458552 2.000000
-0.192357 -0.479659 -0.134005 2.000000
0.110811 -0.179435 0.462281 2.000000
-0.074016 0.322581 -0.381943 2.000000
0.129331 -0.379426 -0.324045 2.000000
0.115697 -0.046493 -0.497934 2.000000
0.262819 -0.468735 0.164630 2.000000
0.132076 -0.234391 0.437119 2.000000
-0.288218 -0.380217 -0.323123 4.000000
0.148970 0.383450 -0.320620 2.000000
-0.285675 0.490062 0.089464 4.000000
0.105039 -0.430680 0.247122 2.000000
0.003453 0.371414 0.330222 2.000000
-0.216374 -0.341458 0.359838 2.000000
0.025370 0.179754 0.462405 2.000000
-0.106958 -0.352272 0.349310 2.000000
-0.078236 -0.324032 0.375465 2.000000
-0.138271 0.392762 -0.308942 2.000000
0.193378 0.355407 -0.351609 2.000000
-0.061395 0.285809 -0.410491 2.000000
-0.069133 0.150517 0.472655 2.000000
0.171117 -0.307341 -0.393558 2.000000
-0.040713 -0.101558 0.485188 2.000000
-0.229754 0.349834 0.352832 2.000000
0.233750 -0.482593 0.118594 2.000000
-0.214475 0.435460 0.240308 2.000000
0.117676 0.185800 0.460136 2.000000
0.190498 -0.476408 0.140982 2.000000
-0.280580 0.375639 0.325299 2.000000
0.059675 0.182391 0.461415 2.000000
0.197542 0.316452 0.382757 2.000000
-0.171456 -0.485228 -0.111999 2.000000
-0.001391 0.226710 0.441467 2.000000
-0.006173 -0.277451 0.410979 2.000000
0.117011 0.342260 -0.364409 2.000000
-0.243992 -0.496999 -0.027581 2.000000
0.259395 0.459563 -0.195437 2.000000
-0.146924 0.333250 -0.372788 2.000000
-0.041232 -0.476304 0.141324 2.000000
-0.137897 -0.449405 -0.215651 2.000000
-0.114165 0.481222 -0.132916 2.000000
0.158773 0.345320 -0.361429 2.000000
-0.012405 -0.417528 -0.272741 2.000000
0.184081 0.427319 -0.258670 2.000000
-0.274229 -0.460264 -0.190955 2.000000
-0.142653 0.478611 0.137158 2.000000
0.163530 0.413831 0.275539 2.000000
0.216788 -0.497480 -0.003653 2.000000
-0.286306 -0.354817 -0.351014 4.000000
0.041285 -0.112052 0.482989 2.000000
-0.099263 -0.170492 0.465566 2.000000
0.093525 -0.280346 -0.413384 2.000000
0.276431 -0.436668 -0.240767 1.000000
-0.278768 0.250706 0.428470 2.000000
0.054190 -0.496635 0.026605 2.000000
-0.195233 -0.390095 -0.311207 2.000000
0.008106 0.477914 0.139685 2.000000
0.129425 -0.362423 -0.343201 2.000000
0.055755 -0.497091 -0.025255 2.000000
0.050111 0.175842 0.463873 2.000000
-0.185836 0.033484 0.494783 2.000000
0.158367 -0.381305 -0.321855 2.000000
-0.182083 0.498327 0.009174 2.000000
0.167789 -0.395245 -0.304380 2.000000
-0.288985 -0.260910 0.421899 4.000000
0.180774 0.404105 0.289642 2.000000
-0.222231 -0.395409 0.299983 2.000000
-0.288409 -0.465576 -0.177977 4.000000
0.183946 0.424913 0.258701 2.000000
-0.276560 -0.010261 -0.500132 2.000000
-0.029733 -0.496819 0.022501 2.000000
-0.093588 -0.339827 -0.365741 2.000000
0.215732 0.451260 0.209613 2.000000
0.256905 0.453592 -0.208744 2.000000
0.048134 -0.185622 -0.464172 2.000000
0.109065 0.495238 -0.058732 2.000000
0.204045 -0.294754 0.398814 2.000000
0.000470 0.498287 -0.016980 2.000000
-0.018907 0.495781 0.050911 2.000000
0.112132 0.487875 0.099903 2.000000
0.108066 0.231760 0.438808 2.000000
-0.053502 -0.406409 -0.289582 2.000000
0.117701 0.204655 -0.456547 2.000000
-0.079892 0.053630 0.492920 2.000000
-0.232904 0.029721 0.494952 2.000000
-0.226452 -0.299008 0.395605 2.000000
0.075568 0.484103 0.117263 2.000000
0.101274 0.353499 -0.353467 2.000000
-0.092800 -0.377641 0.322054 2.000000
-0.123189 0.108246 0.484027 2.000000
-0.122534 -0.277937 0.410658 2.000000
0.005041 -0.459647 0.188614 2.000000
0.140138 -0.324611 -0.379522 2.000000
0.080572 -0.043691 0.493812 2.000000
0.158669 0.145934 0.474053 2.000000
-0.094048 -0.460751 -0.189786 2.000000
-0.191633 0.496334 0.044084 2.000000
0.037744 0.206473 0.451175 2.000000
-0.288923 0.024551 0.495184 4.000000
0.053132 0.194073 -0.460959 2.000000
-0.114383 0.441285 -0.233827 2.000000
0.039547 0.168169 0.466752 2.000000
-0.055230 0.497597 -0.032362 2.000000
-0.289814 0.399869 0.295256 4.000000
0.069288 0.111182 -0.487740 2.000000
-0.226882 0.498240 0.014018 2.000000
0.028343 -0.281613 0.408231 2.000000
0.224119 -0.454621 -0.204488 2.000000
-0.222452 -0.491065 -0.081977 2.000000
0.205938 0.392837 -0.308847 2.000000
-0.106176 0.495264 0.055685 2.000000
0.271903 0.452998 0.206086 2.000000
-0.255009 -0.349983 -0.355980 2.000000
-0.018101 0.182352 0.461430 2.000000
0.249330 0.269078 -0.421536 2.000000
-0.193475 -0.496980 -0.027814 2.000000
-0.000685 -0.199090 -0.458382 2.000000
0.104014 -0.194657 0.455935 2.000000
-0.128507 0.352387 -0.354550 2.000000
-0.129201 0.441903 -0.232654 2.000000
0.104026 -0.447869 -0.218768 2.000000
0.128789 0.386964 -0.316213 2.000000
-0.137217 0.288617 -0.408570 2.000000
-0.103131 0.398335 -0.301953 2.000000
0.080488 0.427523 0.254149 2.000000
0.246477 -0.488317 0.093280 2.000000
0.208515 0.337125 -0.369408 2.000000
-0.236102 -0.098966 0.485731 2.000000
-0.228865 -0.271537 0.414883 2.000000
0.182877 0.176430 -0.468224 2.000000
0.189096 -0.273081 0.413864 2.000000
0.072943 -0.104136 0.484648 2.000000
-0.166164 -0.204408 0.451869 2.000000
-0.175669 0.136130 -0.481302 2.000000
0.170703 0.419211 -0.271969 2.000000
-0.085843 -0.371503 0.328831 2.000000
-0.033079 -0.334491 0.366491 2.000000
-0.215184 -0.106714 0.484107 2.000000
-0.032449 -0.488934 0.089699 2.000000
0.004747 -0.358139 -0.347602 2.000000
-0.208202 -0.298050 0.396327 2.000000
-0.053417 0.414094 0.275142 2.000000
-0.228204 -0.477131 -0.143161 2.000000
-0.155199 -0.255098 0.425244 2.000000
0.242157 -0.336063 0.365091 2.000000
0.128185 0.152537 0.472039 2.000000
0.199864 0.488327 -0.103131 2.000000
0.017053 -0.141061 0.475304 2.000000
0.038833 0.391253 -0.310834 2.000000
0.026450 -0.390054 0.306700 2.000000
-0.166537 0.110268 0.483546 2.000000
-0.017635 0.419000 -0.272315 2.000000
-0.071897 0.287873 0.404483 2.000000
-0.012769 -0.247028 -0.434441 2.000000
0.238765 -0.004169 -0.500280 2.000000
0.052801 -0.404170 -0.292550 2.000000
-0.286783 -0.497227 -0.017697 4.000000
0.284927 0.194897 -0.460615 1.000000
-0.074216 -0.238740 0.434625 2.000000
0.038037 -0.394169 0.301538 2.000000
-0.150929 0.484855 0.114318 2.000000
0.118949 0.393034 -0.308600 2.000000
0.112887 0.031853 0.494856 2.000000
0.155048 -0.432046 -0.248829 2.000000
0.177596 0.475185 0.148739 2.000000
0.060482 -0.451703 0.206317 2.000000
-0.271893 0.436176 0.239060 2.000000
-0.050289 0.138070 -0.480766 2.000000
0.224644 0.488748 0.095735 2.000000
0.186669 0.496864 0.037549 2.000000
0.114876 0.443785 0.224782 2.000000
0.166588 0.481109 -0.133288 2.000000
0.143600 -0.313322 -0.388789 2.000000
0.048936 0.443662 0.225032 2.000000
0.282363 0.473082 -0.159594 1.000000
0.107689 -0.222666 0.442959 2.000000
-0.007021 0.192697 0.457357 2.000000
-0.281667 -0.448057 0.214442 4.000000
0.191707 0.185171 0.460372 2.000000
-0.116740 0.457201 0.196407 2.000000
0.266906 -0.214555 -0.451442 2.000000
0.283990 -0.340988 0.360296 1.000000
0.142217 -0.008712 -0.500202 2.000000
-0.104930 0.476039 0.146263 2.000000
0.210860 -0.397581 -0.301283 2.000000
-0.211321 -0.415331 -0.276069 2.000000
0.075994 0.229270 -0.444563 2.000000
-0.103755 -0.490831 -0.083591 2.000000
0.249222 -0.272322 0.414365 2.000000
0.046608 0.282690 0.408108 2.000000
0.262805 0.053783 0.492904 2.000000
0.218953 0.224150 0.442815 2.000000
-0.140753 -0.446644 0.217350 2.000000
0.192208 -0.237658 0.435245 2.000000
-0.288046 -0.194026 -0.460654 4.000000
-0.283294 0.482376 0.123520 2.000000
-0.029093 0.297047 0.398067 2.000000
0.010704 0.053469 -0.497456 2.000000
0.035753 0.467007 0.172446 2.000000
-0.201089 0.410890 -0.284221 2.000000
-0.260231 0.191155 -0.462176 2.000000
-0.170923 0.436827 -0.242294 2.000000
-0.015749 -0.277601 -0.415303 2.000000
-0.055436 -0.178454 0.462690 2.000000
-0.146025 0.359743 0.342654 2.000000
0.159097 -0.461349 0.184314 2.000000
0.196185 -0.497464 -0.004559 2.000000
-0.119552 -0.445598 -0.223377 2.000000
-0.169274 0.155044 0.471274 2.000000
0.131863 -0.132443 0.477683 2.000000
-0.110760 0.328154 0.372888 2.000000
-0.014046 0.462653 -0.187924 2.000000
0.187061 0.225181 -0.446578 2.000000
-0.240341 -0.270015 -0.420427 2.000000
0.235053 0.455672 0.200074 2.000000
-0.085277 -0.014450 0.495573 2.000000
0.029655 -0.382131 0.316635 2.000000
-0.137607 0.057402 -0.497069 2.000000
0.194452 0.068032 0.491364 2.000000
0.032987 0.495871 -0.052871 2.000000
0.239664 -0.361155 0.340257 2.000000
-0.252413 0.433589 0.243571 2.000000
-0.101198 -0.484428 -0.115817 2.000000
-0.035895 0.066262 -0.495787 2.000000
-0.031973 -0.165289 -0.471802 2.000000
-0.119459 -0.493975 0.056585 2.000000
0.238109 0.464484 0.178938 2.000000
-0.182671 -0.495973 -0.040241 2.000000
-0.192184 0.046539 0.493687 2.000000
-0.285271 -0.148403 0.473186 4.000000
0.010394 0.497900 -0.025607 2.000000
-0.073759 0.457758 0.195070 2.000000
0.022079 0.045784 -0.498079 2.000000
-0.120695 0.309534 0.388274 2.000000
-0.160140 0.485559 -0.114778 2.000000
0.167596 0.384069 0.315475 2.000000
0.181170 0.497423 -0.036239 2.000000
0.115380 -0.391518 -0.309320 2.000000
0.065747 -0.336792 -0.368489 2.000000
0.192189 0.419857 0.266412 2.000000
0.021030 -0.489142 -0.093317 2.000000
-0.142311 0.498409 0.004636 2.000000
-0.021817 0.466024 -0.178939 2.000000
-0.252555 0.265377 -0.423980 2.000000
0.002815 0.347321 -0.359482 2.000000
-0.199905 0.340732 -0.365897 2.000000
-0.151498 0.091032 -0.491961 2.000000
0.265601 -0.454820 -0.204011 2.000000
-0.147298 0.496575 0.041104 2.000000
-0.210114 0.061826 -0.496428 2.000000
0.012691 0.375605 0.325339 2.000000
-0.208920 0.112918 -0.487376 2.000000
0.178470 -0.385218 0.312764 2.000000
-0.003727 -0.236411 0.435960 2.000000
0.258796 -0.335175 0.365904 2.000000
-0.144498 -0.436907 0.235842 2.000000
-0.159624 -0.475732 -0.148231 2.000000
0.038541 -0.095777 0.486399 2.000000
-0.066168 0.321196 0.378974 2.000000
0.118095 0.172617 -0.469540 2.000000
-0.207250 0.498382 0.006099 2.000000
-0.210348 0.497152 -0.041017 2.000000
0.196510 0.292609 0.401171 2.000000
0.198945 0.269683 -0.421137 2.000000
0.013383 0.498221 0.015047 2.000000
-0.206518 0.465387 0.176772 2.000000
-0.204575 -0.237812 0.435157 2.000000
-0.129903 -0.285453 -0.409812 2.000000
0.014510 0.085666 -0.492979 2.000000
0.016163 0.135910 -0.481362 2.000000
-0.042487 -0.458404 0.191384 2.000000
0.136865 0.320279 -0.383919 2.000000
0.073860 0.197266 -0.459628 2.000000
0.021412 0.482085 0.124574 2.000000
-0.185958 -0.485255 -0.111872 2.000000
0.243651 -0.217787 0.445363 2.000000
-0.209622 -0.086892 -0.492393 2.000000
-0.210120 0.174720 0.464294 2.000000
0.033223 0.161108 -0.473510 2.000000
-0.266537 0.294304 0.399985 2.000000
0.119573 -0.437636 0.234458 2.000000
-0.254166 0.170815 -0.470161 2.000000
-0.222680 -0.459940 -0.191732 2.000000
-0.265614 -0.495522 -0.045817 2.000000
-0.209411 0.086905 -0.492800 2.000000
0.238493 -0.495803 -0.042342 2.000000
0.269071 -0.440163 0.229658 2.000000
0.121748 0.288346 -0.408775 2.000000
0.113555 -0.083923 0.488730 2.000000
-0.161113 -0.369392 -0.335739 2.000000
0.257973 -0.495907 0.038701 2.000000
-0.089791 -0.473954 -0.153688 2.000000
0.197864 0.352204 0.350398 2.000000
0.018340 -0.067913 -0.495619 2.000000
-0.243357 0.364996 0.337258 2.000000
-0.175926 0.039556 -0.498583 2.000000
0.124051 -0.459047 0.189951 2.000000
0.275190 0.498436 0.003120 2.000000
0.228348 0.450874 0.210396 2.000000
0.251322 0.010311 0.495823 2.000000
-0.067537 0.491604 -0.084496 2.000000
-0.073150 0.498065 0.022721 2.000000
-0.219823 -0.213784 0.447335 2.000000
0.106772 0.454239 0.203510 2.000000
-0.275497 -0.134412 0.477140 2.000000
0.089591 0.434303 -0.247087 2.000000
-0.172615 0.058182 -0.496956 2.000000
-0.012879 -0.484397 -0.115965 2.000000
0.046005 0.228368 -0.445007 2.000000
-0.170728 0.195249 0.456212 2.000000
-0.269578 -0.478745 -0.137313 2.000000
0.183577 -0.485724 -0.109629 2.000000
-0.287990 0.470126 0.163405 4.000000
-0.004645 0.227080 -0.445642 2.000000
0.171050 -0.432816 0.243611 2.000000
0.091020 0.319908 -0.384237 2.000000
-0.128543 -0.473207 -0.155854 2.000000
0.041038 -0.467386 0.168224 2.000000
0.225947 0.325928 0.374904 2.000000
-0.066523 0.170312 0.465948 2.000000
0.052763 0.110964 -0.487785 2.000000
-0.046840 0.489581 -0.096246 2.000000
-0.038172 0.084120 -0.493203 2.000000
-0.118425 0.166810 0.467262 2.000000
-0.238114 -0.330451 -0.374232 2.000000
0.082238 0.177041 -0.468014 2.000000
-0.154045 0.430057 0.249730 2.000000
0.181099 -0.080279 -0.493531 2.000000
-0.043389 -0.424873 0.256647 2.000000
-0.087719 -0.095270 0.486505 2.000000
0.211885 0.384417 0.315070 2.000000
0.056252 -0.428667 -0.254721 2.000000
-0.256967 -0.496656 -0.031814 2.000000
-0.239294 -0.132699 0.477612 2.000000
-0.088352 0.386616 -0.316649 2.000000
0.143738 0.481008 -0.133618 2.000000
0.031427 -0.479720 0.130127 2.000000
0.225748 -0.489937 0.083874 2.000000
0.024454 0.492801 0.072703 2.000000
0.103567 -0.165828 -0.471599 2.000000
-0.207163 -0.497138 0.015400 2.000000
-0.289331 -0.439144 0.231593 4.000000
0.141374 0.288305 0.404181 2.000000
-0.066021 -0.076650 -0.494156 2.000000
0.170930 0.400491 -0.299090 2.000000
-0.142548 -0.067604 0.491091 2.000000
0.254998 -0.398983 -0.299425 2.000000
-0.230303 0.229553 0.439970 2.000000
-0.092453 0.467745 0.170306 2.000000
-0.267038 -0.142851 -0.479035 2.000000
0.068031 0.475702 0.147239 2.000000
-0.269552 -0.285627 0.405581 2.000000
0.285424 -0.375840 0.324043 1.000000
-0.182847 0.314609 -0.388784 2.000000
-0.185544 -0.347299 0.354152 2.000000
0.226614 -0.055840 -0.496924 2.000000
-0.226459 0.120098 0.481210 2.000000
0.243512 0.435215 0.240736 2.000000
0.085521 0.487062 -0.108451 2.000000
0.274590 0.400032 0.295040 2.000000
-0.035138 -0.462085 0.182352 2.000000
-0.282682 -0.395291 0.300131 4.000000
0.073556 0.080346 0.489343 2.000000
0.220774 -0.133685 0.477340 2.000000
-0.063073 0.417290 0.270300 2.000000
0.255233 -0.471828 0.155992 2.000000
-0.006605 -0.486907 -0.103985 2.000000
0.152505 -0.223726 -0.446852 2.000000
-0.040661 0.093457 0.487085 2.000000
-0.038053 -0.402602 0.290254 2.000000
0.264787 0.498539 -0.002613 2.000000
0.006243 0.436764 0.238034 2.000000
0.070088 -0.493925 0.057046 2.000000
0.134728 -0.377851 0.321823 2.000000
0.147308 -0.478296 -0.138940 2.000000
0.191039 -0.497605 0.004976 2.000000
-0.197657 0.379371 0.320949 2.000000
-0.135162 0.498512 -0.011969 2.000000
-0.085866 0.080055 -0.493791 2.000000
0.088346 0.129901 0.478880 2.000000
-0.239613 0.444805 0.222712 2.000000
0.127755 -0.029570 -0.499266 2.000000
0.097706 0.084546 0.488620 2.000000
-0.002288 -0.454640 -0.204444 2.000000
-0.156315 0.010490 0.495814 2.000000
0.016553 0.437702 -0.240632 2.000000
0.094647 0.494417 0.061537 2.000000
0.215186 -0.129863 -0.482997 2.000000
-0.266071 0.496654 0.040132 2.000000
0.091654 -0.353813 -0.352046 2.000000
0.151143 -0.065289 -0.495903 2.000000
-0.250223 -0.052423 0.493104 2.000000
0.272895 -0.417500 0.268742 2.000000
0.069692 0.398333 0.297291 2.000000
0.245141 -0.456323 -0.200406 2.000000
0.256868 0.465824 0.175722 2.000000
-0.077878 -0.390622 0.305986 2.000000
0.276552 -0.493999 -0.061695 1.000000
-0.175883 0.404871 0.288626 2.000000
0.282605 -0.465002 0.174579 1.000000
-0.288665 0.050388 -0.497706 4.000000
0.271594 0.091764 -0.491807 2.000000
-0.048044 0.355694 0.346813 2.000000
0.208168 -0.037426 -0.498914 2.000000
0.060052 0.469677 0.164704 2.000000
0.030599 0.002911 0.495885 2.000000
0.213569 0.041043 -0.498463 2.000000
0.094099 0.083584 -0.493281 2.000000
0.109305 0.112830 -0.487394 2.000000
0.188525 -0.378736 0.320845 2.000000
0.165696 -0.144083 0.474470 2.000000
-0.200827 0.096723 -0.490769 2.000000
0.047581 0.432508 0.245457 2.000000
0.003248 -0.221616 0.443476 2.000000
0.052088 -0.413146 0.275176 2.000000
-0.288005 0.101935 -0.489677 4.000000
0.193677 0.367887 -0.338308 2.000000
0.167485 -0.103202 -0.489335 2.000000
-0.231481 0.424707 0.259060 2.000000
-0.206515 0.489063 0.094231 2.000000
-0.110790 -0.283535 0.406962 2.000000
-0.251937 -0.426902 0.253319 2.000000
-0.258746 -0.465503 -0.178188 2.000000
0.171518 0.258036 0.424001 2.000000
0.077403 -0.291766 0.401068 2.000000
0.180315 0.448353 0.215512 2.000000
-0.230251 0.498515 -0.001264 2.000000
0.111370 0.169434 0.466277 2.000000
-0.165236 -0.316979 -0.385873 2.000000
-0.041635 -0.332642 -0.372248 2.000000
0.237754 -0.473448 -0.155155 2.000000
-0.047814 -0.206923 -0.454867 2.000000
-0.288706 -0.243731 -0.436319 4.000000
-0.057536 -0.495055 0.046585 2.000000
-0.045090 -0.168045 -0.470767 2.000000
-0.192993 0.461816 0.185336 2.000000
-0.122689 -0.462090 -0.186573 2.000000
-0.210464 0.336332 -0.370144 2.000000
0.260210 0.475336 -0.152208 2.000000
0.132308 -0.120485 -0.485228 2.000000
-0.228424 0.004171 0.495908 2.000000
0.015163 -0.097641 0.486008 2.000000
-0.240389 -0.480776 0.126236 2.000000
-0.206995 -0.408038 -0.287116 2.000000
0.266220 0.360964 0.341400 2.000000
-0.002048 -0.213272 0.447588 2.000000
0.130407 0.386249 0.312934 2.000000
0.271119 -0.359453 -0.346252 2.000000
0.131410 0.427045 -0.259118 2.000000
-0.212692 0.129839 -0.483038 2.000000
-0.056259 -0.330777 -0.373937 2.000000
0.005757 -0.027870 0.495093 2.000000
-0.230539 -0.191872 -0.461621 2.000000
-0.275400 0.488290 -0.103284 2.000000
0.148414 -0.491278 -0.080505 2.000000
-0.243608 0.390494 -0.311786 2.000000
-0.054915 -0.098731 -0.490355 2.000000
-0.101794 -0.344848 -0.361193 2.000000
0.060838 0.285854 0.405895 2.000000
-0.078647 -0.488707 -0.095392 2.000000
0.053435 -0.148918 0.473008 2.000000
0.178996 0.448456 -0.220190 2.000000
0.178649 -0.492127 0.071151 2.000000
-0.063566 -0.317654 0.380938 2.000000
-0.006054 0.447491 -0.222041 2.000000
0.264762 -0.473966 0.148987 2.000000
0.238379 0.472574 0.156306 2.000000
0.061714 -0.053565 0.493012 2.000000
-0.242594 -0.216794 0.445852 2.000000
-0.198664 0.193135 0.457160 2.000000
0.120888 -0.496364 -0.035418 2.000000
0.197337 0.024741 0.495175 2.000000
0.135373 0.379521 0.320775 2.000000
-0.083394 0.479227 -0.139455 2.000000
0.016741 0.223865 -0.447226 2.000000
0.172528 0.308936 0.388750 2.000000
0.181327 0.341968 0.360376 2.000000
-0.237536 0.131494 0.478459 2.000000
-0.210514 -0.117634 0.481771 2.000000
0.285673 0.086414 0.488298 1.000000
-0.274890 0.366600 -0.339729 2.000000
-0.210697 -0.491985 -0.075618 2.000000
0.226927 -0.439427 -0.235901 2.000000
-0.113349 0.021250 -0.499822 2.000000
-0.212906 0.252400 -0.431733 2.000000
0.247751 -0.106860 -0.488466 2.000000
0.285846 0.192814 0.457305 1.000000
-0.268062 0.234691 -0.441888 2.000000
0.095671 0.300695 -0.399459 2.000000
0.048670 0.498566 -0.004121 2.000000
-0.022905 -0.279803 0.409426 2.000000
0.065804 -0.152081 0.471917 2.000000
-0.262156 -0.417302 0.269066 2.000000
0.284438 -0.487961 0.095349 1.000000
0.237963 0.328030 0.373000 2.000000
-0.145476 -0.428722 0.250334 2.000000
0.284226 0.469490 -0.169702 1.000000
0.010260 -0.407633 -0.287729 2.000000
0.162330 -0.038059 0.494268 2.000000
0.226881 -0.293937 -0.403878 2.000000
0.053709 0.369180 0.332827 2.000000
-0.245862 0.407135 0.285624 2.000000
-0.054827 0.338721 -0.367854 2.000000
-0.195476 -0.488338 0.093158 2.000000
0.143144 0.498284 -0.017055 2.000000
0.199375 0.487116 0.103523 2.000000
-0.083552 0.306430 -0.395132 2.000000
0.156416 -0.495242 0.044856 2.000000
-0.101532 0.397792 0.298010 2.000000
-0.191141 0.006202 0.495945 2.000000
0.079522 -0.497582 0.001988 2.000000
-0.165829 0.046641 0.493676 2.000000
-0.028124 0.158614 0.470184 2.000000
0.104854 -0.497066 -0.026648 2.000000
-0.054448 -0.426785 -0.258003 2.000000
0.202655 -0.496733 0.024435 2.000000
0.093272 -0.455204 0.198514 2.000000
-0.260142 -0.452250 0.205097 2.000000
0.193732 -0.334656 0.366349 2.000000
-0.093856 -0.259894 0.422494 2.000000
0.279071 -0.319254 -0.384059 1.000000
-0.233895 -0.361602 -0.344045 2.000000
0.281038 0.019133 -0.499860 1.000000
0.074944 0.473977 -0.156662 2.000000
-0.159978 0.491453 -0.085374 2.000000
-0.051438 -0.294224 0.399214 2.000000
0.152131 -0.466825 -0.174355 2.000000
0.119004 -0.327377 0.372595 2.000000
-0.159463 0.496842 0.037813 2.000000
0.097186 0.460158 -0.194112 2.000000
-0.151944 0.483253 -0.124482 2.000000
0.218343 0.202890 0.452783 2.000000
0.020234 0.109012 0.483844 2.000000
0.021929 0.420979 -0.269069 2.000000
-0.277982 -0.497076 -0.026064 2.000000
-0.116331 0.495993 -0.051743 2.000000
0.150733 -0.350063 0.351461 2.000000
-0.139374 0.471790 0.158580 2.000000
-0.236814 -0.386659 -0.315615 2.000000
0.103341 0.440462 -0.235390 2.000000
-0.277383 -0.488140 -0.098097 2.000000
0.163124 -0.012624 0.495606 2.000000
-0.034034 -0.231371 0.438669 2.000000
-0.215341 -0.479307 0.131482 2.000000
-0.143200 -0.276088 0.411879 2.000000
-0.142776 0.228181 -0.445100 2.000000
0.036477 0.497800 -0.027847 2.000000
0.260838 -0.191138 -0.461950 2.000000
0.241071 -0.016760 -0.499841 2.000000
0.196496 -0.476697 -0.144734 2.000000
-0.054149 0.375395 0.325583 2.000000
0.200663 0.054950 0.492778 2.000000
-0.098724 0.498485 -0.012562 2.000000
0.267835 -0.426440 0.254077 2.000000
-0.066108 0.430374 -0.253659 2.000000
0.120668 0.380513 0.319619 2.000000
0.106230 0.141572 -0.479799 2.000000
0.212060 0.034824 0.494723 2.000000
-0.073834 -0.495369 0.043679 2.000000
0.078009 -0.451297 0.207222 2.000000
-0.183491 -0.278790 -0.414472 2.000000
0.034209 -0.436697 -0.240718 2.000000
0.233895 -0.438509 0.232799 2.000000
-0.227294 0.485267 -0.116005 2.000000
-0.192517 0.178455 -0.467470 2.000000
0.060810 0.482025 0.124790 2.000000
0.140196 -0.047249 0.493523 2.000000
0.201376 -0.471502 0.157062 2.000000
-0.060583 0.052644 0.493027 2.000000
-0.206437 0.302548 0.393844 2.000000
0.270269 -0.333356 0.367464 2.000000
-0.077165 -0.307634 -0.393325 2.000000
-0.016959 -0.496672 0.025794 2.000000
0.152236 -0.109749 -0.487779 2.000000
0.165069 0.437970 -0.240124 2.000000
0.140815 0.495310 0.055367 2.000000
-0.196919 -0.028878 -0.499297 2.000000
0.155331 0.489066 -0.099238 2.000000
0.145716 0.474426 -0.155191 2.000000
0.009543 0.223472 0.443172 2.000000
0.035320 -0.349853 -0.356114 2.000000
-0.117665 -0.277797 -0.415166 2.000000
-0.045279 0.334883 -0.371387 2.000000
0.085607 0.458220 0.193961 2.000000
-0.289777 0.457866 0.194812 4.000000
0.272391 -0.464106 -0.181739 2.000000
-0.041496 0.472774 0.155728 2.000000
0.107058 0.463446 -0.185809 2.000000
0.275118 0.189171 0.458871 2.000000
0.133320 0.201473 0.453419 2.000000
0.192219 -0.385622 0.312258 2.000000
0.012010 0.498379 -0.014930 2.000000
-0.022645 0.014002 -0.499953 2.000000
0.106170 -0.043492 0.493828 2.000000
0.273471 -0.348682 0.352806 2.000000
0.062297 -0.465068 0.174403 2.000000
-0.020461 -0.496402 -0.034951 2.000000
-0.160900 -0.253747 -0.430345 2.000000
-0.124313 0.452642 0.206807 2.000000
-0.113059 0.241921 -0.437742 2.000000
-0.197875 0.309492 -0.392822 2.000000
0.273578 0.494383 -0.066646 2.000000
-0.278828 -0.238120 -0.439273 2.000000
0.256746 -0.249070 0.428701 2.000000
0.016455 -0.163972 0.467815 2.000000
-0.170694 -0.026969 0.495167 2.000000
-0.109683 -0.003659 -0.500271 2.000000
-0.049261 -0.076230 0.489843 2.000000
0.038572 0.176804 -0.468096 2.000000
-0.132748 0.132295 -0.482360 2.000000
0.180936 0.454629 0.202574 2.000000
0.106506 -0.275764 0.412093 2.000000
0.008844 -0.487182 -0.102670 2.000000
0.268646 0.492470 -0.079462 2.000000
0.218282 -0.242665 0.432374 2.000000
-0.207065 0.266441 0.418877 2.000000
0.052934 0.303527 -0.397322 2.000000
0.177070 -0.476142 0.141855 2.000000
-0.007953 0.003859 0.495902 2.000000
-0.119001 0.313883 -0.389406 2.000000
-0.151437 -0.249336 -0.433034 2.000000
-0.125997 -0.496022 -0.039638 2.000000
0.180761 -0.433547 -0.246212 2.000000
-0.085404 0.472139 0.157569 2.000000
-0.176620 -0.329855 0.370468 2.000000
0.217956 -0.497203 0.013945 2.000000
0.266980 0.399849 -0.300009 2.000000
-0.200312 -0.475234 0.144829 2.000000
0.164295 -0.210741 0.448835 2.000000
-0.282106 0.214009 -0.452083 4.000000
0.043109 0.350735 -0.356158 2.000000
-0.090166 0.433018 0.244567 2.000000
-0.164515 0.381129 -0.323531 2.000000
-0.143532 -0.335530 0.365599 2.000000
0.023985 0.021351 0.495327 2.000000
0.242085 -0.120408 0.481006 2.000000
0.095798 -0.398338 -0.300281 2.000000
0.229750 0.461259 0.186672 2.000000
-0.247368 0.239846 -0.438932 2.000000
-0.036796 -0.450979 -0.212456 2.000000
-0.216818 0.392016 -0.309877 2.000000
-0.107556 0.496604 0.040753 2.000000
0.207880 -0.380758 -0.322493 2.000000
0.142886 -0.436131 -0.241705 2.000000
0.112776 0.491846 -0.083090 2.000000
-0.008072 -0.048469 0.493424 2.000000
0.152128 -0.015727 0.495550 2.000000
0.162119 0.498145 0.019291 2.000000
-0.081336 0.381229 -0.323406 2.000000
-0.127443 -0.259274 -0.426975 2.000000
0.084889 -0.381835 0.317006 2.000000
-0.078307 -0.384726 -0.317869 2.000000
0.067362 0.336663 -0.369857 2.000000
0.094546 0.278485 0.411049 2.000000
-0.221565 -0.484298 0.111419 2.000000
-0.277247 -0.131519 -0.482492 2.000000
0.273648 0.315025 0.383895 2.000000
-0.079371 -0.403481 -0.293463 2.000000
-0.202899 -0.423912 0.258224 2.000000
-0.137342 -0.469599 0.162327 2.000000
0.217156 0.161629 -0.473330 2.000000
-0.143052 -0.389661 0.307192 2.000000
-0.019519 0.493038 0.071067 2.000000
-0.255704 0.051035 -0.497653 2.000000
0.145179 0.041854 -0.498397 2.000000
0.284998 -0.485339 0.107036 1.000000
0.015766 -0.303192 0.392448 2.000000
0.095375 -0.464932 -0.179756 2.000000
0.089346 -0.232987 -0.441976 2.000000
0.262766 0.438247 -0.239598 2.000000
-0.122883 -0.017014 0.495526 2.000000
0.110490 0.477669 0.140570 2.000000
0.061567 0.498611 -0.006626 2.000000
-0.059063 -0.486540 0.101984 2.000000
-0.195455 -0.467671 -0.171903 2.000000
0.207847 0.481036 0.128373 2.000000
-0.179534 0.063670 0.491835 2.000000
-0.169685 -0.141602 -0.479416 2.000000
-0.160701 0.345084 -0.361660 2.000000
0.211157 0.409057 -0.286842 2.000000
-0.235959 -0.313316 0.384660 2.000000
-0.144572 -0.409092 -0.285519 2.000000
0.005017 -0.256053 0.424697 2.000000
0.285534 0.028442 -0.499484 1.000000
-0.023436 0.491513 0.081612 2.000000
0.155598 0.375490 -0.329914 2.000000
-0.262910 0.116026 0.482178 2.000000
0.073186 -0.425252 0.256026 2.000000
-0.209497 -0.453263 0.202840 2.000000
0.206006 -0.461561 -0.187843 2.000000
0.151601 0.438607 -0.238913 2.000000
-0.059235 -0.211941 -0.452615 2.000000
-0.267589 -0.269664 -0.420641 2.000000
0.207975 -0.252470 -0.431123 2.000000
0.286417 -0.219359 0.444588 1.000000
0.146087 -0.497501 -0.002505 2.000000
-0.119057 0.457388 -0.200285 2.000000
0.099748 0.175789 0.463893 2.000000
-0.267340 0.497660 -0.030972 2.000000
