0.027302 0.134920 0.422398 3.000000
0.265455 -0.268159 0.352873 3.000000
0.026992 0.422105 -0.145493 3.000000
-0.016275 0.360547 -0.264423 3.000000
-0.223675 -0.128534 0.423956 3.000000
-0.129768 0.305166 0.322767 3.000000
-0.288594 -0.273348 0.348848 4.000000
0.245183 0.357632 -0.268181 3.000000
-0.258158 0.286112 -0.343919 3.000000
-0.220409 -0.366266 0.250206 3.000000
0.156797 -0.413897 0.161093 3.000000
0.076670 -0.185951 -0.406600 3.000000
0.077433 -0.371573 0.242396 3.000000
-0.002898 0.434517 0.097129 3.000000
-0.101839 0.284291 0.341155 3.000000
0.002561 -0.352728 -0.273182 3.000000
0.273605 -0.395487 0.201301 3.000000
0.231114 0.041069 0.441190 3.000000
0.006334 0.009301 0.442982 3.000000
0.032414 -0.279436 -0.348480 3.000000
-0.112595 0.135255 0.422301 3.000000
0.074922 0.376651 -0.240776 3.000000
0.176141 0.076176 0.436604 3.000000
-0.193617 -0.381180 0.227031 3.000000
-0.101048 -0.235905 -0.379606 3.000000
-0.123997 -0.326045 0.300647 3.000000
-0.021164 -0.158040 0.413931 3.000000
-0.105569 0.243884 0.370726 3.000000
-0.168553 0.395910 -0.206837 3.000000
-0.006705 0.309796 -0.322523 3.000000
-0.273452 0.404699 -0.189189 3.000000
-0.123621 0.210700 0.390404 3.000000
-0.003006 0.375998 0.237393 3.000000
0.148159 0.420706 -0.149380 3.000000
0.187380 -0.440564 -0.063351 3.000000
-0.032701 -0.068475 -0.442015 3.000000
0.225999 -0.240408 -0.376745 3.000000
-0.061971 0.416789 0.155906 3.000000
-0.288983 0.282821 0.342295 4.000000
-0.232015 -0.432705 -0.105004 3.000000
-0.214349 -0.193558 -0.402970 3.000000
-0.123651 0.238269 -0.378814 3.000000
-0.107149 -0.269572 0.351778 3.000000
-0.001283 0.029087 0.442322 3.000000
-0.162774 -0.125735 0.424769 3.000000
0.118637 0.233951 -0.381367 3.000000
0.074356 0.241184 -0.376913 3.000000
0.054820 0.382331 0.226819 3.000000
0.017551 0.414637 -0.166222 3.000000
0.221600 -0.362595 0.255608 3.000000
0.145136 0.445895 -0.003835 3.000000
0.096033 0.363754 -0.259763 3.000000
-0.262586 -0.404535 0.182845 3.000000
-0.022921 -0.276195 -0.350994 3.000000
-0.066545 -0.429402 0.113851 3.000000
0.262269 0.361001 0.259461 3.000000
0.269066 0.424718 -0.137854 3.000000
0.058243 0.036650 -0.445961 3.000000
-0.243300 0.009567 -0.447327 3.000000
0.233034 0.248958 -0.371631 3.000000
0.057966 -0.181881 0.404008 3.000000
-0.261409 0.316107 0.311858 3.000000
0.174526 -0.320446 0.306494 3.000000
-0.130864 0.053910 -0.444329 3.000000
0.028198 0.276007 0.347580 3.000000
-0.117409 0.272090 -0.354972 3.000000
-0.116102 -0.331792 -0.298482 3.000000
-0.046797 0.440245 -0.071831 3.000000
-0.267387 -0.118244 0.426945 3.000000
-0.174524 0.240406 0.373089 3.000000
-0.066764 -0.003698 -0.447479 3.000000
0.033514 0.375623 -0.242299 3.000000
0.171582 0.408752 -0.179821 3.000000
-0.275519 -0.420373 -0.147459 3.000000
0.201578 0.377119 -0.239985 3.000000
0.136651 0.444947 0.027079 3.000000
-0.065246 -0.104813 -0.434836 3.000000
-0.205675 0.445554 0.010341 3.000000
0.210474 0.412661 -0.170789 3.000000
0.015329 0.291853 -0.338858 3.000000
0.164320 0.445871 0.000249 3.000000
0.106584 -0.427984 0.118734 3.000000
0.268818 0.371434 -0.248463 3.000000
-0.154391 -0.392023 -0.212453 3.000000
0.146216 0.300424 0.326948 3.000000
-0.090864 0.380373 0.230130 3.000000
0.055667 0.440804 -0.068304 3.000000
0.154166 0.198031 -0.401213 3.000000
0.118865 0.435864 -0.095455 3.000000
-0.075305 0.334454 0.292271 3.000000
-0.087382 -0.359095 -0.264972 3.000000
0.266476 0.006383 -0.447427 3.000000
-0.159190 0.406456 0.180775 3.000000
-0.122236 -0.433086 0.098948 3.000000
-0.075980 0.032415 0.442008 3.000000
0.169831 0.441228 -0.065626 3.000000
-0.173335 -0.014081 -0.447153 3.000000
0.172480 -0.418766 0.147567 3.000000
-0.147791 -0.355184 -0.270015 3.000000
0.035791 0.224385 -0.387025 3.000000
-0.218188 -0.239753 -0.377190 3.000000
0.078801 -0.167172 -0.414727 3.000000
-0.231378 -0.444025 -0.030343 3.000000
-0.042542 0.392603 -0.213326 3.000000
-0.208433 -0.423526 -0.138433 3.000000
0.128396 0.424732 0.133453 3.000000
0.000697 -0.349002 0.273631 3.000000
-0.162763 -0.017540 -0.447044 3.000000
-0.189658 0.116770 0.427671 3.000000
0.141743 -0.159743 0.413318 3.000000
0.151600 -0.318814 -0.312480 3.000000
0.138140 -0.232958 0.376995 3.000000
0.204735 -0.387989 -0.219873 3.000000
0.031435 -0.214518 0.387900 3.000000
-0.023795 -0.010518 0.442912 3.000000
-0.237183 0.403331 0.187917 3.000000
-0.112472 -0.357776 0.262320 3.000000
0.026272 0.013883 0.442838 3.000000
0.284941 0.438902 -0.080312 1.000000
-0.189969 0.417392 -0.158585 3.000000
0.083313 0.152800 -0.420540 3.000000
0.109740 0.314138 0.313827 3.000000
-0.255196 0.012014 0.442897 3.000000
-0.255576 0.179270 -0.409935 3.000000
-0.217226 -0.383830 -0.226904 3.000000
0.135504 0.207668 -0.396302 3.000000
-0.099972 -0.109813 -0.433718 3.000000
0.001204 0.442490 -0.057424 3.000000
-0.155183 0.321977 0.305988 3.000000
0.099602 0.151139 0.416784 3.000000
-0.109410 0.274743 0.348562 3.000000
0.253456 0.133388 0.422843 3.000000
0.113588 -0.391488 0.209150 3.000000
-0.085245 0.295175 0.331575 3.000000
-0.053679 0.418793 0.150341 3.000000
-0.037518 0.442728 -0.054902 3.000000
0.285991 -0.427443 0.120597 1.000000
0.107418 0.041688 0.441131 3.000000
0.067681 0.233080 -0.381882 3.000000
-0.236107 0.434292 0.098135 3.000000
-0.087002 0.105136 0.430639 3.000000
0.191908 0.198271 0.396737 3.000000
-0.065747 -0.069670 -0.441826 3.000000
-0.218203 -0.438832 -0.074285 3.000000
0.048687 -0.302712 -0.328380 3.000000
0.172243 0.439531 -0.076337 3.000000
-0.031667 0.416474 0.156781 3.000000
-0.198762 0.415044 0.160754 3.000000
0.239254 0.130063 -0.428163 3.000000
-0.013441 0.384468 -0.227558 3.000000
-0.104273 -0.441811 0.049407 3.000000
-0.205849 -0.416809 0.153003 3.000000
-0.256585 0.083766 0.435402 3.000000
-0.114831 -0.059796 -0.443390 3.000000
0.229338 -0.074113 0.436769 3.000000
0.124065 -0.440367 -0.064590 3.000000
0.249742 -0.428825 -0.120191 3.000000
-0.015794 0.367546 -0.254184 3.000000
0.146097 0.048146 0.440521 3.000000
-0.259417 -0.111393 0.428936 3.000000
0.241544 0.386910 -0.223429 3.000000
0.015543 0.445503 0.011975 3.000000
-0.230781 -0.350710 0.271430 3.000000
-0.258371 -0.360466 -0.263093 3.000000
-0.021669 0.202903 0.394377 3.000000
-0.243669 -0.412483 0.164479 3.000000
-0.148142 -0.187549 -0.405909 3.000000
-0.111421 0.386143 -0.224727 3.000000
-0.200725 -0.444597 -0.012524 3.000000
-0.118572 -0.442762 -0.043705 3.000000
-0.183904 0.298919 0.328275 3.000000
0.104433 -0.175240 0.406882 3.000000
0.144639 0.143667 0.419474 3.000000
0.183389 -0.316466 -0.314828 3.000000
-0.261054 -0.188028 0.401348 3.000000
-0.163827 0.234851 -0.380835 3.000000
-0.082193 0.207717 0.391924 3.000000
-0.107796 -0.018206 0.442670 3.000000
0.040332 0.288423 -0.341881 3.000000
-0.104213 0.441490 0.059621 3.000000
-0.084858 0.445529 0.011140 3.000000
0.060748 -0.401800 -0.193265 3.000000
-0.128823 0.312904 -0.319414 3.000000
0.000341 -0.273904 -0.352770 3.000000
-0.041402 0.345050 -0.284400 3.000000
0.072207 0.238496 0.374326 3.000000
0.028143 0.270514 -0.356195 3.000000
-0.005145 0.445348 0.016904 3.000000
-0.247315 -0.436027 0.085789 3.000000
0.035099 0.328901 -0.302924 3.000000
0.259854 -0.058885 -0.443534 3.000000
-0.214796 -0.082954 0.435368 3.000000
0.123477 -0.442788 0.039076 3.000000
0.051404 0.242526 -0.376002 3.000000
0.216092 0.445910 -0.003379 3.000000
-0.156525 0.410722 0.170917 3.000000
-0.286597 0.417308 -0.158818 4.000000
0.104667 -0.246404 0.368317 3.000000
0.242662 -0.362228 -0.260500 3.000000
-0.285553 0.016783 0.442747 4.000000
-0.016869 -0.332424 0.293412 3.000000
-0.003767 -0.221990 0.383482 3.000000
0.206574 0.443764 -0.043945 3.000000
0.056115 0.443752 0.039715 3.000000
-0.193266 -0.413159 -0.167271 3.000000
0.176421 0.444690 -0.034145 3.000000
0.074996 0.177753 -0.410591 3.000000
0.072554 -0.429709 -0.117149 3.000000
-0.170468 0.400661 -0.197511 3.000000
-0.114333 0.417155 -0.159243 3.000000
0.283813 -0.388352 -0.219258 1.000000
-0.104245 0.365069 -0.257828 3.000000
-0.085847 -0.386935 -0.221654 3.000000
0.135966 -0.072833 0.436971 3.000000
0.042274 0.316527 0.311438 3.000000
-0.270906 -0.167535 0.410216 3.000000
0.158165 -0.358098 0.261905 3.000000
-0.051513 -0.280960 -0.347298 3.000000
-0.286446 0.319249 0.308716 4.000000
0.259198 -0.375313 -0.241247 3.000000
-0.206636 -0.060622 0.438905 3.000000
-0.249529 -0.428176 -0.122425 3.000000
0.093711 -0.433507 -0.101417 3.000000
0.185281 -0.016212 -0.447086 3.000000
0.227622 -0.302407 0.324296 3.000000
0.099031 0.228727 -0.384457 3.000000
0.195287 0.170633 0.409319 3.000000
0.042971 -0.329401 0.296840 3.000000
0.002427 0.428355 -0.125336 3.000000
0.286333 0.441740 -0.062395 1.000000
0.218616 0.439403 0.072794 3.000000
0.034768 0.295238 0.331520 3.000000
-0.273616 -0.149219 -0.421460 3.000000
-0.221458 0.410346 0.171784 3.000000
0.017064 0.405624 -0.187050 3.000000
0.061952 0.350362 0.273199 3.000000
-0.091869 -0.056813 -0.443862 3.000000
0.284762 -0.356876 0.263481 1.000000
-0.213217 0.306866 0.321099 3.000000
0.226490 -0.435051 -0.094511 3.000000
0.083061 -0.423812 -0.137445 3.000000
0.198176 -0.423869 0.132899 3.000000
0.172814 0.439708 0.070869 3.000000
0.122499 0.203475 0.394085 3.000000
-0.175037 0.444726 -0.033766 3.000000
0.152462 -0.194292 0.398242 3.000000
0.255843 0.091544 -0.438031 3.000000
0.042389 0.049820 0.440362 3.000000
0.114203 -0.380247 0.228609 3.000000
-0.055018 0.413908 0.163553 3.000000
0.255387 -0.111947 -0.433128 3.000000
0.268898 0.409493 0.173757 3.000000
0.239668 -0.093035 -0.437469 3.000000
0.166091 -0.137115 -0.425816 3.000000
0.129849 0.439835 -0.074422 3.000000
0.145699 0.190884 -0.404854 3.000000
-0.178674 -0.224574 -0.386307 3.000000
0.172650 0.378083 0.234001 3.000000
0.161769 0.352008 -0.275431 3.000000
-0.200978 0.203954 0.393841 3.000000
0.246350 0.424343 -0.139146 3.000000
0.155026 -0.138544 -0.425303 3.000000
0.163447 -0.323761 0.303179 3.000000
-0.074607 -0.392649 0.206871 3.000000
-0.137572 0.079242 -0.440472 3.000000
-0.127185 -0.145324 0.418509 3.000000
-0.224569 -0.070890 0.437279 3.000000
-0.239682 0.052242 -0.444487 3.000000
-0.222303 -0.086022 -0.439036 3.000000
-0.171605 -0.067877 -0.442110 3.000000
-0.181043 0.167136 0.410833 3.000000
-0.182878 -0.300903 0.325622 3.000000
0.018156 0.445906 -0.000869 3.000000
0.131964 -0.411677 0.166340 3.000000
-0.026335 0.325759 -0.306487 3.000000
0.233905 -0.390056 -0.216314 3.000000
-0.253849 0.112893 -0.433151 3.000000
-0.031236 0.144693 -0.423458 3.000000
0.010685 -0.131943 -0.427319 3.000000
0.165255 0.382964 0.225748 3.000000
-0.133986 0.445144 0.023388 3.000000
-0.268402 -0.342942 -0.285798 3.000000
-0.224584 0.414737 0.161607 3.000000
-0.019189 -0.416433 0.154047 3.000000
-0.163664 -0.318933 0.308007 3.000000
-0.065719 0.372466 0.242591 3.000000
0.099607 0.075047 -0.441136 3.000000
-0.118300 -0.395271 -0.206079 3.000000
-0.247062 -0.212886 0.388768 3.000000
0.117684 -0.343824 0.280307 3.000000
-0.092842 -0.189063 -0.405254 3.000000
-0.107568 -0.396245 0.199814 3.000000
-0.010084 -0.309001 -0.322292 3.000000
0.145418 0.316087 0.311878 3.000000
-0.015719 0.095249 0.432849 3.000000
-0.003224 -0.394765 -0.207073 3.000000
-0.088119 0.381378 -0.232782 3.000000
0.268765 -0.425953 -0.130077 3.000000
-0.236916 -0.358219 0.261748 3.000000
0.204323 -0.444852 -0.004414 3.000000
0.109092 0.284561 0.340933 3.000000
0.047407 0.432746 -0.109404 3.000000
0.195361 -0.136742 -0.425925 3.000000
0.247271 0.273884 0.349227 3.000000
0.063736 -0.318785 0.308155 3.000000
-0.122464 0.186503 -0.406805 3.000000
-0.153616 -0.434115 -0.098695 3.000000
-0.276292 0.417730 -0.157647 3.000000
-0.115044 -0.373015 -0.244628 3.000000
-0.083009 0.443973 -0.041732 3.000000
-0.091161 0.271656 -0.355309 3.000000
0.108842 0.243110 0.371252 3.000000
0.095014 0.146358 -0.422859 3.000000
-0.134326 -0.367130 -0.253287 3.000000
-0.240185 0.133992 0.422668 3.000000
0.103713 0.409757 0.173147 3.000000
0.211309 -0.361513 0.257200 3.000000
-0.104033 0.099446 -0.436264 3.000000
-0.015741 -0.143286 0.419242 3.000000
-0.000800 -0.386356 0.218279 3.000000
-0.193355 -0.301975 0.324677 3.000000
0.278633 -0.230431 -0.382843 1.000000
-0.027671 -0.083890 0.435159 3.000000
0.257567 0.055199 0.439854 3.000000
0.031359 0.307643 -0.324675 3.000000
0.029907 0.285960 -0.344053 3.000000
0.225405 0.125794 0.425050 3.000000
0.202803 -0.443593 -0.034913 3.000000
-0.092832 -0.382461 0.224866 3.000000
0.221688 -0.406481 0.178349 3.000000
0.128616 -0.175267 0.406870 3.000000
0.135833 0.445833 -0.005804 3.000000
0.200088 0.139867 0.420842 3.000000
-0.147292 -0.136782 -0.425913 3.000000
-0.123699 0.136071 0.422064 3.000000
-0.158679 0.394721 0.204817 3.000000
0.185487 0.259525 0.360096 3.000000
-0.249881 0.445743 -0.008671 3.000000
0.142771 -0.431693 0.105179 3.000000
0.285881 0.445823 0.001778 1.000000
-0.175328 -0.378799 -0.235412 3.000000
-0.267002 -0.376268 0.235337 3.000000
-0.235741 0.216381 -0.391758 3.000000
0.081032 -0.055708 -0.444037 3.000000
0.151904 0.440738 -0.068718 3.000000
-0.001420 0.351430 0.271823 3.000000
-0.087724 0.028556 -0.446726 3.000000
-0.192147 0.229909 0.379404 3.000000
-0.236859 0.029641 -0.446623 3.000000
-0.185277 0.347058 -0.281812 3.000000
0.179388 -0.359766 -0.264107 3.000000
-0.254825 0.397349 0.199659 3.000000
-0.260657 -0.328453 0.297916 3.000000
0.028200 0.175347 0.407279 3.000000
0.114712 0.439536 -0.076311 3.000000
-0.159359 0.166542 0.411089 3.000000
-0.179156 -0.165139 -0.415606 3.000000
0.119778 -0.344813 -0.283385 3.000000
-0.210966 0.376033 -0.241696 3.000000
0.099712 0.101389 0.431477 3.000000
-0.170257 -0.117481 -0.431521 3.000000
-0.152085 -0.087284 0.434400 3.000000
-0.072617 0.420242 -0.150669 3.000000
0.105070 -0.288218 -0.341159 3.000000
0.256081 -0.411723 0.166234 3.000000
0.248417 -0.054548 -0.444172 3.000000
-0.056442 0.429203 -0.122419 3.000000
-0.099954 0.015123 0.442799 3.000000
0.256849 0.177782 0.406226 3.000000
0.178147 -0.042301 -0.445330 3.000000
0.069320 -0.426909 0.122435 3.000000
0.093619 0.441620 0.058798 3.000000
-0.057891 0.332957 -0.298323 3.000000
0.056552 0.186351 0.402517 3.000000
0.086578 -0.157111 0.414265 3.000000
-0.143472 -0.385334 0.220008 3.000000
0.005960 0.290070 -0.340430 3.000000
0.067233 -0.385220 -0.224553 3.000000
-0.168946 0.405881 -0.186457 3.000000
0.234197 0.443418 -0.047608 3.000000
-0.114915 -0.422253 -0.142237 3.000000
-0.254866 -0.343506 -0.285070 3.000000
0.229597 -0.366497 0.249866 3.000000
0.086728 -0.232372 0.377342 3.000000
-0.128121 -0.191965 0.399428 3.000000
0.208171 0.360658 0.259925 3.000000
0.009667 0.085489 0.435031 3.000000
-0.151140 0.308589 -0.323729 3.000000
-0.154251 -0.347697 -0.279667 3.000000
0.075767 -0.384948 0.220661 3.000000
0.229248 0.428901 -0.123457 3.000000
-0.263259 -0.433561 -0.101175 3.000000
0.178179 0.068034 -0.442247 3.000000
-0.028775 0.445603 -0.013131 3.000000
0.178737 0.445348 0.016899 3.000000
0.055322 -0.067800 -0.442122 3.000000
-0.046519 -0.214012 0.388194 3.000000
0.249509 -0.085536 0.434791 3.000000
-0.216888 0.294914 -0.336159 3.000000
-0.111007 0.203234 -0.398562 3.000000
-0.170121 0.227279 -0.385313 3.000000
0.066525 0.293171 0.333342 3.000000
0.044140 -0.423347 0.134694 3.000000
-0.073803 -0.043999 -0.445169 3.000000
0.160181 0.361322 0.258988 3.000000
-0.062715 -0.442142 0.045913 3.000000
-0.222413 -0.189766 0.400548 3.000000
0.107177 0.326728 0.301034 3.000000
0.176824 -0.257521 -0.365115 3.000000
0.235667 -0.146520 -0.422432 3.000000
0.078510 0.035757 0.441692 3.000000
-0.264484 0.076027 -0.440981 3.000000
0.005251 -0.297446 0.328670 3.000000
-0.019466 0.414899 0.161156 3.000000
0.015892 -0.068083 -0.442077 3.000000
-0.109952 0.411950 0.168078 3.000000
-0.180914 0.341093 0.284741 3.000000
-0.100961 -0.202249 -0.398542 3.000000
-0.139410 -0.333672 -0.296349 3.000000
0.210440 -0.018857 -0.447003 3.000000
0.216278 0.342350 -0.287669 3.000000
-0.032797 -0.248008 -0.371580 3.000000
0.246941 0.080778 -0.440229 3.000000
0.044591 0.327489 -0.304525 3.000000
-0.153800 0.445929 -0.001598 3.000000
0.093877 0.221901 0.384140 3.000000
-0.018939 -0.443891 0.027408 3.000000
-0.231654 -0.380882 0.227535 3.000000
-0.020542 0.278665 -0.349872 3.000000
-0.147232 0.434407 0.097620 3.000000
0.190719 -0.259794 -0.363570 3.000000
-0.264423 0.095583 -0.437128 3.000000
0.217175 0.439463 -0.076770 3.000000
-0.002347 0.117404 0.427487 3.000000
-0.000373 -0.444305 0.017492 3.000000
0.273506 0.277580 -0.350714 3.000000
0.005933 0.084563 -0.439591 3.000000
-0.240245 -0.421937 -0.143114 3.000000
-0.210943 0.209842 0.390841 3.000000
0.097433 -0.441941 0.048039 3.000000
0.155066 0.445779 0.003184 3.000000
-0.143005 0.223521 0.383182 3.000000
-0.245302 0.441164 0.061675 3.000000
-0.271949 0.303288 0.324423 3.000000
-0.207750 0.423922 -0.140446 3.000000
0.062112 -0.166066 -0.415205 3.000000
0.085133 -0.420599 0.142478 3.000000
-0.231504 0.445132 -0.028108 3.000000
-0.071347 0.418535 0.151055 3.000000
-0.263497 0.269086 0.352949 3.000000
-0.121689 0.193174 0.399334 3.000000
0.210005 -0.444236 0.019667 3.000000
-0.098086 0.373962 0.240389 3.000000
-0.046239 0.445407 0.015030 3.000000
-0.007734 -0.296381 0.329609 3.000000
0.158012 0.435869 -0.095436 3.000000
-0.050036 -0.083838 0.435171 3.000000
-0.194942 0.014663 -0.447167 3.000000
0.233874 -0.256772 -0.365624 3.000000
0.254116 0.437854 -0.086555 3.000000
0.176137 0.082344 -0.439981 3.000000
0.175638 -0.366089 -0.254820 3.000000
0.285872 0.421380 0.143155 1.000000
-0.134955 -0.127506 0.424255 3.000000
-0.154198 0.273747 -0.353687 3.000000
0.245215 -0.328990 -0.301659 3.000000
0.215881 -0.322598 -0.308696 3.000000
-0.216875 -0.395264 0.201739 3.000000
0.014959 0.072547 0.437179 3.000000
-0.123819 -0.366231 -0.254611 3.000000
-0.131698 0.432897 -0.108732 3.000000
0.070195 0.058791 -0.443711 3.000000
0.215166 0.042668 0.441038 3.000000
0.105883 0.029957 0.442240 3.000000
0.109048 -0.265084 0.355259 3.000000
-0.249475 0.251440 0.365590 3.000000
0.270043 -0.207701 -0.395763 3.000000
-0.062366 -0.437358 0.079234 3.000000
0.190271 0.366876 -0.255169 3.000000
-0.041107 0.249931 0.366616 3.000000
0.243457 0.210824 -0.394694 3.000000
0.136247 -0.246397 0.368321 3.000000
0.006233 0.429637 0.116571 3.000000
-0.046324 0.183468 0.403765 3.000000
0.214195 0.402586 0.189381 3.000000
0.223493 0.253013 0.364521 3.000000
-0.162798 0.103458 0.431014 3.000000
-0.257423 0.285780 0.339858 3.000000
-0.070515 -0.362290 0.256056 3.000000
-0.288734 -0.383636 0.222878 4.000000
-0.030497 -0.387588 0.216197 3.000000
-0.269923 0.410646 0.171092 3.000000
0.228360 -0.156699 0.414414 3.000000
0.015595 -0.265522 -0.359272 3.000000
-0.270607 -0.374131 -0.242986 3.000000
-0.027582 -0.433344 -0.102143 3.000000
-0.034296 0.425306 0.131479 3.000000
-0.255995 -0.245828 -0.373061 3.000000
-0.284742 -0.042138 0.440992 3.000000
-0.157894 -0.443630 -0.034522 3.000000
0.264192 -0.028931 -0.446593 3.000000
0.094271 0.433627 0.101111 3.000000
0.270792 -0.370834 0.243484 3.000000
-0.151419 0.445196 -0.026093 3.000000
-0.052628 -0.239070 0.373300 3.000000
-0.232483 -0.042357 -0.445324 3.000000
0.284750 0.318017 0.309948 1.000000
-0.015819 0.118083 -0.431643 3.000000
0.003087 0.370409 0.245617 3.000000
0.163019 0.184707 0.403229 3.000000
-0.273811 -0.306175 -0.325119 3.000000
-0.011135 -0.118626 -0.431188 3.000000
-0.236723 -0.088713 -0.438435 3.000000
0.080145 -0.406573 0.178135 3.000000
-0.164369 -0.298100 -0.332447 3.000000
-0.184172 -0.384578 -0.225639 3.000000
-0.269630 -0.072942 -0.441308 3.000000
0.132215 -0.014347 -0.447145 3.000000
-0.204235 -0.220905 0.384124 3.000000
-0.178311 -0.170476 0.408944 3.000000
0.153976 0.132065 0.423228 3.000000
0.089088 0.425293 0.131522 3.000000
0.126136 -0.297790 -0.332720 3.000000
-0.140235 -0.377910 0.232560 3.000000
-0.273031 0.128629 -0.428579 3.000000
0.139926 -0.415669 -0.160523 3.000000
0.286940 0.440755 0.064257 1.000000
0.275743 0.134030 0.422657 3.000000
0.187281 -0.219534 -0.389287 3.000000
0.076834 -0.003259 0.443140 3.000000
-0.095702 -0.207029 0.391752 3.000000
-0.034649 0.445857 -0.005042 3.000000
0.011499 0.390089 0.213701 3.000000
0.192021 0.342697 0.282921 3.000000
0.186780 0.414828 -0.165705 3.000000
0.169390 0.364976 0.253612 3.000000
-0.230557 -0.260679 -0.362969 3.000000
-0.089921 0.006327 0.443076 3.000000
0.248135 -0.336695 -0.292920 3.000000
-0.287147 0.024912 -0.446845 4.000000
0.245843 0.022809 0.442558 3.000000
-0.008163 0.153523 -0.420280 3.000000
-0.112637 -0.038512 0.441334 3.000000
0.028186 -0.140405 -0.424633 3.000000
-0.156158 -0.338825 -0.290504 3.000000
-0.062245 -0.257703 -0.364991 3.000000
-0.022997 -0.183565 -0.407633 3.000000
-0.242813 -0.328075 0.298344 3.000000
-0.126832 0.426122 -0.133024 3.000000
-0.137276 -0.417589 -0.155192 3.000000
0.245843 0.348602 0.275469 3.000000
0.282512 0.237362 0.374997 1.000000
-0.122860 0.442027 -0.060581 3.000000
0.274357 -0.150764 0.416550 3.000000
-0.112199 0.342033 -0.288028 3.000000
-0.270460 -0.104416 0.430571 3.000000
0.070599 0.443134 0.046260 3.000000
0.223565 -0.420150 0.143725 3.000000
-0.251542 0.419252 0.149065 3.000000
-0.043856 0.216139 0.387548 3.000000
-0.015907 0.075486 -0.441067 3.000000
-0.074160 0.342594 0.283038 3.000000
0.285946 -0.438826 -0.074322 1.000000
0.018812 0.059893 -0.443537 3.000000
0.044769 0.201440 -0.399475 3.000000
-0.127276 -0.438379 -0.077144 3.000000
-0.152165 0.426332 -0.132301 3.000000
-0.194116 0.203654 -0.398347 3.000000
-0.041326 0.308163 0.319802 3.000000
-0.008557 0.052998 -0.444415 3.000000
-0.027402 0.160302 -0.417839 3.000000
0.252351 0.375136 0.238661 3.000000
-0.127985 -0.437251 0.079912 3.000000
0.207305 -0.010618 0.442909 3.000000
-0.287140 -0.330344 -0.300124 4.000000
0.116041 0.270249 0.352047 3.000000
-0.244217 -0.013689 -0.447166 3.000000
0.157970 -0.148020 -0.421892 3.000000
0.174664 0.265053 0.356078 3.000000
-0.147242 -0.398325 -0.200085 3.000000
0.010386 -0.009228 -0.447306 3.000000
0.069007 -0.023926 -0.446844 3.000000
-0.027578 -0.254956 -0.366858 3.000000
0.003553 -0.382535 -0.229094 3.000000
0.036120 -0.433684 0.096271 3.000000
0.002997 0.410044 -0.176837 3.000000
0.199728 -0.084489 -0.439379 3.000000
-0.224966 -0.300799 -0.330068 3.000000
-0.059866 -0.231670 0.377757 3.000000
-0.097273 -0.289113 -0.340370 3.000000
0.021320 -0.376734 -0.238903 3.000000
0.282798 0.145952 0.418652 3.000000
-0.289503 -0.342501 0.281981 4.000000
-0.113809 -0.444571 0.009022 3.000000
-0.135523 -0.158316 0.413831 3.000000
0.180742 0.269648 -0.356867 3.000000
-0.272160 0.089157 -0.438564 3.000000
-0.117984 0.115854 -0.432291 3.000000
-0.119497 0.390056 -0.218109 3.000000
-0.050089 -0.436873 0.082003 3.000000
-0.265951 -0.054144 0.439857 3.000000
-0.206723 -0.420639 0.142366 3.000000
0.202118 0.200809 0.395444 3.000000
0.004168 0.248725 0.367435 3.000000
-0.244338 -0.287958 -0.341389 3.000000
-0.053365 0.301251 0.326219 3.000000
-0.196479 -0.113461 -0.432688 3.000000
-0.225780 0.207804 -0.396233 3.000000
-0.008008 0.278846 -0.349732 3.000000
-0.134802 0.205253 0.393179 3.000000
-0.245533 -0.289137 0.335995 3.000000
0.044080 0.097861 0.432265 3.000000
0.286716 0.173245 -0.412542 1.000000
0.009496 0.329882 -0.301811 3.000000
0.105775 0.362026 -0.262306 3.000000
-0.159998 -0.028170 0.442312 3.000000
-0.210767 -0.050228 -0.444580 3.000000
-0.015194 0.423615 0.136945 3.000000
-0.226748 -0.348201 -0.279017 3.000000
-0.204192 -0.441472 -0.057352 3.000000
-0.130241 0.442627 0.051619 3.000000
-0.137025 -0.409512 0.171345 3.000000
0.208586 0.435909 -0.095253 3.000000
-0.288981 -0.124046 -0.429613 4.000000
-0.093212 -0.069263 -0.441890 3.000000
0.096695 0.195039 0.398384 3.000000
-0.141731 0.314123 -0.318196 3.000000
-0.187659 -0.149809 0.416894 3.000000
0.125405 0.444776 0.028884 3.000000
-0.209707 -0.178331 0.405544 3.000000
-0.091042 0.443521 0.042162 3.000000
0.285539 0.355671 0.266355 1.000000
-0.272832 0.263382 0.357374 3.000000
0.019358 0.006181 0.443080 3.000000
0.148009 -0.426248 0.124711 3.000000
0.168290 -0.245133 -0.373534 3.000000
0.018209 -0.145109 0.418586 3.000000
-0.007830 -0.080850 -0.440055 3.000000
0.274316 0.016631 0.442752 3.000000
-0.153849 -0.150816 -0.420885 3.000000
-0.164720 0.414835 0.161333 3.000000
-0.251123 -0.263592 0.356416 3.000000
0.180842 -0.266093 -0.358829 3.000000
-0.056732 -0.192639 0.399085 3.000000
0.219129 -0.074822 0.436656 3.000000
0.201728 -0.422516 -0.141506 3.000000
0.190977 0.117592 -0.431786 3.000000
-0.241499 0.445000 -0.030874 3.000000
-0.165348 -0.419219 -0.150663 3.000000
-0.091102 -0.408399 0.173915 3.000000
-0.142624 -0.230305 -0.382918 3.000000
-0.077812 0.436505 -0.092590 3.000000
-0.201928 0.170673 -0.413655 3.000000
-0.170805 0.341142 0.284686 3.000000
-0.015741 -0.032146 -0.446290 3.000000
0.203137 0.445738 0.004497 3.000000
-0.011342 0.354444 -0.272290 3.000000
0.211035 -0.444221 -0.024502 3.000000
0.173780 -0.435932 0.086215 3.000000
0.035988 -0.439273 0.067145 3.000000
0.094204 0.078143 0.436293 3.000000
0.016231 -0.244007 -0.374299 3.000000
0.010244 0.409846 0.172940 3.000000
0.177683 -0.294056 -0.336012 3.000000
0.077249 0.382440 0.226634 3.000000
-0.178224 0.077075 -0.440815 3.000000
0.041890 0.340807 0.285066 3.000000
-0.042352 0.110357 -0.433825 3.000000
0.151309 -0.441658 -0.055387 3.000000
0.167909 -0.217889 -0.390260 3.000000
0.276735 0.179576 -0.409803 1.000000
-0.080769 -0.198226 0.396238 3.000000
0.224321 -0.223266 -0.387080 3.000000
0.285523 0.198051 0.396849 1.000000
0.186153 0.086793 -0.439093 3.000000
-0.088696 0.350371 -0.277541 3.000000
0.028384 0.243914 0.370705 3.000000
-0.275037 -0.391787 -0.212916 3.000000
0.262424 0.302798 -0.329209 3.000000
0.237523 -0.059403 -0.443452 3.000000
-0.088063 0.445729 -0.009128 3.000000
0.271068 -0.407053 -0.181381 3.000000
-0.269222 -0.068367 0.437679 3.000000
0.213651 -0.225949 0.381140 3.000000
0.051440 0.445829 -0.005929 3.000000
0.049632 0.032140 0.442034 3.000000
0.178884 0.391950 -0.214608 3.000000
0.068228 0.123745 0.425645 3.000000
-0.212888 0.441310 0.060757 3.000000
-0.289686 0.445610 0.008562 4.000000
0.034746 -0.318627 -0.312667 3.000000
-0.172256 -0.444744 0.003504 3.000000
-0.233689 -0.047670 0.440469 3.000000
-0.077350 -0.406142 0.179133 3.000000
0.063398 0.420091 0.146734 3.000000
0.134528 0.258912 0.360512 3.000000
-0.172900 -0.131863 0.422989 3.000000
-0.038676 -0.021775 0.442558 3.000000
0.248338 -0.141237 -0.424334 3.000000
-0.118155 0.280802 0.343861 3.000000
-0.049037 0.289585 0.336504 3.000000
-0.136638 -0.024931 0.442459 3.000000
0.032084 0.091388 -0.438066 3.000000
0.019848 0.315235 -0.317084 3.000000
0.264780 0.366258 -0.256078 3.000000
-0.043561 -0.409345 -0.176083 3.000000
-0.288510 -0.135086 0.422052 4.000000
0.214234 -0.422336 0.137651 3.000000
0.019734 -0.444138 -0.027144 3.000000
0.285949 -0.265873 0.354646 1.000000
-0.047746 0.380778 -0.233797 3.000000
-0.023750 -0.024052 -0.446840 3.000000
-0.015469 -0.094900 -0.437052 3.000000
-0.276097 -0.328904 -0.301757 3.000000
-0.021897 0.340932 -0.289277 3.000000
0.150703 0.322806 0.305159 3.000000
-0.228290 -0.444408 0.014194 3.000000
-0.092216 0.041560 -0.445497 3.000000
-0.176249 -0.014538 0.442785 3.000000
-0.154544 0.383753 0.224414 3.000000
-0.257554 0.438996 -0.079719 3.000000
-0.216340 -0.307675 -0.323618 3.000000
0.259487 -0.170994 -0.413073 3.000000
-0.188537 0.290736 0.335489 3.000000
-0.144878 -0.403721 -0.189080 3.000000
-0.197365 -0.261191 0.358267 3.000000
0.247982 -0.329847 0.296334 3.000000
0.033416 -0.228146 -0.384194 3.000000
0.270322 -0.351454 -0.274823 3.000000
-0.198660 -0.431208 0.107348 3.000000
-0.014498 -0.321216 0.305725 3.000000
-0.182313 0.279997 0.344486 3.000000
-0.031584 0.028926 0.442337 3.000000
-0.039487 0.438662 -0.081827 3.000000
0.035345 -0.406154 -0.183457 3.000000
0.218678 0.105729 0.430507 3.000000
0.031326 -0.421657 -0.143893 3.000000
-0.207774 0.203169 -0.398595 3.000000
0.146516 0.401062 -0.196725 3.000000
0.226222 0.384545 0.223074 3.000000
-0.021162 -0.236741 0.374758 3.000000
0.050123 -0.230094 0.378689 3.000000
0.045339 0.419772 -0.151974 3.000000
0.263061 -0.444546 0.009795 3.000000
-0.030662 -0.430298 -0.115122 3.000000
0.198171 0.071610 -0.441681 3.000000
0.069864 0.445367 -0.020655 3.000000
-0.147391 0.343211 0.282339 3.000000
0.286127 0.435088 0.094576 1.000000
0.069876 -0.439512 0.065639 3.000000
-0.195473 0.349369 -0.278832 3.000000
-0.153250 -0.017259 0.442700 3.000000
0.279908 0.071340 -0.441724 1.000000
-0.041781 0.046023 -0.445075 3.000000
-0.205198 0.041045 -0.445545 3.000000
-0.026681 -0.426206 0.124854 3.000000
-0.050740 0.242372 0.371753 3.000000
-0.040116 0.059783 -0.443554 3.000000
-0.274481 -0.398987 0.194432 3.000000
0.240342 -0.050487 0.440202 3.000000
0.100426 0.370521 0.245452 3.000000
0.140195 0.375304 0.238414 3.000000
-0.017148 -0.408149 0.174494 3.000000
-0.006301 0.339185 -0.291258 3.000000
-0.144385 0.329428 -0.302325 3.000000
0.049561 -0.420136 0.143762 3.000000
0.223954 -0.293457 0.332187 3.000000
-0.200015 -0.383288 -0.227820 3.000000
0.026529 -0.244794 0.369410 3.000000
0.182698 0.376176 0.237131 3.000000
-0.241423 -0.439553 -0.069731 3.000000
-0.197098 0.075332 0.436738 3.000000
0.138972 -0.094016 -0.437249 3.000000
-0.110727 0.292726 -0.338088 3.000000
-0.223037 0.393904 -0.210773 3.000000
0.200951 -0.444355 -0.020252 3.000000
0.179120 -0.261430 0.358093 3.000000
-0.020919 0.052604 0.440099 3.000000
0.040031 -0.187675 0.401501 3.000000
0.195174 0.247306 -0.372754 3.000000
-0.119693 -0.210691 -0.394240 3.000000
-0.214201 0.278412 -0.350069 3.000000
-0.081545 -0.311544 0.315397 3.000000
0.285380 -0.238663 -0.377931 1.000000
-0.189050 0.395496 -0.207650 3.000000
-0.139979 -0.025651 -0.446790 3.000000
-0.208666 -0.352942 0.268551 3.000000
0.232700 0.423243 -0.142333 3.000000
0.217989 0.445315 -0.022313 3.000000
0.150478 -0.177615 -0.410208 3.000000
0.006037 0.308118 0.319847 3.000000
-0.028732 -0.441522 -0.056819 3.000000
-0.070744 -0.228872 -0.383765 3.000000
0.089258 -0.064948 -0.442574 3.000000
-0.149409 0.351002 0.272374 3.000000
0.053373 -0.005803 0.443060 3.000000
-0.273085 -0.002087 -0.447530 3.000000
0.132605 -0.387433 0.216458 3.000000
0.167595 0.415249 0.160184 3.000000
0.068035 0.342084 -0.287970 3.000000
-0.163917 0.145994 0.418637 3.000000
0.190089 0.443998 -0.041475 3.000000
0.067685 -0.243139 0.370535 3.000000
0.087494 0.277064 -0.351114 3.000000
0.077229 0.065658 0.438270 3.000000
0.154443 -0.221348 -0.388214 3.000000
-0.131447 -0.105402 0.430351 3.000000
0.268076 0.149486 -0.421733 3.000000
0.001445 -0.125784 -0.429108 3.000000
0.257321 -0.248581 -0.371190 3.000000
0.138241 -0.067337 -0.442195 3.000000
0.243055 0.434128 0.098868 3.000000
-0.252698 -0.273012 0.349109 3.000000
0.195457 0.238796 -0.378502 3.000000
-0.040828 0.357289 0.264270 3.000000
-0.010155 -0.169895 0.409195 3.000000
0.125460 0.445499 -0.016450 3.000000
0.251647 -0.435772 0.086929 3.000000
-0.221159 0.430109 0.114947 3.000000
0.274911 0.439829 -0.074460 3.000000
-0.289234 0.443033 -0.051676 4.000000
0.095630 -0.436915 -0.086168 3.000000
-0.134858 0.028300 -0.446739 3.000000
0.218015 0.444762 0.029036 3.000000
0.116098 -0.430101 -0.115800 3.000000
0.085963 -0.442889 0.038008 3.000000
-0.260319 0.114331 0.428380 3.000000
-0.235010 0.415350 0.159902 3.000000
-0.047461 0.064578 0.438441 3.000000
-0.125165 -0.335468 0.289959 3.000000
-0.060378 -0.312759 0.314181 3.000000
0.087945 0.394746 -0.209120 3.000000
0.090738 0.444518 0.031615 3.000000
0.045850 -0.123940 0.425291 3.000000
-0.044829 0.297175 0.329813 3.000000
0.146331 -0.394424 -0.207742 3.000000
-0.140310 -0.316428 -0.314866 3.000000
0.078804 -0.325367 0.301416 3.000000
-0.005998 0.018967 0.442678 3.000000
0.198492 0.001151 -0.447592 3.000000
0.171578 0.327354 0.300324 3.000000
0.091275 -0.054037 -0.444220 3.000000
-0.177860 0.342044 -0.288016 3.000000
0.207741 0.345243 0.279799 3.000000
-0.125859 -0.246008 0.368585 3.000000
0.147474 -0.371408 -0.246993 3.000000
0.087102 0.037840 -0.445848 3.000000
-0.031700 -0.443732 0.029088 3.000000
-0.176764 0.154571 0.415549 3.000000
-0.066839 0.269579 0.352567 3.000000
0.133310 0.098120 -0.436561 3.000000
-0.018866 0.221172 -0.388925 3.000000
-0.260895 0.128922 -0.428494 3.000000
-0.131195 0.192705 0.399573 3.000000
-0.167428 -0.343719 0.280442 3.000000
0.271580 -0.286851 0.338011 3.000000
-0.100006 -0.152000 0.416105 3.000000
0.086444 -0.374362 -0.242646 3.000000
0.278612 -0.354602 -0.270765 1.000000
0.091956 0.351334 0.271946 3.000000
0.239228 -0.158490 0.413769 3.000000
-0.155425 0.432812 0.104758 3.000000
0.096694 -0.142359 0.419576 3.000000
0.260766 -0.324130 0.302810 3.000000
-0.228456 -0.386191 -0.222911 3.000000
-0.147968 -0.416631 -0.157853 3.000000
0.034253 -0.442409 -0.047444 3.000000
-0.160737 0.375832 0.237638 3.000000
-0.112113 0.221427 -0.388774 3.000000
0.056462 0.008599 0.443004 3.000000
0.019146 0.301200 -0.330617 3.000000
-0.149006 -0.333079 -0.297022 3.000000
0.128994 -0.382603 0.224626 3.000000
-0.230723 -0.434800 -0.095634 3.000000
0.015950 0.339079 0.287025 3.000000
0.193885 -0.419252 -0.150571 3.000000
0.176887 0.212268 -0.393959 3.000000
0.265278 -0.333211 -0.296872 3.000000
0.264285 0.027799 -0.446754 3.000000
-0.205718 0.437264 0.084838 3.000000
0.064549 -0.311876 -0.319418 3.000000
0.014343 0.241609 0.372272 3.000000
-0.083169 0.432565 0.105860 3.000000
-0.074453 -0.420709 -0.146526 3.000000
-0.007612 0.433802 -0.104680 3.000000
0.030906 -0.329957 -0.300564 3.000000
0.194091 0.183036 0.403952 3.000000
0.046267 0.182303 -0.408623 3.000000
0.106160 0.442094 0.055801 3.000000
-0.272501 -0.335421 -0.294366 3.000000
0.118386 -0.444201 -0.025136 3.000000
0.093781 -0.285442 -0.343607 3.000000
0.205737 0.353282 0.269434 3.000000
0.252349 0.186401 -0.406849 3.000000
-0.180787 -0.375775 0.236171 3.000000
0.027842 -0.043814 -0.445187 3.000000
0.139175 0.267135 0.354463 3.000000
0.004036 -0.201656 0.394490 3.000000
-0.049595 -0.016471 -0.447078 3.000000
-0.161579 -0.304783 0.322157 3.000000
-0.089174 0.021182 0.442609 3.000000
0.084864 0.304623 0.323246 3.000000
-0.125246 0.418067 -0.156708 3.000000
-0.023289 -0.137344 0.421382 3.000000
-0.069595 -0.444210 0.020502 3.000000
-0.079409 0.404216 0.185951 3.000000
0.039285 0.395058 -0.208509 3.000000
-0.267137 -0.234948 0.375818 3.000000
-0.027221 -0.439876 -0.067692 3.000000
0.064383 -0.396815 0.198696 3.000000
-0.240400 0.301058 0.326389 3.000000
-0.190488 -0.090314 -0.438077 3.000000
-0.286893 0.111826 0.429108 4.000000
0.183400 -0.071455 -0.441543 3.000000
-0.209201 -0.248123 -0.371501 3.000000
-0.276818 0.416386 0.157027 3.000000
-0.037828 0.083459 0.435451 3.000000
0.126138 0.367264 0.250245 3.000000
0.090373 0.060153 0.439142 3.000000
-0.040010 -0.444834 -0.004987 3.000000
0.051926 -0.170907 -0.413111 3.000000
-0.220483 -0.306388 0.320552 3.000000
0.233842 -0.395445 0.201383 3.000000
0.240735 0.265198 0.355965 3.000000
-0.077684 0.430115 -0.119280 3.000000
0.272688 0.376216 0.237072 3.000000
0.234719 0.346966 0.277577 3.000000
0.003681 -0.058371 0.439262 3.000000
-0.243998 0.426205 0.128386 3.000000
-0.136941 0.348038 0.276196 3.000000
0.190493 -0.118495 0.426873 3.000000
0.249218 -0.192392 -0.403564 3.000000
-0.290262 0.074263 0.436907 4.000000
0.255668 -0.289456 -0.340068 3.000000
-0.012837 -0.003695 0.443126 3.000000
0.180780 0.392421 0.209330 3.000000
0.270329 -0.062424 0.438620 3.000000
0.145721 -0.248815 0.366678 3.000000
0.099638 0.445874 -0.004498 3.000000
-0.180297 -0.439284 -0.071430 3.000000
0.026495 0.227337 -0.385279 3.000000
0.118554 -0.150327 -0.421061 3.000000
0.282022 -0.305016 -0.326278 1.000000
0.159587 -0.259312 -0.363898 3.000000
0.019301 -0.395682 0.200919 3.000000
0.073943 0.280641 -0.348339 3.000000
0.038798 0.235357 0.376183 3.000000
-0.253164 0.000706 0.443252 3.000000
0.221987 0.034616 0.441799 3.000000
-0.092076 -0.226550 0.380785 3.000000
-0.058022 0.093220 -0.437656 3.000000
0.147503 -0.386758 -0.221954 3.000000
0.070286 0.401462 0.191586 3.000000
-0.020107 -0.438581 -0.075867 3.000000
-0.151246 0.132901 0.422985 3.000000
0.050528 0.334107 0.292665 3.000000
0.113941 -0.260008 -0.363424 3.000000
0.186264 0.060377 -0.443460 3.000000
-0.109339 0.432959 -0.108452 3.000000
-0.063977 0.385354 -0.226060 3.000000
-0.169387 0.196476 0.397652 3.000000
0.230641 0.026856 0.442430 3.000000
0.140616 -0.109329 -0.433826 3.000000
-0.267725 0.166244 0.411218 3.000000
0.177512 -0.284958 0.339680 3.000000
-0.150925 -0.423728 0.133381 3.000000
0.205588 0.149656 -0.421672 3.000000
-0.242352 -0.441961 0.047829 3.000000
-0.247938 -0.441143 -0.059695 3.000000
0.268058 -0.165876 0.410934 3.000000
-0.195923 -0.375240 0.237000 3.000000
0.029347 -0.324914 0.301930 3.000000
-0.123771 0.430907 -0.116553 3.000000
0.285122 0.045056 0.440813 1.000000
0.228380 0.270509 0.351845 3.000000
0.258354 -0.425930 -0.130158 3.000000
0.161513 -0.275124 -0.351824 3.000000
0.152242 0.393088 0.208021 3.000000
-0.057079 -0.151456 -0.420655 3.000000
-0.027685 -0.350517 -0.276031 3.000000
-0.087534 -0.403797 0.184550 3.000000
-0.194873 -0.400329 0.191799 3.000000
-0.278603 -0.283427 0.341029 3.000000
0.089189 0.399477 -0.199835 3.000000
0.056990 0.288549 -0.341770 3.000000
-0.221566 0.405169 0.183749 3.000000
0.014204 0.114363 -0.432724 3.000000
0.086395 0.314995 0.312970 3.000000
0.255853 0.429942 0.115521 3.000000
-0.129994 0.443784 0.039385 3.000000
-0.109325 0.252847 -0.368987 3.000000
0.034584 -0.444700 0.004918 3.000000
0.011067 -0.440692 -0.062538 3.000000
-0.192566 -0.438384 -0.077114 3.000000
0.255920 0.420998 0.144216 3.000000
-0.217756 -0.424865 -0.133821 3.000000
-0.110739 -0.298097 0.328096 3.000000
-0.263904 -0.441229 0.054796 3.000000
-0.188598 0.285458 -0.344495 3.000000
0.264242 0.034495 0.441811 3.000000
0.037622 -0.286361 -0.342796 3.000000
0.158591 -0.313926 -0.317367 3.000000
-0.032455 0.445087 0.025212 3.000000
-0.201959 -0.405190 0.181331 3.000000
-0.143721 0.032739 -0.446330 3.000000
0.175600 0.418124 -0.156552 3.000000
0.217350 0.444734 -0.033686 3.000000
-0.084599 -0.062837 0.438555 3.000000
-0.188912 0.430071 -0.119431 3.000000
0.240084 -0.163618 -0.416264 3.000000
-0.052743 -0.219143 -0.389519 3.000000
0.061879 0.188472 -0.405953 3.000000
0.243025 -0.349540 0.272938 3.000000
-0.056361 -0.294814 0.330990 3.000000
-0.001698 -0.005739 0.443062 3.000000
0.003970 0.053094 -0.444406 3.000000
0.269902 -0.053322 -0.444288 3.000000
-0.042289 0.344103 0.281269 3.000000
0.083639 -0.178629 -0.409769 3.000000
-0.288363 0.273530 0.349502 4.000000
0.065267 0.376922 -0.240318 3.000000
0.064973 -0.084222 0.435085 3.000000
-0.084207 0.421344 0.143253 3.000000
0.104848 0.107630 -0.434435 3.000000
-0.100992 -0.219701 0.384835 3.000000
0.256616 -0.152528 -0.420269 3.000000
0.151008 -0.004436 0.443103 3.000000
0.076926 0.100234 0.431735 3.000000
-0.124751 0.371597 -0.248223 3.000000
-0.035540 -0.361700 0.256925 3.000000
-0.117915 0.384831 0.222590 3.000000
-0.054070 0.445873 0.000190 3.000000
0.019213 -0.363754 -0.258255 3.000000
-0.151937 -0.419380 0.145863 3.000000
-0.195088 0.141806 -0.424498 3.000000
0.023889 -0.316352 -0.314942 3.000000
0.103861 -0.227440 -0.384612 3.000000
-0.017843 -0.205727 -0.396769 3.000000
0.114241 0.443960 -0.041871 3.000000
0.043256 0.399133 0.196156 3.000000
0.139863 -0.437722 0.076938 3.000000
-0.001120 -0.440101 0.061919 3.000000
0.054750 -0.394299 0.203634 3.000000
0.183270 0.205482 0.393063 3.000000
0.285762 -0.442369 0.043504 1.000000
0.239274 -0.323976 -0.307317 3.000000
-0.193773 -0.387321 -0.221001 3.000000
0.160847 -0.376712 0.234587 3.000000
0.074445 0.445012 -0.030748 3.000000
0.078249 -0.424772 0.129788 3.000000
0.061253 -0.308169 0.318772 3.000000
0.109377 0.079872 -0.440372 3.000000
-0.113329 0.007477 0.443039 3.000000
-0.007570 0.348509 -0.279942 3.000000
-0.063343 0.445770 -0.007835 3.000000
0.239650 -0.171889 0.408332 3.000000
-0.213963 0.255548 0.362799 3.000000
0.128193 0.389911 0.214002 3.000000
0.067238 0.380055 0.230667 3.000000
0.200435 -0.310623 -0.320671 3.000000
0.227350 0.305056 -0.327218 3.000000
-0.088793 -0.275488 -0.351542 3.000000
0.186423 -0.325146 -0.306020 3.000000
-0.041740 -0.169467 -0.413734 3.000000
-0.063967 0.307153 0.320812 3.000000
-0.118139 -0.139649 0.420552 3.000000
0.030480 -0.086524 0.434570 3.000000
-0.027832 0.433541 0.101496 3.000000
0.051113 -0.427099 -0.126132 3.000000
-0.028916 -0.376019 -0.240111 3.000000
-0.036829 0.019246 0.442670 3.000000
0.030209 0.428245 0.121361 3.000000
0.275601 -0.444075 -0.029141 3.000000
0.208784 0.367265 0.250244 3.000000
-0.052605 0.316387 -0.315932 3.000000
-0.133773 -0.046496 0.440580 3.000000
0.250185 -0.214672 0.387810 3.000000
0.111103 -0.068151 0.437713 3.000000
-0.183127 -0.138738 -0.425234 3.000000
-0.005430 -0.095880 -0.436833 3.000000
0.077677 0.442173 0.055306 3.000000
-0.043303 0.417588 0.153687 3.000000
-0.195767 -0.442343 0.043781 3.000000
0.132791 -0.290130 -0.339474 3.000000
-0.136329 0.337719 -0.292921 3.000000
-0.206243 0.191645 -0.404467 3.000000
0.247847 -0.039055 0.441283 3.000000
-0.177314 -0.369950 0.244785 3.000000
-0.232278 -0.386059 0.218782 3.000000
-0.244727 0.152936 -0.420491 3.000000
0.004761 0.309276 -0.323043 3.000000
0.071817 -0.202582 0.394019 3.000000
0.180329 -0.207588 0.391468 3.000000
0.117359 -0.429075 0.114979 3.000000
0.227394 0.099878 0.431814 3.000000
0.001276 0.443736 -0.044240 3.000000
0.121667 -0.291104 0.334262 3.000000
-0.003423 0.162065 0.412851 3.000000
-0.028708 0.151133 0.416787 3.000000
-0.075159 0.349914 -0.278130 3.000000
-0.097393 0.399407 -0.199972 3.000000
-0.092021 -0.145977 -0.422627 3.000000
0.143350 -0.344978 0.278820 3.000000
-0.132067 0.445296 -0.022902 3.000000
0.112030 -0.207551 -0.395840 3.000000
0.049125 -0.311053 0.315887 3.000000
0.046296 -0.444122 0.023292 3.000000
0.217444 -0.439348 0.066675 3.000000
-0.050040 -0.256282 -0.365957 3.000000
-0.253136 0.394377 -0.209846 3.000000
0.063142 -0.442940 -0.041823 3.000000
0.117543 -0.176300 0.406423 3.000000
-0.162553 0.211998 0.389743 3.000000
0.176995 0.327522 -0.304487 3.000000
-0.175622 -0.271066 -0.354972 3.000000
0.078837 -0.134646 0.422180 3.000000
-0.003788 0.385204 0.221960 3.000000
-0.135911 0.331583 0.295528 3.000000
-0.107257 0.435744 0.091641 3.000000
-0.083394 0.097570 -0.436684 3.000000
-0.008647 -0.317105 -0.314189 3.000000
0.173230 -0.070036 -0.441768 3.000000
0.179988 -0.413639 0.161807 3.000000
-0.014893 0.007691 0.443033 3.000000
0.160000 0.329937 0.297395 3.000000
-0.230834 -0.183578 0.403274 3.000000
0.129045 -0.340740 -0.288332 3.000000
-0.003461 -0.047572 0.440478 3.000000
0.199700 -0.343724 -0.284789 3.000000
0.219937 -0.428858 -0.120080 3.000000
0.260883 0.328237 0.299323 3.000000
0.006616 -0.145115 0.418584 3.000000
-0.073895 0.270213 -0.356429 3.000000
-0.263188 -0.177213 0.406028 3.000000
-0.190423 0.439851 0.069966 3.000000
0.208565 -0.348217 -0.278996 3.000000
0.055699 -0.145691 0.418377 3.000000
-0.076248 -0.321714 -0.309580 3.000000
-0.102513 -0.187185 0.401713 3.000000
0.160422 0.001920 0.443214 3.000000
-0.200149 0.050523 -0.444649 3.000000
-0.062373 0.227607 0.380766 3.000000
-0.100282 0.418959 0.149877 3.000000
-0.131920 0.313623 0.314342 3.000000
0.106031 -0.430280 -0.115182 3.000000
0.185868 0.196687 -0.401898 3.000000
-0.179140 -0.398592 0.195208 3.000000
-0.047830 0.267288 -0.358697 3.000000
0.038247 -0.444640 -0.011172 3.000000
-0.084621 -0.173373 0.407690 3.000000
0.044989 -0.436911 0.081834 3.000000
-0.213030 0.431924 0.108699 3.000000
0.141209 -0.223396 -0.387004 3.000000
0.243706 -0.438997 -0.073243 3.000000
0.068901 0.150833 0.416895 3.000000
0.061001 -0.041851 0.441019 3.000000
-0.158121 -0.182687 0.403660 3.000000
-0.112201 -0.110763 -0.433472 3.000000
0.186434 0.137561 -0.425984 3.000000
0.006742 -0.400844 0.190788 3.000000
-0.122791 -0.410146 -0.174233 3.000000
-0.046809 0.398158 0.198070 3.000000
0.229789 0.339916 -0.290430 3.000000
0.113443 0.439275 0.073605 3.000000
0.082100 0.139668 -0.425268 3.000000
-0.182206 -0.414957 0.158148 3.000000
-0.135808 -0.339048 0.285898 3.000000
0.212239 -0.343628 0.280559 3.000000
-0.075384 0.375650 0.237905 3.000000
-0.248452 -0.097546 -0.436460 3.000000
-0.217260 -0.368103 -0.251856 3.000000
-0.256219 -0.344565 0.279352 3.000000
0.157330 0.397206 -0.204292 3.000000
0.080983 -0.435077 -0.094394 3.000000
0.263029 0.233683 0.377173 3.000000
-0.211722 0.069452 0.437669 3.000000
0.000753 -0.425558 0.127083 3.000000
0.175826 -0.444305 0.017473 3.000000
0.136259 -0.336879 0.288359 3.000000
-0.118869 -0.422607 0.136900 3.000000
0.170635 -0.414893 0.158326 3.000000
0.285054 -0.034726 0.441692 1.000000
0.209573 -0.130731 -0.427671 3.000000
-0.173932 -0.439428 0.066165 3.000000
0.060682 -0.181825 -0.408386 3.000000
0.053281 0.344217 0.281121 3.000000
-0.161509 -0.443881 0.027519 3.000000
-0.195004 0.307485 -0.324834 3.000000
-0.068167 0.075584 -0.441052 3.000000
-0.251076 0.365667 0.252595 3.000000
-0.145691 -0.367925 0.247764 3.000000
-0.258240 -0.101416 0.431242 3.000000
-0.024340 0.355144 0.267034 3.000000
0.010871 -0.410197 -0.174115 3.000000
0.008218 -0.241040 0.371962 3.000000
0.192367 0.361012 -0.263799 3.000000
-0.217929 0.133232 -0.427242 3.000000
-0.114503 -0.243297 0.370428 3.000000
0.090429 0.069104 -0.442078 3.000000
-0.249411 -0.444341 0.016334 3.000000
0.203227 -0.045130 -0.445062 3.000000
-0.127996 -0.006852 -0.447380 3.000000
-0.126966 0.398084 0.198216 3.000000
-0.080101 -0.227327 0.380326 3.000000
0.240891 -0.443647 0.029987 3.000000
0.156418 0.381233 -0.233028 3.000000
-0.278226 -0.051252 -0.444483 3.000000
0.116854 0.045549 0.440766 3.000000
-0.244406 -0.105416 0.430348 3.000000
-0.103551 -0.185042 -0.406994 3.000000
0.140991 0.407204 -0.183398 3.000000
-0.288125 0.372857 -0.246369 4.000000
-0.198711 -0.106698 0.430061 3.000000
0.209154 0.117715 0.427397 3.000000
0.053643 0.131266 -0.427813 3.000000
-0.208766 -0.004623 -0.447450 3.000000
-0.108423 0.444289 0.034033 3.000000
0.017524 -0.342355 -0.286500 3.000000
0.284700 0.305516 0.322449 1.000000
-0.016317 -0.384823 -0.225225 3.000000
-0.042092 0.413209 0.165170 3.000000
0.019018 0.445149 0.023228 3.000000
-0.202744 -0.443084 0.035950 3.000000
-0.004788 -0.240972 -0.376361 3.000000
-0.133122 -0.444190 0.021145 3.000000
-0.081116 -0.012400 0.442853 3.000000
0.152275 0.097976 0.432240 3.000000
-0.256224 -0.161243 0.412778 3.000000
-0.153683 0.409414 -0.178292 3.000000
-0.029280 -0.367111 0.248963 3.000000
-0.264396 0.384400 -0.227674 3.000000
0.175052 -0.442566 -0.045774 3.000000
-0.259585 -0.138242 0.421058 3.000000
-0.288982 0.136256 0.422010 4.000000
-0.254376 0.344602 -0.284979 3.000000
-0.010996 -0.068037 0.437731 3.000000
0.259389 0.178748 -0.410161 3.000000
-0.258078 -0.444058 -0.029703 3.000000
0.101568 0.096970 -0.436818 3.000000
-0.202343 0.239037 0.374006 3.000000
-0.109317 0.082188 0.435652 3.000000
-0.166078 0.387856 -0.221829 3.000000
-0.028748 -0.176369 0.406394 3.000000
-0.077324 0.436492 0.088292 3.000000
-0.114459 0.166628 -0.415406 3.000000
-0.275706 0.334745 0.291941 3.000000
-0.158505 -0.203490 -0.397909 3.000000
0.196608 0.336772 -0.293995 3.000000
-0.056332 0.428743 0.119648 3.000000
0.136732 -0.257353 -0.365229 3.000000
0.118965 0.292838 -0.337990 3.000000
-0.063500 0.115458 0.428052 3.000000
0.040015 -0.040541 -0.445496 3.000000
0.284669 -0.330162 -0.300331 1.000000
-0.049539 -0.439479 0.065845 3.000000
-0.241763 0.262018 0.358401 3.000000
-0.012666 -0.345009 -0.283133 3.000000
-0.189732 0.005794 -0.447446 3.000000
-0.202354 -0.223354 -0.387028 3.000000
-0.152646 -0.442378 0.043409 3.000000
-0.189788 0.274349 0.348867 3.000000
-0.130761 0.354837 -0.271784 3.000000
0.111014 -0.047406 0.440494 3.000000
0.223516 0.090537 -0.438256 3.000000
0.269992 -0.073394 -0.441236 3.000000
-0.111671 0.445121 -0.028484 3.000000
-0.102959 -0.401850 0.188814 3.000000
-0.094655 0.444905 -0.031872 3.000000
-0.151162 -0.097971 0.432012 3.000000
-0.191601 0.059023 -0.443674 3.000000
-0.137292 0.115651 0.427996 3.000000
0.076728 0.087653 0.434547 3.000000
-0.040312 0.399705 -0.199388 3.000000
0.145217 0.204082 -0.398130 3.000000
0.245748 -0.343728 0.280431 3.000000
-0.232494 -0.288643 -0.340785 3.000000
-0.007807 -0.205618 -0.396825 3.000000
-0.013203 -0.142945 -0.423719 3.000000
0.103190 0.431699 0.109473 3.000000
-0.177737 -0.179446 0.405062 3.000000
