0.260066 0.008303 0.443014 3.000000
0.092027 0.149310 0.417443 3.000000
-0.189817 0.407963 0.177293 3.000000
0.183151 -0.044434 -0.445128 3.000000
-0.094551 0.417571 0.153735 3.000000
0.136619 0.025926 0.442460 3.000000
-0.145466 0.315134 -0.317184 3.000000
-0.125732 0.205667 -0.397322 3.000000
-0.190669 0.442852 0.049239 3.000000
-0.082121 -0.375846 0.236050 3.000000
-0.147972 0.444854 0.028066 3.000000
0.285790 0.442585 -0.056416 1.000000
0.286943 0.445787 -0.007270 1.000000
-0.066707 0.290743 -0.339836 3.000000
0.048899 -0.344180 0.279848 3.000000
0.015967 -0.263227 -0.361052 3.000000
-0.061629 -0.177367 0.405962 3.000000
-0.140101 0.430468 0.113709 3.000000
-0.062224 -0.294215 0.331519 3.000000
0.185577 0.046398 0.440686 3.000000
0.155668 0.237704 0.374795 3.000000
0.168439 0.028953 -0.446688 3.000000
0.162637 0.416859 -0.160064 3.000000
-0.105609 -0.065391 0.438150 3.000000
-0.108471 -0.050798 0.440173 3.000000
0.055843 -0.436919 0.081797 3.000000
0.069248 0.107700 0.430066 3.000000
0.224119 0.354705 0.267601 3.000000
0.013634 -0.418202 -0.153488 3.000000
-0.101223 -0.027586 -0.446721 3.000000
-0.198638 0.304382 0.323459 3.000000
0.217025 0.267256 0.354369 3.000000
0.029756 0.405803 -0.186636 3.000000
-0.005717 0.041672 0.441133 3.000000
0.077147 -0.418800 -0.151828 3.000000
0.178228 -0.442561 -0.045831 3.000000
0.228329 -0.435875 -0.090821 3.000000
-0.063657 0.343029 0.282545 3.000000
-0.156056 0.120404 0.426616 3.000000
0.204705 -0.210060 -0.394561 3.000000
0.169305 -0.320951 -0.310342 3.000000
-0.073143 0.007375 0.443043 3.000000
0.143668 0.282827 0.342291 3.000000
-0.175340 -0.242532 -0.375301 3.000000
-0.032347 -0.080422 0.435769 3.000000
-0.159987 -0.231421 -0.382258 3.000000
0.285908 0.119800 -0.431144 1.000000
-0.036160 0.304639 -0.327585 3.000000
-0.265819 -0.303484 0.323346 3.000000
-0.289963 -0.033065 0.441849 4.000000
-0.049298 -0.022311 0.442541 3.000000
-0.173221 0.046805 0.440647 3.000000
-0.064018 -0.294910 -0.335259 3.000000
0.023402 0.088945 0.434258 3.000000
-0.010075 -0.120990 0.426148 3.000000
-0.071764 0.443301 0.044492 3.000000
0.058486 -0.294353 0.331397 3.000000
-0.094591 -0.444093 0.024238 3.000000
0.078437 -0.440640 0.058513 3.000000
0.049785 -0.431290 0.106983 3.000000
-0.039288 0.408855 0.175232 3.000000
0.093314 -0.321138 -0.310156 3.000000
-0.085989 0.326814 -0.305290 3.000000
0.271465 -0.355185 -0.270013 3.000000
0.218362 -0.089415 -0.438278 3.000000
0.064550 -0.430552 -0.114249 3.000000
-0.200528 0.425350 -0.135681 3.000000
0.117528 0.442123 -0.059972 3.000000
-0.067323 -0.227601 -0.384517 3.000000
0.284050 -0.413329 -0.166876 1.000000
-0.166321 0.254143 0.363754 3.000000
0.078832 -0.396290 -0.204078 3.000000
0.067523 0.252083 0.365153 3.000000
-0.034774 -0.113308 0.428379 3.000000
-0.218607 0.162810 -0.416936 3.000000
-0.123342 -0.443082 0.035968 3.000000
-0.030283 0.049864 0.440358 3.000000
-0.192929 0.096003 -0.437034 3.000000
0.268778 0.068159 -0.442227 3.000000
-0.154394 -0.127176 0.424350 3.000000
0.050877 -0.440215 0.061200 3.000000
0.097458 -0.250106 0.365800 3.000000
-0.144039 -0.431033 -0.112482 3.000000
0.234042 -0.408160 -0.178821 3.000000
0.239940 0.258443 -0.365185 3.000000
-0.037432 -0.274760 -0.352107 3.000000
-0.209237 0.068845 0.437765 3.000000
0.208758 0.443918 -0.042315 3.000000
0.044357 0.219816 0.385373 3.000000
0.264137 -0.240488 -0.376690 3.000000
-0.177057 -0.183097 -0.407835 3.000000
0.208698 0.379165 -0.236526 3.000000
-0.145176 0.047865 0.440547 3.000000
0.237273 -0.319570 -0.311724 3.000000
0.176162 0.317117 0.310848 3.000000
-0.104166 0.041664 -0.445487 3.000000
-0.049465 -0.331006 0.295020 3.000000
-0.141831 -0.163463 0.411978 3.000000
-0.060903 -0.410160 -0.174199 3.000000
0.136014 0.386773 0.219308 3.000000
-0.217746 -0.411801 0.166056 3.000000
0.225459 0.002289 -0.447556 3.000000
0.271859 -0.263410 0.356557 3.000000
-0.191962 0.312955 0.315010 3.000000
-0.239003 0.090350 -0.438298 3.000000
0.017106 -0.056284 0.439593 3.000000
-0.261269 -0.051261 -0.444483 3.000000
0.077058 -0.003513 0.443132 3.000000
-0.273064 -0.315580 0.311360 3.000000
0.079177 0.155230 0.415312 3.000000
-0.010872 0.162003 0.412873 3.000000
-0.285939 -0.200377 0.395142 4.000000
0.168932 0.258548 0.360760 3.000000
-0.185954 0.438861 0.076215 3.000000
0.113736 0.159973 -0.417957 3.000000
0.145315 0.393549 -0.211469 3.000000
0.283962 -0.344977 0.278820 1.000000
0.048941 -0.376275 0.235326 3.000000
0.033732 0.092604 -0.437794 3.000000
0.109071 -0.008304 -0.447335 3.000000
0.100345 0.431478 0.110236 3.000000
0.090300 -0.308181 -0.323112 3.000000
-0.085408 -0.433686 0.096261 3.000000
0.136573 -0.350849 -0.275603 3.000000
-0.010265 0.424809 0.133189 3.000000
0.113917 -0.444187 0.021227 3.000000
-0.182623 -0.168813 0.409663 3.000000
-0.112197 0.428955 -0.123272 3.000000
-0.160925 0.213501 -0.393330 3.000000
0.215238 -0.162606 -0.416640 3.000000
0.078966 -0.091503 0.433457 3.000000
-0.012778 -0.290932 -0.338766 3.000000
0.066487 0.200314 -0.400050 3.000000
0.143652 -0.225080 0.381654 3.000000
-0.234141 -0.280523 0.343283 3.000000
-0.287998 -0.199054 -0.400170 4.000000
0.007579 0.378726 -0.237268 3.000000
-0.184402 -0.237619 -0.378592 3.000000
0.278692 -0.403382 -0.189863 1.000000
0.259439 0.357710 -0.268079 3.000000
-0.272958 0.439992 0.069075 3.000000
0.075840 0.078285 0.436270 3.000000
-0.028977 0.065424 0.438307 3.000000
0.019363 -0.283913 -0.344955 3.000000
0.043214 0.325095 0.302870 3.000000
0.262694 -0.380380 0.228385 3.000000
0.193516 0.429348 0.117565 3.000000
-0.013294 -0.444168 -0.026179 3.000000
-0.278999 0.413178 0.165241 3.000000
-0.119550 0.420356 0.145999 3.000000
0.083203 -0.021474 -0.446921 3.000000
-0.045371 -0.407145 0.176814 3.000000
-0.164106 -0.043782 0.440836 3.000000
0.286097 -0.442430 0.042862 1.000000
0.059970 -0.400546 0.191373 3.000000
0.051361 0.283708 -0.345961 3.000000
-0.234594 0.408946 -0.179373 3.000000
-0.101495 -0.113114 0.428436 3.000000
0.203238 0.088252 0.434413 3.000000
-0.077618 0.321546 0.306419 3.000000
0.268286 -0.433319 -0.102259 3.000000
-0.145770 0.389729 -0.218662 3.000000
0.264958 -0.437608 0.077658 3.000000
-0.188795 -0.179168 0.405182 3.000000
-0.178216 0.341779 0.283963 3.000000
-0.111955 0.428187 0.121564 3.000000
0.089283 -0.317450 0.309490 3.000000
-0.088246 -0.342330 0.282176 3.000000
-0.119487 0.124381 0.425460 3.000000
-0.068948 0.335534 0.291046 3.000000
-0.208736 -0.122222 0.425790 3.000000
-0.084361 -0.418933 -0.151458 3.000000
-0.194620 -0.293817 -0.336222 3.000000
-0.218174 -0.396745 -0.203186 3.000000
0.083846 -0.359060 -0.265019 3.000000
-0.263228 0.344928 0.280204 3.000000
0.040744 -0.229854 -0.383184 3.000000
-0.024427 0.199541 -0.400443 3.000000
-0.117596 -0.139850 0.420480 3.000000
0.058548 -0.444170 0.021773 3.000000
-0.000592 0.373848 0.240557 3.000000
-0.247926 -0.442693 0.040085 3.000000
0.084917 -0.209096 -0.395053 3.000000
-0.089046 0.095764 0.432734 3.000000
0.206040 -0.430386 0.110467 3.000000
-0.004763 -0.059048 0.439155 3.000000
-0.218852 0.389192 0.215217 3.000000
-0.061524 -0.123873 -0.429664 3.000000
-0.065490 -0.183686 -0.407581 3.000000
0.260235 -0.113144 0.428427 3.000000
-0.155665 0.445439 0.014006 3.000000
-0.215703 0.161500 0.413054 3.000000
0.253673 0.385235 0.221907 3.000000
0.055175 -0.176390 0.406384 3.000000
0.159690 0.419065 0.149585 3.000000
-0.160191 0.332797 0.294151 3.000000
-0.110105 0.361043 0.259399 3.000000
-0.148538 -0.444556 0.009480 3.000000
-0.163615 -0.250650 -0.369784 3.000000
0.024133 0.445886 -0.004140 3.000000
-0.028644 0.395330 0.203621 3.000000
-0.165506 0.325003 0.302963 3.000000
0.154276 -0.098247 -0.436303 3.000000
0.034639 0.006227 0.443079 3.000000
0.059483 0.444477 -0.036403 3.000000
-0.174388 -0.210941 0.389759 3.000000
-0.266332 -0.093859 0.432931 3.000000
0.090876 0.169839 -0.414016 3.000000
0.033545 0.441714 -0.062558 3.000000
-0.148799 0.411198 -0.174170 3.000000
0.092158 -0.240828 0.372106 3.000000
-0.275444 0.443070 -0.051289 3.000000
0.217285 0.427796 -0.127260 3.000000
-0.271435 0.279030 0.345236 3.000000
-0.179483 0.385687 0.221143 3.000000
0.189304 0.367508 0.249886 3.000000
0.184721 0.262874 0.357768 3.000000
0.088053 -0.328347 -0.302389 3.000000
-0.123625 -0.089935 -0.438161 3.000000
-0.173491 -0.332424 -0.297765 3.000000
-0.211994 -0.407622 -0.180066 3.000000
0.259647 -0.087148 0.434431 3.000000
0.005217 -0.364712 0.252492 3.000000
-0.019240 -0.354432 -0.270985 3.000000
0.065763 -0.437017 0.081359 3.000000
0.260311 0.213116 -0.393526 3.000000
-0.070384 0.445846 -0.005418 3.000000
0.105910 0.125271 0.425202 3.000000
-0.202992 -0.026683 0.442404 3.000000
0.116016 0.399325 0.195780 3.000000
-0.161882 0.383457 -0.229267 3.000000
0.282126 -0.444104 0.023867 1.000000
-0.215370 -0.439834 0.063606 3.000000
0.095553 0.121093 -0.430769 3.000000
-0.224226 0.052998 0.440062 3.000000
-0.041038 -0.068664 0.437632 3.000000
0.027765 0.396223 0.201868 3.000000
-0.158288 0.156424 -0.419235 3.000000
0.249338 -0.027473 -0.446731 3.000000
0.024384 -0.435811 -0.091107 3.000000
-0.109013 0.368943 0.247775 3.000000
0.042858 0.060987 0.439010 3.000000
0.009188 -0.277040 -0.350338 3.000000
0.056577 0.020031 -0.446998 3.000000
-0.042883 0.421348 0.143244 3.000000
0.127434 -0.402711 -0.191414 3.000000
0.039536 -0.441772 0.049823 3.000000
-0.238130 0.434169 0.098684 3.000000
-0.262486 -0.097677 -0.436431 3.000000
-0.220902 -0.066855 0.437918 3.000000
0.150803 0.405270 0.183514 3.000000
-0.100490 -0.442462 0.042526 3.000000
-0.286901 -0.015433 -0.447111 4.000000
-0.089204 0.380273 -0.234651 3.000000
-0.070092 -0.298510 0.327732 3.000000
-0.228010 -0.378452 0.231644 3.000000
-0.090134 0.322303 0.305662 3.000000
-0.194925 -0.333257 -0.296820 3.000000
-0.009421 0.363985 0.255070 3.000000
-0.042571 0.301189 0.326274 3.000000
0.227374 -0.212514 -0.393311 3.000000
-0.129974 0.438457 -0.083124 3.000000
-0.188495 0.013202 -0.447213 3.000000
-0.132200 0.445809 0.002217 3.000000
0.203030 -0.444647 -0.010957 3.000000
0.002751 0.422022 -0.145723 3.000000
-0.030478 -0.439953 0.062852 3.000000
-0.127937 -0.442716 -0.044193 3.000000
-0.007451 0.435421 0.093084 3.000000
0.265828 0.405599 -0.187108 3.000000
-0.057719 -0.029053 0.442228 3.000000
-0.219577 0.349165 -0.279096 3.000000
0.155068 0.427060 0.125441 3.000000
0.185160 -0.370246 -0.248702 3.000000
0.002960 0.123049 0.425847 3.000000
-0.034343 0.091208 -0.438106 3.000000
-0.174390 -0.004875 -0.447443 3.000000
-0.138222 0.417645 0.153528 3.000000
0.131147 -0.141029 -0.424409 3.000000
-0.008899 0.314785 -0.317533 3.000000
0.098370 -0.079917 -0.440203 3.000000
-0.001208 -0.270977 0.350688 3.000000
-0.277750 -0.388477 0.214693 3.000000
-0.190267 0.396110 -0.206444 3.000000
-0.264000 0.445430 -0.018656 3.000000
-0.072023 -0.413001 -0.167635 3.000000
0.106515 -0.129535 -0.428019 3.000000
0.214551 0.410610 -0.175529 3.000000
-0.054157 0.328960 -0.302856 3.000000
0.031075 -0.442300 -0.048591 3.000000
0.182957 0.220997 0.384675 3.000000
0.093684 0.353280 0.269438 3.000000
-0.111526 0.306881 -0.325438 3.000000
0.244700 0.432339 -0.111228 3.000000
-0.018690 -0.397881 -0.200957 3.000000
0.042436 -0.388507 0.214642 3.000000
0.073947 0.036928 -0.445934 3.000000
-0.239294 -0.113317 0.428377 3.000000
-0.257099 -0.029522 0.442184 3.000000
0.247124 -0.077230 0.436275 3.000000
-0.248211 -0.385530 -0.224030 3.000000
-0.237146 0.093472 0.433246 3.000000
-0.183913 0.284117 -0.345643 3.000000
0.040480 0.175927 0.407028 3.000000
0.143743 -0.444273 -0.022856 3.000000
0.154617 0.439858 -0.074277 3.000000
0.103343 0.284102 -0.345655 3.000000
0.030277 0.058924 0.439337 3.000000
-0.071075 -0.376170 -0.239857 3.000000
0.278838 -0.430203 0.111095 3.000000
0.041777 -0.335913 0.289454 3.000000
-0.224754 -0.404008 0.184064 3.000000
-0.105572 -0.348902 -0.278114 3.000000
0.049101 -0.397983 0.196402 3.000000
0.092333 -0.289321 0.335833 3.000000
0.154046 -0.308301 -0.322992 3.000000
-0.286278 0.243716 0.370839 4.000000
0.166195 -0.054443 -0.444182 3.000000
0.071458 -0.422009 -0.142915 3.000000
-0.167157 -0.424862 -0.133832 3.000000
-0.181961 -0.228045 -0.384254 3.000000
-0.078647 0.133447 -0.427180 3.000000
0.070811 -0.192235 0.399290 3.000000
0.183336 0.065771 0.438252 3.000000
0.229679 -0.380944 -0.231785 3.000000
0.239273 -0.438457 0.072299 3.000000
0.111191 0.425905 -0.133769 3.000000
0.267454 0.028345 -0.446737 3.000000
-0.243121 -0.174493 0.407205 3.000000
-0.219036 0.393408 -0.211746 3.000000
0.075044 0.337665 0.288629 3.000000
0.032922 0.433243 -0.107180 3.000000
0.060135 -0.098840 -0.436171 3.000000
0.251326 0.334606 0.292099 3.000000
-0.168086 0.189224 0.401274 3.000000
0.043930 -0.434584 0.092245 3.000000
-0.067939 -0.443398 -0.036975 3.000000
0.054609 0.016734 0.442749 3.000000
0.096372 0.433941 0.099706 3.000000
0.059340 -0.343453 0.280785 3.000000
-0.109230 0.027502 0.442410 3.000000
0.048638 -0.359709 0.259827 3.000000
-0.269933 -0.426201 0.124869 3.000000
-0.011269 0.434526 -0.101440 3.000000
0.082808 0.168267 0.410343 3.000000
-0.261321 -0.393695 0.204819 3.000000
0.149274 -0.049378 -0.444661 3.000000
-0.067123 0.413782 0.163844 3.000000
0.134419 -0.154426 -0.419585 3.000000
-0.106930 -0.326665 -0.304297 3.000000
-0.065158 0.106567 0.430319 3.000000
-0.257643 -0.367584 0.248266 3.000000
-0.189727 -0.320598 -0.310696 3.000000
0.077281 -0.121176 -0.430447 3.000000
0.226585 0.421702 0.142258 3.000000
-0.143566 -0.178691 -0.409742 3.000000
0.172341 0.441717 -0.062540 3.000000
0.238523 -0.091597 -0.437790 3.000000
0.065515 -0.376633 -0.239073 3.000000
-0.222161 -0.437584 0.077807 3.000000
-0.233745 -0.079002 0.435994 3.000000
-0.271279 0.445815 0.002040 3.000000
0.013105 -0.444339 -0.020733 3.000000
-0.048693 0.445411 -0.019246 3.000000
-0.136424 0.335762 -0.295141 3.000000
-0.186375 -0.285463 0.339234 3.000000
-0.097774 -0.184391 -0.407276 3.000000
0.021574 0.440363 0.066732 3.000000
-0.199232 0.335648 0.290917 3.000000
0.103049 0.302698 -0.329296 3.000000
0.008036 0.340505 -0.289761 3.000000
-0.117952 -0.329677 0.296527 3.000000
-0.246655 -0.355176 0.265672 3.000000
0.041815 -0.437670 -0.081618 3.000000
-0.041546 0.235454 0.376125 3.000000
0.197733 -0.441628 -0.055699 3.000000
-0.230468 -0.444160 0.022098 3.000000
-0.033177 0.441166 -0.066016 3.000000
-0.031190 0.284457 -0.345378 3.000000
0.049528 -0.423555 0.133979 3.000000
-0.020723 -0.376016 0.235764 3.000000
0.248910 0.017343 0.442729 3.000000
-0.093239 0.436331 0.089013 3.000000
-0.071489 0.431404 0.110488 3.000000
-0.167577 -0.276370 -0.350857 3.000000
0.201032 0.358517 0.262686 3.000000
-0.075844 -0.282431 -0.346156 3.000000
-0.061155 -0.206972 -0.396135 3.000000
-0.089996 -0.438524 -0.076229 3.000000
0.210074 0.439429 -0.076986 3.000000
0.008098 -0.087235 0.434411 3.000000
-0.250323 0.319667 -0.312652 3.000000
-0.216758 -0.181380 0.404225 3.000000
-0.271726 0.375932 0.237491 3.000000
0.270249 -0.127689 0.424202 3.000000
-0.174185 -0.415276 -0.161616 3.000000
0.248163 -0.437533 0.078130 3.000000
-0.185571 0.001948 -0.447567 3.000000
-0.136899 0.060724 -0.443405 3.000000
-0.190785 0.248387 0.367665 3.000000
-0.082541 0.083842 0.435390 3.000000
-0.061641 0.257097 0.361746 3.000000
-0.178502 -0.139129 0.420739 3.000000
0.205897 0.445245 0.020176 3.000000
0.012867 0.195128 0.398338 3.000000
0.153324 -0.209751 -0.394719 3.000000
-0.035883 -0.389140 0.213573 3.000000
0.132516 -0.404788 0.182261 3.000000
0.138376 -0.364290 0.253113 3.000000
0.064524 0.035421 0.441723 3.000000
0.209924 -0.339700 -0.289512 3.000000
-0.075880 0.038603 -0.445776 3.000000
0.254338 0.397663 -0.203396 3.000000
-0.215070 0.405638 -0.187018 3.000000
0.015659 0.232782 0.377705 3.000000
-0.042379 0.403813 -0.191236 3.000000
0.183047 0.432171 -0.111976 3.000000
0.061131 0.298356 0.328771 3.000000
0.117686 -0.438049 0.074876 3.000000
0.056728 -0.207514 0.391505 3.000000
-0.248236 -0.428566 0.116731 3.000000
-0.059628 -0.075937 -0.440833 3.000000
-0.016388 0.008421 -0.447363 3.000000
-0.025934 0.396906 -0.204881 3.000000
-0.046057 0.204460 0.393584 3.000000
0.059678 0.369778 0.246545 3.000000
0.189903 0.084757 -0.439548 3.000000
0.271450 0.397925 0.198528 3.000000
-0.237075 -0.143191 -0.423630 3.000000
0.125646 0.297756 0.329300 3.000000
-0.279340 0.262434 0.358109 3.000000
0.162175 0.007177 -0.447402 3.000000
-0.227458 0.442547 0.052462 3.000000
0.060470 0.368494 -0.252788 3.000000
-0.070446 0.283404 -0.346196 3.000000
-0.269981 -0.103236 0.430835 3.000000
0.027328 -0.081736 -0.439915 3.000000
-0.109953 0.358077 -0.267606 3.000000
-0.063711 0.418342 0.151591 3.000000
0.171851 0.041636 -0.445489 3.000000
-0.070365 -0.394536 0.203168 3.000000
-0.290037 0.112243 -0.433340 4.000000
0.249582 -0.285342 0.339341 3.000000
-0.250265 -0.284649 0.339952 3.000000
0.173436 0.335664 0.290899 3.000000
-0.088323 -0.400193 0.192065 3.000000
0.212375 -0.152026 -0.420449 3.000000
0.225467 -0.008320 -0.447334 3.000000
-0.070124 0.404983 -0.188531 3.000000
0.224153 -0.305425 0.321516 3.000000
0.034498 -0.262155 0.357531 3.000000
-0.018959 0.445198 -0.026039 3.000000
0.004170 0.185635 -0.407180 3.000000
0.247374 -0.036670 0.441509 3.000000
0.012091 0.282730 -0.346719 3.000000
0.217284 -0.407363 -0.180664 3.000000
0.256494 -0.443756 -0.033190 3.000000
-0.035283 0.204026 -0.398158 3.000000
-0.199477 0.302918 -0.329103 3.000000
-0.171437 0.366936 -0.255082 3.000000
0.159283 -0.353539 -0.272135 3.000000
0.167580 -0.290279 -0.339342 3.000000
0.193305 -0.444098 -0.028422 3.000000
-0.027253 0.431089 0.111573 3.000000
-0.228731 0.018015 -0.447062 3.000000
-0.130326 0.435616 0.092211 3.000000
0.246154 -0.278156 0.345119 3.000000
0.021542 -0.399390 0.193641 3.000000
-0.169915 -0.220634 0.384284 3.000000
-0.067295 0.349946 -0.278088 3.000000
0.010065 0.442694 0.050908 3.000000
0.254147 -0.417061 0.152304 3.000000
0.109463 -0.226720 -0.385038 3.000000
0.027479 0.226697 -0.385658 3.000000
0.071708 0.227931 0.380574 3.000000
0.078178 0.022936 0.442554 3.000000
0.066861 -0.172697 0.407983 3.000000
0.016470 -0.259535 0.359392 3.000000
-0.048453 -0.248394 0.366964 3.000000
0.158859 -0.324887 0.301961 3.000000
0.226159 -0.405553 0.180492 3.000000
-0.027991 0.328931 0.298536 3.000000
-0.253611 -0.260678 0.358616 3.000000
-0.014816 -0.371168 0.242992 3.000000
-0.221635 -0.194861 -0.402306 3.000000
-0.247542 0.147355 -0.422500 3.000000
0.133972 0.122692 0.425951 3.000000
-0.157391 -0.058987 0.439164 3.000000
0.264230 -0.153141 0.415695 3.000000
-0.040105 -0.165678 -0.415373 3.000000
0.131467 -0.443249 -0.038553 3.000000
0.174515 0.050668 0.440282 3.000000
0.078863 -0.440852 -0.061531 3.000000
0.108596 0.287346 0.338478 3.000000
-0.101888 -0.017017 -0.447061 3.000000
0.161171 -0.327061 -0.303848 3.000000
0.171935 0.445936 -0.001804 3.000000
-0.119454 0.322917 0.305048 3.000000
0.108902 0.434527 0.097085 3.000000
0.206707 0.262560 -0.362365 3.000000
-0.043382 -0.332901 -0.297223 3.000000
-0.020288 0.433726 -0.105019 3.000000
0.074128 -0.268887 -0.356662 3.000000
-0.026926 0.178900 -0.410095 3.000000
0.043180 -0.181681 0.404095 3.000000
-0.160121 0.083125 0.435504 3.000000
0.043845 -0.399597 -0.197588 3.000000
0.236439 0.311936 -0.320383 3.000000
-0.025894 0.294095 -0.336881 3.000000
0.272520 0.089290 0.434181 3.000000
0.079497 -0.186419 0.402044 3.000000
-0.207073 0.399438 0.195559 3.000000
0.116064 -0.081416 0.435612 3.000000
-0.141619 -0.307100 -0.324193 3.000000
-0.013396 0.347644 0.276703 3.000000
0.154117 -0.271814 0.350038 3.000000
0.168482 0.265428 -0.360140 3.000000
0.224296 -0.394430 -0.207729 3.000000
0.195145 0.358842 -0.266620 3.000000
-0.133277 0.424716 -0.137863 3.000000
-0.212011 -0.327647 0.298830 3.000000
0.271909 0.202083 0.394795 3.000000
-0.072702 -0.306218 0.320722 3.000000
-0.185246 -0.249253 0.366380 3.000000
-0.229705 -0.374312 -0.242720 3.000000
-0.070186 -0.428393 0.117326 3.000000
0.125069 0.317669 0.310296 3.000000
0.059660 0.298463 -0.333030 3.000000
0.121201 0.070707 -0.441824 3.000000
-0.094694 0.212214 0.389633 3.000000
-0.146482 0.220001 0.385264 3.000000
-0.013617 -0.444732 -0.008247 3.000000
-0.206237 -0.375980 -0.240177 3.000000
0.234654 0.239224 0.373892 3.000000
-0.106835 -0.096589 0.432321 3.000000
-0.213720 0.079138 0.436135 3.000000
-0.031633 -0.427046 -0.126316 3.000000
-0.209255 -0.444087 0.024420 3.000000
0.062448 -0.280999 0.342914 3.000000
0.199835 -0.177627 -0.410202 3.000000
-0.171275 -0.106290 0.430152 3.000000
0.260863 -0.139496 0.420607 3.000000
0.239333 0.032434 -0.446359 3.000000
-0.112671 -0.006783 0.443029 3.000000
-0.008944 -0.399912 -0.196971 3.000000
0.179435 0.255884 0.362570 3.000000
0.250251 -0.182134 -0.408252 3.000000
0.251792 -0.091133 -0.437894 3.000000
0.065621 -0.409022 -0.176831 3.000000
0.200143 0.437055 0.085775 3.000000
-0.046383 -0.290528 -0.339123 3.000000
-0.083226 -0.256985 -0.365479 3.000000
-0.039703 0.227193 -0.385364 3.000000
-0.286570 0.162443 -0.417068 4.000000
0.139184 0.035781 -0.446043 3.000000
-0.099430 -0.426015 -0.129866 3.000000
0.004959 0.166186 -0.415597 3.000000
0.233642 0.443099 -0.050979 3.000000
0.006238 0.318415 0.309550 3.000000
-0.014551 -0.400836 0.190803 3.000000
-0.074937 0.207478 -0.396399 3.000000
0.149379 -0.348572 -0.278539 3.000000
0.019589 -0.105672 -0.434644 3.000000
-0.040314 -0.356512 0.263950 3.000000
0.254023 0.426071 -0.133198 3.000000
-0.054432 -0.437829 -0.080613 3.000000
0.096378 0.211056 0.390223 3.000000
-0.208739 0.436009 0.090453 3.000000
0.065499 0.268361 -0.357865 3.000000
-0.206619 0.445695 -0.010213 3.000000
0.235365 -0.311871 -0.319423 3.000000
-0.200961 0.037213 -0.445907 3.000000
0.245915 0.309636 -0.322682 3.000000
0.221681 0.365037 0.253522 3.000000
-0.042942 0.184387 -0.407721 3.000000
-0.065604 0.428083 0.121921 3.000000
-0.039613 -0.078792 -0.440381 3.000000
0.113490 0.101119 0.431537 3.000000
0.216417 0.043695 0.440941 3.000000
-0.258335 -0.379471 0.229922 3.000000
0.187375 -0.280757 -0.347455 3.000000
0.025919 0.104322 0.430821 3.000000
-0.166107 0.409932 0.172743 3.000000
-0.036665 0.315392 0.312573 3.000000
0.089194 -0.440951 0.056550 3.000000
-0.240483 0.395522 0.203244 3.000000
-0.086257 0.315681 0.312284 3.000000
-0.249506 0.399052 -0.200669 3.000000
0.268764 -0.341187 -0.287825 3.000000
-0.064209 -0.086407 0.434597 3.000000
0.251678 0.156205 0.414960 3.000000
0.176497 0.244485 -0.374671 3.000000
-0.286810 0.360348 -0.264679 4.000000
0.225596 -0.425644 0.126788 3.000000
-0.109487 -0.019821 0.442619 3.000000
-0.122284 -0.240249 -0.376853 3.000000
0.077034 0.053072 0.440055 3.000000
-0.283526 0.389533 0.214641 4.000000
0.202483 -0.098604 0.431870 3.000000
-0.275631 -0.261897 -0.362084 3.000000
0.264597 0.057603 0.439546 3.000000
-0.006341 -0.391427 0.209270 3.000000
0.129552 0.113919 0.428500 3.000000
-0.099769 -0.342485 -0.286352 3.000000
-0.108467 0.241787 -0.376504 3.000000
0.115509 0.362251 -0.261975 3.000000
-0.005362 0.024398 0.442508 3.000000
-0.202467 -0.410056 -0.174440 3.000000
0.247917 0.364089 -0.259270 3.000000
-0.006645 0.251376 -0.369987 3.000000
0.261035 -0.390486 0.211117 3.000000
0.229561 0.190676 0.400607 3.000000
-0.212878 -0.182588 -0.408056 3.000000
0.054513 -0.442358 -0.047974 3.000000
0.110547 0.445524 0.011311 3.000000
0.205148 -0.076014 -0.440821 3.000000
-0.036070 -0.398057 0.196257 3.000000
-0.146014 -0.381382 -0.231044 3.000000
0.130353 -0.199490 0.395594 3.000000
0.286136 0.333091 0.293818 1.000000
0.046494 0.314639 0.313326 3.000000
-0.275787 0.439477 -0.076683 3.000000
0.016164 0.068912 0.437755 3.000000
0.039915 0.121953 0.426165 3.000000
0.179267 0.341802 -0.288290 3.000000
-0.284213 -0.050369 0.440214 3.000000
-0.029170 0.366903 0.250776 3.000000
-0.198630 0.332197 -0.299185 3.000000
-0.285623 0.441106 0.062039 4.000000
-0.128531 -0.132498 -0.427158 3.000000
0.185578 -0.087560 -0.438692 3.000000
0.050346 0.329904 0.297433 3.000000
0.110510 -0.422131 -0.142574 3.000000
0.081940 -0.113153 0.428425 3.000000
-0.111232 0.157245 0.414586 3.000000
-0.209779 -0.219442 -0.389342 3.000000
-0.161561 0.224497 -0.386959 3.000000
0.062414 0.084443 -0.439618 3.000000
0.125112 0.382432 0.226648 3.000000
0.142633 -0.443716 -0.033613 3.000000
0.168210 -0.429372 0.113957 3.000000
0.095470 0.212055 -0.394067 3.000000
-0.149148 -0.444190 0.021148 3.000000
-0.216353 0.122898 -0.430244 3.000000
-0.158820 0.298314 0.328809 3.000000
-0.265601 -0.274656 0.347834 3.000000
0.255428 -0.275428 -0.351588 3.000000
-0.187482 0.359679 0.261187 3.000000
-0.210032 -0.062017 -0.443038 3.000000
0.211553 0.028481 0.442379 3.000000
-0.018272 -0.130773 0.423305 3.000000
0.236019 0.430040 -0.119537 3.000000
0.119623 0.213157 0.389152 3.000000
-0.252737 -0.444892 -0.001215 3.000000
-0.255970 0.313385 -0.318934 3.000000
-0.103041 -0.427123 0.121698 3.000000
0.252304 -0.016583 -0.447075 3.000000
-0.060908 0.430700 0.112912 3.000000
0.223493 -0.375751 0.236212 3.000000
-0.197905 -0.444561 0.009317 3.000000
-0.156941 -0.262356 0.357375 3.000000
0.155899 0.389947 -0.218294 3.000000
-0.137114 -0.444525 -0.014817 3.000000
0.179325 -0.081134 0.435657 3.000000
-0.069241 0.255471 -0.367205 3.000000
0.043632 0.403778 0.186963 3.000000
0.050980 0.307420 0.320545 3.000000
0.137321 -0.353450 0.267898 3.000000
-0.087944 0.430217 0.114574 3.000000
0.195578 -0.290806 -0.338877 3.000000
-0.284027 0.067255 0.438017 3.000000
0.114287 -0.444651 -0.010816 3.000000
0.072203 -0.404672 -0.186883 3.000000
-0.027410 0.359665 -0.265559 3.000000
0.164576 0.438986 0.075426 3.000000
0.036644 -0.416015 0.155210 3.000000
-0.266153 0.438901 -0.080318 3.000000
0.151861 -0.431918 0.104174 3.000000
-0.095658 0.087175 -0.439007 3.000000
0.024145 0.225457 0.382037 3.000000
0.282531 0.406856 -0.184204 1.000000
-0.010852 -0.109349 0.429468 3.000000
0.041130 -0.433577 -0.101102 3.000000
0.121149 0.260914 0.359151 3.000000
0.097273 -0.444729 -0.008348 3.000000
-0.065161 0.264351 -0.360976 3.000000
-0.018986 0.408214 0.176711 3.000000
-0.080756 0.383788 0.224355 3.000000
0.081414 0.398901 -0.200966 3.000000
-0.095032 -0.424357 0.131217 3.000000
0.286062 0.430200 -0.118985 1.000000
0.183553 0.335791 -0.295109 3.000000
-0.228324 -0.444861 -0.004141 3.000000
-0.008725 -0.351152 -0.275214 3.000000
-0.057049 0.343823 -0.285982 3.000000
0.240197 -0.410540 0.168969 3.000000
0.038539 0.430487 -0.117998 3.000000
-0.121516 -0.428424 -0.121571 3.000000
-0.017866 0.438962 -0.079930 3.000000
0.185112 -0.349560 -0.277265 3.000000
-0.192490 0.441546 0.059264 3.000000
-0.156363 0.410748 0.170856 3.000000
0.230676 -0.220604 0.384301 3.000000
-0.264241 -0.231054 0.378121 3.000000
-0.171658 -0.444252 0.019164 3.000000
-0.223913 0.439302 0.073429 3.000000
-0.078425 0.303369 0.324352 3.000000
-0.127846 -0.407521 -0.180300 3.000000
-0.059079 -0.433592 0.096683 3.000000
0.045247 0.431703 0.109461 3.000000
-0.118336 -0.275341 0.347302 3.000000
-0.081043 0.433391 0.102165 3.000000
0.274700 -0.372838 0.240535 3.000000
0.084095 0.445208 -0.025719 3.000000
-0.156876 -0.438861 0.069745 3.000000
0.124678 0.432430 0.106465 3.000000
-0.130738 -0.068978 -0.441935 3.000000
0.053712 0.291762 0.334585 3.000000
0.016182 -0.444651 -0.010826 3.000000
0.088381 -0.200072 0.395297 3.000000
-0.154196 -0.033177 0.441839 3.000000
0.050820 0.436419 -0.092975 3.000000
0.216535 0.055193 0.439854 3.000000
-0.257204 -0.071993 0.437104 3.000000
0.173344 -0.134902 0.422106 3.000000
-0.207352 0.428882 0.119170 3.000000
0.270709 -0.439155 0.067888 3.000000
0.271414 0.202829 -0.398768 3.000000
-0.040447 0.293036 0.333461 3.000000
-0.086857 -0.021108 -0.446932 3.000000
0.078793 -0.379778 -0.233755 3.000000
-0.137064 -0.378676 0.231266 3.000000
-0.288235 0.050690 0.440280 4.000000
-0.289771 -0.407959 0.174933 4.000000
-0.286235 0.022656 -0.446916 4.000000
-0.031009 -0.195117 0.397822 3.000000
0.157212 -0.444721 -0.008589 3.000000
-0.208245 -0.128022 -0.428458 3.000000
0.038540 -0.270395 0.351139 3.000000
0.228273 0.371980 -0.247660 3.000000
0.018818 -0.090536 0.433674 3.000000
-0.040634 0.441052 0.062383 3.000000
-0.166417 -0.442770 -0.043619 3.000000
-0.017392 0.191000 -0.404795 3.000000
0.056361 0.255474 0.362849 3.000000
-0.240631 -0.091997 -0.437701 3.000000
0.144099 0.222134 0.384002 3.000000
0.109680 -0.334560 0.290989 3.000000
-0.126136 0.338224 0.287995 3.000000
0.238413 -0.162814 -0.416565 3.000000
0.278114 -0.081987 0.435522 3.000000
0.259434 0.348614 0.275453 3.000000
-0.137028 0.442902 0.048710 3.000000
-0.152763 0.435188 -0.098482 3.000000
-0.193260 0.160395 0.413452 3.000000
-0.078130 0.410646 0.171091 3.000000
-0.084964 0.269122 -0.357275 3.000000
-0.199461 -0.329383 0.296861 3.000000
-0.218770 0.344794 0.280378 3.000000
-0.147294 -0.277610 0.345542 3.000000
-0.076708 -0.444277 -0.022737 3.000000
-0.100255 -0.251880 -0.368948 3.000000
0.208566 -0.182182 -0.408231 3.000000
0.273240 0.314259 0.313706 3.000000
0.082641 -0.442273 -0.048881 3.000000
-0.265274 -0.075866 -0.440845 3.000000
-0.047081 0.076706 -0.440874 3.000000
0.057198 0.345149 0.279919 3.000000
0.257901 0.346031 -0.283135 3.000000
-0.151952 -0.374565 -0.242347 3.000000
-0.268189 -0.295078 -0.335111 3.000000
0.030868 -0.443876 -0.031916 3.000000
-0.233667 -0.230335 -0.382900 3.000000
-0.175205 -0.300671 -0.330180 3.000000
-0.052134 -0.091503 0.433458 3.000000
0.104835 -0.064354 0.438314 3.000000
-0.210973 0.191088 -0.404750 3.000000
0.058228 0.274975 0.348382 3.000000
0.066286 0.430389 -0.118337 3.000000
0.215659 -0.444072 0.024884 3.000000
-0.252323 0.159588 -0.418096 3.000000
0.216382 0.405818 -0.186601 3.000000
0.132529 -0.396260 -0.204138 3.000000
0.245082 0.284617 0.340884 3.000000
-0.093616 -0.295837 0.330088 3.000000
-0.224608 -0.441473 0.052988 3.000000
-0.216033 0.382189 0.227058 3.000000
0.006520 0.360319 -0.264715 3.000000
0.166671 -0.281191 -0.347118 3.000000
0.143792 -0.108339 -0.434048 3.000000
-0.128839 0.435925 -0.095182 3.000000
0.134042 -0.171556 0.408476 3.000000
0.013531 0.333344 -0.297883 3.000000
-0.143720 -0.205814 0.392371 3.000000
0.178348 -0.206034 0.392260 3.000000
0.144595 0.321803 -0.310515 3.000000
-0.279287 0.436327 -0.093386 3.000000
0.125063 -0.388177 0.215200 3.000000
0.154100 0.365152 -0.257706 3.000000
-0.043202 0.144923 0.419022 3.000000
0.222126 -0.194705 -0.402385 3.000000
-0.072809 0.415055 -0.165076 3.000000
-0.084952 -0.412953 0.163393 3.000000
-0.028673 0.275313 -0.352472 3.000000
0.080795 -0.185313 -0.406877 3.000000
-0.275909 -0.339567 -0.289662 3.000000
0.233798 -0.340820 0.283888 3.000000
-0.055040 -0.328262 -0.302485 3.000000
0.085745 -0.415771 0.155886 3.000000
-0.208196 0.440496 -0.070248 3.000000
-0.228840 -0.109724 0.429385 3.000000
0.193226 0.021175 -0.446962 3.000000
-0.169643 0.437647 0.083127 3.000000
0.120203 0.059957 0.439173 3.000000
-0.288995 0.216660 -0.391593 4.000000
-0.073409 0.004375 -0.447490 3.000000
-0.219738 -0.259326 -0.363888 3.000000
0.273496 0.279883 0.344574 3.000000
0.193578 0.383886 0.224189 3.000000
-0.048242 -0.391391 0.209340 3.000000
0.222623 0.251588 -0.369843 3.000000
-0.123998 -0.419551 -0.149742 3.000000
0.225188 -0.230932 0.378193 3.000000
-0.273243 -0.106916 -0.434366 3.000000
-0.045499 -0.347063 0.276131 3.000000
0.102035 -0.161696 -0.416968 3.000000
0.214522 0.445271 -0.023690 3.000000
-0.105515 0.096087 0.432662 3.000000
-0.081632 -0.321388 0.305552 3.000000
-0.194692 -0.312633 -0.318660 3.000000
-0.216663 -0.300606 -0.330238 3.000000
-0.074464 -0.050621 -0.444543 3.000000
0.012395 -0.126439 0.424564 3.000000
-0.050490 -0.345943 -0.281928 3.000000
-0.120807 -0.376508 0.234931 3.000000
-0.055436 0.405951 -0.186295 3.000000
0.144229 -0.433810 0.095707 3.000000
-0.277453 -0.385731 -0.223690 3.000000
-0.168020 0.033990 0.441859 3.000000
0.150298 -0.071591 -0.441522 3.000000
-0.200290 -0.156196 -0.418948 3.000000
-0.158722 -0.444397 0.014550 3.000000
0.149823 0.229219 0.379812 3.000000
0.023035 -0.384947 -0.225016 3.000000
-0.244620 0.426475 -0.131810 3.000000
-0.037223 -0.305572 -0.325722 3.000000
-0.108935 0.403647 0.187266 3.000000
-0.067201 -0.259370 0.359505 3.000000
0.229619 -0.421012 -0.145684 3.000000
0.195594 0.013526 0.442849 3.000000
0.206925 0.398000 -0.202734 3.000000
-0.267614 0.186313 0.402534 3.000000
0.160885 -0.119989 0.426439 3.000000
-0.289592 -0.433282 0.098071 4.000000
-0.149627 0.439995 0.069056 3.000000
0.180506 0.087986 0.434473 3.000000
-0.271938 -0.198093 -0.400659 3.000000
0.132633 0.221716 -0.388603 3.000000
-0.154746 -0.286647 -0.342544 3.000000
-0.179343 -0.304325 0.322606 3.000000
0.116382 0.410619 0.171154 3.000000
0.254888 0.443226 -0.049641 3.000000
0.269006 -0.029311 0.442204 3.000000
0.171931 -0.312400 -0.318894 3.000000
-0.135457 0.386579 -0.223988 3.000000
0.148979 0.010055 0.442958 3.000000
-0.008181 0.172101 0.408684 3.000000
-0.055039 -0.251946 -0.368903 3.000000
-0.197148 0.431881 -0.113200 3.000000
-0.178242 0.115518 -0.432389 3.000000
0.034799 0.148830 -0.421969 3.000000
0.170471 -0.159221 0.413506 3.000000
0.227216 0.438895 0.075999 3.000000
-0.151716 0.097593 -0.436679 3.000000
0.033740 0.439992 -0.073428 3.000000
0.233611 -0.033159 0.441840 3.000000
-0.053596 0.291919 0.334446 3.000000
-0.098591 0.018885 -0.447034 3.000000
0.184251 -0.338932 0.286029 3.000000
0.178340 -0.109217 0.429498 3.000000
0.114398 0.404583 0.185102 3.000000
0.094542 0.018385 -0.447050 3.000000
-0.096086 0.445666 -0.011128 3.000000
-0.252704 0.295703 0.331110 3.000000
-0.173938 0.319695 -0.312623 3.000000
0.054332 -0.040768 -0.445474 3.000000
-0.256715 0.369707 -0.251004 3.000000
-0.277422 0.023377 0.442540 3.000000
0.189065 -0.392166 -0.212172 3.000000
-0.202329 0.441604 0.058896 3.000000
0.170854 -0.416229 -0.158968 3.000000
0.090759 -0.244593 -0.373901 3.000000
-0.044793 -0.324541 -0.306707 3.000000
0.058390 -0.083743 0.435192 3.000000
-0.165639 -0.392081 0.207985 3.000000
-0.263863 0.428994 -0.123137 3.000000
0.004126 -0.387552 0.216258 3.000000
-0.143089 -0.299318 0.327020 3.000000
0.286530 0.277497 -0.350778 1.000000
-0.230720 0.175566 -0.411538 3.000000
-0.085264 0.246125 0.369203 3.000000
-0.183118 0.172390 -0.412912 3.000000
-0.131012 -0.298237 -0.332326 3.000000
0.180753 0.154809 -0.419816 3.000000
-0.121457 0.306807 -0.325512 3.000000
0.228516 0.443970 -0.041769 3.000000
-0.163969 -0.433173 -0.102911 3.000000
-0.194710 -0.118679 -0.431172 3.000000
0.184998 -0.433912 0.095253 3.000000
-0.248894 -0.414084 0.160574 3.000000
0.244151 0.112147 0.429014 3.000000
-0.267280 0.269302 -0.357135 3.000000
-0.256067 0.433591 -0.105624 3.000000
-0.188304 -0.428564 0.116736 3.000000
-0.028969 0.381597 -0.232413 3.000000
0.086148 -0.061622 -0.443100 3.000000
-0.003632 -0.148512 0.417361 3.000000
0.143507 -0.298956 0.327339 3.000000
-0.267326 0.434617 -0.101034 3.000000
-0.155150 0.071813 -0.441649 3.000000
-0.124943 -0.342694 0.281762 3.000000
-0.069961 0.437098 -0.089936 3.000000
0.258423 0.414278 0.162698 3.000000
-0.211071 -0.196354 0.397192 3.000000
-0.178464 0.422739 0.139378 3.000000
0.203939 0.320139 -0.312180 3.000000
-0.198032 0.439972 0.069199 3.000000
-0.037249 -0.198448 -0.400478 3.000000
0.264054 -0.218153 -0.390104 3.000000
-0.258740 0.445259 0.019723 3.000000
-0.003457 -0.168529 0.409786 3.000000
-0.184586 0.235036 -0.380726 3.000000
0.246192 -0.361163 0.257714 3.000000
0.155238 -0.397327 -0.202044 3.000000
-0.111804 0.096574 -0.436906 3.000000
-0.173042 0.168828 0.410100 3.000000
0.098832 -0.426750 0.122982 3.000000
0.173815 0.077784 0.436350 3.000000
0.019979 0.445411 0.014886 3.000000
0.198381 -0.341143 0.283522 3.000000
0.274699 0.213628 -0.393266 3.000000
-0.010763 -0.247143 0.367814 3.000000
0.014848 0.445671 -0.010964 3.000000
0.272563 0.348175 -0.280372 3.000000
-0.008143 -0.415440 0.156807 3.000000
0.024833 0.269600 -0.356904 3.000000
0.025133 -0.043550 -0.445211 3.000000
-0.101226 0.434096 -0.103366 3.000000
-0.112113 0.107021 -0.434571 3.000000
0.074921 -0.431393 -0.110875 3.000000
-0.266483 -0.280684 -0.347511 3.000000
-0.195133 0.388706 -0.220393 3.000000
0.285473 0.267112 0.354481 1.000000
0.117259 -0.294209 0.331524 3.000000
0.191635 0.061432 -0.443293 3.000000
-0.108819 -0.439297 0.066993 3.000000
-0.117417 0.063649 0.438588 3.000000
0.140304 0.056066 0.439772 3.000000
0.036130 0.044812 -0.445189 3.000000
-0.022787 -0.062546 -0.442954 3.000000
0.266666 -0.324441 0.302466 3.000000
0.226816 -0.107090 -0.434327 3.000000
-0.111722 0.445938 -0.002463 3.000000
0.269457 -0.310242 0.316699 3.000000
-0.020256 -0.324594 -0.306646 3.000000
-0.007860 0.418166 -0.156435 3.000000
-0.249869 0.225641 -0.386282 3.000000
-0.224238 0.395580 0.203131 3.000000
0.009622 -0.414252 -0.164458 3.000000
-0.129881 0.444992 0.026605 3.000000
-0.244837 0.413638 -0.168532 3.000000
-0.119828 0.175577 -0.411533 3.000000
-0.128658 -0.254447 0.362850 3.000000
-0.278855 -0.373498 0.239564 3.000000
0.191222 -0.442563 0.041457 3.000000
-0.215843 0.387866 -0.221812 3.000000
0.164083 0.421032 -0.148473 3.000000
-0.161116 -0.100373 0.431475 3.000000
0.276851 -0.434759 0.091462 3.000000
-0.129859 -0.289853 -0.339718 3.000000
-0.084545 -0.323463 -0.307831 3.000000
0.244239 -0.416527 -0.158142 3.000000
-0.171055 0.409544 -0.177991 3.000000
-0.058935 0.373418 0.241189 3.000000
-0.276796 -0.353815 0.267427 3.000000
-0.181006 0.377252 0.235406 3.000000
0.141833 0.174886 -0.411832 3.000000
0.280519 -0.409184 -0.176456 1.000000
-0.225957 -0.040220 -0.445526 3.000000
-0.020293 0.359451 0.261481 3.000000
-0.061283 0.429544 -0.121246 3.000000
0.257277 -0.060668 0.438898 3.000000
-0.043177 -0.315506 0.311434 3.000000
0.102512 0.372310 0.242820 3.000000
0.172549 -0.391250 0.209617 3.000000
-0.076751 -0.371308 0.242786 3.000000
0.048901 0.299790 0.327507 3.000000
0.202078 -0.042191 -0.445340 3.000000
-0.182138 0.416169 0.157627 3.000000
0.265585 -0.444633 -0.011408 3.000000
-0.057529 -0.435977 0.086014 3.000000
0.107391 0.052025 -0.444507 3.000000
-0.029161 -0.410471 -0.173481 3.000000
0.183044 -0.231102 0.378093 3.000000
0.213870 0.422185 0.140917 3.000000
-0.206727 -0.216345 0.386820 3.000000
-0.113514 0.445522 -0.015711 3.000000
-0.240414 0.443210 0.045455 3.000000
0.120933 0.419996 -0.151352 3.000000
-0.160326 0.132121 0.423211 3.000000
-0.268669 0.350422 -0.277475 3.000000
0.227182 -0.239085 -0.377644 3.000000
-0.264562 0.113033 0.428757 3.000000
-0.062151 -0.326843 0.299742 3.000000
-0.178975 -0.172259 -0.412526 3.000000
0.006865 -0.168370 0.409855 3.000000
-0.016483 0.074925 -0.441156 3.000000
0.189987 -0.393916 0.204384 3.000000
0.169535 0.336175 -0.294673 3.000000
-0.287493 -0.439741 -0.068543 4.000000
0.107449 -0.358345 -0.265940 3.000000
-0.208511 0.416483 0.156755 3.000000
-0.110399 0.439772 0.070462 3.000000
0.083396 0.212847 0.389310 3.000000
0.154354 0.437956 0.081745 3.000000
-0.161147 0.440381 0.066621 3.000000
-0.158666 0.091038 -0.438144 3.000000
-0.051026 -0.266296 -0.358672 3.000000
-0.257781 -0.444095 0.024159 3.000000
0.244141 0.235967 0.375822 3.000000
-0.001962 0.371649 -0.248146 3.000000
0.057885 -0.434102 0.094400 3.000000
0.045002 0.184746 0.403212 3.000000
0.181039 -0.410611 -0.173158 3.000000
0.202330 0.136307 -0.426349 3.000000
0.099322 -0.432819 0.100140 3.000000
-0.062001 -0.405277 -0.185484 3.000000
-0.130649 0.443911 0.038035 3.000000
-0.075268 0.418773 -0.154749 3.000000
0.141882 0.441048 -0.066765 3.000000
0.072516 -0.240851 -0.376444 3.000000
0.165036 -0.438891 0.069556 3.000000
0.136515 0.423616 -0.141298 3.000000
0.022214 -0.429818 -0.116776 3.000000
-0.138619 0.009930 -0.447316 3.000000
0.255882 -0.353197 -0.272576 3.000000
-0.221660 -0.359232 -0.264797 3.000000
0.087092 0.087114 -0.439021 3.000000
-0.169269 0.095374 -0.437175 3.000000
-0.157619 0.188745 -0.405835 3.000000
-0.244263 0.066846 -0.442435 3.000000
0.026278 0.353582 -0.273402 3.000000
0.280719 -0.028483 0.442282 3.000000
0.259361 -0.206852 -0.396196 3.000000
-0.045000 -0.096631 -0.436665 3.000000
-0.187963 -0.444859 -0.000138 3.000000
0.170040 0.344811 -0.284709 3.000000
0.238815 -0.073378 -0.441239 3.000000
-0.151349 0.305114 0.322814 3.000000
-0.005836 0.392621 -0.213290 3.000000
-0.012616 0.154436 -0.419951 3.000000
-0.271296 -0.047770 0.440459 3.000000
-0.135362 0.292041 -0.338692 3.000000
0.112310 0.276669 -0.351421 3.000000
-0.225376 0.001264 -0.447588 3.000000
0.056678 0.445321 0.017769 3.000000
0.188724 0.310599 -0.321719 3.000000
-0.074798 -0.421733 -0.143682 3.000000
0.195027 0.109125 0.429747 3.000000
0.042966 -0.393341 -0.209867 3.000000
-0.267620 0.236013 -0.380148 3.000000
-0.170314 -0.378649 -0.235664 3.000000
0.189805 0.397375 -0.203961 3.000000
-0.133276 0.001329 0.443233 3.000000
-0.062425 0.009034 -0.447344 3.000000
0.075246 -0.177772 -0.410140 3.000000
0.268147 -0.101761 -0.435518 3.000000
0.180785 -0.376207 -0.239794 3.000000
0.174818 -0.311035 0.315905 3.000000
-0.056939 0.217700 -0.390978 3.000000
-0.016728 -0.429654 0.112986 3.000000
-0.132553 -0.155591 0.414812 3.000000
-0.200046 -0.430958 0.108465 3.000000
0.117467 0.274242 0.348950 3.000000
-0.019344 0.267416 -0.358598 3.000000
-0.014258 0.401632 -0.195607 3.000000
0.199855 -0.217227 0.386298 3.000000
-0.236062 -0.069339 -0.441878 3.000000
-0.121250 0.433551 0.101448 3.000000
-0.219544 -0.392585 0.206997 3.000000
-0.244450 -0.378981 -0.235103 3.000000
0.262373 -0.439440 -0.070447 3.000000
-0.093907 -0.442293 -0.048662 3.000000
-0.118409 0.299847 -0.331810 3.000000
0.193239 -0.436381 -0.088558 3.000000
0.261625 0.307541 -0.324777 3.000000
0.183204 -0.425183 0.128373 3.000000
-0.273166 0.445725 -0.009268 3.000000
-0.266068 -0.398591 -0.199563 3.000000
0.057719 0.132833 -0.427358 3.000000
-0.287336 -0.274355 -0.352421 4.000000
-0.283642 -0.431557 0.105786 4.000000
0.221573 0.420668 -0.149484 3.000000
-0.120110 -0.265974 0.354569 3.000000
-0.197068 -0.208715 0.390894 3.000000
-0.151799 -0.433324 -0.102235 3.000000
-0.034223 -0.399768 -0.197252 3.000000
0.285503 0.443440 0.043021 1.000000
-0.172862 -0.434251 -0.098088 3.000000
-0.271126 -0.030632 -0.446433 3.000000
0.279265 0.022159 -0.446932 1.000000
0.191225 -0.251521 0.364839 3.000000
-0.166672 -0.211193 -0.393984 3.000000
-0.133827 -0.444859 -0.004201 3.000000
0.043295 0.288850 0.337152 3.000000
0.124009 -0.121720 0.425935 3.000000
0.009914 -0.386823 -0.221843 3.000000
0.284400 -0.153365 -0.419967 1.000000
-0.265394 -0.346575 -0.281113 3.000000
-0.130645 0.107696 -0.434420 3.000000
-0.165402 -0.443855 -0.032140 3.000000
-0.229033 0.022498 0.442567 3.000000
0.083510 -0.391286 0.209547 3.000000
-0.148931 -0.440043 -0.066634 3.000000
0.033544 0.445688 0.006092 3.000000
-0.133887 0.043612 -0.445303 3.000000
0.248495 -0.207813 -0.395706 3.000000
-0.174087 -0.155842 0.414722 3.000000
-0.083079 -0.444915 -0.001920 3.000000
0.007288 -0.106057 -0.434558 3.000000
-0.052571 -0.413302 -0.166940 3.000000
0.040311 -0.406582 0.178115 3.000000
-0.021233 0.111661 -0.433509 3.000000
0.022211 0.431696 -0.113839 3.000000
-0.277016 0.444445 0.032392 3.000000
0.251861 0.198952 0.396390 3.000000
-0.223038 -0.085864 0.434718 3.000000
-0.094552 0.442290 -0.058918 3.000000
-0.249350 0.346560 0.278100 3.000000
0.176107 -0.004773 0.443092 3.000000
0.035366 0.138559 -0.425667 3.000000
0.233731 -0.192284 0.399265 3.000000
-0.091747 -0.134266 0.422291 3.000000
-0.104959 0.055947 -0.444136 3.000000
-0.284821 0.430535 -0.117834 4.000000
0.231590 -0.284654 0.339948 3.000000
-0.115376 0.050475 0.440300 3.000000
-0.173459 0.390899 0.212316 3.000000
-0.141161 -0.415645 0.156236 3.000000
-0.144582 -0.285715 -0.343366 3.000000
-0.192978 0.139598 0.420939 3.000000
-0.175171 -0.029158 -0.446572 3.000000
0.272694 -0.091364 0.433489 3.000000
0.053199 0.122058 -0.430488 3.000000
0.109634 -0.171034 -0.413056 3.000000
0.286588 -0.320022 0.306919 1.000000
0.228000 -0.101927 0.431128 3.000000
0.134467 -0.434157 -0.098510 3.000000
0.253096 0.231094 0.378703 3.000000
0.121378 -0.096344 0.432375 3.000000
0.134697 0.442259 -0.059114 3.000000
0.271579 0.321626 0.306339 3.000000
-0.118158 -0.440462 0.059635 3.000000
-0.058449 0.200406 0.395649 3.000000
0.173980 0.438229 0.080208 3.000000
0.086391 -0.442807 0.038874 3.000000
-0.267534 0.040065 0.441284 3.000000
-0.232239 0.426474 -0.131811 3.000000
0.213327 0.281904 -0.347360 3.000000
0.125789 -0.240615 -0.376604 3.000000
-0.168585 0.254225 -0.368051 3.000000
0.052168 -0.443390 0.032703 3.000000
0.082978 -0.348320 -0.278864 3.000000
-0.262399 -0.311200 0.315740 3.000000
-0.228640 0.157053 -0.419008 3.000000
0.246133 0.317089 -0.315230 3.000000
-0.202559 -0.263486 0.356498 3.000000
0.233825 0.295346 0.331425 3.000000
-0.058289 -0.376315 -0.239612 3.000000
0.067965 -0.168760 -0.414040 3.000000
0.041905 0.443539 0.041977 3.000000
-0.215578 -0.095926 -0.436822 3.000000
0.050323 -0.382563 0.224694 3.000000
-0.134527 -0.351206 -0.275144 3.000000
0.097269 -0.419806 -0.149033 3.000000
-0.039034 -0.434234 0.093812 3.000000
0.104074 -0.120358 0.426331 3.000000
-0.244019 0.104760 0.430723 3.000000
-0.020685 0.412667 0.166422 3.000000
-0.289816 -0.280662 0.343175 4.000000
-0.125531 0.353802 -0.273118 3.000000
-0.223611 -0.250134 -0.370135 3.000000
-0.060188 -0.391914 -0.212668 3.000000
-0.114021 -0.034785 -0.446040 3.000000
0.164020 -0.393221 -0.210103 3.000000
-0.241293 0.445092 0.025056 3.000000
0.194777 0.305042 -0.327230 3.000000
0.165728 0.166854 -0.415308 3.000000
-0.029606 -0.135744 0.421861 3.000000
-0.085060 0.272313 0.350446 3.000000
0.242133 -0.199868 -0.399755 3.000000
0.223573 0.290655 0.335561 3.000000
-0.235102 -0.442893 0.037971 3.000000
0.024483 0.196754 0.397510 3.000000
-0.218108 -0.027008 -0.446747 3.000000
0.135938 0.404661 -0.189276 3.000000
0.272821 0.154281 -0.420007 3.000000
0.267699 0.171976 -0.413091 3.000000
0.131920 -0.442495 0.042179 3.000000
0.153946 0.276522 0.347181 3.000000
0.050467 0.195717 0.398038 3.000000
-0.116654 0.273826 0.349272 3.000000
0.101470 -0.284826 -0.344150 3.000000
0.002084 -0.137304 0.421396 3.000000
-0.101712 0.327205 0.300493 3.000000
-0.098549 0.401734 0.191053 3.000000
-0.274845 0.414919 -0.165455 3.000000
-0.256847 0.435964 0.090656 3.000000
-0.193337 -0.053723 0.439896 3.000000
-0.104207 -0.386375 -0.222601 3.000000
-0.226041 -0.439726 0.064288 3.000000
0.050766 -0.017377 0.442696 3.000000
0.129512 0.249452 0.366941 3.000000
-0.134863 -0.329285 -0.301325 3.000000
-0.119684 0.372029 -0.247587 3.000000
-0.023280 -0.117111 0.427275 3.000000
-0.288392 -0.398406 0.195573 4.000000
-0.074257 -0.136877 -0.425886 3.000000
-0.009867 0.356897 0.264774 3.000000
0.106566 0.146483 -0.422814 3.000000
0.175202 -0.437819 -0.080679 3.000000
0.008319 0.416597 0.156439 3.000000
0.069110 -0.182395 0.403786 3.000000
-0.063354 -0.024009 -0.446841 3.000000
-0.020709 -0.195005 0.397879 3.000000
0.286036 -0.146078 0.418237 1.000000
0.041117 -0.439396 -0.070720 3.000000
-0.141496 0.435833 -0.095595 3.000000
0.025303 -0.064973 -0.442570 3.000000
-0.143620 0.190464 -0.405068 3.000000
0.020441 0.056393 0.439738 3.000000
-0.236269 0.435426 -0.097418 3.000000
-0.194781 0.314381 -0.317937 3.000000
-0.106340 0.288126 -0.342143 3.000000
0.286488 -0.162545 0.412309 1.000000
-0.021486 -0.102573 0.430983 3.000000
0.223582 -0.304427 -0.326866 3.000000
0.282027 -0.121051 0.426130 3.000000
-0.214609 -0.344728 0.279142 3.000000
0.014257 0.305028 -0.327243 3.000000
-0.022258 -0.233639 -0.380946 3.000000
-0.031498 -0.236930 0.374646 3.000000
-0.204672 -0.356344 -0.268520 3.000000
0.186105 0.188671 -0.405867 3.000000
0.126836 0.403454 0.187677 3.000000
-0.109532 0.275324 -0.352464 3.000000
-0.058429 -0.333841 0.291805 3.000000
0.281837 0.440589 -0.069663 1.000000
-0.148818 0.340702 0.285185 3.000000
0.059551 0.057836 0.439509 3.000000
-0.244874 -0.246275 -0.372757 3.000000
0.161728 -0.443874 0.027592 3.000000
0.125907 0.188352 -0.406005 3.000000
0.199011 0.299093 0.328122 3.000000
-0.090234 0.025054 -0.446841 3.000000
0.174349 -0.391477 -0.213524 3.000000
0.044073 -0.143426 0.419192 3.000000
-0.011906 -0.199736 0.395468 3.000000
-0.211636 0.420225 0.146361 3.000000
0.183033 -0.388959 0.213877 3.000000
0.236676 -0.367712 0.248078 3.000000
-0.169316 0.035980 -0.446024 3.000000
0.286580 -0.331118 0.294893 1.000000
-0.199858 0.032446 0.442005 3.000000
0.074178 -0.231630 -0.382134 3.000000
0.143229 0.108899 -0.434151 3.000000
-0.032426 -0.149334 0.417065 3.000000
0.243671 -0.086833 0.434501 3.000000
0.238472 0.003864 0.443153 3.000000
