-0.096722 0.349985 0.273685 3.000000
-0.272110 -0.251673 0.364736 3.000000
0.205258 -0.237794 0.374135 3.000000
0.199731 -0.317222 0.309718 3.000000
0.205145 0.134719 -0.426810 3.000000
-0.026198 -0.435689 0.087303 3.000000
0.091928 -0.403495 0.185247 3.000000
0.271120 0.433671 -0.105269 3.000000
0.199204 0.400288 -0.198244 3.000000
-0.067586 0.303794 0.323977 3.000000
0.286773 -0.436057 -0.090009 1.000000
0.268891 -0.435310 -0.093349 3.000000
0.048089 0.252940 -0.368924 3.000000
0.090378 -0.435856 0.086554 3.000000
-0.250527 -0.416824 0.152963 3.000000
-0.161367 -0.117343 -0.431561 3.000000
0.182785 0.163963 -0.416521 3.000000
0.221768 0.270562 -0.356158 3.000000
0.040512 0.041468 0.441152 3.000000
0.196423 0.002408 0.443199 3.000000
-0.068980 -0.358200 -0.266127 3.000000
0.228175 0.329526 -0.302215 3.000000
-0.149779 -0.362898 -0.259515 3.000000
0.286326 -0.443572 0.030779 1.000000
0.096449 -0.040809 0.441117 3.000000
0.028377 0.422151 -0.145365 3.000000
-0.032749 0.442560 0.052331 3.000000
0.017002 -0.346121 0.277345 3.000000
0.031281 -0.231152 -0.382417 3.000000
-0.147739 0.439459 0.072439 3.000000
0.196562 -0.426720 -0.127439 3.000000
0.101779 -0.443697 0.029463 3.000000
-0.278103 0.442640 -0.055837 3.000000
0.225685 -0.293434 -0.336560 3.000000
-0.214348 0.381418 0.228363 3.000000
-0.133430 -0.369709 -0.249492 3.000000
-0.228746 -0.339944 -0.289236 3.000000
-0.139395 0.421294 -0.147747 3.000000
0.016418 -0.003378 -0.447490 3.000000
-0.287656 0.119131 -0.431339 4.000000
-0.279034 -0.276942 -0.350414 4.000000
0.242326 0.397829 0.198717 3.000000
0.286004 0.181940 0.404426 1.000000
-0.130421 -0.194065 0.398358 3.000000
-0.239293 0.445510 -0.016088 3.000000
-0.274148 -0.444833 -0.005040 3.000000
-0.085362 0.428697 0.119808 3.000000
0.068162 -0.407080 0.176965 3.000000
0.118767 0.407170 -0.183478 3.000000
0.040825 -0.328794 0.297528 3.000000
-0.023440 -0.444467 -0.016670 3.000000
0.096622 -0.411587 -0.170902 3.000000
-0.037948 0.355287 -0.271203 3.000000
0.214950 -0.444180 0.021448 3.000000
0.129075 0.134021 0.422660 3.000000
-0.026703 -0.127869 0.424149 3.000000
-0.065014 -0.079567 -0.440258 3.000000
-0.195573 0.052215 0.440136 3.000000
0.000041 -0.444526 -0.014804 3.000000
0.007372 0.254011 0.363843 3.000000
-0.146280 0.233028 0.377560 3.000000
-0.195089 -0.368448 0.246994 3.000000
-0.214588 0.212563 -0.393808 3.000000
-0.283956 -0.004134 0.443112 3.000000
-0.165942 -0.404647 0.182586 3.000000
0.137685 0.041431 0.441155 3.000000
0.148744 -0.419899 0.144422 3.000000
-0.288697 0.054551 0.439915 4.000000
-0.260999 -0.254849 0.362577 3.000000
0.237996 -0.376801 -0.238789 3.000000
0.086595 0.345980 -0.283202 3.000000
0.049521 -0.407152 -0.181151 3.000000
0.103204 0.384305 0.223480 3.000000
-0.096478 -0.147916 -0.421929 3.000000
0.232488 0.412014 -0.172284 3.000000
-0.088389 -0.253076 0.363782 3.000000
-0.239953 0.361716 0.258409 3.000000
-0.208520 0.376291 -0.241316 3.000000
-0.020297 0.167061 -0.415218 3.000000
-0.274642 -0.205214 0.392677 3.000000
0.228696 -0.418595 -0.152397 3.000000
0.064497 -0.277122 0.345921 3.000000
0.204025 0.333124 -0.298134 3.000000
-0.122104 0.432828 -0.109036 3.000000
-0.135139 0.258417 -0.365202 3.000000
-0.264091 -0.443861 0.027727 3.000000
0.046991 -0.165236 0.411211 3.000000
-0.150144 -0.443271 -0.038319 3.000000
0.217029 0.155638 0.415165 3.000000
-0.004994 -0.350135 0.272170 3.000000
-0.007205 0.372114 0.243108 3.000000
-0.041633 0.187561 -0.406347 3.000000
-0.277280 0.335013 0.291638 3.000000
-0.069233 -0.396505 -0.203657 3.000000
0.229762 -0.204618 0.392981 3.000000
-0.251027 0.227264 0.380969 3.000000
-0.066118 0.157452 0.414511 3.000000
-0.127979 -0.425356 -0.132132 3.000000
-0.207642 -0.295672 -0.334587 3.000000
-0.203507 0.035146 -0.446103 3.000000
0.135784 -0.444259 0.018926 3.000000
0.181365 0.312912 0.315053 3.000000
0.217862 -0.442632 -0.045077 3.000000
0.074548 -0.284634 -0.344319 3.000000
-0.121891 0.445699 0.005738 3.000000
-0.002695 0.331756 0.295332 3.000000
-0.010140 -0.434296 -0.097888 3.000000
-0.267559 -0.347277 0.275855 3.000000
0.197134 -0.438821 -0.074355 3.000000
-0.106919 -0.115238 0.427819 3.000000
0.241814 -0.262088 0.357583 3.000000
-0.118424 -0.389835 0.212395 3.000000
-0.033015 -0.424571 0.130481 3.000000
-0.246968 -0.439080 -0.072715 3.000000
0.040621 -0.354928 -0.270345 3.000000
-0.202692 -0.155601 -0.419162 3.000000
-0.043943 0.424808 -0.137545 3.000000
-0.080603 -0.235497 -0.379847 3.000000
0.068178 -0.212741 -0.393196 3.000000
0.188012 0.439762 -0.074884 3.000000
0.189267 0.351289 -0.276357 3.000000
0.105644 -0.094422 -0.437158 3.000000
-0.072178 0.443998 -0.041466 3.000000
0.127838 0.035310 0.441734 3.000000
-0.258744 0.268548 0.353367 3.000000
-0.046373 -0.164279 -0.415978 3.000000
-0.173232 -0.441818 -0.053691 3.000000
0.236424 0.407469 -0.182786 3.000000
0.223587 0.042778 0.441028 3.000000
-0.004006 -0.413152 -0.167285 3.000000
-0.180526 0.441757 0.057933 3.000000
0.103557 -0.381424 -0.230972 3.000000
-0.156073 0.087336 0.434618 3.000000
-0.222662 0.404436 0.185443 3.000000
-0.027726 0.439479 0.072314 3.000000
0.199659 0.445765 -0.007980 3.000000
-0.110786 0.169776 0.409690 3.000000
0.257487 0.243682 0.370862 3.000000
0.094229 0.441076 0.062234 3.000000
0.120285 0.344372 -0.285275 3.000000
0.021963 0.333972 0.292818 3.000000
0.019207 0.384371 0.223369 3.000000
0.095228 -0.210644 0.389910 3.000000
0.153633 -0.027812 0.442346 3.000000
-0.130093 0.328169 0.299400 3.000000
0.039795 -0.258494 -0.364453 3.000000
0.248355 -0.243052 -0.374948 3.000000
0.106570 0.259577 -0.364414 3.000000
0.046721 -0.442904 0.037844 3.000000
-0.238971 0.076560 -0.440897 3.000000
-0.195694 -0.337415 -0.292104 3.000000
-0.041126 0.407948 0.177325 3.000000
-0.266894 0.156684 -0.419142 3.000000
0.137954 -0.370815 0.243512 3.000000
0.087405 -0.407889 0.175095 3.000000
-0.052409 0.416978 -0.159734 3.000000
-0.236529 -0.444873 -0.003769 3.000000
0.253125 0.370506 -0.249827 3.000000
-0.285717 -0.398154 0.196068 4.000000
0.274317 -0.341297 -0.287701 3.000000
-0.220762 -0.334680 -0.295206 3.000000
0.113261 -0.248504 0.366889 3.000000
0.082971 0.407714 -0.182221 3.000000
0.167662 0.119271 0.426945 3.000000
-0.160147 -0.424684 -0.134445 3.000000
-0.117866 0.435328 -0.097855 3.000000
-0.181509 0.418541 0.151040 3.000000
0.048850 -0.267347 -0.357857 3.000000
-0.195933 0.226589 0.381368 3.000000
-0.132097 -0.332802 0.292983 3.000000
-0.062882 0.441787 -0.062093 3.000000
-0.162169 -0.409069 0.172367 3.000000
-0.102164 -0.154112 0.415345 3.000000
-0.216667 -0.125194 0.424926 3.000000
0.008084 -0.362877 0.255193 3.000000
0.093139 0.445744 0.004308 3.000000
0.058537 -0.444453 0.012771 3.000000
0.254700 0.351136 0.272201 3.000000
-0.194835 -0.408681 -0.177619 3.000000
-0.149324 -0.145783 -0.422697 3.000000
0.237719 0.364923 -0.258043 3.000000
0.080445 -0.156856 0.414357 3.000000
0.006285 -0.186584 0.401973 3.000000
-0.037064 0.407273 -0.183239 3.000000
0.068766 0.093723 0.433190 3.000000
-0.003569 -0.068879 -0.441951 3.000000
0.284197 0.337962 0.288292 1.000000
-0.034366 0.398577 0.197249 3.000000
-0.274456 -0.398976 -0.198808 3.000000
0.283202 -0.359294 0.260364 1.000000
-0.202150 0.244664 0.370195 3.000000
-0.100952 0.338815 0.287325 3.000000
0.200455 -0.439474 0.065879 3.000000
0.027200 0.043092 -0.445352 3.000000
0.199035 -0.321750 -0.309544 3.000000
0.013962 -0.049046 0.440339 3.000000
0.108478 -0.104152 0.430630 3.000000
-0.102630 0.378796 -0.237149 3.000000
-0.185596 0.364715 0.253996 3.000000
0.115329 0.445137 -0.027972 3.000000
-0.241605 0.390584 0.212863 3.000000
0.082266 -0.272485 0.349518 3.000000
0.064167 -0.402143 0.188238 3.000000
-0.203382 0.169304 0.409894 3.000000
-0.288904 -0.169462 -0.413736 4.000000
-0.095640 0.060935 0.439018 3.000000
0.092256 0.310268 -0.322051 3.000000
-0.072096 0.116982 0.427610 3.000000
-0.108591 -0.405634 0.180306 3.000000
0.093619 0.014326 -0.447178 3.000000
0.152560 0.020910 -0.446971 3.000000
0.275174 -0.256774 0.361269 3.000000
-0.270130 0.441301 -0.065162 3.000000
0.196558 0.163299 -0.416760 3.000000
0.116099 -0.185722 -0.406699 3.000000
-0.159864 -0.362340 -0.260335 3.000000
0.279832 0.366807 -0.255270 1.000000
-0.060411 -0.204772 -0.397256 3.000000
0.110968 0.445616 0.008368 3.000000
0.073265 0.251579 -0.369849 3.000000
-0.114466 0.422884 -0.143330 3.000000
0.128851 -0.374622 0.237911 3.000000
-0.170256 0.444673 -0.034329 3.000000
0.095614 0.430996 -0.116248 3.000000
-0.072306 -0.405750 -0.184392 3.000000
-0.049408 -0.444726 -0.008433 3.000000
0.041580 0.421035 -0.148466 3.000000
-0.133589 0.427874 -0.126994 3.000000
-0.081209 0.405881 -0.186457 3.000000
-0.205372 0.181493 0.404619 3.000000
-0.069621 -0.243489 -0.374651 3.000000
0.009833 0.041070 -0.445543 3.000000
-0.089806 -0.358006 0.262023 3.000000
0.157018 0.338243 0.287973 3.000000
-0.008098 -0.336060 -0.293640 3.000000
0.016357 0.311453 -0.320866 3.000000
-0.099752 0.237020 0.375199 3.000000
0.255180 0.422172 -0.145309 3.000000
-0.006970 -0.423857 0.132939 3.000000
-0.028083 0.149244 0.417467 3.000000
-0.040550 -0.380253 0.228599 3.000000
0.072015 0.186816 0.402316 3.000000
-0.184152 -0.068253 0.437697 3.000000
-0.127369 -0.389260 -0.217723 3.000000
0.232539 0.296615 -0.334659 3.000000
-0.205255 -0.372033 0.241719 3.000000
-0.012061 0.369448 -0.251385 3.000000
0.140735 0.008648 0.443003 3.000000
-0.034026 -0.406610 0.178050 3.000000
0.055847 0.301393 -0.330447 3.000000
-0.264240 -0.378034 0.232351 3.000000
-0.259962 -0.211099 -0.394032 3.000000
0.200655 0.125203 -0.429575 3.000000
0.282978 0.208098 -0.396083 1.000000
0.188744 -0.060452 -0.443286 3.000000
-0.251195 -0.141147 0.420013 3.000000
-0.222287 0.128895 -0.428502 3.000000
-0.057819 -0.081237 0.435640 3.000000
-0.045408 -0.217344 -0.390583 3.000000
0.044695 0.081833 0.435708 3.000000
-0.286726 -0.381416 -0.230986 4.000000
0.170402 -0.282290 0.341913 3.000000
-0.000104 0.240956 0.372716 3.000000
-0.257357 0.043118 0.440996 3.000000
-0.198038 0.408802 -0.179705 3.000000
0.035213 -0.194810 -0.402331 3.000000
0.224200 0.312133 0.315832 3.000000
-0.273932 -0.324324 -0.306952 3.000000
-0.153993 -0.326496 0.300136 3.000000
0.264027 -0.298741 -0.331881 3.000000
-0.054410 0.259009 -0.364800 3.000000
0.054092 0.145277 0.418895 3.000000
0.052067 -0.114369 0.428071 3.000000
0.099143 -0.440954 0.056531 3.000000
-0.058813 0.445650 -0.011644 3.000000
-0.274188 -0.444304 0.017519 3.000000
-0.148110 -0.291457 -0.338304 3.000000
0.065987 0.104536 0.430773 3.000000
0.073320 0.009713 -0.447323 3.000000
0.233881 -0.103545 0.430766 3.000000
-0.085226 -0.158079 -0.418270 3.000000
-0.086561 -0.378642 -0.235677 3.000000
0.225558 -0.327791 -0.303020 3.000000
0.201031 0.345802 0.279079 3.000000
0.259040 -0.359013 0.260726 3.000000
0.095570 -0.228939 0.379372 3.000000
0.214715 0.077341 -0.440773 3.000000
-0.200549 0.000522 0.443258 3.000000
0.072807 -0.230895 -0.382569 3.000000
0.018081 0.439224 0.073926 3.000000
0.125334 0.443491 -0.046828 3.000000
0.238581 -0.431237 -0.111573 3.000000
0.101556 0.430090 0.115013 3.000000
-0.124943 0.351531 -0.276045 3.000000
0.075493 0.389487 -0.219071 3.000000
0.087157 0.286378 -0.343684 3.000000
0.235959 0.059263 0.439283 3.000000
0.196607 0.435108 0.094486 3.000000
-0.286876 -0.312609 0.314332 4.000000
0.128937 -0.259916 -0.363487 3.000000
-0.272717 -0.387366 0.216572 3.000000
-0.181383 -0.370289 0.244286 3.000000
-0.114635 -0.064989 -0.442567 3.000000
-0.084587 0.349896 0.273800 3.000000
-0.173093 -0.282247 -0.346299 3.000000
0.255647 0.298719 -0.332805 3.000000
0.217675 -0.251411 -0.369267 3.000000
0.203360 -0.259936 0.359120 3.000000
-0.062970 0.357240 -0.268685 3.000000
-0.005586 -0.376672 0.234655 3.000000
0.240819 -0.354414 0.266654 3.000000
-0.177772 -0.438362 0.072898 3.000000
0.254944 -0.376218 -0.239776 3.000000
-0.152382 -0.444658 0.006236 3.000000
-0.031228 0.269573 0.352572 3.000000
-0.241606 -0.259106 0.359684 3.000000
-0.186884 -0.026565 0.442407 3.000000
0.130587 -0.408953 -0.176990 3.000000
0.193621 -0.431872 -0.108729 3.000000
0.122292 0.445536 0.010901 3.000000
-0.246353 0.017310 0.442730 3.000000
0.007971 -0.280341 -0.347777 3.000000
0.064388 -0.371511 -0.246841 3.000000
-0.149344 -0.411638 -0.170785 3.000000
0.203594 0.335200 0.291425 3.000000
-0.049602 -0.428462 0.117089 3.000000
-0.171866 0.308369 0.319596 3.000000
-0.195921 0.392248 -0.214023 3.000000
0.166248 0.275719 -0.352158 3.000000
-0.268832 -0.408221 -0.178680 3.000000
0.053494 0.345561 0.279389 3.000000
0.135887 0.360683 0.259893 3.000000
-0.064929 -0.437414 0.078884 3.000000
0.207192 -0.403790 -0.188920 3.000000
-0.267651 -0.204122 -0.397587 3.000000
-0.245123 -0.426544 -0.128044 3.000000
-0.101451 0.038834 -0.445754 3.000000
-0.085226 -0.243726 -0.374490 3.000000
-0.199488 0.375465 0.238177 3.000000
0.025935 0.440500 0.065867 3.000000
0.202877 -0.329012 0.297282 3.000000
-0.017446 -0.436039 -0.090091 3.000000
0.001347 -0.003133 0.443144 3.000000
-0.016828 0.401982 0.190566 3.000000
-0.118541 -0.360785 0.258270 3.000000
-0.015411 0.396551 -0.205578 3.000000
0.016284 0.066674 -0.442463 3.000000
-0.287959 -0.191929 -0.403800 4.000000
-0.027413 -0.098453 -0.436257 3.000000
-0.115588 -0.309083 0.317858 3.000000
-0.004165 0.326892 -0.305202 3.000000
-0.276576 -0.352446 -0.273544 3.000000
0.269568 -0.343040 0.281318 3.000000
-0.264767 -0.168705 -0.414064 3.000000
-0.130193 0.111669 0.429153 3.000000
-0.213334 0.273274 -0.354054 3.000000
-0.038539 0.333148 0.293752 3.000000
-0.209331 0.436885 0.086535 3.000000
-0.267519 0.091483 0.433691 3.000000
-0.018839 0.125309 -0.429544 3.000000
-0.087076 -0.423872 -0.137240 3.000000
0.141832 0.426294 0.128077 3.000000
0.218987 -0.130182 -0.427830 3.000000
-0.187521 -0.381193 -0.231363 3.000000
0.087032 -0.244788 -0.373768 3.000000
-0.131440 -0.144041 0.418971 3.000000
-0.252681 0.130855 -0.427933 3.000000
-0.063419 -0.443993 0.026334 3.000000
-0.004877 0.341993 0.283720 3.000000
0.173610 -0.444690 -0.009590 3.000000
0.176017 -0.000539 -0.447579 3.000000
0.274514 -0.414892 0.158330 3.000000
0.113746 0.325981 0.301881 3.000000
0.089551 0.030875 0.442153 3.000000
-0.258789 -0.427784 -0.123775 3.000000
0.276590 -0.161101 -0.417182 1.000000
-0.047032 -0.264887 -0.359765 3.000000
0.136426 0.285539 -0.344424 3.000000
-0.110205 -0.385847 0.219140 3.000000
-0.275860 0.433910 0.099847 3.000000
0.219948 0.445321 0.017760 3.000000
-0.134521 0.443618 -0.045495 3.000000
0.283650 0.353781 0.268791 1.000000
0.281280 0.171328 -0.413372 1.000000
-0.036973 -0.437109 -0.085164 3.000000
0.197983 -0.347741 0.275257 3.000000
0.254454 0.032203 0.442028 3.000000
-0.216899 0.180188 0.405185 3.000000
0.047696 -0.434398 0.093079 3.000000
0.260460 -0.315644 -0.315650 3.000000
0.140917 -0.361019 0.257926 3.000000
0.173657 -0.308895 0.318046 3.000000
0.250034 0.038288 -0.445806 3.000000
-0.251400 -0.107215 -0.434299 3.000000
0.183499 -0.397658 0.197041 3.000000
0.218244 -0.403379 -0.189870 3.000000
-0.181395 -0.305395 0.321545 3.000000
-0.224233 0.359865 0.260948 3.000000
0.027901 -0.220884 0.384136 3.000000
-0.047187 -0.309564 -0.321730 3.000000
0.158901 0.029507 -0.446636 3.000000
-0.088362 0.330748 -0.300828 3.000000
0.080077 0.054357 -0.444287 3.000000
-0.033175 -0.391677 -0.213132 3.000000
-0.168226 -0.431592 -0.109985 3.000000
0.134761 0.153219 0.416035 3.000000
0.267488 0.444995 -0.030927 3.000000
0.177928 -0.146436 -0.422462 3.000000
-0.229293 0.283853 -0.345848 3.000000
0.267404 0.220278 0.385100 3.000000
-0.289654 0.111816 0.429111 4.000000
0.061911 0.423939 0.136047 3.000000
0.036820 -0.134533 -0.426567 3.000000
-0.262897 -0.234029 0.376362 3.000000
0.194755 0.312350 0.315615 3.000000
0.266100 0.070755 0.437463 3.000000
0.160551 -0.368551 -0.251196 3.000000
0.147045 0.249973 0.366587 3.000000
-0.208238 -0.047806 -0.444809 3.000000
-0.092073 -0.389986 -0.216452 3.000000
0.065401 0.394404 -0.209791 3.000000
0.027054 -0.340282 0.284499 3.000000
-0.171167 0.125361 0.425175 3.000000
0.284483 0.246489 0.368955 1.000000
-0.189353 -0.332301 0.293551 3.000000
-0.054078 -0.197132 -0.401149 3.000000
0.131605 0.194994 0.398407 3.000000
-0.028827 0.396977 -0.204743 3.000000
-0.235458 0.403249 0.188080 3.000000
0.092451 -0.426393 -0.128562 3.000000
0.201093 -0.244062 -0.374261 3.000000
0.160462 -0.008268 0.442982 3.000000
0.130239 0.225648 0.381924 3.000000
-0.192750 0.108342 -0.434276 3.000000
-0.152068 0.412485 0.166842 3.000000
0.284257 -0.141468 0.419897 1.000000
-0.186245 -0.036929 0.441484 3.000000
-0.216319 0.254077 -0.368152 3.000000
0.041548 0.353695 -0.273256 3.000000
-0.026158 0.327629 -0.304366 3.000000
0.169606 0.139182 -0.425442 3.000000
-0.043085 -0.248015 -0.371575 3.000000
0.155013 0.211218 0.390140 3.000000
0.253523 0.221691 0.384264 3.000000
-0.070304 -0.361518 0.257192 3.000000
-0.081783 0.422829 0.139128 3.000000
-0.243340 -0.311237 0.315703 3.000000
-0.246886 0.439509 0.072124 3.000000
0.192709 0.374942 -0.243301 3.000000
0.133134 -0.413760 0.161472 3.000000
-0.182552 0.026950 -0.446781 3.000000
-0.085460 -0.165878 0.410934 3.000000
-0.157664 0.443111 -0.050854 3.000000
0.129790 -0.341850 -0.287074 3.000000
0.127564 -0.268299 -0.357118 3.000000
-0.213624 0.444089 0.036150 3.000000
-0.091246 0.297454 0.329566 3.000000
-0.159404 0.237590 0.374862 3.000000
-0.018237 -0.438487 -0.076463 3.000000
0.097675 -0.129361 -0.428069 3.000000
-0.054122 -0.043532 0.440860 3.000000
0.194615 0.437414 0.084170 3.000000
-0.092328 0.441429 0.060001 3.000000
0.025790 0.275443 0.348018 3.000000
0.273487 0.347275 0.277178 3.000000
-0.176632 0.356968 -0.269036 3.000000
0.200051 -0.410446 0.169187 3.000000
0.213313 -0.397381 0.197583 3.000000
-0.067041 -0.410009 -0.174550 3.000000
-0.105396 0.195773 -0.402363 3.000000
0.228550 -0.056075 0.439626 3.000000
0.106767 0.413059 -0.169869 3.000000
-0.144824 -0.114821 0.427940 3.000000
0.034066 0.352779 0.270083 3.000000
0.163218 0.001021 -0.447596 3.000000
-0.216219 -0.396549 -0.203571 3.000000
-0.147722 -0.420718 0.142145 3.000000
0.091624 -0.064491 0.438293 3.000000
-0.076189 0.445761 0.003758 3.000000
-0.023779 0.441363 0.060417 3.000000
-0.168778 0.317586 -0.314733 3.000000
-0.081185 0.440804 -0.068300 3.000000
0.001457 0.440093 -0.072789 3.000000
-0.019572 0.196470 -0.402008 3.000000
0.177525 -0.327946 -0.302844 3.000000
-0.178206 0.443829 -0.043259 3.000000
-0.023402 -0.424189 0.131795 3.000000
-0.095930 0.106228 -0.434749 3.000000
-0.067347 0.360721 0.259844 3.000000
-0.193816 0.178198 0.406046 3.000000
0.255180 0.416519 0.156655 3.000000
-0.066113 -0.194583 -0.402447 3.000000
0.222265 0.020384 0.442634 3.000000
0.147727 0.438117 0.080914 3.000000
-0.089694 -0.017510 0.442692 3.000000
-0.255046 -0.367205 -0.253177 3.000000
-0.115820 0.106743 0.430280 3.000000
-0.119247 -0.426986 -0.126524 3.000000
0.185986 -0.290185 -0.339425 3.000000
-0.268112 -0.000170 0.443237 3.000000
0.247634 -0.311924 -0.319370 3.000000
0.285216 -0.084548 0.435012 1.000000
-0.241666 -0.325804 -0.305274 3.000000
-0.146885 -0.069567 0.437489 3.000000
0.267868 0.413432 -0.169007 3.000000
-0.036026 -0.370051 0.244636 3.000000
-0.215692 0.104669 0.430743 3.000000
0.154871 -0.212462 -0.393338 3.000000
-0.149218 -0.261220 0.358247 3.000000
-0.056442 -0.288330 0.336707 3.000000
-0.030403 0.168781 0.410120 3.000000
-0.236816 -0.402348 -0.192190 3.000000
0.134932 0.097073 0.432442 3.000000
-0.240837 -0.365057 0.251985 3.000000
0.054832 -0.323493 -0.307801 3.000000
-0.091162 -0.293275 0.332347 3.000000
0.234331 0.409312 0.174174 3.000000
0.082784 0.185503 0.402884 3.000000
-0.204474 -0.071142 -0.441593 3.000000
-0.001790 -0.377792 -0.237114 3.000000
-0.089286 -0.196700 0.397015 3.000000
-0.234886 -0.441687 0.050719 3.000000
-0.235273 0.445158 -0.027303 3.000000
0.004525 -0.345738 -0.282193 3.000000
-0.149515 0.305182 -0.327107 3.000000
-0.258427 -0.004510 0.443100 3.000000
0.261477 -0.032984 0.441857 3.000000
0.116901 -0.427675 0.119798 3.000000
-0.163347 -0.444820 -0.005447 3.000000
-0.017366 -0.322541 -0.308752 3.000000
0.116889 -0.383326 -0.227757 3.000000
0.101403 -0.431796 -0.109073 3.000000
-0.133105 -0.255999 0.361795 3.000000
-0.088765 0.236608 -0.379796 3.000000
0.013269 0.443945 -0.042033 3.000000
0.091021 -0.434714 -0.096017 3.000000
-0.074587 -0.439571 -0.069615 3.000000
0.094790 0.425105 0.132170 3.000000
-0.263188 0.087300 -0.438980 3.000000
0.172488 -0.148273 0.417447 3.000000
0.093419 -0.229426 -0.383438 3.000000
0.264671 0.303722 -0.328394 3.000000
-0.002120 -0.314702 0.312238 3.000000
-0.103889 0.226917 0.381174 3.000000
0.102153 0.433846 -0.104484 3.000000
-0.068706 -0.424609 -0.134702 3.000000
0.045192 0.226824 0.381229 3.000000
0.244842 0.316792 0.311173 3.000000
0.004068 -0.169454 0.409386 3.000000
0.085895 0.307284 0.320681 3.000000
-0.257009 0.432275 0.107158 3.000000
0.021020 -0.094185 -0.437211 3.000000
0.049984 -0.438194 0.073955 3.000000
-0.070319 0.424685 0.133617 3.000000
0.149091 -0.017224 -0.447054 3.000000
0.030020 0.101953 -0.435704 3.000000
0.221037 -0.443639 0.030071 3.000000
0.033898 -0.442359 -0.047968 3.000000
-0.146540 -0.320249 -0.311044 3.000000
-0.003899 0.437152 -0.089693 3.000000
-0.208791 -0.347735 0.275265 3.000000
0.191738 0.445193 0.021845 3.000000
0.054881 0.379934 0.230872 3.000000
-0.214835 0.162534 0.412682 3.000000
0.258529 -0.299571 0.326796 3.000000
-0.162007 0.205168 -0.397576 3.000000
-0.266734 -0.439559 -0.069691 3.000000
0.124349 0.061345 -0.443307 3.000000
0.258922 -0.440770 -0.062050 3.000000
0.278882 -0.166006 0.410878 3.000000
0.190393 0.211335 0.390080 3.000000
0.216767 0.424864 -0.137354 3.000000
-0.049485 -0.371551 -0.246783 3.000000
-0.063103 0.054652 -0.444259 3.000000
-0.054021 -0.444323 -0.021260 3.000000
0.171793 -0.253221 0.363683 3.000000
-0.236157 -0.443553 0.030988 3.000000
-0.042100 -0.150923 0.416493 3.000000
0.179365 -0.315176 -0.316117 3.000000
0.171464 0.076332 0.436580 3.000000
-0.083794 0.431975 -0.112853 3.000000
0.151478 0.182045 -0.408734 3.000000
0.076449 0.101862 0.431371 3.000000
0.263205 0.127788 0.424470 3.000000
-0.138698 0.361323 -0.263340 3.000000
0.122837 -0.434913 -0.095125 3.000000
0.189040 0.426615 -0.131327 3.000000
0.195083 0.295092 0.331649 3.000000
0.225131 0.077908 0.436330 3.000000
0.082354 -0.053841 -0.444239 3.000000
-0.255837 0.008889 -0.447349 3.000000
-0.227230 0.399940 -0.198928 3.000000
0.250273 -0.198654 -0.400373 3.000000
0.185479 -0.133636 -0.426827 3.000000
-0.146684 0.428938 -0.123331 3.000000
0.142284 -0.387215 0.216827 3.000000
-0.178473 -0.049460 0.440299 3.000000
0.174545 -0.180449 -0.408981 3.000000
0.161258 0.214959 -0.392587 3.000000
0.241455 0.326067 0.301785 3.000000
0.054194 -0.037962 0.441386 3.000000
0.161185 0.145437 -0.423191 3.000000
0.043008 0.434950 0.095193 3.000000
-0.212602 -0.034736 0.441691 3.000000
-0.183500 -0.349167 -0.277772 3.000000
0.206757 0.006787 0.443061 3.000000
-0.013618 -0.101300 -0.435621 3.000000
-0.198272 0.117284 -0.431875 3.000000
-0.205183 0.129216 -0.428409 3.000000
0.126295 -0.300548 -0.330289 3.000000
0.286242 -0.434362 0.093237 1.000000
0.069515 0.207358 0.392107 3.000000
0.020855 -0.281756 0.342326 3.000000
-0.079724 0.371246 0.244385 3.000000
-0.084951 0.445722 -0.009351 3.000000
-0.067688 -0.265859 0.354658 3.000000
0.012017 0.433293 0.102607 3.000000
0.241842 0.267912 0.353860 3.000000
0.204616 -0.186245 0.402120 3.000000
-0.199177 -0.062598 0.438593 3.000000
-0.225571 0.228893 -0.384359 3.000000
-0.010339 -0.444844 -0.004666 3.000000
0.097699 0.021447 0.442600 3.000000
0.025631 -0.141689 -0.424171 3.000000
0.256372 0.067521 0.437975 3.000000
-0.271869 -0.414680 -0.163270 3.000000
0.101554 0.418859 0.150155 3.000000
0.247105 -0.253053 0.363798 3.000000
-0.208744 -0.380378 -0.232741 3.000000
0.170609 0.187571 0.401989 3.000000
-0.252890 -0.055083 -0.444121 3.000000
0.104290 0.438839 -0.080711 3.000000
-0.287217 0.350701 -0.277116 4.000000
0.264073 0.425457 0.130959 3.000000
-0.151251 0.131673 -0.427695 3.000000
0.252876 -0.404873 0.182064 3.000000
0.246733 -0.226732 -0.385030 3.000000
0.283823 -0.366697 0.249572 1.000000
0.185672 0.319894 -0.312425 3.000000
0.000426 -0.193390 0.398702 3.000000
0.085272 -0.112239 -0.433043 3.000000
0.154800 -0.337430 0.287733 3.000000
-0.181371 -0.174730 0.407103 3.000000
0.281703 0.420943 0.144369 1.000000
-0.058110 -0.267995 -0.357354 3.000000
-0.210926 -0.171053 -0.413047 3.000000
0.046096 -0.346086 0.277390 3.000000
-0.048723 0.445567 0.009932 3.000000
0.231048 0.273369 -0.353980 3.000000
0.046032 0.331220 0.295939 3.000000
0.259739 0.328699 0.298799 3.000000
0.141107 0.323466 0.304499 3.000000
-0.270273 -0.273007 -0.353466 3.000000
-0.132153 0.439571 0.071736 3.000000
0.248884 0.445861 -0.004927 3.000000
0.273218 0.410009 0.172563 3.000000
-0.197361 -0.345754 0.277819 3.000000
0.242919 -0.392373 0.207413 3.000000
-0.239803 -0.430706 0.109366 3.000000
0.169836 -0.441106 -0.059929 3.000000
-0.011301 -0.320325 0.306615 3.000000
0.225872 -0.019098 -0.446995 3.000000
0.063018 -0.324228 0.302708 3.000000
-0.181605 -0.441640 0.051221 3.000000
-0.124508 -0.170880 0.408769 3.000000
0.045973 -0.440059 -0.066535 3.000000
0.056896 -0.147427 -0.422105 3.000000
-0.220733 0.436717 0.087288 3.000000
0.089572 -0.220080 0.384611 3.000000
0.194947 -0.298248 0.327963 3.000000
0.173148 -0.270714 0.350891 3.000000
-0.199117 -0.081776 0.435555 3.000000
-0.003333 0.394314 -0.209969 3.000000
0.030474 0.429201 -0.122424 3.000000
0.172786 0.319692 -0.312627 3.000000
0.199247 0.076929 0.436485 3.000000
-0.132241 -0.129326 0.423726 3.000000
0.170093 -0.037400 0.441440 3.000000
0.102592 -0.243853 0.370050 3.000000
0.235916 0.370204 0.245919 3.000000
-0.124383 0.445807 -0.006658 3.000000
0.285469 0.416425 -0.161271 1.000000
0.283247 0.389536 0.214635 1.000000
-0.266553 0.326858 -0.305241 3.000000
-0.149222 -0.361611 0.257055 3.000000
0.286664 0.432381 0.106687 1.000000
0.210050 -0.334823 -0.295044 3.000000
-0.106570 -0.442163 0.045690 3.000000
-0.120549 -0.090891 -0.437948 3.000000
-0.264272 -0.324088 0.302852 3.000000
-0.213593 -0.426078 -0.129648 3.000000
-0.235096 0.425959 0.129230 3.000000
-0.157115 -0.283421 -0.345389 3.000000
-0.241292 0.383935 0.224106 3.000000
-0.055540 0.428361 -0.125317 3.000000
-0.243215 -0.434593 -0.096560 3.000000
-0.128763 -0.367267 0.248733 3.000000
-0.110036 -0.346483 -0.281232 3.000000
0.118198 0.292322 -0.338444 3.000000
-0.169283 0.402528 0.189494 3.000000
-0.230128 0.020976 -0.446969 3.000000
-0.169152 0.229157 0.379849 3.000000
-0.155568 0.120802 -0.430853 3.000000
-0.226725 0.363501 -0.260136 3.000000
0.016426 0.327179 -0.304877 3.000000
-0.050257 0.374538 -0.243896 3.000000
-0.239607 0.147143 -0.422576 3.000000
-0.056656 -0.444846 0.000275 3.000000
-0.113904 0.003158 0.443175 3.000000
0.032919 -0.423558 -0.138323 3.000000
0.196113 -0.391243 0.209630 3.000000
0.238258 -0.018901 -0.447002 3.000000
0.283227 -0.184757 -0.407117 1.000000
-0.147940 -0.085624 0.434772 3.000000
0.096304 0.240551 0.372991 3.000000
-0.180441 -0.226849 -0.384961 3.000000
0.207519 -0.006047 0.443052 3.000000
0.077746 -0.239856 0.372767 3.000000
0.104507 0.281819 -0.347426 3.000000
-0.107269 0.434146 -0.103143 3.000000
-0.120727 -0.422779 -0.140774 3.000000
-0.188708 -0.090025 -0.438141 3.000000
-0.260151 -0.215647 0.387233 3.000000
0.025979 0.235952 0.375831 3.000000
-0.231807 -0.235880 0.375267 3.000000
-0.057783 -0.244985 -0.373634 3.000000
0.152981 -0.432216 -0.107191 3.000000
0.148561 0.058513 0.439402 3.000000
0.168639 -0.349418 0.273096 3.000000
-0.019553 -0.396474 -0.203718 3.000000
-0.096508 0.173004 -0.412646 3.000000
0.070672 -0.271193 0.350520 3.000000
0.264850 -0.439449 -0.070385 3.000000
0.205171 -0.280128 -0.347942 3.000000
-0.278751 0.376057 0.237306 3.000000
0.251139 0.291495 0.334820 3.000000
0.089583 0.421996 0.141443 3.000000
0.177973 -0.381942 0.225744 3.000000
-0.096180 -0.416888 0.152784 3.000000
-0.043956 -0.373483 0.239586 3.000000
-0.252180 -0.432422 0.101918 3.000000
-0.218959 -0.194447 -0.402516 3.000000
-0.017249 -0.164453 0.411550 3.000000
0.097852 0.260800 0.359229 3.000000
0.116159 0.316674 0.311291 3.000000
0.050136 -0.444749 0.003356 3.000000
0.202914 -0.436195 0.085038 3.000000
-0.255957 -0.381734 0.226094 3.000000
0.077366 -0.429756 0.112633 3.000000
-0.065210 0.345891 0.278963 3.000000
0.195438 0.435708 -0.096153 3.000000
-0.164769 -0.267655 -0.357618 3.000000
-0.240357 0.280605 0.344014 3.000000
0.091265 0.442523 -0.057070 3.000000
0.093430 0.385611 0.221272 3.000000
0.125536 -0.444111 0.023652 3.000000
0.029133 0.439932 -0.073807 3.000000
0.006411 0.162006 0.412872 3.000000
0.092636 0.327184 -0.304871 3.000000
-0.166581 0.351293 0.271999 3.000000
0.069670 0.304081 -0.328077 3.000000
-0.006783 -0.132406 -0.427184 3.000000
-0.002608 0.354910 0.267336 3.000000
0.157623 -0.247114 0.367834 3.000000
0.110562 -0.030650 0.442078 3.000000
-0.158505 0.443524 0.042126 3.000000
-0.173958 -0.201452 0.394594 3.000000
0.045565 -0.418261 0.148971 3.000000
-0.178917 -0.336243 0.289080 3.000000
-0.152122 -0.253640 -0.367752 3.000000
-0.079046 0.162493 0.412697 3.000000
-0.213543 0.445688 0.006085 3.000000
0.087960 0.238028 -0.378956 3.000000
0.193574 -0.443486 0.031697 3.000000
0.285802 -0.125350 0.424881 1.000000
0.010038 -0.376869 -0.238674 3.000000
0.257858 0.393866 0.206493 3.000000
0.139044 0.380076 0.230631 3.000000
-0.141613 -0.102395 -0.435376 3.000000
-0.158262 -0.158619 -0.418076 3.000000
-0.241615 -0.230903 -0.382564 3.000000
0.123408 -0.245519 -0.373271 3.000000
-0.129171 -0.339170 0.285760 3.000000
0.188676 0.429399 -0.121744 3.000000
0.029372 -0.432200 0.102909 3.000000
0.029098 -0.103047 -0.435231 3.000000
-0.184153 -0.265166 0.355195 3.000000
0.183696 0.130189 0.423773 3.000000
-0.265254 0.349414 -0.278774 3.000000
0.271927 0.161974 0.412884 3.000000
-0.150284 -0.057063 -0.443823 3.000000
-0.118848 0.317758 -0.314561 3.000000
-0.194433 0.040728 0.441222 3.000000
-0.092985 -0.374014 -0.243158 3.000000
-0.132103 -0.318227 -0.313066 3.000000
-0.196920 -0.134153 -0.426677 3.000000
-0.035436 0.306164 -0.326154 3.000000
-0.227189 0.440328 -0.071307 3.000000
0.232250 0.436155 -0.094153 3.000000
0.226059 -0.436512 0.083620 3.000000
-0.164924 -0.320363 0.306577 3.000000
-0.148598 0.445674 0.006530 3.000000
0.026384 0.261731 -0.362950 3.000000
0.252369 -0.354499 0.266544 3.000000
-0.088015 -0.406741 -0.182101 3.000000
0.151600 -0.405607 -0.184721 3.000000
-0.122960 0.445088 0.025178 3.000000
-0.075521 0.149293 0.417449 3.000000
-0.241073 0.326194 0.301640 3.000000
-0.225381 -0.437907 -0.080125 3.000000
0.094027 0.444765 0.029001 3.000000
0.175237 0.362988 0.256537 3.000000
0.187756 0.392669 0.208844 3.000000
0.274251 0.445846 0.001048 3.000000
0.141690 -0.256509 0.361449 3.000000
0.077711 -0.086003 0.434687 3.000000
-0.217886 0.424160 0.135423 3.000000
-0.160774 0.401671 -0.195529 3.000000
0.179899 0.213903 -0.393125 3.000000
0.100057 -0.444634 0.006996 3.000000
0.223153 0.147660 -0.422390 3.000000
-0.141101 -0.442268 -0.048929 3.000000
-0.175559 -0.062268 -0.442998 3.000000
0.007847 0.250151 -0.370819 3.000000
-0.193676 -0.131622 0.423059 3.000000
-0.139161 -0.363261 -0.258981 3.000000
-0.116242 0.437428 0.084106 3.000000
-0.223798 -0.435304 0.089023 3.000000
-0.031717 -0.172216 -0.412544 3.000000
0.163684 0.203762 -0.398293 3.000000
-0.108958 -0.335418 -0.294369 3.000000
0.283615 0.321307 -0.311012 1.000000
-0.025808 0.366630 0.251178 3.000000
0.256246 0.330392 -0.301232 3.000000
0.062435 -0.426485 -0.128247 3.000000
-0.092874 -0.291272 -0.338466 3.000000
0.239054 -0.060047 0.438997 3.000000
0.226792 0.284215 0.341214 3.000000
0.083915 -0.437674 0.077244 3.000000
-0.080342 0.110303 -0.433838 3.000000
-0.002001 -0.210306 -0.394436 3.000000
0.194949 0.354724 0.267576 3.000000
0.140939 0.098908 -0.436385 3.000000
-0.125142 -0.216926 0.386476 3.000000
-0.136020 0.004570 -0.447484 3.000000
-0.044581 0.351564 0.271650 3.000000
0.211834 0.407433 0.178517 3.000000
-0.130478 0.352478 0.270472 3.000000
-0.070976 -0.413886 -0.165477 3.000000
-0.123180 -0.136022 0.421781 3.000000
0.239168 -0.325643 -0.305457 3.000000
0.002377 -0.220360 0.384446 3.000000
0.207514 0.329062 0.298388 3.000000
0.225962 -0.272872 0.349218 3.000000
0.283544 -0.140290 -0.424674 1.000000
-0.274957 0.108993 -0.434131 3.000000
0.213309 -0.304303 -0.326978 3.000000
-0.058069 0.323776 0.304189 3.000000
0.080995 0.017201 -0.447087 3.000000
0.129467 0.022187 0.442577 3.000000
-0.100106 0.279885 -0.348926 3.000000
-0.272045 0.443907 0.038082 3.000000
0.091361 0.444621 -0.034879 3.000000
0.199803 -0.444217 -0.024644 3.000000
0.170344 -0.377255 0.233669 3.000000
0.213610 0.428296 0.121187 3.000000
-0.178598 -0.385636 -0.223851 3.000000
-0.258063 0.445768 -0.007901 3.000000
0.265936 0.371707 0.243708 3.000000
0.261139 -0.273681 -0.352944 3.000000
-0.274876 -0.193905 -0.402793 3.000000
-0.154684 0.411129 -0.174328 3.000000
-0.141826 0.179154 -0.409985 3.000000
-0.038297 -0.421867 0.138954 3.000000
-0.224047 -0.087174 -0.438779 3.000000
-0.160335 -0.272680 0.349366 3.000000
0.158112 -0.174634 -0.411498 3.000000
-0.208628 -0.086840 -0.438853 3.000000
-0.081971 -0.378252 0.231982 3.000000
0.208481 0.326010 -0.306203 3.000000
-0.245880 0.239540 -0.378031 3.000000
-0.101641 -0.423499 -0.138523 3.000000
-0.160519 -0.050683 -0.444537 3.000000
0.240335 -0.243691 0.370160 3.000000
0.250580 0.262778 -0.362195 3.000000
0.224942 0.216743 0.387191 3.000000
-0.057006 0.380578 -0.234135 3.000000
0.003038 0.309632 0.318333 3.000000
-0.282270 -0.053299 -0.444290 4.000000
-0.090508 0.443853 -0.043003 3.000000
0.108527 0.126330 0.424894 3.000000
0.225682 -0.097383 0.432143 3.000000
-0.071241 -0.233077 0.376925 3.000000
-0.078768 0.158295 -0.418561 3.000000
0.008931 0.400909 0.192672 3.000000
-0.228236 0.228274 0.380371 3.000000
-0.235259 -0.427671 0.119810 3.000000
0.135546 0.319054 -0.313265 3.000000
0.177601 -0.055563 0.439707 3.000000
-0.043013 0.340278 -0.290019 3.000000
-0.196747 0.322305 0.305660 3.000000
0.212591 0.437755 0.082643 3.000000
0.268668 0.354354 0.268052 3.000000
0.268729 -0.444651 -0.010821 3.000000
-0.131154 0.374342 -0.244184 3.000000
0.080389 -0.386293 -0.222740 3.000000
-0.109883 -0.250181 -0.370103 3.000000
0.266789 0.128134 -0.428723 3.000000
-0.002550 0.249007 0.367244 3.000000
-0.220668 -0.193676 0.398556 3.000000
-0.096444 -0.349941 0.272421 3.000000
-0.134320 -0.093200 0.433078 3.000000
0.247669 0.331957 0.295104 3.000000
-0.063526 -0.020744 0.442590 3.000000
0.189886 -0.232933 0.377010 3.000000
0.266880 0.417506 0.153915 3.000000
-0.026418 0.438950 -0.080011 3.000000
0.254345 -0.099221 -0.436086 3.000000
-0.037372 0.421453 -0.147305 3.000000
-0.111515 0.423005 0.138640 3.000000
-0.142887 0.092915 0.433371 3.000000
-0.013365 -0.444625 0.007308 3.000000
-0.099961 0.413644 -0.168518 3.000000
-0.174777 0.288583 0.337387 3.000000
0.046086 0.445849 -0.005302 3.000000
0.187960 -0.444261 0.018886 3.000000
0.062676 0.011152 -0.447277 3.000000
0.142310 0.344409 0.280874 3.000000
0.275098 -0.414315 -0.164283 3.000000
-0.213753 -0.433627 -0.100880 3.000000
0.241168 -0.330600 0.295480 3.000000
0.027577 0.438679 0.077366 3.000000
-0.170088 -0.391453 -0.213572 3.000000
-0.186784 -0.207826 -0.395700 3.000000
0.071636 -0.347159 0.276008 3.000000
0.016361 0.407286 0.178855 3.000000
0.062094 -0.235642 0.375408 3.000000
-0.222016 -0.379650 0.229619 3.000000
0.116913 -0.402788 -0.191236 3.000000
-0.069350 0.272462 0.350331 3.000000
-0.026584 0.404366 0.185604 3.000000
-0.261815 0.391789 0.210571 3.000000
0.122081 0.415756 -0.163128 3.000000
-0.188090 0.386056 -0.224874 3.000000
-0.270281 -0.338930 -0.290386 3.000000
-0.155313 -0.326135 -0.304899 3.000000
0.281734 -0.420757 -0.146391 1.000000
0.244665 0.246733 0.368789 3.000000
0.000607 -0.440533 0.059189 3.000000
0.117960 0.243434 0.371031 3.000000
0.086672 -0.194756 0.398006 3.000000
-0.084033 0.259581 0.360058 3.000000
0.007991 -0.272328 0.349640 3.000000
-0.098066 -0.303140 -0.328003 3.000000
0.285128 0.444240 -0.038908 1.000000
-0.228295 -0.224572 -0.386308 3.000000
-0.051196 0.434254 0.098307 3.000000
0.041398 -0.436365 0.084276 3.000000
-0.266747 0.010142 0.442956 3.000000
-0.272634 0.429203 0.118066 3.000000
0.267986 -0.255266 -0.366647 3.000000
0.139522 0.083153 -0.439853 3.000000
0.095846 0.271259 0.351264 3.000000
0.254481 -0.352387 -0.273621 3.000000
-0.125419 -0.261779 0.357822 3.000000
-0.231295 -0.308135 0.318805 3.000000
-0.084204 0.413791 0.163825 3.000000
-0.007536 0.156885 0.414716 3.000000
-0.152929 -0.333198 0.292534 3.000000
0.056037 -0.368003 -0.252003 3.000000
-0.269383 -0.427309 0.121058 3.000000
0.065748 0.114267 0.428399 3.000000
0.038510 0.444802 -0.032966 3.000000
0.201383 0.425435 -0.135388 3.000000
0.071770 -0.062527 0.438604 3.000000
-0.075204 -0.204120 -0.397588 3.000000
0.237316 -0.033100 0.441846 3.000000
0.060045 0.311985 -0.320333 3.000000
-0.022740 -0.202513 -0.398407 3.000000
0.142736 0.442918 0.048543 3.000000
-0.070594 0.379387 -0.236149 3.000000
0.229270 -0.441757 -0.054339 3.000000
0.184320 0.071104 -0.441761 3.000000
0.012490 0.445382 -0.020162 3.000000
-0.040320 -0.381164 -0.231412 3.000000
0.278357 -0.317260 0.309680 3.000000
0.286054 0.220685 -0.389213 1.000000
0.134371 0.417279 -0.158897 3.000000
-0.141580 0.289835 0.336284 3.000000
0.132201 -0.164369 0.411586 3.000000
-0.137771 -0.214594 0.387856 3.000000
0.258448 0.273490 -0.353887 3.000000
0.189069 0.445300 -0.022776 3.000000
0.241185 -0.444206 0.020628 3.000000
0.277529 -0.056927 0.439491 3.000000
-0.212093 -0.355495 -0.269614 3.000000
0.037680 -0.412567 -0.168637 3.000000
0.065551 -0.041725 0.441031 3.000000
-0.131963 -0.108265 -0.434064 3.000000
0.065726 -0.334987 -0.294858 3.000000
-0.094076 0.228157 0.380441 3.000000
0.161883 0.309560 -0.322759 3.000000
0.153262 -0.303455 0.323373 3.000000
0.244490 -0.385769 0.219273 3.000000
-0.167165 -0.030518 -0.446443 3.000000
-0.204932 0.424878 -0.137304 3.000000
0.183197 0.431987 -0.112801 3.000000
0.246666 0.025342 -0.446831 3.000000
0.035184 -0.213605 -0.392755 3.000000
0.027985 -0.024488 -0.446826 3.000000
-0.083007 0.378023 -0.238457 3.000000
-0.117603 -0.339379 -0.289876 3.000000
-0.279769 -0.133210 0.422597 3.000000
-0.075755 0.224110 -0.387187 3.000000
0.129576 -0.188819 -0.405359 3.000000
-0.063095 -0.416706 0.153291 3.000000
0.011203 0.332182 0.294848 3.000000
-0.068667 -0.444640 -0.011169 3.000000
-0.270804 0.407049 0.179405 3.000000
0.014271 -0.436613 0.083170 3.000000
-0.055076 -0.156415 0.414516 3.000000
0.065260 -0.185454 -0.406815 3.000000
-0.156730 0.096536 -0.436915 3.000000
0.006674 0.307383 -0.324936 3.000000
0.158376 -0.271047 -0.354987 3.000000
-0.151911 -0.194462 0.398156 3.000000
0.273772 0.001701 0.443221 3.000000
-0.131219 -0.269063 -0.356526 3.000000
-0.003008 -0.363441 0.254362 3.000000
-0.185438 0.390984 0.212150 3.000000
-0.135103 -0.381318 0.226798 3.000000
0.035145 0.441613 -0.063194 3.000000
0.168199 0.323789 0.304176 3.000000
-0.113183 -0.430639 -0.113947 3.000000
0.087855 -0.342150 0.282380 3.000000
-0.234193 0.290296 0.335877 3.000000
-0.183055 -0.017124 0.442704 3.000000
0.107825 -0.134773 0.422143 3.000000
0.230365 0.445420 -0.018961 3.000000
-0.074501 0.211093 0.390204 3.000000
0.239086 0.129109 0.424087 3.000000
0.032888 -0.090737 -0.437982 3.000000
0.103657 0.183999 0.403535 3.000000
0.101710 -0.152337 -0.420337 3.000000
0.286592 0.257955 -0.365516 1.000000
-0.164466 0.414742 -0.165945 3.000000
-0.202094 -0.440184 -0.065746 3.000000
0.016447 -0.433353 -0.102106 3.000000
0.205492 -0.270776 -0.355197 3.000000
0.194627 0.034829 0.441779 3.000000
0.133178 -0.379375 -0.234436 3.000000
-0.064421 -0.011018 -0.447249 3.000000
0.235754 -0.150408 0.416679 3.000000
0.213490 0.397700 -0.203323 3.000000
0.262639 0.290239 -0.340281 3.000000
0.060906 0.445871 0.000241 3.000000
0.045114 -0.092295 -0.437634 3.000000
0.014660 -0.070143 0.437397 3.000000
0.060957 0.053371 0.440027 3.000000
-0.172988 -0.336546 -0.293090 3.000000
0.004861 0.177075 -0.410885 3.000000
-0.179764 -0.265576 -0.359230 3.000000
0.060763 0.404794 -0.188968 3.000000
0.011299 0.388365 0.216616 3.000000
-0.084642 0.330455 0.296808 3.000000
-0.141624 -0.287762 0.337208 3.000000
0.065549 -0.375544 0.236553 3.000000
-0.045944 -0.420151 -0.148073 3.000000
-0.097402 0.119255 -0.431303 3.000000
0.080805 -0.152815 -0.420165 3.000000
0.139086 -0.074738 0.436670 3.000000
-0.195105 -0.443271 0.033962 3.000000
-0.227353 0.377682 -0.239034 3.000000
0.259570 0.384265 -0.227901 3.000000
-0.288368 -0.441417 -0.057933 4.000000
0.093092 -0.309515 0.317425 3.000000
0.058310 -0.344743 -0.283476 3.000000
0.162832 -0.444732 -0.008229 3.000000
-0.010471 0.119536 -0.431221 3.000000
0.084233 -0.281191 0.342764 3.000000
-0.016014 0.061909 -0.443217 3.000000
0.174204 0.207622 0.391973 3.000000
-0.036119 -0.052925 -0.444325 3.000000
0.143438 0.305038 -0.327234 3.000000
0.116006 0.106031 -0.434793 3.000000
-0.040509 -0.302674 -0.328414 3.000000
-0.226440 -0.046889 0.440542 3.000000
0.010013 0.418301 0.151707 3.000000
0.239882 -0.122097 -0.430180 3.000000
0.084383 0.018996 0.442677 3.000000
-0.175157 0.412022 -0.172265 3.000000
0.243131 -0.278964 0.344492 3.000000
0.215178 -0.436575 0.083337 3.000000
0.213481 -0.179840 0.404891 3.000000
0.092500 -0.020730 -0.446944 3.000000
0.006855 0.104966 -0.435031 3.000000
-0.204078 0.295467 -0.335671 3.000000
-0.205573 -0.009970 0.442929 3.000000
0.162643 -0.164218 -0.416005 3.000000
-0.262362 0.438837 -0.080720 3.000000
0.270732 -0.440164 0.061517 3.000000
-0.165834 -0.151684 0.416219 3.000000
-0.080416 -0.439418 0.066227 3.000000
-0.070395 0.383063 0.225580 3.000000
-0.049657 -0.342178 0.282347 3.000000
-0.077760 -0.079605 -0.440252 3.000000
-0.090182 0.395132 0.204010 3.000000
-0.145805 -0.368043 -0.251944 3.000000
-0.131882 0.195533 0.398132 3.000000
0.054258 -0.437747 -0.081136 3.000000
-0.096757 -0.414801 -0.162934 3.000000
0.000072 -0.245028 -0.373605 3.000000
0.029929 -0.444634 0.007004 3.000000
-0.229838 -0.088684 0.434087 3.000000
0.096162 -0.373225 -0.244319 3.000000
0.284722 0.115186 -0.432485 1.000000
0.111474 -0.204533 0.393024 3.000000
0.210557 0.429929 -0.119918 3.000000
-0.024012 -0.378687 -0.235601 3.000000
-0.251357 0.445427 0.014398 3.000000
0.124700 -0.334200 0.291397 3.000000
0.117487 -0.180515 0.404599 3.000000
0.060108 0.041710 0.441129 3.000000
-0.289427 0.093394 0.433264 4.000000
-0.078606 -0.363031 -0.259320 3.000000
0.123071 0.445885 -0.000203 3.000000
-0.172437 -0.444518 -0.015050 3.000000
0.139127 -0.130970 -0.427602 3.000000
-0.110417 -0.229480 -0.383405 3.000000
-0.261745 -0.435052 -0.094503 3.000000
0.112898 -0.226831 0.380618 3.000000
0.133143 0.288704 0.337281 3.000000
0.005043 -0.354467 0.266586 3.000000
0.132413 -0.439118 -0.072480 3.000000
0.265737 -0.368176 0.247396 3.000000
-0.123972 0.177003 -0.410916 3.000000
-0.020575 -0.252345 -0.368632 3.000000
0.238454 -0.363846 0.253767 3.000000
-0.093883 0.430093 -0.119355 3.000000
-0.203823 0.168731 -0.414495 3.000000
-0.102039 -0.351868 -0.274289 3.000000
0.060672 -0.041831 -0.445374 3.000000
-0.277274 0.351200 -0.276473 3.000000
0.181689 -0.196761 -0.401337 3.000000
0.192319 -0.171165 -0.412999 3.000000
0.112347 -0.430896 -0.113063 3.000000
0.144210 -0.077903 -0.440522 3.000000
0.272249 -0.174698 -0.411470 3.000000
0.233117 0.145312 -0.423236 3.000000
-0.064280 0.436628 0.087686 3.000000
-0.164624 0.183544 0.403732 3.000000
0.281250 0.241692 -0.376568 1.000000
-0.053330 0.293264 0.333260 3.000000
0.003706 -0.353173 -0.272607 3.000000
-0.061852 0.440414 0.066412 3.000000
-0.142641 0.048103 0.440525 3.000000
-0.120984 -0.031636 0.441984 3.000000
-0.200291 0.078446 0.436245 3.000000
-0.093672 -0.260542 0.358708 3.000000
-0.149179 0.369969 -0.250618 3.000000
0.043558 0.297190 0.329800 3.000000
0.172913 0.427676 0.123320 3.000000
-0.123244 -0.408096 -0.178969 3.000000
-0.139931 0.263037 0.357642 3.000000
0.233843 -0.259536 -0.363745 3.000000
0.236557 0.216366 0.387413 3.000000
0.128090 -0.025134 -0.446806 3.000000
-0.249940 0.402650 -0.193609 3.000000
-0.156293 0.440783 -0.068432 3.000000
0.220393 0.252250 -0.369393 3.000000
0.282502 0.441175 0.061609 1.000000
0.236822 0.215072 -0.392530 3.000000
0.157050 0.269770 -0.356772 3.000000
-0.270423 -0.393259 -0.210028 3.000000
-0.174483 -0.081935 -0.439883 3.000000
-0.127855 0.445229 -0.025036 3.000000
-0.071764 0.015603 -0.447138 3.000000
0.143024 -0.444802 -0.006008 3.000000
-0.276253 -0.247761 -0.371748 3.000000
0.023393 -0.329934 -0.300589 3.000000
0.285762 0.390754 -0.216929 1.000000
0.110461 -0.443482 -0.036091 3.000000
0.206305 -0.021535 0.442565 3.000000
-0.021354 0.445683 -0.010580 3.000000
0.155033 -0.374028 -0.243137 3.000000
0.172642 0.129624 0.423937 3.000000
0.226546 -0.240072 -0.376973 3.000000
-0.105447 -0.287394 -0.341885 3.000000
0.150777 -0.091976 -0.437705 3.000000
0.088045 0.235324 0.376202 3.000000
0.023485 0.372063 0.243183 3.000000
-0.247801 0.352475 -0.274828 3.000000
-0.145802 -0.026189 -0.446773 3.000000
-0.003434 -0.442138 -0.050309 3.000000
-0.084339 -0.027100 0.442391 3.000000
-0.107528 -0.392745 -0.211036 3.000000
-0.242170 -0.440798 0.057517 3.000000
-0.069879 -0.166226 -0.415136 3.000000
0.033588 0.186320 0.402531 3.000000
-0.132274 0.274654 0.348630 3.000000
0.162426 0.148088 0.417883 3.000000
0.077966 -0.409804 0.170669 3.000000
-0.168958 0.056038 0.439775 3.000000
0.183155 -0.443823 0.028125 3.000000
0.166894 -0.336479 0.288812 3.000000
0.253595 -0.014320 0.442792 3.000000
0.229481 -0.400972 0.190537 3.000000
0.068540 -0.157717 0.414047 3.000000
0.115413 -0.052423 0.440019 3.000000
-0.132712 0.167856 -0.414874 3.000000
-0.193311 0.065689 0.438265 3.000000
0.023231 -0.245487 -0.373293 3.000000
0.224888 0.233111 -0.381864 3.000000
0.207711 -0.429383 -0.118273 3.000000
-0.127312 0.071967 -0.441624 3.000000
-0.156520 0.268346 0.353523 3.000000
0.170139 0.438108 -0.085322 3.000000
-0.268834 -0.435031 0.090247 3.000000
-0.016475 -0.315309 -0.315985 3.000000
0.270596 -0.014046 0.442801 3.000000
-0.064159 0.413299 0.164962 3.000000
0.236824 0.151022 0.416827 3.000000
0.046687 0.439523 -0.076389 3.000000
0.061286 0.415577 0.159273 3.000000
-0.139187 -0.283224 -0.345541 3.000000
0.251637 -0.397007 -0.202672 3.000000
0.183795 0.021765 0.442590 3.000000
-0.042207 0.276761 -0.351349 3.000000
0.276036 -0.438683 0.070869 3.000000
-0.195308 -0.186123 0.402172 3.000000
0.099127 0.249604 0.366838 3.000000
-0.023224 0.241227 0.372531 3.000000
0.199152 0.367606 0.249742 3.000000
-0.040020 0.230499 -0.383409 3.000000
0.245068 -0.286633 0.338204 3.000000
-0.260102 -0.111035 0.429040 3.000000
0.044434 -0.414441 0.159580 3.000000
-0.013150 0.034958 0.441767 3.000000
-0.107252 0.143811 -0.423776 3.000000
0.120563 0.424473 0.134345 3.000000
-0.001631 0.302413 0.325195 3.000000
-0.252296 0.343706 0.281777 3.000000
-0.258681 0.063995 -0.442887 3.000000
0.221498 0.292424 0.334001 3.000000
-0.205960 -0.106334 0.430142 3.000000
0.130628 -0.323973 -0.307321 3.000000
0.028172 0.160474 0.413424 3.000000
0.234213 0.344024 0.281370 3.000000
0.145977 0.285324 0.340261 3.000000
0.040521 0.412678 -0.170749 3.000000
0.250250 -0.372814 0.240570 3.000000
0.134642 0.052714 -0.444442 3.000000
0.152730 -0.295575 0.330320 3.000000
-0.057745 0.149081 -0.421879 3.000000
0.106899 0.367308 0.250181 3.000000
-0.083977 0.365571 0.252737 3.000000
0.138088 0.359503 -0.265768 3.000000
0.130742 -0.398454 -0.199832 3.000000
-0.152372 -0.317322 0.309618 3.000000
-0.075878 0.235561 -0.380415 3.000000
-0.173826 -0.413256 -0.167046 3.000000
0.061622 -0.438689 0.070832 3.000000
-0.235847 0.258988 -0.364814 3.000000
0.173934 0.102622 -0.435555 3.000000
0.065701 -0.248224 0.367080 3.000000
-0.197793 -0.345148 -0.282953 3.000000
-0.074885 -0.307095 -0.324199 3.000000
0.101760 -0.444241 0.019499 3.000000
0.214108 0.369274 0.247288 3.000000
-0.243805 0.321507 -0.310811 3.000000
0.001216 0.437641 0.083155 3.000000
0.026710 -0.289432 0.335735 3.000000
-0.186115 -0.004890 0.443088 3.000000
-0.201901 -0.320865 0.306075 3.000000
-0.127319 -0.444786 0.002170 3.000000
0.059249 -0.430704 0.109372 3.000000
-0.199703 0.378822 -0.237105 3.000000
-0.095128 -0.368719 0.246597 3.000000
0.246377 -0.185821 0.402303 3.000000
