-0.091115 -0.377606 0.233075 3.000000
0.042506 -0.251911 0.364574 3.000000
0.145525 -0.222897 0.382945 3.000000
0.034264 -0.107686 0.429840 3.000000
0.156117 0.002126 0.443208 3.000000
0.264727 -0.259195 0.359624 3.000000
-0.245848 0.418261 -0.156170 3.000000
0.246306 0.004643 0.443129 3.000000
0.216406 -0.319485 -0.311809 3.000000
0.093174 0.367212 0.250322 3.000000
0.143478 -0.270225 -0.355624 3.000000
-0.035745 -0.344109 0.279939 3.000000
-0.240151 -0.257309 0.360905 3.000000
-0.088793 -0.201349 0.394647 3.000000
-0.233728 0.431154 -0.115703 3.000000
0.120154 -0.424635 0.130262 3.000000
0.193321 0.398128 0.198131 3.000000
-0.189622 0.342910 0.282680 3.000000
0.066359 0.373890 -0.244848 3.000000
-0.243640 -0.080396 0.435774 3.000000
0.158563 -0.437812 0.076372 3.000000
0.227356 0.064772 0.438410 3.000000
-0.080642 0.426278 0.128132 3.000000
-0.236859 -0.373535 -0.243863 3.000000
-0.028117 0.095529 0.432787 3.000000
0.061314 -0.143136 0.419297 3.000000
0.032842 -0.311077 -0.320217 3.000000
0.119024 -0.434407 -0.097389 3.000000
-0.284173 0.219083 0.385807 4.000000
-0.276765 0.381997 -0.231737 3.000000
0.203237 -0.444763 0.002909 3.000000
-0.099379 0.110186 0.429510 3.000000
-0.109918 0.018759 -0.447038 3.000000
0.081512 -0.122816 -0.429970 3.000000
-0.100812 -0.393470 0.205260 3.000000
-0.172620 -0.103614 0.430750 3.000000
0.053136 0.193407 -0.403569 3.000000
0.260910 -0.369184 0.245911 3.000000
0.183212 -0.410027 0.170155 3.000000
-0.002859 -0.238076 0.373968 3.000000
0.017620 0.411204 -0.174157 3.000000
0.226014 -0.198960 0.395864 3.000000
-0.155662 0.169764 0.409695 3.000000
0.186026 -0.375800 -0.240481 3.000000
-0.107652 0.057209 -0.443962 3.000000
0.025784 -0.376003 0.235785 3.000000
-0.025199 -0.441553 0.052141 3.000000
0.106612 -0.262591 -0.361545 3.000000
0.194918 0.300649 0.326750 3.000000
0.056103 -0.320028 -0.311266 3.000000
0.039163 -0.047380 0.440496 3.000000
0.143526 -0.418420 0.148530 3.000000
-0.032355 -0.197428 -0.400998 3.000000
-0.045526 0.275566 -0.352276 3.000000
-0.220956 -0.060514 -0.443276 3.000000
-0.133723 0.099918 0.431806 3.000000
-0.066225 -0.314722 0.312219 3.000000
-0.053846 0.274380 0.348843 3.000000
0.108382 0.276438 -0.351600 3.000000
-0.137266 0.365102 -0.257780 3.000000
0.165576 -0.208124 -0.395548 3.000000
-0.108031 -0.242725 -0.375170 3.000000
0.137553 0.283448 -0.346163 3.000000
-0.039372 0.289130 -0.341258 3.000000
-0.061393 0.037614 0.441516 3.000000
-0.020435 -0.012299 0.442856 3.000000
-0.063000 0.164888 -0.416159 3.000000
-0.027892 0.406281 -0.185532 3.000000
0.075433 0.381963 -0.231795 3.000000
0.196097 -0.441974 0.047692 3.000000
-0.263802 0.419744 -0.152051 3.000000
-0.028846 0.239531 -0.378037 3.000000
-0.276141 0.445704 -0.009933 3.000000
-0.147843 -0.294038 0.331675 3.000000
-0.000797 -0.112709 0.428553 3.000000
-0.247898 -0.398067 0.196238 3.000000
-0.225775 -0.397557 0.197240 3.000000
-0.073265 -0.152911 -0.420131 3.000000
-0.154354 -0.340522 0.284226 3.000000
0.273724 0.445186 -0.026408 3.000000
-0.242338 -0.438948 0.069195 3.000000
0.130779 -0.324259 -0.307026 3.000000
0.062790 0.350976 0.272407 3.000000
-0.276582 0.410919 0.170462 3.000000
0.267840 -0.363320 -0.258894 3.000000
0.019313 0.146811 0.418342 3.000000
-0.282284 0.438444 0.078847 4.000000
-0.013049 -0.004092 0.443114 3.000000
-0.073381 -0.344301 0.279692 3.000000
0.146878 -0.117297 -0.431574 3.000000
0.137490 -0.403321 -0.190005 3.000000
-0.198464 0.443514 -0.046594 3.000000
0.009555 -0.378832 0.231002 3.000000
-0.237150 0.152285 0.416372 3.000000
0.051496 0.026446 0.442443 3.000000
0.066728 -0.066974 0.437899 3.000000
0.018327 -0.168896 -0.413981 3.000000
0.218703 0.070758 0.437462 3.000000
0.236212 0.442181 0.055255 3.000000
-0.143673 0.374095 -0.244547 3.000000
-0.043495 0.010498 0.442944 3.000000
0.234063 -0.049494 -0.444650 3.000000
0.217694 -0.115742 0.427672 3.000000
0.024443 -0.426040 0.125424 3.000000
0.111103 -0.026518 -0.446762 3.000000
0.070133 0.431596 -0.114181 3.000000
0.101314 0.445617 -0.012697 3.000000
0.026090 -0.220463 -0.388738 3.000000
0.249741 0.202131 0.394770 3.000000
-0.267978 0.426073 -0.133191 3.000000
0.189911 0.415298 -0.164400 3.000000
-0.036847 -0.061089 0.438831 3.000000
-0.098820 0.442076 0.055918 3.000000
0.048644 0.215981 0.387641 3.000000
-0.156213 -0.331200 0.294800 3.000000
-0.020671 0.152680 0.416230 3.000000
-0.235095 -0.303644 -0.327559 3.000000
0.068296 -0.444478 -0.016330 3.000000
-0.101339 0.196172 0.397806 3.000000
-0.288938 -0.320417 0.306524 4.000000
-0.286866 -0.418560 0.148140 4.000000
-0.051843 -0.352580 0.269018 3.000000
-0.157809 0.031464 0.442097 3.000000
0.022576 0.002369 -0.447553 3.000000
-0.151464 0.444500 0.031805 3.000000
0.061939 -0.202506 -0.398410 3.000000
-0.214456 0.139260 -0.425415 3.000000
-0.225674 0.204850 0.393385 3.000000
-0.262053 0.076681 0.436524 3.000000
-0.133349 -0.390760 -0.214932 3.000000
0.068627 -0.430495 0.110091 3.000000
-0.152481 -0.320558 -0.310736 3.000000
0.129900 0.312602 -0.319717 3.000000
-0.163854 -0.243056 -0.374945 3.000000
-0.125762 0.321958 0.306007 3.000000
-0.185249 0.305784 0.322181 3.000000
-0.287572 -0.443833 0.028021 4.000000
-0.233527 0.337915 -0.292699 3.000000
-0.065117 -0.406619 -0.182383 3.000000
0.275754 0.383617 0.224643 3.000000
0.259175 -0.402563 0.187401 3.000000
-0.017686 -0.320737 -0.310556 3.000000
0.162075 0.409311 -0.178530 3.000000
-0.282282 -0.181360 -0.408587 4.000000
0.083159 -0.339840 -0.289353 3.000000
-0.115578 0.418525 0.151085 3.000000
-0.257553 -0.424669 0.130144 3.000000
0.124438 -0.065887 0.438072 3.000000
-0.015210 0.335843 -0.295049 3.000000
-0.287362 0.281291 -0.347835 4.000000
-0.069120 0.119734 -0.431164 3.000000
0.246447 0.204399 -0.397968 3.000000
0.283117 0.053816 0.439985 3.000000
0.186868 0.295486 0.331302 3.000000
-0.245039 -0.406317 0.178727 3.000000
0.032369 0.167012 -0.415239 3.000000
0.000362 0.032652 -0.446339 3.000000
-0.079044 0.386490 0.219786 3.000000
-0.226145 0.056824 0.439669 3.000000
-0.028393 -0.405535 -0.184888 3.000000
-0.273888 -0.318799 -0.312495 3.000000
-0.193183 -0.281550 -0.346840 3.000000
-0.079788 0.208710 0.391418 3.000000
0.105319 0.111489 0.429206 3.000000
0.272272 0.435007 -0.099291 3.000000
0.032705 -0.138359 -0.425370 3.000000
-0.158377 0.426093 -0.133122 3.000000
-0.211830 0.185714 0.402793 3.000000
-0.198137 0.395145 -0.208337 3.000000
0.214476 -0.153918 -0.419768 3.000000
0.217155 -0.435732 -0.091463 3.000000
0.270190 0.173864 -0.412274 3.000000
-0.188723 -0.443315 0.033501 3.000000
0.183245 0.340855 -0.289365 3.000000
-0.019515 -0.191480 -0.404028 3.000000
-0.230913 -0.278005 -0.349589 3.000000
0.145057 -0.242096 0.371244 3.000000
0.004292 -0.285536 0.339170 3.000000
-0.239699 -0.040527 0.441144 3.000000
-0.036758 0.094280 -0.437419 3.000000
0.138867 -0.414210 0.160224 3.000000
0.047170 -0.443045 0.036359 3.000000
-0.082100 0.341221 0.284595 3.000000
0.260408 -0.093182 -0.437436 3.000000
-0.130369 0.445563 0.010053 3.000000
0.160209 0.348772 -0.279602 3.000000
-0.046273 0.444890 0.027684 3.000000
0.258286 -0.281507 -0.346873 3.000000
0.146408 0.269357 0.352739 3.000000
0.218965 0.423078 0.138437 3.000000
-0.131065 -0.263999 -0.360454 3.000000
-0.133260 0.146323 -0.422871 3.000000
0.236535 -0.443596 -0.034880 3.000000
-0.266400 -0.426669 -0.127613 3.000000
-0.067645 -0.269550 -0.356148 3.000000
-0.029563 0.037453 -0.445885 3.000000
-0.119962 -0.427858 0.119168 3.000000
0.083506 0.201238 0.395225 3.000000
-0.238240 0.164178 -0.416443 3.000000
0.286359 0.192438 -0.404062 1.000000
-0.148527 -0.408339 -0.178408 3.000000
0.035676 -0.364181 -0.257628 3.000000
0.035226 0.418366 -0.155879 3.000000
0.199225 0.442802 0.049767 3.000000
0.037192 -0.116225 -0.431885 3.000000
-0.193311 -0.441535 -0.056690 3.000000
-0.287268 -0.316834 -0.314460 4.000000
0.037513 0.103797 0.430939 3.000000
0.189901 0.063016 -0.443042 3.000000
-0.233526 -0.383413 -0.227609 3.000000
0.102035 -0.279199 0.344310 3.000000
0.090266 -0.221281 -0.388254 3.000000
-0.008832 -0.333963 0.291666 3.000000
-0.186162 -0.430936 -0.112920 3.000000
-0.010863 0.170170 0.409520 3.000000
0.113417 0.427148 -0.129493 3.000000
0.182235 0.268574 0.353346 3.000000
-0.209904 0.419718 0.147771 3.000000
-0.022166 0.322437 0.305528 3.000000
-0.011702 -0.345617 -0.282349 3.000000
0.276256 0.387605 -0.222255 3.000000
-0.084547 0.425152 -0.136363 3.000000
0.088414 0.066373 0.438157 3.000000
0.271510 0.118077 0.427292 3.000000
0.013569 0.065174 0.438347 3.000000
0.160266 0.193773 -0.403382 3.000000
-0.167521 -0.442823 0.038703 3.000000
-0.085915 0.016689 0.442750 3.000000
0.179648 0.066244 0.438177 3.000000
0.044388 -0.423404 -0.138851 3.000000
0.254835 0.329713 -0.302002 3.000000
-0.288976 -0.309567 -0.321726 4.000000
0.257558 0.428641 0.120001 3.000000
0.079220 -0.385299 0.220066 3.000000
0.015186 0.392842 0.208504 3.000000
0.147345 0.436298 0.089160 3.000000
0.171065 0.194716 -0.402902 3.000000
0.084360 0.133017 0.422951 3.000000
0.193213 -0.408374 0.173975 3.000000
0.184141 -0.410839 -0.172631 3.000000
-0.191493 -0.272972 -0.353494 3.000000
0.160004 -0.441262 0.054589 3.000000
-0.174474 0.439304 -0.077775 3.000000
-0.051156 0.048517 0.440485 3.000000
-0.164107 0.091818 -0.437970 3.000000
-0.216428 0.443386 -0.047941 3.000000
0.198960 0.184077 0.403501 3.000000
0.028677 0.403835 0.186832 3.000000
0.247548 -0.437693 0.077120 3.000000
0.204189 -0.376661 -0.239026 3.000000
0.260312 0.061226 -0.443325 3.000000
0.159388 0.445458 0.013408 3.000000
-0.063355 0.300413 -0.331311 3.000000
0.175807 -0.426580 0.123565 3.000000
0.272046 0.357593 -0.268230 3.000000
-0.177026 -0.309861 0.317080 3.000000
0.153629 0.180847 0.404899 3.000000
0.156388 0.423014 0.138614 3.000000
0.226063 -0.194971 -0.402250 3.000000
-0.211862 -0.259667 0.359303 3.000000
0.212521 -0.326265 -0.304751 3.000000
-0.043054 -0.298255 0.327957 3.000000
-0.028477 -0.152145 -0.420407 3.000000
0.286526 -0.154222 -0.419659 1.000000
-0.030969 0.327477 0.300186 3.000000
0.210968 -0.139136 -0.425090 3.000000
-0.093195 0.443688 0.040400 3.000000
-0.287173 0.294518 -0.336508 4.000000
0.181665 -0.439307 0.066931 3.000000
0.010356 0.388274 0.216769 3.000000
-0.073421 0.429762 0.116140 3.000000
-0.006877 0.436937 -0.090655 3.000000
0.078780 -0.314313 -0.316980 3.000000
0.120977 0.410717 0.170928 3.000000
0.176869 0.013846 0.442839 3.000000
-0.136652 0.442872 0.049024 3.000000
0.039751 -0.351235 0.270752 3.000000
-0.265353 0.418540 0.151041 3.000000
-0.011126 -0.308084 0.318856 3.000000
-0.276012 0.421114 -0.148247 3.000000
-0.175681 0.373321 0.241332 3.000000
-0.098563 -0.367500 -0.252743 3.000000
0.105073 -0.443003 0.036802 3.000000
-0.072997 0.312248 0.315717 3.000000
0.000227 -0.395817 0.200655 3.000000
-0.163761 -0.058700 0.439210 3.000000
0.127135 -0.345012 0.278776 3.000000
-0.189220 0.188518 0.401580 3.000000
-0.044811 0.063335 -0.442991 3.000000
-0.044563 0.352175 -0.275215 3.000000
0.020500 0.432783 0.104886 3.000000
-0.225553 -0.438445 -0.076728 3.000000
-0.117687 -0.145316 0.418512 3.000000
0.095287 0.445889 -0.000306 3.000000
-0.057248 0.138842 -0.425565 3.000000
0.102039 0.320440 -0.311879 3.000000
0.227948 0.272467 0.350327 3.000000
-0.110602 -0.421330 -0.144800 3.000000
-0.047343 -0.438178 -0.078409 3.000000
-0.239663 0.334620 0.292083 3.000000
0.071053 0.178559 0.405889 3.000000
-0.145583 0.441834 0.057449 3.000000
0.056797 -0.443416 -0.036786 3.000000
-0.161904 -0.441936 0.048091 3.000000
0.151396 0.338075 -0.292517 3.000000
-0.061604 -0.034827 0.441683 3.000000
0.224189 -0.399332 -0.198108 3.000000
-0.061780 0.379321 0.231908 3.000000
-0.022781 -0.362713 -0.259787 3.000000
-0.113679 -0.085171 -0.439226 3.000000
0.202914 0.071832 0.437292 3.000000
-0.000904 -0.032607 0.441892 3.000000
0.255282 -0.442051 0.046868 3.000000
0.232401 0.393787 -0.211002 3.000000
0.182700 0.429037 0.118638 3.000000
-0.207043 0.386903 -0.223440 3.000000
-0.118241 -0.217406 0.386193 3.000000
-0.102550 0.434569 0.096896 3.000000
0.159800 -0.139224 -0.425059 3.000000
-0.030564 0.387119 0.218722 3.000000
-0.014339 -0.243793 -0.374444 3.000000
-0.168566 0.110551 -0.433782 3.000000
-0.259531 -0.402485 -0.191921 3.000000
0.198246 0.336492 0.289960 3.000000
-0.064553 -0.443150 0.035242 3.000000
-0.119265 -0.224077 -0.386601 3.000000
-0.224508 0.356715 -0.269363 3.000000
0.246583 -0.345732 -0.282201 3.000000
-0.257137 -0.278919 0.344527 3.000000
-0.050970 -0.062930 -0.442893 3.000000
0.182804 -0.093317 0.433052 3.000000
0.234087 -0.391645 -0.213194 3.000000
-0.159104 -0.200255 0.395204 3.000000
-0.288165 -0.002435 0.443166 4.000000
-0.054204 0.395905 -0.206846 3.000000
0.160123 -0.404606 -0.187035 3.000000
0.003085 -0.302322 -0.328725 3.000000
-0.180466 -0.228018 0.379917 3.000000
0.004147 -0.022932 0.442522 3.000000
-0.066211 0.411906 0.168181 3.000000
-0.137338 0.237300 0.375033 3.000000
0.036244 0.291056 -0.339560 3.000000
0.262131 0.004737 0.443126 3.000000
-0.207124 0.223224 0.383358 3.000000
0.023367 -0.433293 0.098019 3.000000
0.285578 0.387476 0.218119 1.000000
0.204967 0.136277 -0.426357 3.000000
0.235181 0.331087 -0.300444 3.000000
0.101246 0.416535 0.156612 3.000000
-0.257984 0.152627 -0.420602 3.000000
-0.134792 -0.176142 0.406492 3.000000
-0.122284 0.144323 -0.423592 3.000000
0.152226 0.403376 -0.192183 3.000000
-0.016062 -0.312462 -0.318832 3.000000
0.079603 0.392906 0.208378 3.000000
-0.163331 -0.112934 0.428488 3.000000
0.280857 0.112221 0.428993 3.000000
0.029647 -0.174251 -0.411663 3.000000
-0.019786 -0.098877 0.431809 3.000000
-0.047025 -0.444601 0.008046 3.000000
-0.139161 0.380282 -0.234636 3.000000
0.285841 -0.390549 0.210992 1.000000
-0.122198 -0.387786 -0.220215 3.000000
-0.250027 0.219495 0.385563 3.000000
-0.050743 -0.374133 0.238629 3.000000
0.240880 -0.438953 -0.073516 3.000000
0.127429 0.443252 0.045012 3.000000
0.218612 -0.389126 0.213595 3.000000
0.218301 0.369845 0.246448 3.000000
0.171963 -0.019442 -0.446985 3.000000
-0.116564 -0.250600 -0.369818 3.000000
0.112328 -0.230201 0.378625 3.000000
0.037146 0.262194 0.358282 3.000000
0.255064 -0.411407 0.166966 3.000000
-0.277234 0.151550 0.416636 3.000000
-0.245498 -0.025643 0.442436 3.000000
-0.063370 0.209464 -0.395387 3.000000
0.005719 -0.104352 -0.434939 3.000000
0.098660 0.444135 0.035664 3.000000
0.009998 -0.119428 -0.430955 3.000000
0.195892 0.368473 -0.252819 3.000000
0.029472 0.078582 -0.440577 3.000000
0.261352 -0.068404 0.437673 3.000000
0.186609 0.087465 0.434589 3.000000
0.241871 0.279932 -0.348890 3.000000
0.281707 -0.163320 -0.416383 1.000000
0.233441 -0.187856 0.401423 3.000000
0.043011 0.420080 0.146765 3.000000
-0.120142 0.444437 0.032477 3.000000
0.127478 0.414929 0.161073 3.000000
0.124439 -0.444530 0.010330 3.000000
-0.233765 0.056153 -0.444117 3.000000
0.021195 0.445593 -0.013446 3.000000
0.013253 -0.422850 -0.140578 3.000000
-0.022772 -0.378380 0.231767 3.000000
0.076757 0.045611 0.440760 3.000000
-0.229024 0.110621 -0.433767 3.000000
-0.289458 0.287208 0.338600 4.000000
0.044414 0.004255 0.443141 3.000000
0.231297 -0.276422 -0.350817 3.000000
0.198227 -0.319987 0.306954 3.000000
-0.003050 0.442110 0.055700 3.000000
-0.103252 0.284983 0.340561 3.000000
0.192810 -0.440985 -0.060688 3.000000
0.055871 0.002309 0.443202 3.000000
0.237381 0.010110 0.442957 3.000000
0.046227 0.309767 -0.322551 3.000000
0.178666 0.149632 -0.421680 3.000000
0.279279 -0.235741 0.375349 3.000000
0.276202 -0.328762 -0.301918 1.000000
-0.167960 -0.178999 0.405255 3.000000
0.252732 0.081439 0.435771 3.000000
-0.283941 -0.444293 0.017851 4.000000
0.045106 0.331075 0.296104 3.000000
0.212227 0.338382 -0.292170 3.000000
-0.206000 -0.248849 0.366655 3.000000
-0.010385 -0.434557 -0.096719 3.000000
-0.275623 -0.408117 -0.178921 3.000000
-0.102328 0.002215 0.443205 3.000000
0.193152 -0.216368 0.386806 3.000000
-0.289349 0.438661 -0.081836 4.000000
-0.240647 -0.165933 0.410910 3.000000
-0.031786 -0.443693 -0.033853 3.000000
0.134164 -0.053767 -0.444246 3.000000
0.123450 -0.342284 -0.286581 3.000000
0.271161 -0.372375 -0.245571 3.000000
0.140811 0.363867 -0.259597 3.000000
0.195924 0.271594 -0.355357 3.000000
0.286445 0.343436 -0.286437 1.000000
-0.041728 0.026902 0.442429 3.000000
-0.136136 0.416583 -0.160832 3.000000
0.191013 0.445105 0.024641 3.000000
-0.234003 -0.432972 -0.103808 3.000000
-0.278448 0.216904 -0.391449 3.000000
0.111938 0.373410 0.241202 3.000000
0.151152 -0.427406 0.120722 3.000000
-0.070916 0.353638 0.268976 3.000000
-0.199031 -0.389356 0.213207 3.000000
0.188487 0.405776 0.182346 3.000000
0.073456 -0.315793 0.311148 3.000000
0.187541 -0.416002 -0.159598 3.000000
0.148634 -0.289647 -0.339899 3.000000
-0.242741 0.391118 -0.216241 3.000000
0.246786 0.127377 0.424590 3.000000
-0.224868 0.199503 -0.400463 3.000000
0.239340 -0.090656 -0.438000 3.000000
-0.145544 -0.158509 -0.418115 3.000000
-0.128309 -0.006152 -0.447402 3.000000
-0.220199 0.405217 -0.187990 3.000000
-0.081605 0.075781 0.436667 3.000000
0.198438 -0.289430 0.335737 3.000000
0.050083 0.428945 -0.123305 3.000000
-0.001522 -0.353886 -0.271689 3.000000
0.234946 -0.021767 -0.446912 3.000000
-0.253380 0.238941 -0.378417 3.000000
-0.184981 -0.427489 0.120436 3.000000
0.116391 0.445119 0.024200 3.000000
-0.213167 0.432047 0.108181 3.000000
-0.097870 -0.428389 -0.121694 3.000000
-0.064606 -0.439688 -0.068876 3.000000
0.123347 0.306609 -0.325710 3.000000
0.139095 0.261303 0.358888 3.000000
-0.221089 0.181653 -0.408904 3.000000
-0.103898 -0.083537 -0.439592 3.000000
-0.107651 -0.080364 0.435779 3.000000
-0.081194 0.286296 -0.343757 3.000000
0.286814 -0.180437 0.404633 1.000000
0.097963 0.445486 0.012519 3.000000
-0.229809 0.017495 -0.447078 3.000000
-0.037597 0.351920 0.271190 3.000000
0.001317 0.014578 -0.447170 3.000000
0.041127 -0.381575 0.226364 3.000000
0.009540 0.188117 -0.406106 3.000000
-0.078944 -0.419570 0.145335 3.000000
-0.276477 -0.257062 -0.365427 3.000000
0.182904 -0.314874 -0.316420 3.000000
-0.199280 0.381859 0.227616 3.000000
-0.190822 0.169875 -0.414000 3.000000
0.199925 0.132688 0.423047 3.000000
-0.110317 0.005000 -0.447471 3.000000
0.223400 0.091045 0.433789 3.000000
0.226887 -0.440051 -0.066585 3.000000
0.225950 0.407891 -0.181813 3.000000
-0.154633 -0.403711 -0.189103 3.000000
-0.216870 0.399862 -0.199079 3.000000
-0.186414 -0.277068 0.345963 3.000000
0.065997 0.037372 0.441539 3.000000
0.141764 0.416926 -0.159878 3.000000
-0.066581 -0.360515 -0.263022 3.000000
-0.154645 0.148801 0.417626 3.000000
0.009128 -0.370457 -0.248392 3.000000
-0.042116 -0.325671 0.301071 3.000000
0.213265 0.215742 0.387783 3.000000
0.248694 0.433457 0.101870 3.000000
0.260216 -0.358296 -0.266003 3.000000
-0.276154 0.357660 0.263790 3.000000
-0.125237 0.389214 0.215181 3.000000
0.056410 0.347776 -0.280887 3.000000
0.017037 0.445786 0.002956 3.000000
0.274436 -0.245536 -0.373260 3.000000
0.022995 -0.325488 -0.305632 3.000000
-0.102006 -0.427625 0.119970 3.000000
0.029029 0.335544 -0.295388 3.000000
-0.127655 0.257681 -0.365703 3.000000
0.088393 0.092221 -0.437880 3.000000
-0.138456 -0.293596 -0.336418 3.000000
-0.181284 0.038544 0.441428 3.000000
0.186176 0.442002 -0.060741 3.000000
-0.030305 -0.171470 0.408514 3.000000
0.031296 -0.190453 0.400198 3.000000
-0.066343 -0.283527 -0.345295 3.000000
0.061777 -0.427633 0.119943 3.000000
-0.262274 0.105191 -0.434980 3.000000
-0.163267 -0.001783 0.443186 3.000000
0.107543 -0.269446 0.351875 3.000000
0.168532 -0.429346 0.114046 3.000000
0.077446 0.313426 -0.318892 3.000000
-0.240357 -0.413095 -0.167418 3.000000
-0.095566 -0.444134 0.022926 3.000000
-0.134141 -0.328262 -0.302486 3.000000
0.243903 -0.122985 -0.429922 3.000000
-0.102052 -0.387976 0.215540 3.000000
0.038470 -0.377704 -0.237262 3.000000
0.228685 -0.444909 -0.002611 3.000000
0.051237 0.000210 -0.447602 3.000000
0.286017 0.445653 0.007188 1.000000
-0.165529 0.434450 0.097429 3.000000
-0.053453 -0.234695 -0.380321 3.000000
-0.062505 -0.346012 -0.281840 3.000000
-0.104356 -0.190622 -0.404465 3.000000
0.097735 0.171943 -0.413105 3.000000
0.286441 -0.273772 0.348520 1.000000
0.095733 -0.163319 -0.416383 3.000000
0.183159 -0.020053 -0.446965 3.000000
0.031042 0.155266 -0.419652 3.000000
-0.151243 0.001187 0.443237 3.000000
0.182998 -0.426755 -0.127316 3.000000
0.190076 -0.419204 -0.150704 3.000000
-0.263004 0.356447 0.265355 3.000000
0.115925 -0.188393 0.401190 3.000000
-0.124964 0.301917 -0.329985 3.000000
0.238214 0.439830 0.070099 3.000000
0.151726 0.309232 -0.323086 3.000000
-0.026897 -0.444229 -0.024242 3.000000
-0.100576 0.432435 -0.110797 3.000000
-0.230836 0.007305 0.443045 3.000000
0.158192 -0.151191 0.416397 3.000000
0.114606 -0.311937 -0.319357 3.000000
-0.181719 -0.298974 -0.331676 3.000000
-0.152863 0.358759 -0.266727 3.000000
-0.116399 0.445253 -0.024258 3.000000
-0.151338 0.315177 -0.317141 3.000000
0.266739 0.164890 -0.416158 3.000000
-0.203756 0.431617 -0.114108 3.000000
-0.163558 -0.280149 0.343573 3.000000
0.018731 0.440357 -0.071125 3.000000
-0.222819 -0.415916 0.155485 3.000000
-0.059848 -0.171825 -0.412713 3.000000
-0.145061 0.014159 0.442829 3.000000
-0.283439 0.436401 0.088701 4.000000
0.083941 -0.202964 -0.398177 3.000000
-0.099547 0.437734 -0.087088 3.000000
-0.004789 0.287757 -0.342469 3.000000
0.160820 -0.322471 -0.308823 3.000000
0.228141 -0.149445 -0.421379 3.000000
-0.143688 0.375015 0.238839 3.000000
0.027531 0.078659 0.436211 3.000000
0.254200 0.445103 -0.029045 3.000000
-0.207117 0.428604 -0.124481 3.000000
0.113674 0.418022 -0.156835 3.000000
-0.122963 -0.150722 -0.420919 3.000000
-0.261823 -0.254096 -0.367442 3.000000
-0.290185 -0.255978 0.361810 4.000000
0.170091 0.425061 -0.136676 3.000000
-0.114018 0.382202 -0.231389 3.000000
0.084588 0.371506 0.244004 3.000000
0.175619 -0.315964 0.310977 3.000000
-0.289355 0.197562 0.397098 4.000000
0.231540 -0.249350 -0.370668 3.000000
-0.138664 -0.091249 -0.437868 3.000000
0.014740 0.441157 0.061722 3.000000
-0.013583 -0.234749 0.375936 3.000000
0.173559 0.439344 -0.077523 3.000000
0.134864 -0.357378 0.262833 3.000000
-0.166120 0.252695 0.364737 3.000000
-0.006883 0.222268 -0.388277 3.000000
-0.097522 -0.043997 0.440816 3.000000
-0.020390 -0.051320 -0.444477 3.000000
0.061329 0.216346 0.387425 3.000000
-0.206424 0.002089 0.443209 3.000000
0.096571 -0.278821 -0.348956 3.000000
0.194494 -0.200171 -0.399600 3.000000
-0.193252 0.330802 0.296413 3.000000
0.177178 0.407961 0.177296 3.000000
0.281727 0.266909 -0.358991 1.000000
0.062229 -0.155192 0.414956 3.000000
0.088442 -0.317702 -0.313592 3.000000
-0.088967 0.286497 0.339227 3.000000
0.196976 -0.120901 0.426174 3.000000
0.283065 0.325487 0.302442 1.000000
0.226326 0.399098 -0.200580 3.000000
-0.001144 0.426179 -0.132827 3.000000
-0.208677 -0.250447 -0.369922 3.000000
0.241349 0.341660 0.284098 3.000000
-0.016199 -0.061767 0.438724 3.000000
-0.143396 0.172303 0.408596 3.000000
-0.265681 -0.411623 -0.170818 3.000000
0.048222 0.380226 -0.234731 3.000000
0.217556 0.257857 0.361229 3.000000
-0.054500 0.444202 -0.039313 3.000000
0.232047 0.337479 -0.293194 3.000000
-0.123080 0.280345 0.344216 3.000000
0.239673 0.142033 -0.424416 3.000000
0.206909 -0.064288 0.438325 3.000000
-0.137639 -0.384811 0.220892 3.000000
-0.010664 0.268181 0.353651 3.000000
-0.001665 0.204481 0.393573 3.000000
-0.059831 0.181757 0.404506 3.000000
0.104285 -0.423863 -0.137270 3.000000
0.219198 -0.081570 0.435588 3.000000
0.243625 0.359579 -0.265670 3.000000
0.268077 -0.346921 -0.280668 3.000000
-0.235935 0.358387 -0.267207 3.000000
0.143909 -0.054903 -0.444138 3.000000
-0.120187 0.234993 0.376398 3.000000
-0.183782 0.219557 -0.389880 3.000000
-0.107436 -0.104293 -0.434952 3.000000
0.034357 -0.432532 0.101427 3.000000
0.267706 -0.444519 0.010652 3.000000
0.163520 0.414741 0.161595 3.000000
0.173334 0.390904 0.212308 3.000000
-0.098351 0.395806 -0.207041 3.000000
0.277817 0.347936 0.276327 3.000000
-0.050958 0.322341 0.305624 3.000000
-0.192126 0.110088 0.429532 3.000000
-0.042714 -0.389500 -0.217317 3.000000
0.059189 -0.353517 0.267810 3.000000
0.050772 -0.444313 0.017233 3.000000
-0.157931 0.134267 -0.426942 3.000000
0.214973 0.326259 -0.305920 3.000000
-0.122379 0.096850 -0.436845 3.000000
-0.251465 0.412065 -0.172167 3.000000
-0.200708 0.018235 0.442701 3.000000
-0.241483 -0.061144 -0.443176 3.000000
0.171833 0.340376 -0.289908 3.000000
-0.108580 0.122346 -0.430405 3.000000
0.135279 -0.444469 0.012246 3.000000
-0.163478 0.440603 -0.069571 3.000000
-0.034779 -0.372158 0.241535 3.000000
-0.202374 0.369189 0.247412 3.000000
-0.077226 -0.089122 -0.438343 3.000000
0.254295 0.432070 -0.112431 3.000000
-0.207068 0.292227 -0.338528 3.000000
0.098079 0.017795 0.442715 3.000000
-0.208839 -0.040483 -0.445501 3.000000
-0.255485 -0.426884 -0.126874 3.000000
0.018273 -0.097658 -0.436435 3.000000
0.055223 0.294887 -0.336183 3.000000
-0.008436 -0.415402 0.156913 3.000000
0.096125 0.099631 -0.436223 3.000000
0.166070 -0.360939 0.258044 3.000000
0.280069 0.017687 0.442719 3.000000
-0.000606 0.195536 0.398130 3.000000
-0.172787 0.443803 0.039180 3.000000
-0.068871 0.132128 0.423209 3.000000
0.239909 -0.198577 -0.400412 3.000000
-0.107588 -0.105148 0.430407 3.000000
0.237399 -0.428078 -0.122763 3.000000
-0.166690 0.416270 -0.161702 3.000000
-0.209323 0.364431 0.254414 3.000000
-0.038119 0.414263 0.162734 3.000000
0.172161 0.419093 0.149507 3.000000
-0.072520 0.216384 0.387403 3.000000
0.142754 -0.444705 -0.009096 3.000000
0.136613 0.296687 0.330242 3.000000
0.189408 0.121532 -0.430641 3.000000
0.058109 -0.417420 -0.155659 3.000000
0.275438 -0.416938 0.152646 3.000000
0.125494 -0.335752 -0.293990 3.000000
0.033169 -0.444324 -0.021222 3.000000
-0.159974 0.155633 -0.419520 3.000000
-0.058915 0.292068 0.334315 3.000000
-0.019392 -0.426808 0.122781 3.000000
-0.233966 0.347345 0.277088 3.000000
0.169657 0.000775 -0.447604 3.000000
-0.249826 -0.442609 0.040965 3.000000
-0.165687 0.445741 -0.008735 3.000000
0.183070 -0.434536 0.092462 3.000000
0.111332 -0.001546 0.443194 3.000000
-0.061473 0.249810 0.366698 3.000000
-0.024760 -0.086862 0.434495 3.000000
-0.257135 0.140560 -0.424947 3.000000
0.262918 0.424960 0.132669 3.000000
0.247618 -0.444183 0.021347 3.000000
-0.220020 0.444443 0.032412 3.000000
-0.112225 -0.206930 -0.396157 3.000000
-0.009158 0.050193 -0.444680 3.000000
-0.085680 -0.181510 0.404169 3.000000
-0.083860 0.439223 0.073929 3.000000
-0.204155 0.320298 0.307667 3.000000
-0.199902 -0.021583 -0.446917 3.000000
-0.027298 -0.065787 0.438087 3.000000
0.286263 -0.297955 -0.332575 1.000000
-0.021720 0.086178 0.434877 3.000000
0.076126 -0.331442 0.294526 3.000000
0.196958 -0.199184 0.395750 3.000000
-0.037358 0.341572 0.284197 3.000000
0.182576 -0.444218 -0.024610 3.000000
0.028398 -0.415854 -0.160010 3.000000
0.009788 -0.311787 0.315153 3.000000
0.034306 -0.403050 -0.190631 3.000000
0.042165 -0.326492 0.300139 3.000000
0.101599 0.402565 -0.193775 3.000000
0.129498 -0.038924 -0.445649 3.000000
-0.180470 -0.444399 -0.018837 3.000000
-0.190582 -0.308511 0.318429 3.000000
0.039812 0.228959 -0.384319 3.000000
0.154809 -0.426501 -0.128191 3.000000
0.245157 -0.244896 -0.373694 3.000000
-0.127189 0.443628 0.041033 3.000000
-0.088799 0.041714 -0.445482 3.000000
0.024111 -0.316396 -0.314897 3.000000
0.081628 0.422207 0.140856 3.000000
-0.265894 -0.444108 -0.028111 3.000000
-0.054171 -0.411172 0.167509 3.000000
-0.263709 0.406651 -0.184677 3.000000
0.048997 -0.414722 0.158801 3.000000
-0.005218 0.335157 -0.295827 3.000000
0.252589 0.343766 0.281703 3.000000
0.069346 0.301137 0.326320 3.000000
0.168517 0.076504 0.436552 3.000000
-0.101525 0.161719 -0.417329 3.000000
-0.239058 -0.415903 0.155520 3.000000
-0.259809 0.184455 -0.407691 3.000000
-0.098022 -0.138933 -0.425163 3.000000
-0.007737 -0.167151 0.410383 3.000000
-0.050472 -0.339473 0.285417 3.000000
0.045975 0.227217 0.380996 3.000000
-0.191308 -0.434138 -0.098594 3.000000
0.256827 -0.223796 0.382414 3.000000
0.061770 0.442734 0.050488 3.000000
0.260833 -0.040123 -0.445535 3.000000
-0.279113 0.008620 0.443003 3.000000
0.101909 0.308146 -0.324172 3.000000
0.286770 -0.410264 -0.173959 1.000000
0.285334 0.252788 0.364674 1.000000
0.029842 -0.443330 -0.037695 3.000000
0.104433 -0.444722 -0.008550 3.000000
0.095240 -0.285696 0.339029 3.000000
0.215360 0.185457 0.402904 3.000000
0.236434 0.268642 -0.357647 3.000000
0.238394 -0.439132 0.068037 3.000000
-0.190652 0.199457 0.396133 3.000000
0.217766 -0.042327 0.440974 3.000000
0.180881 0.445339 0.017191 3.000000
-0.239643 -0.378617 -0.235719 3.000000
-0.241573 0.445411 0.014892 3.000000
0.049724 0.445327 -0.021922 3.000000
-0.289728 -0.214091 -0.392506 4.000000
0.124513 0.117802 0.427372 3.000000
-0.006190 -0.437668 -0.081630 3.000000
0.071379 0.369831 0.246467 3.000000
0.266923 0.436857 -0.091012 3.000000
0.045442 0.401188 -0.196478 3.000000
0.024593 0.444618 -0.034907 3.000000
-0.118268 -0.099619 0.431643 3.000000
-0.250013 0.105295 -0.434957 3.000000
0.123898 0.399094 -0.200587 3.000000
-0.193938 0.322052 0.305913 3.000000
-0.228885 0.445023 0.026276 3.000000
-0.026262 0.293123 -0.337738 3.000000
0.163127 -0.409056 -0.176751 3.000000
0.193609 -0.157875 0.413990 3.000000
0.008692 -0.438257 0.073559 3.000000
0.040832 0.413633 0.164189 3.000000
-0.054905 -0.444287 0.018059 3.000000
0.093400 -0.406766 0.177690 3.000000
0.200246 -0.349153 -0.277790 3.000000
0.152049 0.352299 -0.275055 3.000000
0.271918 0.266987 0.354577 3.000000
-0.005874 -0.316747 -0.314547 3.000000
-0.038632 -0.395135 -0.206347 3.000000
0.114078 -0.302445 0.324263 3.000000
0.133468 0.290822 -0.339766 3.000000
-0.145374 -0.177880 0.405740 3.000000
0.084502 0.241288 0.372490 3.000000
-0.143670 0.419427 -0.152932 3.000000
-0.059010 0.375008 -0.243204 3.000000
-0.185722 -0.073644 0.436843 3.000000
0.185116 -0.323799 -0.307494 3.000000
-0.232325 0.445130 -0.028190 3.000000
-0.215704 -0.074341 0.436733 3.000000
0.203615 -0.172893 0.407898 3.000000
-0.285512 0.373243 -0.245800 4.000000
-0.088964 0.257561 0.361430 3.000000
-0.136212 -0.016896 -0.447065 3.000000
0.234532 -0.437737 0.076845 3.000000
0.286451 -0.093686 -0.437323 1.000000
-0.087369 0.435986 -0.094912 3.000000
0.183765 0.405148 -0.188149 3.000000
0.165256 0.440882 0.063454 3.000000
0.048602 0.261497 0.358756 3.000000
0.252636 -0.347818 0.275158 3.000000
-0.070740 -0.388455 -0.219083 3.000000
-0.174146 0.442809 0.049694 3.000000
0.081650 -0.066374 -0.442348 3.000000
-0.175754 -0.084278 -0.439426 3.000000
-0.105758 0.417612 -0.157972 3.000000
0.010477 0.105053 0.430658 3.000000
0.103155 -0.416135 0.154877 3.000000
0.194664 -0.388977 -0.218202 3.000000
-0.275543 0.297633 0.329408 3.000000
0.083924 -0.175712 0.406678 3.000000
0.110194 -0.343125 0.281208 3.000000
0.017762 -0.114936 0.427906 3.000000
0.233185 0.016373 -0.447113 3.000000
-0.162490 -0.437810 -0.080733 3.000000
-0.250130 -0.046987 0.440533 3.000000
0.285041 -0.437382 0.079082 1.000000
0.222363 0.309452 -0.322866 3.000000
-0.251310 -0.055029 -0.444126 3.000000
-0.160946 -0.412103 0.165356 3.000000
-0.189119 -0.391383 0.209356 3.000000
0.010546 -0.233804 0.376495 3.000000
-0.125970 -0.406290 0.178791 3.000000
0.051235 0.415971 -0.162530 3.000000
-0.052253 0.146555 -0.422788 3.000000
0.284074 0.376107 -0.241586 1.000000
-0.140425 0.338097 -0.292493 3.000000
0.017558 -0.356707 -0.268052 3.000000
-0.050149 -0.216552 -0.391051 3.000000
0.113257 -0.219229 -0.389468 3.000000
-0.150829 -0.084162 -0.439452 3.000000
-0.257576 0.432594 0.105733 3.000000
-0.147564 -0.237674 -0.378559 3.000000
0.128650 0.354578 -0.272117 3.000000
-0.279901 0.425399 -0.135511 3.000000
0.138087 -0.154555 -0.419539 3.000000
0.213055 0.389587 0.214550 3.000000
-0.066028 0.144425 -0.423555 3.000000
0.182530 -0.234236 0.376239 3.000000
0.047353 -0.054464 0.439826 3.000000
-0.256474 0.437328 0.084555 3.000000
-0.094558 -0.170878 -0.413123 3.000000
0.197221 -0.314151 -0.317143 3.000000
0.171781 0.298807 0.328373 3.000000
0.111835 -0.388199 -0.219517 3.000000
0.148202 0.155947 -0.419407 3.000000
-0.257901 -0.252677 0.364054 3.000000
-0.223064 0.436575 0.087923 3.000000
0.241621 -0.444472 -0.016525 3.000000
0.184582 0.131006 -0.427889 3.000000
0.243199 -0.209935 -0.394625 3.000000
0.152457 0.415960 -0.162563 3.000000
0.180573 -0.036384 0.441535 3.000000
0.095023 -0.394958 -0.206693 3.000000
0.020455 -0.055962 -0.443997 3.000000
-0.106157 0.209689 -0.395273 3.000000
-0.207421 -0.442977 0.037082 3.000000
-0.186387 -0.319032 -0.312262 3.000000
0.286415 0.274423 0.348809 1.000000
0.095351 -0.020233 0.442606 3.000000
0.191384 -0.003911 -0.447473 3.000000
-0.288078 0.148133 0.417867 4.000000
-0.021781 -0.409457 -0.175825 3.000000
-0.030124 0.079485 0.436080 3.000000
0.107849 0.424627 0.133817 3.000000
-0.210978 0.440251 0.067438 3.000000
0.001381 -0.419548 -0.149750 3.000000
0.000969 -0.142510 -0.423875 3.000000
-0.234353 -0.444668 0.005937 3.000000
-0.145370 0.235904 -0.380212 3.000000
0.050444 -0.436927 -0.086115 3.000000
-0.152488 -0.026977 -0.446748 3.000000
0.192210 -0.159622 -0.417714 3.000000
0.199746 0.444277 -0.038522 3.000000
-0.075255 -0.335750 -0.293992 3.000000
0.059336 -0.073265 -0.441256 3.000000
0.077256 0.438405 -0.083447 3.000000
0.069244 0.292437 -0.338343 3.000000
-0.077115 -0.424541 0.130585 3.000000
0.198231 -0.096616 -0.436668 3.000000
0.068231 -0.306500 0.320440 3.000000
-0.007546 0.373466 -0.245472 3.000000
-0.273294 0.308847 0.319118 3.000000
0.213185 0.251086 -0.370184 3.000000
0.051818 -0.437740 0.076823 3.000000
-0.086827 -0.422072 0.138385 3.000000
0.096021 -0.436922 0.081783 3.000000
-0.119889 0.136182 0.422032 3.000000
0.088369 -0.444064 0.025133 3.000000
0.176759 0.132183 0.423194 3.000000
-0.012799 0.027055 -0.446778 3.000000
-0.276720 -0.404645 0.182590 3.000000
-0.130491 -0.425381 -0.132046 3.000000
0.097461 0.434589 0.096806 3.000000
0.007846 0.075633 0.436690 3.000000
0.009535 0.419648 -0.152318 3.000000
-0.141867 -0.355060 -0.270175 3.000000
0.249904 -0.386214 0.218520 3.000000
-0.212252 -0.105734 0.430276 3.000000
-0.289722 0.320367 -0.311952 4.000000
-0.194576 -0.377338 -0.237882 3.000000
0.101406 0.356135 -0.270110 3.000000
-0.107829 0.403462 -0.192015 3.000000
0.011217 -0.440460 0.059649 3.000000
0.185523 0.445720 0.005066 3.000000
-0.241931 0.413564 -0.168703 3.000000
0.197261 -0.188249 0.401252 3.000000
-0.089399 -0.432283 -0.106890 3.000000
-0.123559 0.085024 0.435135 3.000000
0.189131 -0.444679 -0.009934 3.000000
-0.226756 -0.072564 0.437014 3.000000
-0.178361 0.017791 0.442715 3.000000
0.108238 -0.138280 0.421045 3.000000
0.119375 -0.206048 0.392252 3.000000
0.154939 0.376675 0.236381 3.000000
0.210052 0.358745 -0.266745 3.000000
0.285989 0.225869 0.381794 1.000000
-0.187698 -0.443163 -0.039465 3.000000
-0.027725 0.382245 -0.231318 3.000000
0.099197 -0.082054 -0.439864 3.000000
0.095557 -0.442416 0.043015 3.000000
0.197709 -0.120147 -0.430746 3.000000
0.022864 -0.271104 0.350589 3.000000
-0.105482 0.323378 0.304588 3.000000
-0.290288 0.369210 0.287468 4.000000
-0.290288 0.251189 0.425202 4.000000
-0.290288 -0.328858 -0.316953 4.000000
-0.290288 -0.044969 0.474566 4.000000
-0.290288 0.225489 -0.402624 4.000000
-0.290288 0.378297 -0.313311 4.000000
-0.290288 -0.487588 -0.077985 4.000000
-0.290288 0.404555 0.260141 4.000000
-0.290288 -0.041366 0.473466 4.000000
-0.290288 0.283965 0.369514 4.000000
-0.290288 -0.448635 0.204435 4.000000
-0.290288 -0.344400 -0.339134 4.000000
-0.290288 0.486027 -0.036042 4.000000
-0.290288 0.051643 0.483834 4.000000
-0.290288 0.264887 -0.409022 4.000000
-0.290288 0.086529 -0.443896 4.000000
-0.290288 -0.473890 0.052129 4.000000
-0.290288 0.450666 0.149569 4.000000
-0.290288 0.402490 0.238456 4.000000
-0.290288 -0.078915 -0.460531 4.000000
-0.290288 0.147611 0.428112 4.000000
-0.290288 -0.245698 -0.380087 4.000000
-0.290288 0.099627 0.454937 4.000000
-0.290288 0.261453 0.399464 4.000000
-0.290288 0.057289 -0.491907 4.000000
-0.290288 -0.444120 -0.093156 4.000000
-0.290288 -0.126090 -0.436301 4.000000
-0.290288 -0.083373 0.465150 4.000000
-0.290288 -0.462888 -0.140147 4.000000
-0.290288 0.129203 0.428268 4.000000
-0.290288 -0.478618 -0.059006 4.000000
-0.290288 -0.151437 0.437141 4.000000
-0.290288 -0.226461 -0.390644 4.000000
-0.290288 -0.451553 0.111474 4.000000
-0.290288 -0.429329 0.119070 4.000000
-0.290288 -0.346080 -0.287779 4.000000
-0.290288 -0.106536 0.470952 4.000000
-0.290288 0.409691 0.241144 4.000000
-0.290288 -0.455976 0.062330 4.000000
-0.290288 0.027467 -0.492191 4.000000
-0.290288 -0.186535 0.416732 4.000000
-0.290288 -0.430396 0.140603 4.000000
-0.290288 0.473977 -0.094909 4.000000
-0.290288 -0.375624 0.300738 4.000000
-0.290288 -0.449416 -0.114735 4.000000
-0.290288 -0.432970 -0.162853 4.000000
-0.290288 0.346565 0.285200 4.000000
-0.290288 -0.420123 -0.213986 4.000000
-0.290288 -0.430831 -0.238858 4.000000
-0.290288 0.017773 0.490608 4.000000
-0.290288 -0.402843 0.284156 4.000000
-0.290288 0.474276 0.105220 4.000000
-0.290288 -0.256297 -0.382470 4.000000
-0.290288 -0.351232 0.288970 4.000000
-0.290288 -0.458597 0.026464 4.000000
-0.290288 0.276817 0.385915 4.000000
-0.290288 0.419077 -0.166029 4.000000
-0.290288 0.470788 0.060367 4.000000
-0.290288 0.457296 0.002051 4.000000
-0.290288 0.063421 0.443965 4.000000
-0.290288 -0.024728 -0.481311 4.000000
-0.290288 0.407758 -0.270039 4.000000
-0.290288 -0.449532 0.177828 4.000000
-0.290288 -0.308071 -0.368451 4.000000
-0.290288 0.149353 0.418411 4.000000
-0.290288 0.433244 -0.190928 4.000000
-0.290288 0.479869 0.051626 4.000000
-0.290288 0.061513 -0.448804 4.000000
-0.290288 0.153777 -0.452915 4.000000
-0.290288 -0.442973 0.081385 4.000000
-0.290288 0.335719 0.314803 4.000000
-0.290288 -0.444609 0.016674 4.000000
-0.290288 -0.240763 -0.429123 4.000000
-0.290288 -0.164165 -0.437970 4.000000
-0.290288 0.407789 -0.205443 4.000000
-0.290288 -0.213138 0.421121 4.000000
-0.290288 0.388036 -0.292842 4.000000
-0.290288 0.195881 -0.428756 4.000000
-0.290288 -0.102974 0.469275 4.000000
-0.290288 -0.474107 0.065403 4.000000
-0.290288 0.465014 -0.087114 4.000000
-0.290288 -0.178020 0.416239 4.000000
-0.290288 0.417777 0.203601 4.000000
-0.290288 -0.103762 -0.453903 4.000000
-0.290288 -0.471668 -0.122896 4.000000
-0.290288 -0.046914 0.485642 4.000000
-0.290288 0.478302 0.074458 4.000000
-0.290288 0.124571 -0.442968 4.000000
-0.290288 0.328790 0.367863 4.000000
-0.290288 0.461357 -0.182202 4.000000
-0.290288 -0.082092 0.482687 4.000000
-0.290288 0.438896 0.218797 4.000000
-0.290288 -0.158689 -0.456943 4.000000
-0.290288 -0.432319 -0.114193 4.000000
-0.290288 0.460903 0.144704 4.000000
-0.290288 0.462754 0.005512 4.000000
-0.290288 0.492853 -0.023822 4.000000
-0.290288 0.404884 0.220713 4.000000
-0.290288 0.482758 -0.020410 4.000000
-0.290288 0.339504 -0.326153 4.000000
-0.290288 0.445165 -0.032728 4.000000
-0.290288 0.439163 0.191820 4.000000
-0.290288 0.254842 0.394447 4.000000
-0.290288 0.322618 -0.316982 4.000000
-0.290288 -0.491468 0.040699 4.000000
-0.290288 -0.206192 -0.405629 4.000000
-0.290288 0.273504 -0.399049 4.000000
-0.290288 -0.353651 -0.272634 4.000000
-0.290288 0.327312 0.347940 4.000000
-0.290288 0.258258 -0.388806 4.000000
-0.290288 -0.370386 -0.292654 4.000000
-0.290288 -0.211477 0.390201 4.000000
-0.290288 -0.481067 -0.125479 4.000000
-0.290288 -0.067837 0.444131 4.000000
-0.290288 -0.244418 0.380101 4.000000
-0.290288 -0.038112 -0.492437 4.000000
-0.290288 -0.091381 -0.439815 4.000000
-0.290288 0.038497 -0.456918 4.000000
-0.290288 0.272849 -0.411660 4.000000
-0.290288 -0.399600 0.274080 4.000000
-0.290288 0.324612 0.317341 4.000000
-0.290288 -0.034444 -0.460896 4.000000
-0.290288 -0.309880 -0.322143 4.000000
-0.290288 -0.207855 -0.448658 4.000000
-0.290288 -0.468271 -0.021964 4.000000
-0.290288 -0.293393 -0.375580 4.000000
-0.290288 0.448680 -0.074913 4.000000
-0.290288 -0.349289 0.348268 4.000000
-0.290288 -0.249748 0.405816 4.000000
-0.290288 -0.443179 -0.078515 4.000000
-0.290288 -0.101682 -0.451651 4.000000
-0.290288 0.416582 0.199797 4.000000
-0.290288 0.197369 0.445668 4.000000
-0.290288 0.236265 -0.388092 4.000000
-0.290288 0.458271 -0.085619 4.000000
-0.290288 -0.483102 -0.044167 4.000000
-0.290288 -0.443431 0.054704 4.000000
-0.290288 0.403785 0.252284 4.000000
-0.290288 0.373805 0.279060 4.000000
-0.290288 0.203001 -0.434005 4.000000
-0.290288 0.446040 -0.008987 4.000000
-0.290288 0.079847 0.448605 4.000000
-0.290288 -0.315262 0.322768 4.000000
-0.290288 -0.234001 -0.391892 4.000000
-0.290288 -0.403514 0.276751 4.000000
-0.290288 0.321232 -0.333754 4.000000
-0.290288 -0.439657 -0.134450 4.000000
-0.290288 -0.043815 -0.482599 4.000000
-0.290288 0.047352 -0.484549 4.000000
-0.290288 0.414461 0.255404 4.000000
-0.290288 0.344881 0.313767 4.000000
-0.290288 0.320434 -0.337027 4.000000
-0.290288 -0.417039 0.229740 4.000000
-0.290288 0.200737 -0.400235 4.000000
-0.290288 0.185245 -0.464371 4.000000
-0.290288 0.313943 -0.380945 4.000000
-0.290288 0.298810 0.374048 4.000000
-0.290288 0.457966 0.112717 4.000000
-0.290288 -0.226260 0.381493 4.000000
-0.290288 -0.164390 0.447876 4.000000
-0.290288 0.252525 0.384863 4.000000
-0.290288 0.161228 0.445888 4.000000
-0.290288 -0.206703 0.440090 4.000000
-0.290288 0.444068 0.103658 4.000000
-0.290288 0.242185 0.382991 4.000000
-0.290288 0.382185 -0.284121 4.000000
-0.290288 0.429250 0.150543 4.000000
-0.290288 0.470190 -0.166321 4.000000
-0.290288 -0.038285 -0.496204 4.000000
-0.290288 -0.120684 -0.472158 4.000000
-0.290288 -0.457533 -0.184962 4.000000
-0.290288 0.225551 0.398590 4.000000
-0.290288 -0.483234 -0.023935 4.000000
-0.290288 -0.482145 -0.075986 4.000000
-0.290288 0.404220 0.199812 4.000000
-0.290288 -0.001084 0.448965 4.000000
-0.290288 -0.070221 0.458159 4.000000
-0.290288 0.070427 0.444873 4.000000
-0.290288 -0.294735 0.372868 4.000000
-0.290288 0.116067 -0.465513 4.000000
-0.290288 -0.117128 -0.473881 4.000000
-0.290288 0.182365 0.456385 4.000000
-0.290288 -0.246323 0.370333 4.000000
-0.290288 -0.027371 0.451810 4.000000
-0.290288 -0.364443 -0.285084 4.000000
-0.290288 0.242228 -0.424565 4.000000
-0.290288 0.456586 0.030239 4.000000
-0.290288 -0.403822 -0.234024 4.000000
-0.290288 0.282942 0.390510 4.000000
-0.290288 -0.210082 0.442917 4.000000
-0.290288 -0.469210 -0.126050 4.000000
-0.290288 0.111636 -0.438600 4.000000
-0.290288 0.342705 -0.327573 4.000000
-0.290288 0.460080 0.063473 4.000000
-0.290288 0.402771 0.270951 4.000000
-0.290288 -0.108021 -0.467000 4.000000
-0.290288 -0.378716 0.255589 4.000000
-0.290288 -0.451646 -0.197014 4.000000
-0.290288 0.459277 0.074464 4.000000
-0.290288 0.462732 0.035664 4.000000
-0.290288 0.125593 0.468333 4.000000
-0.290288 -0.391658 -0.216566 4.000000
-0.290288 0.496533 -0.021500 4.000000
-0.290288 -0.320114 0.334927 4.000000
-0.290288 -0.475355 0.096213 4.000000
-0.290288 0.345426 -0.295831 4.000000
-0.290288 0.128668 0.436310 4.000000
-0.290288 -0.171169 -0.436127 4.000000
-0.290288 -0.012709 0.486878 4.000000
-0.290288 0.136334 0.432539 4.000000
-0.290288 -0.200505 0.420803 4.000000
-0.290288 -0.098294 0.453882 4.000000
-0.290288 0.251504 0.414384 4.000000
-0.290288 -0.082543 -0.458582 4.000000
-0.290288 -0.332471 -0.357297 4.000000
-0.290288 0.406193 -0.250300 4.000000
-0.290288 0.185210 0.404069 4.000000
-0.290288 0.330650 0.344031 4.000000
-0.290288 0.238979 0.374490 4.000000
-0.290288 0.411459 -0.189825 4.000000
-0.290288 0.492847 -0.076746 4.000000
-0.290288 0.476690 0.108864 4.000000
-0.290288 -0.030252 0.490333 4.000000
-0.290288 -0.485950 0.021802 4.000000
-0.290288 0.286995 -0.393903 4.000000
-0.290288 0.422968 0.232035 4.000000
-0.290288 0.481942 0.056573 4.000000
-0.290288 -0.009658 -0.463869 4.000000
-0.290288 0.484188 -0.054582 4.000000
-0.290288 -0.482235 0.009373 4.000000
-0.290288 -0.483972 -0.002350 4.000000
-0.290288 0.020776 0.449730 4.000000
-0.290288 0.351597 -0.276083 4.000000
-0.290288 0.461653 -0.080677 4.000000
-0.290288 0.399529 -0.257096 4.000000
-0.290288 -0.189970 -0.405388 4.000000
-0.290288 -0.042406 0.454538 4.000000
-0.290288 0.190521 -0.425580 4.000000
-0.290288 -0.430578 0.165437 4.000000
-0.290288 -0.465057 -0.133687 4.000000
-0.290288 -0.368674 0.258768 4.000000
-0.290288 -0.147885 0.441725 4.000000
-0.290288 0.276810 0.353858 4.000000
-0.290288 0.092697 0.460974 4.000000
-0.290288 -0.419673 0.207673 4.000000
-0.290288 -0.399013 -0.296917 4.000000
-0.290288 -0.454756 -0.182294 4.000000
-0.290288 0.342431 0.299582 4.000000
-0.290288 0.448891 -0.125431 4.000000
-0.290288 -0.244394 0.383389 4.000000
-0.290288 -0.470938 -0.129046 4.000000
-0.290288 -0.473985 -0.125532 4.000000
-0.290288 0.466660 -0.132226 4.000000
-0.290288 0.213844 -0.426293 4.000000
-0.290288 0.250668 -0.417438 4.000000
-0.290288 -0.343888 0.340248 4.000000
-0.290288 -0.121407 0.445197 4.000000
-0.290288 0.048176 0.455674 4.000000
-0.290288 -0.007247 0.488789 4.000000
-0.290288 0.191973 -0.429051 4.000000
-0.290288 0.441908 0.078268 4.000000
-0.290288 0.460933 -0.148117 4.000000
-0.290288 -0.239671 0.410101 4.000000
-0.290288 -0.456025 -0.188352 4.000000
-0.290288 0.467165 -0.173205 4.000000
-0.290288 -0.195094 -0.452200 4.000000
-0.290288 -0.257119 -0.412586 4.000000
-0.290288 -0.432792 -0.210147 4.000000
-0.290288 -0.449511 -0.119399 4.000000
-0.290288 -0.398532 0.261724 4.000000
-0.290288 -0.413634 0.228684 4.000000
-0.290288 -0.229558 0.438573 4.000000
-0.290288 -0.144921 -0.447002 4.000000
-0.290288 -0.336519 0.301165 4.000000
-0.290288 0.176464 -0.433593 4.000000
-0.290288 0.018447 0.461822 4.000000
-0.290288 0.133150 0.434666 4.000000
-0.290288 0.454596 -0.113924 4.000000
-0.290288 -0.297340 -0.349310 4.000000
-0.290288 -0.256116 -0.396345 4.000000
-0.290288 0.304744 -0.372993 4.000000
-0.290288 0.262220 -0.392314 4.000000
-0.290288 0.466126 0.150874 4.000000
-0.290288 0.456180 -0.109836 4.000000
-0.290288 -0.468018 0.113249 4.000000
-0.290288 0.229910 -0.396577 4.000000
-0.290288 0.439055 -0.121213 4.000000
-0.290288 -0.149635 0.458572 4.000000
-0.290288 -0.123586 -0.477998 4.000000
-0.290288 0.447266 -0.041943 4.000000
-0.290288 0.237549 0.380302 4.000000
-0.290288 -0.066473 -0.452288 4.000000
-0.290288 -0.243969 -0.428011 4.000000
-0.290288 0.041922 0.454832 4.000000
-0.290288 -0.244895 -0.397389 4.000000
-0.290288 0.452418 0.141616 4.000000
-0.290288 0.157994 -0.439808 4.000000
-0.290288 0.143306 -0.460217 4.000000
-0.290288 -0.424358 -0.245107 4.000000
-0.290288 0.015155 0.462268 4.000000
-0.290288 -0.170174 0.451686 4.000000
-0.290288 0.098994 0.463640 4.000000
-0.290288 -0.280082 -0.401405 4.000000
-0.290288 0.249260 0.379041 4.000000
-0.290288 0.435333 -0.244791 4.000000
-0.290288 0.229449 0.423894 4.000000
-0.290288 -0.262998 0.363305 4.000000
-0.290288 0.316903 -0.367966 4.000000
-0.290288 0.422698 -0.258781 4.000000
-0.290288 0.361780 0.275506 4.000000
-0.290288 0.435604 0.211584 4.000000
-0.290288 -0.266302 -0.361832 4.000000
-0.290288 0.226365 0.441502 4.000000
-0.290288 0.436770 -0.127726 4.000000
-0.290288 -0.418115 -0.217090 4.000000
-0.290288 -0.444228 0.100900 4.000000
-0.290288 0.471102 0.014649 4.000000
-0.290288 0.370387 -0.299483 4.000000
-0.290288 0.402372 -0.229363 4.000000
-0.290288 0.232756 -0.429491 4.000000
-0.290288 0.440384 -0.172684 4.000000
-0.290288 0.405711 -0.284963 4.000000
-0.290288 -0.382868 -0.318362 4.000000
-0.290288 -0.066242 -0.459147 4.000000
-0.290288 -0.429176 -0.232828 4.000000
-0.290288 -0.402306 -0.201220 4.000000
-0.290288 -0.489555 0.007658 4.000000
-0.290288 0.043916 0.446052 4.000000
-0.290288 0.282578 -0.406739 4.000000
-0.290288 0.133709 -0.454908 4.000000
-0.290288 0.392282 0.302371 4.000000
-0.290288 0.298367 -0.370037 4.000000
-0.290288 0.116943 -0.433613 4.000000
-0.290288 -0.155549 -0.434712 4.000000
-0.290288 0.389903 -0.242811 4.000000
-0.290288 -0.363649 -0.267051 4.000000
-0.290288 0.460492 0.008152 4.000000
-0.290288 -0.270327 0.392138 4.000000
-0.290288 -0.390099 -0.254805 4.000000
-0.290288 0.435403 -0.224339 4.000000
-0.290288 -0.485816 0.063501 4.000000
-0.290288 0.153185 0.455700 4.000000
-0.290288 0.155660 -0.436824 4.000000
-0.290288 0.390865 0.245159 4.000000
-0.290288 -0.290188 -0.398083 4.000000
-0.290288 -0.047299 -0.470902 4.000000
-0.290288 -0.445760 -0.000731 4.000000
-0.290288 0.456647 -0.025941 4.000000
-0.290288 -0.448057 0.081188 4.000000
