0.096811 0.323437 0.377160 2.000000
-0.013932 -0.457912 0.192479 2.000000
-0.171179 -0.201697 0.453000 2.000000
-0.103163 -0.433913 -0.245572 2.000000
-0.024333 0.498198 0.016299 2.000000
-0.183212 -0.167750 -0.470878 2.000000
0.065848 -0.423258 -0.264062 2.000000
0.099983 0.214958 0.447367 2.000000
0.031716 -0.474726 -0.151452 2.000000
-0.012358 -0.290391 -0.406359 2.000000
0.095431 -0.339985 -0.365597 2.000000
-0.105274 0.330966 -0.374748 2.000000
0.019688 -0.367863 0.332850 2.000000
0.179454 -0.404057 0.288173 2.000000
0.006007 -0.492321 0.070022 2.000000
0.181206 -0.497626 0.004519 2.000000
0.127800 -0.124224 -0.484339 2.000000
-0.023813 -0.063113 -0.496138 2.000000
-0.187095 -0.495399 0.043407 2.000000
0.177850 0.491297 -0.086279 2.000000
-0.218320 -0.288720 0.403366 2.000000
-0.103264 0.147256 0.473650 2.000000
-0.071906 -0.413536 0.274619 2.000000
-0.208445 0.480170 0.131510 2.000000
0.223863 -0.463252 0.179242 2.000000
0.121470 -0.011506 -0.500076 2.000000
-0.221531 -0.354537 0.347106 2.000000
-0.135415 -0.457746 -0.196995 2.000000
-0.004063 -0.062146 -0.496243 2.000000
0.167193 -0.092053 0.487179 2.000000
-0.199107 0.444624 0.223080 2.000000
0.207922 0.007091 -0.500077 2.000000
0.129348 -0.282304 -0.412015 2.000000
-0.135667 0.495094 -0.060063 2.000000
0.063045 0.195916 0.455913 2.000000
-0.085940 -0.392703 -0.307749 2.000000
-0.290268 -0.468411 -0.169757 4.000000
0.117902 -0.234884 0.436836 2.000000
-0.133597 0.348773 0.353922 2.000000
-0.086520 -0.486274 0.103104 2.000000
0.202432 0.344270 -0.362452 2.000000
0.046300 0.001273 0.495856 2.000000
-0.137794 -0.214224 -0.451590 2.000000
0.126585 0.420500 0.265438 2.000000
0.083273 -0.182448 -0.465363 2.000000
0.211704 0.426123 0.256590 2.000000
0.071263 -0.409701 -0.284597 2.000000
0.251437 0.490572 0.087026 2.000000
0.075638 -0.271122 -0.419752 2.000000
0.087550 0.183585 0.460967 2.000000
0.176508 -0.446642 -0.221257 2.000000
0.074336 0.330115 0.371112 2.000000
-0.044243 0.486112 -0.112451 2.000000
-0.046649 -0.241170 -0.437667 2.000000
-0.041515 0.298170 0.397282 2.000000
-0.021341 0.497326 0.031843 2.000000
0.202703 0.386765 -0.316462 2.000000
0.065942 0.060550 0.492172 2.000000
0.099627 0.454594 0.202660 2.000000
-0.086433 0.465376 0.176798 2.000000
-0.121543 -0.387044 -0.315167 2.000000
0.033914 0.445465 -0.225889 2.000000
0.285353 0.398909 -0.301232 1.000000
0.107396 0.363230 -0.343451 2.000000
0.266712 -0.437057 0.235558 2.000000
-0.262513 0.208364 0.450327 2.000000
-0.265132 0.495049 0.057167 2.000000
0.016509 -0.277229 0.411126 2.000000
-0.161452 0.026060 0.495116 2.000000
0.265950 -0.268952 -0.421075 2.000000
0.144594 -0.482255 -0.124598 2.000000
0.000153 0.484902 -0.117541 2.000000
0.192452 -0.034684 -0.499037 2.000000
-0.203536 0.421896 -0.267565 2.000000
0.032441 -0.497131 -0.023022 2.000000
-0.215612 0.442485 -0.231548 2.000000
-0.167562 0.089479 0.487770 2.000000
-0.155930 0.077651 0.489806 2.000000
0.272441 0.479887 0.132535 2.000000
-0.230501 0.029965 -0.499360 2.000000
-0.254387 0.142369 0.475141 2.000000
-0.010673 0.457422 0.195874 2.000000
-0.270472 -0.001613 0.495804 2.000000
0.114898 0.496401 -0.047972 2.000000
0.048245 -0.494213 -0.060213 2.000000
0.215637 0.215550 0.447102 2.000000
0.073546 0.466669 0.173426 2.000000
0.228703 0.036487 0.494648 2.000000
-0.049456 0.497720 -0.029626 2.000000
-0.011910 0.370904 0.330818 2.000000
-0.095322 -0.493282 0.062993 2.000000
-0.245472 0.474606 0.150417 2.000000
-0.124084 -0.212131 -0.452530 2.000000
0.164886 0.445516 0.221270 2.000000
-0.286985 0.370016 0.331852 4.000000
0.169805 0.030029 -0.499355 2.000000
0.121268 0.450989 -0.214544 2.000000
-0.270639 -0.469462 -0.166711 2.000000
-0.262685 -0.347624 -0.358403 2.000000
-0.219635 -0.475400 0.144284 2.000000
0.162733 -0.326444 0.373396 2.000000
0.029689 0.429328 -0.255374 2.000000
0.052827 -0.167683 0.466535 2.000000
-0.206160 -0.464100 -0.181752 2.000000
-0.145884 -0.386159 -0.316198 2.000000
0.155790 -0.248409 -0.433599 2.000000
-0.226419 -0.467322 -0.172914 2.000000
-0.028594 -0.216138 0.446175 2.000000
-0.206734 -0.064303 0.491568 2.000000
-0.025663 -0.056758 0.492660 2.000000
0.149259 0.147460 -0.478174 2.000000
-0.078530 -0.196420 -0.459580 2.000000
0.045047 0.029945 -0.499362 2.000000
-0.024066 0.386985 0.312077 2.000000
-0.063653 -0.166084 0.467087 2.000000
0.281693 -0.355662 -0.350146 1.000000
-0.097394 0.474307 0.151282 2.000000
-0.145814 -0.495520 -0.045838 2.000000
-0.148524 0.194599 0.456503 2.000000
0.160745 0.465429 -0.180526 2.000000
0.212610 -0.494797 -0.054766 2.000000
0.047520 0.411379 -0.283523 2.000000
0.101317 -0.433658 0.242012 2.000000
-0.116933 -0.367594 0.333147 2.000000
0.275903 0.236521 -0.440838 1.000000
0.238327 -0.482223 -0.124716 2.000000
-0.212894 0.435816 0.239688 2.000000
-0.181323 0.153170 -0.476248 2.000000
-0.183704 0.498579 -0.004827 2.000000
0.019368 -0.284540 -0.410451 2.000000
0.197862 0.283608 -0.411944 2.000000
0.101456 -0.482017 0.121016 2.000000
-0.023489 -0.447377 0.215956 2.000000
-0.006883 0.478299 -0.142495 2.000000
0.260743 0.498494 -0.000095 2.000000
-0.040127 -0.493484 0.061120 2.000000
-0.152689 -0.108286 0.483778 2.000000
0.181753 -0.487007 0.100020 2.000000
-0.037680 0.422818 -0.266052 2.000000
-0.045699 0.479839 0.132711 2.000000
0.157488 -0.197150 -0.459252 2.000000
0.192919 0.072642 0.490669 2.000000
-0.261948 -0.251332 0.427404 2.000000
-0.090409 -0.438381 -0.237780 2.000000
0.067880 -0.496535 0.028847 2.000000
-0.029509 -0.459469 -0.192861 2.000000
-0.004486 -0.388673 0.308431 2.000000
-0.058814 -0.461581 -0.187794 2.000000
0.025623 -0.420894 -0.267642 2.000000
-0.182626 -0.199114 -0.458371 2.000000
-0.280215 -0.400760 -0.297070 4.000000
0.051495 -0.046519 0.493582 2.000000
-0.084983 -0.497220 -0.018097 2.000000
-0.160828 0.412435 -0.282012 2.000000
-0.007911 0.291775 0.401754 2.000000
0.226428 -0.350080 0.351445 2.000000
-0.216128 -0.492781 0.067350 2.000000
0.027338 0.273280 0.414689 2.000000
0.050732 0.438019 -0.240030 2.000000
-0.182308 0.357405 -0.349664 2.000000
0.286479 -0.496412 -0.034828 1.000000
0.069907 0.497316 -0.038633 2.000000
-0.110029 -0.468672 -0.169002 2.000000
-0.060424 0.469807 0.164329 2.000000
0.011456 -0.199098 -0.458378 2.000000
-0.102941 0.243411 0.432674 2.000000
-0.226279 -0.495274 -0.048870 2.000000
0.120841 0.374926 -0.330537 2.000000
-0.097681 0.059045 -0.496831 2.000000
-0.040540 0.464475 0.178957 2.000000
0.103216 0.460523 0.188437 2.000000
0.176588 -0.341640 -0.364098 2.000000
-0.183303 0.327979 -0.377311 2.000000
0.048277 0.015291 -0.499929 2.000000
0.123607 -0.496959 -0.028077 2.000000
-0.243773 0.492164 -0.081242 2.000000
0.260677 -0.256652 -0.428573 2.000000
0.248755 0.053011 0.492987 2.000000
0.104724 -0.305836 0.390453 2.000000
0.024613 -0.081275 -0.493360 2.000000
-0.056851 0.248596 -0.433914 2.000000
0.162894 -0.446228 -0.222098 2.000000
0.088413 0.222467 0.443701 2.000000
0.148708 0.372909 -0.332763 2.000000
0.017560 -0.129428 -0.483103 2.000000
0.007575 -0.496573 0.028000 2.000000
-0.289748 0.483911 0.117957 4.000000
0.186972 0.470837 -0.166113 2.000000
-0.202200 -0.193412 -0.460930 2.000000
-0.193969 0.203452 -0.457049 2.000000
-0.155195 -0.275427 -0.416824 2.000000
0.092074 -0.430446 0.247506 2.000000
-0.037080 0.097786 -0.490546 2.000000
-0.079528 -0.426709 0.253635 2.000000
-0.014502 -0.156819 0.470282 2.000000
0.257475 0.258088 -0.428471 2.000000
-0.090905 -0.227208 -0.445019 2.000000
0.015630 0.498381 0.006159 2.000000
-0.283451 -0.306166 -0.394496 4.000000
-0.066690 0.489298 0.093111 2.000000
-0.026450 0.454802 -0.206048 2.000000
0.048405 0.439152 0.233871 2.000000
-0.014498 0.498485 0.000381 2.000000
0.201394 0.182741 0.461284 2.000000
-0.242585 -0.445046 0.220384 2.000000
-0.224300 -0.423519 -0.263666 2.000000
0.153313 -0.042876 0.493878 2.000000
-0.183393 -0.127896 0.478938 2.000000
-0.103339 -0.461702 -0.187506 2.000000
0.274829 0.061840 0.492033 2.000000
0.209026 0.081584 0.489129 2.000000
-0.055566 0.322922 0.377598 2.000000
0.062566 0.458627 -0.197525 2.000000
-0.190072 0.433319 0.244041 2.000000
0.029276 0.443846 0.224658 2.000000
-0.136064 0.189977 0.458569 2.000000
-0.253368 0.280679 -0.413878 2.000000
-0.252111 -0.465345 0.173666 2.000000
0.276684 0.093339 0.487106 2.000000
-0.060288 0.092921 -0.491565 2.000000
0.197023 0.477053 0.142803 2.000000
0.256923 -0.148297 -0.477373 2.000000
0.073227 -0.133405 -0.481917 2.000000
-0.167678 0.410945 0.279912 2.000000
-0.114503 -0.442572 0.225084 2.000000
-0.182989 0.203896 -0.456864 2.000000
-0.289755 0.477716 -0.144408 4.000000
-0.085058 -0.480216 0.128501 2.000000
0.192957 0.123686 0.480357 2.000000
0.173250 -0.295344 0.398369 2.000000
-0.206105 -0.432266 -0.248445 2.000000
-0.071458 0.464071 0.179927 2.000000
0.082230 0.021334 0.495328 2.000000
0.148389 0.190781 0.458217 2.000000
0.138874 0.098462 -0.490404 2.000000
0.078113 -0.041481 -0.498476 2.000000
-0.221668 0.210676 -0.453725 2.000000
0.047108 -0.137904 0.476176 2.000000
0.169679 0.456316 -0.202673 2.000000
-0.220394 0.170638 0.465825 2.000000
-0.154820 0.478630 -0.141410 2.000000
0.181355 0.430508 -0.253439 2.000000
-0.199564 -0.133844 -0.481783 2.000000
0.270191 0.446993 -0.222987 2.000000
0.194244 -0.470856 -0.162669 2.000000
0.044563 -0.189290 0.458173 2.000000
0.067202 0.055821 -0.497265 2.000000
0.234899 -0.387932 -0.314074 2.000000
0.148644 0.005066 0.495924 2.000000
-0.016382 -0.111663 -0.487324 2.000000
-0.285919 0.497617 -0.031915 4.000000
-0.096238 -0.495874 -0.041469 2.000000
0.243083 -0.473293 -0.155606 2.000000
-0.234073 -0.275572 -0.416723 2.000000
0.227497 0.130488 -0.482859 2.000000
-0.074749 -0.457980 -0.196432 2.000000
-0.127582 0.446330 -0.224246 2.000000
0.283918 0.364071 0.338208 1.000000
-0.180657 -0.378304 0.321322 2.000000
-0.064560 0.185850 -0.464387 2.000000
0.215246 -0.433687 -0.245966 2.000000
0.142561 0.439474 -0.237267 2.000000
0.106404 0.148425 -0.477885 2.000000
-0.157059 -0.458689 -0.194732 2.000000
0.109543 -0.369240 -0.335916 2.000000
-0.022653 0.180283 -0.466708 2.000000
-0.114164 -0.180550 -0.466075 2.000000
0.199355 -0.448066 0.214422 2.000000
-0.267132 -0.497585 0.002156 2.000000
-0.170597 -0.455938 -0.201330 2.000000
-0.172651 0.062601 -0.496316 2.000000
0.134006 -0.455097 -0.203347 2.000000
0.034778 0.272777 -0.419094 2.000000
0.184779 -0.097821 0.485970 2.000000
0.011855 0.413660 0.275799 2.000000
-0.102909 -0.366346 -0.339172 2.000000
-0.228860 0.481392 0.127086 2.000000
0.218981 0.118930 0.481488 2.000000
-0.149202 0.268573 -0.421870 2.000000
0.112880 0.482632 -0.127092 2.000000
-0.137913 -0.471199 0.158055 2.000000
0.128061 -0.382447 -0.320524 2.000000
0.213176 -0.042454 -0.498371 2.000000
0.286833 -0.147325 -0.477670 1.000000
0.265283 -0.478191 -0.139323 2.000000
0.055619 0.491399 0.082396 2.000000
-0.189750 -0.190234 0.457779 2.000000
-0.033962 0.044186 -0.498208 2.000000
-0.030768 -0.135043 -0.481417 2.000000
-0.002697 -0.152209 -0.476179 2.000000
-0.217492 -0.073334 0.490262 2.000000
0.051852 0.347691 -0.359121 2.000000
0.078551 -0.153688 0.471363 2.000000
0.050770 0.459900 0.189933 2.000000
-0.019349 -0.495105 0.046125 2.000000
0.049422 0.345161 0.357484 2.000000
0.211891 0.070763 0.490992 2.000000
-0.289819 -0.185684 -0.464149 4.000000
0.099586 0.457914 -0.199112 2.000000
-0.276424 -0.093883 0.486795 2.000000
-0.097923 0.485616 0.110684 2.000000
0.180256 0.232608 0.438362 2.000000
0.260716 0.404495 0.289124 2.000000
0.101186 0.474580 0.150491 2.000000
-0.226690 -0.051590 -0.497383 2.000000
0.221368 0.443368 0.225628 2.000000
-0.269279 0.138345 0.476369 2.000000
0.001606 -0.087197 0.488196 2.000000
0.285946 0.081686 0.489112 1.000000
0.186732 0.402292 0.292044 2.000000
-0.241659 -0.073962 0.490171 2.000000
0.170328 -0.205643 -0.455441 2.000000
-0.272498 0.072397 0.490711 2.000000
-0.259875 0.259825 -0.427474 2.000000
-0.236810 0.161939 -0.473223 2.000000
0.285749 -0.120488 -0.485227 1.000000
0.185033 0.481193 0.127805 2.000000
0.028377 0.455209 0.201184 2.000000
-0.261609 0.466772 -0.176946 2.000000
0.118440 -0.107811 0.483878 2.000000
0.241570 0.459087 0.191881 2.000000
-0.000983 -0.496140 -0.038189 2.000000
0.165498 0.356498 -0.350547 2.000000
-0.085650 -0.443313 -0.228013 2.000000
0.248588 -0.156766 0.470301 2.000000
0.093897 -0.493736 0.058797 2.000000
-0.053129 -0.280319 0.409085 2.000000
0.216762 0.253251 0.426919 2.000000
-0.143132 -0.074028 -0.494607 2.000000
0.008670 -0.495231 0.044959 2.000000
-0.126297 -0.476227 -0.146435 2.000000
-0.082577 0.162901 0.468729 2.000000
0.126761 0.465588 -0.180101 2.000000
-0.084286 -0.175515 0.463833 2.000000
0.087407 -0.094381 0.486691 2.000000
-0.064527 -0.497366 -0.009962 2.000000
0.098132 -0.172927 -0.468936 2.000000
-0.077128 0.201403 0.453450 2.000000
0.036101 0.095189 -0.491090 2.000000
0.249239 0.218297 -0.449970 2.000000
-0.008939 -0.381621 0.317275 2.000000
-0.245357 0.140894 -0.479987 2.000000
0.079767 -0.188777 0.458386 2.000000
0.109029 -0.493026 -0.068420 2.000000
0.175808 0.459341 0.191272 2.000000
-0.148245 -0.132942 0.477545 2.000000
0.105779 -0.352382 0.349203 2.000000
-0.260930 0.311649 0.386587 2.000000
0.264083 -0.444886 0.220688 2.000000
0.229643 -0.317014 -0.385845 2.000000
0.184145 -0.316960 -0.385888 2.000000
0.150094 0.087659 -0.492667 2.000000
-0.208342 0.498520 -0.001557 2.000000
0.083389 0.480833 -0.134190 2.000000
-0.206330 0.438965 -0.238234 2.000000
-0.240319 -0.476689 0.140061 2.000000
0.017992 -0.113629 0.482659 2.000000
-0.045484 0.195383 0.456152 2.000000
-0.186305 -0.496967 -0.027975 2.000000
0.242189 -0.458813 -0.194435 2.000000
-0.103687 0.178003 -0.467659 2.000000
0.059565 -0.461955 -0.186899 2.000000
0.125327 0.388013 -0.314897 2.000000
0.124330 0.042344 -0.498357 2.000000
-0.204602 -0.260655 0.422058 2.000000
0.118913 -0.292842 0.400257 2.000000
0.181254 -0.477762 0.136544 2.000000
-0.161652 -0.486853 0.100666 2.000000
-0.065262 -0.062409 -0.496214 2.000000
-0.087653 -0.228740 0.439966 2.000000
-0.233395 -0.418821 -0.270782 2.000000
-0.002224 -0.493319 0.062649 2.000000
-0.014328 -0.496793 0.023097 2.000000
0.212839 0.478181 -0.142883 2.000000
0.279407 -0.156120 -0.474986 1.000000
-0.287389 -0.110895 -0.487507 4.000000
-0.167340 0.233678 0.437798 2.000000
-0.159064 0.373473 0.327823 2.000000
-0.272758 0.461947 -0.189804 2.000000
-0.188465 0.490534 0.087208 2.000000
0.263934 -0.299481 -0.399825 2.000000
-0.242714 -0.440236 0.229520 2.000000
0.253715 0.031240 0.494884 2.000000
-0.210430 0.482663 -0.126962 2.000000
0.028174 0.122619 0.480611 2.000000
0.285343 0.498290 0.011199 1.000000
0.109336 -0.101501 0.485200 2.000000
-0.109203 -0.323047 0.376311 2.000000
-0.080932 0.461139 0.186961 2.000000
-0.050748 0.493134 0.070401 2.000000
0.188978 0.291722 0.401791 2.000000
-0.234128 0.237047 -0.440536 2.000000
-0.216663 0.316419 -0.387230 2.000000
-0.040477 -0.408945 0.281184 2.000000
0.212964 -0.429709 0.248714 2.000000
-0.161583 -0.497084 -0.025617 2.000000
0.090338 -0.428049 -0.255799 2.000000
-0.174350 0.173005 -0.469406 2.000000
0.011135 -0.262217 0.421036 2.000000
0.029135 0.406544 -0.290436 2.000000
0.086886 0.395752 -0.305192 2.000000
-0.205071 -0.497225 -0.017827 2.000000
-0.259338 -0.355104 0.346553 2.000000
-0.288417 0.496352 0.043856 4.000000
-0.168862 0.470342 -0.167432 2.000000
0.148165 0.462506 0.183682 2.000000
0.167666 -0.361635 0.339726 2.000000
-0.273358 0.249546 0.429177 2.000000
-0.144898 0.057157 -0.497104 2.000000
-0.138079 0.464526 -0.182931 2.000000
0.186350 -0.491366 -0.079891 2.000000
0.045572 -0.285087 -0.410068 2.000000
0.122259 0.498141 -0.020230 2.000000
0.262608 -0.497553 0.000432 2.000000
0.100408 -0.121976 -0.484874 2.000000
-0.230342 -0.240822 -0.437850 2.000000
-0.253959 -0.115358 0.482297 2.000000
-0.148327 0.153155 -0.476253 2.000000
-0.086485 -0.126046 0.479449 2.000000
0.159220 0.496899 -0.043363 2.000000
0.166888 -0.490241 0.082103 2.000000
0.139237 -0.178236 0.462781 2.000000
-0.152475 -0.331860 0.368748 2.000000
0.018685 0.498001 -0.023353 2.000000
-0.030151 0.467630 0.170639 2.000000
0.239554 -0.436554 0.236512 2.000000
0.252784 -0.480705 0.126536 2.000000
-0.285297 0.224002 -0.447159 4.000000
0.236062 -0.231944 -0.442525 2.000000
-0.216634 0.334440 -0.371767 2.000000
0.234017 0.471830 0.158464 2.000000
-0.135366 -0.264122 -0.424020 2.000000
-0.240933 0.483342 0.120019 2.000000
-0.015393 -0.462615 -0.185315 2.000000
-0.247676 0.403885 0.289932 2.000000
0.268368 0.248654 -0.433880 2.000000
0.228744 0.197408 0.455243 2.000000
0.185745 -0.479392 -0.134970 2.000000
-0.095583 -0.282665 -0.411762 2.000000
-0.210767 0.090274 0.487633 2.000000
0.114899 -0.294279 -0.403639 2.000000
-0.126581 0.497614 0.028290 2.000000
0.019411 -0.000064 -0.500206 2.000000
-0.202418 -0.487706 0.096832 2.000000
0.030274 0.435152 -0.245476 2.000000
0.064838 -0.391347 0.305078 2.000000
0.286379 0.491578 -0.084648 1.000000
0.038350 0.024601 0.495182 2.000000
-0.031170 0.460308 0.188953 2.000000
-0.010434 0.425086 0.258399 2.000000
0.209668 -0.170852 -0.469714 2.000000
-0.238300 0.350557 0.352090 2.000000
0.109864 0.400975 -0.298399 2.000000
-0.018301 0.433532 -0.248478 2.000000
-0.072928 -0.455917 0.196926 2.000000
-0.028666 -0.465376 0.173583 2.000000
-0.190018 -0.052103 0.493130 2.000000
-0.222253 0.480413 -0.135569 2.000000
0.024655 -0.197177 -0.459240 2.000000
-0.221905 0.485388 0.111774 2.000000
0.183846 -0.394778 0.300775 2.000000
0.109764 -0.345385 0.356015 2.000000
-0.227205 -0.449425 -0.215610 2.000000
-0.186479 0.479608 0.133548 2.000000
0.072784 0.167285 0.467084 2.000000
0.284365 0.487529 -0.106489 1.000000
0.092785 0.361273 -0.345610 2.000000
-0.057849 0.423219 0.261319 2.000000
-0.094109 -0.344451 0.356924 2.000000
0.068650 -0.259941 0.422467 2.000000
0.135231 -0.143906 -0.478713 2.000000
-0.115599 0.174574 -0.468865 2.000000
0.053789 0.246835 -0.434924 2.000000
-0.029648 -0.319423 0.379420 2.000000
0.254387 -0.453548 0.202205 2.000000
0.226861 0.489515 -0.096626 2.000000
0.140279 0.377855 -0.327303 2.000000
-0.052012 0.268497 0.417624 2.000000
0.015988 -0.342646 0.358682 2.000000
0.239588 -0.181230 -0.465820 2.000000
-0.238034 -0.033598 0.494629 2.000000
0.284985 -0.207196 -0.454744 1.000000
0.109997 -0.389326 0.307612 2.000000
0.101870 -0.332404 -0.372464 2.000000
-0.280317 -0.366897 -0.338606 4.000000
0.054409 0.466442 0.174085 2.000000
-0.169003 -0.460918 -0.189384 2.000000
-0.029821 -0.442607 0.225016 2.000000
0.097299 0.279786 0.410139 2.000000
-0.099986 0.032456 0.494829 2.000000
0.167512 0.401103 -0.298216 2.000000
0.041743 -0.397257 0.297666 2.000000
0.127654 0.360501 -0.346463 2.000000
0.011774 -0.328053 -0.376404 2.000000
-0.159744 0.101933 0.485527 2.000000
0.087364 -0.172374 0.464917 2.000000
0.173025 0.019093 -0.499861 2.000000
-0.222511 0.225277 0.442222 2.000000
0.061563 -0.492313 0.070072 2.000000
0.138675 0.185954 0.460078 2.000000
-0.139225 -0.022329 0.495431 2.000000
0.206220 -0.495536 0.042141 2.000000
-0.026120 0.491788 0.079707 2.000000
0.251494 0.352350 -0.354586 2.000000
0.133358 0.108831 -0.488232 2.000000
0.159312 -0.416810 -0.273828 2.000000
0.047632 0.152110 0.472169 2.000000
-0.198907 0.133619 -0.481995 2.000000
0.027939 -0.267666 -0.421859 2.000000
-0.258075 0.322113 0.378243 2.000000
0.269831 -0.387431 0.309988 2.000000
-0.008270 0.445239 0.221831 2.000000
-0.245178 -0.221771 -0.447882 2.000000
0.285139 -0.006551 -0.500299 1.000000
-0.216194 -0.196961 0.454974 2.000000
0.048202 -0.339882 -0.365690 2.000000
0.236327 -0.487958 -0.098969 2.000000
0.004645 0.385922 0.313315 2.000000
0.142181 -0.427351 0.252582 2.000000
-0.251858 0.371989 0.329553 2.000000
-0.219497 -0.018437 0.495501 2.000000
-0.286041 -0.461122 0.184918 4.000000
-0.258144 0.373449 -0.332168 2.000000
-0.289241 -0.490013 -0.089159 4.000000
0.129439 -0.049868 -0.497569 2.000000
-0.102944 0.134674 0.477489 2.000000
-0.090376 0.487981 -0.104586 2.000000
-0.080337 -0.323477 0.375941 2.000000
0.052694 0.235497 0.436840 2.000000
0.178572 -0.282203 -0.412085 2.000000
-0.063104 -0.476995 -0.143654 2.000000
-0.107475 -0.497207 -0.018814 2.000000
-0.193226 0.472036 0.157867 2.000000
-0.265969 0.120244 0.481175 2.000000
-0.215634 -0.123128 -0.484600 2.000000
-0.260919 -0.356381 -0.349408 2.000000
-0.038212 -0.365176 0.335817 2.000000
0.243905 0.495746 -0.054032 2.000000
0.002170 -0.418097 0.267762 2.000000
-0.030217 -0.163878 -0.472331 2.000000
-0.168479 -0.425046 -0.261035 2.000000
-0.180635 -0.404112 0.288094 2.000000
-0.112983 0.427559 0.254087 2.000000
-0.002351 -0.494632 -0.056794 2.000000
-0.045827 -0.456502 0.195621 2.000000
0.043919 -0.446334 0.217938 2.000000
0.073139 0.447962 0.216306 2.000000
-0.134409 0.401175 -0.298112 2.000000
0.200440 0.111118 0.483344 2.000000
-0.075710 -0.272248 0.414414 2.000000
-0.052906 -0.492194 -0.074168 2.000000
0.042547 0.056728 -0.497166 2.000000
-0.200200 0.193280 0.457096 2.000000
0.223383 -0.467255 0.168575 2.000000
0.177547 0.324922 0.375815 2.000000
-0.217758 -0.448967 0.212414 2.000000
-0.213204 0.105446 0.484692 2.000000
0.215329 -0.418746 0.266697 2.000000
-0.171707 -0.038157 -0.498835 2.000000
-0.243601 0.424151 -0.263866 2.000000
-0.137157 -0.454804 0.199407 2.000000
0.182739 -0.268923 -0.421093 2.000000
-0.019790 -0.341737 0.359567 2.000000
0.038982 -0.482009 0.121049 2.000000
0.174941 0.367218 0.334975 2.000000
-0.074339 -0.244081 0.431562 2.000000
-0.133084 -0.497506 0.007195 2.000000
0.095519 0.486175 0.108015 2.000000
-0.231571 0.342647 -0.364032 2.000000
-0.290116 0.397571 0.298302 4.000000
0.271009 0.381412 0.318572 2.000000
-0.159062 0.187163 0.459625 2.000000
0.099440 -0.488296 -0.097355 2.000000
-0.255301 -0.216458 -0.450588 2.000000
-0.066709 0.491946 -0.082505 2.000000
0.091173 0.498280 0.011783 2.000000
-0.097123 -0.443123 -0.228399 2.000000
0.180603 0.496155 -0.050248 2.000000
-0.195999 0.151474 0.472363 2.000000
0.065672 -0.188569 0.458473 2.000000
0.068645 -0.480687 0.126614 2.000000
0.131267 -0.304187 -0.396073 2.000000
-0.289769 0.085969 -0.492936 4.000000
-0.024803 -0.125712 0.479541 2.000000
0.263260 0.461329 0.186504 2.000000
0.044509 0.497527 -0.033924 2.000000
-0.125367 -0.189104 -0.462863 2.000000
0.225612 -0.437839 0.234071 2.000000
-0.146707 0.147160 0.473679 2.000000
-0.252984 0.458498 0.193294 2.000000
0.275835 -0.497279 -0.014798 1.000000
-0.141228 -0.355094 0.346563 2.000000
0.091618 -0.441344 -0.232010 2.000000
0.201691 -0.278315 -0.414804 2.000000
0.268376 0.260229 -0.427243 2.000000
0.187651 0.485024 -0.117030 2.000000
-0.261773 -0.274894 -0.417197 2.000000
0.161150 0.336241 0.365563 2.000000
-0.044299 -0.251618 -0.431643 2.000000
-0.170549 -0.475406 -0.149410 2.000000
0.079667 -0.440369 -0.233987 2.000000
0.014042 0.377902 -0.327251 2.000000
-0.069945 -0.392857 -0.307545 2.000000
-0.227214 0.065939 -0.495833 2.000000
-0.075901 -0.382406 -0.320572 2.000000
-0.021564 -0.350690 0.350851 2.000000
-0.111379 -0.422273 0.260912 2.000000
0.222790 0.420914 0.264811 2.000000
0.190540 0.483476 0.119536 2.000000
0.163217 -0.381140 0.317878 2.000000
0.265341 0.020929 0.495346 2.000000
-0.227853 -0.496223 -0.037161 2.000000
0.174530 0.336702 -0.369820 2.000000
0.222980 0.491656 0.080622 2.000000
-0.210821 0.411719 -0.283036 2.000000
0.123558 -0.213965 0.447246 2.000000
-0.105332 -0.207190 -0.454747 2.000000
-0.217933 -0.042714 -0.498343 2.000000
0.067410 -0.464709 0.175360 2.000000
-0.270908 0.310319 -0.392198 2.000000
-0.275120 0.114873 0.482452 2.000000
-0.019774 0.234710 0.437255 2.000000
-0.152233 -0.160119 0.469144 2.000000
-0.253701 -0.004044 0.495760 2.000000
0.183640 -0.463880 0.177569 2.000000
0.184803 -0.294308 0.399150 2.000000
-0.003150 -0.474615 -0.151774 2.000000
0.013155 0.019033 -0.499862 2.000000
-0.212170 -0.472965 -0.156556 2.000000
-0.150027 -0.171423 0.465245 2.000000
-0.006348 -0.115076 -0.486513 2.000000
0.213710 -0.440517 0.228986 2.000000
0.141668 -0.018129 0.495506 2.000000
0.247661 -0.260162 0.422341 2.000000
-0.104537 -0.497572 0.001469 2.000000
-0.038684 -0.069332 -0.495416 2.000000
0.272936 -0.453790 -0.206483 2.000000
0.030265 0.370149 -0.335811 2.000000
-0.240806 0.456788 -0.201622 2.000000
-0.078181 -0.495990 0.037932 2.000000
0.171766 -0.416636 0.270159 2.000000
-0.129319 -0.353745 0.347877 2.000000
0.235911 -0.211801 -0.452678 2.000000
-0.262426 -0.488749 0.090769 2.000000
0.223465 0.326933 0.373993 2.000000
0.122279 -0.072902 -0.494801 2.000000
-0.235361 0.128965 -0.483280 2.000000
-0.273956 0.259612 0.423040 2.000000
0.261433 0.388170 0.310696 2.000000
-0.190613 0.393000 0.304361 2.000000
0.143488 -0.078375 -0.493859 2.000000
0.147085 0.362761 0.339553 2.000000
0.115171 -0.474425 0.147482 2.000000
-0.222763 -0.481191 -0.128455 2.000000
0.052145 0.493056 0.070945 2.000000
0.211182 -0.341325 -0.364383 2.000000
-0.130854 -0.334728 0.366287 2.000000
-0.064848 0.456149 -0.203045 2.000000
-0.275196 0.044706 -0.498166 2.000000
-0.208225 0.247186 0.430616 2.000000
-0.270832 0.344486 -0.362241 2.000000
-0.192583 0.474719 -0.154228 2.000000
-0.101684 0.196681 0.455569 2.000000
-0.175203 0.495473 0.054236 2.000000
0.055589 0.299575 -0.400304 2.000000
0.251254 -0.017739 -0.499797 2.000000
0.113440 0.486180 -0.112164 2.000000
-0.107454 -0.493780 0.058382 2.000000
0.022045 0.453275 -0.209449 2.000000
-0.111693 0.311744 -0.391123 2.000000
0.131501 0.276532 0.412415 2.000000
-0.148392 -0.430691 -0.251191 2.000000
-0.103879 0.498505 -0.000747 2.000000
0.011808 -0.215092 0.446691 2.000000
-0.169494 0.463836 -0.184772 2.000000
0.268717 0.451831 -0.212668 2.000000
-0.226600 -0.259221 -0.427008 2.000000
-0.208128 -0.232871 -0.442037 2.000000
-0.219962 0.498267 0.012478 2.000000
0.052619 0.234852 -0.441796 2.000000
0.250209 -0.190671 -0.462160 2.000000
0.194696 0.267891 -0.422320 2.000000
0.186485 0.493684 0.066601 2.000000
0.106339 -0.165618 -0.471678 2.000000
0.080319 -0.338106 0.363102 2.000000
0.170305 0.354374 0.348168 2.000000
-0.077143 0.424967 0.258607 2.000000
-0.221210 -0.424543 0.257188 2.000000
-0.058479 0.475368 -0.152101 2.000000
-0.128161 0.125823 0.479849 2.000000
0.106070 -0.453743 -0.206594 2.000000
0.064856 -0.472280 -0.158541 2.000000
0.099702 0.462353 -0.188722 2.000000
0.101397 0.474948 -0.153478 2.000000
0.020202 -0.119366 -0.485494 2.000000
0.048171 -0.067599 0.491091 2.000000
-0.183914 -0.333590 0.367264 2.000000
0.015936 -0.147061 0.473648 2.000000
0.018669 -0.438620 -0.237364 2.000000
-0.148534 0.165358 -0.472044 2.000000
0.281663 -0.263428 0.420237 1.000000
0.101271 0.298017 -0.401479 2.000000
0.074410 0.463310 -0.186173 2.000000
-0.220207 -0.054951 0.492899 2.000000
0.086625 -0.304904 -0.395501 2.000000
-0.207894 0.306245 0.390896 2.000000
0.235358 -0.497384 -0.008994 2.000000
0.051905 -0.232674 0.438027 2.000000
-0.120819 -0.049310 0.493356 2.000000
-0.174580 -0.033011 0.494677 2.000000
0.212455 0.094130 -0.491312 2.000000
-0.076512 -0.328580 -0.375927 2.000000
0.221988 -0.365782 0.335148 2.000000
-0.216944 0.395869 0.300558 2.000000
0.246761 -0.101759 -0.489678 2.000000
-0.244890 0.254899 -0.430300 2.000000
-0.289466 -0.217340 0.445583 4.000000
-0.186337 -0.324464 0.375094 2.000000
-0.032514 -0.446836 -0.220865 2.000000
-0.183558 -0.288037 0.403881 2.000000
0.242270 0.480563 0.130087 2.000000
-0.079616 -0.490342 -0.086972 2.000000
0.000998 -0.491143 -0.081433 2.000000
-0.134643 -0.418019 0.267889 2.000000
0.065839 0.426755 -0.259594 2.000000
-0.222735 0.486744 -0.109793 2.000000
-0.240594 0.258002 0.424022 2.000000
-0.287245 0.486208 0.107861 4.000000
0.210885 -0.407259 0.283594 2.000000
-0.236274 -0.392975 0.303036 2.000000
-0.287579 0.493634 0.066949 4.000000
-0.125924 0.496295 0.044569 2.000000
-0.271646 -0.496711 0.024926 2.000000
0.142290 -0.377343 0.322384 2.000000
0.198194 0.026995 0.495074 2.000000
-0.203092 0.461772 -0.190270 2.000000
0.004748 -0.477936 -0.140246 2.000000
0.162474 -0.410717 0.278649 2.000000
0.033602 0.339026 -0.367557 2.000000
-0.272615 -0.362366 0.338919 2.000000
0.044933 -0.385568 0.312325 2.000000
0.266006 0.494622 0.060122 2.000000
-0.240498 0.194815 -0.460650 2.000000
0.152247 0.274625 -0.417874 2.000000
-0.116967 -0.292078 -0.405179 2.000000
0.268392 0.390950 -0.311214 2.000000
-0.031144 0.189978 -0.462666 2.000000
-0.109160 -0.281876 -0.412314 2.000000
-0.002383 0.414585 -0.278938 2.000000
-0.137114 -0.439483 0.230949 2.000000
-0.288402 -0.061222 0.492014 4.000000
0.166771 0.414187 -0.279507 2.000000
-0.221709 0.011596 -0.499996 2.000000
-0.117384 -0.426716 0.253624 2.000000
-0.071023 0.274327 0.413957 2.000000
-0.273272 -0.269702 0.416095 2.000000
-0.049872 -0.311733 0.386005 2.000000
-0.154136 0.435475 0.240282 2.000000
-0.118298 -0.363656 -0.341935 2.000000
-0.064409 0.498032 0.023125 2.000000
-0.278972 0.239942 0.434500 2.000000
-0.286109 0.163213 0.468612 4.000000
0.274519 -0.422269 0.260919 2.000000
0.190484 -0.211934 -0.452618 2.000000
-0.269493 -0.496757 -0.030568 2.000000
-0.190219 -0.475962 -0.147398 2.000000
-0.117156 -0.388211 0.309011 2.000000
-0.274299 0.198913 -0.458941 2.000000
0.075349 0.085849 -0.492953 2.000000
0.188672 -0.422756 0.260119 2.000000
0.019677 -0.363788 -0.341800 2.000000
0.066457 -0.495070 -0.051395 2.000000
-0.064013 0.291544 0.401916 2.000000
0.172473 0.317066 0.382268 2.000000
0.017935 -0.496594 0.027525 2.000000
0.066185 -0.141418 -0.479472 2.000000
0.024740 0.216021 0.446891 2.000000
-0.279386 0.398366 0.297248 2.000000
-0.069050 0.374833 0.326238 2.000000
0.275012 -0.282016 0.407965 2.000000
-0.071303 0.326565 -0.378524 2.000000
0.037478 -0.150682 -0.476645 2.000000
-0.133050 0.291527 -0.406375 2.000000
0.014136 -0.484461 0.110731 2.000000
-0.086817 -0.368504 -0.336773 2.000000
0.107553 0.380519 -0.324295 2.000000
0.222898 0.076992 -0.494234 2.000000
0.087166 0.009333 0.495866 2.000000
0.193289 -0.493552 0.060500 2.000000
0.090250 -0.493677 -0.063921 2.000000
-0.192776 0.487742 0.100537 2.000000
-0.254955 0.389577 -0.312936 2.000000
-0.217739 -0.087790 0.488072 2.000000
-0.266780 -0.291296 -0.405726 2.000000
-0.157975 -0.256119 -0.428899 2.000000
0.199698 0.485414 0.111650 2.000000
0.263551 -0.138053 -0.480499 2.000000
0.237346 0.428965 -0.255969 2.000000
0.003377 0.037706 -0.498733 2.000000
-0.041051 -0.496832 0.022215 2.000000
0.108592 0.304317 -0.396726 2.000000
-0.249427 -0.434288 0.240816 2.000000
0.285665 0.497346 0.031591 1.000000
-0.236378 0.102190 -0.489623 2.000000
-0.135627 -0.390849 0.305702 2.000000
0.262157 -0.196688 0.455088 2.000000
-0.046507 -0.429622 -0.253055 2.000000
-0.214310 0.497736 -0.029276 2.000000
0.059279 -0.461929 0.182769 2.000000
-0.090099 0.468781 -0.171591 2.000000
0.103057 -0.458135 -0.196060 2.000000
0.135935 0.080418 -0.493739 2.000000
0.147925 -0.043459 -0.498262 2.000000
-0.267493 -0.224502 -0.446443 2.000000
-0.158948 -0.062819 0.491783 2.000000
0.284605 0.493939 -0.070755 1.000000
-0.267952 0.293205 0.400754 2.000000
-0.003934 0.094872 -0.491156 2.000000
-0.286699 0.191440 -0.462057 4.000000
0.243499 0.483390 0.119847 2.000000
0.036385 0.267222 0.418401 2.000000
0.150806 -0.320679 0.378342 2.000000
0.285917 0.256941 0.424669 1.000000
-0.071535 0.011396 -0.500000 2.000000
0.176046 0.220932 -0.448671 2.000000
-0.091160 0.181748 -0.466097 2.000000
-0.273477 -0.106615 0.484128 2.000000
-0.024874 0.271623 -0.419857 2.000000
-0.051001 0.467742 -0.174361 2.000000
-0.286385 0.051014 -0.497655 4.000000
0.153211 -0.489408 -0.092044 2.000000
0.204220 0.244702 0.431994 2.000000
-0.085114 -0.006338 -0.500308 2.000000
0.024594 -0.209047 -0.453914 2.000000
-0.213696 0.473065 -0.159650 2.000000
-0.225901 0.490108 0.089242 2.000000
-0.075941 0.462455 -0.188450 2.000000
0.202414 0.443781 -0.229086 2.000000
0.228784 0.111119 0.483344 2.000000
-0.170857 0.470699 0.161743 2.000000
-0.033666 -0.362378 -0.343248 2.000000
-0.270755 0.126422 -0.483981 2.000000
0.222851 0.140439 0.475730 2.000000
-0.175306 0.026284 -0.499658 2.000000
-0.090653 -0.494360 0.053015 2.000000
0.115217 0.174175 0.464498 2.000000
0.223836 0.305260 0.391681 2.000000
-0.094162 -0.313734 0.384302 2.000000
0.034523 -0.030408 0.494888 2.000000
0.279062 0.189907 0.458595 2.000000
-0.090775 0.494831 0.058674 2.000000
0.098368 0.481851 0.125421 2.000000
-0.257783 0.435445 -0.244918 2.000000
-0.249306 0.414550 0.274451 2.000000
0.053755 -0.208753 -0.454046 2.000000
-0.132064 0.214244 -0.451967 2.000000
0.262412 0.250714 0.428465 2.000000
0.130648 0.479670 0.133323 2.000000
0.171303 -0.082837 -0.493091 2.000000
0.149738 0.380550 0.319575 2.000000
-0.073761 0.472132 0.157589 2.000000
0.258780 0.323463 -0.381186 2.000000
-0.081766 0.390953 0.307073 2.000000
0.137014 -0.383986 0.314309 2.000000
-0.057249 -0.444669 0.221101 2.000000
-0.154211 -0.109559 -0.487824 2.000000
0.097625 -0.497069 -0.026437 2.000000
0.107885 0.260962 -0.426823 2.000000
0.001443 -0.484877 -0.113674 2.000000
0.028944 -0.489655 0.085512 2.000000
-0.246632 -0.338652 -0.366804 2.000000
0.167878 -0.167369 -0.471021 2.000000
0.200658 0.063549 0.491848 2.000000
-0.013509 -0.217628 -0.450063 2.000000
-0.071598 -0.144820 0.474266 2.000000
-0.197993 0.475165 0.148795 2.000000
0.236436 -0.050490 -0.497502 2.000000
-0.072694 -0.054133 -0.497109 2.000000
-0.229235 -0.023284 -0.499548 2.000000
0.253990 0.263139 0.420891 2.000000
0.226516 0.482296 0.123811 2.000000
0.224783 -0.372626 0.327592 2.000000
-0.011941 -0.434476 -0.244591 2.000000
-0.066518 -0.247612 -0.434085 2.000000
-0.113873 -0.495014 0.046967 2.000000
-0.089160 0.171190 -0.470032 2.000000
-0.089091 0.474944 -0.153493 2.000000
-0.111002 0.497598 0.028480 2.000000
0.129119 0.140675 0.475658 2.000000
0.280846 0.284009 -0.411679 1.000000
0.061408 0.462898 -0.187270 2.000000
0.092777 -0.455733 -0.201821 2.000000
0.237996 -0.109511 -0.487836 2.000000
-0.060670 0.472202 -0.162475 2.000000
-0.129003 0.216142 0.446836 2.000000
-0.184010 -0.451180 0.207483 2.000000
-0.163175 0.498041 -0.022469 2.000000
-0.075517 -0.045440 0.493670 2.000000
-0.054541 0.445290 0.221728 2.000000
0.048792 -0.170849 -0.469715 2.000000
-0.093678 -0.385032 0.312997 2.000000
0.196096 -0.484108 0.112219 2.000000
-0.175510 0.293035 0.400873 2.000000
-0.270941 -0.493904 -0.062350 2.000000
0.048517 -0.356729 0.344971 2.000000
0.094504 -0.467705 -0.171804 2.000000
-0.063295 0.118770 0.481526 2.000000
-0.095220 -0.491699 -0.077592 2.000000
0.143942 0.494638 -0.064287 2.000000
-0.251267 -0.189892 -0.462509 2.000000
-0.067074 -0.229370 0.439655 2.000000
0.255062 0.480431 0.130566 2.000000
-0.235163 -0.189138 0.458236 2.000000
0.254682 -0.000103 -0.500207 2.000000
0.281068 -0.434551 0.240318 1.000000
-0.234627 0.206701 -0.455684 2.000000
0.273544 0.141707 -0.479762 1.000000
-0.062554 0.279923 -0.414377 2.000000
0.110952 0.028591 0.495003 2.000000
0.078108 0.057583 -0.497042 2.000000
-0.248639 -0.483189 0.116084 2.000000
0.110036 0.392562 0.304942 2.000000
-0.249866 0.237404 0.435837 2.000000
-0.234216 0.185750 -0.464429 2.000000
0.256619 0.492358 0.075770 2.000000
-0.019395 -0.408422 0.281931 2.000000
0.105212 0.228571 0.440487 2.000000
-0.001100 -0.182093 0.461173 2.000000
-0.060649 0.414890 -0.278502 2.000000
0.262384 -0.367736 -0.337668 2.000000
-0.163541 -0.428414 0.250838 2.000000
0.272301 0.483268 -0.124416 2.000000
-0.001747 0.081692 -0.493554 2.000000
0.201074 -0.028831 -0.499299 2.000000
0.234116 0.321148 0.379013 2.000000
0.050527 -0.064903 -0.495945 2.000000
-0.009272 -0.372794 0.327406 2.000000
0.207464 0.379069 0.321302 2.000000
-0.171840 -0.098539 -0.490388 2.000000
-0.023179 -0.482784 0.117788 2.000000
-0.161994 0.390481 0.307700 2.000000
0.068489 -0.495665 0.040940 2.000000
-0.120087 -0.202237 -0.456969 2.000000
0.274201 -0.291457 -0.405613 2.000000
0.196093 0.030052 -0.499353 2.000000
0.069453 -0.327422 -0.376976 2.000000
-0.082256 -0.136395 0.476592 2.000000
-0.229695 0.275266 -0.417452 2.000000
0.219801 0.270903 -0.420332 2.000000
-0.084976 -0.492602 0.068394 2.000000
0.174740 -0.430755 -0.251079 2.000000
0.268729 -0.105339 -0.488827 2.000000
-0.077107 0.455278 0.201017 2.000000
-0.027048 -0.494144 0.055020 2.000000
0.188342 0.498437 0.003038 2.000000
-0.116925 0.468049 -0.173543 2.000000
-0.280964 0.092841 -0.491582 4.000000
0.079468 -0.497434 0.008790 2.000000
0.045216 -0.217471 0.445519 2.000000
0.206595 0.263194 -0.425421 2.000000
-0.080612 0.134540 0.477530 2.000000
-0.037314 0.033772 -0.499052 2.000000
-0.084732 -0.410485 0.278982 2.000000
0.243293 0.026057 -0.499677 2.000000
-0.087070 0.496716 0.039365 2.000000
0.149663 0.075779 -0.494410 2.000000
0.278346 0.417433 0.270084 2.000000
0.137845 0.174971 0.464200 2.000000
-0.013077 0.396533 0.299678 2.000000
0.166046 -0.248263 0.429164 2.000000
-0.220895 -0.060840 -0.496384 2.000000
0.246256 0.289717 0.403194 2.000000
0.118103 0.365550 -0.340888 2.000000
-0.212582 -0.291548 -0.405550 2.000000
-0.058241 -0.391512 -0.309328 2.000000
0.271959 -0.475488 -0.149113 2.000000
0.286402 -0.084581 0.488635 1.000000
0.023783 -0.209919 0.449240 2.000000
0.202132 -0.091559 -0.491589 2.000000
-0.284768 -0.265665 -0.423079 4.000000
0.040285 -0.420022 -0.268964 2.000000
0.145880 0.471902 -0.163275 2.000000
0.022153 -0.494105 0.055382 2.000000
-0.103826 -0.487470 -0.101298 2.000000
-0.097035 -0.316527 -0.386233 2.000000
-0.190245 0.114709 0.482491 2.000000
-0.038505 0.151987 0.472206 2.000000
-0.012492 -0.481932 0.121372 2.000000
0.024567 0.011136 -0.500004 2.000000
-0.266178 -0.023226 -0.499551 2.000000
0.113358 0.474348 0.151165 2.000000
0.094434 -0.157669 -0.474513 2.000000
0.180659 -0.440394 -0.233938 2.000000
0.155224 -0.031789 0.494776 2.000000
0.200948 0.484244 -0.120311 2.000000
-0.114254 0.021402 -0.499819 2.000000
-0.215466 0.254359 0.426243 2.000000
-0.252324 -0.221034 0.443763 2.000000
0.284900 0.411563 -0.283260 1.000000
0.107599 0.371104 -0.334757 2.000000
-0.030744 -0.045226 -0.498071 2.000000
-0.223390 0.242610 -0.437347 2.000000
-0.125480 0.481569 0.126444 2.000000
-0.012573 -0.451331 0.207145 2.000000
-0.193346 0.497379 -0.037217 2.000000
0.270967 0.345502 0.357175 2.000000
0.133827 -0.235455 0.436508 2.000000
0.221688 -0.211590 -0.452772 2.000000
0.173864 0.335423 0.366304 2.000000
0.227291 -0.387038 0.310481 2.000000
-0.102478 0.160425 0.469632 2.000000
0.161956 -0.382469 -0.320499 2.000000
0.251205 -0.083361 0.488811 2.000000
-0.274556 0.294720 -0.403966 2.000000
0.068584 0.474373 0.151091 2.000000
0.224772 0.283163 -0.412238 2.000000
0.059566 -0.123983 0.480018 2.000000
0.028357 -0.427459 0.252406 2.000000
0.239890 0.115844 0.482221 2.000000
0.011595 -0.291079 -0.405878 2.000000
-0.158213 -0.212631 0.447904 2.000000
0.286762 -0.181569 -0.465693 1.000000
0.271617 -0.041389 0.493998 2.000000
-0.222506 0.490891 -0.088637 2.000000
0.255338 -0.359127 0.342495 2.000000
-0.248640 0.055471 0.492721 2.000000
-0.172876 -0.192452 -0.461361 2.000000
-0.030754 -0.453565 0.202167 2.000000
0.258671 0.468554 -0.172198 2.000000
0.176203 -0.386163 -0.316193 2.000000
-0.050719 0.377462 -0.327737 2.000000
0.185594 -0.014708 0.495568 2.000000
-0.100863 0.458789 0.192596 2.000000
0.275873 0.246178 0.431217 2.000000
0.243168 -0.036666 -0.498948 2.000000
0.181061 0.464497 -0.183010 2.000000
-0.287620 0.297051 0.398064 4.000000
-0.171633 -0.254493 -0.429890 2.000000
-0.201767 -0.314976 -0.387470 2.000000
-0.016693 -0.415185 0.272262 2.000000
-0.001943 -0.242765 0.432317 2.000000
-0.089346 0.038445 -0.498673 2.000000
0.067804 0.067360 -0.495628 2.000000
0.253703 0.122767 0.480576 2.000000
0.044021 0.304231 0.392502 2.000000
0.108426 -0.490702 0.079430 2.000000
0.266108 -0.038542 -0.498793 2.000000
0.280173 -0.496476 0.030158 1.000000
-0.278412 0.011029 0.495790 2.000000
-0.134117 0.237093 0.436000 2.000000
0.052323 0.244599 0.432048 2.000000
-0.150591 -0.452042 0.205560 2.000000
0.173935 0.451278 0.209576 2.000000
0.020365 -0.497284 -0.014500 2.000000
-0.264697 0.010326 -0.500019 2.000000
0.284535 -0.403884 -0.292929 1.000000
0.055340 -0.042162 -0.498402 2.000000
-0.177503 -0.485657 0.105698 2.000000
0.122036 -0.313358 -0.388760 2.000000
-0.055600 0.496160 0.046234 2.000000
-0.218699 0.049349 0.493383 2.000000
0.151137 -0.338586 -0.366864 2.000000
-0.214984 -0.136251 -0.481048 2.000000
-0.218226 0.369482 0.332474 2.000000
0.126141 0.020243 -0.499840 2.000000
-0.038176 -0.419205 0.265945 2.000000
0.150748 0.466290 -0.178231 2.000000
-0.172607 0.274471 0.413856 2.000000
-0.063998 0.102078 0.485492 2.000000
-0.177719 0.466323 -0.178144 2.000000
0.220795 -0.121500 0.480704 2.000000
0.091342 0.213759 -0.452206 2.000000
-0.135809 -0.468425 -0.169718 2.000000
0.063532 -0.106719 -0.488499 2.000000
-0.217800 -0.484038 0.112511 2.000000
-0.216542 -0.496842 0.022005 2.000000
-0.171958 0.498559 -0.010922 2.000000
0.130846 -0.254138 -0.430106 2.000000
0.220165 -0.497522 -0.001341 2.000000
0.199197 -0.483662 -0.119475 2.000000
-0.106349 0.419655 -0.271241 2.000000
0.151092 0.494337 0.062090 2.000000
0.025212 0.020478 0.495366 2.000000
-0.080618 -0.398562 -0.299984 2.000000
-0.087777 0.319303 0.380484 2.000000
0.026452 -0.193437 0.456443 2.000000
0.014343 0.062537 -0.496325 2.000000
0.044447 0.265707 -0.423762 2.000000
-0.015430 0.330357 0.370892 2.000000
0.276376 -0.478408 -0.138537 1.000000
0.278695 -0.022067 0.495435 2.000000
0.210969 -0.384355 -0.318301 2.000000
-0.125128 -0.005572 -0.500305 2.000000
-0.016459 0.358342 0.344093 2.000000
0.229194 -0.369726 -0.335349 2.000000
-0.170396 -0.224708 -0.446335 2.000000
-0.219894 -0.484091 -0.117427 2.000000
0.272736 0.156636 -0.475052 2.000000
-0.008596 -0.061979 0.491905 2.000000
0.278619 0.394505 0.302366 2.000000
-0.111594 -0.218419 -0.449646 2.000000
-0.166982 -0.432303 -0.248381 2.000000
-0.045552 -0.171330 0.465277 2.000000
-0.210421 0.210571 -0.453777 2.000000
0.003133 0.179566 0.462475 2.000000
0.239997 0.464668 0.178495 2.000000
0.041698 0.242705 0.433045 2.000000
0.108451 0.269664 -0.421150 2.000000
0.138680 0.421434 -0.268322 2.000000
-0.051792 -0.476752 -0.144536 2.000000
0.207520 -0.492111 -0.074742 2.000000
-0.013081 0.453568 -0.208798 2.000000
-0.157211 0.485828 -0.113646 2.000000
0.217273 -0.427744 -0.256331 2.000000
-0.185236 -0.350438 0.351095 2.000000
0.122905 -0.204061 0.452014 2.000000
-0.116292 0.330416 -0.375220 2.000000
0.099365 0.311927 0.386365 2.000000
0.259071 -0.308313 -0.392783 2.000000
-0.220683 0.397776 -0.302654 2.000000
-0.149533 -0.395032 -0.304663 2.000000
-0.173457 -0.419005 -0.270504 2.000000
-0.201866 -0.208275 -0.454260 2.000000
-0.220741 -0.207007 0.450675 2.000000
-0.007278 -0.275612 0.412193 2.000000
-0.102578 0.387363 -0.315713 2.000000
-0.078355 0.449666 0.212846 2.000000
-0.237589 -0.265556 -0.423146 2.000000
0.056610 -0.010882 -0.500104 2.000000
0.083437 -0.497205 -0.018896 2.000000
-0.192118 -0.165437 0.467309 2.000000
-0.082111 -0.144225 -0.478615 2.000000
-0.198758 -0.482728 0.118022 2.000000
-0.172000 -0.493934 0.056960 2.000000
0.008762 -0.389239 -0.312341 2.000000
0.135914 -0.325237 0.374431 2.000000
0.160729 -0.432418 0.244270 2.000000
0.031490 -0.082150 0.488986 2.000000
0.018414 -0.070765 -0.495169 2.000000
0.209729 0.498526 -0.001876 2.000000
-0.088426 -0.432467 -0.248093 2.000000
-0.263456 -0.188058 -0.463258 2.000000
0.235734 -0.428151 -0.255621 2.000000
0.027467 -0.308288 0.388603 2.000000
0.006242 0.123301 0.480449 2.000000
-0.281019 -0.491985 -0.075617 4.000000
0.115274 0.085137 -0.493056 2.000000
0.066663 0.155087 0.471261 2.000000
0.067861 0.485336 -0.115716 2.000000
-0.231603 -0.069445 -0.495396 2.000000
-0.232746 0.286869 -0.409791 2.000000
0.113255 0.425950 0.256893 2.000000
0.145162 -0.101965 -0.489629 2.000000
0.036523 -0.223935 -0.446742 2.000000
0.282265 0.495199 -0.059090 1.000000
-0.090191 -0.203000 -0.456627 2.000000
0.192667 -0.272740 -0.418703 2.000000
0.283924 0.154356 -0.475839 1.000000
0.204957 0.448230 0.215761 2.000000
0.142328 0.492723 0.073246 2.000000
-0.190581 -0.367128 -0.338369 2.000000
-0.072983 0.277101 -0.416240 2.000000
0.006612 -0.281660 0.408200 2.000000
-0.095838 -0.378296 0.321331 2.000000
0.125827 0.479456 -0.138704 2.000000
0.267112 0.369272 -0.336779 2.000000
0.195479 -0.486771 -0.104631 2.000000
-0.221832 0.142990 0.474952 2.000000
-0.265626 0.196246 0.455765 2.000000
0.078990 -0.323256 -0.380749 2.000000
-0.289779 0.457872 -0.199206 4.000000
0.126697 0.402099 0.292300 2.000000
-0.209922 0.137299 0.476688 2.000000
0.014768 0.496791 0.038445 2.000000
0.203935 0.460496 -0.193358 2.000000
0.266975 -0.494112 0.055316 2.000000
-0.169604 -0.240926 -0.437796 2.000000
-0.200432 -0.456958 0.194606 2.000000
-0.215669 -0.388835 -0.312877 2.000000
0.241882 0.489406 -0.097263 2.000000
0.103972 0.498325 0.009289 2.000000
-0.034028 -0.327695 0.372322 2.000000
-0.244555 -0.258736 0.423158 2.000000
-0.109864 0.281043 0.409259 2.000000
0.193879 0.316133 -0.387476 2.000000
-0.156637 0.340461 -0.366160 2.000000
-0.247717 -0.250228 -0.432490 2.000000
-0.041191 -0.444035 0.222305 2.000000
0.213254 0.286748 -0.409871 2.000000
-0.267768 0.457324 -0.200428 2.000000
-0.059907 -0.078435 -0.493849 2.000000
0.148564 -0.402965 0.289734 2.000000
0.096735 0.266429 -0.423286 2.000000
-0.025112 0.339653 0.362473 2.000000
-0.075682 -0.243275 -0.436559 2.000000
-0.211322 -0.200086 -0.457935 2.000000
0.026012 -0.496059 0.037297 2.000000
-0.187634 -0.081415 0.489093 2.000000
0.152126 0.490920 -0.088469 2.000000
-0.010185 0.267951 0.417957 2.000000
0.056119 0.276711 0.412289 2.000000
-0.044200 0.403923 -0.294183 2.000000
-0.208234 -0.425620 -0.260035 2.000000
0.008235 -0.291720 0.401103 2.000000
0.110913 -0.050719 0.493242 2.000000
0.016492 -0.242420 0.432515 2.000000
-0.289780 0.465903 0.175532 4.000000
-0.202929 -0.465599 0.172989 2.000000
0.149381 0.216166 -0.451020 2.000000
-0.238271 -0.159536 -0.473944 2.000000
-0.218320 -0.464644 -0.180447 2.000000
-0.045766 -0.326187 0.373616 2.000000
-0.118798 -0.486845 0.100702 2.000000
0.021579 0.415198 -0.278061 2.000000
-0.018351 -0.485538 0.106199 2.000000
-0.020492 -0.225000 -0.446181 2.000000
-0.100883 -0.428393 -0.255198 2.000000
-0.050880 -0.174396 -0.468384 2.000000
0.221895 0.023447 -0.499782 2.000000
-0.217820 -0.402089 -0.295308 2.000000
0.125362 0.002718 0.495882 2.000000
-0.013468 0.485224 0.112554 2.000000
-0.064639 -0.089010 0.487816 2.000000
-0.118332 -0.097553 -0.490557 2.000000
0.016527 -0.200780 0.453382 2.000000
0.192604 0.365652 -0.340776 2.000000
0.005383 -0.446681 -0.221179 2.000000
-0.224543 0.201204 0.453540 2.000000
-0.088940 0.322155 -0.382308 2.000000
0.084941 -0.098364 -0.490418 2.000000
0.111334 -0.143718 0.474571 2.000000
-0.053439 -0.097043 0.486133 2.000000
0.095088 -0.033175 0.494664 2.000000
0.228422 -0.257394 -0.428121 2.000000
-0.221905 0.492470 0.074992 2.000000
0.053418 -0.457973 0.192345 2.000000
0.095330 0.477644 0.140663 2.000000
0.059692 0.294214 0.400048 2.000000
0.037703 -0.302267 -0.397604 2.000000
-0.257940 0.070490 0.491039 2.000000
0.180962 0.365470 -0.340977 2.000000
0.052483 0.188769 0.459022 2.000000
-0.198973 -0.494807 -0.054639 2.000000
0.252580 0.411245 0.279456 2.000000
-0.203948 -0.486842 -0.104295 2.000000
-0.073215 -0.497470 -0.004178 2.000000
-0.151219 -0.477169 0.138489 2.000000
-0.014656 0.457644 -0.199714 2.000000
0.111675 0.291123 -0.406680 2.000000
0.216803 0.356433 0.346054 2.000000
0.260790 0.203187 -0.457159 2.000000
0.255055 -0.373267 0.326883 2.000000
-0.270130 0.483087 0.120946 2.000000
-0.168448 0.178475 0.462885 2.000000
-0.039566 -0.463091 -0.184174 2.000000
0.233687 0.493056 -0.076058 2.000000
-0.096173 -0.420899 0.263166 2.000000
0.198119 0.357111 -0.349950 2.000000
-0.137303 0.287803 0.404532 2.000000
0.185189 -0.166313 0.467008 2.000000
0.105793 0.299636 0.396166 2.000000
0.161666 -0.481797 -0.126259 2.000000
-0.035596 0.474288 -0.155642 2.000000
0.104565 0.434940 -0.245879 2.000000
-0.168583 0.425298 -0.261984 2.000000
0.185627 -0.201967 0.452887 2.000000
0.131291 -0.322128 -0.381767 2.000000
-0.202416 -0.384960 -0.317595 2.000000
-0.119511 -0.414652 0.273023 2.000000
-0.206740 -0.175394 -0.468010 2.000000
-0.222509 0.123742 -0.484721 2.000000
-0.224687 0.323343 0.377245 2.000000
-0.270917 -0.446253 0.218092 2.000000
0.057293 -0.024118 -0.499511 2.000000
-0.014124 0.079405 -0.493885 2.000000
0.043914 0.324777 0.375947 2.000000
0.017282 0.364730 -0.341794 2.000000
0.058030 0.491387 -0.085754 2.000000
0.159834 -0.472702 0.153127 2.000000
