0.256362 0.157249 -0.418938 3.000000
0.080978 -0.431703 0.105132 3.000000
0.278495 0.359486 0.261437 3.000000
-0.248074 0.381904 0.227540 3.000000
-0.102132 0.396375 -0.205924 3.000000
0.117997 -0.003804 0.443123 3.000000
0.098981 -0.163931 -0.416129 3.000000
0.209509 -0.441149 0.055301 3.000000
-0.198107 0.157268 -0.418931 3.000000
0.084300 -0.220654 0.384272 3.000000
0.077252 -0.411714 0.166256 3.000000
-0.022194 0.419493 -0.152748 3.000000
-0.049307 -0.421592 0.139718 3.000000
0.112982 0.445758 -0.008214 3.000000
0.037020 0.428118 -0.126152 3.000000
0.132100 0.260263 0.359594 3.000000
0.114209 -0.321527 0.305414 3.000000
-0.134636 0.240545 0.372995 3.000000
-0.193353 0.445889 -0.000308 3.000000
-0.209058 -0.206725 -0.396261 3.000000
-0.017761 0.439546 0.071890 3.000000
0.244163 0.366678 -0.255460 3.000000
-0.012553 0.118415 0.427193 3.000000
-0.152450 -0.269331 0.351964 3.000000
-0.100238 -0.060395 0.438941 3.000000
0.269798 -0.027465 -0.446732 3.000000
0.007663 -0.444851 0.000095 3.000000
0.284109 0.057401 -0.443931 1.000000
-0.155993 -0.010384 -0.447269 3.000000
0.249835 -0.427975 -0.123116 3.000000
-0.099375 0.368612 -0.252615 3.000000
-0.174310 -0.399140 -0.198486 3.000000
0.143991 0.065302 0.438327 3.000000
-0.272862 -0.055258 -0.444105 3.000000
0.170948 0.386643 -0.223881 3.000000
-0.054449 0.439274 -0.077960 3.000000
-0.143347 -0.423636 -0.138053 3.000000
-0.220284 0.396884 0.200570 3.000000
-0.118238 0.388351 -0.220993 3.000000
-0.225659 0.424354 -0.139108 3.000000
0.061400 -0.336671 0.288594 3.000000
0.061999 -0.349270 -0.277640 3.000000
0.107717 0.141061 0.420413 3.000000
-0.214919 -0.283445 0.341013 3.000000
-0.152198 0.209200 -0.395522 3.000000
0.109943 0.285577 0.340038 3.000000
0.003075 -0.296660 -0.333716 3.000000
0.049634 0.391554 0.211032 3.000000
-0.131945 -0.337737 0.287385 3.000000
-0.100325 0.407177 -0.183461 3.000000
0.074264 -0.276922 0.346076 3.000000
-0.057088 -0.315826 0.311114 3.000000
-0.176396 0.334816 -0.296215 3.000000
0.049568 0.340330 -0.289960 3.000000
0.240448 0.287514 -0.342683 3.000000
-0.080737 0.399876 -0.199053 3.000000
-0.096144 -0.431627 0.105473 3.000000
-0.057263 -0.187377 0.401630 3.000000
-0.153888 -0.337308 0.287872 3.000000
-0.183250 0.354159 0.268305 3.000000
-0.167781 -0.083856 0.435167 3.000000
-0.249749 -0.440829 -0.061677 3.000000
-0.034825 0.418349 -0.155925 3.000000
-0.144670 -0.186719 0.401914 3.000000
0.024812 -0.328494 0.297869 3.000000
-0.281092 0.293539 -0.337372 4.000000
-0.012458 -0.198758 0.395967 3.000000
0.203194 0.168301 0.410328 3.000000
0.071683 -0.409634 -0.175417 3.000000
-0.192019 0.422335 0.140501 3.000000
0.004558 0.395355 0.203572 3.000000
0.086848 0.425359 0.131296 3.000000
0.250808 0.238728 -0.378542 3.000000
-0.193812 -0.444439 0.013217 3.000000
0.251909 -0.444588 -0.012819 3.000000
0.166179 -0.285180 -0.343837 3.000000
-0.012688 0.445254 -0.024232 3.000000
0.273786 0.323482 -0.308837 3.000000
-0.090331 0.208321 -0.395970 3.000000
0.254483 0.050994 -0.444605 3.000000
-0.132204 -0.293502 0.332148 3.000000
-0.177238 -0.246302 -0.372739 3.000000
0.014582 0.150264 0.417099 3.000000
0.272401 -0.406955 0.177253 3.000000
-0.074605 0.444765 -0.033359 3.000000
0.107329 -0.424783 0.129752 3.000000
-0.184269 0.250367 0.366319 3.000000
-0.276849 -0.007860 -0.447349 3.000000
0.206312 0.200681 0.395509 3.000000
-0.123060 -0.168284 -0.414245 3.000000
0.164215 0.090524 -0.438259 3.000000
-0.116234 -0.378933 -0.235185 3.000000
-0.096909 0.324701 -0.307618 3.000000
-0.202771 -0.215667 0.387221 3.000000
0.130558 -0.037695 -0.445765 3.000000
0.202604 -0.060692 -0.443248 3.000000
-0.005469 -0.309705 0.317236 3.000000
0.036358 0.106683 -0.434647 3.000000
0.022225 -0.442898 0.037916 3.000000
-0.137695 0.249536 -0.371238 3.000000
-0.200066 -0.403823 0.184491 3.000000
-0.216380 -0.374154 0.238598 3.000000
-0.243082 -0.443960 0.026679 3.000000
0.170221 -0.044685 -0.445104 3.000000
-0.125689 0.436073 -0.094519 3.000000
0.263869 0.409797 -0.177407 3.000000
0.070245 0.275187 -0.352570 3.000000
0.137425 0.358554 -0.266992 3.000000
0.208656 -0.013568 0.442816 3.000000
0.096005 -0.358154 0.261832 3.000000
-0.181412 -0.218982 -0.389614 3.000000
-0.098928 -0.348438 0.274358 3.000000
-0.012327 -0.418007 0.149678 3.000000
0.077357 -0.444178 0.021510 3.000000
-0.114081 -0.340469 0.284286 3.000000
0.204012 -0.028185 0.442311 3.000000
0.144388 0.334190 -0.296924 3.000000
0.280872 -0.385731 0.219336 3.000000
0.209099 0.332120 0.294919 3.000000
0.147012 -0.431714 0.105084 3.000000
0.240213 -0.332823 -0.297312 3.000000
0.104026 0.273778 -0.353663 3.000000
0.220904 -0.256166 -0.366035 3.000000
0.070890 -0.202514 -0.398406 3.000000
0.267372 -0.072749 -0.441338 3.000000
0.010362 -0.265020 -0.359662 3.000000
0.125952 -0.234795 0.375909 3.000000
-0.262949 0.142191 -0.424359 3.000000
0.059917 -0.444151 -0.026732 3.000000
-0.209914 -0.434035 -0.099053 3.000000
0.061226 0.290267 0.335902 3.000000
0.020066 -0.398254 -0.200224 3.000000
-0.247045 0.035750 -0.446046 3.000000
0.157512 -0.328602 0.297747 3.000000
-0.032347 -0.001276 0.443202 3.000000
0.011821 -0.429306 -0.118537 3.000000
-0.138660 0.061077 0.438996 3.000000
-0.186186 0.416215 -0.161852 3.000000
-0.177880 -0.103862 -0.435048 3.000000
-0.268823 0.279922 0.344544 3.000000
0.012200 -0.394918 -0.206772 3.000000
0.252451 -0.258639 -0.364355 3.000000
-0.151175 -0.180582 -0.408924 3.000000
0.025938 0.264818 -0.360613 3.000000
0.007749 0.338842 -0.291648 3.000000
0.133750 -0.071827 -0.441484 3.000000
-0.268447 -0.076024 0.436466 3.000000
0.001494 0.293391 -0.337502 3.000000
0.193158 -0.379468 -0.234280 3.000000
0.270148 -0.017637 -0.447041 3.000000
0.168127 -0.333830 -0.296170 3.000000
0.039723 0.393695 0.206830 3.000000
0.023966 0.420651 0.145179 3.000000
0.067965 0.064406 -0.442822 3.000000
-0.138289 -0.120100 -0.430760 3.000000
-0.153136 -0.429882 -0.116554 3.000000
-0.180333 -0.061610 -0.443102 3.000000
-0.159579 0.048307 -0.444859 3.000000
-0.289496 0.445857 0.000690 4.000000
0.176914 0.382299 0.226872 3.000000
-0.103331 0.208314 -0.395973 3.000000
-0.072581 -0.175963 0.406569 3.000000
-0.017558 -0.215282 0.387449 3.000000
0.117412 -0.420265 -0.147759 3.000000
0.188769 -0.438074 -0.079068 3.000000
-0.221249 -0.031076 0.442037 3.000000
-0.143200 0.354572 0.267772 3.000000
-0.158495 0.342579 0.283055 3.000000
0.225526 0.196687 0.397544 3.000000
0.017434 0.433335 0.102415 3.000000
0.224631 -0.431526 -0.110278 3.000000
-0.098108 0.253585 0.364133 3.000000
-0.191937 -0.430538 0.109941 3.000000
0.166800 -0.439686 0.064539 3.000000
-0.173624 0.405856 0.182160 3.000000
-0.088888 0.403189 -0.192549 3.000000
-0.260305 0.018370 0.442697 3.000000
-0.270556 -0.315264 0.311676 3.000000
-0.220145 -0.207371 -0.395932 3.000000
-0.079596 -0.259784 -0.363577 3.000000
0.166496 0.356222 0.265644 3.000000
0.082243 0.373284 -0.245740 3.000000
0.218265 0.030457 0.442193 3.000000
-0.132060 0.439033 -0.079482 3.000000
-0.264251 -0.152597 0.415890 3.000000
0.192069 0.144121 -0.423664 3.000000
0.110653 0.355885 0.266079 3.000000
0.270554 -0.190921 -0.404313 3.000000
0.169318 0.169496 -0.414164 3.000000
-0.027182 0.042976 0.441009 3.000000
0.099741 0.426329 0.127957 3.000000
-0.264703 0.224531 0.382585 3.000000
0.262611 -0.167695 -0.414500 3.000000
0.205408 -0.421284 -0.144928 3.000000
0.120346 0.089306 0.434178 3.000000
-0.083526 -0.444842 -0.004739 3.000000
-0.248926 -0.416992 0.152494 3.000000
-0.217407 0.431940 -0.112999 3.000000
0.040254 0.220658 -0.389229 3.000000
0.158737 0.318346 -0.313972 3.000000
0.072967 -0.258320 -0.364572 3.000000
0.183564 0.068321 0.437848 3.000000
0.037378 0.327227 0.300469 3.000000
-0.000657 -0.286603 -0.342583 3.000000
0.200446 0.093709 0.433193 3.000000
-0.203089 -0.409812 -0.175004 3.000000
0.240665 0.306562 -0.325757 3.000000
-0.038134 -0.386860 -0.221782 3.000000
-0.019980 -0.337598 -0.291896 3.000000
-0.094604 0.443794 0.039274 3.000000
-0.155722 0.135792 0.422145 3.000000
-0.268294 -0.413115 0.163018 3.000000
-0.205613 0.184255 0.403424 3.000000
-0.162836 -0.094055 0.432887 3.000000
0.236525 0.177253 0.406454 3.000000
-0.260343 0.153712 -0.420211 3.000000
-0.049773 -0.375387 0.236784 3.000000
-0.238932 -0.440251 -0.065323 3.000000
0.210531 -0.444393 0.014686 3.000000
0.203468 0.204379 -0.397978 3.000000
-0.054839 -0.325209 -0.305948 3.000000
-0.055114 0.398228 0.197934 3.000000
-0.290276 0.297445 -0.333928 4.000000
-0.222941 0.374213 0.240020 3.000000
-0.141954 -0.399216 -0.198337 3.000000
0.183618 -0.219207 0.385127 3.000000
-0.243317 -0.183789 0.403183 3.000000
-0.276158 0.276247 -0.351748 3.000000
-0.129259 -0.349932 0.272432 3.000000
-0.227151 -0.309932 0.317008 3.000000
-0.223842 -0.309912 -0.321382 3.000000
-0.187420 -0.120016 0.426430 3.000000
-0.175788 0.106347 0.430369 3.000000
-0.220488 0.265586 0.355664 3.000000
0.041347 -0.267723 -0.357565 3.000000
0.102890 0.442419 -0.058108 3.000000
-0.276372 -0.444485 0.011743 3.000000
-0.128014 0.443578 0.041556 3.000000
-0.160840 0.283659 -0.345998 3.000000
0.235747 -0.371167 0.242994 3.000000
-0.236750 -0.360118 0.259252 3.000000
0.114862 0.371679 0.243749 3.000000
0.171573 -0.169709 -0.413629 3.000000
0.135333 -0.295828 0.330097 3.000000
0.228597 -0.275558 -0.351487 3.000000
-0.088491 0.061725 -0.443246 3.000000
0.009463 -0.422748 -0.140862 3.000000
0.068246 0.409252 0.174314 3.000000
0.076248 0.302207 0.325376 3.000000
0.254756 -0.443158 -0.039520 3.000000
0.160098 -0.427229 0.121333 3.000000
0.163901 0.440528 -0.070043 3.000000
-0.004091 -0.429305 -0.118541 3.000000
0.209144 -0.378792 0.231069 3.000000
-0.210152 0.324806 0.303159 3.000000
0.181905 -0.301941 -0.329061 3.000000
-0.173057 0.133190 0.422901 3.000000
0.132594 0.445866 0.000411 3.000000
0.000486 0.409147 0.174557 3.000000
0.218867 0.374893 0.239020 3.000000
0.022723 -0.001013 0.443210 3.000000
0.002191 -0.433755 0.095951 3.000000
0.007761 -0.442511 0.042006 3.000000
0.219183 0.445862 -0.004889 3.000000
-0.038364 -0.441257 -0.058974 3.000000
0.139795 -0.432508 -0.105887 3.000000
0.079960 -0.302772 -0.328328 3.000000
-0.223650 -0.107013 0.429991 3.000000
0.061447 -0.278663 -0.349079 3.000000
0.206221 0.100764 -0.435970 3.000000
-0.080504 0.424652 0.133731 3.000000
-0.076411 0.094064 -0.437468 3.000000
-0.133818 0.071091 0.437410 3.000000
0.094495 0.399861 -0.199082 3.000000
-0.090485 -0.443166 -0.039435 3.000000
-0.052728 0.104484 -0.435138 3.000000
0.240694 -0.146450 -0.422457 3.000000
-0.116683 -0.128428 -0.428340 3.000000
-0.266201 -0.442941 -0.041814 3.000000
0.127758 0.212608 -0.393785 3.000000
-0.173509 0.171605 -0.413252 3.000000
0.067634 0.416436 -0.161239 3.000000
-0.213159 -0.438400 0.072659 3.000000
0.008865 -0.371422 -0.246972 3.000000
0.053756 0.378726 0.232914 3.000000
-0.100383 0.283069 -0.346457 3.000000
-0.288942 0.442478 0.053198 4.000000
-0.063422 0.388620 0.216185 3.000000
0.285884 -0.245023 0.369255 1.000000
0.076117 0.367004 -0.254982 3.000000
0.226420 -0.440770 -0.062048 3.000000
0.239361 -0.209700 -0.394745 3.000000
-0.121225 0.199807 -0.400308 3.000000
-0.278807 0.405119 0.183863 3.000000
-0.149512 -0.222420 0.383227 3.000000
0.118773 -0.305452 -0.325842 3.000000
0.107291 -0.265995 0.354552 3.000000
-0.204373 0.027726 -0.446757 3.000000
-0.090765 0.407967 -0.181635 3.000000
0.083748 0.442824 -0.053891 3.000000
0.076245 -0.022857 -0.446877 3.000000
-0.125855 -0.343342 0.280928 3.000000
-0.274182 -0.355219 -0.269969 3.000000
-0.164284 -0.408233 0.174301 3.000000
0.018094 0.408475 -0.180463 3.000000
0.090456 -0.440615 -0.063028 3.000000
-0.242044 0.273057 0.349869 3.000000
0.230779 -0.293500 0.332149 3.000000
0.138582 0.029812 0.442254 3.000000
-0.196784 0.099915 0.431806 3.000000
0.285555 -0.260989 -0.362758 1.000000
-0.111711 0.225426 -0.386409 3.000000
0.076180 0.111933 -0.433430 3.000000
-0.041102 -0.373514 -0.243894 3.000000
-0.225145 0.347883 -0.280748 3.000000
0.122419 0.314010 0.313955 3.000000
0.047690 0.398196 0.197997 3.000000
0.200693 -0.398294 0.195792 3.000000
0.284204 -0.269992 0.351451 1.000000
-0.276957 0.445897 -0.000584 3.000000
0.195779 -0.089895 -0.438170 3.000000
0.273594 0.074391 -0.441240 3.000000
-0.067086 0.411405 -0.173692 3.000000
0.127456 0.153240 -0.420381 3.000000
-0.274754 0.317324 -0.314995 3.000000
0.038050 -0.414347 0.159842 3.000000
-0.196811 0.442096 -0.060143 3.000000
0.157138 0.020246 0.442638 3.000000
0.096056 -0.126619 -0.428866 3.000000
-0.136598 0.348907 0.275075 3.000000
-0.189589 0.144601 0.419138 3.000000
0.003424 -0.431485 0.106108 3.000000
-0.060961 -0.367143 -0.253268 3.000000
0.062752 0.440577 -0.069736 3.000000
-0.145586 -0.436018 -0.090182 3.000000
0.238946 0.156076 0.415007 3.000000
0.019090 -0.436649 -0.087359 3.000000
-0.244907 -0.140718 0.420167 3.000000
0.282111 0.034607 0.441800 3.000000
0.043842 0.431387 0.110548 3.000000
-0.023037 -0.181387 -0.408575 3.000000
-0.289808 0.400292 -0.198237 4.000000
-0.004955 0.403865 -0.191114 3.000000
-0.064945 -0.211451 -0.393853 3.000000
0.071151 -0.441967 -0.052112 3.000000
0.221554 0.103783 0.430942 3.000000
-0.262856 0.186122 -0.406970 3.000000
0.115728 -0.106176 -0.434531 3.000000
-0.267191 -0.032613 -0.446245 3.000000
-0.245703 -0.347614 0.275421 3.000000
-0.003540 -0.221403 -0.388182 3.000000
0.205676 -0.270413 -0.355479 3.000000
0.198111 0.028889 0.442341 3.000000
0.118688 0.445386 -0.020046 3.000000
0.044389 -0.419260 0.146197 3.000000
-0.230294 -0.443433 -0.036605 3.000000
-0.015722 -0.174103 -0.411727 3.000000
0.216252 0.289535 0.336548 3.000000
-0.036791 0.322953 -0.309366 3.000000
0.145918 -0.444407 0.014245 3.000000
-0.074774 0.431129 0.111436 3.000000
-0.127191 0.416288 0.157296 3.000000
-0.024793 -0.112532 -0.432958 3.000000
-0.253557 -0.018065 0.442674 3.000000
-0.032692 -0.424673 0.130131 3.000000
-0.194769 0.080500 0.435919 3.000000
0.109835 -0.269805 -0.355950 3.000000
-0.225649 -0.084138 -0.439457 3.000000
-0.165461 0.441415 0.060094 3.000000
-0.175029 -0.000514 0.443226 3.000000
-0.193339 0.445521 -0.015752 3.000000
-0.276478 -0.072811 -0.441328 3.000000
-0.060188 0.260601 0.359365 3.000000
0.177299 0.279666 0.344742 3.000000
-0.054994 -0.098280 -0.436296 3.000000
0.255226 -0.346751 -0.280886 3.000000
0.112424 -0.410473 0.169123 3.000000
0.248962 0.445535 -0.015307 3.000000
0.164832 -0.360770 -0.262647 3.000000
0.200685 -0.250977 -0.369562 3.000000
0.122669 -0.096172 -0.436767 3.000000
-0.012990 0.330811 0.296404 3.000000
0.262030 0.335803 0.290741 3.000000
-0.028514 -0.173273 0.407733 3.000000
-0.234819 -0.149286 0.417082 3.000000
-0.153667 -0.391480 0.209166 3.000000
0.010766 0.298024 -0.333417 3.000000
0.081561 0.113743 0.428551 3.000000
0.067136 -0.234749 0.375936 3.000000
-0.034019 0.153949 0.415773 3.000000
-0.261691 -0.176151 -0.410841 3.000000
0.048255 0.249603 0.366839 3.000000
0.243862 0.025489 0.442473 3.000000
-0.002954 -0.327884 0.298561 3.000000
0.056333 -0.094887 -0.437054 3.000000
-0.276887 -0.017508 -0.447046 3.000000
0.132896 -0.010715 0.442905 3.000000
-0.102712 -0.257715 -0.364983 3.000000
0.151507 0.390711 -0.217001 3.000000
-0.103279 -0.442521 0.041905 3.000000
-0.196618 0.041037 -0.445546 3.000000
-0.202608 -0.421339 -0.144776 3.000000
0.279558 -0.197773 0.396468 3.000000
-0.058749 0.164687 0.411892 3.000000
0.030718 0.010020 0.442960 3.000000
-0.286855 0.354332 0.268081 4.000000
-0.270139 0.408827 0.175296 3.000000
-0.049866 -0.395101 -0.206413 3.000000
-0.222315 0.025870 0.442461 3.000000
0.285550 -0.012637 0.442845 1.000000
-0.025568 0.440087 -0.072827 3.000000
0.001524 0.250186 0.366443 3.000000
-0.201906 -0.378545 0.231487 3.000000
0.197437 0.441183 -0.065909 3.000000
0.238937 -0.439679 -0.068938 3.000000
0.251355 -0.344552 0.279368 3.000000
0.043982 -0.402312 -0.192259 3.000000
0.251795 -0.415959 0.155365 3.000000
-0.177116 -0.124710 0.425067 3.000000
-0.203064 0.017677 0.442719 3.000000
-0.151544 -0.111348 0.428949 3.000000
0.220971 0.088840 -0.438635 3.000000
0.027411 -0.025365 -0.446799 3.000000
0.200986 0.339233 -0.291204 3.000000
0.264990 0.239657 0.373598 3.000000
-0.222144 0.190970 0.400457 3.000000
-0.155632 -0.251707 0.364713 3.000000
-0.032822 -0.421460 -0.144440 3.000000
-0.215861 0.212080 0.389701 3.000000
0.080457 0.083436 -0.439808 3.000000
0.086350 0.042084 -0.445447 3.000000
-0.191407 0.122922 0.425884 3.000000
-0.109936 0.337908 0.288354 3.000000
0.052777 0.445682 0.006283 3.000000
0.082108 0.439942 -0.073748 3.000000
0.275832 -0.403073 -0.190576 3.000000
0.146766 -0.403656 -0.189230 3.000000
-0.075026 0.405521 0.182935 3.000000
0.241229 0.438220 -0.084617 3.000000
-0.194777 -0.396737 0.198848 3.000000
-0.022435 0.155517 0.415208 3.000000
-0.201058 0.246612 -0.373225 3.000000
0.248707 0.251143 0.365792 3.000000
-0.134270 -0.201063 0.394792 3.000000
0.129446 0.251481 0.365563 3.000000
0.232335 -0.426630 0.123393 3.000000
0.032102 -0.244212 -0.374160 3.000000
-0.071240 0.056803 -0.444026 3.000000
-0.214205 0.157650 -0.418793 3.000000
-0.006670 0.371753 0.243640 3.000000
-0.199524 -0.435090 -0.094332 3.000000
0.261200 0.437220 -0.089390 3.000000
0.038053 -0.287914 0.337074 3.000000
-0.252687 -0.273952 0.348380 3.000000
-0.221941 0.092488 0.433466 3.000000
-0.221201 -0.231903 0.377619 3.000000
-0.264506 -0.444236 -0.024018 3.000000
-0.285926 -0.269154 -0.356455 4.000000
0.221003 0.119687 0.426824 3.000000
-0.023639 -0.034646 -0.446053 3.000000
0.192055 -0.405380 0.180893 3.000000
0.170606 -0.133352 -0.426910 3.000000
0.054825 -0.354753 0.266217 3.000000
-0.189491 0.439632 0.071352 3.000000
0.103051 0.432138 0.107773 3.000000
-0.015697 -0.444684 0.005404 3.000000
-0.182677 -0.012697 -0.447197 3.000000
-0.137835 0.347309 -0.281488 3.000000
-0.003331 -0.429260 0.114343 3.000000
0.073035 -0.385696 0.219395 3.000000
0.109167 -0.074057 -0.441131 3.000000
-0.064626 -0.289503 -0.340026 3.000000
0.045743 0.122405 0.426034 3.000000
-0.112703 -0.314049 0.312892 3.000000
-0.238647 -0.252573 0.364124 3.000000
0.066468 -0.300991 -0.329898 3.000000
-0.060287 -0.374415 0.238214 3.000000
0.145010 0.162419 0.412723 3.000000
-0.171948 0.400977 0.192538 3.000000
-0.271296 0.261569 -0.363060 3.000000
0.017991 0.445447 0.013759 3.000000
0.270908 0.211932 -0.394130 3.000000
0.134969 -0.277390 0.345713 3.000000
-0.009825 -0.442331 -0.048266 3.000000
-0.281023 -0.172714 0.407975 3.000000
-0.125790 0.418020 -0.156839 3.000000
0.209136 -0.349105 0.273498 3.000000
-0.110338 0.330056 -0.301614 3.000000
0.155627 0.112939 -0.433138 3.000000
0.041506 -0.362358 0.255956 3.000000
0.006726 0.391936 -0.214635 3.000000
-0.289387 -0.375837 0.236066 4.000000
-0.164934 0.112447 0.428927 3.000000
0.272978 -0.390034 0.212004 3.000000
-0.041079 -0.246208 0.368450 3.000000
-0.122856 -0.022766 -0.446880 3.000000
-0.066867 -0.362481 0.255775 3.000000
0.226507 -0.323550 0.303390 3.000000
-0.267391 0.422789 -0.143595 3.000000
0.013908 -0.179456 -0.409411 3.000000
-0.101954 -0.423138 -0.139768 3.000000
0.128092 0.212862 0.389302 3.000000
0.095995 -0.235450 0.375521 3.000000
0.138128 -0.380420 0.228318 3.000000
-0.109432 -0.444785 0.002188 3.000000
0.100582 -0.054974 -0.444132 3.000000
-0.234338 -0.119170 0.426676 3.000000
-0.290208 0.216020 0.387618 4.000000
0.182953 -0.439762 -0.068412 3.000000
0.176052 -0.369927 0.244819 3.000000
0.281658 0.437795 0.082466 1.000000
0.285301 -0.401234 0.190022 1.000000
-0.199426 -0.391300 0.209519 3.000000
-0.092912 -0.413838 -0.165610 3.000000
0.103007 0.437565 -0.087846 3.000000
0.242025 0.327427 -0.304595 3.000000
0.081956 -0.444597 -0.012547 3.000000
-0.190706 -0.233191 -0.381211 3.000000
0.167292 0.437493 0.083813 3.000000
0.212782 -0.319544 0.307396 3.000000
-0.015561 -0.410284 0.169560 3.000000
0.220225 0.394255 0.205731 3.000000
0.277308 -0.288270 0.336760 3.000000
0.007230 0.250922 -0.370295 3.000000
-0.217367 -0.121914 0.425879 3.000000
0.128655 -0.268424 0.352668 3.000000
-0.252730 0.046885 0.440640 3.000000
0.213910 0.270566 -0.356155 3.000000
-0.056919 -0.035816 0.441589 3.000000
-0.178740 0.445347 -0.021268 3.000000
0.072953 0.424047 0.135747 3.000000
-0.095512 0.404064 0.186302 3.000000
-0.193196 -0.442959 0.037267 3.000000
0.217539 -0.049577 0.440288 3.000000
-0.287125 -0.244459 -0.373992 4.000000
0.093699 0.228222 0.380402 3.000000
-0.064315 0.096921 -0.436829 3.000000
0.040955 0.232058 -0.382487 3.000000
0.125797 -0.325749 -0.305336 3.000000
-0.095559 -0.325022 -0.306161 3.000000
-0.224094 0.162346 0.412749 3.000000
0.203339 0.137508 0.421646 3.000000
-0.234202 0.444543 0.031352 3.000000
-0.074372 0.047122 -0.444971 3.000000
0.017405 -0.355476 0.265285 3.000000
0.074020 -0.439605 -0.069404 3.000000
-0.170867 -0.442118 -0.050523 3.000000
-0.179350 0.225784 0.381844 3.000000
0.120652 0.044983 -0.445173 3.000000
-0.264343 -0.239175 -0.377583 3.000000
0.061113 0.310698 0.317268 3.000000
-0.174562 -0.381269 0.226882 3.000000
-0.057187 -0.282189 -0.346344 3.000000
-0.076883 -0.382986 -0.228331 3.000000
-0.110873 -0.368509 0.246905 3.000000
0.285754 0.177211 -0.410826 1.000000
0.191588 0.113962 0.428487 3.000000
-0.169876 -0.255520 -0.366474 3.000000
0.148814 0.366151 -0.256236 3.000000
0.257000 0.445101 0.024769 3.000000
-0.203778 0.437589 -0.087739 3.000000
-0.262546 -0.422095 -0.142674 3.000000
-0.109665 0.445533 -0.015348 3.000000
-0.070843 -0.396424 0.199462 3.000000
0.157791 0.205758 -0.397275 3.000000
-0.103921 -0.444478 0.011972 3.000000
-0.080370 0.238451 0.374353 3.000000
0.011552 -0.322043 -0.309251 3.000000
0.274648 -0.075268 0.436586 3.000000
-0.169796 0.233435 -0.381673 3.000000
0.082660 0.271598 0.351001 3.000000
0.018789 0.089376 0.434162 3.000000
-0.159831 0.161567 0.413030 3.000000
0.061598 0.435818 0.091307 3.000000
-0.115534 0.435090 0.094566 3.000000
-0.033532 0.351623 -0.275927 3.000000
-0.238050 -0.420673 0.142270 3.000000
0.108896 -0.402544 -0.191799 3.000000
-0.037734 0.016815 0.442746 3.000000
-0.163167 0.363244 0.256161 3.000000
0.122267 0.283717 -0.345954 3.000000
-0.109866 -0.443239 0.034305 3.000000
0.165033 -0.443179 -0.039295 3.000000
-0.116662 -0.433462 0.097263 3.000000
0.245233 -0.398023 0.196325 3.000000
-0.104604 0.049424 -0.444753 3.000000
-0.240041 -0.284388 0.340182 3.000000
-0.243426 -0.021428 0.442569 3.000000
0.098839 -0.337454 -0.292059 3.000000
0.127841 -0.182884 0.403574 3.000000
-0.222449 0.038635 -0.445773 3.000000
-0.014818 0.245705 -0.373841 3.000000
0.030426 -0.196861 -0.401286 3.000000
0.224147 0.075097 -0.441128 3.000000
0.020466 0.402069 -0.194748 3.000000
-0.155710 0.428786 0.119499 3.000000
0.003572 -0.012856 -0.447192 3.000000
0.209788 -0.018972 -0.446999 3.000000
0.254404 0.076089 0.436618 3.000000
-0.092476 0.220595 0.384913 3.000000
0.038054 0.070473 0.437508 3.000000
0.282903 -0.437988 0.075258 1.000000
0.202130 0.189971 0.400951 3.000000
0.240918 -0.312723 -0.318571 3.000000
0.273557 -0.402443 0.187649 3.000000
0.186467 0.376039 0.237333 3.000000
0.097870 0.134530 -0.426865 3.000000
-0.210119 0.357941 0.263428 3.000000
-0.110566 -0.297355 0.328750 3.000000
-0.117831 -0.316127 -0.315167 3.000000
-0.257253 -0.141318 0.419951 3.000000
0.151554 -0.145083 -0.422949 3.000000
-0.074098 0.395953 -0.206752 3.000000
0.054265 0.074851 -0.441168 3.000000
0.087476 -0.425751 0.126419 3.000000
-0.197251 0.406288 0.181163 3.000000
0.012211 -0.190165 -0.404698 3.000000
-0.286776 0.201883 -0.399250 4.000000
0.025560 -0.315741 -0.315553 3.000000
-0.140853 -0.412825 0.163689 3.000000
-0.066553 -0.444398 -0.018887 3.000000
-0.231406 -0.216508 -0.391077 3.000000
-0.015609 -0.208064 -0.395579 3.000000
0.263378 -0.060962 0.438852 3.000000
0.252213 0.075136 -0.441122 3.000000
0.155179 -0.372248 -0.245756 3.000000
0.207452 0.181056 -0.409162 3.000000
-0.025752 -0.424911 -0.133663 3.000000
-0.268466 0.418604 -0.155218 3.000000
0.011639 -0.052530 -0.444363 3.000000
0.034784 0.443748 -0.044110 3.000000
0.223711 -0.139967 -0.424791 3.000000
-0.188235 0.440630 -0.069399 3.000000
0.224481 0.401823 0.190877 3.000000
0.265999 0.277524 -0.350758 3.000000
0.261440 -0.091820 -0.437740 3.000000
-0.124841 0.246960 -0.372988 3.000000
-0.253370 -0.424374 -0.135513 3.000000
-0.029983 0.361917 0.258113 3.000000
0.074498 0.433744 0.100588 3.000000
-0.273391 -0.246613 -0.372528 3.000000
-0.069348 0.443024 0.047418 3.000000
-0.258844 -0.260015 -0.363420 3.000000
-0.224330 -0.251154 0.365088 3.000000
0.047960 0.419251 -0.153420 3.000000
0.201765 -0.336702 0.288559 3.000000
-0.273314 0.440174 -0.072279 3.000000
0.035985 -0.246174 0.368473 3.000000
0.265318 0.300257 0.327095 3.000000
-0.167040 -0.374979 0.237385 3.000000
-0.245118 0.375749 -0.242113 3.000000
-0.159726 0.429786 -0.120412 3.000000
-0.046215 0.016243 -0.447117 3.000000
0.278167 0.056455 0.439728 3.000000
0.138592 -0.250184 0.365747 3.000000
-0.044362 -0.442837 -0.042915 3.000000
0.022399 -0.419082 -0.151043 3.000000
0.000449 0.319118 -0.313201 3.000000
-0.288788 0.429747 0.116192 4.000000
0.029703 0.398068 0.198246 3.000000
0.211009 -0.372175 -0.245864 3.000000
0.065583 -0.442486 0.042269 3.000000
0.176019 0.049459 0.440396 3.000000
-0.138139 0.042033 0.441098 3.000000
0.142545 -0.064900 -0.442581 3.000000
0.039788 0.021332 0.442604 3.000000
0.135572 0.367014 -0.254966 3.000000
0.203747 -0.001533 0.443194 3.000000
-0.033584 0.096675 -0.436884 3.000000
0.136971 -0.160980 -0.417226 3.000000
0.133743 0.444033 0.036749 3.000000
-0.132018 0.278407 0.345719 3.000000
0.029106 -0.153248 0.415656 3.000000
0.105747 0.276960 0.346841 3.000000
0.238975 0.400533 0.193409 3.000000
0.031824 -0.165983 -0.415241 3.000000
0.243831 0.412989 0.165677 3.000000
-0.196478 0.310706 0.317259 3.000000
0.232275 0.415238 0.160215 3.000000
-0.089929 0.359505 0.261412 3.000000
-0.242493 -0.275700 0.347024 3.000000
-0.031676 -0.159129 0.413539 3.000000
-0.205779 0.305301 -0.327002 3.000000
-0.111572 0.398522 0.197357 3.000000
-0.242735 0.372017 0.243251 3.000000
-0.122472 -0.389039 0.213743 3.000000
0.043282 -0.096180 -0.436765 3.000000
-0.132287 0.183892 0.403581 3.000000
0.118064 0.420991 0.144236 3.000000
-0.069313 -0.442454 0.042613 3.000000
-0.116935 -0.398783 0.194832 3.000000
0.272784 -0.443536 -0.035519 3.000000
-0.267643 0.111799 0.429115 3.000000
-0.289632 0.382597 -0.230722 4.000000
-0.254431 -0.107434 -0.434250 3.000000
-0.088134 0.324777 0.303188 3.000000
-0.056428 0.025331 0.442478 3.000000
-0.238268 -0.042884 0.440921 3.000000
-0.186606 -0.439351 -0.071008 3.000000
0.141040 -0.317265 0.309675 3.000000
-0.260913 -0.308222 -0.323072 3.000000
-0.131087 -0.441745 0.050108 3.000000
-0.143652 -0.150357 0.416697 3.000000
0.048302 -0.444215 -0.024696 3.000000
0.047014 0.090606 0.433887 3.000000
0.189291 -0.415059 -0.162218 3.000000
0.141341 -0.399132 -0.198501 3.000000
0.269738 -0.439150 -0.072273 3.000000
0.209487 0.445298 -0.022855 3.000000
0.282252 0.268424 0.353463 1.000000
0.162598 0.355922 -0.270384 3.000000
-0.265325 -0.281403 0.342600 3.000000
-0.245937 -0.411236 0.167361 3.000000
0.075888 0.389061 -0.219792 3.000000
0.210346 -0.129644 0.423633 3.000000
-0.145656 -0.196533 -0.401454 3.000000
-0.034272 0.362315 -0.261880 3.000000
0.052535 -0.185195 0.402574 3.000000
0.190213 -0.360725 0.258359 3.000000
0.016152 -0.444785 -0.006567 3.000000
-0.020474 -0.311561 -0.319733 3.000000
-0.085301 -0.320795 0.306145 3.000000
0.066763 0.015384 0.442791 3.000000
-0.019126 -0.050818 0.440171 3.000000
0.157633 -0.333152 -0.296939 3.000000
-0.083613 0.277227 -0.350988 3.000000
0.261109 -0.081384 -0.439971 3.000000
-0.248120 -0.249598 -0.370499 3.000000
-0.215084 -0.249763 -0.370387 3.000000
-0.020480 -0.377832 0.232693 3.000000
0.252491 -0.093576 0.432994 3.000000
0.089111 -0.261118 -0.362670 3.000000
0.126307 0.074076 -0.441290 3.000000
-0.011476 0.229957 -0.383730 3.000000
0.236419 -0.436209 0.084974 3.000000
-0.109134 0.424190 -0.139673 3.000000
-0.062664 0.300895 -0.330886 3.000000
0.027236 -0.124038 0.425262 3.000000
-0.165936 -0.393234 0.205723 3.000000
-0.020688 -0.077496 -0.440586 3.000000
0.178255 0.025696 -0.446820 3.000000
-0.153048 0.366727 0.251036 3.000000
0.105643 -0.200686 0.394984 3.000000
0.115164 0.221705 -0.388610 3.000000
-0.009950 -0.359434 -0.264536 3.000000
-0.222966 -0.365919 0.250716 3.000000
0.018208 0.222146 -0.388349 3.000000
-0.220229 -0.444861 -0.000229 3.000000
-0.007235 -0.155938 -0.419041 3.000000
0.093397 0.348618 0.275447 3.000000
0.020592 0.015141 0.442799 3.000000
-0.105897 0.268813 0.353161 3.000000
-0.043642 0.346453 -0.282592 3.000000
-0.000706 0.387205 -0.222929 3.000000
0.203605 0.084125 0.435336 3.000000
0.228917 -0.377578 -0.237476 3.000000
0.121128 0.108913 -0.434148 3.000000
0.009284 0.437643 0.083142 3.000000
0.128150 -0.216246 -0.391232 3.000000
-0.271114 -0.375822 -0.240446 3.000000
0.149312 0.258703 0.360655 3.000000
0.126062 0.445365 0.016345 3.000000
0.201535 0.445428 0.014350 3.000000
-0.078885 0.144223 -0.423628 3.000000
0.142574 -0.138474 -0.425329 3.000000
-0.167601 0.384895 0.222483 3.000000
0.216650 0.206241 -0.397030 3.000000
0.171931 -0.443021 0.036608 3.000000
0.286068 -0.422528 0.137118 1.000000
-0.010360 -0.371022 -0.247561 3.000000
0.184508 0.297708 -0.333696 3.000000
0.007802 0.324730 0.303235 3.000000
0.271228 0.442709 -0.055103 3.000000
0.286024 -0.075183 -0.440953 1.000000
0.270447 0.365699 -0.256901 3.000000
-0.081797 0.332208 -0.299172 3.000000
-0.173586 -0.386924 -0.221673 3.000000
0.216896 0.202900 0.394378 3.000000
0.123388 -0.032726 0.441881 3.000000
-0.253091 -0.443548 0.031037 3.000000
-0.055606 -0.442063 -0.051098 3.000000
-0.258200 -0.300864 -0.330010 3.000000
-0.186832 0.111036 0.429320 3.000000
-0.041414 -0.391809 0.208521 3.000000
-0.141171 -0.013090 0.442831 3.000000
0.047066 -0.404643 0.182595 3.000000
-0.155559 -0.233384 0.376743 3.000000
0.270599 0.204208 0.393712 3.000000
-0.154027 -0.294059 0.331656 3.000000
-0.078120 0.410839 -0.174998 3.000000
-0.158621 -0.355797 0.264871 3.000000
0.156108 -0.171635 0.408442 3.000000
-0.140092 0.290625 0.335587 3.000000
0.185415 -0.152517 -0.420273 3.000000
0.235737 -0.101208 -0.435642 3.000000
-0.267133 -0.434146 0.094203 3.000000
0.083183 -0.098785 -0.436183 3.000000
-0.279604 -0.111342 0.428950 3.000000
-0.026661 -0.366696 -0.253926 3.000000
0.148426 -0.401958 0.188600 3.000000
0.155576 -0.003381 0.443136 3.000000
-0.268336 -0.303660 -0.327545 3.000000
-0.203929 0.277432 -0.350829 3.000000
-0.247882 -0.442330 -0.048274 3.000000
-0.032200 -0.054904 -0.444138 3.000000
0.286313 0.368773 0.248025 1.000000
-0.081733 -0.398027 0.196317 3.000000
0.106448 0.170131 0.409536 3.000000
-0.124937 -0.119339 -0.430981 3.000000
-0.087068 -0.110053 0.429311 3.000000
-0.283781 -0.031457 -0.446355 4.000000
-0.137798 -0.202726 -0.398298 3.000000
0.264366 0.415048 -0.165096 3.000000
0.275005 0.288272 -0.342015 3.000000
-0.256792 0.435765 0.091548 3.000000
-0.145578 -0.030958 -0.446402 3.000000
0.174378 0.303536 -0.328558 3.000000
0.078468 -0.444916 -0.001961 3.000000
-0.169663 -0.064357 -0.442667 3.000000
-0.002323 -0.195273 0.397742 3.000000
-0.124012 -0.437628 -0.081885 3.000000
0.057580 -0.051353 0.440120 3.000000
-0.015732 0.325376 -0.306922 3.000000
0.099824 0.301623 0.325891 3.000000
0.132757 -0.238617 -0.377962 3.000000
-0.141243 -0.003331 0.443138 3.000000
-0.034212 0.356119 0.265778 3.000000
-0.287146 -0.050259 -0.444577 4.000000
0.059497 -0.212220 -0.393461 3.000000
0.217021 -0.441753 -0.054381 3.000000
0.176751 -0.055206 -0.444110 3.000000
-0.244128 -0.117392 0.427193 3.000000
0.280529 -0.429568 -0.117634 1.000000
0.182540 -0.374651 0.237867 3.000000
-0.035353 0.214461 0.388488 3.000000
-0.148713 -0.140973 -0.424429 3.000000
-0.131921 0.269306 -0.357132 3.000000
0.166858 -0.196209 -0.401619 3.000000
0.115077 -0.436334 -0.088770 3.000000
-0.059555 0.231002 0.378758 3.000000
0.013652 -0.433217 0.098363 3.000000
-0.233700 -0.318260 -0.313034 3.000000
0.066221 -0.069938 0.437430 3.000000
0.272985 -0.444622 0.007389 3.000000
-0.266891 -0.254203 -0.367370 3.000000
-0.236973 -0.260929 0.358445 3.000000
0.022969 0.120359 0.426629 3.000000
0.211968 -0.399306 -0.198160 3.000000
0.281446 0.310877 0.317088 3.000000
-0.104795 -0.185642 0.402381 3.000000
0.224517 -0.077781 0.436188 3.000000
0.152575 -0.377785 0.232772 3.000000
-0.111961 0.445390 0.015552 3.000000
0.006052 0.417176 -0.159183 3.000000
-0.228536 -0.377239 0.233695 3.000000
-0.251132 -0.416857 -0.157223 3.000000
-0.172663 -0.444023 0.026012 3.000000
-0.029252 0.407357 -0.183047 3.000000
-0.256822 0.385343 -0.226079 3.000000
-0.275128 0.396230 0.201854 3.000000
0.248262 -0.406581 0.178118 3.000000
0.021833 -0.201052 0.394798 3.000000
0.232525 -0.404058 -0.188301 3.000000
-0.078825 -0.198625 -0.400388 3.000000
0.052894 -0.441657 -0.055394 3.000000
-0.075559 -0.436343 0.084376 3.000000
0.281645 -0.059496 -0.443437 1.000000
0.078651 -0.441124 -0.059813 3.000000
0.257736 0.443041 -0.051596 3.000000
-0.135239 0.430915 -0.116526 3.000000
0.046499 0.158293 -0.418562 3.000000
-0.038050 0.425300 -0.135853 3.000000
0.224499 -0.370306 0.244261 3.000000
-0.236751 0.383057 0.225590 3.000000
0.151915 -0.298222 0.327986 3.000000
0.157764 0.034433 0.441817 3.000000
0.042853 0.265045 0.356084 3.000000
-0.052128 0.445630 -0.012284 3.000000
0.054801 -0.277689 0.345481 3.000000
0.180719 -0.438919 0.069380 3.000000
-0.119750 0.406853 -0.184211 3.000000
-0.164447 -0.353092 -0.272712 3.000000
-0.285003 -0.066068 -0.442396 4.000000
0.047220 0.445148 -0.027630 3.000000
0.088365 0.001697 0.443221 3.000000
-0.129564 0.410639 0.171108 3.000000
0.254718 -0.029573 -0.446533 3.000000
0.202226 -0.226813 -0.384982 3.000000
0.247467 -0.168977 0.409592 3.000000
-0.077862 -0.024369 0.442476 3.000000
-0.261899 0.067316 0.438007 3.000000
-0.173796 0.445609 -0.012957 3.000000
-0.192748 -0.363445 -0.258710 3.000000
-0.151998 -0.020527 0.442597 3.000000
0.242555 0.363420 0.255901 3.000000
0.022376 -0.377123 0.233892 3.000000
0.033245 -0.406453 0.178413 3.000000
-0.283349 -0.397981 0.196408 4.000000
0.012504 0.307447 -0.324872 3.000000
-0.217267 -0.432438 0.101848 3.000000
-0.039079 0.105053 -0.435011 3.000000
0.039160 0.001036 -0.447595 3.000000
-0.198644 -0.421910 0.138835 3.000000
0.165448 0.376095 -0.241605 3.000000
0.064514 -0.102988 0.430890 3.000000
-0.287679 -0.243394 0.370362 4.000000
-0.176072 -0.429890 0.112172 3.000000
-0.127810 0.064399 -0.442823 3.000000
-0.133977 -0.075866 -0.440845 3.000000
0.179289 0.413074 -0.169834 3.000000
0.197548 0.269535 0.352601 3.000000
-0.288904 -0.352809 0.268724 4.000000
-0.093286 0.374249 0.239967 3.000000
-0.287148 0.285740 0.339894 4.000000
-0.134571 0.221020 -0.389015 3.000000
-0.244694 0.441413 -0.064456 3.000000
0.077132 -0.309597 -0.321696 3.000000
-0.045504 -0.215166 0.387517 3.000000
0.088423 0.283472 0.341790 3.000000
0.264658 0.327766 0.299857 3.000000
-0.001148 -0.098786 -0.436183 3.000000
-0.279156 -0.021217 0.442575 3.000000
0.250074 -0.341430 -0.287549 3.000000
-0.097978 -0.433789 0.095803 3.000000
-0.100296 0.063382 -0.442984 3.000000
0.252803 0.293164 -0.337702 3.000000
0.109071 0.097851 0.432268 3.000000
-0.209905 0.227250 -0.385330 3.000000
0.128423 0.011531 -0.447265 3.000000
0.270963 0.444242 0.034540 3.000000
-0.278809 0.136150 -0.426395 4.000000
-0.019801 0.255011 -0.367517 3.000000
-0.094336 -0.071268 0.437219 3.000000
0.208624 -0.073710 0.436833 3.000000
0.263288 0.285578 -0.344390 3.000000
-0.079169 -0.441690 -0.055046 3.000000
-0.074206 0.360190 -0.264882 3.000000
-0.163976 0.008855 0.442996 3.000000
0.112580 0.116733 -0.432036 3.000000
-0.044675 -0.356295 -0.268582 3.000000
-0.098402 -0.443923 -0.031422 3.000000
-0.227958 -0.289561 0.335622 3.000000
0.208409 0.038656 0.441418 3.000000
-0.276904 -0.132048 0.422935 3.000000
0.001576 0.375455 0.238193 3.000000
0.182562 0.419233 -0.153472 3.000000
0.227737 0.421241 0.143540 3.000000
-0.201377 -0.385069 0.220456 3.000000
0.097611 0.409958 -0.177035 3.000000
0.024755 -0.444118 0.023442 3.000000
-0.288033 -0.193626 -0.402935 4.000000
0.097533 -0.019384 -0.446987 3.000000
0.229919 0.326930 0.300805 3.000000
0.286111 -0.157163 -0.418600 1.000000
-0.017657 -0.394838 -0.206928 3.000000
0.271914 -0.317235 0.309705 3.000000
0.255244 -0.398019 0.196332 3.000000
-0.028081 0.249957 0.366598 3.000000
0.165432 -0.019190 0.442639 3.000000
-0.038914 0.442224 -0.059340 3.000000
-0.284059 0.444928 -0.031630 4.000000
0.155766 0.445222 0.020911 3.000000
0.084902 -0.349702 0.272730 3.000000
0.123446 0.307167 0.320798 3.000000
0.159293 0.250535 -0.370559 3.000000
0.280822 -0.444429 -0.017895 1.000000
-0.180814 -0.443221 0.034495 3.000000
-0.219401 -0.143686 0.419098 3.000000
0.192426 -0.354666 0.266329 3.000000
-0.116482 0.410390 0.171683 3.000000
0.205142 -0.121791 0.425915 3.000000
0.205186 0.421167 -0.148100 3.000000
0.148007 -0.299843 -0.330910 3.000000
-0.055261 -0.218701 0.385427 3.000000
-0.087058 -0.349152 -0.277791 3.000000
-0.157225 -0.079422 -0.440281 3.000000
0.253619 0.300707 -0.331052 3.000000
0.061795 0.444090 0.036141 3.000000
0.251042 0.375181 0.238596 3.000000
-0.197375 0.342471 -0.287531 3.000000
-0.144479 0.076730 -0.440870 3.000000
-0.142375 -0.440967 0.056447 3.000000
0.285306 0.012026 -0.447250 1.000000
0.081976 0.088074 0.434453 3.000000
0.176062 0.142484 0.419900 3.000000
-0.115276 0.425227 0.131749 3.000000
-0.238148 0.397194 -0.204316 3.000000
-0.197173 -0.387804 -0.220185 3.000000
0.022868 0.296130 -0.335087 3.000000
-0.199651 0.037553 0.441522 3.000000
-0.012606 0.060110 0.439149 3.000000
-0.105403 0.426846 -0.130530 3.000000
-0.174622 0.271780 0.350860 3.000000
-0.044244 -0.264287 0.355877 3.000000
-0.128111 -0.282996 -0.345718 3.000000
0.070424 0.429167 0.118187 3.000000
0.273903 0.339698 0.286323 3.000000
-0.235464 -0.174024 -0.411761 3.000000
-0.075425 -0.391817 -0.212858 3.000000
-0.220261 0.370527 -0.249796 3.000000
-0.175470 -0.442143 0.045903 3.000000
0.004782 -0.120917 -0.430522 3.000000
0.237088 -0.100900 0.431357 3.000000
0.083173 -0.171562 0.408474 3.000000
0.150017 0.267305 0.354331 3.000000
-0.074221 0.247960 -0.372309 3.000000
-0.110225 -0.265070 0.355269 3.000000
-0.205950 -0.081089 0.435664 3.000000
-0.170455 0.289409 -0.341012 3.000000
-0.082603 -0.126662 -0.428853 3.000000
0.024312 0.135251 -0.426656 3.000000
-0.193016 0.385761 0.221018 3.000000
0.223908 -0.444859 -0.004193 3.000000
-0.032800 -0.278772 0.344641 3.000000
0.205961 0.274735 0.348567 3.000000
-0.060196 0.344656 0.280555 3.000000
0.076138 0.361004 -0.263809 3.000000
-0.235114 0.434872 0.095543 3.000000
-0.220237 0.427246 -0.129155 3.000000
-0.244911 -0.297755 0.328397 3.000000
0.245514 0.097860 0.432266 3.000000
0.113770 -0.396853 -0.202974 3.000000
-0.234700 -0.372808 0.240579 3.000000
0.224614 -0.399002 0.194404 3.000000
-0.102887 -0.395079 -0.206457 3.000000
0.254532 0.243425 0.371037 3.000000
-0.036863 0.233394 -0.381697 3.000000
0.132942 -0.165697 0.411012 3.000000
0.180898 -0.325754 -0.305330 3.000000
0.186226 0.094045 0.433118 3.000000
-0.131231 0.372994 0.241813 3.000000
-0.127631 0.435383 0.093256 3.000000
0.183273 0.445655 0.007117 3.000000
-0.253322 0.379182 -0.236496 3.000000
0.223978 -0.045021 -0.445072 3.000000
-0.049361 0.136961 -0.426159 3.000000
-0.286603 0.254242 0.363686 4.000000
-0.269594 0.432774 -0.109281 3.000000
-0.043550 -0.419475 -0.149953 3.000000
-0.023145 -0.139900 -0.424815 3.000000
0.052097 0.006181 -0.447434 3.000000
0.197789 0.361411 0.258857 3.000000
-0.245832 -0.003625 -0.447482 3.000000
0.224261 0.444742 0.029249 3.000000
0.010553 0.193909 0.398960 3.000000
-0.092909 -0.399197 0.194020 3.000000
0.065966 -0.030635 0.442079 3.000000
-0.232927 0.154730 0.415491 3.000000
-0.122818 -0.444174 0.021652 3.000000
-0.202157 0.084783 -0.439542 3.000000
-0.253109 0.184805 -0.407540 3.000000
-0.061351 -0.062400 -0.442977 3.000000
0.180005 0.056314 -0.444102 3.000000
-0.058525 -0.444231 0.019844 3.000000
-0.254846 -0.026836 -0.446752 3.000000
-0.014488 -0.440448 0.059728 3.000000
0.241371 0.426725 -0.130949 3.000000
-0.211705 0.196049 0.397869 3.000000
0.272029 0.292486 0.333946 3.000000
0.155110 0.227475 -0.385197 3.000000
0.040625 0.098818 0.432051 3.000000
0.048137 -0.276948 -0.350409 3.000000
0.111899 -0.037819 -0.445753 3.000000
0.178122 -0.255475 0.362152 3.000000
-0.126305 0.432910 -0.108671 3.000000
-0.042675 -0.439732 -0.068600 3.000000
-0.142268 -0.444801 0.001703 3.000000
-0.165143 0.178356 -0.410330 3.000000
0.046625 -0.123643 0.425377 3.000000
-0.267677 -0.112620 -0.432933 3.000000
0.152657 0.234197 0.376868 3.000000
-0.259904 0.423638 0.136881 3.000000
0.277957 0.131124 -0.427855 1.000000
-0.142066 0.400085 0.194288 3.000000
0.206262 0.425147 -0.136379 3.000000
-0.085368 -0.434140 0.094229 3.000000
-0.081709 -0.070332 -0.441721 3.000000
-0.142241 -0.054183 0.439853 3.000000
0.282971 0.271386 -0.355519 1.000000
0.118323 -0.440968 0.056441 3.000000
0.187728 -0.209663 0.390411 3.000000
0.041957 0.190606 0.400643 3.000000
-0.117425 -0.112322 0.428666 3.000000
-0.041308 -0.005714 -0.447416 3.000000
-0.170006 -0.444650 -0.010855 3.000000
0.126479 -0.340767 -0.288302 3.000000
0.219679 -0.208503 -0.395355 3.000000
0.280972 0.001629 0.443223 3.000000
-0.219013 -0.387574 0.216220 3.000000
0.257563 -0.374733 -0.242100 3.000000
-0.233249 0.402753 -0.193406 3.000000
0.150199 -0.422059 -0.142774 3.000000
-0.219775 -0.297251 -0.333195 3.000000
-0.113447 -0.087312 -0.438748 3.000000
0.206292 -0.442607 0.040989 3.000000
0.151528 0.440539 0.065621 3.000000
-0.163340 0.171854 0.408791 3.000000
-0.261801 -0.353373 -0.272350 3.000000
-0.085038 -0.320603 -0.310691 3.000000
0.221020 0.213121 0.389171 3.000000
-0.018527 -0.126365 -0.428939 3.000000
-0.218569 -0.439535 -0.069843 3.000000
-0.188460 0.314044 -0.318275 3.000000
-0.004911 -0.007544 -0.447359 3.000000
0.147396 -0.276682 -0.350615 3.000000
-0.113001 -0.387772 -0.220239 3.000000
-0.190359 -0.435587 0.087758 3.000000
-0.171861 0.409469 -0.178166 3.000000
0.216198 0.443929 0.037845 3.000000
0.014954 -0.342433 -0.286412 3.000000
0.023968 0.427573 -0.128029 3.000000
0.100804 -0.285859 -0.343239 3.000000
-0.177264 0.225977 -0.386083 3.000000
-0.288774 0.443568 0.041669 4.000000
0.100261 -0.295736 -0.334531 3.000000
-0.169648 -0.432939 -0.103959 3.000000
0.133497 0.426240 -0.132616 3.000000
0.139934 -0.044709 -0.445102 3.000000
0.015144 -0.402992 -0.190765 3.000000
-0.038333 0.433475 0.101791 3.000000
0.282665 -0.193658 -0.402919 1.000000
-0.209732 0.433306 -0.106900 3.000000
-0.237077 0.312693 0.315272 3.000000
-0.061113 -0.150323 -0.421062 3.000000
0.138680 0.212802 -0.393686 3.000000
-0.224899 -0.020496 0.442598 3.000000
0.169885 -0.387703 0.216001 3.000000
0.251915 -0.365021 0.252038 3.000000
0.150487 0.312359 0.315606 3.000000
-0.202016 -0.245600 0.368863 3.000000
-0.093334 -0.123064 -0.429898 3.000000
0.209063 0.151290 0.416730 3.000000
-0.222917 -0.190338 0.400257 3.000000
0.107897 0.247897 0.367998 3.000000
0.081741 0.259459 -0.364494 3.000000
-0.040622 -0.167359 -0.414646 3.000000
0.279807 -0.113467 0.428333 3.000000
-0.229969 -0.159114 0.413544 3.000000
-0.154018 -0.034183 0.441744 3.000000
0.238153 0.248297 0.367726 3.000000
-0.043273 0.060812 0.439038 3.000000
0.250519 0.360145 0.260587 3.000000
-0.011495 0.273822 -0.353629 3.000000
0.217697 0.339258 0.286822 3.000000
0.062937 -0.092785 0.433171 3.000000
0.216970 -0.384422 0.221549 3.000000
0.275764 0.137710 0.421588 3.000000
0.247275 -0.443841 -0.032295 3.000000
-0.110015 0.338158 -0.292423 3.000000
0.055644 -0.270374 -0.355509 3.000000
0.147609 0.370352 0.245701 3.000000
0.075245 -0.398606 0.195179 3.000000
-0.077061 -0.269879 -0.355892 3.000000
0.030258 -0.440949 0.056564 3.000000
0.017409 0.260753 -0.363614 3.000000
0.106449 -0.130852 -0.427636 3.000000
-0.092947 0.408365 0.176362 3.000000
0.161526 0.419347 -0.153154 3.000000
0.283271 0.408615 0.175785 1.000000
0.053933 0.433869 0.100026 3.000000
0.096162 0.253246 0.364363 3.000000
0.045373 -0.391910 0.208321 3.000000
-0.083249 -0.437744 0.076802 3.000000
-0.003573 0.445164 0.022760 3.000000
0.271367 -0.094682 0.432747 3.000000
0.026558 0.424391 0.134629 3.000000
-0.084907 -0.410467 -0.173490 3.000000
0.185347 -0.441591 -0.056093 3.000000
-0.010065 0.204384 -0.397976 3.000000
-0.199729 0.443595 -0.045732 3.000000
0.113795 0.175100 -0.411739 3.000000
-0.245846 -0.217382 -0.390560 3.000000
0.273177 -0.229381 -0.383464 3.000000
0.115370 -0.334788 0.290730 3.000000
0.244955 0.334501 -0.296571 3.000000
-0.227263 0.258583 0.360736 3.000000
-0.228720 0.438345 0.079476 3.000000
0.143018 0.075446 0.436720 3.000000
-0.200161 0.181710 -0.408879 3.000000
-0.001963 -0.442750 0.039478 3.000000
-0.052165 -0.435035 -0.094581 3.000000
0.264296 -0.152459 -0.420293 3.000000
-0.253838 0.430921 0.112151 3.000000
-0.200589 -0.229467 -0.383413 3.000000
0.033002 -0.074178 0.436758 3.000000
-0.180140 0.445264 0.019568 3.000000
-0.137962 0.443387 -0.047938 3.000000
-0.113217 -0.271065 -0.354973 3.000000
0.092167 0.441990 -0.060814 3.000000
-0.109919 -0.309263 -0.322031 3.000000
0.009561 -0.160550 -0.417381 3.000000
-0.175307 -0.443128 -0.039830 3.000000
-0.241310 -0.437171 -0.084773 3.000000
0.268113 -0.208348 -0.395434 3.000000
-0.008768 -0.165973 0.410892 3.000000
0.032379 0.431611 -0.114130 3.000000
-0.046172 -0.175521 0.406760 3.000000
-0.081491 0.039870 0.441303 3.000000
0.262839 0.401040 -0.196768 3.000000
-0.017223 0.445648 -0.011698 3.000000
0.260275 -0.440112 -0.066201 3.000000
-0.189097 0.444215 -0.039179 3.000000
0.030536 -0.394276 -0.208031 3.000000
-0.045022 -0.052595 0.440003 3.000000
0.003529 -0.313080 0.313860 3.000000
0.051308 -0.442252 0.044747 3.000000
0.124364 0.444633 -0.034750 3.000000
0.239059 0.045466 0.440774 3.000000
0.021355 0.097413 -0.436719 3.000000
-0.049701 -0.304873 0.322067 3.000000
-0.030104 -0.395396 0.201479 3.000000
-0.118650 -0.404477 0.182978 3.000000
-0.154544 0.186488 0.402458 3.000000
0.190728 0.372696 -0.246606 3.000000
0.211770 0.077596 -0.440733 3.000000
-0.003090 0.243866 -0.375091 3.000000
0.230196 0.434372 -0.102132 3.000000
-0.093477 -0.419318 -0.150388 3.000000
-0.003762 0.417781 -0.157504 3.000000
-0.074752 0.178357 -0.410330 3.000000
0.285056 -0.215356 -0.391759 1.000000
0.235420 -0.418419 0.148532 3.000000
0.129841 -0.341785 0.282794 3.000000
-0.025813 0.412448 -0.171280 3.000000
0.042425 0.408633 -0.180098 3.000000
-0.198909 0.419331 -0.153198 3.000000
-0.217593 0.317132 -0.315187 3.000000
0.228019 -0.398317 -0.200101 3.000000
-0.281218 0.417079 0.155100 3.000000
0.164186 -0.405408 -0.185181 3.000000
0.154194 0.087124 0.434665 3.000000
0.272169 -0.443530 0.031231 3.000000
0.148739 0.343719 -0.286116 3.000000
0.043583 -0.139092 0.420752 3.000000
0.006214 -0.076709 0.436358 3.000000
-0.031608 -0.441738 0.050179 3.000000
-0.037091 0.445844 -0.005475 3.000000
-0.046628 0.435077 -0.098977 3.000000
-0.140198 -0.344674 -0.283564 3.000000
-0.102222 0.081817 0.435711 3.000000
-0.288405 0.152245 0.416386 4.000000
-0.058117 0.063792 -0.442919 3.000000
0.061270 0.181187 0.404752 3.000000
-0.146448 -0.063214 0.438495 3.000000
0.149067 -0.050365 0.440214 3.000000
-0.111542 0.445031 0.026193 3.000000
-0.116714 0.438463 0.078729 3.000000
-0.138028 0.161481 -0.417414 3.000000
-0.012226 0.346639 -0.282352 3.000000
0.170243 -0.427512 -0.124710 3.000000
-0.007559 0.289225 -0.341175 3.000000
0.216856 -0.432799 0.100229 3.000000
0.071544 -0.354903 0.266024 3.000000
0.001465 0.400061 -0.198690 3.000000
0.101073 0.045486 -0.445125 3.000000
0.254527 0.277098 -0.351088 3.000000
-0.192234 0.140809 -0.424857 3.000000
-0.177728 0.184069 -0.407858 3.000000
0.229403 0.067012 0.438056 3.000000
-0.053576 0.294538 0.332137 3.000000
-0.142072 0.369882 -0.250746 3.000000
0.208228 -0.241451 -0.376036 3.000000
-0.202537 0.417451 0.154066 3.000000
-0.007573 -0.331807 -0.298464 3.000000
0.187301 0.431421 -0.114784 3.000000
0.158375 0.362134 -0.262147 3.000000
0.213214 0.220708 0.384846 3.000000
0.157307 0.199719 0.395999 3.000000
-0.117655 0.393439 0.207333 3.000000
0.106556 -0.391195 0.209724 3.000000
0.044543 0.364369 -0.258858 3.000000
0.234841 0.106757 -0.434630 3.000000
-0.029022 -0.030853 0.442058 3.000000
-0.130055 0.398308 -0.202130 3.000000
-0.049292 0.320820 0.307145 3.000000
0.091135 -0.402989 0.186419 3.000000
0.069167 0.129095 0.424091 3.000000
-0.282700 0.151883 -0.420870 4.000000
0.152210 -0.444487 -0.016025 3.000000
