0.286960 -0.454838 0.069159 1.000000
0.286960 0.413716 -0.218844 1.000000
0.286960 -0.094345 -0.468320 1.000000
0.286960 -0.440725 0.173284 1.000000
0.286960 -0.169987 0.456785 1.000000
0.286960 -0.486979 0.050308 1.000000
0.286960 0.247324 -0.434401 1.000000
0.286960 -0.372862 -0.322308 1.000000
0.286960 -0.301284 -0.350679 1.000000
0.286960 -0.495702 0.009568 1.000000
0.286960 0.466506 -0.051613 1.000000
0.286960 0.385777 -0.293535 1.000000
0.286960 0.077543 0.460025 1.000000
0.286960 0.265612 0.410479 1.000000
0.286960 -0.460708 -0.136619 1.000000
0.286960 0.129747 -0.456696 1.000000
0.286960 0.055607 -0.476230 1.000000
0.286960 0.259530 -0.408931 1.000000
0.286960 0.453616 -0.039899 1.000000
0.286960 -0.089728 -0.483542 1.000000
0.286960 0.157363 -0.421274 1.000000
0.286960 0.155065 -0.431785 1.000000
0.286960 0.343738 0.284030 1.000000
0.286960 -0.459760 0.051788 1.000000
0.286960 -0.161964 -0.465384 1.000000
0.286960 -0.481468 0.027989 1.000000
0.286960 -0.160355 -0.473148 1.000000
0.286960 0.210916 0.428951 1.000000
0.286960 -0.403423 0.283480 1.000000
0.286960 0.483397 0.058192 1.000000
0.286960 0.295039 0.398506 1.000000
0.286960 -0.229657 0.411853 1.000000
0.286960 0.277209 0.372444 1.000000
0.286960 0.197028 0.452647 1.000000
0.286960 0.424992 0.219317 1.000000
0.286960 -0.390562 -0.233100 1.000000
0.286960 0.327777 -0.341027 1.000000
0.286960 -0.489454 0.053579 1.000000
0.286960 0.095008 0.486333 1.000000
0.286960 -0.314531 -0.372779 1.000000
0.286960 -0.233797 -0.397205 1.000000
0.286960 -0.106627 0.469741 1.000000
0.286960 -0.443746 -0.226409 1.000000
0.286960 0.323132 -0.370421 1.000000
0.286960 0.236224 0.434050 1.000000
0.286960 0.252380 0.385827 1.000000
0.286960 0.258203 -0.423248 1.000000
0.286960 0.394772 -0.290763 1.000000
0.286960 0.367158 -0.265949 1.000000
0.286960 0.475380 0.040200 1.000000
0.286960 0.067944 -0.485647 1.000000
0.286960 0.298044 -0.354314 1.000000
0.286960 -0.420490 -0.162611 1.000000
0.286960 0.448242 -0.171673 1.000000
0.286960 -0.059412 -0.479530 1.000000
0.286960 0.189607 0.442283 1.000000
0.286960 0.386413 0.253645 1.000000
0.286960 -0.473431 0.065180 1.000000
0.286960 -0.424301 -0.202883 1.000000
0.286960 -0.440576 -0.137841 1.000000
0.286960 -0.463949 -0.047066 1.000000
0.286960 0.446395 0.011964 1.000000
0.286960 0.469737 0.080387 1.000000
0.286960 -0.404941 -0.232893 1.000000
0.286960 -0.459847 -0.089861 1.000000
0.286960 0.045462 0.445743 1.000000
0.286960 0.071843 0.459186 1.000000
0.286960 0.412727 0.182040 1.000000
0.286960 0.233572 0.421892 1.000000
0.286960 -0.415088 0.159144 1.000000
0.286960 -0.460428 0.010512 1.000000
0.286960 0.222882 0.383691 1.000000
0.286960 -0.391982 0.225943 1.000000
0.286960 -0.007375 -0.460611 1.000000
0.286960 -0.444279 -0.123674 1.000000
0.286960 -0.324257 0.356524 1.000000
0.286960 -0.195331 0.415398 1.000000
0.286960 -0.018904 -0.497944 1.000000
0.286960 0.322753 -0.350819 1.000000
0.286960 0.436325 0.236776 1.000000
0.286960 0.406915 -0.212541 1.000000
0.286960 0.439567 0.186221 1.000000
0.286960 0.142914 -0.472473 1.000000
0.286960 0.052148 -0.491301 1.000000
0.286960 0.435770 0.225977 1.000000
0.286960 -0.328576 -0.324527 1.000000
0.286960 0.328749 0.314596 1.000000
0.286960 0.182495 -0.446074 1.000000
0.286960 -0.180196 -0.418952 1.000000
0.286960 -0.361801 0.323208 1.000000
0.286960 0.462503 -0.143024 1.000000
0.286960 -0.063662 0.469155 1.000000
0.286960 0.445226 0.195450 1.000000
0.286960 0.344085 0.327825 1.000000
0.286960 -0.354690 0.288093 1.000000
0.286960 0.471665 -0.081791 1.000000
0.286960 0.362998 -0.302842 1.000000
0.286960 -0.091473 0.467846 1.000000
0.286960 -0.459039 0.077057 1.000000
0.286960 0.266360 0.388843 1.000000
0.286960 -0.268979 -0.394897 1.000000
0.286960 0.463400 -0.052255 1.000000
0.286960 0.424407 0.214370 1.000000
0.286960 0.064906 -0.457258 1.000000
0.286960 0.285141 0.388978 1.000000
0.286960 0.210268 -0.453598 1.000000
0.286960 -0.050563 0.451001 1.000000
0.286960 0.374869 -0.312286 1.000000
0.286960 -0.412405 0.194142 1.000000
0.286960 -0.250334 0.413891 1.000000
0.286960 0.049321 0.469096 1.000000
0.286960 -0.328676 0.330715 1.000000
0.286960 -0.348965 -0.319321 1.000000
0.286960 -0.445732 -0.211700 1.000000
0.286960 0.436877 0.089772 1.000000
0.286960 -0.456627 -0.150610 1.000000
0.286960 -0.080513 0.469251 1.000000
0.286960 0.084562 -0.460472 1.000000
0.286960 0.452447 -0.170886 1.000000
0.286960 -0.291037 0.369447 1.000000
0.286960 -0.435684 0.217953 1.000000
0.286960 0.017407 -0.472886 1.000000
0.286960 -0.124908 0.476129 1.000000
0.286960 -0.446734 -0.139568 1.000000
0.286960 0.151954 -0.456876 1.000000
0.286960 0.454467 -0.078285 1.000000
0.286960 -0.398953 0.238837 1.000000
0.286960 -0.374077 -0.244728 1.000000
0.286960 0.438052 -0.095735 1.000000
0.286960 -0.448746 0.186821 1.000000
0.286960 -0.048861 0.470485 1.000000
0.286960 -0.465503 -0.067799 1.000000
0.286960 0.437104 0.232761 1.000000
0.286960 0.473612 0.150842 1.000000
0.286960 -0.196497 0.409739 1.000000
0.286960 -0.394349 0.220345 1.000000
0.286960 0.228081 0.388889 1.000000
0.286960 0.040869 0.456595 1.000000
0.286960 -0.044030 -0.483241 1.000000
0.286960 0.481414 -0.043528 1.000000
0.286960 0.166110 -0.440791 1.000000
0.286960 -0.495111 -0.049188 1.000000
0.286960 -0.024953 -0.452310 1.000000
0.286960 0.420727 0.173951 1.000000
0.286960 0.472787 0.051210 1.000000
0.286960 -0.312891 0.319434 1.000000
0.286960 0.002816 -0.488846 1.000000
0.286960 0.239744 0.396503 1.000000
0.286960 -0.336146 0.360386 1.000000
0.286960 0.369073 -0.292736 1.000000
0.286960 -0.370889 0.301664 1.000000
0.286960 -0.441113 -0.200717 1.000000
0.286960 0.334945 0.343475 1.000000
0.286960 0.313481 0.350686 1.000000
0.286960 0.454864 -0.146195 1.000000
0.286960 -0.464600 -0.014503 1.000000
0.286960 -0.337066 -0.325835 1.000000
0.286960 -0.316911 0.341893 1.000000
0.286960 -0.094072 -0.471778 1.000000
0.286960 -0.354513 0.324424 1.000000
0.286960 -0.396199 0.256161 1.000000
0.286960 0.137606 -0.463022 1.000000
0.286960 0.121293 -0.437497 1.000000
0.286960 0.002425 0.472174 1.000000
0.286960 0.290093 0.388929 1.000000
0.286960 0.124043 0.451012 1.000000
0.286960 0.405770 0.232225 1.000000
0.286960 0.003243 -0.470441 1.000000
0.286960 -0.341764 -0.289542 1.000000
0.286960 0.443546 0.042552 1.000000
0.286960 0.021340 0.479237 1.000000
0.286960 0.430744 -0.144416 1.000000
0.286960 -0.487351 -0.020125 1.000000
0.286960 0.115588 0.463007 1.000000
0.286960 0.049003 -0.451540 1.000000
0.286960 0.476060 0.072219 1.000000
0.286960 0.012158 0.474786 1.000000
0.286960 0.338637 0.299230 1.000000
0.286960 0.473947 0.128576 1.000000
0.286960 0.296952 0.345777 1.000000
0.286960 0.385493 -0.244485 1.000000
0.286960 0.370806 -0.325598 1.000000
0.286960 -0.477516 -0.053788 1.000000
0.286960 -0.396004 -0.245517 1.000000
0.286960 -0.452424 0.020526 1.000000
0.286960 0.409960 -0.279533 1.000000
0.286960 0.169669 -0.456241 1.000000
0.286960 -0.468246 -0.095894 1.000000
0.286960 -0.133285 0.473651 1.000000
0.286960 -0.147733 -0.440442 1.000000
0.286960 -0.435796 0.090408 1.000000
0.286960 0.434227 -0.157326 1.000000
0.286960 -0.326915 0.316411 1.000000
0.286960 0.408636 0.194984 1.000000
0.286960 -0.367938 -0.256808 1.000000
0.286960 0.372021 -0.286712 1.000000
0.286960 -0.473129 -0.102313 1.000000
0.286960 -0.446094 -0.043069 1.000000
0.286960 -0.374088 0.266978 1.000000
0.286960 -0.187399 0.427398 1.000000
0.286960 -0.018644 -0.478947 1.000000
0.286960 0.419004 0.150642 1.000000
0.286960 -0.075280 0.471043 1.000000
0.286960 -0.474837 0.084094 1.000000
0.286960 0.129259 0.431780 1.000000
0.286960 0.360186 -0.277806 1.000000
0.286960 -0.422277 -0.214982 1.000000
0.286960 0.485213 0.105728 1.000000
0.286960 0.358433 0.307248 1.000000
0.286960 -0.329556 -0.329296 1.000000
0.286960 -0.100399 -0.455436 1.000000
0.286960 -0.474755 -0.072054 1.000000
0.286960 0.324581 -0.341528 1.000000
0.286960 -0.287639 -0.346582 1.000000
0.286960 0.456374 -0.103709 1.000000
0.286960 0.366585 -0.262403 1.000000
0.286960 -0.192395 -0.448950 1.000000
0.286960 -0.333631 -0.311711 1.000000
0.286960 -0.353599 -0.304535 1.000000
0.286960 0.322895 -0.337467 1.000000
0.286960 -0.224344 0.394981 1.000000
0.286960 -0.064361 -0.455486 1.000000
0.286960 0.029781 0.449442 1.000000
0.286960 0.257620 -0.386251 1.000000
0.286960 0.171835 -0.448648 1.000000
0.286960 0.486970 -0.040871 1.000000
0.286960 -0.042426 0.452258 1.000000
0.286960 -0.004130 -0.460441 1.000000
0.286960 0.129730 -0.450253 1.000000
0.286960 -0.450133 -0.088311 1.000000
0.286960 -0.073966 -0.490218 1.000000
0.286960 0.385271 -0.226893 1.000000
0.286960 0.471597 0.073370 1.000000
0.286960 -0.145657 0.445232 1.000000
0.286960 0.062105 -0.443356 1.000000
0.286960 -0.068230 -0.450761 1.000000
0.286960 -0.339669 0.360930 1.000000
0.286960 -0.419631 -0.268567 1.000000
0.286960 -0.389597 0.285647 1.000000
0.286960 -0.345252 0.286182 1.000000
0.286960 -0.228311 -0.389181 1.000000
0.286960 -0.166163 0.455570 1.000000
0.286960 0.234572 -0.390239 1.000000
0.286960 0.298142 0.371638 1.000000
0.286960 0.180671 0.462036 1.000000
0.286960 -0.392054 0.289654 1.000000
0.286960 0.412997 0.268548 1.000000
0.286960 0.272477 -0.412520 1.000000
0.286960 0.446395 0.216141 1.000000
0.286960 0.369522 -0.329719 1.000000
0.286960 0.060151 -0.463581 1.000000
0.286960 0.280077 0.344527 1.000000
0.286960 -0.422338 -0.223711 1.000000
0.286960 -0.434369 -0.164419 1.000000
0.286960 -0.398120 0.288257 1.000000
0.286960 -0.467620 0.166791 1.000000
0.286960 0.344309 0.336305 1.000000
0.286960 -0.429372 -0.240200 1.000000
0.286960 0.024353 0.494445 1.000000
0.286960 0.039113 0.470950 1.000000
0.286960 -0.399219 -0.298619 1.000000
0.286960 -0.312316 -0.333789 1.000000
0.286960 0.434965 -0.120036 1.000000
0.286960 -0.413293 0.236130 1.000000
0.286960 0.331949 0.323675 1.000000
0.286960 -0.456810 0.089096 1.000000
0.286960 -0.467223 0.095064 1.000000
0.286960 -0.478059 -0.065409 1.000000
0.286960 -0.352504 0.298456 1.000000
0.286960 -0.287893 0.386046 1.000000
0.286960 0.463312 0.128399 1.000000
0.286960 0.462271 0.067073 1.000000
0.286960 0.188123 -0.440483 1.000000
0.286960 0.330753 0.355621 1.000000
0.286960 -0.490239 0.067097 1.000000
0.286960 -0.138250 0.469410 1.000000
0.286960 0.326337 0.361459 1.000000
0.286960 0.092199 -0.488890 1.000000
0.286960 0.385591 -0.314894 1.000000
0.286960 0.474750 0.031751 1.000000
0.286960 0.365169 -0.258403 1.000000
0.286960 0.484368 -0.069431 1.000000
0.286960 -0.144960 -0.424361 1.000000
0.286960 -0.472035 -0.109069 1.000000
0.286960 -0.056142 0.487558 1.000000
0.286960 -0.399358 -0.200620 1.000000
0.286960 0.179356 0.419508 1.000000
0.286960 0.391650 -0.263401 1.000000
0.286960 0.229606 -0.428563 1.000000
0.286960 -0.467409 0.068889 1.000000
0.286960 0.346583 0.319783 1.000000
0.286960 0.445230 -0.157671 1.000000
0.286960 0.487360 0.058603 1.000000
0.286960 -0.491264 0.073381 1.000000
0.286960 -0.378972 -0.300056 1.000000
0.286960 -0.296514 0.368883 1.000000
0.286960 0.432118 0.108455 1.000000
0.286960 0.429089 0.138518 1.000000
0.286960 -0.232134 0.394227 1.000000
0.286960 0.238828 0.386313 1.000000
0.286960 -0.041207 -0.489545 1.000000
0.286960 0.442362 -0.155085 1.000000
0.286960 0.402551 -0.227443 1.000000
0.286960 0.254614 -0.424912 1.000000
0.286960 -0.056248 0.454619 1.000000
0.286960 0.441063 -0.198563 1.000000
0.286960 -0.207246 -0.396963 1.000000
0.286960 0.018259 0.445083 1.000000
0.286960 0.436562 0.195912 1.000000
0.286960 0.410790 -0.206607 1.000000
0.286960 -0.219928 -0.398620 1.000000
0.286960 -0.224123 0.383527 1.000000
0.286960 -0.285978 0.357936 1.000000
0.286960 0.248545 -0.400657 1.000000
0.286960 -0.458380 0.114134 1.000000
0.286960 -0.235493 0.415398 1.000000
0.286960 -0.414684 0.172331 1.000000
0.286960 -0.467492 0.047241 1.000000
0.286960 -0.384358 0.250345 1.000000
0.286960 0.469580 -0.084691 1.000000
0.286960 0.459003 0.091109 1.000000
0.286960 0.429015 -0.147965 1.000000
0.286960 0.454011 0.076846 1.000000
0.286960 -0.425898 -0.223641 1.000000
0.286960 0.121320 -0.433993 1.000000
0.286960 -0.436263 0.205084 1.000000
0.286960 -0.286015 -0.377576 1.000000
0.286960 -0.456669 -0.088744 1.000000
0.286960 0.218129 -0.391157 1.000000
0.286960 -0.297022 -0.371050 1.000000
0.286960 0.319023 0.375897 1.000000
0.286960 0.302150 0.370573 1.000000
0.286960 -0.337190 -0.351445 1.000000
0.286960 0.404660 -0.189808 1.000000
0.286960 0.105132 0.434761 1.000000
0.286960 -0.024564 0.455569 1.000000
0.286960 -0.307090 -0.376839 1.000000
0.286960 -0.015537 -0.491437 1.000000
0.286960 0.463643 0.071505 1.000000
0.286960 -0.213216 0.414709 1.000000
0.286960 -0.403237 0.197080 1.000000
0.286960 -0.003511 0.459479 1.000000
0.286960 0.145561 0.421978 1.000000
0.286960 -0.421740 -0.183846 1.000000
0.286960 -0.436614 -0.108104 1.000000
0.286960 0.213207 -0.403494 1.000000
0.286960 -0.424872 0.130158 1.000000
0.286960 -0.166519 0.460325 1.000000
0.286960 0.401842 -0.271083 1.000000
0.286960 -0.433955 0.115731 1.000000
0.286960 0.409261 0.270147 1.000000
0.286960 -0.151227 0.433049 1.000000
0.286960 -0.286982 -0.365266 1.000000
0.286960 -0.464261 -0.050863 1.000000
0.286960 0.315094 0.322440 1.000000
0.286960 -0.473755 0.009234 1.000000
0.286960 0.168019 0.418685 1.000000
0.286960 -0.426732 0.153836 1.000000
0.286960 0.011877 -0.464701 1.000000
0.286960 -0.429540 -0.120033 1.000000
0.286960 0.105434 -0.461428 1.000000
0.286960 0.305103 -0.390310 1.000000
0.286960 -0.437032 -0.190784 1.000000
0.286960 -0.428886 -0.169417 1.000000
0.286960 -0.450660 0.086018 1.000000
0.286960 -0.251644 0.369754 1.000000
0.286960 0.225233 -0.393331 1.000000
0.286960 -0.464024 0.011915 1.000000
0.286960 0.142614 -0.449804 1.000000
0.286960 -0.169101 0.414575 1.000000
0.286960 0.332006 0.312447 1.000000
0.286960 -0.347559 -0.345885 1.000000
0.286960 -0.436996 -0.182309 1.000000
0.286960 0.116987 -0.462032 1.000000
0.286960 0.409449 -0.244828 1.000000
0.286960 -0.270169 -0.383025 1.000000
0.286960 0.369331 0.305463 1.000000
0.286960 0.353880 0.271418 1.000000
0.286960 0.113878 0.466728 1.000000
0.286960 0.157230 0.427129 1.000000
0.286960 -0.426693 -0.249356 1.000000
0.286960 0.105752 0.484387 1.000000
0.286960 0.200600 0.417608 1.000000
0.286960 -0.119907 0.461920 1.000000
0.286960 -0.454119 -0.043224 1.000000
0.286960 0.405075 0.243431 1.000000
0.286960 0.028812 -0.492751 1.000000
0.286960 0.210326 -0.433482 1.000000
0.286960 0.115613 -0.443373 1.000000
0.286960 0.319179 -0.317942 1.000000
0.286960 -0.044843 0.487749 1.000000
0.286960 0.432516 0.200810 1.000000
0.286960 -0.139326 0.475664 1.000000
0.286960 -0.377858 0.249257 1.000000
0.286960 -0.462875 0.052444 1.000000
0.286960 0.060652 0.449589 1.000000
0.286960 -0.283312 0.371554 1.000000
0.286960 0.415251 -0.277003 1.000000
0.286960 0.445687 0.077871 1.000000
0.286960 0.378044 0.295583 1.000000
0.286960 0.456889 0.064360 1.000000
0.286960 0.309445 -0.338833 1.000000
0.286960 -0.350943 0.290564 1.000000
0.286960 0.365034 0.321473 1.000000
0.286960 0.148007 0.437581 1.000000
0.286960 -0.319620 0.307690 1.000000
0.286960 0.459571 -0.025841 1.000000
0.286960 -0.035715 0.456864 1.000000
0.286960 -0.095877 0.456361 1.000000
0.286960 -0.458647 -0.192311 1.000000
0.286960 -0.290963 -0.353028 1.000000
0.286960 0.247362 0.381622 1.000000
0.286960 -0.409568 -0.205885 1.000000
0.286960 -0.330691 -0.354338 1.000000
0.286960 -0.451588 0.184674 1.000000
0.286960 0.026572 -0.451673 1.000000
0.286960 0.469289 0.157478 1.000000
0.286960 -0.245303 -0.374907 1.000000
0.286960 0.140496 0.424239 1.000000
0.286960 -0.490715 -0.055472 1.000000
0.286960 -0.396272 0.264214 1.000000
0.286960 0.089433 -0.464186 1.000000
0.286960 0.297039 0.330159 1.000000
0.286960 -0.467080 -0.113276 1.000000
0.286960 0.126939 -0.476702 1.000000
0.286960 -0.450543 -0.154182 1.000000
0.286960 -0.248724 -0.372333 1.000000
0.286960 0.463336 0.061090 1.000000
0.286960 -0.479458 -0.121534 1.000000
0.286960 0.140033 0.439860 1.000000
0.286960 0.270354 -0.416582 1.000000
0.286960 0.469682 0.070962 1.000000
0.286960 -0.348677 -0.294990 1.000000
0.286960 0.434315 -0.123843 1.000000
0.286960 -0.234288 0.435142 1.000000
0.286960 -0.471495 0.067682 1.000000
0.286960 0.457939 0.171713 1.000000
0.286960 -0.254789 0.425057 1.000000
0.286960 -0.460526 -0.121634 1.000000
0.286960 0.196386 0.410184 1.000000
0.286960 0.403665 -0.286916 1.000000
0.286960 -0.008526 0.481487 1.000000
0.286960 -0.332734 0.334383 1.000000
0.286960 0.439935 0.076521 1.000000
0.286960 -0.482654 -0.014648 1.000000
0.286960 0.411971 0.272087 1.000000
0.286960 0.122169 0.458580 1.000000
0.286960 -0.180548 0.437780 1.000000
0.286960 -0.206288 0.421878 1.000000
0.286960 0.454115 0.166137 1.000000
0.286960 -0.285534 0.389803 1.000000
0.286960 0.215453 0.431293 1.000000
0.286960 0.364813 0.265734 1.000000
0.286960 -0.006046 -0.481794 1.000000
0.286960 -0.236358 0.408209 1.000000
0.286960 0.432658 0.227213 1.000000
0.286960 0.470830 -0.124560 1.000000
0.286960 -0.267949 -0.362670 1.000000
0.286960 -0.223406 -0.395821 1.000000
0.286960 0.338050 0.346642 1.000000
0.286960 -0.455682 0.129441 1.000000
0.286960 0.177648 0.461684 1.000000
0.286960 0.443596 -0.114050 1.000000
0.286960 0.312639 0.376490 1.000000
0.286960 0.208780 0.448696 1.000000
0.286960 -0.178807 0.426945 1.000000
0.286960 -0.432652 0.167407 1.000000
0.286960 0.273233 0.409526 1.000000
0.286960 -0.067268 0.446417 1.000000
0.286960 -0.312161 -0.388052 1.000000
0.286960 0.173357 -0.421355 1.000000
0.286960 -0.184338 -0.424160 1.000000
0.286960 0.446837 -0.104744 1.000000
0.286960 -0.386689 0.292642 1.000000
0.286960 -0.484427 -0.059166 1.000000
0.286960 0.339671 0.305140 1.000000
0.286960 -0.438776 0.145177 1.000000
0.286960 -0.363807 -0.279522 1.000000
0.286960 -0.442253 -0.050911 1.000000
0.286960 0.446178 -0.004779 1.000000
0.286960 0.409893 -0.218331 1.000000
0.286960 -0.437362 -0.126131 1.000000
0.286960 0.483096 0.088514 1.000000
0.286960 -0.075112 0.478744 1.000000
0.286960 0.330497 0.370724 1.000000
0.286960 -0.335697 -0.329225 1.000000
0.286960 -0.234861 0.387339 1.000000
0.286960 0.383358 0.259519 1.000000
0.286960 -0.455129 0.076076 1.000000
0.286960 0.388610 0.242192 1.000000
0.286960 -0.439053 0.073822 1.000000
0.286960 -0.446271 0.053457 1.000000
0.286960 0.460131 0.149479 1.000000
0.286960 0.361877 -0.308181 1.000000
0.286960 0.101823 -0.469095 1.000000
0.286960 -0.173049 0.444213 1.000000
0.286960 -0.293572 -0.348848 1.000000
0.286960 -0.418661 -0.233031 1.000000
0.286960 -0.035691 -0.453987 1.000000
0.286960 -0.429981 -0.129078 1.000000
0.286960 0.401735 -0.202185 1.000000
0.286960 0.317156 0.351276 1.000000
0.286960 -0.331113 0.313374 1.000000
0.286960 0.432140 -0.133704 1.000000
0.286960 0.379596 -0.240588 1.000000
0.286960 -0.389901 -0.299480 1.000000
0.286960 0.433088 -0.108437 1.000000
0.286960 -0.441140 0.102273 1.000000
0.286960 0.319615 -0.322210 1.000000
0.286960 -0.330687 -0.313718 1.000000
0.286960 0.372585 -0.247145 1.000000
0.286960 0.282580 -0.348001 1.000000
0.286960 0.173648 -0.412451 1.000000
0.286960 0.465792 -0.066714 1.000000
0.286960 0.324011 0.310176 1.000000
0.286960 -0.462419 0.069443 1.000000
0.286960 -0.121759 0.476570 1.000000
0.286960 0.415182 0.198561 1.000000
0.286960 -0.052015 0.472015 1.000000
0.286960 -0.047628 0.477327 1.000000
0.286960 -0.482742 -0.045114 1.000000
0.286960 -0.446207 -0.171762 1.000000
0.286960 -0.419461 -0.236481 1.000000
0.286960 -0.169069 0.430458 1.000000
0.286960 0.463684 -0.151282 1.000000
0.286960 0.472095 -0.101947 1.000000
0.286960 0.439068 0.092596 1.000000
0.286960 -0.146628 0.453600 1.000000
0.286960 -0.483515 -0.038080 1.000000
0.286960 -0.067858 -0.458138 1.000000
0.286960 -0.225626 -0.391937 1.000000
0.286960 -0.013208 0.456319 1.000000
0.286960 -0.305936 0.358000 1.000000
0.286960 -0.097899 0.483410 1.000000
0.286960 0.426106 -0.197048 1.000000
0.286960 -0.485995 0.031862 1.000000
0.286960 0.123665 0.465335 1.000000
0.286960 -0.005705 0.491590 1.000000
0.286960 -0.411262 0.276689 1.000000
0.286960 0.108937 -0.484573 1.000000
0.286960 0.047249 -0.481448 1.000000
0.286960 0.054393 0.440229 1.000000
0.286960 0.154185 0.440774 1.000000
0.286960 0.164497 -0.446604 1.000000
0.286960 -0.460436 -0.108821 1.000000
0.286960 0.162900 -0.425517 1.000000
0.286960 -0.488925 0.031239 1.000000
0.286960 0.498174 0.000486 1.000000
0.286960 -0.319550 -0.368569 1.000000
0.286960 0.071492 -0.474808 1.000000
0.286960 0.107372 -0.464984 1.000000
0.286960 0.299313 -0.398889 1.000000
0.286960 -0.227589 -0.428520 1.000000
0.286960 0.459489 -0.123786 1.000000
0.286960 -0.405900 0.267895 1.000000
0.286960 0.212511 0.410556 1.000000
0.286960 0.268291 0.379317 1.000000
0.286960 -0.255611 0.403153 1.000000
0.286960 -0.078019 -0.483595 1.000000
0.286960 0.353530 0.323537 1.000000
0.286960 -0.408916 0.240691 1.000000
0.286960 -0.281615 0.382050 1.000000
0.286960 0.214628 0.428177 1.000000
0.286960 0.418807 0.246413 1.000000
0.286960 0.488578 0.094756 1.000000
0.286960 0.383847 0.277716 1.000000
0.286960 0.111588 -0.435199 1.000000
0.286960 -0.474332 -0.128511 1.000000
0.286960 0.097501 -0.445919 1.000000
0.286960 0.353729 -0.307460 1.000000
0.286960 0.285639 0.341679 1.000000
0.286960 -0.473765 -0.114891 1.000000
0.286960 -0.325554 -0.374108 1.000000
0.286960 0.374300 0.241119 1.000000
0.286960 -0.022348 0.448582 1.000000
0.286960 -0.429682 0.166734 1.000000
0.286960 0.146176 -0.423925 1.000000
0.286960 -0.014686 -0.477797 1.000000
0.286960 -0.278088 -0.407162 1.000000
0.286960 0.438628 -0.156157 1.000000
0.286960 -0.011737 0.479595 1.000000
0.286960 -0.206764 0.417614 1.000000
0.286960 -0.239129 0.393461 1.000000
0.286960 -0.491158 0.011776 1.000000
0.286960 0.456579 -0.120284 1.000000
0.286960 0.411933 0.239490 1.000000
0.286960 -0.344963 -0.335575 1.000000
0.286960 -0.072776 -0.466466 1.000000
0.286960 0.226959 0.417960 1.000000
0.286960 -0.391815 0.233920 1.000000
0.286960 -0.269855 -0.379280 1.000000
0.286960 -0.049186 0.482706 1.000000
0.286960 0.461443 -0.071465 1.000000
0.286960 -0.193728 -0.454661 1.000000
0.286960 0.425994 0.191124 1.000000
0.286960 0.308247 -0.375085 1.000000
0.286960 -0.447996 -0.078296 1.000000
0.286960 -0.462660 0.079656 1.000000
0.286960 0.338733 -0.323977 1.000000
0.286960 0.239223 0.411883 1.000000
0.286960 0.205730 0.442634 1.000000
0.286960 0.256936 -0.402073 1.000000
0.286960 0.162846 0.418949 1.000000
0.286960 -0.478671 -0.019660 1.000000
0.286960 -0.032118 0.486436 1.000000
0.286960 -0.444760 -0.032666 1.000000
0.286960 -0.495929 0.038054 1.000000
0.286960 -0.065446 0.487014 1.000000
0.286960 0.046370 -0.484591 1.000000
0.286960 -0.309462 -0.345664 1.000000
0.286960 0.236102 0.393353 1.000000
0.286960 0.136747 -0.478649 1.000000
0.286960 -0.097266 -0.483948 1.000000
0.286960 0.455117 -0.032304 1.000000
0.286960 0.225136 -0.446443 1.000000
0.286960 -0.472151 0.026352 1.000000
0.286960 0.346063 -0.355164 1.000000
0.286960 0.248461 0.403962 1.000000
0.286960 -0.451308 -0.079992 1.000000
0.286960 0.402119 -0.250516 1.000000
0.286960 -0.308777 -0.380426 1.000000
0.286960 -0.061492 0.438807 1.000000
0.286960 -0.455377 0.111107 1.000000
0.286960 -0.072429 -0.446073 1.000000
0.286960 -0.381742 -0.242366 1.000000
0.286960 0.265367 -0.419162 1.000000
0.286960 -0.484326 -0.113947 1.000000
0.286960 -0.122171 -0.439937 1.000000
0.286960 -0.459057 0.032538 1.000000
0.286960 0.415294 -0.263508 1.000000
0.286960 -0.460893 0.048881 1.000000
0.286960 -0.448295 0.018692 1.000000
0.286960 -0.167324 0.444148 1.000000
0.286960 -0.289815 0.335553 1.000000
0.286960 -0.037377 -0.496632 1.000000
0.286960 -0.476686 0.033962 1.000000
0.286960 -0.339638 -0.295761 1.000000
0.286960 0.420686 0.236120 1.000000
0.286960 -0.419476 -0.190605 1.000000
0.286960 -0.482566 0.069306 1.000000
0.286960 0.455796 -0.125787 1.000000
0.286960 -0.085002 -0.450868 1.000000
0.286960 0.380754 -0.287211 1.000000
0.286960 -0.386431 -0.292899 1.000000
0.286960 0.487465 -0.000542 1.000000
0.286960 -0.117743 0.456466 1.000000
0.286960 0.272228 -0.355110 1.000000
0.286960 0.321935 -0.377020 1.000000
0.286960 0.461386 0.185580 1.000000
0.286960 0.248203 0.368866 1.000000
0.286960 0.474688 0.144891 1.000000
0.286960 -0.442560 0.092421 1.000000
0.286960 -0.398382 0.229562 1.000000
0.286960 0.320467 0.318909 1.000000
0.286960 -0.101169 0.441538 1.000000
0.286960 -0.237582 -0.406396 1.000000
0.286960 0.285301 -0.406948 1.000000
0.286960 0.089648 -0.443214 1.000000
0.286960 -0.262573 -0.404138 1.000000
0.286960 -0.458227 0.093075 1.000000
0.286960 -0.472196 -0.136042 1.000000
0.286960 0.393381 -0.294409 1.000000
0.286960 -0.460096 -0.045435 1.000000
0.286960 0.391407 -0.288658 1.000000
0.286960 0.327374 0.306465 1.000000
0.286960 -0.260047 0.408369 1.000000
0.286960 0.430425 0.224387 1.000000
0.286960 -0.348411 -0.284252 1.000000
0.286960 0.235732 0.376140 1.000000
0.286960 -0.435663 -0.219692 1.000000
0.286960 0.407139 0.249477 1.000000
0.286960 0.253503 0.414924 1.000000
0.286960 0.446590 -0.220523 1.000000
0.286960 -0.475441 0.089908 1.000000
0.286960 0.141143 0.428587 1.000000
0.286960 -0.379775 -0.292081 1.000000
0.286960 0.194667 0.455014 1.000000
0.286960 -0.376290 0.318442 1.000000
0.286960 -0.364799 -0.302874 1.000000
0.286960 -0.260014 -0.417095 1.000000
0.286960 0.373170 0.295117 1.000000
0.286960 0.446320 -0.039018 1.000000
0.286960 -0.351940 0.274589 1.000000
0.286960 -0.468635 -0.001086 1.000000
0.286960 0.438925 0.124307 1.000000
0.286960 0.422565 -0.160027 1.000000
0.286960 -0.413209 -0.253832 1.000000
0.286960 0.020616 -0.487054 1.000000
0.286960 0.464201 0.139773 1.000000
0.286960 0.330579 -0.320860 1.000000
0.286960 -0.396235 0.237416 1.000000
0.286960 -0.403688 0.184984 1.000000
0.286960 -0.431864 -0.141792 1.000000
0.286960 0.443198 -0.229240 1.000000
0.286960 0.206380 -0.403684 1.000000
0.286960 -0.461902 0.146365 1.000000
0.286960 0.172645 -0.433011 1.000000
0.286960 -0.407401 0.282146 1.000000
0.286960 0.316732 -0.347900 1.000000
0.286960 -0.409213 0.236433 1.000000
0.286960 0.387064 0.222541 1.000000
0.286960 0.310601 -0.350443 1.000000
0.286960 0.447121 -0.165427 1.000000
0.286960 -0.446901 -0.066888 1.000000
0.286960 0.419095 -0.257234 1.000000
0.286960 -0.154737 -0.442079 1.000000
0.286960 -0.464435 -0.073846 1.000000
0.286960 -0.232590 -0.441675 1.000000
0.286960 0.474789 -0.073919 1.000000
0.286960 0.124871 -0.436034 1.000000
0.286960 -0.183856 0.427076 1.000000
0.286960 0.418313 0.179634 1.000000
0.286960 -0.380351 0.287994 1.000000
0.286960 0.011784 -0.487789 1.000000
0.286960 0.457038 0.148112 1.000000
0.286960 0.453719 0.090495 1.000000
0.286960 0.112595 -0.474874 1.000000
0.286960 -0.328031 0.365594 1.000000
0.286960 -0.230076 -0.422792 1.000000
0.286960 0.331848 -0.325489 1.000000
0.286960 0.469924 -0.141938 1.000000
0.286960 0.428908 -0.167273 1.000000
0.286960 0.401029 0.208192 1.000000
0.286960 0.230462 -0.414891 1.000000
0.286960 0.016620 -0.454065 1.000000
0.286960 -0.215076 0.431028 1.000000
0.286960 -0.283550 -0.384758 1.000000
0.286960 0.162335 -0.457498 1.000000
0.286960 -0.481487 -0.102835 1.000000
0.286960 -0.083841 0.465393 1.000000
0.286960 -0.405833 -0.212039 1.000000
0.286960 -0.342321 -0.330581 1.000000
0.286960 0.285037 -0.351703 1.000000
0.286960 -0.128897 0.476779 1.000000
0.286960 -0.315577 0.337519 1.000000
0.286960 -0.468054 -0.043773 1.000000
0.286960 0.431266 0.163888 1.000000
0.286960 0.494583 0.012984 1.000000
0.286960 0.311984 -0.372714 1.000000
0.286960 -0.412809 -0.168444 1.000000
0.286960 -0.294426 0.336911 1.000000
0.286960 -0.282433 0.358610 1.000000
0.286960 -0.172579 0.440062 1.000000
0.286960 0.479940 -0.035271 1.000000
0.286960 0.458893 0.066929 1.000000
0.286960 -0.036787 0.493125 1.000000
0.286960 0.198426 0.406225 1.000000
0.286960 -0.444635 0.116698 1.000000
0.286960 0.074857 -0.470778 1.000000
0.286960 -0.135234 -0.457594 1.000000
0.286960 -0.408729 -0.265331 1.000000
0.286960 -0.112975 0.442268 1.000000
0.286960 -0.297055 -0.343612 1.000000
0.286960 -0.436461 -0.224044 1.000000
0.286960 -0.292428 0.363699 1.000000
0.286960 0.389363 -0.220899 1.000000
0.286960 -0.479511 -0.072722 1.000000
0.286960 0.442035 0.179077 1.000000
0.286960 0.459953 0.177471 1.000000
0.286960 -0.285086 0.382878 1.000000
0.286960 -0.147173 0.433734 1.000000
0.286960 -0.407515 -0.283882 1.000000
0.286960 -0.468822 -0.037091 1.000000
0.286960 -0.427861 -0.196223 1.000000
0.286960 0.157054 -0.473887 1.000000
0.286960 0.443424 -0.134733 1.000000
0.286960 -0.164771 -0.434070 1.000000
0.286960 0.188939 0.455372 1.000000
0.286960 0.008919 -0.476100 1.000000
0.286960 0.201242 0.430037 1.000000
0.286960 -0.037560 -0.467560 1.000000
0.286960 -0.453559 -0.039336 1.000000
0.286960 -0.493927 -0.058561 1.000000
0.286960 -0.419557 0.186739 1.000000
0.286960 -0.049981 -0.483530 1.000000
0.286960 -0.463203 -0.157383 1.000000
0.286960 -0.204026 0.445970 1.000000
0.286960 -0.397145 -0.262648 1.000000
0.286960 -0.172532 -0.445651 1.000000
0.286960 0.341138 -0.349207 1.000000
0.286960 -0.400230 0.224088 1.000000
0.286960 -0.278274 0.390430 1.000000
0.286960 -0.370152 0.319732 1.000000
0.286960 -0.339502 -0.306221 1.000000
0.286960 -0.470620 -0.011435 1.000000
0.286960 -0.183381 0.414091 1.000000
0.286960 -0.174740 0.457646 1.000000
0.286960 -0.355595 0.275167 1.000000
0.286960 0.280581 -0.381034 1.000000
0.286960 0.336764 -0.321043 1.000000
0.286960 0.482789 -0.072494 1.000000
0.286960 -0.231446 -0.389065 1.000000
0.286960 0.134692 -0.446109 1.000000
0.286960 -0.445684 -0.036495 1.000000
0.286960 0.132453 0.478103 1.000000
0.286960 0.253590 -0.373299 1.000000
0.286960 -0.468736 0.132726 1.000000
0.286960 -0.246416 0.401777 1.000000
0.286960 0.018025 0.458208 1.000000
0.286960 -0.230826 -0.416485 1.000000
0.286960 -0.442407 0.124423 1.000000
0.286960 -0.202952 -0.410285 1.000000
0.286960 0.225355 0.422155 1.000000
0.286960 -0.302274 -0.333079 1.000000
0.286960 -0.348453 0.305304 1.000000
0.286960 -0.451182 0.026753 1.000000
0.286960 0.125580 -0.454944 1.000000
0.286960 -0.473957 0.076298 1.000000
0.286960 0.001762 0.466466 1.000000
0.286960 -0.413599 -0.195174 1.000000
0.286960 -0.479289 0.030482 1.000000
0.286960 -0.021670 -0.454096 1.000000
0.286960 -0.224053 -0.432799 1.000000
0.286960 0.363514 0.256050 1.000000
0.286960 -0.339327 -0.345943 1.000000
0.286960 -0.247856 -0.403177 1.000000
0.286960 -0.122033 -0.483600 1.000000
0.286960 0.080852 -0.492626 1.000000
0.286960 0.456263 -0.013328 1.000000
0.286960 -0.331396 0.343250 1.000000
0.286960 -0.459381 0.165711 1.000000
0.286960 -0.392812 -0.291937 1.000000
0.286960 -0.206888 0.402925 1.000000
0.286960 -0.059349 0.474936 1.000000
0.286960 0.421267 0.143743 1.000000
0.286960 -0.460561 0.036627 1.000000
0.286960 0.470161 -0.166719 1.000000
0.286960 -0.393161 -0.300160 1.000000
0.286960 -0.131167 -0.447948 1.000000
0.286960 -0.241403 -0.411968 1.000000
0.286960 -0.393189 0.252844 1.000000
0.286960 -0.453841 -0.024046 1.000000
0.286960 -0.134182 -0.471880 1.000000
0.286960 0.333731 -0.359256 1.000000
0.286960 -0.040108 -0.454909 1.000000
0.286960 -0.145553 0.436968 1.000000
0.286960 -0.220968 0.439729 1.000000
0.286960 0.383784 0.227154 1.000000
0.286960 0.169030 0.451717 1.000000
0.286960 -0.371789 0.308730 1.000000
0.286960 0.421021 0.170411 1.000000
0.286960 -0.079174 -0.460013 1.000000
0.286960 0.430463 -0.195445 1.000000
0.286960 -0.399660 -0.224129 1.000000
0.286960 0.473810 -0.000999 1.000000
0.286960 -0.119610 0.447120 1.000000
0.286960 0.303399 -0.329172 1.000000
0.286960 0.297059 -0.343550 1.000000
0.286960 -0.468931 0.088042 1.000000
0.286960 0.467597 0.104106 1.000000
0.286960 0.455518 -0.111392 1.000000
0.286960 -0.210811 0.393514 1.000000
0.286960 -0.160125 0.444844 1.000000
0.286960 -0.430269 0.235969 1.000000
0.286960 0.447053 0.084138 1.000000
0.286960 -0.249031 -0.407701 1.000000
0.286960 0.468556 -0.153683 1.000000
0.286960 -0.135549 -0.435901 1.000000
0.286960 -0.336377 -0.347808 1.000000
0.286960 -0.446771 -0.131499 1.000000
0.286960 -0.136487 0.432453 1.000000
0.286960 -0.099679 -0.481214 1.000000
0.286960 0.065770 -0.461168 1.000000
0.286960 0.443121 -0.055419 1.000000
0.286960 -0.461127 -0.005311 1.000000
0.286960 -0.013505 0.447422 1.000000
0.286960 0.404001 0.204696 1.000000
0.286960 0.177849 -0.462414 1.000000
0.286960 0.006308 -0.447700 1.000000
0.286960 0.313267 -0.332481 1.000000
0.286960 0.472061 0.024545 1.000000
0.286960 -0.185378 0.404253 1.000000
0.286960 -0.421829 0.200960 1.000000
0.286960 -0.195412 0.425348 1.000000
0.286960 -0.490347 -0.004953 1.000000
0.286960 -0.199260 0.430786 1.000000
0.286960 -0.458866 0.141460 1.000000
0.286960 -0.412796 0.249450 1.000000
0.286960 -0.231803 0.406533 1.000000
0.286960 0.109551 -0.438552 1.000000
0.286960 0.169159 -0.432812 1.000000
0.286960 0.224331 0.389227 1.000000
0.286960 -0.003222 -0.479171 1.000000
0.286960 0.462474 -0.003304 1.000000
0.286960 0.446705 -0.029016 1.000000
0.286960 -0.390525 -0.241986 1.000000
0.286960 0.234256 0.413870 1.000000
0.286960 0.453326 0.191108 1.000000
0.286960 -0.473602 -0.026419 1.000000
0.286960 -0.474786 -0.087888 1.000000
0.286960 0.284916 -0.355507 1.000000
0.286960 0.348352 -0.342877 1.000000
0.286960 0.379165 0.235125 1.000000
0.286960 -0.231566 -0.394221 1.000000
0.286960 -0.410458 -0.281532 1.000000
0.286960 -0.369496 -0.301050 1.000000
0.286960 0.462744 -0.097396 1.000000
0.286960 -0.331756 -0.347284 1.000000
0.286960 0.411947 0.220985 1.000000
0.286960 0.451975 0.066175 1.000000
0.286960 -0.479385 -0.046181 1.000000
0.286960 0.388593 -0.226894 1.000000
0.286960 0.237424 -0.427770 1.000000
0.286960 -0.038891 0.465421 1.000000
0.286960 0.476382 0.092657 1.000000
0.286960 -0.460803 0.172634 1.000000
0.286960 0.465190 0.035615 1.000000
0.286960 0.443885 -0.043880 1.000000
0.286960 0.466942 0.089946 1.000000
0.286960 -0.172632 -0.458962 1.000000
0.286960 -0.135780 -0.475268 1.000000
0.286960 -0.445800 0.076902 1.000000
0.286960 -0.259495 -0.379456 1.000000
0.286960 -0.151660 0.420927 1.000000
0.286960 -0.337517 0.356169 1.000000
0.286960 -0.272204 0.405728 1.000000
0.286960 0.386500 0.235741 1.000000
0.286960 0.340350 -0.341406 1.000000
0.286960 0.257621 -0.394424 1.000000
0.286960 0.354933 -0.352052 1.000000
0.286960 0.491997 0.035661 1.000000
0.286960 -0.329136 0.340060 1.000000
0.286960 0.319706 0.337640 1.000000
0.286960 -0.265672 0.364803 1.000000
0.286960 0.235813 -0.393415 1.000000
0.286960 0.287370 0.402931 1.000000
0.286960 0.232833 0.383840 1.000000
0.286960 0.487679 0.061939 1.000000
0.286960 -0.406074 0.237250 1.000000
0.286960 0.449790 -0.151150 1.000000
0.286960 0.002815 0.457581 1.000000
0.286960 -0.429286 0.226537 1.000000
0.286960 -0.303041 -0.385160 1.000000
0.286960 -0.295790 -0.396685 1.000000
0.286960 -0.191993 0.433854 1.000000
0.286960 -0.333320 -0.350541 1.000000
0.286960 0.114197 0.454906 1.000000
0.286960 0.118266 -0.436011 1.000000
0.286960 -0.085152 -0.473399 1.000000
0.286960 0.063278 0.491773 1.000000
0.286960 0.099795 -0.457053 1.000000
0.286960 -0.299396 -0.383120 1.000000
0.286960 0.257148 -0.374619 1.000000
0.286960 -0.037733 -0.491207 1.000000
0.286960 0.060471 0.476965 1.000000
0.286960 -0.180022 -0.440024 1.000000
0.286960 0.331668 -0.329380 1.000000
0.286960 0.496326 0.003939 1.000000
0.286960 -0.296330 -0.367196 1.000000
0.286960 -0.265659 0.388797 1.000000
0.286960 -0.118889 -0.451491 1.000000
0.286960 0.174691 -0.464231 1.000000
0.286960 0.451255 -0.090451 1.000000
0.286960 -0.259875 0.384851 1.000000
0.286960 -0.449928 -0.137777 1.000000
0.286960 -0.484543 0.026512 1.000000
0.286960 0.432454 -0.198780 1.000000
0.286960 -0.218281 0.386308 1.000000
0.286960 0.150330 -0.434774 1.000000
0.286960 0.186388 -0.432785 1.000000
0.286960 0.358867 -0.317370 1.000000
0.286960 0.478816 0.116264 1.000000
0.286960 -0.257296 -0.400214 1.000000
0.286960 -0.132376 0.452089 1.000000
0.286960 -0.278809 -0.378648 1.000000
0.286960 0.432729 0.217884 1.000000
0.286960 -0.240897 0.397342 1.000000
0.286960 0.238990 -0.416979 1.000000
0.286960 -0.439523 -0.093678 1.000000
0.286960 0.366988 0.278589 1.000000
0.286960 -0.276401 0.398661 1.000000
0.286960 -0.484122 -0.010064 1.000000
0.286960 0.335314 0.299766 1.000000
0.286960 0.102377 0.436664 1.000000
0.286960 -0.273330 -0.376957 1.000000
0.286960 -0.418977 0.206485 1.000000
0.286960 -0.419507 -0.150071 1.000000
0.286960 -0.358355 0.308526 1.000000
0.286960 0.182433 0.432760 1.000000
0.286960 0.359617 -0.344122 1.000000
0.286960 0.408646 0.259653 1.000000
0.286960 -0.087739 0.448763 1.000000
0.286960 -0.374309 0.250678 1.000000
0.286960 -0.408210 -0.186309 1.000000
0.286960 0.230772 -0.408233 1.000000
0.286960 0.236252 -0.405311 1.000000
0.286960 0.034896 0.476907 1.000000
0.286960 0.389215 0.290084 1.000000
0.286960 -0.463388 -0.019996 1.000000
0.286960 0.464117 0.176102 1.000000
0.286960 -0.370630 0.329482 1.000000
0.286960 -0.444960 0.005541 1.000000
0.286960 0.458515 -0.166496 1.000000
0.286960 -0.468992 0.146323 1.000000
0.286960 -0.392165 -0.215564 1.000000
0.286960 0.351478 -0.338138 1.000000
0.286960 0.489190 -0.007354 1.000000
0.286960 -0.173719 -0.432672 1.000000
0.286960 0.200629 0.442767 1.000000
0.286960 0.219191 -0.395493 1.000000
0.286960 -0.299821 0.381172 1.000000
0.286960 -0.268101 0.353354 1.000000
0.286960 -0.090962 -0.487920 1.000000
0.286960 -0.478319 0.114321 1.000000
0.286960 0.324901 -0.357992 1.000000
0.286960 0.282643 -0.393170 1.000000
0.286960 0.468655 0.150222 1.000000
0.286960 0.411860 -0.275530 1.000000
0.286960 0.108631 -0.476359 1.000000
0.286960 0.333578 -0.354770 1.000000
0.286960 0.147786 0.453119 1.000000
0.286960 0.483500 -0.061522 1.000000
0.286960 -0.443802 0.132900 1.000000
0.286960 0.427492 0.126561 1.000000
0.286960 0.328643 -0.312733 1.000000
0.286960 -0.020805 -0.491611 1.000000
0.286960 0.480221 -0.110936 1.000000
0.286960 0.145003 -0.462612 1.000000
0.286960 -0.215035 0.435395 1.000000
0.286960 0.353162 0.275584 1.000000
0.286960 -0.017608 -0.460083 1.000000
0.286960 0.378239 -0.284728 1.000000
0.286960 -0.326079 -0.349044 1.000000
0.286960 -0.492574 -0.035663 1.000000
0.286960 -0.272235 0.364826 1.000000
0.286960 0.219475 -0.425429 1.000000
0.286960 0.379832 -0.251741 1.000000
0.286960 -0.215900 -0.439477 1.000000
0.286960 0.460976 0.168184 1.000000
0.286960 0.335860 0.349125 1.000000
0.286960 0.128376 -0.452992 1.000000
0.286960 -0.460886 0.089542 1.000000
0.286960 0.264024 0.361701 1.000000
0.286960 0.056727 0.455466 1.000000
0.286960 -0.248554 0.374070 1.000000
0.286960 0.457629 0.004707 1.000000
0.286960 0.277729 -0.389277 1.000000
0.286960 0.471405 -0.138403 1.000000
0.286960 0.264776 -0.376661 1.000000
0.286960 -0.042017 0.445468 1.000000
0.286960 0.392816 0.296541 1.000000
0.286960 0.451348 -0.133169 1.000000
0.286960 -0.277004 0.360965 1.000000
0.286960 0.149025 0.424441 1.000000
0.286960 -0.454811 -0.006146 1.000000
0.286960 -0.165929 0.415260 1.000000
0.286960 0.034924 0.481773 1.000000
0.286960 0.297784 -0.337075 1.000000
0.286960 0.010219 0.479278 1.000000
0.286960 -0.132750 0.466252 1.000000
0.286960 -0.032356 -0.485111 1.000000
0.286960 0.136859 -0.449131 1.000000
0.286960 -0.044789 0.470859 1.000000
0.286960 -0.320244 0.347985 1.000000
0.286960 0.491934 -0.082334 1.000000
0.286960 -0.443586 -0.075382 1.000000
0.286960 0.022934 -0.484664 1.000000
0.286960 0.143704 -0.439624 1.000000
0.286960 -0.178405 -0.409890 1.000000
0.286960 0.232721 -0.420263 1.000000
0.286960 -0.029839 0.489454 1.000000
0.286960 -0.271807 0.379859 1.000000
0.286960 -0.440971 -0.167764 1.000000
0.286960 0.461492 -0.046010 1.000000
0.286960 -0.448352 -0.168458 1.000000
0.286960 0.093204 -0.471946 1.000000
0.286960 0.460702 -0.150168 1.000000
0.286960 0.465890 0.009925 1.000000
0.286960 -0.101029 -0.461077 1.000000
0.286960 -0.224214 -0.402778 1.000000
0.286960 0.449173 0.212497 1.000000
0.286960 0.186274 0.406037 1.000000
0.286960 -0.123456 -0.437178 1.000000
0.286960 0.313163 -0.369033 1.000000
0.286960 -0.384783 -0.227353 1.000000
0.286960 0.399461 -0.215182 1.000000
0.286960 -0.185941 -0.439566 1.000000
0.286960 0.320152 -0.368613 1.000000
0.286960 -0.477553 0.018691 1.000000
0.286960 -0.292486 -0.395268 1.000000
0.286960 0.315711 0.375255 1.000000
0.286960 -0.447089 -0.142710 1.000000
0.286960 -0.087169 0.464755 1.000000
0.286960 -0.156408 -0.473926 1.000000
0.286960 -0.206783 -0.409639 1.000000
0.286960 0.423067 -0.171419 1.000000
0.286960 -0.188199 -0.436631 1.000000
0.286960 -0.358065 0.272532 1.000000
0.286960 0.411600 -0.192384 1.000000
0.286960 0.351382 0.278701 1.000000
0.286960 0.400162 -0.297571 1.000000
0.286960 -0.382028 0.264680 1.000000
0.286960 0.383568 0.255723 1.000000
0.286960 0.177266 -0.420617 1.000000
0.286960 0.413185 -0.244880 1.000000
0.286960 0.430125 -0.244055 1.000000
0.286960 0.480448 -0.032017 1.000000
0.286960 -0.413235 0.230414 1.000000
0.286960 0.445548 -0.017638 1.000000
0.286960 -0.072179 0.454820 1.000000
0.286960 0.351439 0.295690 1.000000
0.286960 0.439593 -0.236071 1.000000
0.286960 -0.063447 -0.472705 1.000000
0.286960 -0.447119 0.194919 1.000000
0.286960 0.279012 -0.406332 1.000000
0.286960 -0.448535 -0.045797 1.000000
0.286960 0.273879 -0.372264 1.000000
0.286960 0.391805 -0.256380 1.000000
0.286960 -0.094803 0.441512 1.000000
0.286960 0.230732 0.386473 1.000000
0.286960 0.457729 0.043706 1.000000
0.286960 -0.271257 0.355753 1.000000
0.286960 -0.451632 0.149112 1.000000
0.286960 0.064570 -0.471475 1.000000
0.286960 -0.158816 -0.466906 1.000000
0.286960 -0.241914 -0.433244 1.000000
0.286960 0.416960 0.238992 1.000000
0.286960 -0.347655 -0.330776 1.000000
0.286960 -0.082383 0.488287 1.000000
0.286960 0.244956 -0.398920 1.000000
0.286960 0.133910 0.427529 1.000000
0.286960 -0.431971 0.193852 1.000000
0.286960 -0.473654 0.135670 1.000000
0.286960 0.245342 0.417110 1.000000
0.286960 0.087150 -0.478095 1.000000
0.286960 0.206638 0.414107 1.000000
0.286960 -0.131122 -0.441506 1.000000
0.286960 -0.187190 -0.443165 1.000000
0.286960 0.006763 0.482854 1.000000
0.286960 -0.324923 -0.377825 1.000000
0.286960 -0.457505 0.062999 1.000000
0.286960 0.389863 -0.260151 1.000000
0.286960 0.153604 0.444173 1.000000
0.286960 0.076462 0.484367 1.000000
0.286960 -0.010474 -0.461230 1.000000
0.286960 0.140421 0.461862 1.000000
0.286960 0.221542 -0.389990 1.000000
0.286960 -0.168228 -0.420153 1.000000
0.286960 -0.379640 0.231003 1.000000
0.286960 -0.460114 -0.142336 1.000000
0.286960 -0.410880 0.171124 1.000000
0.286960 0.260627 0.368651 1.000000
0.286960 0.340371 -0.320396 1.000000
0.286960 -0.112205 0.446777 1.000000
0.286960 0.309618 -0.323588 1.000000
0.286960 -0.401715 0.201502 1.000000
0.286960 -0.160585 -0.426675 1.000000
0.286960 0.480522 0.020121 1.000000
0.286960 0.290880 -0.347373 1.000000
0.286960 -0.335554 -0.342644 1.000000
0.286960 0.421862 0.187681 1.000000
0.286960 0.164646 -0.463290 1.000000
0.286960 -0.438199 0.170086 1.000000
0.286960 0.456402 -0.074556 1.000000
0.286960 0.356450 0.267480 1.000000
0.286960 0.029377 0.480093 1.000000
0.286960 0.483906 0.037874 1.000000
0.286960 -0.484955 -0.089097 1.000000
0.286960 -0.347691 0.331531 1.000000
0.286960 0.442267 0.097710 1.000000
0.286960 -0.211776 -0.421077 1.000000
0.286960 0.300172 -0.385117 1.000000
0.286960 0.394425 0.206966 1.000000
0.286960 0.013482 -0.480206 1.000000
0.286960 -0.181390 -0.425260 1.000000
0.286960 -0.406265 0.271540 1.000000
0.286960 -0.055879 -0.462833 1.000000
0.286960 -0.475744 0.116632 1.000000
0.286960 -0.194489 -0.404291 1.000000
0.286960 0.348762 0.281812 1.000000
0.286960 0.446710 -0.076970 1.000000
0.286960 0.341701 -0.300123 1.000000
0.286960 0.122361 0.433152 1.000000
0.286960 -0.400956 0.235615 1.000000
0.286960 0.442199 0.227470 1.000000
0.286960 0.337920 0.326256 1.000000
0.286960 -0.120049 -0.431435 1.000000
0.286960 0.058491 -0.479084 1.000000
0.286960 -0.121594 0.436330 1.000000
0.286960 0.083049 0.465865 1.000000
0.286960 -0.169564 0.438499 1.000000
0.286960 -0.357936 0.300259 1.000000
0.286960 -0.126618 0.461856 1.000000
0.286960 0.464906 0.106001 1.000000
0.286960 0.472204 -0.078747 1.000000
0.286960 0.251546 -0.385709 1.000000
0.286960 -0.367931 -0.336679 1.000000
0.286960 -0.034475 -0.478742 1.000000
0.286960 -0.022835 -0.478263 1.000000
0.286960 -0.392873 0.294760 1.000000
0.286960 0.477242 -0.032943 1.000000
0.286960 -0.434078 -0.116434 1.000000
0.286960 0.452381 0.097469 1.000000
0.286960 0.272809 0.365443 1.000000
0.286960 -0.142493 0.469819 1.000000
0.286960 -0.438295 -0.211853 1.000000
0.286960 0.468789 -0.070131 1.000000
0.286960 0.201593 0.421029 1.000000
0.286960 -0.163547 -0.437072 1.000000
0.286960 0.339888 0.286289 1.000000
0.286960 -0.445055 0.058922 1.000000
0.286960 -0.452576 -0.096382 1.000000
0.286960 -0.035215 0.483380 1.000000
0.286960 0.396647 -0.299266 1.000000
0.286960 0.467011 0.094221 1.000000
0.286960 -0.454871 0.027993 1.000000
0.286960 -0.026675 -0.488839 1.000000
0.286960 0.184480 -0.440096 1.000000
0.286960 -0.313488 -0.365864 1.000000
0.286960 -0.466176 0.061807 1.000000
0.286960 0.073835 0.454883 1.000000
0.286960 0.433816 0.232262 1.000000
0.286960 -0.388133 -0.227309 1.000000
0.286960 -0.327938 0.357454 1.000000
0.286960 0.371513 0.271600 1.000000
0.286960 -0.248664 -0.383189 1.000000
0.286960 -0.465813 0.153999 1.000000
0.286960 0.429600 -0.121128 1.000000
0.286960 0.120169 0.445973 1.000000
0.286960 -0.472329 -0.157410 1.000000
0.286960 0.222829 -0.421829 1.000000
0.286960 -0.262788 -0.381311 1.000000
0.286960 -0.172823 -0.425175 1.000000
0.286960 0.491221 -0.026960 1.000000
0.286960 -0.085438 0.488151 1.000000
0.286960 -0.363403 -0.331476 1.000000
0.286960 0.112225 0.462515 1.000000
0.286960 0.429602 0.210911 1.000000
0.286960 -0.185971 0.454829 1.000000
0.286960 0.314737 -0.317784 1.000000
0.286960 -0.278111 -0.398289 1.000000
0.286960 -0.283921 0.351836 1.000000
0.286960 0.466049 -0.118742 1.000000
0.286960 0.089270 -0.453513 1.000000
0.286960 -0.136109 -0.426314 1.000000
0.286960 0.347421 0.338871 1.000000
0.286960 0.447085 0.189708 1.000000
0.286960 0.423426 0.167732 1.000000
0.286960 0.231260 0.409309 1.000000
0.286960 -0.384730 -0.271787 1.000000
0.286960 0.261153 -0.426280 1.000000
0.286960 0.479346 -0.060402 1.000000
0.286960 -0.206558 0.433882 1.000000
0.286960 0.429146 -0.230431 1.000000
0.286960 0.461702 -0.056814 1.000000
0.286960 0.489712 -0.059665 1.000000
0.286960 -0.041668 0.441890 1.000000
0.286960 0.310880 -0.386051 1.000000
0.286960 0.394166 0.290705 1.000000
0.286960 0.477201 -0.047665 1.000000
0.286960 -0.427884 -0.214892 1.000000
0.286960 -0.308609 0.376767 1.000000
0.286960 -0.442777 -0.155088 1.000000
0.286960 -0.233569 0.379378 1.000000
0.286960 0.275984 -0.353700 1.000000
0.286960 -0.000762 -0.458537 1.000000
0.286960 0.478329 0.067283 1.000000
0.286960 -0.067912 0.438294 1.000000
0.286960 0.249322 -0.374227 1.000000
0.286960 -0.148660 0.467191 1.000000
0.286960 -0.227981 0.432242 1.000000
0.286960 -0.080651 -0.445043 1.000000
0.286960 0.020811 -0.474494 1.000000
0.286960 -0.451227 0.181157 1.000000
0.286960 0.032129 -0.461111 1.000000
0.286960 0.305716 0.376273 1.000000
0.286960 -0.382224 -0.238417 1.000000
0.286960 -0.224790 0.391920 1.000000
0.286960 -0.277855 0.382889 1.000000
0.286960 -0.221907 -0.439070 1.000000
0.286960 0.465829 0.136619 1.000000
0.286960 -0.198477 -0.453665 1.000000
0.286960 -0.491271 0.063329 1.000000
0.286960 -0.168125 0.447376 1.000000
0.286960 0.465027 0.101100 1.000000
0.286960 0.203169 0.436109 1.000000
0.286960 0.211983 -0.394713 1.000000
0.286960 -0.021560 0.481545 1.000000
0.286960 -0.300544 -0.343980 1.000000
0.286960 0.154160 0.464669 1.000000
0.286960 0.418252 0.165335 1.000000
0.286960 0.423671 0.237919 1.000000
0.286960 -0.461220 0.124510 1.000000
0.286960 -0.443715 0.167598 1.000000
0.286960 -0.243585 0.407473 1.000000
0.286960 -0.351159 0.270925 1.000000
0.286960 -0.483186 -0.053710 1.000000
0.286960 -0.126410 -0.439202 1.000000
0.286960 0.316412 0.365560 1.000000
0.286960 -0.215798 0.411465 1.000000
0.286960 0.355810 0.274073 1.000000
0.286960 0.300106 -0.333931 1.000000
0.286960 -0.241891 -0.429577 1.000000
0.286960 -0.264137 -0.416940 1.000000
0.286960 -0.430794 0.133696 1.000000
0.286960 0.366202 -0.273596 1.000000
