0.286960 -0.446677 -0.062922 1.000000
0.286960 0.328516 -0.352883 1.000000
0.286960 0.493232 -0.014432 1.000000
0.286960 -0.121875 -0.445363 1.000000
0.286960 0.329224 -0.372729 1.000000
0.286960 0.493568 -0.010682 1.000000
0.286960 0.143963 0.455268 1.000000
0.286960 -0.445641 -0.093430 1.000000
0.286960 0.258185 0.370142 1.000000
0.286960 0.467769 0.133744 1.000000
0.286960 0.035267 0.460956 1.000000
0.286960 -0.414808 -0.240786 1.000000
0.286960 0.057575 -0.459427 1.000000
0.286960 0.049254 0.477339 1.000000
0.286960 -0.325662 -0.346967 1.000000
0.286960 -0.112416 -0.440349 1.000000
0.286960 0.466398 -0.006360 1.000000
0.286960 0.160591 0.451944 1.000000
0.286960 0.486399 -0.047623 1.000000
0.286960 0.137372 -0.444539 1.000000
0.286960 -0.272384 0.405220 1.000000
0.286960 -0.206297 -0.437496 1.000000
0.286960 0.456354 0.086764 1.000000
0.286960 -0.454473 -0.080501 1.000000
0.286960 0.389852 0.229321 1.000000
0.286960 0.039469 0.493575 1.000000
0.286960 -0.043997 -0.485034 1.000000
0.286960 -0.397178 -0.282735 1.000000
0.286960 -0.274384 -0.397409 1.000000
0.286960 0.221207 -0.445250 1.000000
0.286960 -0.459785 -0.141729 1.000000
0.286960 0.326785 0.355777 1.000000
0.286960 -0.333693 -0.335942 1.000000
0.286960 0.441755 -0.165222 1.000000
0.286960 0.485047 0.032981 1.000000
0.286960 -0.428053 0.143533 1.000000
0.286960 -0.135414 -0.429060 1.000000
0.286960 -0.426686 -0.241110 1.000000
0.286960 0.056950 -0.481619 1.000000
0.286960 0.133180 0.460501 1.000000
0.286960 -0.452039 -0.138663 1.000000
0.286960 0.084081 0.450939 1.000000
0.286960 -0.373485 -0.330877 1.000000
0.286960 -0.473351 0.067848 1.000000
0.286960 0.476556 -0.040672 1.000000
0.286960 0.405466 0.219030 1.000000
0.286960 0.262794 0.406188 1.000000
0.286960 0.400291 0.293303 1.000000
0.286960 -0.477822 -0.019718 1.000000
0.286960 0.467641 0.057777 1.000000
0.286960 0.463573 0.057598 1.000000
0.286960 -0.290723 0.363370 1.000000
0.286960 0.451534 -0.083266 1.000000
0.286960 -0.212142 0.438838 1.000000
0.286960 0.443802 -0.125155 1.000000
0.286960 -0.322733 -0.337226 1.000000
0.286960 -0.368817 0.277787 1.000000
0.286960 -0.392686 -0.282280 1.000000
0.286960 -0.459356 -0.068334 1.000000
0.286960 0.112022 -0.459867 1.000000
0.286960 -0.423045 -0.224103 1.000000
0.286960 0.227187 -0.427260 1.000000
0.286960 -0.378485 -0.239407 1.000000
0.286960 0.425820 0.218267 1.000000
0.286960 0.234194 -0.381342 1.000000
0.286960 0.432935 -0.148443 1.000000
0.286960 0.100732 0.468179 1.000000
0.286960 -0.291390 -0.366126 1.000000
0.286960 -0.417941 0.261014 1.000000
0.286960 0.470543 -0.103606 1.000000
0.286960 0.487948 -0.012291 1.000000
0.286960 -0.221584 -0.397869 1.000000
0.286960 -0.388716 -0.250314 1.000000
0.286960 0.328247 0.343965 1.000000
0.286960 0.461029 -0.020184 1.000000
0.286960 0.342281 -0.336020 1.000000
0.286960 -0.126373 0.475542 1.000000
0.286960 -0.078466 -0.486502 1.000000
0.286960 -0.469714 0.117796 1.000000
0.286960 -0.383073 0.224106 1.000000
0.286960 0.414363 -0.263609 1.000000
0.286960 0.161754 0.419348 1.000000
0.286960 -0.442516 0.127267 1.000000
0.286960 -0.410354 0.199119 1.000000
0.286960 0.342044 0.321603 1.000000
0.286960 -0.218368 -0.442986 1.000000
0.286960 0.102152 -0.444199 1.000000
0.286960 -0.165112 -0.470712 1.000000
0.286960 0.219802 -0.407313 1.000000
0.286960 -0.468838 -0.009665 1.000000
0.286960 0.435198 0.120095 1.000000
0.286960 0.348572 -0.340674 1.000000
0.286960 0.470939 0.053375 1.000000
0.286960 -0.481704 0.013217 1.000000
0.286960 -0.461689 -0.186693 1.000000
0.286960 0.309537 -0.323205 1.000000
0.286960 0.417033 0.229499 1.000000
0.286960 0.321664 -0.325853 1.000000
0.286960 0.464896 0.014625 1.000000
0.286960 0.133734 0.474914 1.000000
0.286960 0.344829 0.346720 1.000000
0.286960 -0.366150 0.314897 1.000000
0.286960 0.456984 0.057770 1.000000
0.286960 -0.495136 -0.045501 1.000000
0.286960 0.417098 -0.239045 1.000000
0.286960 -0.369277 0.316876 1.000000
0.286960 0.206638 0.434137 1.000000
0.286960 0.393263 0.222342 1.000000
0.286960 -0.459719 0.020226 1.000000
0.286960 0.423658 -0.144629 1.000000
0.286960 0.484810 -0.115768 1.000000
0.286960 0.201668 -0.427863 1.000000
0.286960 -0.445554 -0.006139 1.000000
0.286960 0.247240 -0.412771 1.000000
0.286960 0.275005 -0.404106 1.000000
0.286960 -0.440783 -0.073847 1.000000
0.286960 0.186561 0.402853 1.000000
0.286960 -0.239014 0.390231 1.000000
0.286960 -0.054385 0.491970 1.000000
0.286960 -0.362301 0.332500 1.000000
0.286960 -0.290535 -0.382351 1.000000
0.286960 -0.352838 -0.321901 1.000000
0.286960 0.227059 0.396679 1.000000
0.286960 -0.467014 -0.173065 1.000000
0.286960 -0.174983 0.440209 1.000000
0.286960 0.099202 0.478067 1.000000
0.286960 0.441601 -0.181312 1.000000
0.286960 0.137820 0.450621 1.000000
0.286960 -0.317611 -0.339559 1.000000
0.286960 -0.037966 -0.451071 1.000000
0.286960 0.398394 -0.265180 1.000000
0.286960 0.206854 0.397341 1.000000
0.286960 -0.403179 0.239570 1.000000
0.286960 0.432450 0.141864 1.000000
0.286960 0.479820 0.131514 1.000000
0.286960 0.454533 -0.158330 1.000000
0.286960 -0.442955 -0.048446 1.000000
0.286960 0.143620 0.440234 1.000000
0.286960 0.286113 -0.359860 1.000000
0.286960 -0.391185 0.224974 1.000000
0.286960 -0.121276 0.439497 1.000000
0.286960 -0.411974 -0.219545 1.000000
0.286960 -0.265433 0.409438 1.000000
0.286960 0.115601 0.470162 1.000000
0.286960 0.473857 -0.144881 1.000000
0.286960 -0.046443 -0.482389 1.000000
0.286960 0.288448 0.355138 1.000000
0.286960 -0.433907 -0.101054 1.000000
0.286960 0.183003 0.457739 1.000000
0.286960 -0.394356 0.277663 1.000000
0.286960 0.148648 0.419203 1.000000
0.286960 0.029248 0.493774 1.000000
0.286960 0.444467 -0.097128 1.000000
0.286960 0.417234 -0.181775 1.000000
0.286960 -0.185148 -0.440265 1.000000
0.286960 -0.296543 -0.367342 1.000000
0.286960 -0.483548 0.112599 1.000000
0.286960 0.239931 0.379985 1.000000
0.286960 0.449050 0.029511 1.000000
0.286960 0.286739 -0.405112 1.000000
0.286960 -0.466550 0.023460 1.000000
0.286960 0.307710 0.372753 1.000000
0.286960 0.394927 0.216776 1.000000
0.286960 0.226313 -0.436318 1.000000
0.286960 -0.105992 0.464337 1.000000
0.286960 -0.259741 -0.417918 1.000000
0.286960 -0.422287 -0.245367 1.000000
0.286960 -0.133446 -0.443346 1.000000
0.286960 -0.198199 -0.402233 1.000000
0.286960 0.140382 -0.434795 1.000000
0.286960 -0.071758 -0.472170 1.000000
0.286960 -0.478613 -0.002870 1.000000
0.286960 -0.182760 -0.412684 1.000000
0.286960 -0.294645 -0.373725 1.000000
0.286960 0.389126 -0.268701 1.000000
0.286960 -0.235349 -0.427962 1.000000
0.286960 0.488300 0.096503 1.000000
0.286960 -0.466359 -0.041410 1.000000
0.286960 -0.388340 0.288107 1.000000
0.286960 0.411086 -0.175800 1.000000
0.286960 -0.198483 -0.429239 1.000000
0.286960 -0.385585 -0.247716 1.000000
0.286960 -0.206342 -0.415868 1.000000
0.286960 0.449861 0.127505 1.000000
0.286960 0.439047 -0.081704 1.000000
0.286960 0.181051 -0.440005 1.000000
0.286960 0.417221 0.211221 1.000000
0.286960 -0.233678 0.393986 1.000000
0.286960 0.303234 0.345662 1.000000
0.286960 0.475699 0.130017 1.000000
0.286960 -0.460006 -0.163367 1.000000
0.286960 -0.264376 0.390186 1.000000
0.286960 -0.432853 0.223713 1.000000
0.286960 0.437517 0.182561 1.000000
0.286960 0.478874 -0.053077 1.000000
0.286960 0.354906 -0.331386 1.000000
0.286960 -0.417627 -0.207909 1.000000
0.286960 -0.071440 0.482840 1.000000
0.286960 0.320829 -0.364885 1.000000
0.286960 0.436219 -0.211571 1.000000
0.286960 0.030771 0.449505 1.000000
0.286960 -0.397704 0.197341 1.000000
0.286960 0.056125 0.456381 1.000000
0.286960 0.447454 0.129579 1.000000
0.286960 0.253329 0.409930 1.000000
0.286960 -0.433074 -0.150535 1.000000
0.286960 0.414514 0.260736 1.000000
0.286960 0.001697 -0.483525 1.000000
0.286960 0.336618 0.334807 1.000000
0.286960 0.417256 -0.216321 1.000000
0.286960 -0.079524 -0.445262 1.000000
0.286960 -0.405466 -0.232382 1.000000
0.286960 0.301818 0.331631 1.000000
0.286960 -0.453727 -0.056073 1.000000
0.286960 -0.115387 -0.475385 1.000000
0.286960 0.024292 -0.446931 1.000000
0.286960 -0.454126 0.144410 1.000000
0.286960 -0.213703 -0.451117 1.000000
0.286960 0.156185 0.454025 1.000000
0.286960 -0.085233 -0.472069 1.000000
0.286960 0.455345 0.199676 1.000000
0.286960 0.464327 -0.067356 1.000000
0.286960 -0.462073 0.176083 1.000000
0.286960 0.430781 -0.177335 1.000000
0.286960 -0.467851 0.039982 1.000000
0.286960 -0.195029 -0.420697 1.000000
0.286960 -0.024244 -0.447308 1.000000
0.286960 -0.472070 0.135678 1.000000
0.286960 0.089454 0.461174 1.000000
0.286960 0.462050 0.146642 1.000000
0.286960 -0.463494 -0.074213 1.000000
0.286960 -0.136930 0.433644 1.000000
0.286960 -0.318986 -0.321992 1.000000
0.286960 -0.237808 -0.398704 1.000000
0.286960 0.304275 0.392322 1.000000
0.286960 0.372058 -0.326637 1.000000
0.286960 -0.118484 -0.437451 1.000000
0.286960 -0.427177 -0.171158 1.000000
0.286960 -0.316732 -0.371946 1.000000
0.286960 -0.471482 0.002220 1.000000
0.286960 -0.361361 0.318990 1.000000
0.286960 0.464174 0.128421 1.000000
0.286960 -0.006661 0.460104 1.000000
0.286960 0.163805 0.446744 1.000000
0.286960 0.236450 -0.393813 1.000000
0.286960 0.167991 0.458795 1.000000
0.286960 -0.168425 0.425363 1.000000
0.286960 0.283827 -0.393442 1.000000
0.286960 -0.483835 -0.008496 1.000000
0.286960 -0.315723 -0.351935 1.000000
0.286960 -0.406004 0.285387 1.000000
0.286960 -0.394364 -0.230065 1.000000
0.286960 -0.223566 0.441421 1.000000
0.286960 -0.276495 0.406487 1.000000
0.286960 0.060215 0.490639 1.000000
0.286960 0.385823 0.242854 1.000000
0.286960 0.289520 0.373505 1.000000
0.286960 -0.320365 -0.354761 1.000000
0.286960 0.261180 0.377831 1.000000
0.286960 -0.466339 -0.022693 1.000000
0.286960 -0.085140 0.473883 1.000000
0.286960 -0.439361 0.180886 1.000000
0.286960 -0.142384 0.430534 1.000000
0.286960 0.224352 -0.446513 1.000000
0.286960 0.407911 0.257743 1.000000
0.286960 -0.459344 -0.104980 1.000000
0.286960 0.202921 0.442778 1.000000
0.286960 0.264216 0.379747 1.000000
0.286960 -0.210672 -0.427558 1.000000
0.286960 -0.454915 0.093546 1.000000
0.286960 0.280469 -0.386229 1.000000
0.286960 -0.057133 -0.465520 1.000000
0.286960 -0.299639 0.347704 1.000000
0.286960 -0.473705 -0.117993 1.000000
0.286960 0.267899 0.390467 1.000000
0.286960 -0.132589 -0.467185 1.000000
0.286960 -0.440112 0.152362 1.000000
0.286960 0.370044 -0.282259 1.000000
0.286960 0.157661 -0.460392 1.000000
0.286960 -0.091915 0.486118 1.000000
0.286960 -0.285153 0.381108 1.000000
0.286960 0.116052 -0.438846 1.000000
0.286960 -0.346710 0.279333 1.000000
0.286960 -0.442857 0.052071 1.000000
0.286960 0.411840 -0.224442 1.000000
0.286960 0.385358 -0.269661 1.000000
0.286960 -0.420390 -0.268250 1.000000
0.286960 -0.453424 -0.123750 1.000000
0.286960 -0.284476 0.357951 1.000000
0.286960 0.164996 -0.417948 1.000000
0.286960 -0.237321 -0.402941 1.000000
0.286960 -0.337247 0.309651 1.000000
0.286960 -0.171877 -0.446684 1.000000
0.286960 0.022430 -0.460117 1.000000
0.286960 -0.172587 -0.437703 1.000000
0.286960 0.443720 0.143933 1.000000
0.286960 -0.376756 -0.297427 1.000000
0.286960 -0.421755 0.202148 1.000000
0.286960 -0.306257 0.345844 1.000000
0.286960 0.038881 0.459537 1.000000
0.286960 0.296313 0.397098 1.000000
0.286960 0.105266 -0.473463 1.000000
0.286960 -0.165206 0.436309 1.000000
0.286960 0.228328 -0.410859 1.000000
0.286960 0.448546 -0.103910 1.000000
0.286960 0.169752 -0.451235 1.000000
0.286960 -0.004324 0.474065 1.000000
0.286960 0.407895 0.199370 1.000000
0.286960 -0.478601 0.035410 1.000000
0.286960 -0.415161 0.211884 1.000000
0.286960 -0.088708 0.487522 1.000000
0.286960 0.129956 0.458375 1.000000
0.286960 0.454162 0.177897 1.000000
0.286960 -0.441046 -0.189006 1.000000
0.286960 -0.224395 0.414655 1.000000
0.286960 -0.387361 0.265687 1.000000
0.286960 -0.212546 0.403123 1.000000
0.286960 -0.303209 0.323904 1.000000
0.286960 -0.099308 0.467569 1.000000
0.286960 0.285524 0.357566 1.000000
0.286960 0.444950 0.152835 1.000000
0.286960 0.057225 0.459398 1.000000
0.286960 0.442951 0.107420 1.000000
0.286960 0.274371 0.381758 1.000000
0.286960 -0.383401 0.273324 1.000000
0.286960 0.454209 0.033739 1.000000
0.286960 -0.251088 0.388955 1.000000
0.286960 -0.473989 -0.019049 1.000000
0.286960 -0.260113 0.390742 1.000000
0.286960 -0.093777 -0.443040 1.000000
0.286960 0.249757 -0.419237 1.000000
0.286960 -0.399177 0.206538 1.000000
0.286960 -0.264863 -0.360317 1.000000
0.286960 0.052123 0.478776 1.000000
0.286960 0.211572 -0.402361 1.000000
0.286960 0.172141 -0.425264 1.000000
0.286960 0.107937 -0.453160 1.000000
0.286960 0.439453 -0.201771 1.000000
0.286960 -0.121000 0.430936 1.000000
0.286960 -0.415629 0.266939 1.000000
0.286960 0.449579 0.060906 1.000000
0.286960 0.462542 0.141767 1.000000
0.286960 -0.151053 -0.457071 1.000000
0.286960 0.212472 0.400597 1.000000
0.286960 0.290253 -0.385637 1.000000
0.286960 -0.182337 -0.420092 1.000000
0.286960 -0.184223 -0.434411 1.000000
0.286960 0.392137 0.292741 1.000000
0.286960 -0.055243 -0.483767 1.000000
0.286960 -0.234155 0.376533 1.000000
0.286960 0.318583 -0.379363 1.000000
0.286960 0.157731 0.442628 1.000000
0.286960 0.471900 -0.160565 1.000000
0.286960 -0.438031 0.200400 1.000000
0.286960 -0.082077 -0.484796 1.000000
0.286960 0.440237 -0.103484 1.000000
0.286960 0.026381 -0.484134 1.000000
0.286960 0.197376 0.455003 1.000000
0.286960 -0.258148 0.409678 1.000000
0.286960 -0.466295 -0.158640 1.000000
0.286960 0.384356 -0.309332 1.000000
0.286960 -0.397767 0.276686 1.000000
0.286960 0.166738 -0.440129 1.000000
0.286960 0.194134 0.402820 1.000000
0.286960 -0.277414 -0.351733 1.000000
0.286960 0.227526 -0.443326 1.000000
0.286960 -0.050933 -0.445856 1.000000
0.286960 0.448153 -0.099983 1.000000
0.286960 0.230583 -0.435990 1.000000
0.286960 0.397109 -0.302059 1.000000
0.286960 -0.005236 -0.496004 1.000000
0.286960 -0.191162 -0.420107 1.000000
0.286960 0.130098 0.473942 1.000000
0.286960 -0.369051 0.257544 1.000000
0.286960 -0.009684 0.453287 1.000000
0.286960 -0.116205 -0.485506 1.000000
0.286960 -0.470421 0.011276 1.000000
0.286960 -0.351485 -0.326655 1.000000
0.286960 -0.301929 -0.383891 1.000000
0.286960 0.404823 0.184653 1.000000
0.286960 0.075172 -0.469374 1.000000
0.286960 -0.118927 -0.442656 1.000000
0.286960 0.062162 -0.447380 1.000000
0.286960 -0.381609 0.310705 1.000000
0.286960 -0.298945 0.358800 1.000000
0.286960 -0.474435 0.074626 1.000000
0.286960 0.098355 0.443912 1.000000
0.286960 0.349510 -0.306855 1.000000
0.286960 0.446154 0.191743 1.000000
0.286960 -0.275115 -0.389150 1.000000
0.286960 0.474145 0.047415 1.000000
0.286960 0.456393 0.110410 1.000000
0.286960 0.055278 -0.452436 1.000000
0.286960 -0.026843 0.459182 1.000000
0.286960 0.163843 0.450279 1.000000
0.286960 -0.444606 0.022425 1.000000
0.286960 -0.152822 -0.443195 1.000000
0.286960 -0.170180 -0.427892 1.000000
0.286960 0.156975 -0.425336 1.000000
0.286960 0.115172 -0.485735 1.000000
0.286960 0.442355 -0.168526 1.000000
0.286960 -0.475356 -0.004039 1.000000
0.286960 -0.335984 0.304095 1.000000
0.286960 0.439284 0.093253 1.000000
0.286960 -0.087579 0.461767 1.000000
0.286960 -0.307611 -0.343219 1.000000
0.286960 -0.306234 -0.368677 1.000000
0.286960 -0.394395 0.213082 1.000000
0.286960 0.205023 -0.411800 1.000000
0.286960 -0.199589 0.417285 1.000000
0.286960 -0.123112 0.473095 1.000000
0.286960 0.384220 0.237094 1.000000
0.286960 0.195658 -0.429472 1.000000
0.286960 0.425408 0.169921 1.000000
0.286960 0.466505 -0.125746 1.000000
0.286960 -0.405540 0.204232 1.000000
0.286960 -0.361425 -0.343535 1.000000
0.286960 0.288769 0.379241 1.000000
0.286960 -0.415730 0.227118 1.000000
0.286960 0.490590 0.024899 1.000000
0.286960 0.195745 0.434772 1.000000
0.286960 0.445392 -0.181870 1.000000
0.286960 0.084651 0.479720 1.000000
0.286960 -0.449777 -0.103395 1.000000
0.286960 -0.174260 -0.451387 1.000000
0.286960 -0.459928 0.152425 1.000000
0.286960 -0.366288 0.306383 1.000000
0.286960 0.453732 -0.077946 1.000000
0.286960 0.349323 -0.303474 1.000000
0.286960 -0.284555 -0.409769 1.000000
0.286960 0.366975 0.261879 1.000000
0.286960 0.432262 0.234268 1.000000
0.286960 -0.458032 0.009120 1.000000
0.286960 0.451195 -0.036909 1.000000
0.286960 0.319207 -0.336717 1.000000
0.286960 0.195401 0.427312 1.000000
0.286960 -0.111031 0.478164 1.000000
0.286960 -0.231664 0.427172 1.000000
0.286960 -0.287286 -0.348732 1.000000
0.286960 -0.472136 -0.025942 1.000000
0.286960 0.313508 -0.345070 1.000000
0.286960 -0.069966 -0.474937 1.000000
0.286960 -0.082414 -0.454048 1.000000
0.286960 -0.406075 0.235163 1.000000
0.286960 0.400847 -0.275418 1.000000
0.286960 0.236302 -0.428860 1.000000
0.286960 -0.428337 0.233863 1.000000
0.286960 -0.455497 0.155672 1.000000
0.286960 0.078910 -0.448741 1.000000
0.286960 0.056935 0.466959 1.000000
0.286960 0.383151 0.244727 1.000000
0.286960 -0.115768 0.478698 1.000000
0.286960 -0.427541 -0.192592 1.000000
0.286960 -0.462041 -0.091730 1.000000
0.286960 -0.119277 -0.470695 1.000000
0.286960 -0.267848 0.389337 1.000000
0.286960 0.220486 0.386636 1.000000
0.286960 0.490244 -0.051686 1.000000
0.286960 -0.125656 -0.441617 1.000000
0.286960 0.134638 -0.440715 1.000000
0.286960 -0.124747 -0.449062 1.000000
0.286960 -0.306815 0.384864 1.000000
0.286960 -0.378330 0.236460 1.000000
0.286960 0.439046 0.077511 1.000000
0.286960 0.043516 0.475195 1.000000
0.286960 -0.085904 0.466203 1.000000
0.286960 -0.467399 0.071368 1.000000
0.286960 -0.404320 -0.219623 1.000000
0.286960 -0.413565 0.270890 1.000000
0.286960 0.204736 0.405339 1.000000
0.286960 0.457914 0.175706 1.000000
0.286960 -0.029065 -0.493984 1.000000
0.286960 0.082019 0.466962 1.000000
0.286960 -0.476983 -0.103608 1.000000
0.286960 0.161805 -0.425861 1.000000
0.286960 -0.084355 -0.449612 1.000000
0.286960 0.268468 -0.366153 1.000000
0.286960 -0.059599 0.486441 1.000000
0.286960 0.096323 -0.478142 1.000000
0.286960 0.308509 -0.356863 1.000000
0.286960 -0.125568 -0.469412 1.000000
0.286960 0.215158 0.418716 1.000000
0.286960 -0.030342 -0.472502 1.000000
0.286960 -0.346273 0.353302 1.000000
0.286960 0.472575 -0.023892 1.000000
0.286960 -0.207065 -0.408032 1.000000
0.286960 -0.231830 0.420515 1.000000
0.286960 -0.202700 -0.408742 1.000000
0.286960 -0.007308 0.463740 1.000000
0.286960 0.475633 0.071220 1.000000
0.286960 0.276610 0.370730 1.000000
0.286960 -0.485278 -0.082837 1.000000
0.286960 -0.187524 0.448563 1.000000
0.286960 0.373468 -0.283890 1.000000
0.286960 0.292479 0.374700 1.000000
0.286960 -0.193873 -0.454104 1.000000
0.286960 0.399309 0.261022 1.000000
0.286960 0.476606 -0.029986 1.000000
0.286960 0.473770 -0.156374 1.000000
0.286960 0.430577 -0.214876 1.000000
0.286960 -0.442271 0.190087 1.000000
0.286960 -0.418784 0.265646 1.000000
0.286960 0.418952 0.244564 1.000000
0.286960 -0.188447 0.454533 1.000000
0.286960 -0.423799 0.251700 1.000000
0.286960 0.189114 0.424558 1.000000
0.286960 -0.336638 -0.301521 1.000000
0.286960 0.440646 -0.143231 1.000000
0.286960 -0.378228 -0.300866 1.000000
0.286960 0.465804 -0.166684 1.000000
0.286960 -0.117657 0.454611 1.000000
0.286960 0.454194 -0.043618 1.000000
0.286960 0.000061 0.472257 1.000000
0.286960 -0.206524 -0.419088 1.000000
0.286960 0.101386 -0.448971 1.000000
0.286960 -0.359746 0.328712 1.000000
0.286960 0.008538 0.464348 1.000000
0.286960 -0.191989 -0.414428 1.000000
0.286960 0.447542 -0.083535 1.000000
0.286960 0.480955 0.125781 1.000000
0.286960 0.256903 0.423943 1.000000
0.286960 0.059864 0.469627 1.000000
0.286960 -0.345244 -0.288686 1.000000
0.286960 0.076801 -0.483747 1.000000
0.286960 -0.064992 -0.449087 1.000000
0.286960 0.228217 0.421698 1.000000
0.286960 -0.447486 -0.140331 1.000000
0.286960 0.051775 -0.487749 1.000000
0.286960 0.372597 0.320564 1.000000
0.286960 0.020126 -0.491835 1.000000
0.286960 -0.340262 -0.302600 1.000000
0.286960 0.427471 0.177871 1.000000
0.286960 -0.443891 0.039057 1.000000
0.286960 0.453485 0.196434 1.000000
0.286960 -0.135512 0.461151 1.000000
0.286960 0.049001 0.488171 1.000000
0.286960 -0.486247 -0.016836 1.000000
0.286960 0.129629 -0.455849 1.000000
0.286960 0.062226 0.481199 1.000000
0.286960 -0.200519 0.452704 1.000000
0.286960 0.376613 -0.317601 1.000000
0.286960 0.486050 0.081210 1.000000
0.286960 -0.182905 0.450389 1.000000
0.286960 0.471249 -0.063211 1.000000
0.286960 0.459260 -0.083130 1.000000
0.286960 0.212427 0.394161 1.000000
0.286960 -0.443309 -0.040572 1.000000
0.286960 -0.434199 0.170191 1.000000
0.286960 -0.015306 -0.483396 1.000000
0.286960 -0.303927 -0.333693 1.000000
0.286960 -0.179331 -0.445494 1.000000
0.286960 -0.430816 0.165684 1.000000
0.286960 0.320091 0.311354 1.000000
0.286960 0.323579 -0.354723 1.000000
0.286960 -0.185836 0.439647 1.000000
0.286960 -0.344103 -0.350229 1.000000
0.286960 -0.452523 0.198252 1.000000
0.286960 0.026721 -0.474699 1.000000
0.286960 0.491566 0.036680 1.000000
0.286960 -0.366233 0.332590 1.000000
0.286960 0.474012 0.004100 1.000000
0.286960 -0.451627 -0.073767 1.000000
0.286960 0.386686 0.298564 1.000000
0.286960 -0.233130 -0.391848 1.000000
0.286960 -0.393081 -0.240566 1.000000
0.286960 0.101170 0.481270 1.000000
0.286960 0.437973 0.214223 1.000000
0.286960 0.359395 0.318761 1.000000
0.286960 -0.297239 0.383807 1.000000
0.286960 -0.378556 0.252271 1.000000
0.286960 -0.016366 -0.468285 1.000000
0.286960 -0.288893 -0.358123 1.000000
0.286960 -0.108187 0.480014 1.000000
0.286960 0.308190 -0.370857 1.000000
0.286960 -0.416174 -0.229350 1.000000
0.286960 0.394449 0.257263 1.000000
0.286960 -0.426450 -0.222263 1.000000
0.286960 0.426550 0.186389 1.000000
0.286960 -0.251055 0.404055 1.000000
0.286960 -0.238930 -0.386317 1.000000
0.286960 -0.242464 0.376621 1.000000
0.286960 0.394576 -0.285801 1.000000
0.286960 0.470294 0.076517 1.000000
0.286960 0.416075 0.201602 1.000000
0.286960 0.302658 -0.357221 1.000000
0.286960 -0.304551 -0.365789 1.000000
0.286960 0.267740 0.410390 1.000000
0.286960 0.319851 -0.368992 1.000000
0.286960 0.383072 0.316112 1.000000
0.286960 -0.190562 0.409150 1.000000
0.286960 -0.385611 0.240486 1.000000
0.286960 -0.348810 -0.345131 1.000000
0.286960 0.129578 -0.478305 1.000000
0.286960 0.366526 0.281923 1.000000
0.286960 -0.390917 -0.260549 1.000000
0.286960 0.485852 -0.079545 1.000000
0.286960 0.466863 0.011494 1.000000
0.286960 -0.060538 -0.449911 1.000000
0.286960 0.076754 0.451610 1.000000
0.286960 -0.385614 0.244297 1.000000
0.286960 -0.427507 -0.141105 1.000000
0.286960 -0.365361 0.271083 1.000000
0.286960 -0.193603 -0.417819 1.000000
0.286960 -0.200233 0.397018 1.000000
0.286960 0.413204 0.182944 1.000000
0.286960 -0.062181 0.451028 1.000000
0.286960 -0.075245 0.446409 1.000000
0.286960 0.433944 -0.225869 1.000000
0.286960 0.406944 -0.208255 1.000000
0.286960 -0.305858 -0.379294 1.000000
0.286960 -0.425329 0.141760 1.000000
0.286960 0.400686 -0.244311 1.000000
0.286960 -0.353419 0.342406 1.000000
0.286960 -0.287683 0.391802 1.000000
0.286960 0.459166 -0.135804 1.000000
0.286960 0.264183 -0.376955 1.000000
0.286960 0.457024 0.114699 1.000000
0.286960 0.426096 -0.252574 1.000000
0.286960 0.394809 0.210965 1.000000
0.286960 -0.471082 0.152408 1.000000
0.286960 0.490007 -0.083003 1.000000
0.286960 0.196517 0.441815 1.000000
0.286960 0.128332 -0.434179 1.000000
0.286960 -0.025806 -0.494163 1.000000
0.286960 -0.139401 0.474909 1.000000
0.286960 0.321149 0.357354 1.000000
0.286960 -0.129323 -0.459891 1.000000
0.286960 -0.206714 -0.449249 1.000000
0.286960 -0.440781 0.062474 1.000000
0.286960 -0.445013 -0.154744 1.000000
0.286960 -0.349820 -0.278034 1.000000
0.286960 0.235543 -0.440629 1.000000
0.286960 -0.000893 -0.465344 1.000000
0.286960 0.088867 0.470174 1.000000
0.286960 0.418128 -0.251578 1.000000
0.286960 -0.475424 -0.138116 1.000000
0.286960 -0.277160 0.389610 1.000000
0.286960 -0.426047 -0.161850 1.000000
0.286960 -0.036269 0.486457 1.000000
0.286960 0.324555 -0.332736 1.000000
0.286960 -0.076492 0.455569 1.000000
0.286960 0.230667 -0.443121 1.000000
0.286960 0.319138 0.369833 1.000000
0.286960 -0.320844 0.321959 1.000000
0.286960 -0.145507 0.450346 1.000000
0.286960 0.013649 0.460009 1.000000
0.286960 0.069232 0.454353 1.000000
0.286960 -0.398370 0.212016 1.000000
0.286960 -0.115475 0.475429 1.000000
0.286960 -0.062989 0.477560 1.000000
0.286960 0.070279 -0.485199 1.000000
0.286960 -0.457796 0.141222 1.000000
0.286960 0.273643 0.377905 1.000000
0.286960 0.466967 -0.121063 1.000000
0.286960 0.266603 -0.379409 1.000000
0.286960 0.495377 -0.051755 1.000000
0.286960 0.290939 0.402259 1.000000
0.286960 -0.197091 -0.416650 1.000000
0.286960 0.090342 0.480093 1.000000
0.286960 -0.474802 -0.060658 1.000000
0.286960 0.039711 0.441899 1.000000
0.286960 -0.496223 0.007621 1.000000
0.286960 0.451082 -0.097266 1.000000
0.286960 0.403118 -0.260776 1.000000
0.286960 0.493640 0.048337 1.000000
0.286960 -0.386019 0.250446 1.000000
0.286960 0.124774 -0.481290 1.000000
0.286960 0.177515 0.441368 1.000000
0.286960 0.397193 -0.295380 1.000000
0.286960 0.493011 0.010761 1.000000
0.286960 0.155236 0.436095 1.000000
0.286960 -0.464099 0.063679 1.000000
0.286960 0.319869 -0.350764 1.000000
0.286960 0.394031 -0.210706 1.000000
0.286960 0.415407 -0.186696 1.000000
0.286960 0.442796 0.194533 1.000000
0.286960 -0.299800 -0.351283 1.000000
0.286960 -0.452091 0.034317 1.000000
0.286960 -0.198982 -0.410066 1.000000
0.286960 0.315345 -0.348853 1.000000
0.286960 -0.466571 -0.065151 1.000000
0.286960 0.419715 -0.266733 1.000000
0.286960 0.333227 -0.348744 1.000000
0.286960 0.368427 0.291659 1.000000
0.286960 0.484825 -0.044432 1.000000
0.286960 -0.040316 0.493440 1.000000
0.286960 0.381624 0.234505 1.000000
0.286960 0.176410 -0.435930 1.000000
0.286960 0.052335 0.457628 1.000000
0.286960 0.396397 -0.270626 1.000000
0.286960 -0.285894 0.339908 1.000000
0.286960 0.333461 -0.329315 1.000000
0.286960 -0.465455 0.077960 1.000000
0.286960 0.310401 0.377773 1.000000
0.286960 0.419191 -0.245531 1.000000
0.286960 0.025977 -0.491331 1.000000
0.286960 -0.254927 -0.375258 1.000000
0.286960 -0.234440 0.402344 1.000000
0.286960 0.211394 -0.446316 1.000000
0.286960 0.196791 -0.442106 1.000000
0.286960 0.065559 -0.444388 1.000000
0.286960 -0.372974 0.320195 1.000000
0.286960 0.000191 0.455676 1.000000
0.286960 -0.385452 -0.231166 1.000000
0.286960 -0.472482 0.054889 1.000000
0.286960 0.438225 -0.187214 1.000000
0.286960 -0.413902 0.219983 1.000000
0.286960 -0.263930 -0.399177 1.000000
0.286960 -0.367817 -0.328490 1.000000
0.286960 0.163502 -0.438982 1.000000
0.286960 -0.021632 0.447650 1.000000
0.286960 0.291563 -0.352661 1.000000
0.286960 0.465034 0.030480 1.000000
0.286960 0.236874 -0.398275 1.000000
0.286960 0.421286 0.178558 1.000000
0.286960 -0.331195 0.334991 1.000000
0.286960 -0.446723 -0.189425 1.000000
0.286960 0.405223 -0.291260 1.000000
0.286960 0.055780 0.473076 1.000000
0.286960 -0.456651 -0.049225 1.000000
0.286960 0.465779 -0.099355 1.000000
0.286960 0.036077 -0.473210 1.000000
0.286960 -0.250386 -0.382290 1.000000
0.286960 0.363402 0.312647 1.000000
0.286960 0.251838 0.399023 1.000000
0.286960 -0.311554 0.318253 1.000000
0.286960 -0.033507 -0.470703 1.000000
0.286960 0.479994 -0.113499 1.000000
0.286960 0.052367 0.440422 1.000000
0.286960 -0.470244 -0.127539 1.000000
0.286960 -0.145187 -0.471202 1.000000
0.286960 0.425130 0.247056 1.000000
0.286960 0.468272 -0.130387 1.000000
0.286960 -0.148549 0.419430 1.000000
0.286960 -0.363323 0.277959 1.000000
0.286960 -0.105551 -0.488113 1.000000
0.286960 -0.048950 0.479965 1.000000
0.286960 -0.492220 -0.026520 1.000000
0.286960 -0.276741 -0.394874 1.000000
0.286960 0.089778 0.449217 1.000000
0.286960 0.451800 -0.138268 1.000000
0.286960 0.276319 0.386266 1.000000
0.286960 -0.487049 0.093072 1.000000
0.286960 -0.187827 -0.407397 1.000000
0.286960 -0.166549 -0.437422 1.000000
0.286960 0.364445 -0.277444 1.000000
0.286960 -0.443101 0.177392 1.000000
0.286960 -0.435449 -0.093951 1.000000
0.286960 0.071156 -0.490495 1.000000
0.286960 0.464014 -0.152017 1.000000
0.286960 0.412152 0.218213 1.000000
0.286960 0.378328 -0.246945 1.000000
0.286960 0.474446 0.108678 1.000000
0.286960 -0.087966 -0.465604 1.000000
0.286960 0.489125 0.093389 1.000000
0.286960 -0.299963 0.370037 1.000000
0.286960 0.443377 -0.186522 1.000000
0.286960 0.307722 0.339630 1.000000
0.286960 -0.442738 -0.105719 1.000000
0.286960 -0.262868 -0.421672 1.000000
0.286960 -0.461441 0.172216 1.000000
0.286960 0.485475 0.092548 1.000000
0.286960 -0.442245 -0.226378 1.000000
0.286960 -0.019240 -0.455327 1.000000
0.286960 -0.169258 0.439017 1.000000
0.286960 0.386139 -0.286238 1.000000
0.286960 0.234105 -0.408121 1.000000
0.286960 0.287516 0.376087 1.000000
0.286960 -0.215817 0.407997 1.000000
0.286960 0.181582 -0.460705 1.000000
0.286960 0.261435 0.392863 1.000000
0.286960 0.054397 0.469615 1.000000
0.286960 -0.452470 0.077461 1.000000
0.286960 0.160919 0.440433 1.000000
0.286960 -0.445521 -0.010199 1.000000
0.286960 -0.026830 -0.473472 1.000000
0.286960 0.374741 0.262861 1.000000
0.286960 0.166479 0.419859 1.000000
0.286960 -0.161722 0.419103 1.000000
0.286960 0.336823 0.319971 1.000000
0.286960 0.492195 0.073606 1.000000
0.286960 0.207707 0.447615 1.000000
0.286960 0.027158 0.450681 1.000000
0.286960 -0.445521 -0.017091 1.000000
0.286960 0.197817 -0.436652 1.000000
0.286960 0.133777 -0.444102 1.000000
0.286960 0.384186 0.300282 1.000000
0.286960 0.053735 -0.480326 1.000000
0.286960 -0.275728 -0.368759 1.000000
0.286960 -0.076909 0.485182 1.000000
0.286960 0.491580 -0.026434 1.000000
0.286960 -0.460584 -0.088097 1.000000
0.286960 -0.064044 0.454044 1.000000
0.286960 -0.440536 0.131778 1.000000
0.286960 -0.422566 -0.177424 1.000000
0.286960 -0.221481 -0.446868 1.000000
0.286960 0.036008 -0.463098 1.000000
0.286960 0.346663 -0.302019 1.000000
0.286960 -0.388920 0.242361 1.000000
0.286960 -0.364260 -0.292975 1.000000
0.286960 0.478976 -0.073581 1.000000
0.286960 -0.089584 0.449735 1.000000
0.286960 0.310210 -0.374463 1.000000
0.286960 0.486429 -0.064515 1.000000
0.286960 0.449831 0.025065 1.000000
0.286960 0.250089 -0.415176 1.000000
0.286960 0.387627 -0.309987 1.000000
0.286960 -0.287093 0.403655 1.000000
0.286960 -0.272964 0.360631 1.000000
0.286960 0.103757 0.473142 1.000000
0.286960 -0.485361 -0.020425 1.000000
0.286960 0.305074 -0.377958 1.000000
0.286960 0.446521 -0.130592 1.000000
0.286960 0.477439 -0.070239 1.000000
0.286960 -0.446422 0.067682 1.000000
0.286960 0.262614 -0.374163 1.000000
0.286960 -0.038811 0.454380 1.000000
0.286960 0.422941 -0.167437 1.000000
0.286960 0.226652 -0.402403 1.000000
0.286960 -0.445051 0.003161 1.000000
0.286960 0.087117 -0.457825 1.000000
0.286960 -0.348842 -0.290857 1.000000
0.286960 -0.250726 -0.370226 1.000000
0.286960 0.099372 0.455344 1.000000
0.286960 -0.433346 0.108546 1.000000
0.286960 0.103804 -0.452350 1.000000
0.286960 -0.283217 0.343954 1.000000
0.286960 0.182956 0.449137 1.000000
0.286960 -0.102786 -0.461958 1.000000
0.286960 0.464866 0.136093 1.000000
0.286960 -0.430210 -0.129641 1.000000
0.286960 0.055079 -0.489863 1.000000
0.286960 0.037501 -0.479873 1.000000
0.286960 0.383318 -0.319477 1.000000
0.286960 -0.465022 -0.025837 1.000000
0.286960 -0.257277 0.382815 1.000000
0.286960 -0.217157 -0.423045 1.000000
0.286960 0.342981 0.288414 1.000000
0.286960 0.047379 -0.472977 1.000000
0.286960 -0.433336 0.137902 1.000000
0.286960 0.229535 0.383772 1.000000
0.286960 -0.254763 -0.393854 1.000000
0.286960 0.232158 -0.421867 1.000000
0.286960 -0.467337 -0.006831 1.000000
0.286960 -0.331751 0.316188 1.000000
0.286960 -0.014539 -0.490268 1.000000
0.286960 0.001035 -0.487717 1.000000
0.286960 -0.010446 -0.447663 1.000000
0.286960 0.399595 -0.298675 1.000000
0.286960 -0.040630 -0.493838 1.000000
0.286960 0.442087 -0.081112 1.000000
0.286960 -0.168995 0.421508 1.000000
0.286960 0.418420 -0.175707 1.000000
0.286960 0.013485 0.475132 1.000000
0.286960 0.335662 0.344830 1.000000
0.286960 -0.489059 -0.042732 1.000000
0.286960 0.444664 0.037482 1.000000
0.286960 0.113943 0.436568 1.000000
0.286960 0.393812 0.280363 1.000000
0.286960 0.451027 -0.154188 1.000000
0.286960 0.461730 -0.178425 1.000000
0.286960 0.244143 -0.436328 1.000000
0.286960 0.414420 0.164621 1.000000
0.286960 0.465817 0.119293 1.000000
0.286960 0.056908 0.439800 1.000000
0.286960 -0.408193 -0.181900 1.000000
0.286960 -0.273823 0.380689 1.000000
0.286960 0.372404 -0.313625 1.000000
0.286960 0.483767 0.095326 1.000000
0.286960 -0.082121 0.480071 1.000000
0.286960 -0.208399 0.441121 1.000000
0.286960 -0.093589 0.455832 1.000000
0.286960 0.337340 -0.323672 1.000000
0.286960 0.411575 0.180369 1.000000
0.286960 -0.383514 0.256928 1.000000
0.286960 0.117683 -0.476783 1.000000
0.286960 0.285114 0.379651 1.000000
0.286960 0.072900 0.437772 1.000000
0.286960 -0.080290 -0.490214 1.000000
0.286960 -0.483355 -0.040273 1.000000
0.286960 0.366707 -0.310808 1.000000
0.286960 0.253750 -0.373954 1.000000
0.286960 -0.465368 0.105336 1.000000
0.286960 -0.357982 0.319624 1.000000
0.286960 0.318626 -0.324706 1.000000
0.286960 -0.295929 -0.363683 1.000000
0.286960 0.445593 0.023121 1.000000
0.286960 0.016303 -0.492202 1.000000
0.286960 0.241765 -0.428029 1.000000
0.286960 -0.390601 0.265666 1.000000
0.286960 -0.011160 0.477883 1.000000
0.286960 0.182444 0.411114 1.000000
0.286960 -0.386194 -0.278396 1.000000
0.286960 -0.402995 0.282628 1.000000
0.286960 -0.292319 0.374133 1.000000
0.286960 -0.402008 0.191632 1.000000
0.286960 0.457963 -0.107204 1.000000
0.286960 -0.440214 0.142458 1.000000
0.286960 -0.341260 -0.341531 1.000000
0.286960 -0.263132 0.411544 1.000000
0.286960 -0.314218 0.332104 1.000000
0.286960 -0.438527 0.177900 1.000000
0.286960 -0.399820 -0.240340 1.000000
0.286960 0.016945 -0.486563 1.000000
0.286960 -0.214444 0.391966 1.000000
0.286960 -0.058195 -0.460702 1.000000
0.286960 0.164021 -0.450821 1.000000
0.286960 -0.378167 0.311226 1.000000
0.286960 0.333863 0.363458 1.000000
0.286960 0.168984 -0.462764 1.000000
0.286960 -0.440033 -0.203664 1.000000
0.286960 -0.491523 0.020485 1.000000
0.286960 -0.465486 0.121960 1.000000
0.286960 0.131594 0.463367 1.000000
0.286960 -0.448636 0.189237 1.000000
0.286960 0.458305 0.089663 1.000000
0.286960 0.361655 0.284243 1.000000
0.286960 -0.230267 -0.398767 1.000000
0.286960 -0.238810 0.418145 1.000000
0.286960 0.354101 -0.289661 1.000000
0.286960 -0.021665 0.444229 1.000000
0.286960 0.164925 0.429565 1.000000
0.286960 -0.103048 0.454297 1.000000
0.286960 0.457775 0.069648 1.000000
0.286960 -0.159889 0.422069 1.000000
0.286960 -0.382693 -0.259949 1.000000
0.286960 -0.072419 -0.462897 1.000000
0.286960 0.077440 -0.492679 1.000000
0.286960 0.485780 0.056344 1.000000
0.286960 -0.364066 0.317126 1.000000
0.286960 0.135774 -0.466931 1.000000
0.286960 0.451228 -0.159041 1.000000
0.286960 -0.402835 -0.274592 1.000000
0.286960 -0.259837 -0.386536 1.000000
0.286960 0.438203 -0.163908 1.000000
0.286960 0.399567 -0.225230 1.000000
0.286960 0.289782 -0.359825 1.000000
0.286960 0.436158 0.091871 1.000000
0.286960 -0.438317 -0.167706 1.000000
0.286960 -0.363195 -0.336243 1.000000
0.286960 -0.468490 -0.068236 1.000000
0.286960 0.171525 0.429919 1.000000
0.286960 0.269663 0.405839 1.000000
0.286960 -0.300687 0.326932 1.000000
0.286960 0.190874 -0.454676 1.000000
0.286960 0.262678 0.413045 1.000000
0.286960 -0.137459 -0.432862 1.000000
0.286960 0.098516 -0.437495 1.000000
0.286960 -0.015497 0.463282 1.000000
0.286960 -0.032349 0.451794 1.000000
0.286960 -0.291688 0.381527 1.000000
0.286960 0.424775 -0.188963 1.000000
0.286960 0.202000 0.414406 1.000000
0.286960 -0.155157 -0.475055 1.000000
0.286960 0.231708 -0.388581 1.000000
0.286960 0.050674 -0.450765 1.000000
0.286960 -0.351137 0.322514 1.000000
0.286960 -0.215416 0.427554 1.000000
0.286960 0.454377 0.158101 1.000000
0.286960 0.347154 0.284347 1.000000
0.286960 -0.322387 0.365795 1.000000
0.286960 -0.284096 -0.400297 1.000000
0.286960 0.415778 0.242500 1.000000
0.286960 -0.495764 -0.002472 1.000000
0.286960 0.288862 -0.350864 1.000000
0.286960 0.268177 -0.376347 1.000000
0.286960 -0.414630 -0.166694 1.000000
0.286960 0.487162 0.004298 1.000000
0.286960 -0.271224 0.376605 1.000000
0.286960 -0.235026 -0.421500 1.000000
0.286960 0.267582 0.397283 1.000000
0.286960 -0.333724 -0.296523 1.000000
0.286960 -0.467744 -0.096074 1.000000
0.286960 0.179967 -0.455325 1.000000
0.286960 0.035504 0.453045 1.000000
0.286960 -0.036715 -0.491882 1.000000
0.286960 0.473897 -0.122791 1.000000
0.286960 0.394674 -0.299722 1.000000
0.286960 0.401097 0.200279 1.000000
0.286960 0.060359 -0.450061 1.000000
0.286960 -0.442831 0.122219 1.000000
0.286960 0.398548 -0.215797 1.000000
0.286960 -0.270331 -0.366711 1.000000
0.286960 -0.408202 -0.229625 1.000000
0.286960 -0.157913 -0.459609 1.000000
0.286960 0.382778 -0.255730 1.000000
0.286960 -0.370006 0.321893 1.000000
0.286960 -0.472424 -0.095577 1.000000
0.286960 -0.423928 -0.158741 1.000000
0.286960 0.061427 -0.478089 1.000000
0.286960 0.306271 -0.364662 1.000000
0.286960 -0.347721 -0.352044 1.000000
0.286960 0.398683 -0.268399 1.000000
0.286960 -0.172503 0.443742 1.000000
0.286960 0.100575 -0.483333 1.000000
0.286960 0.026617 0.460194 1.000000
0.286960 0.152779 0.454321 1.000000
0.286960 0.454104 -0.071864 1.000000
0.286960 -0.454185 0.164561 1.000000
0.286960 -0.112325 0.447700 1.000000
0.286960 0.095815 0.477908 1.000000
0.286960 0.332176 -0.355840 1.000000
0.286960 0.453646 -0.144745 1.000000
0.286960 -0.315232 0.369357 1.000000
0.286960 0.401297 -0.197705 1.000000
0.286960 0.431547 0.215764 1.000000
0.286960 0.146705 -0.453454 1.000000
0.286960 0.309404 -0.333843 1.000000
0.286960 -0.254865 -0.428768 1.000000
0.286960 0.358926 0.269930 1.000000
0.286960 -0.445111 -0.131894 1.000000
0.286960 0.357293 0.272665 1.000000
0.286960 -0.059014 0.468503 1.000000
0.286960 -0.422421 -0.180762 1.000000
0.286960 -0.452431 0.087429 1.000000
0.286960 0.362654 0.322062 1.000000
0.286960 -0.324693 -0.364806 1.000000
0.286960 -0.442682 0.193332 1.000000
0.286960 0.238359 -0.439055 1.000000
0.286960 -0.361642 0.274348 1.000000
0.286960 -0.464447 0.124939 1.000000
0.286960 0.140369 -0.444771 1.000000
0.286960 0.318289 0.354123 1.000000
0.286960 -0.422223 0.149932 1.000000
0.286960 0.426108 0.133030 1.000000
0.286960 0.032033 -0.456512 1.000000
0.286960 -0.409427 0.247486 1.000000
0.286960 -0.317888 0.309617 1.000000
0.286960 0.251835 0.416135 1.000000
0.286960 -0.265687 0.418404 1.000000
0.286960 -0.130090 -0.475497 1.000000
0.286960 -0.200104 0.410744 1.000000
0.286960 0.297281 0.350631 1.000000
0.286960 -0.178087 -0.455454 1.000000
0.286960 -0.437692 0.103860 1.000000
0.286960 -0.175968 -0.458481 1.000000
0.286960 0.484902 -0.012473 1.000000
0.286960 -0.018643 0.450117 1.000000
0.286960 -0.133733 0.452697 1.000000
0.286960 0.032944 -0.460675 1.000000
0.286960 -0.056806 -0.450152 1.000000
0.286960 0.478088 -0.006030 1.000000
0.286960 -0.201668 0.440814 1.000000
0.286960 -0.478354 -0.006587 1.000000
0.286960 0.427052 -0.234705 1.000000
0.286960 -0.411385 0.240150 1.000000
0.286960 0.117728 0.434264 1.000000
0.286960 0.010665 -0.467649 1.000000
0.286960 -0.122461 -0.461553 1.000000
0.286960 -0.265814 -0.412457 1.000000
0.286960 0.257147 -0.395002 1.000000
0.286960 0.164863 0.441135 1.000000
0.286960 0.135881 -0.449008 1.000000
0.286960 -0.425902 0.254921 1.000000
0.286960 -0.020512 -0.452307 1.000000
0.286960 0.048760 0.441182 1.000000
0.286960 -0.476120 0.056494 1.000000
0.286960 0.442719 -0.101543 1.000000
0.286960 0.309055 -0.380677 1.000000
0.286960 0.424440 -0.206972 1.000000
0.286960 -0.141056 0.471409 1.000000
0.286960 -0.461159 0.007015 1.000000
0.286960 0.484625 0.078275 1.000000
0.286960 0.481072 -0.071042 1.000000
0.286960 -0.249258 0.379322 1.000000
0.286960 0.483569 0.046100 1.000000
0.286960 -0.108226 0.435194 1.000000
0.286960 0.410387 -0.216956 1.000000
0.286960 0.210149 0.428860 1.000000
0.286960 0.429760 0.154543 1.000000
0.286960 0.416028 0.270881 1.000000
0.286960 -0.390310 -0.245490 1.000000
0.286960 0.426951 0.136628 1.000000
0.286960 -0.438778 -0.191519 1.000000
0.286960 -0.344376 -0.301642 1.000000
0.286960 -0.278026 -0.356042 1.000000
0.286960 -0.337235 0.360354 1.000000
0.286960 0.097294 -0.449550 1.000000
0.286960 0.195419 0.416401 1.000000
0.286960 -0.011621 -0.488866 1.000000
0.286960 0.491147 -0.064782 1.000000
0.286960 -0.258101 -0.414242 1.000000
0.286960 -0.003021 0.470277 1.000000
0.286960 -0.461294 -0.094857 1.000000
0.286960 0.484136 -0.038021 1.000000
0.286960 -0.281375 0.400446 1.000000
0.286960 0.350945 -0.294046 1.000000
0.286960 -0.442510 0.065707 1.000000
0.286960 -0.353614 0.275682 1.000000
0.286960 -0.045340 -0.496508 1.000000
0.286960 0.443469 0.158811 1.000000
0.286960 0.401224 -0.239800 1.000000
0.286960 -0.138937 0.463074 1.000000
0.286960 0.432508 0.203711 1.000000
0.286960 -0.079652 0.467082 1.000000
0.286960 -0.486823 0.097420 1.000000
0.286960 -0.176043 -0.438207 1.000000
0.286960 0.486003 -0.024337 1.000000
0.286960 -0.407966 -0.204333 1.000000
0.286960 -0.072408 0.476702 1.000000
0.286960 0.307051 0.347524 1.000000
0.286960 -0.468221 0.044337 1.000000
0.286960 -0.091830 -0.476637 1.000000
0.286960 0.147853 -0.473485 1.000000
0.286960 0.290299 -0.355554 1.000000
0.286960 -0.482032 -0.067791 1.000000
0.286960 -0.123959 0.461755 1.000000
0.286960 -0.021863 -0.465150 1.000000
0.286960 0.449037 0.173444 1.000000
0.286960 0.357899 -0.343791 1.000000
0.286960 0.431256 0.121460 1.000000
0.286960 -0.118116 0.433164 1.000000
0.286960 -0.401577 -0.217712 1.000000
0.286960 0.033822 0.475025 1.000000
0.286960 -0.294652 0.349875 1.000000
0.286960 0.008944 -0.480802 1.000000
0.286960 -0.463530 -0.162929 1.000000
0.286960 0.412080 0.176614 1.000000
0.286960 -0.040740 -0.490410 1.000000
0.286960 -0.458856 -0.170257 1.000000
0.286960 0.019321 -0.483389 1.000000
0.286960 -0.434858 -0.176894 1.000000
0.286960 -0.039026 0.450734 1.000000
0.286960 0.257707 -0.408756 1.000000
0.286960 0.424022 0.215576 1.000000
0.286960 -0.400814 -0.255678 1.000000
0.286960 -0.465029 0.146132 1.000000
0.286960 -0.046422 0.457629 1.000000
0.286960 0.195515 -0.433524 1.000000
0.286960 0.379199 -0.253387 1.000000
0.286960 -0.332753 0.338446 1.000000
0.286960 0.177118 -0.453002 1.000000
0.286960 -0.425463 0.181162 1.000000
0.286960 0.412161 -0.190449 1.000000
0.286960 -0.455203 0.025252 1.000000
0.286960 0.390731 -0.243119 1.000000
0.286960 0.482840 -0.047157 1.000000
0.286960 -0.199662 0.430442 1.000000
0.286960 -0.133250 -0.432720 1.000000
0.286960 -0.297265 0.329090 1.000000
0.286960 -0.290011 0.335927 1.000000
0.286960 0.102906 -0.465456 1.000000
0.286960 -0.270947 -0.398302 1.000000
0.286960 0.474554 -0.007409 1.000000
0.286960 0.460646 0.067046 1.000000
0.286960 -0.398757 0.280059 1.000000
0.286960 -0.370510 -0.272499 1.000000
0.286960 0.244677 0.426749 1.000000
0.286960 -0.229893 0.379894 1.000000
0.286960 0.383996 -0.293905 1.000000
0.286960 0.214643 -0.415166 1.000000
0.286960 -0.163282 -0.443098 1.000000
0.286960 0.322089 -0.361479 1.000000
0.286960 0.447733 0.120852 1.000000
0.286960 -0.247790 0.402290 1.000000
0.286960 -0.096587 -0.462828 1.000000
0.286960 0.212914 0.397465 1.000000
0.286960 -0.318169 -0.375060 1.000000
0.286960 0.228823 -0.433198 1.000000
0.286960 0.342874 -0.332390 1.000000
0.286960 0.452949 0.074748 1.000000
0.286960 -0.021418 -0.493397 1.000000
0.286960 -0.489882 0.026775 1.000000
0.286960 0.383147 0.307555 1.000000
0.286960 -0.237446 -0.406451 1.000000
0.286960 0.469516 -0.136996 1.000000
0.286960 -0.299635 -0.366723 1.000000
0.286960 -0.331895 -0.368117 1.000000
0.286960 -0.449411 0.182137 1.000000
0.286960 0.216732 -0.409701 1.000000
0.286960 -0.399756 -0.262513 1.000000
0.286960 0.474507 0.115359 1.000000
0.286960 0.443175 0.057363 1.000000
0.286960 -0.161296 -0.448474 1.000000
0.286960 -0.292146 0.378075 1.000000
0.286960 -0.096085 0.479412 1.000000
0.286960 0.491022 0.081834 1.000000
0.286960 0.362087 0.280514 1.000000
0.286960 0.277418 0.352306 1.000000
0.286960 -0.303568 0.377410 1.000000
0.286960 0.388238 -0.223013 1.000000
0.286960 0.363373 0.299389 1.000000
0.286960 -0.437905 -0.143185 1.000000
0.286960 0.229818 0.415772 1.000000
0.286960 0.257960 -0.417103 1.000000
0.286960 -0.308423 -0.381691 1.000000
0.286960 -0.232567 0.411988 1.000000
0.286960 -0.230792 -0.420865 1.000000
0.286960 -0.261918 0.383051 1.000000
0.286960 -0.355867 0.345414 1.000000
0.286960 -0.466721 0.149571 1.000000
0.286960 0.465610 0.176061 1.000000
0.286960 -0.291318 -0.379159 1.000000
0.286960 0.326789 -0.305604 1.000000
0.286960 -0.433635 -0.155308 1.000000
0.286960 0.265259 -0.416234 1.000000
0.286960 0.376130 0.266085 1.000000
0.286960 0.406169 -0.259419 1.000000
0.286960 0.384209 -0.265987 1.000000
0.286960 -0.043263 -0.471086 1.000000
0.286960 -0.024518 0.453533 1.000000
0.286960 -0.486081 -0.023803 1.000000
0.286960 -0.431806 0.129296 1.000000
0.286960 0.239074 -0.381007 1.000000
0.286960 -0.444853 -0.022393 1.000000
0.286960 0.451737 -0.109279 1.000000
0.286960 0.277964 0.402472 1.000000
0.286960 -0.434986 0.226444 1.000000
0.286960 0.317386 0.348079 1.000000
0.286960 0.165645 -0.447389 1.000000
0.286960 0.214634 0.391133 1.000000
0.286960 0.257827 0.391475 1.000000
0.286960 0.440049 0.221370 1.000000
0.286960 0.484397 -0.061647 1.000000
0.286960 -0.395936 0.283781 1.000000
0.286960 -0.382161 0.284197 1.000000
0.286960 -0.423567 0.155879 1.000000
0.286960 -0.028934 0.494723 1.000000
0.286960 0.163644 -0.454183 1.000000
0.286960 -0.021854 0.463043 1.000000
0.286960 -0.391653 -0.249253 1.000000
0.286960 0.467332 0.168631 1.000000
0.286960 -0.414996 -0.221625 1.000000
0.286960 -0.369541 -0.310494 1.000000
0.286960 0.081715 0.484725 1.000000
0.286960 -0.444211 0.060909 1.000000
0.286960 -0.377247 0.243826 1.000000
0.286960 0.228822 0.429848 1.000000
0.286960 -0.110958 0.462172 1.000000
0.286960 0.442893 0.080948 1.000000
0.286960 0.288464 0.352023 1.000000
0.286960 -0.186520 -0.420756 1.000000
0.286960 0.227678 0.402716 1.000000
0.286960 0.483537 0.062847 1.000000
0.286960 -0.047782 0.454062 1.000000
0.286960 0.325507 -0.318372 1.000000
0.286960 -0.280010 0.396624 1.000000
0.286960 0.270061 0.414277 1.000000
0.286960 -0.227002 0.382327 1.000000
0.286960 0.007118 -0.469975 1.000000
0.286960 0.194238 -0.444421 1.000000
0.286960 -0.349928 0.289241 1.000000
0.286960 0.428934 0.201781 1.000000
0.286960 -0.289035 0.379337 1.000000
0.286960 0.032258 0.492985 1.000000
0.286960 -0.320126 0.356060 1.000000
0.286960 0.471646 0.101905 1.000000
0.286960 -0.486576 0.044052 1.000000
0.286960 -0.496946 0.000748 1.000000
0.286960 0.356616 0.288040 1.000000
0.286960 0.345098 -0.346088 1.000000
0.286960 0.377686 -0.259679 1.000000
0.286960 0.199760 0.449639 1.000000
0.286960 -0.455125 -0.098162 1.000000
0.286960 -0.196370 -0.404946 1.000000
0.286960 -0.388796 0.216635 1.000000
0.286960 0.480374 0.117135 1.000000
0.286960 0.274472 -0.373293 1.000000
0.286960 -0.221891 -0.401692 1.000000
0.286960 0.369203 0.255901 1.000000
0.286960 -0.465643 0.161580 1.000000
0.286960 -0.273485 0.365030 1.000000
0.286960 0.353108 -0.274384 1.000000
0.286960 -0.456153 0.123666 1.000000
0.286960 -0.404397 0.217942 1.000000
0.286960 -0.371604 0.244583 1.000000
0.286960 0.347182 -0.295474 1.000000
0.286960 0.378567 -0.313814 1.000000
0.286960 0.443932 -0.228287 1.000000
0.286960 0.339088 0.304642 1.000000
0.286960 -0.447559 -0.147139 1.000000
0.286960 -0.099558 -0.461163 1.000000
0.286960 0.488199 -0.028143 1.000000
0.286960 0.469845 -0.090201 1.000000
0.286960 -0.482508 -0.080433 1.000000
0.286960 0.148342 0.458461 1.000000
0.286960 0.193917 0.456734 1.000000
0.286960 0.456480 -0.011664 1.000000
0.286960 0.284283 -0.367592 1.000000
0.286960 -0.458332 0.052930 1.000000
0.286960 0.404660 -0.282950 1.000000
0.286960 0.459568 0.140304 1.000000
0.286960 0.461192 0.125861 1.000000
0.286960 -0.448235 0.126009 1.000000
0.286960 0.201062 -0.406759 1.000000
0.286960 0.391114 -0.310328 1.000000
0.286960 -0.446841 0.136746 1.000000
0.286960 0.083202 0.456983 1.000000
0.286960 -0.313015 0.336253 1.000000
0.286960 0.392037 0.218933 1.000000
0.286960 -0.034990 0.475471 1.000000
0.286960 0.235204 0.380720 1.000000
0.286960 -0.329211 0.309474 1.000000
0.286960 0.468348 -0.108364 1.000000
0.286960 0.070895 -0.461300 1.000000
0.286960 -0.362101 -0.290606 1.000000
0.286960 -0.448371 -0.131648 1.000000
