-0.166745 0.419434 -0.152912 3.000000
-0.196525 -0.112857 -0.432864 3.000000
0.138184 -0.406980 -0.181550 3.000000
0.252142 -0.158107 -0.418260 3.000000
-0.162116 0.431443 -0.114708 3.000000
0.085617 -0.195559 -0.401950 3.000000
-0.183953 -0.353720 -0.271902 3.000000
-0.040884 0.418148 0.152130 3.000000
0.282357 -0.434647 0.091962 1.000000
0.019452 -0.426435 0.124066 3.000000
0.157668 -0.440396 0.060052 3.000000
0.054632 0.208113 -0.396076 3.000000
-0.048122 0.412412 -0.171364 3.000000
-0.079390 -0.429942 0.111994 3.000000
0.161638 -0.357151 0.263126 3.000000
0.222808 -0.278415 -0.349272 3.000000
-0.003613 0.432722 -0.109512 3.000000
-0.236589 -0.098482 0.431897 3.000000
0.208494 -0.407529 -0.180279 3.000000
-0.128618 0.402001 0.190528 3.000000
-0.036841 -0.433507 -0.101415 3.000000
0.169063 0.280920 0.343770 3.000000
-0.222328 -0.403860 -0.188758 3.000000
0.133569 -0.012724 0.442842 3.000000
-0.007356 0.047667 -0.444919 3.000000
-0.155401 0.153632 -0.420240 3.000000
0.231035 -0.324308 0.302617 3.000000
0.107612 -0.396131 0.200037 3.000000
-0.019925 -0.407625 -0.180057 3.000000
0.284251 -0.275808 -0.351294 1.000000
-0.072470 -0.364256 -0.257516 3.000000
0.185987 0.351095 0.272254 3.000000
-0.276511 0.004054 0.443147 3.000000
-0.103939 -0.408786 0.173022 3.000000
0.268471 0.129744 -0.428256 3.000000
0.012094 0.300547 -0.331193 3.000000
0.058049 0.174437 0.407673 3.000000
-0.017919 0.383048 0.225607 3.000000
-0.281569 0.213424 0.389016 3.000000
0.000541 -0.077960 -0.440513 3.000000
-0.289370 -0.443623 0.030238 4.000000
0.047440 0.442591 0.052001 3.000000
0.252448 -0.379553 0.229784 3.000000
-0.015695 0.432673 0.105381 3.000000
0.024108 0.420501 -0.149949 3.000000
-0.230091 -0.175317 -0.411202 3.000000
0.138003 -0.440925 0.056716 3.000000
0.233445 -0.360289 -0.263353 3.000000
0.124333 0.414974 0.160947 3.000000
-0.009177 0.254581 0.363456 3.000000
0.035028 0.412268 -0.171698 3.000000
-0.160294 -0.043588 -0.445208 3.000000
0.151820 0.440197 0.067783 3.000000
0.158042 0.423095 -0.142743 3.000000
-0.180501 -0.438368 -0.077214 3.000000
0.056943 0.227739 0.380688 3.000000
0.261236 -0.173182 0.407773 3.000000
-0.043638 0.415910 -0.162700 3.000000
-0.265801 0.372994 -0.246167 3.000000
0.056733 0.107283 0.430159 3.000000
0.041593 0.082702 0.435571 3.000000
-0.158642 0.399550 0.195338 3.000000
0.049423 0.324078 -0.308240 3.000000
0.184873 -0.345407 -0.282619 3.000000
0.110047 -0.312508 -0.318786 3.000000
-0.028740 -0.415839 0.155699 3.000000
-0.231803 -0.388689 0.214334 3.000000
0.069908 -0.351949 0.269832 3.000000
0.087772 0.074475 0.436874 3.000000
0.202649 -0.275020 0.347551 3.000000
0.011720 -0.349186 -0.277748 3.000000
-0.052572 0.423822 -0.140724 3.000000
-0.201221 -0.164577 0.411496 3.000000
-0.217428 0.366036 0.252052 3.000000
0.218280 -0.092183 -0.437659 3.000000
0.202806 -0.055997 0.439638 3.000000
-0.088402 -0.428268 0.117757 3.000000
-0.007558 -0.334077 0.291536 3.000000
-0.224081 -0.416979 -0.156886 3.000000
0.010686 -0.436635 -0.087425 3.000000
-0.287150 -0.441284 0.054447 4.000000
0.237699 0.024861 0.442493 3.000000
-0.169348 -0.426015 -0.129865 3.000000
-0.029438 -0.387229 -0.221156 3.000000
0.224142 -0.304960 -0.326334 3.000000
0.220757 -0.437215 0.080141 3.000000
0.024843 -0.075976 -0.440827 3.000000
0.112633 -0.039210 -0.445622 3.000000
0.197256 -0.057870 -0.443695 3.000000
-0.289937 -0.151062 -0.420797 4.000000
0.161153 0.325823 -0.306415 3.000000
-0.277938 -0.308289 0.318651 3.000000
0.076205 -0.443860 0.027736 3.000000
-0.137292 -0.050768 0.440176 3.000000
0.022477 0.443244 -0.049450 3.000000
0.165256 -0.305189 -0.326105 3.000000
0.272332 0.438225 0.080229 3.000000
0.188266 0.205703 -0.397304 3.000000
-0.141747 0.375830 -0.241995 3.000000
-0.037208 -0.418619 0.147977 3.000000
0.260185 0.436224 0.089491 3.000000
-0.272435 -0.436348 0.084353 3.000000
0.153487 -0.010339 0.442917 3.000000
-0.138489 0.154505 0.415572 3.000000
-0.142948 -0.369199 0.245891 3.000000
0.196923 -0.418678 0.147814 3.000000
0.199434 0.206189 -0.397056 3.000000
0.029637 0.043287 -0.445333 3.000000
0.088432 0.197279 -0.401596 3.000000
-0.278052 0.443965 -0.041817 3.000000
-0.010716 -0.318917 0.308023 3.000000
0.160667 0.054154 -0.444306 3.000000
-0.195145 -0.013528 0.442817 3.000000
-0.021955 -0.353866 0.267361 3.000000
0.111630 0.040239 -0.445621 3.000000
0.067165 -0.440810 0.057442 3.000000
-0.091218 0.223647 0.383108 3.000000
0.106390 -0.333113 0.292630 3.000000
-0.040176 0.082183 0.435653 3.000000
0.125394 0.444146 -0.039901 3.000000
-0.089527 -0.034289 -0.446087 3.000000
-0.166601 0.033823 0.441874 3.000000
-0.076304 -0.444486 -0.016078 3.000000
0.273677 0.416966 0.155416 3.000000
0.119704 0.440060 -0.073003 3.000000
0.011616 0.133768 -0.427087 3.000000
0.097807 -0.401905 0.188706 3.000000
-0.043905 -0.437635 0.077490 3.000000
-0.061202 0.397759 0.198853 3.000000
-0.227439 0.403391 0.187801 3.000000
0.086562 0.031613 -0.446437 3.000000
-0.157509 -0.428790 0.115959 3.000000
-0.212471 -0.371385 -0.247027 3.000000
-0.087283 -0.424882 0.129411 3.000000
-0.034113 0.379307 -0.236285 3.000000
0.263699 -0.428882 -0.119996 3.000000
0.230184 -0.390967 -0.214526 3.000000
-0.069791 -0.140213 -0.424702 3.000000
0.097675 -0.364713 0.252490 3.000000
-0.102201 0.351191 -0.276483 3.000000
-0.250942 0.436575 -0.092275 3.000000
-0.184728 -0.094589 0.432768 3.000000
0.105338 0.416018 -0.162400 3.000000
0.074551 0.309292 -0.323026 3.000000
0.115373 -0.024889 0.442460 3.000000
-0.211783 -0.392686 -0.211151 3.000000
0.230503 -0.120492 0.426292 3.000000
0.261639 0.008758 -0.447353 3.000000
0.080972 0.065793 0.438249 3.000000
0.149559 -0.265476 0.354955 3.000000
-0.061029 0.389466 0.214753 3.000000
0.150287 0.238687 -0.378567 3.000000
-0.263831 0.363531 0.255738 3.000000
0.159538 -0.274107 0.348260 3.000000
-0.054682 -0.388168 0.215216 3.000000
-0.104370 -0.388130 -0.219634 3.000000
-0.031446 -0.377574 0.233128 3.000000
-0.266812 -0.074942 0.436637 3.000000
-0.160133 -0.253138 0.363740 3.000000
0.231049 0.441712 -0.062571 3.000000
-0.004062 -0.444262 0.018851 3.000000
-0.042345 0.401256 0.191990 3.000000
0.263999 -0.432833 -0.104432 3.000000
-0.184333 0.445333 0.017370 3.000000
-0.156259 -0.380005 -0.233372 3.000000
0.035141 -0.140606 -0.424561 3.000000
-0.132469 -0.198323 -0.400542 3.000000
-0.165781 -0.297119 -0.333312 3.000000
0.145918 -0.077332 0.436259 3.000000
0.230514 -0.338159 -0.291259 3.000000
0.090419 0.209731 0.390898 3.000000
-0.194565 0.349198 0.274700 3.000000
0.022906 -0.035867 0.441584 3.000000
0.165145 -0.401434 -0.193983 3.000000
-0.082237 -0.443805 -0.032671 3.000000
-0.212347 0.311360 0.316605 3.000000
-0.264024 0.013458 -0.447205 3.000000
0.172393 0.436364 -0.093221 3.000000
0.260725 0.036386 -0.445986 3.000000
-0.269057 -0.144761 0.418711 3.000000
0.005022 0.125854 0.425032 3.000000
-0.040307 -0.290772 -0.338907 3.000000
0.061927 0.037689 0.441509 3.000000
0.156197 0.356023 0.265902 3.000000
-0.054526 -0.367208 -0.253173 3.000000
0.123176 -0.347300 -0.280179 3.000000
0.165816 -0.431220 0.107296 3.000000
0.063915 0.445018 0.026321 3.000000
0.036787 0.428139 -0.126080 3.000000
-0.128005 0.034561 -0.446158 3.000000
0.030607 -0.370900 0.243388 3.000000
-0.163083 -0.021928 -0.446907 3.000000
0.228763 -0.173154 0.407785 3.000000
0.131436 -0.179114 -0.409559 3.000000
-0.139248 -0.407651 -0.179998 3.000000
-0.025102 0.427564 0.123706 3.000000
-0.259672 0.441167 0.061655 3.000000
-0.014254 0.440246 -0.071823 3.000000
-0.018928 -0.084393 -0.439400 3.000000
-0.016313 -0.359903 -0.263921 3.000000
0.084220 0.445381 0.015835 3.000000
0.106250 0.365123 0.253396 3.000000
0.073550 0.438589 0.077931 3.000000
0.061301 -0.283039 -0.345684 3.000000
0.179593 -0.444602 0.008029 3.000000
-0.290125 -0.444215 -0.024708 4.000000
0.033445 -0.382237 0.225244 3.000000
-0.094930 0.432267 0.107194 3.000000
0.113825 -0.419197 -0.150724 3.000000
0.139211 -0.329275 -0.301337 3.000000
-0.018681 0.128617 0.424230 3.000000
-0.177270 0.340937 -0.289271 3.000000
0.077996 -0.201813 -0.398763 3.000000
0.145253 -0.178193 0.405604 3.000000
-0.234131 -0.395669 -0.205298 3.000000
-0.042488 0.257872 0.361219 3.000000
0.082256 0.123365 0.425755 3.000000
-0.125961 -0.182884 -0.407927 3.000000
-0.176955 -0.407607 -0.180099 3.000000
0.153086 0.207177 -0.396553 3.000000
0.130590 0.311537 0.316428 3.000000
0.242800 0.330783 0.296435 3.000000
-0.134372 -0.166256 0.410770 3.000000
0.088222 -0.051362 -0.444473 3.000000
0.241029 0.345099 -0.284337 3.000000
-0.174297 -0.164517 -0.415875 3.000000
-0.055232 0.046455 -0.445034 3.000000
-0.019696 0.263505 -0.361632 3.000000
-0.041985 0.005400 -0.447458 3.000000
0.011001 0.039483 -0.445693 3.000000
-0.111080 -0.032832 -0.446225 3.000000
0.014177 -0.423711 0.133441 3.000000
0.250987 -0.444035 0.025890 3.000000
0.230665 -0.442285 -0.048753 3.000000
-0.196329 0.437993 -0.085932 3.000000
0.233523 -0.415519 0.156586 3.000000
-0.038927 0.385934 0.220727 3.000000
-0.068829 -0.126240 0.424622 3.000000
-0.013519 -0.270790 0.350833 3.000000
0.124514 -0.118456 -0.431237 3.000000
-0.226077 -0.155370 0.414892 3.000000
-0.174404 -0.093472 0.433017 3.000000
0.040735 0.186472 -0.406818 3.000000
-0.185868 0.438509 0.078439 3.000000
0.141382 0.058915 0.439338 3.000000
-0.155776 -0.444769 0.002726 3.000000
-0.055036 -0.431573 0.105714 3.000000
0.102836 -0.385302 0.220062 3.000000
-0.080943 0.391238 0.211651 3.000000
-0.137708 0.443901 0.038146 3.000000
0.117467 0.030583 -0.446534 3.000000
-0.234665 0.265991 0.355350 3.000000
-0.205965 -0.219268 0.385091 3.000000
0.192097 -0.030586 -0.446437 3.000000
0.120287 0.193877 0.398976 3.000000
-0.247943 0.414219 0.162835 3.000000
-0.094644 0.413811 0.163778 3.000000
0.283748 -0.401739 0.189032 1.000000
-0.173876 -0.160636 0.412996 3.000000
-0.130646 0.388925 0.215669 3.000000
0.114766 0.370545 0.245417 3.000000
0.128666 -0.378555 -0.235824 3.000000
-0.071879 -0.303180 -0.327969 3.000000
-0.159228 0.088463 0.434366 3.000000
0.131383 -0.297271 0.328824 3.000000
-0.098722 -0.025474 -0.446795 3.000000
0.083288 0.382724 0.226154 3.000000
0.283960 0.258762 -0.364968 1.000000
-0.234629 -0.159954 -0.417595 3.000000
0.275765 0.022314 0.442573 3.000000
0.163928 0.438675 -0.081742 3.000000
-0.230665 -0.088825 -0.438410 3.000000
-0.266964 -0.029645 -0.446526 3.000000
-0.003288 -0.430274 -0.115206 3.000000
0.030751 -0.143763 0.419071 3.000000
0.035568 -0.395630 0.201022 3.000000
-0.059822 -0.220512 0.384356 3.000000
-0.230789 -0.406268 -0.183195 3.000000
-0.284461 -0.189148 -0.405216 4.000000
-0.141058 -0.409915 0.170412 3.000000
0.106096 -0.369659 -0.249567 3.000000
-0.086060 -0.369687 -0.249526 3.000000
0.285058 0.096106 -0.437011 1.000000
-0.001363 -0.199999 -0.399688 3.000000
0.105522 0.399883 -0.199040 3.000000
-0.278866 0.227746 -0.385037 3.000000
-0.057383 0.444313 -0.038140 3.000000
0.273231 -0.443340 0.033232 3.000000
-0.111426 0.440987 0.062791 3.000000
-0.126510 -0.444592 -0.012696 3.000000
-0.029336 -0.357851 -0.266577 3.000000
-0.230419 -0.340163 0.284633 3.000000
0.180291 0.317484 -0.314835 3.000000
-0.071000 0.270793 0.351625 3.000000
-0.074604 0.365771 0.252442 3.000000
-0.228169 -0.243118 -0.374903 3.000000
-0.239531 0.419669 -0.152260 3.000000
-0.239190 -0.207928 0.391294 3.000000
-0.229601 -0.252420 -0.368581 3.000000
0.058038 0.117215 0.427542 3.000000
0.045031 -0.413356 -0.166815 3.000000
0.189165 0.121872 -0.430542 3.000000
0.187672 -0.395498 -0.205633 3.000000
-0.268676 0.222307 -0.388253 3.000000
0.255246 0.276287 0.347364 3.000000
-0.136602 0.431501 0.110155 3.000000
0.218114 0.329814 0.297535 3.000000
-0.099538 -0.383281 0.223479 3.000000
-0.284867 0.072133 0.437245 4.000000
-0.013163 -0.331001 -0.299379 3.000000
0.184277 0.011646 -0.447262 3.000000
-0.178637 0.349907 -0.278140 3.000000
0.077129 -0.191356 0.399738 3.000000
-0.208915 -0.305616 -0.325678 3.000000
0.161400 -0.428546 0.116801 3.000000
0.245053 -0.187467 0.401591 3.000000
0.073427 0.423037 0.138552 3.000000
0.059773 0.156504 0.414853 3.000000
0.021538 0.360515 0.260111 3.000000
0.015269 -0.131117 -0.427559 3.000000
-0.031834 -0.444531 -0.014627 3.000000
-0.012577 0.338496 0.287687 3.000000
0.174542 -0.212148 -0.393498 3.000000
0.285283 -0.005296 0.443076 1.000000
-0.150620 -0.103564 0.430762 3.000000
0.193517 -0.380202 -0.233039 3.000000
0.014280 0.251271 -0.370059 3.000000
0.163627 -0.323794 0.303147 3.000000
0.155818 -0.239098 0.373282 3.000000
0.000439 0.076980 0.436477 3.000000
-0.030101 -0.240050 0.372634 3.000000
0.213932 -0.432852 0.099992 3.000000
0.196336 -0.276937 -0.350417 3.000000
-0.057235 -0.294986 0.330839 3.000000
0.219856 0.277987 0.346045 3.000000
-0.290288 0.259013 0.398720 4.000000
-0.290288 -0.463000 0.107748 4.000000
-0.290288 0.371526 0.246391 4.000000
-0.290288 -0.397632 0.296770 4.000000
-0.290288 -0.351952 0.284131 4.000000
-0.290288 -0.451628 -0.049830 4.000000
-0.290288 -0.233610 -0.433276 4.000000
-0.290288 -0.450068 0.130985 4.000000
-0.290288 0.017358 -0.481678 4.000000
-0.290288 0.001540 0.450019 4.000000
-0.290288 -0.317858 -0.334660 4.000000
-0.290288 0.356975 -0.337714 4.000000
-0.290288 0.200910 0.442085 4.000000
-0.290288 -0.362771 -0.309450 4.000000
-0.290288 -0.467416 -0.057207 4.000000
-0.290288 0.483914 -0.078772 4.000000
-0.290288 0.013822 0.469392 4.000000
-0.290288 -0.460177 0.002817 4.000000
-0.290288 -0.072104 0.455919 4.000000
-0.290288 0.450649 -0.204444 4.000000
-0.290288 0.421372 -0.147763 4.000000
-0.290288 -0.266170 0.388967 4.000000
-0.290288 0.358594 0.321878 4.000000
-0.290288 0.482191 0.070388 4.000000
-0.290288 -0.356018 -0.334327 4.000000
-0.290288 0.035839 0.475430 4.000000
-0.290288 -0.482701 0.117660 4.000000
-0.290288 0.464027 0.028841 4.000000
-0.290288 0.469361 0.066454 4.000000
-0.290288 -0.373049 0.293437 4.000000
-0.290288 0.300127 -0.374969 4.000000
-0.290288 0.465732 -0.162771 4.000000
-0.290288 0.385538 0.243114 4.000000
-0.290288 0.170522 -0.466372 4.000000
-0.290288 -0.105327 0.439480 4.000000
-0.290288 0.058405 -0.454097 4.000000
-0.290288 -0.432287 -0.213821 4.000000
-0.290288 0.068135 0.479955 4.000000
-0.290288 -0.401428 -0.240381 4.000000
-0.290288 -0.350421 0.313125 4.000000
-0.290288 0.447076 -0.191347 4.000000
-0.290288 0.400688 -0.212415 4.000000
-0.290288 0.347095 -0.288396 4.000000
-0.290288 0.201768 -0.404512 4.000000
-0.290288 0.210850 -0.415939 4.000000
-0.290288 0.256084 -0.424074 4.000000
-0.290288 0.194003 -0.449322 4.000000
-0.290288 0.458247 -0.024354 4.000000
-0.290288 -0.157797 -0.436768 4.000000
-0.290288 -0.395562 -0.276274 4.000000
-0.290288 -0.371317 -0.310645 4.000000
-0.290288 -0.057468 -0.484064 4.000000
-0.290288 -0.352432 0.323809 4.000000
-0.290288 0.394776 -0.224970 4.000000
-0.290288 -0.463112 0.164908 4.000000
-0.290288 -0.432226 -0.168163 4.000000
-0.290288 -0.279782 -0.366045 4.000000
-0.290288 -0.065483 0.467015 4.000000
-0.290288 0.386975 -0.311067 4.000000
-0.290288 0.393450 0.258457 4.000000
-0.290288 -0.437932 0.144297 4.000000
-0.290288 0.476256 -0.007979 4.000000
-0.290288 -0.146427 -0.449029 4.000000
-0.290288 0.285734 0.382194 4.000000
-0.290288 0.441059 0.170662 4.000000
-0.290288 -0.054281 0.460684 4.000000
-0.290288 -0.033741 -0.460498 4.000000
-0.290288 -0.321563 0.311846 4.000000
-0.290288 0.447172 -0.086182 4.000000
-0.290288 0.093514 0.472268 4.000000
-0.290288 0.044059 0.486032 4.000000
-0.290288 0.404196 -0.240131 4.000000
-0.290288 -0.286970 -0.351100 4.000000
-0.290288 -0.110618 0.473490 4.000000
-0.290288 0.291822 -0.381084 4.000000
-0.290288 0.450396 -0.008129 4.000000
-0.290288 0.063077 0.460602 4.000000
-0.290288 0.467197 -0.126671 4.000000
-0.290288 -0.297602 0.385493 4.000000
-0.290288 -0.387009 0.240531 4.000000
-0.290288 -0.171824 0.459894 4.000000
-0.290288 0.225918 0.398308 4.000000
-0.290288 -0.424982 0.235946 4.000000
-0.290288 0.291947 -0.365909 4.000000
-0.290288 -0.438972 -0.170911 4.000000
-0.290288 0.400091 0.239111 4.000000
-0.290288 0.481911 0.120167 4.000000
-0.290288 0.190937 0.454181 4.000000
-0.290288 -0.150830 -0.472542 4.000000
-0.290288 0.341471 0.316568 4.000000
-0.290288 -0.300941 0.340875 4.000000
-0.290288 0.088516 0.481255 4.000000
-0.290288 0.429497 -0.181322 4.000000
-0.290288 -0.319720 -0.382718 4.000000
-0.290288 0.453110 -0.207892 4.000000
-0.290288 -0.155229 0.459029 4.000000
-0.290288 -0.295679 0.340897 4.000000
-0.290288 0.457539 0.190920 4.000000
-0.290288 0.446670 0.072607 4.000000
-0.290288 0.459085 0.177125 4.000000
-0.290288 0.141339 0.473526 4.000000
-0.290288 0.453300 0.172736 4.000000
-0.290288 -0.137599 0.457788 4.000000
-0.290288 -0.140085 0.447631 4.000000
-0.290288 0.104332 0.479736 4.000000
-0.290288 -0.426537 -0.145703 4.000000
-0.290288 0.177465 0.451631 4.000000
-0.290288 0.468781 0.155194 4.000000
-0.290288 0.447193 0.205357 4.000000
-0.290288 0.343942 -0.291161 4.000000
-0.290288 -0.262579 0.403010 4.000000
-0.290288 -0.448147 -0.155857 4.000000
-0.290288 -0.329557 -0.301070 4.000000
-0.290288 -0.270922 0.376344 4.000000
-0.290288 0.189742 0.422389 4.000000
-0.290288 0.426845 -0.217268 4.000000
-0.290288 0.465997 -0.145543 4.000000
-0.290288 -0.285398 -0.389599 4.000000
-0.290288 -0.337215 -0.323090 4.000000
-0.290288 -0.444066 -0.203724 4.000000
-0.290288 0.207992 -0.454573 4.000000
-0.290288 -0.108572 -0.435672 4.000000
-0.290288 -0.072872 -0.445799 4.000000
-0.290288 0.276771 0.380970 4.000000
-0.290288 -0.459846 -0.067848 4.000000
-0.290288 -0.461617 0.097092 4.000000
-0.290288 -0.304311 0.328613 4.000000
-0.290288 0.451332 -0.140557 4.000000
-0.290288 0.429415 -0.202369 4.000000
-0.290288 0.303210 -0.375225 4.000000
-0.290288 0.322956 -0.324101 4.000000
-0.290288 0.156279 -0.465294 4.000000
-0.290288 0.259557 0.402171 4.000000
-0.290288 0.472170 -0.098566 4.000000
-0.290288 -0.456592 -0.022417 4.000000
-0.290288 -0.044249 0.474648 4.000000
-0.290288 -0.357835 0.304317 4.000000
-0.290288 -0.429851 -0.152958 4.000000
-0.290288 -0.398080 0.250139 4.000000
-0.290288 -0.397671 0.243256 4.000000
-0.290288 -0.167297 0.435309 4.000000
-0.290288 0.462845 0.095308 4.000000
-0.290288 -0.340986 0.331578 4.000000
-0.290288 0.415853 0.191492 4.000000
-0.290288 -0.388056 0.288263 4.000000
-0.290288 -0.170659 -0.430078 4.000000
-0.290288 0.331340 -0.351172 4.000000
-0.290288 -0.191947 -0.409426 4.000000
-0.290288 0.439751 0.096800 4.000000
-0.290288 0.225841 -0.401527 4.000000
-0.290288 0.100610 0.485216 4.000000
-0.290288 -0.185609 -0.463058 4.000000
-0.290288 -0.430111 0.204903 4.000000
-0.290288 -0.368104 0.282852 4.000000
-0.290288 0.327380 0.346209 4.000000
-0.290288 -0.458579 -0.175676 4.000000
-0.290288 0.464168 -0.182696 4.000000
-0.290288 -0.394337 -0.265870 4.000000
-0.290288 -0.003592 -0.478584 4.000000
-0.290288 0.409419 0.267390 4.000000
-0.290288 -0.467235 0.112654 4.000000
-0.290288 0.147594 0.418257 4.000000
-0.290288 -0.172981 0.429714 4.000000
-0.290288 0.113836 0.459600 4.000000
-0.290288 0.325660 0.374913 4.000000
-0.290288 -0.151576 0.445819 4.000000
-0.290288 -0.118100 0.481453 4.000000
-0.290288 0.419268 0.210194 4.000000
-0.290288 0.406371 -0.232473 4.000000
-0.290288 -0.294167 -0.385642 4.000000
-0.290288 0.009267 -0.486833 4.000000
-0.290288 -0.200479 0.404287 4.000000
-0.290288 0.480232 -0.077383 4.000000
-0.290288 0.338979 0.345089 4.000000
-0.290288 -0.332952 -0.354814 4.000000
-0.290288 -0.440007 -0.090807 4.000000
-0.290288 0.017057 -0.451524 4.000000
-0.290288 -0.316443 0.324710 4.000000
-0.290288 -0.478763 -0.104564 4.000000
-0.290288 -0.087488 0.438174 4.000000
-0.290288 -0.046491 -0.454969 4.000000
-0.290288 -0.361607 -0.333831 4.000000
-0.290288 0.141847 -0.451612 4.000000
-0.290288 0.447529 0.157288 4.000000
-0.290288 -0.479857 0.035859 4.000000
-0.290288 0.388373 0.310428 4.000000
-0.290288 -0.477199 0.118308 4.000000
-0.290288 0.384251 0.301084 4.000000
-0.290288 0.450796 0.200804 4.000000
-0.290288 0.270384 -0.365788 4.000000
-0.290288 0.164908 0.462652 4.000000
-0.290288 -0.427864 0.194610 4.000000
-0.290288 0.148638 -0.443435 4.000000
-0.290288 -0.009866 0.488276 4.000000
-0.290288 -0.401704 -0.283041 4.000000
-0.290288 -0.487518 -0.057411 4.000000
-0.290288 -0.321928 -0.336111 4.000000
-0.290288 -0.013641 -0.451561 4.000000
-0.290288 0.381140 0.316146 4.000000
-0.290288 0.456067 -0.027461 4.000000
-0.290288 0.444512 -0.174038 4.000000
-0.290288 -0.442889 0.079857 4.000000
-0.290288 0.016345 0.463102 4.000000
-0.290288 0.478327 -0.109180 4.000000
-0.290288 -0.484002 -0.022481 4.000000
-0.290288 0.422834 -0.187020 4.000000
-0.290288 0.043370 -0.446323 4.000000
-0.290288 -0.327031 -0.368955 4.000000
-0.290288 -0.001813 0.447299 4.000000
-0.290288 -0.440002 0.209534 4.000000
-0.290288 -0.398329 -0.229369 4.000000
-0.290288 0.451045 -0.173791 4.000000
-0.290288 -0.110620 -0.464506 4.000000
-0.290288 0.481377 -0.107935 4.000000
-0.290288 -0.181852 -0.425220 4.000000
-0.290288 -0.458323 0.038701 4.000000
-0.290288 -0.477245 0.105012 4.000000
-0.290288 -0.016501 0.484728 4.000000
-0.290288 0.135095 0.452969 4.000000
-0.290288 -0.276697 0.407722 4.000000
-0.290288 0.421848 0.160809 4.000000
-0.290288 -0.281044 -0.412606 4.000000
-0.290288 -0.188403 -0.409271 4.000000
-0.290288 -0.450366 -0.129658 4.000000
-0.290288 0.283450 0.390582 4.000000
-0.290288 0.105351 -0.470578 4.000000
-0.290288 -0.480863 -0.122207 4.000000
-0.290288 -0.063895 -0.487840 4.000000
-0.290288 -0.203039 -0.446649 4.000000
-0.290288 0.356914 -0.333880 4.000000
-0.290288 -0.023617 0.470947 4.000000
-0.290288 0.145854 0.435913 4.000000
-0.290288 -0.260981 0.399142 4.000000
-0.290288 -0.459918 -0.087957 4.000000
-0.290288 0.045921 0.489046 4.000000
-0.290288 -0.269724 0.399213 4.000000
-0.290288 0.257230 0.424405 4.000000
-0.290288 -0.465359 -0.082749 4.000000
-0.290288 0.322315 0.353127 4.000000
-0.290288 0.050251 -0.468174 4.000000
-0.290288 0.453981 -0.032991 4.000000
-0.290288 0.469129 -0.000110 4.000000
-0.290288 -0.076167 0.471714 4.000000
-0.290288 0.045848 -0.488261 4.000000
-0.290288 0.369689 -0.302573 4.000000
-0.290288 0.286036 -0.410269 4.000000
-0.290288 0.079711 0.445778 4.000000
-0.290288 -0.207680 0.393638 4.000000
-0.290288 0.320740 0.324834 4.000000
-0.290288 -0.137411 -0.462607 4.000000
-0.290288 -0.386077 0.284992 4.000000
-0.290288 -0.262091 0.419230 4.000000
-0.290288 -0.458127 0.096376 4.000000
-0.290288 0.254751 -0.398729 4.000000
-0.290288 -0.341852 -0.293438 4.000000
-0.290288 0.218814 -0.432077 4.000000
-0.290288 0.481697 -0.030159 4.000000
-0.290288 0.196251 0.407864 4.000000
-0.290288 0.099736 -0.447913 4.000000
-0.290288 -0.020367 -0.490103 4.000000
-0.290288 -0.368229 -0.328120 4.000000
-0.290288 -0.111712 -0.433787 4.000000
-0.290288 0.464403 0.176832 4.000000
-0.290288 -0.350668 -0.282043 4.000000
-0.290288 0.271740 -0.412403 4.000000
-0.290288 0.446226 0.208469 4.000000
-0.290288 -0.390751 0.256403 4.000000
-0.290288 -0.316128 0.364873 4.000000
-0.290288 0.365863 -0.296687 4.000000
-0.290288 -0.015810 -0.478214 4.000000
-0.290288 0.333999 -0.325021 4.000000
-0.290288 -0.271866 -0.366906 4.000000
-0.290288 -0.497322 0.000607 4.000000
-0.290288 0.446978 -0.105977 4.000000
-0.290288 0.309460 0.380866 4.000000
-0.290288 0.083808 -0.466326 4.000000
-0.290288 0.300883 0.361473 4.000000
-0.290288 0.480324 -0.134788 4.000000
-0.290288 0.358954 -0.308736 4.000000
-0.290288 0.269496 0.367375 4.000000
-0.290288 0.484909 -0.105029 4.000000
-0.290288 0.473590 -0.011940 4.000000
-0.290288 0.376980 0.322640 4.000000
-0.290288 0.059990 0.458507 4.000000
-0.290288 -0.483165 -0.072406 4.000000
-0.290288 0.208037 0.430343 4.000000
-0.290288 -0.192829 -0.446300 4.000000
-0.290288 0.433465 0.106167 4.000000
-0.290288 0.390791 0.232598 4.000000
-0.290288 -0.444210 0.121463 4.000000
-0.290288 0.486291 -0.010828 4.000000
-0.290288 0.328549 -0.333728 4.000000
-0.290288 -0.358160 0.283225 4.000000
-0.290288 -0.458096 -0.194965 4.000000
-0.290288 0.059358 -0.450484 4.000000
-0.290288 -0.431098 -0.242202 4.000000
-0.290288 -0.467479 0.090970 4.000000
-0.290288 0.195627 -0.403318 4.000000
-0.290288 0.405962 0.221007 4.000000
-0.290288 0.354182 -0.282303 4.000000
-0.290288 0.003649 -0.484133 4.000000
-0.290288 -0.493429 0.040989 4.000000
-0.290288 0.364212 0.290327 4.000000
-0.290288 0.357854 -0.322331 4.000000
-0.290288 -0.053665 0.454802 4.000000
-0.290288 0.417883 -0.257099 4.000000
-0.290288 0.206832 -0.413093 4.000000
-0.290288 0.078932 0.462962 4.000000
-0.290288 -0.249540 0.380577 4.000000
-0.290288 -0.387143 -0.288349 4.000000
-0.290288 -0.410519 -0.278229 4.000000
-0.290288 -0.389658 0.268021 4.000000
-0.290288 0.449187 0.187628 4.000000
-0.290288 -0.040528 0.451788 4.000000
-0.290288 -0.476080 -0.065109 4.000000
-0.290288 -0.377449 0.317061 4.000000
-0.290288 -0.443165 0.183548 4.000000
-0.290288 0.018405 -0.448388 4.000000
-0.290288 0.287849 0.372878 4.000000
-0.290288 -0.060869 0.466319 4.000000
-0.290288 0.057938 -0.476665 4.000000
-0.290288 -0.294271 -0.376671 4.000000
-0.290288 -0.467969 0.150870 4.000000
-0.290288 0.097083 0.485513 4.000000
-0.290288 -0.116773 0.443830 4.000000
-0.290288 -0.080416 -0.450142 4.000000
-0.290288 0.034375 -0.474229 4.000000
-0.290288 -0.185766 -0.411887 4.000000
-0.290288 -0.413716 -0.215854 4.000000
-0.290288 -0.434573 0.134205 4.000000
-0.290288 -0.212984 -0.445545 4.000000
-0.290288 0.446546 0.085495 4.000000
-0.290288 0.438177 -0.201507 4.000000
-0.290288 0.445109 0.102969 4.000000
-0.290288 -0.118635 -0.465759 4.000000
-0.290288 -0.429030 0.208823 4.000000
-0.290288 0.451255 0.114976 4.000000
-0.290288 0.376576 0.236817 4.000000
-0.290288 0.400083 -0.251634 4.000000
-0.290288 0.396285 -0.269756 4.000000
-0.290288 -0.371745 -0.283903 4.000000
-0.290288 0.490655 0.065533 4.000000
-0.290288 0.138718 -0.472673 4.000000
-0.290288 -0.394368 -0.208820 4.000000
-0.290288 0.458404 -0.012986 4.000000
-0.290288 0.150063 0.432849 4.000000
-0.290288 0.066626 -0.450730 4.000000
-0.290288 -0.059076 0.440345 4.000000
-0.290288 -0.185623 -0.415297 4.000000
-0.290288 0.366869 0.251291 4.000000
-0.290288 -0.021435 -0.480168 4.000000
-0.290288 0.332883 0.348774 4.000000
-0.290288 -0.402230 -0.231085 4.000000
-0.290288 -0.404833 0.260362 4.000000
-0.290288 -0.491163 0.032775 4.000000
-0.290288 0.394467 -0.296701 4.000000
-0.290288 -0.455782 0.166470 4.000000
-0.290288 -0.014964 0.449794 4.000000
-0.290288 -0.128012 0.434507 4.000000
-0.290288 0.342621 -0.299043 4.000000
-0.290288 0.106121 -0.474270 4.000000
-0.290288 -0.289892 -0.397989 4.000000
-0.290288 0.264195 -0.400073 4.000000
-0.290288 0.455896 -0.112719 4.000000
-0.290288 -0.254374 0.417723 4.000000
-0.290288 -0.341330 0.294296 4.000000
-0.290288 0.286707 0.369729 4.000000
-0.290288 -0.360295 0.311608 4.000000
-0.290288 -0.116252 0.438042 4.000000
-0.290288 -0.272694 -0.407796 4.000000
-0.290288 0.312334 0.315667 4.000000
-0.290288 0.160232 -0.470080 4.000000
-0.290288 0.114232 0.455895 4.000000
-0.290288 -0.164614 0.438043 4.000000
-0.290288 -0.109570 0.445702 4.000000
-0.290288 -0.402153 0.285114 4.000000
-0.290288 0.341212 -0.361207 4.000000
-0.290288 0.450001 0.154822 4.000000
-0.290288 0.125327 -0.462865 4.000000
-0.290288 -0.435455 -0.203011 4.000000
-0.290288 -0.458139 -0.135400 4.000000
-0.290288 -0.281211 0.370305 4.000000
-0.290288 0.435033 -0.211441 4.000000
-0.290288 -0.054179 0.478243 4.000000
-0.290288 0.122619 0.445769 4.000000
-0.290288 -0.289781 -0.357809 4.000000
-0.290288 -0.402374 -0.253931 4.000000
-0.290288 0.151971 -0.430699 4.000000
-0.290288 -0.440302 0.217545 4.000000
-0.290288 -0.319945 -0.339225 4.000000
-0.290288 0.212161 -0.444807 4.000000
-0.290288 0.321278 0.344502 4.000000
-0.290288 -0.319313 -0.342735 4.000000
-0.290288 -0.292944 -0.359012 4.000000
-0.290288 0.012487 -0.474243 4.000000
-0.290288 -0.483279 -0.004594 4.000000
-0.290288 0.301256 -0.393802 4.000000
-0.290288 -0.345573 0.308548 4.000000
-0.290288 -0.457151 -0.191295 4.000000
-0.290288 -0.481293 -0.101679 4.000000
-0.290288 0.483969 0.026506 4.000000
-0.290288 -0.233111 -0.381443 4.000000
-0.290288 0.183087 -0.451978 4.000000
-0.290288 0.418554 0.161227 4.000000
-0.290288 -0.355314 -0.270721 4.000000
-0.290288 -0.296898 -0.395060 4.000000
-0.290288 -0.225562 0.441344 4.000000
-0.290288 0.426067 0.195708 4.000000
-0.290288 -0.338223 0.323234 4.000000
-0.290288 0.386624 -0.272214 4.000000
-0.290288 -0.449927 0.156070 4.000000
-0.290288 -0.209615 -0.409594 4.000000
-0.290288 0.415771 -0.260133 4.000000
-0.290288 -0.394206 0.236469 4.000000
-0.290288 0.447767 0.100272 4.000000
-0.290288 0.291740 0.368564 4.000000
-0.290288 0.016253 0.478965 4.000000
-0.290288 0.047410 0.450604 4.000000
-0.290288 -0.381638 -0.231210 4.000000
-0.290288 0.296102 -0.335725 4.000000
-0.290288 -0.131329 0.436562 4.000000
-0.290288 0.005512 -0.487777 4.000000
-0.290288 -0.407945 0.183329 4.000000
-0.290288 0.409919 -0.178439 4.000000
-0.290288 0.401788 0.225748 4.000000
-0.290288 -0.272341 0.353682 4.000000
-0.290288 -0.009391 0.472100 4.000000
-0.290288 0.213707 0.398213 4.000000
-0.290288 -0.407532 -0.266661 4.000000
-0.290288 0.429070 0.121342 4.000000
-0.290288 0.417540 -0.176735 4.000000
-0.290288 -0.464717 -0.035710 4.000000
-0.290288 0.155457 -0.426197 4.000000
-0.290288 0.098275 0.459773 4.000000
-0.290288 0.219271 -0.439983 4.000000
-0.290288 0.017933 0.470823 4.000000
-0.290288 0.430681 -0.130731 4.000000
-0.290288 0.293629 -0.363315 4.000000
-0.290288 -0.325981 0.373293 4.000000
-0.290288 -0.017549 0.464898 4.000000
-0.290288 -0.496757 -0.021540 4.000000
-0.290288 0.364625 -0.266731 4.000000
-0.290288 0.029317 0.491533 4.000000
-0.290288 -0.247408 0.428795 4.000000
-0.290288 0.160012 0.436145 4.000000
-0.290288 -0.237682 -0.387516 4.000000
-0.290288 -0.033571 -0.454195 4.000000
-0.290288 0.458562 0.012784 4.000000
-0.290288 0.470493 0.085473 4.000000
-0.290288 -0.271493 0.372784 4.000000
-0.290288 0.155206 0.419499 4.000000
-0.290288 0.306246 -0.334867 4.000000
-0.290288 0.355666 0.281714 4.000000
-0.290288 -0.436345 -0.196729 4.000000
-0.290288 0.419318 -0.203538 4.000000
-0.290288 0.344182 -0.332132 4.000000
-0.290288 0.135416 0.456533 4.000000
-0.290288 -0.415356 -0.193460 4.000000
-0.290288 -0.451562 -0.106119 4.000000
-0.290288 0.469016 -0.010901 4.000000
-0.290288 -0.299760 -0.352775 4.000000
-0.290288 -0.018707 0.453110 4.000000
-0.290288 0.054421 -0.479153 4.000000
-0.290288 0.319610 0.321700 4.000000
-0.290288 -0.188262 0.446908 4.000000
-0.290288 -0.395636 0.291354 4.000000
-0.290288 0.171469 0.461197 4.000000
-0.290288 0.291889 0.354764 4.000000
-0.290288 0.393230 0.210699 4.000000
-0.290288 -0.207987 0.432490 4.000000
-0.290288 -0.160496 -0.459316 4.000000
-0.290288 -0.055016 -0.471437 4.000000
-0.290288 -0.421752 0.194401 4.000000
-0.290288 -0.231266 0.438145 4.000000
-0.290288 -0.119602 0.470704 4.000000
-0.290288 -0.463011 0.044596 4.000000
-0.290288 -0.304926 -0.347924 4.000000
-0.290288 -0.406823 -0.272689 4.000000
-0.290288 0.372281 0.299275 4.000000
-0.290288 -0.169185 -0.465149 4.000000
-0.290288 0.040656 0.484523 4.000000
-0.290288 0.367121 -0.332196 4.000000
-0.290288 -0.292612 0.348981 4.000000
-0.290288 -0.066457 -0.450601 4.000000
-0.290288 -0.377270 -0.309608 4.000000
-0.290288 0.401394 -0.205988 4.000000
-0.290288 -0.440904 0.124858 4.000000
-0.290288 -0.044048 -0.464508 4.000000
-0.290288 -0.015812 -0.488578 4.000000
-0.290288 0.462210 0.081046 4.000000
-0.290288 0.288675 -0.346763 4.000000
-0.290288 -0.395623 -0.231807 4.000000
-0.290288 0.328721 0.332571 4.000000
-0.290288 -0.426406 0.218283 4.000000
-0.290288 0.470118 0.147019 4.000000
-0.290288 -0.132785 0.444363 4.000000
-0.290288 0.412825 0.262695 4.000000
-0.290288 0.347673 0.328475 4.000000
-0.290288 0.459168 0.008091 4.000000
-0.290288 0.004507 0.485242 4.000000
-0.290288 -0.294466 -0.370237 4.000000
-0.290288 0.012795 -0.489889 4.000000
-0.290288 -0.311273 0.349644 4.000000
-0.290288 -0.383603 0.282458 4.000000
-0.290288 -0.181342 0.415852 4.000000
-0.290288 0.077443 0.458792 4.000000
-0.290288 -0.284312 -0.373596 4.000000
-0.290288 -0.324176 -0.363130 4.000000
-0.290288 -0.453245 0.199896 4.000000
-0.290288 -0.209941 0.443374 4.000000
-0.290288 0.029524 0.494876 4.000000
-0.290288 0.293118 -0.394457 4.000000
-0.290288 -0.046804 -0.481964 4.000000
-0.290288 0.351580 0.350437 4.000000
-0.290288 -0.059648 0.477844 4.000000
-0.290288 -0.175693 0.445879 4.000000
-0.290288 0.064496 0.480896 4.000000
-0.290288 -0.160727 0.417409 4.000000
-0.290288 0.068639 0.440746 4.000000
-0.290288 0.442620 0.054668 4.000000
-0.290288 0.407374 -0.264033 4.000000
-0.290288 0.113992 0.465355 4.000000
-0.290288 -0.092447 0.440304 4.000000
-0.290288 0.188689 -0.433531 4.000000
-0.290288 0.082213 -0.456930 4.000000
-0.290288 0.439730 -0.168653 4.000000
-0.290288 -0.255534 0.401394 4.000000
-0.290288 0.087798 0.464396 4.000000
-0.290288 0.084358 0.457806 4.000000
-0.290288 -0.321844 -0.327606 4.000000
-0.290288 0.178102 0.459012 4.000000
-0.290288 -0.313655 0.323065 4.000000
-0.290288 0.349936 0.283458 4.000000
-0.290288 -0.423441 -0.217305 4.000000
-0.290288 0.452404 -0.059657 4.000000
-0.290288 -0.392344 -0.224356 4.000000
-0.290288 0.138063 0.451261 4.000000
-0.290288 0.019669 -0.459053 4.000000
-0.290288 -0.413694 0.207482 4.000000
-0.290288 -0.010708 0.495027 4.000000
-0.290288 0.359844 -0.301439 4.000000
-0.290288 0.412634 0.249858 4.000000
-0.290288 -0.322990 -0.368948 4.000000
-0.290288 -0.425330 0.253963 4.000000
-0.290288 0.435321 -0.149053 4.000000
-0.290288 -0.462088 -0.136330 4.000000
-0.290288 0.319073 -0.351895 4.000000
-0.290288 -0.097569 0.433656 4.000000
-0.290288 0.429196 0.244272 4.000000
-0.290288 0.343341 -0.328215 4.000000
-0.290288 -0.020985 0.464851 4.000000
-0.290288 -0.055114 0.443086 4.000000
-0.290288 0.461722 0.101557 4.000000
-0.290288 0.452370 0.178516 4.000000
-0.290288 -0.470019 -0.010271 4.000000
-0.290288 0.212225 0.435694 4.000000
-0.290288 0.215785 -0.405854 4.000000
-0.290288 -0.433970 -0.170769 4.000000
-0.290288 -0.237291 0.407270 4.000000
-0.290288 -0.391016 0.293762 4.000000
-0.290288 -0.123033 -0.443661 4.000000
-0.290288 -0.155351 0.452351 4.000000
-0.290288 -0.391550 0.289379 4.000000
-0.290288 0.330626 0.363638 4.000000
-0.290288 0.363259 0.267734 4.000000
-0.290288 0.111063 0.455432 4.000000
-0.290288 0.459940 0.038895 4.000000
-0.290288 -0.420037 -0.249947 4.000000
-0.290288 0.205113 -0.428772 4.000000
-0.290288 -0.444945 -0.216241 4.000000
-0.290288 0.073760 0.450445 4.000000
-0.290288 -0.258541 0.417926 4.000000
-0.290288 0.376201 0.278653 4.000000
-0.290288 0.457124 -0.181940 4.000000
-0.290288 0.470196 0.014590 4.000000
-0.290288 -0.339768 -0.346456 4.000000
-0.290288 0.404431 0.232320 4.000000
-0.290288 0.256294 0.402528 4.000000
-0.290288 0.279699 -0.364515 4.000000
-0.290288 0.087275 -0.447548 4.000000
-0.290288 0.435832 -0.189680 4.000000
-0.290288 -0.312667 0.365023 4.000000
-0.290288 -0.074594 0.467851 4.000000
-0.290288 -0.119006 0.434993 4.000000
-0.290288 0.253430 0.413437 4.000000
-0.290288 0.163762 0.456006 4.000000
-0.290288 0.056373 -0.485475 4.000000
-0.290288 0.105766 0.483763 4.000000
-0.290288 -0.437384 0.084676 4.000000
-0.290288 -0.080102 0.454306 4.000000
-0.290288 -0.175116 0.415515 4.000000
-0.290288 -0.238344 0.391216 4.000000
-0.290288 -0.002274 0.460202 4.000000
-0.290288 -0.139363 0.436080 4.000000
-0.290288 0.252748 -0.382104 4.000000
-0.290288 -0.490468 -0.053066 4.000000
-0.290288 0.295719 -0.356154 4.000000
-0.290288 -0.342536 0.290894 4.000000
-0.290288 -0.405746 0.285004 4.000000
-0.290288 -0.170942 -0.446326 4.000000
-0.290288 -0.467929 0.098926 4.000000
-0.290288 0.449886 0.103268 4.000000
-0.290288 0.465646 0.125079 4.000000
-0.290288 0.469302 0.010550 4.000000
-0.290288 0.401064 0.230570 4.000000
-0.290288 0.429342 0.176132 4.000000
-0.290288 0.244834 -0.390024 4.000000
-0.290288 -0.328860 0.348650 4.000000
-0.290288 0.484870 -0.096145 4.000000
-0.290288 0.062137 0.446587 4.000000
-0.290288 -0.474271 0.077857 4.000000
-0.290288 0.443787 0.112887 4.000000
-0.290288 -0.179297 0.431589 4.000000
-0.290288 -0.421762 -0.213640 4.000000
-0.290288 -0.394301 0.240959 4.000000
-0.290288 0.366257 -0.308008 4.000000
-0.290288 0.463009 -0.022094 4.000000
-0.290288 -0.444143 0.220302 4.000000
-0.290288 -0.281883 0.389984 4.000000
-0.290288 -0.425390 -0.211153 4.000000
-0.290288 0.018769 0.474916 4.000000
-0.290288 0.230312 -0.420649 4.000000
-0.290288 -0.009433 0.479393 4.000000
-0.290288 -0.070418 0.445260 4.000000
-0.290288 0.478910 0.040744 4.000000
-0.290288 0.440094 -0.189422 4.000000
-0.290288 -0.229206 -0.383952 4.000000
-0.290288 -0.337444 -0.319656 4.000000
-0.290288 0.262787 0.369883 4.000000
-0.290288 0.005476 -0.463207 4.000000
-0.290288 0.161984 0.433564 4.000000
-0.290288 -0.220380 -0.406110 4.000000
-0.290288 -0.352588 0.336177 4.000000
-0.290288 -0.159722 0.449985 4.000000
-0.290288 -0.162065 -0.471743 4.000000
-0.290288 -0.459468 0.180643 4.000000
-0.290288 -0.005084 0.447482 4.000000
-0.290288 -0.068058 0.468909 4.000000
-0.290288 0.156977 -0.450574 4.000000
-0.290288 0.067957 0.467422 4.000000
-0.290288 -0.459388 0.184722 4.000000
-0.290288 0.051881 0.456844 4.000000
-0.290288 0.493409 -0.003355 4.000000
-0.290288 -0.201279 0.425563 4.000000
-0.290288 0.008028 0.469097 4.000000
-0.290288 -0.423354 0.185214 4.000000
-0.290288 -0.471246 0.002495 4.000000
-0.290288 0.388722 0.263780 4.000000
-0.290288 -0.477075 -0.120897 4.000000
-0.290288 -0.194733 0.416771 4.000000
-0.290288 -0.445697 0.077720 4.000000
-0.290288 0.376103 -0.288189 4.000000
-0.290288 0.128530 -0.468977 4.000000
-0.290288 0.472169 -0.110450 4.000000
-0.290288 0.314356 -0.329874 4.000000
-0.290288 0.461803 0.158908 4.000000
-0.290288 -0.443544 -0.073858 4.000000
-0.290288 0.052969 0.460719 4.000000
-0.290288 0.033084 -0.498206 4.000000
-0.290288 0.270881 -0.409178 4.000000
-0.290288 -0.145869 -0.474641 4.000000
-0.290288 0.063124 -0.451451 4.000000
-0.290288 0.377277 0.317974 4.000000
-0.290288 0.397384 -0.216530 4.000000
-0.290288 -0.450600 0.080087 4.000000
-0.290288 0.455304 -0.088769 4.000000
-0.290288 0.403675 0.255286 4.000000
-0.290288 -0.366639 -0.255357 4.000000
-0.290288 -0.433656 0.165952 4.000000
-0.290288 -0.132673 -0.427271 4.000000
-0.290288 0.019540 0.480390 4.000000
-0.290288 -0.419342 -0.153628 4.000000
-0.290288 -0.463583 0.014156 4.000000
-0.290288 -0.107042 0.435656 4.000000
-0.290288 -0.381232 0.247283 4.000000
-0.290288 -0.417892 0.242916 4.000000
-0.290288 -0.014474 0.456481 4.000000
-0.290288 0.449244 -0.098555 4.000000
-0.290288 0.012523 -0.486744 4.000000
-0.290288 0.396971 0.259316 4.000000
-0.290288 0.318193 0.373984 4.000000
-0.290288 -0.001054 -0.462314 4.000000
-0.290288 -0.333781 -0.357835 4.000000
-0.290288 -0.214016 0.412674 4.000000
-0.290288 -0.465123 -0.003478 4.000000
-0.290288 0.473931 0.028410 4.000000
-0.290288 0.068009 0.474154 4.000000
-0.290288 -0.223178 -0.410193 4.000000
-0.290288 0.279057 -0.370489 4.000000
-0.290288 -0.186419 0.417462 4.000000
-0.290288 -0.015977 0.477479 4.000000
-0.290288 0.431361 0.113552 4.000000
-0.290288 -0.291877 -0.372623 4.000000
-0.290288 -0.480274 -0.020547 4.000000
-0.290288 0.376562 0.240263 4.000000
-0.290288 0.207338 0.401075 4.000000
-0.290288 -0.356809 0.324652 4.000000
-0.290288 0.360071 -0.285116 4.000000
-0.290288 0.283931 -0.379893 4.000000
-0.290288 -0.492378 0.056879 4.000000
-0.290288 0.442403 -0.098416 4.000000
-0.290288 -0.292883 0.362037 4.000000
-0.290288 -0.315913 -0.366543 4.000000
-0.290288 -0.246615 -0.418425 4.000000
-0.290288 -0.405106 -0.276015 4.000000
-0.290288 -0.446430 0.043496 4.000000
-0.290288 0.455191 0.041704 4.000000
-0.290288 0.400714 -0.202072 4.000000
-0.290288 0.443107 -0.203452 4.000000
-0.290288 -0.456526 -0.041819 4.000000
-0.290288 0.402385 0.252434 4.000000
-0.290288 0.426682 -0.137621 4.000000
-0.290288 0.471955 0.133803 4.000000
-0.290288 -0.454927 0.155430 4.000000
-0.290288 0.233426 0.403353 4.000000
-0.290288 0.438709 -0.097300 4.000000
-0.290288 0.469740 -0.054285 4.000000
-0.290288 0.452661 0.039344 4.000000
-0.290288 -0.243768 -0.430501 4.000000
-0.290288 -0.440006 0.188199 4.000000
-0.290288 0.183494 -0.428764 4.000000
-0.290288 0.007892 -0.456484 4.000000
-0.290288 -0.479798 -0.027477 4.000000
-0.290288 -0.088531 -0.473276 4.000000
-0.290288 -0.251301 -0.393472 4.000000
-0.290288 0.262582 -0.382822 4.000000
-0.290288 -0.444982 0.061191 4.000000
-0.290288 0.471555 0.082171 4.000000
-0.290288 0.452221 -0.039821 4.000000
-0.290288 -0.459469 0.188711 4.000000
-0.290288 0.484016 -0.053371 4.000000
-0.290288 0.343385 -0.316848 4.000000
-0.290288 0.404983 -0.271627 4.000000
-0.290288 0.395535 -0.209328 4.000000
-0.290288 -0.440463 -0.184420 4.000000
-0.290288 0.444155 0.036393 4.000000
-0.290288 -0.214454 0.403541 4.000000
-0.290288 0.469905 -0.003959 4.000000
-0.290288 -0.443655 -0.085807 4.000000
-0.290288 -0.426228 -0.215199 4.000000
-0.290288 -0.425837 0.164996 4.000000
-0.290288 0.492476 0.072597 4.000000
-0.290288 -0.419842 0.145408 4.000000
-0.290288 0.267435 -0.400529 4.000000
-0.290288 -0.083993 0.466627 4.000000
-0.290288 0.399540 -0.222076 4.000000
-0.290288 -0.454754 -0.175681 4.000000
-0.290288 0.083299 -0.469471 4.000000
-0.290288 0.242680 0.410270 4.000000
-0.290288 0.483617 0.111403 4.000000
-0.290288 -0.259945 0.381605 4.000000
-0.290288 -0.415951 -0.243611 4.000000
-0.290288 0.416518 -0.223851 4.000000
-0.290288 0.347926 -0.352047 4.000000
-0.290288 0.439500 -0.125081 4.000000
-0.290288 0.445061 0.047515 4.000000
-0.290288 -0.174081 0.435733 4.000000
-0.290288 -0.237295 0.386194 4.000000
-0.290288 -0.491770 -0.063078 4.000000
-0.290288 -0.135774 0.471098 4.000000
-0.290288 0.048778 -0.449718 4.000000
-0.290288 -0.129179 0.442929 4.000000
-0.290288 0.434132 -0.140353 4.000000
-0.290288 -0.039814 -0.475876 4.000000
-0.290288 -0.440479 0.130663 4.000000
-0.290288 0.436825 -0.109563 4.000000
-0.290288 -0.127759 -0.459105 4.000000
-0.290288 0.442150 -0.126797 4.000000
-0.290288 -0.398498 0.283831 4.000000
-0.290288 -0.118769 0.478426 4.000000
-0.290288 0.447235 -0.159041 4.000000
-0.290288 -0.485052 0.072335 4.000000
-0.290288 0.457887 0.056519 4.000000
-0.290288 -0.083111 -0.488067 4.000000
-0.290288 0.484888 0.035782 4.000000
-0.290288 0.436651 -0.171812 4.000000
-0.290288 -0.263513 0.391579 4.000000
-0.290288 0.369874 -0.260558 4.000000
-0.290288 -0.232163 0.385709 4.000000
-0.290288 0.049988 -0.480911 4.000000
-0.290288 -0.488224 0.010909 4.000000
-0.290288 -0.295113 0.366279 4.000000
-0.290288 -0.464435 0.161420 4.000000
-0.290288 -0.437785 0.195373 4.000000
-0.290288 0.007809 -0.461164 4.000000
-0.290288 0.128298 -0.446798 4.000000
-0.290288 0.018348 0.491956 4.000000
-0.290288 -0.303647 0.344281 4.000000
-0.290288 -0.033095 0.466581 4.000000
-0.290288 0.262335 0.398698 4.000000
-0.290288 0.340107 0.310128 4.000000
-0.290288 0.483339 -0.008028 4.000000
-0.290288 -0.067828 -0.488064 4.000000
-0.290288 0.154952 0.415984 4.000000
-0.290288 -0.470863 0.122958 4.000000
-0.290288 -0.466705 0.169440 4.000000
-0.290288 0.466123 -0.117326 4.000000
-0.290288 -0.080269 0.471165 4.000000
-0.290288 0.006780 -0.453197 4.000000
-0.290288 -0.071896 0.461770 4.000000
-0.290288 -0.386387 0.297859 4.000000
-0.290288 0.487256 -0.076372 4.000000
-0.290288 -0.493162 -0.029484 4.000000
-0.290288 -0.385023 -0.281667 4.000000
-0.290288 -0.408795 0.269720 4.000000
-0.290288 -0.270679 -0.377403 4.000000
-0.290288 -0.433256 0.111996 4.000000
-0.290288 0.082509 0.449725 4.000000
-0.290288 -0.432383 -0.239233 4.000000
-0.290288 0.061871 0.450435 4.000000
-0.290288 0.163202 0.449985 4.000000
-0.290288 0.138500 0.475072 4.000000
-0.290288 0.198462 -0.405905 4.000000
-0.290288 0.250034 0.370803 4.000000
-0.290288 0.325100 0.337055 4.000000
-0.290288 -0.298015 0.333197 4.000000
-0.290288 0.245472 0.408072 4.000000
-0.290288 0.044501 -0.491577 4.000000
-0.290288 -0.196657 0.443040 4.000000
-0.290288 -0.188157 0.413498 4.000000
-0.290288 -0.204813 -0.428143 4.000000
-0.290288 -0.289634 0.374288 4.000000
-0.290288 -0.392098 -0.281430 4.000000
-0.290288 -0.213464 0.416065 4.000000
-0.290288 0.167646 -0.449936 4.000000
-0.290288 -0.410764 0.211016 4.000000
-0.290288 0.434118 -0.236024 4.000000
-0.290288 -0.234436 0.436351 4.000000
-0.290288 0.395102 -0.254658 4.000000
-0.290288 0.110456 -0.476377 4.000000
-0.290288 0.286465 -0.343895 4.000000
-0.290288 0.136764 0.423422 4.000000
-0.290288 0.411034 0.256986 4.000000
-0.290288 -0.267279 -0.383137 4.000000
-0.290288 -0.458877 0.145180 4.000000
-0.290288 -0.183602 -0.443661 4.000000
-0.290288 -0.215665 -0.436266 4.000000
-0.290288 -0.372553 0.298829 4.000000
-0.290288 -0.406878 -0.237393 4.000000
-0.290288 0.287391 -0.396005 4.000000
-0.290288 0.101574 -0.440820 4.000000
-0.290288 0.402639 -0.260432 4.000000
-0.290288 -0.447097 0.184886 4.000000
-0.290288 0.465376 0.149341 4.000000
-0.290288 -0.361823 0.318187 4.000000
-0.290288 0.250783 0.427184 4.000000
-0.290288 -0.454001 -0.073830 4.000000
-0.290288 -0.063877 0.445963 4.000000
-0.290288 -0.116484 -0.441907 4.000000
-0.290288 0.352282 -0.284860 4.000000
-0.290288 0.292579 -0.389668 4.000000
-0.290288 -0.419492 -0.205599 4.000000
-0.290288 0.145299 -0.434810 4.000000
-0.290288 -0.273562 -0.388536 4.000000
-0.290288 -0.088344 0.441302 4.000000
-0.290288 -0.084179 -0.492253 4.000000
-0.290288 0.444788 -0.198744 4.000000
-0.290288 -0.471920 -0.145252 4.000000
-0.290288 0.321092 0.311510 4.000000
-0.290288 0.256162 0.421315 4.000000
-0.290288 0.461351 0.014468 4.000000
-0.290288 0.063668 -0.488426 4.000000
-0.290288 0.082517 0.471544 4.000000
-0.290288 -0.390454 -0.296964 4.000000
-0.290288 0.346657 0.338437 4.000000
-0.290288 0.220121 -0.427628 4.000000
-0.290288 -0.462619 -0.094153 4.000000
-0.290288 0.054675 0.481843 4.000000
-0.290288 -0.458808 0.047822 4.000000
-0.290288 -0.461673 -0.106376 4.000000
-0.290288 -0.343145 0.341354 4.000000
-0.290288 0.257380 0.408957 4.000000
-0.290288 0.304098 -0.385389 4.000000
-0.290288 0.014224 -0.465206 4.000000
-0.290288 -0.108622 -0.455507 4.000000
-0.290288 0.447159 0.106973 4.000000
-0.290288 0.369614 -0.305875 4.000000
-0.290288 -0.008590 0.491887 4.000000
-0.290288 0.445656 -0.052963 4.000000
-0.290288 0.468361 -0.020009 4.000000
-0.290288 -0.204791 0.442537 4.000000
-0.290288 -0.414269 0.266887 4.000000
-0.290288 -0.396481 -0.247901 4.000000
-0.290288 -0.283348 0.404431 4.000000
-0.290288 0.413631 0.203807 4.000000
-0.290288 -0.175303 0.432468 4.000000
-0.290288 -0.149034 -0.455865 4.000000
-0.290288 -0.441477 -0.065971 4.000000
-0.290288 0.320439 -0.313714 4.000000
-0.290288 0.474263 -0.045538 4.000000
-0.290288 0.451381 -0.143832 4.000000
-0.290288 -0.449794 0.147897 4.000000
-0.290288 -0.140187 0.421081 4.000000
-0.290288 -0.465169 -0.059689 4.000000
-0.290288 -0.373055 0.306747 4.000000
-0.290288 -0.450101 -0.031822 4.000000
-0.290288 -0.203243 0.411837 4.000000
-0.290288 -0.395044 0.299388 4.000000
-0.290288 -0.384334 0.279056 4.000000
-0.290288 -0.429710 -0.130090 4.000000
-0.290288 0.092306 0.434066 4.000000
-0.290288 -0.032936 -0.495175 4.000000
-0.290288 -0.358468 -0.321328 4.000000
-0.290288 0.458191 -0.009389 4.000000
-0.290288 -0.407343 0.223499 4.000000
-0.290288 0.455545 -0.147667 4.000000
-0.290288 -0.080549 -0.440461 4.000000
-0.290288 -0.299417 0.360412 4.000000
-0.290288 -0.260823 0.415870 4.000000
-0.290288 -0.365637 0.298693 4.000000
-0.290288 0.073120 -0.461308 4.000000
-0.290288 0.208959 -0.400635 4.000000
-0.290288 -0.417218 0.209990 4.000000
-0.290288 0.492090 0.039424 4.000000
-0.290288 -0.147094 0.444944 4.000000
-0.290288 0.397176 -0.259343 4.000000
-0.290288 -0.253151 -0.380984 4.000000
-0.290288 -0.379764 0.279621 4.000000
-0.290288 0.172103 0.409674 4.000000
-0.290288 0.334850 0.325821 4.000000
-0.290288 0.482054 -0.016693 4.000000
-0.290288 0.363531 0.285986 4.000000
-0.290288 0.071731 0.466722 4.000000
-0.290288 -0.436261 0.182146 4.000000
-0.290288 0.024716 0.464870 4.000000
-0.290288 0.448121 -0.197728 4.000000
-0.290288 -0.269880 -0.358482 4.000000
-0.290288 -0.280572 0.395472 4.000000
-0.290288 0.469978 -0.108137 4.000000
-0.290288 -0.283535 0.341394 4.000000
-0.290288 -0.341748 0.318432 4.000000
-0.290288 0.321410 -0.347598 4.000000
