0.260010 -0.154171 0.471196 2.000000
-0.191778 0.025832 0.495126 2.000000
-0.180553 -0.223603 -0.446917 2.000000
-0.243956 -0.182464 -0.465357 2.000000
0.087017 0.334819 0.366851 2.000000
-0.068941 -0.403388 0.289129 2.000000
-0.007876 -0.439244 0.231404 2.000000
0.197383 -0.295143 0.398520 2.000000
0.005524 0.155922 0.471006 2.000000
0.124403 -0.241939 0.432790 2.000000
0.000180 -0.085407 -0.492648 2.000000
-0.089493 -0.180806 0.461710 2.000000
-0.161204 -0.483144 -0.121379 2.000000
-0.019858 0.198020 -0.459313 2.000000
-0.180489 -0.351696 -0.354220 2.000000
0.005676 0.242370 0.433222 2.000000
-0.170403 0.447765 0.216704 2.000000
0.240952 -0.174299 -0.468421 2.000000
0.186762 -0.479633 0.130412 2.000000
-0.229268 0.447867 0.216498 2.000000
0.048995 -0.444472 -0.225661 2.000000
0.159642 0.483468 0.119565 2.000000
0.147177 0.491162 0.084035 2.000000
0.139782 -0.496380 -0.035217 2.000000
-0.267423 0.470143 0.163353 2.000000
0.181236 -0.093684 -0.491223 2.000000
-0.042430 -0.201262 -0.457407 2.000000
0.100143 -0.351610 -0.354309 2.000000
0.196617 -0.279555 0.409590 2.000000
-0.139717 -0.416692 0.270066 2.000000
-0.023585 -0.332245 0.368418 2.000000
-0.029084 -0.052284 0.493115 2.000000
-0.182700 -0.445342 0.219822 2.000000
-0.041761 0.339950 -0.366657 2.000000
0.271762 -0.091557 0.487283 2.000000
0.031847 -0.166167 -0.471472 2.000000
-0.128938 0.155796 -0.475342 2.000000
-0.004101 0.367487 -0.338750 2.000000
-0.095672 0.153333 0.471796 2.000000
-0.239039 -0.496548 0.028549 2.000000
-0.285798 0.207096 0.450895 4.000000
0.043615 -0.104415 0.484589 2.000000
-0.261116 0.143756 -0.479196 2.000000
0.204663 0.381596 -0.322945 2.000000
-0.114118 0.293529 0.400527 2.000000
-0.199956 -0.466633 -0.174911 2.000000
0.113687 -0.497182 -0.020204 2.000000
-0.153011 0.343556 -0.363147 2.000000
-0.215624 -0.452292 -0.209791 2.000000
0.285168 0.319779 0.380104 1.000000
-0.080984 -0.280228 -0.413466 2.000000
-0.076529 -0.422362 -0.265419 2.000000
-0.227210 0.237702 0.435680 2.000000
-0.130476 -0.395488 -0.304058 2.000000
-0.240043 0.410449 -0.284851 2.000000
-0.132630 -0.421309 0.262494 2.000000
-0.069772 0.489372 0.092756 2.000000
-0.194896 -0.001374 -0.500230 2.000000
0.156436 0.450824 -0.214912 2.000000
-0.289638 -0.424231 -0.262457 4.000000
-0.120297 0.381540 -0.323016 2.000000
-0.026215 0.495485 -0.056442 2.000000
0.216823 -0.173007 0.464698 2.000000
0.088353 -0.471576 -0.160583 2.000000
0.026735 -0.487754 -0.099939 2.000000
-0.042338 -0.113572 0.482671 2.000000
-0.181931 0.220866 -0.448704 2.000000
0.262849 -0.012544 0.495607 2.000000
0.217701 0.402076 -0.296824 2.000000
-0.169261 -0.299973 0.394876 2.000000
-0.148740 0.247358 -0.434624 2.000000
-0.189364 0.124441 -0.484528 2.000000
0.267476 0.455331 -0.204868 2.000000
0.036165 0.007160 0.495962 2.000000
0.286522 -0.339852 0.361401 1.000000
0.207886 0.491173 0.083961 2.000000
0.266623 0.337076 -0.369455 2.000000
-0.264419 0.320754 0.379327 2.000000
0.033874 0.305432 -0.395885 2.000000
-0.040730 -0.315381 0.382888 2.000000
0.170552 0.090181 0.487649 2.000000
0.065549 -0.483103 0.116446 2.000000
0.242758 0.029890 0.494944 2.000000
0.050422 0.398457 0.297128 2.000000
0.113837 0.140520 0.475705 2.000000
-0.072327 0.020162 0.495381 2.000000
0.083268 0.420111 0.266027 2.000000
-0.106990 0.330069 0.371153 2.000000
0.229277 -0.291421 0.401329 2.000000
0.053271 -0.392593 -0.307895 2.000000
0.106263 -0.075234 -0.494400 2.000000
0.003974 0.272350 -0.419376 2.000000
0.090050 -0.276308 0.411734 2.000000
0.241637 0.058553 -0.496902 2.000000
0.274286 -0.021212 0.495451 2.000000
0.215091 0.365733 -0.340686 2.000000
0.076932 -0.373950 0.326130 2.000000
0.142752 -0.475800 -0.147982 2.000000
-0.250837 -0.329218 0.371015 2.000000
-0.183287 0.077061 -0.494224 2.000000
0.061562 0.327376 0.373593 2.000000
-0.287422 -0.322500 0.376780 4.000000
0.020043 -0.014101 0.495579 2.000000
0.008644 -0.205204 0.451538 2.000000
-0.200798 0.273447 -0.418652 2.000000
0.104990 -0.388038 -0.313933 2.000000
-0.023109 -0.447397 -0.219726 2.000000
0.286804 -0.368328 0.332336 1.000000
0.165075 0.309438 -0.392862 2.000000
-0.289287 -0.431784 0.245311 4.000000
0.024667 0.101499 -0.489768 2.000000
0.024183 0.189612 0.458706 2.000000
-0.028783 -0.494707 0.049809 2.000000
-0.218481 0.479475 -0.138641 2.000000
0.169598 0.377014 0.323697 2.000000
-0.143848 0.479845 -0.137428 2.000000
-0.263322 -0.131555 0.477928 2.000000
-0.226303 -0.478415 -0.138508 2.000000
-0.180206 -0.179559 -0.466447 2.000000
-0.137935 -0.371092 -0.333758 2.000000
0.147175 0.496795 0.038390 2.000000
-0.253464 0.383379 0.316279 2.000000
0.043641 -0.283047 0.407284 2.000000
0.185763 0.437747 -0.240548 2.000000
-0.285786 -0.374561 -0.329715 4.000000
-0.063486 -0.494647 -0.056607 2.000000
0.270416 0.156613 0.470795 2.000000
-0.056941 0.416724 0.271157 2.000000
-0.096479 0.206182 0.451306 2.000000
-0.193957 -0.071244 0.490564 2.000000
-0.112615 0.486719 -0.109898 2.000000
0.028018 0.430346 -0.253705 2.000000
0.209917 -0.493273 0.063080 2.000000
0.253522 -0.077595 -0.493993 2.000000
0.030663 -0.455226 0.198464 2.000000
0.220066 -0.135500 0.476839 2.000000
-0.260144 -0.179392 -0.466510 2.000000
0.172707 -0.265290 -0.423308 2.000000
-0.001182 -0.495439 -0.046832 2.000000
0.220716 0.119801 -0.485809 2.000000
0.073092 -0.496203 -0.037406 2.000000
0.091449 -0.407088 -0.288555 2.000000
0.274873 0.259540 0.423085 2.000000
-0.259904 0.443932 -0.228800 2.000000
0.013579 0.268879 -0.421668 2.000000
-0.187586 0.264852 -0.424326 2.000000
-0.153230 0.016253 0.495556 2.000000
-0.074380 0.062303 -0.496359 2.000000
-0.286978 0.417020 -0.275456 4.000000
0.265032 0.102571 0.485375 2.000000
-0.205606 0.497737 -0.029240 2.000000
0.038314 -0.492496 -0.072084 2.000000
0.002394 0.479086 -0.139917 2.000000
0.233415 -0.453416 -0.207380 2.000000
-0.109671 -0.180149 0.461983 2.000000
-0.064442 0.430437 -0.253555 2.000000
0.117262 -0.430589 -0.251368 2.000000
-0.272831 -0.466691 -0.174746 2.000000
0.062062 0.409469 -0.286254 2.000000
0.218022 -0.026682 0.495190 2.000000
-0.081215 0.188486 0.459128 2.000000
0.241527 0.349536 0.353138 2.000000
-0.070298 -0.432277 -0.248425 2.000000
0.192032 0.339883 0.362264 2.000000
-0.206464 0.359735 0.342662 2.000000
-0.122248 -0.356340 0.345349 2.000000
0.029328 -0.477329 -0.142446 2.000000
-0.252710 0.327544 -0.377685 2.000000
0.205079 0.146825 0.473781 2.000000
-0.271923 0.276850 -0.416406 2.000000
-0.062614 -0.438712 0.232414 2.000000
-0.107227 0.384149 0.315381 2.000000
0.222033 -0.469113 -0.167723 2.000000
0.072932 0.196224 -0.460062 2.000000
0.174632 -0.230610 0.439044 2.000000
0.108694 -0.491425 -0.079483 2.000000
-0.114433 -0.070398 -0.495232 2.000000
0.195235 -0.164063 0.467784 2.000000
-0.023570 0.054596 -0.497365 2.000000
0.029779 -0.486506 0.102126 2.000000
-0.222292 0.025751 -0.499702 2.000000
-0.036507 -0.400277 -0.297710 2.000000
-0.289828 0.436270 0.238896 4.000000
-0.219313 -0.081713 -0.493284 2.000000
-0.161792 0.453857 -0.208153 2.000000
0.022653 -0.234248 -0.441312 2.000000
-0.169711 -0.483797 0.113526 2.000000
-0.238782 0.450092 0.211983 2.000000
0.126083 0.472647 0.156095 2.000000
-0.289497 -0.026265 0.495224 4.000000
0.172616 -0.288806 -0.407467 2.000000
-0.283229 -0.353572 0.348045 4.000000
0.243093 0.257455 -0.428834 2.000000
0.071647 0.488852 -0.100479 2.000000
0.131590 0.496234 -0.049512 2.000000
0.220591 0.201521 -0.457854 2.000000
-0.248873 -0.147327 -0.477669 2.000000
0.158182 0.435312 0.240566 2.000000
-0.017483 0.424051 -0.264031 2.000000
-0.085147 -0.091126 -0.491664 2.000000
-0.059799 -0.494353 0.053087 2.000000
0.150425 -0.468288 0.165823 2.000000
0.170904 -0.493668 0.059418 2.000000
0.207845 0.437267 -0.241459 2.000000
0.281839 0.245218 -0.435851 1.000000
0.169446 0.494628 -0.064374 2.000000
0.266461 -0.280723 0.408819 2.000000
-0.265324 0.066729 0.491505 2.000000
-0.113874 -0.450597 0.208780 2.000000
-0.059690 0.044636 0.493892 2.000000
0.110853 0.485509 0.111198 2.000000
0.244293 -0.182431 0.461032 2.000000
-0.017982 0.318523 -0.385425 2.000000
0.050244 0.132426 -0.482324 2.000000
0.141515 0.335092 -0.371208 2.000000
0.063046 -0.004888 -0.500293 2.000000
-0.286640 -0.417726 0.268370 4.000000
0.046383 0.197017 -0.459731 2.000000
0.198807 0.115632 0.482271 2.000000
0.171323 0.469638 0.164818 2.000000
0.014132 -0.265490 -0.423186 2.000000
0.052413 0.266928 0.418581 2.000000
0.235567 0.124557 0.480150 2.000000
0.148808 -0.383763 -0.318991 2.000000
0.286563 0.454380 0.203172 1.000000
-0.124180 -0.257433 0.423906 2.000000
0.233878 0.353479 -0.353486 2.000000
-0.053244 0.151221 0.472440 2.000000
0.226518 -0.444125 0.222134 2.000000
0.242407 0.486189 0.107951 2.000000
0.142687 0.017394 -0.499891 2.000000
0.217091 0.071460 -0.495034 2.000000
-0.230498 0.131256 -0.482647 2.000000
-0.073115 -0.028244 -0.499326 2.000000
-0.072069 0.354869 -0.352133 2.000000
0.042506 0.454327 -0.207105 2.000000
-0.165918 -0.400269 0.293589 2.000000
-0.289197 -0.232616 0.438056 4.000000
0.101572 0.143535 0.474785 2.000000
0.154378 0.144566 -0.478973 2.000000
-0.184309 -0.472089 0.155138 2.000000
0.058644 -0.411339 -0.282115 2.000000
-0.268628 0.373351 0.327966 2.000000
-0.067686 0.054046 -0.497409 2.000000
-0.023390 0.465025 0.177639 2.000000
-0.020609 0.369928 -0.336055 2.000000
0.223259 -0.074192 -0.494579 2.000000
-0.217351 -0.073905 0.490179 2.000000
0.042883 0.437496 -0.241024 2.000000
0.225912 -0.301270 0.393898 2.000000
0.094721 -0.421052 0.262914 2.000000
0.097811 0.479839 0.132712 2.000000
0.051853 0.346596 0.356158 2.000000
-0.000741 0.023509 0.495231 2.000000
-0.015808 -0.088832 0.487854 2.000000
-0.220404 -0.128551 0.478757 2.000000
-0.104496 -0.468360 -0.169907 2.000000
0.140083 -0.193956 0.456227 2.000000
-0.012714 -0.444676 -0.225248 2.000000
0.188315 0.497874 -0.026181 2.000000
0.240758 -0.436626 0.236376 2.000000
0.028481 0.245809 0.431411 2.000000
0.052355 0.393444 -0.308087 2.000000
-0.066361 0.373609 -0.331991 2.000000
0.210734 -0.436963 -0.240254 2.000000
-0.115353 0.362574 -0.344174 2.000000
-0.257945 -0.067578 -0.495656 2.000000
-0.035419 -0.330758 0.369694 2.000000
-0.006627 -0.392305 -0.308276 2.000000
0.256724 -0.466763 -0.174535 2.000000
0.189361 -0.439905 0.230149 2.000000
0.051924 -0.437713 -0.238947 2.000000
0.017930 0.472883 -0.160246 2.000000
0.006334 -0.453017 0.203388 2.000000
-0.038959 -0.281242 -0.412757 2.000000
-0.204121 -0.488920 0.089778 2.000000
-0.246491 0.253459 -0.431125 2.000000
-0.125652 0.104092 -0.489225 2.000000
-0.287519 0.267440 0.418268 4.000000
-0.254334 -0.426864 -0.257865 2.000000
-0.273631 0.057245 0.492530 2.000000
-0.092171 0.336975 0.364899 2.000000
0.013156 -0.176418 0.463522 2.000000
0.228409 0.446511 -0.223901 2.000000
0.250324 0.415720 0.272679 2.000000
-0.030878 -0.486439 -0.106218 2.000000
-0.213920 0.114157 -0.487116 2.000000
-0.016560 -0.035133 -0.499017 2.000000
0.211434 0.435486 0.240263 2.000000
0.048145 -0.214086 -0.451652 2.000000
0.175524 0.483993 -0.121366 2.000000
0.252783 0.227009 -0.445677 2.000000
0.133507 -0.088930 -0.492042 2.000000
-0.287157 0.456144 -0.203056 4.000000
-0.085797 0.444511 -0.227700 2.000000
-0.178615 -0.457120 -0.198495 2.000000
0.158195 -0.456976 0.194565 2.000000
0.053532 -0.452497 -0.209375 2.000000
-0.210587 -0.321480 0.377655 2.000000
-0.191009 0.154129 -0.475917 2.000000
0.149673 -0.491508 -0.078911 2.000000
-0.234231 0.096829 0.486505 2.000000
0.169156 -0.201588 -0.457261 2.000000
0.215537 -0.442523 0.225176 2.000000
0.209131 0.488472 0.097052 2.000000
-0.188211 -0.404842 0.287050 2.000000
-0.284193 -0.442158 -0.230359 4.000000
0.108907 -0.448172 0.214185 2.000000
-0.028338 0.175897 0.463852 2.000000
-0.192132 -0.465908 0.172165 2.000000
-0.160469 -0.075264 0.489983 2.000000
-0.042696 -0.428481 -0.255046 2.000000
0.226173 0.495520 -0.056122 2.000000
0.006215 0.421061 0.264588 2.000000
-0.035343 -0.438358 -0.237821 2.000000
-0.274674 -0.492670 -0.070879 2.000000
0.286939 -0.299974 0.394876 1.000000
-0.079070 0.135400 -0.481503 2.000000
-0.011113 -0.153005 0.471598 2.000000
-0.002485 -0.458631 0.190879 2.000000
0.014483 -0.274603 -0.417400 2.000000
-0.146666 0.470452 -0.167139 2.000000
0.211131 -0.134111 -0.481701 2.000000
-0.053778 -0.454968 -0.203657 2.000000
-0.217655 0.127734 -0.483619 2.000000
0.143589 0.451197 -0.214080 2.000000
0.093248 0.129546 0.478965 2.000000
-0.255982 0.445143 0.222026 2.000000
-0.069602 0.191138 0.458057 2.000000
-0.199472 -0.489000 -0.093992 2.000000
-0.066705 0.493839 -0.071514 2.000000
-0.093418 -0.381628 -0.321478 2.000000
-0.110712 -0.169799 0.465805 2.000000
-0.250829 -0.419490 -0.269768 2.000000
0.133515 -0.438630 0.232570 2.000000
0.118216 0.153969 -0.475973 2.000000
0.002994 -0.129355 0.478535 2.000000
-0.164564 -0.471750 -0.160078 2.000000
0.021790 0.491966 -0.082392 2.000000
-0.176141 -0.147344 -0.477664 2.000000
-0.083514 0.408898 0.283012 2.000000
-0.190410 0.322959 0.377568 2.000000
-0.212794 -0.311105 0.386479 2.000000
0.054798 -0.463704 0.178037 2.000000
-0.254603 -0.240763 0.433464 2.000000
-0.032301 -0.104933 0.484481 2.000000
-0.031284 -0.490962 -0.082687 2.000000
0.065332 -0.111617 0.483080 2.000000
0.181924 0.401585 0.292981 2.000000
0.162741 -0.121529 -0.484980 2.000000
-0.106338 -0.437243 -0.239766 2.000000
0.000468 0.404513 -0.293339 2.000000
0.115034 0.007189 -0.500075 2.000000
-0.169002 -0.312796 0.385107 2.000000
-0.024531 -0.242958 -0.436726 2.000000
-0.265018 0.157881 0.470408 2.000000
0.097765 0.289586 -0.407840 2.000000
-0.068396 0.414591 0.274388 2.000000
0.239272 0.186433 -0.464144 2.000000
-0.005195 0.425379 -0.261852 2.000000
-0.155590 0.227583 -0.445394 2.000000
0.018400 0.106842 0.484360 2.000000
-0.028769 -0.492379 0.069687 2.000000
-0.023537 -0.259987 -0.426541 2.000000
0.079308 0.382401 0.317418 2.000000
-0.260994 -0.002028 0.495796 2.000000
0.271267 -0.386975 0.310561 2.000000
-0.217291 0.492639 0.073827 2.000000
-0.073942 0.495648 -0.054937 2.000000
0.147754 -0.433661 -0.246012 2.000000
-0.002802 0.088608 0.487920 2.000000
-0.132375 0.482127 0.124423 2.000000
0.053464 0.282826 -0.412460 2.000000
-0.119455 0.047676 -0.497925 2.000000
-0.160341 -0.467125 0.168920 2.000000
-0.096265 0.268276 0.417759 2.000000
-0.073241 -0.402385 -0.294916 2.000000
0.090163 -0.309341 0.387809 2.000000
0.235521 0.082423 0.488985 2.000000
-0.151664 -0.185165 0.459892 2.000000
-0.194170 0.400111 -0.299634 2.000000
-0.007869 -0.323286 -0.380722 2.000000
0.103165 0.345260 -0.361488 2.000000
-0.235814 0.231010 0.439203 2.000000
0.196988 0.410863 -0.284260 2.000000
0.104377 0.427128 0.254837 2.000000
0.169323 0.274095 -0.418224 2.000000
0.032762 0.344770 -0.361965 2.000000
0.223462 -0.249679 0.428352 2.000000
0.140833 0.454245 0.203496 2.000000
-0.225259 0.391206 0.306738 2.000000
0.276035 0.205227 0.451734 2.000000
-0.151691 0.471939 0.158147 2.000000
-0.096775 -0.118321 0.481581 2.000000
0.244918 -0.037328 -0.498918 2.000000
0.135112 -0.307913 0.388886 2.000000
-0.203413 0.478434 0.137801 2.000000
-0.033752 0.296547 -0.402588 2.000000
-0.134462 -0.234254 0.437197 2.000000
0.008851 -0.095756 0.486403 2.000000
0.143349 0.230630 0.439403 2.000000
0.206870 -0.267324 -0.422068 2.000000
0.088402 -0.467639 -0.171996 2.000000
0.213777 -0.082238 -0.493194 2.000000
-0.232228 0.497559 -0.033222 2.000000
0.059886 -0.234798 0.436885 2.000000
-0.197638 0.496581 -0.046305 2.000000
-0.141208 0.385625 0.313662 2.000000
-0.018551 0.160380 0.469645 2.000000
0.256306 0.498219 -0.018488 2.000000
-0.160150 0.108322 -0.488339 2.000000
-0.283810 -0.084066 -0.492879 4.000000
-0.135333 0.330414 0.370841 2.000000
-0.040603 -0.377768 -0.325977 2.000000
-0.155876 0.341325 0.360958 2.000000
-0.210069 0.485934 -0.113200 2.000000
-0.259423 0.239445 -0.439161 2.000000
-0.153026 -0.459961 0.187913 2.000000
0.275937 0.177888 -0.467707 1.000000
0.077462 0.141167 -0.479911 2.000000
0.284358 0.401915 0.292544 1.000000
0.251866 -0.250550 -0.432294 2.000000
0.066578 -0.340825 -0.364837 2.000000
0.080713 0.148875 0.473156 2.000000
-0.025612 0.069529 -0.495314 2.000000
0.132286 0.356384 0.346104 2.000000
0.061179 0.487456 -0.106795 2.000000
0.119456 0.465707 -0.179785 2.000000
0.206535 0.092554 0.487241 2.000000
0.010470 -0.154699 0.471014 2.000000
0.089638 0.486687 -0.110030 2.000000
0.209085 0.234674 0.437274 2.000000
-0.222060 0.261992 -0.426215 2.000000
0.135813 0.028830 -0.499452 2.000000
0.073904 0.006051 0.495942 2.000000
-0.010720 -0.448394 0.213690 2.000000
0.071698 0.270915 0.416150 2.000000
0.090037 0.340980 -0.365655 2.000000
-0.056856 -0.065654 -0.495863 2.000000
0.087662 0.204672 -0.456540 2.000000
0.057836 0.212859 -0.452649 2.000000
-0.054251 0.434298 -0.247098 2.000000
0.207551 -0.179756 0.462147 2.000000
0.245384 -0.151329 -0.476448 2.000000
0.263978 -0.381886 -0.321178 2.000000
0.234813 -0.229551 0.439566 2.000000
-0.073995 0.201589 -0.457826 2.000000
0.239965 -0.186706 -0.463765 2.000000
-0.212115 0.379016 0.321363 2.000000
-0.271748 0.469578 -0.169469 2.000000
-0.251992 -0.399876 0.294150 2.000000
-0.039987 0.490827 0.085810 2.000000
0.153291 -0.102668 -0.489462 2.000000
-0.153798 0.452700 0.206690 2.000000
-0.087015 0.487592 0.101254 2.000000
0.158129 0.472635 0.156130 2.000000
-0.105681 -0.400137 0.293778 2.000000
-0.013204 0.024229 0.495198 2.000000
0.029079 0.401850 0.292630 2.000000
-0.155110 0.068308 0.491334 2.000000
0.266466 0.449754 -0.217296 2.000000
0.237556 0.418774 0.268053 2.000000
-0.152223 0.377713 0.322882 2.000000
-0.131402 -0.167227 0.466692 2.000000
0.002615 -0.029599 -0.499265 2.000000
0.260653 -0.490027 0.083347 2.000000
-0.085416 0.438298 0.235359 2.000000
0.222194 -0.128256 -0.483381 2.000000
-0.027111 -0.190688 0.457589 2.000000
0.024551 -0.247776 0.429443 2.000000
-0.136088 0.004674 -0.500121 2.000000
0.285328 0.199737 0.454198 1.000000
0.110852 0.118373 0.481620 2.000000
-0.005878 0.160353 0.469654 2.000000
0.164319 -0.497455 0.008324 2.000000
-0.048992 -0.464448 0.176054 2.000000
0.249243 -0.496680 0.025607 2.000000
0.155627 0.229796 0.439842 2.000000
0.027652 0.173242 0.464849 2.000000
-0.016462 0.496068 0.047368 2.000000
-0.269603 0.399323 -0.300714 2.000000
-0.259551 0.357491 -0.349580 2.000000
-0.001768 -0.197911 0.454578 2.000000
-0.108974 -0.495694 0.040672 2.000000
0.260778 0.083986 0.488716 2.000000
-0.240060 0.283873 0.407280 2.000000
0.268283 -0.272574 -0.418820 2.000000
0.068653 0.494272 -0.067674 2.000000
0.279145 -0.035020 -0.499022 1.000000
0.244220 -0.285666 0.405556 2.000000
0.181952 -0.495023 -0.051976 2.000000
0.241532 0.475932 -0.150252 2.000000
0.038925 -0.202977 -0.456637 2.000000
-0.155602 0.369485 -0.336544 2.000000
0.092987 0.462190 -0.189157 2.000000
-0.108527 -0.131686 -0.482441 2.000000
-0.204167 0.352480 -0.354459 2.000000
-0.128884 0.256652 -0.429295 2.000000
0.238676 -0.330604 -0.374094 2.000000
0.151170 0.230799 -0.443809 2.000000
-0.157942 -0.483210 0.115994 2.000000
0.162016 -0.253567 0.426122 2.000000
-0.229593 0.158816 0.470123 2.000000
-0.213404 0.156491 0.470832 2.000000
0.123791 -0.290984 -0.405944 2.000000
-0.234539 -0.492315 -0.073335 2.000000
0.223204 -0.496752 -0.030627 2.000000
-0.133680 -0.348374 -0.357633 2.000000
0.270396 -0.301095 -0.398539 2.000000
0.286702 -0.256923 -0.428409 1.000000
0.201745 -0.091219 0.487354 2.000000
0.145992 -0.378297 0.321330 2.000000
0.038025 0.358572 0.343856 2.000000
0.132075 -0.185464 -0.464231 2.000000
0.119323 -0.221339 -0.448109 2.000000
0.025184 0.481656 0.126129 2.000000
-0.209351 -0.395981 0.299266 2.000000
0.110072 -0.229410 -0.443859 2.000000
0.226436 -0.422282 -0.265540 2.000000
-0.028533 0.354965 -0.352040 2.000000
0.242884 0.411359 -0.283551 2.000000
0.103456 -0.057501 -0.496745 2.000000
-0.096426 -0.483518 0.114702 2.000000
0.114739 0.298512 -0.401106 2.000000
0.258431 0.398361 -0.301920 2.000000
-0.061770 -0.189979 -0.462470 2.000000
-0.284913 -0.447846 0.214912 4.000000
0.085775 0.138071 0.476452 2.000000
-0.181017 0.340167 0.362007 2.000000
0.040671 -0.178412 0.462708 2.000000
0.010986 -0.233078 0.437828 2.000000
0.078383 0.361489 0.340860 2.000000
-0.228838 0.496106 0.046899 2.000000
0.161164 -0.395128 -0.304535 2.000000
-0.144513 -0.403347 -0.293641 2.000000
-0.193148 -0.132329 -0.482245 2.000000
-0.254722 0.069972 0.491128 2.000000
0.144442 -0.179026 0.462452 2.000000
0.061227 0.255418 -0.430002 2.000000
0.244766 0.493543 0.067577 2.000000
-0.013338 -0.327578 0.372423 2.000000
0.139061 -0.492212 0.070655 2.000000
0.006926 0.470692 0.161763 2.000000
-0.063847 0.026517 -0.499639 2.000000
0.026011 0.240955 -0.438295 2.000000
0.016897 0.479221 0.134950 2.000000
-0.174114 0.474404 -0.155262 2.000000
0.101619 -0.263260 0.420348 2.000000
0.038113 0.029165 -0.499425 2.000000
0.097493 -0.300366 0.394581 2.000000
0.193729 0.485296 0.112213 2.000000
-0.164331 0.241818 0.433512 2.000000
-0.153040 -0.060360 -0.496436 2.000000
-0.289328 -0.455001 -0.203577 4.000000
0.118639 0.456023 -0.203326 2.000000
-0.044920 0.411866 -0.282825 2.000000
0.022844 0.328430 -0.376924 2.000000
-0.228932 0.490132 0.089128 2.000000
0.243794 -0.208823 0.449780 2.000000
0.130565 -0.250830 0.427692 2.000000
-0.090380 -0.469474 -0.166676 2.000000
-0.163760 0.494063 0.063983 2.000000
-0.221710 -0.005072 0.495742 2.000000
0.069506 -0.244064 0.431572 2.000000
0.015343 0.396443 -0.304325 2.000000
-0.123918 -0.496433 0.031126 2.000000
0.171112 0.399150 -0.300930 2.000000
-0.100165 -0.081059 0.489144 2.000000
0.186784 -0.290171 -0.406513 2.000000
-0.095633 -0.390995 0.305518 2.000000
-0.134885 -0.303904 -0.396299 2.000000
0.127611 -0.417558 -0.272696 2.000000
-0.255474 -0.433514 0.242286 2.000000
0.172187 -0.456596 0.195412 2.000000
0.253734 0.495696 0.051965 2.000000
0.245178 -0.395042 0.300444 2.000000
0.085091 0.287804 0.404531 2.000000
0.207471 -0.070404 0.490686 2.000000
0.007278 -0.428574 -0.254882 2.000000
0.132094 -0.298369 0.396087 2.000000
0.013990 -0.214101 0.447179 2.000000
-0.283911 -0.183186 -0.465086 4.000000
0.036253 0.210930 -0.453600 2.000000
0.243123 -0.083368 -0.492999 2.000000
-0.075054 -0.316524 0.381908 2.000000
0.210076 0.327363 -0.377840 2.000000
-0.038136 -0.146888 -0.477803 2.000000
-0.268657 0.253837 0.426561 2.000000
-0.153270 0.195306 0.456186 2.000000
0.219939 0.281535 -0.413313 2.000000
-0.157294 -0.496414 0.031537 2.000000
0.161701 0.343501 -0.363201 2.000000
0.097664 -0.497377 -0.009366 2.000000
0.125793 -0.149818 -0.476909 2.000000
-0.004414 0.315390 0.383604 2.000000
-0.130601 -0.462202 0.182042 2.000000
-0.234170 0.309626 -0.392721 2.000000
0.194142 0.473864 0.152568 2.000000
0.163793 -0.466333 -0.175783 2.000000
0.049184 0.138355 0.476366 2.000000
0.136069 0.124823 0.480087 2.000000
-0.103512 0.099645 -0.490156 2.000000
-0.061910 -0.337355 0.363833 2.000000
-0.250715 0.152506 -0.476477 2.000000
-0.081923 -0.453928 0.201357 2.000000
0.035428 0.454830 0.202094 2.000000
-0.287429 -0.148621 0.473110 4.000000
0.255967 -0.114168 0.482546 2.000000
0.257261 -0.353166 -0.352710 2.000000
-0.263633 -0.145344 0.474122 2.000000
0.002857 0.491562 0.081268 2.000000
0.057110 0.347570 -0.359239 2.000000
-0.199460 -0.424992 -0.261130 2.000000
-0.215368 0.193296 0.457088 2.000000
0.276674 -0.416733 -0.273945 1.000000
-0.102089 -0.419773 0.265013 2.000000
0.181904 0.419054 0.267629 2.000000
0.117879 0.498115 0.020946 2.000000
0.092807 0.384270 0.315240 2.000000
-0.089593 0.345576 -0.361180 2.000000
-0.008504 -0.493526 0.060738 2.000000
0.140090 -0.334061 -0.370963 2.000000
-0.216445 -0.495902 -0.041120 2.000000
-0.167501 0.494009 -0.070106 2.000000
0.087469 0.439895 0.232575 2.000000
-0.071574 -0.496867 0.021441 2.000000
0.045847 0.350019 -0.356855 2.000000
-0.232504 -0.176864 0.463353 2.000000
-0.169588 -0.322832 -0.381133 2.000000
0.246668 -0.493039 0.065247 2.000000
-0.111020 -0.156094 -0.474994 2.000000
-0.253132 -0.077737 0.489625 2.000000
-0.108445 0.479161 0.135165 2.000000
-0.030500 0.260515 -0.427079 2.000000
-0.075545 0.348273 0.354436 2.000000
-0.146816 -0.360838 0.340606 2.000000
-0.062936 -0.443529 -0.227575 2.000000
0.261406 -0.102450 0.485001 2.000000
0.212656 -0.245719 0.430623 2.000000
0.052343 -0.478176 -0.139374 2.000000
0.159624 -0.417483 0.268769 2.000000
0.126551 -0.494451 -0.058569 2.000000
-0.176134 -0.496710 0.024938 2.000000
0.185840 0.107129 0.484292 2.000000
0.040796 -0.348665 -0.357333 2.000000
0.127726 -0.488486 -0.096449 2.000000
0.142149 0.495024 0.057341 2.000000
0.206757 -0.456405 -0.200209 2.000000
0.079328 0.195412 0.456139 2.000000
0.023756 -0.324638 -0.379497 2.000000
-0.245082 -0.431671 0.245496 2.000000
-0.122159 0.491513 0.081611 2.000000
0.141730 -0.285257 -0.409949 2.000000
0.252639 0.064560 -0.496033 2.000000
-0.130674 0.153263 0.471817 2.000000
-0.109486 -0.497214 0.013715 2.000000
-0.048839 0.189229 0.458849 2.000000
-0.127006 -0.474530 0.147137 2.000000
0.106516 0.479134 -0.139758 2.000000
-0.055447 0.279711 0.410191 2.000000
-0.160222 0.472667 -0.160953 2.000000
0.158313 0.376571 0.324213 2.000000
0.049164 -0.462239 -0.186218 2.000000
0.239676 -0.282965 -0.411552 2.000000
0.055844 0.423216 0.261325 2.000000
0.248821 0.259380 0.423182 2.000000
-0.288819 0.391116 0.306858 4.000000
0.274038 -0.491732 0.073443 2.000000
0.008160 -0.017098 -0.499826 2.000000
0.049563 0.480568 0.130068 2.000000
-0.066193 0.448874 0.214454 2.000000
0.169525 0.027063 0.495071 2.000000
0.082474 -0.278978 -0.414340 2.000000
-0.128778 0.451663 0.208795 2.000000
0.215566 -0.337817 0.363383 2.000000
0.111702 0.430791 -0.252974 2.000000
-0.059513 0.153122 -0.476265 2.000000
0.233562 -0.167485 0.466603 2.000000
-0.132695 -0.335499 -0.369660 2.000000
0.032440 0.213262 0.448129 2.000000
-0.170229 0.492498 0.074797 2.000000
0.097834 0.398888 -0.301259 2.000000
-0.275280 0.364415 -0.342141 2.000000
-0.090293 -0.428425 -0.255144 2.000000
-0.112215 0.496733 -0.044901 2.000000
0.086890 0.495650 -0.054923 2.000000
0.056331 0.088478 0.487943 2.000000
0.062620 0.168289 -0.471033 2.000000
-0.245380 0.310881 0.387199 2.000000
0.222582 -0.274993 0.412601 2.000000
-0.138043 -0.355137 0.346521 2.000000
0.209300 -0.437242 0.235206 2.000000
-0.185111 0.497538 0.029228 2.000000
0.222785 -0.391772 0.304545 2.000000
-0.002959 -0.130499 -0.482803 2.000000
0.126086 -0.489937 0.083873 2.000000
-0.036800 0.476303 -0.149038 2.000000
-0.172420 -0.443439 0.223437 2.000000
-0.120614 -0.370980 -0.333888 2.000000
-0.153139 0.060098 -0.496678 2.000000
0.160329 -0.372842 -0.331717 2.000000
-0.187099 -0.461729 0.183300 2.000000
-0.192613 -0.211855 0.448286 2.000000
0.219483 0.317636 0.381813 2.000000
-0.288559 0.205482 -0.456202 4.000000
0.237254 0.460194 0.189226 2.000000
-0.152920 0.349000 0.353689 2.000000
0.077498 0.437574 -0.240876 2.000000
0.046760 -0.047549 0.493499 2.000000
-0.208533 0.367102 0.335095 2.000000
-0.219441 -0.101702 -0.489691 2.000000
-0.063686 -0.128207 0.478852 2.000000
0.101295 0.495795 -0.053575 2.000000
0.195246 -0.489845 -0.089961 2.000000
-0.056565 -0.419117 -0.270334 2.000000
-0.134575 0.319818 -0.384314 2.000000
-0.009818 0.076802 0.489953 2.000000
0.168107 0.197032 -0.459725 2.000000
-0.175515 0.151906 0.472231 2.000000
0.053041 -0.356907 0.344798 2.000000
0.284735 -0.473082 0.151884 1.000000
0.032336 -0.028209 -0.499327 2.000000
0.262068 0.280223 0.409833 2.000000
-0.269193 -0.346754 0.354683 2.000000
0.260239 0.298998 0.396675 2.000000
0.019773 0.115557 -0.486823 2.000000
0.080939 -0.382452 0.316233 2.000000
0.228792 0.481683 -0.131088 2.000000
0.138254 0.371981 0.329563 2.000000
-0.231590 0.487913 0.099723 2.000000
0.083140 0.151157 -0.476942 2.000000
-0.140043 -0.419762 -0.269356 2.000000
-0.290007 -0.221247 -0.448157 4.000000
0.038642 -0.015640 0.495551 2.000000
0.038961 -0.187118 -0.463610 2.000000
0.133602 -0.079834 0.489321 2.000000
-0.135389 -0.318347 -0.384782 2.000000
0.145852 -0.225554 -0.445890 2.000000
-0.137997 -0.283354 0.407082 2.000000
0.091091 0.398875 0.296574 2.000000
-0.046282 0.477159 0.142421 2.000000
-0.273082 0.044596 0.493897 2.000000
0.162804 -0.341192 -0.364504 2.000000
-0.245454 0.434774 -0.246193 2.000000
0.277185 0.396249 0.300055 2.000000
0.284000 0.138340 0.476370 1.000000
-0.031134 0.427423 -0.258498 2.000000
-0.038005 -0.105061 -0.488893 2.000000
0.173363 0.021111 -0.499824 2.000000
0.220518 0.237834 -0.440085 2.000000
0.124551 -0.291092 0.401577 2.000000
0.166906 -0.441782 0.226585 2.000000
-0.119912 -0.321767 -0.382055 2.000000
-0.075922 -0.374296 -0.330024 2.000000
-0.000835 -0.075119 0.490004 2.000000
-0.008440 -0.348954 0.352541 2.000000
0.266813 -0.344193 -0.361786 2.000000
0.148742 -0.305006 0.391079 2.000000
-0.268523 0.409747 -0.285855 2.000000
-0.281534 -0.059556 0.492255 4.000000
0.284009 -0.428606 0.250523 1.000000
-0.070263 -0.330971 0.369511 2.000000
-0.103406 0.498181 0.017250 2.000000
-0.085666 -0.121735 0.480639 2.000000
0.199564 0.366721 0.335487 2.000000
0.059043 -0.441940 -0.230800 2.000000
-0.266278 0.494278 0.062494 2.000000
-0.159825 0.495736 0.051460 2.000000
-0.005446 0.006622 -0.500086 2.000000
0.198685 -0.303618 0.392127 2.000000
-0.196395 -0.363872 0.337256 2.000000
0.010836 0.181816 -0.466069 2.000000
0.006508 0.316001 -0.387589 2.000000
0.068567 0.345864 -0.360900 2.000000
0.183988 0.023886 -0.499774 2.000000
-0.067741 -0.466170 -0.176254 2.000000
-0.031821 -0.226095 0.441269 2.000000
-0.113737 0.497668 -0.030785 2.000000
-0.277870 -0.494235 0.054175 2.000000
-0.082195 -0.375692 0.324206 2.000000
-0.280242 -0.017597 0.495516 2.000000
-0.100074 -0.307830 -0.393168 2.000000
0.167809 0.113897 -0.487171 2.000000
0.120012 -0.054867 0.492906 2.000000
0.263068 0.111599 -0.487652 2.000000
0.083289 -0.165990 0.467119 2.000000
0.043016 -0.223762 -0.446833 2.000000
0.169836 -0.462438 0.181412 2.000000
0.228534 -0.457917 -0.196584 2.000000
0.121255 -0.462955 0.180034 2.000000
0.198819 -0.005757 0.495729 2.000000
-0.051170 -0.142286 -0.479207 2.000000
-0.089969 0.302859 -0.397826 2.000000
-0.048185 -0.494566 -0.057613 2.000000
0.032533 -0.360404 0.341086 2.000000
-0.245857 -0.471402 -0.161087 2.000000
-0.065117 -0.320524 0.378475 2.000000
0.024359 0.067996 -0.495536 2.000000
-0.097728 -0.340509 0.360762 2.000000
0.120664 0.363802 -0.342818 2.000000
-0.235238 0.026411 -0.499648 2.000000
-0.289913 0.347879 0.354840 4.000000
0.102411 -0.399852 0.294186 2.000000
0.125949 -0.497237 0.013202 2.000000
0.105857 0.055836 -0.497264 2.000000
-0.177263 0.020619 0.495360 2.000000
-0.074886 -0.489445 -0.091868 2.000000
-0.220982 -0.305306 0.390853 2.000000
-0.239461 0.015794 -0.499920 2.000000
0.225033 0.497984 0.023715 2.000000
0.286802 0.416346 -0.276420 1.000000
-0.095721 -0.494225 0.054269 2.000000
0.232260 0.066671 0.491511 2.000000
0.257572 -0.176867 -0.467457 2.000000
-0.070779 -0.343928 0.357433 2.000000
-0.276971 -0.301284 0.393888 2.000000
-0.167250 0.437500 -0.241015 2.000000
-0.223010 0.498434 0.003199 2.000000
-0.286670 0.302542 -0.398065 4.000000
-0.016699 -0.397756 0.297039 2.000000
-0.133554 0.497783 0.026196 2.000000
-0.121694 -0.186036 0.459529 2.000000
-0.148494 0.257480 -0.428820 2.000000
-0.244335 -0.475018 -0.150605 2.000000
0.238117 0.492617 -0.078609 2.000000
-0.187172 0.243845 0.432445 2.000000
0.054111 -0.377714 0.321973 2.000000
-0.142819 -0.448319 -0.217854 2.000000
-0.145171 -0.443600 -0.227431 2.000000
0.166600 -0.075631 -0.494331 2.000000
-0.264606 0.456618 0.197804 2.000000
0.192273 -0.327198 0.372748 2.000000
-0.229001 0.474007 -0.156562 2.000000
-0.074267 0.169346 -0.470668 2.000000
-0.048946 -0.131391 0.477974 2.000000
-0.175098 0.065242 0.491665 2.000000
-0.168559 0.004682 -0.500121 2.000000
-0.201859 -0.494234 0.054189 2.000000
0.066232 -0.437750 -0.238881 2.000000
-0.050033 -0.278813 -0.414456 2.000000
-0.016384 -0.166089 -0.471501 2.000000
0.028353 0.489058 0.094255 2.000000
-0.088287 -0.422430 -0.265316 2.000000
-0.267722 -0.495067 0.046477 2.000000
-0.178851 0.496397 0.043303 2.000000
-0.260075 -0.393195 -0.307097 2.000000
-0.178137 -0.173481 0.464535 2.000000
0.209875 0.477611 -0.144752 2.000000
-0.170584 -0.452919 0.203606 2.000000
-0.057360 -0.328526 0.371609 2.000000
0.081100 -0.364134 -0.341445 2.000000
0.123773 0.133039 0.477988 2.000000
-0.022908 0.105207 -0.488991 2.000000
0.276312 -0.066912 0.491191 2.000000
0.236258 0.106329 -0.488756 2.000000
-0.159809 0.264752 -0.424393 2.000000
-0.248028 -0.322500 -0.381434 2.000000
0.144072 0.433988 -0.247687 2.000000
-0.109997 0.444980 0.222356 2.000000
0.178996 0.294135 -0.404408 2.000000
-0.045272 0.173598 -0.469201 2.000000
-0.260678 0.473309 0.154177 2.000000
-0.261738 -0.482835 0.117573 2.000000
-0.171172 -0.466359 0.170963 2.000000
0.019691 0.051648 0.493134 2.000000
-0.074010 -0.262489 0.420856 2.000000
0.106413 -0.422287 0.260888 2.000000
-0.054040 0.462966 -0.187090 2.000000
0.193468 0.161535 -0.473363 2.000000
0.157968 0.025689 0.495133 2.000000
-0.152273 0.418055 -0.273865 2.000000
0.190560 0.187695 -0.463618 2.000000
-0.034198 -0.356363 0.345328 2.000000
-0.154433 -0.479800 0.129865 2.000000
-0.020198 0.238305 -0.439815 2.000000
0.066396 -0.265561 -0.423142 2.000000
0.103962 -0.389003 0.308017 2.000000
-0.099242 0.476006 0.146357 2.000000
0.223459 0.456819 0.197323 2.000000
0.000612 -0.316682 -0.386110 2.000000
0.225827 -0.085605 -0.492614 2.000000
-0.008047 0.485890 0.109378 2.000000
-0.014487 0.369050 0.332977 2.000000
-0.147229 0.463032 -0.186914 2.000000
-0.168162 0.210720 0.449269 2.000000
-0.168863 -0.292202 -0.405092 2.000000
-0.289042 -0.198643 -0.458582 4.000000
0.234045 0.163693 0.468432 2.000000
0.019332 0.220555 -0.448858 2.000000
0.099407 0.204451 -0.456632 2.000000
-0.091836 0.488678 -0.101490 2.000000
-0.155527 -0.184259 -0.464683 2.000000
-0.163124 0.444320 -0.228062 2.000000
0.041453 -0.035357 -0.499007 2.000000
0.238304 -0.480145 0.128734 2.000000
-0.227609 -0.152036 0.471932 2.000000
-0.237294 0.212984 0.448254 2.000000
-0.021737 -0.022298 -0.499592 2.000000
-0.161868 -0.163830 -0.472349 2.000000
-0.257368 0.374062 -0.331490 2.000000
0.068619 0.354800 -0.352200 2.000000
0.040384 0.145989 0.474036 2.000000
0.109645 0.277264 0.411902 2.000000
-0.287409 0.288009 0.404388 4.000000
0.204682 0.256460 0.424962 2.000000
0.001519 0.081609 -0.493566 2.000000
0.270800 -0.432035 0.244899 2.000000
0.051498 0.057943 -0.496990 2.000000
0.256979 -0.210676 -0.453182 2.000000
0.253841 0.481451 0.126870 2.000000
0.163957 0.393694 -0.307773 2.000000
-0.066621 -0.224610 0.442001 2.000000
-0.125628 0.494896 0.058227 2.000000
-0.009854 -0.474588 0.146947 2.000000
-0.126160 -0.326649 0.373219 2.000000
-0.070833 -0.328329 -0.376154 2.000000
-0.183501 0.321521 -0.382853 2.000000
0.266754 -0.458986 0.190088 2.000000
0.286390 -0.031502 0.494799 1.000000
-0.103294 0.305715 -0.395671 2.000000
-0.159821 -0.234183 -0.441346 2.000000
-0.041934 0.234745 -0.441857 2.000000
0.074629 0.119218 -0.485970 2.000000
-0.284290 0.494351 0.061994 2.000000
-0.107940 -0.344281 0.357090 2.000000
-0.191136 0.331968 0.369434 2.000000
-0.165458 0.498028 0.023181 2.000000
-0.258381 0.411554 0.278990 2.000000
0.166378 -0.079813 0.489324 2.000000
0.125042 -0.196621 -0.459490 2.000000
0.237144 -0.315377 0.382892 2.000000
-0.267250 0.491125 -0.087278 2.000000
0.180129 0.470938 -0.165844 2.000000
0.238353 0.497872 0.025106 2.000000
0.085621 -0.475105 -0.150351 2.000000
-0.049595 0.101642 -0.489738 2.000000
0.110183 -0.249183 0.428636 2.000000
-0.168453 0.317010 -0.386724 2.000000
-0.202723 -0.166170 0.467057 2.000000
0.183187 0.145793 0.474096 2.000000
0.280421 -0.476549 -0.145270 1.000000
-0.089334 -0.475044 0.145452 2.000000
0.152466 0.128789 -0.483328 2.000000
0.141959 0.075249 0.490220 2.000000
0.201343 0.051358 0.493166 2.000000
0.283735 -0.469331 0.163042 1.000000
-0.243223 0.175951 0.463832 2.000000
-0.041405 0.016680 -0.499904 2.000000
0.166767 -0.152480 0.471779 2.000000
-0.216490 -0.104237 0.484626 2.000000
0.181380 0.158565 0.470199 2.000000
-0.119902 0.436890 0.237815 2.000000
-0.107925 0.464751 -0.182333 2.000000
0.265805 0.001267 -0.500182 2.000000
-0.112121 0.260722 0.422364 2.000000
0.282531 -0.495061 0.046530 1.000000
0.090913 0.059394 -0.496780 2.000000
0.239492 0.323666 -0.381012 2.000000
-0.036149 -0.294057 -0.403795 2.000000
-0.126656 -0.273572 -0.418121 2.000000
-0.247280 -0.464621 -0.180502 2.000000
-0.069846 -0.491279 -0.080497 2.000000
0.189471 -0.424942 -0.261217 2.000000
0.087959 -0.494084 -0.061105 2.000000
0.170329 0.495940 -0.052230 2.000000
0.074069 -0.173238 -0.468819 2.000000
-0.198142 -0.224630 0.441991 2.000000
-0.075580 0.404423 -0.293469 2.000000
-0.154319 0.480112 -0.136554 2.000000
0.127410 0.452329 -0.211558 2.000000
-0.080390 0.491367 0.082618 2.000000
-0.037389 -0.393666 -0.306473 2.000000
-0.017466 -0.497098 -0.024830 2.000000
0.259868 -0.271475 0.414924 2.000000
-0.183911 0.404754 -0.292995 2.000000
0.209283 -0.247151 -0.434366 2.000000
-0.164234 -0.117532 0.481799 2.000000
0.216403 0.196092 0.455833 2.000000
0.234123 -0.186856 0.459187 2.000000
0.202779 -0.033185 0.494663 2.000000
0.139344 0.153147 -0.476256 2.000000
-0.061778 -0.470872 0.158934 2.000000
-0.069776 0.462299 -0.188868 2.000000
-0.221460 -0.020417 -0.499677 2.000000
-0.074681 0.308781 -0.393359 2.000000
-0.220714 -0.407570 0.283149 2.000000
-0.045170 -0.302596 -0.397342 2.000000
0.090347 0.301214 -0.399067 2.000000
-0.167237 -0.378705 0.320879 2.000000
0.179994 0.225918 -0.446215 2.000000
-0.237159 0.487160 -0.108041 2.000000
0.130364 0.213978 -0.452098 2.000000
-0.104492 0.365216 -0.341257 2.000000
0.073516 0.368769 0.333306 2.000000
0.261152 0.230927 0.439247 2.000000
-0.002269 0.157367 -0.474800 2.000000
-0.041238 0.283832 -0.411796 2.000000
0.003334 -0.420563 0.263718 2.000000
0.039351 -0.440914 0.228233 2.000000
-0.193002 0.331717 -0.374104 2.000000
-0.229310 0.220163 0.444914 2.000000
-0.010824 0.191659 -0.461965 2.000000
0.128920 0.133478 -0.482034 2.000000
-0.165408 -0.212079 -0.452553 2.000000
0.183892 0.412519 -0.281892 2.000000
-0.239852 -0.452619 0.204275 2.000000
-0.090646 -0.425544 0.255547 2.000000
-0.270344 -0.036030 -0.498976 2.000000
0.131112 0.059056 -0.496829 2.000000
0.153696 -0.032825 -0.499120 2.000000
-0.029825 0.484160 0.117058 2.000000
0.182540 -0.466776 0.169851 2.000000
0.256952 0.433675 0.243421 2.000000
0.214990 0.497328 0.031817 2.000000
0.218221 0.137971 0.476483 2.000000
0.116784 -0.351122 0.350430 2.000000
-0.272747 0.496467 -0.047363 2.000000
0.041405 -0.447952 -0.218599 2.000000
-0.152696 -0.287487 -0.408390 2.000000
-0.147371 0.360273 -0.346715 2.000000
-0.115580 0.241530 0.433664 2.000000
-0.014047 0.484210 -0.120455 2.000000
0.282752 0.200365 -0.458336 1.000000
-0.204213 -0.377387 -0.326421 2.000000
0.285685 0.498121 0.020612 1.000000
0.078390 0.431578 -0.251683 2.000000
-0.088646 0.100813 -0.489912 2.000000
0.086180 -0.487047 0.099849 2.000000
-0.138028 -0.382965 -0.319920 2.000000
-0.049686 -0.334294 -0.370752 2.000000
-0.129431 0.374402 -0.331115 2.000000
-0.216580 -0.297063 -0.401692 2.000000
-0.011645 -0.216345 0.446073 2.000000
0.280979 0.359959 0.342432 1.000000
-0.019068 -0.488600 -0.095902 2.000000
-0.054484 -0.344558 -0.361455 2.000000
-0.286354 -0.110459 0.483323 4.000000
-0.190181 0.399972 0.295119 2.000000
-0.059512 -0.497503 -0.002349 2.000000
-0.127120 -0.454896 -0.203830 2.000000
-0.074131 0.475190 -0.152687 2.000000
-0.036223 -0.337343 -0.367990 2.000000
0.118937 0.214263 -0.451958 2.000000
0.077922 -0.413170 0.275143 2.000000
0.146299 0.391578 0.306245 2.000000
0.025166 -0.384271 -0.318398 2.000000
-0.211504 -0.203626 -0.456346 2.000000
0.039713 -0.231681 0.438517 2.000000
-0.271206 -0.490437 -0.086319 2.000000
-0.078843 -0.291116 -0.405852 2.000000
0.080807 -0.062757 -0.496177 2.000000
0.227927 -0.430775 -0.251046 2.000000
0.217656 0.157444 -0.474774 2.000000
0.048214 -0.178742 -0.466753 2.000000
0.218552 -0.200013 0.453702 2.000000
0.221910 -0.495461 0.042831 2.000000
-0.249759 0.493339 0.068988 2.000000
0.281738 0.457366 -0.200334 1.000000
-0.225459 -0.371394 0.328952 2.000000
-0.206481 -0.232458 0.438134 2.000000
0.235356 -0.093658 -0.491228 2.000000
-0.034391 -0.134154 -0.481688 2.000000
-0.194654 0.095543 -0.491016 2.000000
0.034626 -0.417327 0.269025 2.000000
0.151442 0.155058 -0.475597 2.000000
-0.128290 0.498316 -0.016345 2.000000
-0.280345 -0.226640 -0.445318 4.000000
-0.102567 0.472224 -0.162405 2.000000
-0.110274 -0.464683 -0.180355 2.000000
0.184192 0.358361 0.344073 2.000000
0.178383 -0.107369 0.483970 2.000000
-0.112945 -0.254208 0.425754 2.000000
-0.020186 -0.494032 0.056053 2.000000
0.214786 -0.040356 0.494082 2.000000
0.264115 -0.199092 -0.458381 2.000000
0.024516 -0.260455 -0.426255 2.000000
0.070845 -0.296624 -0.401999 2.000000
-0.131576 -0.245075 0.430992 2.000000
0.152229 -0.266175 -0.422768 2.000000
0.239687 -0.462577 0.181042 2.000000
0.232672 -0.337070 -0.368238 2.000000
-0.101542 0.412613 0.277385 2.000000
0.195088 0.486523 -0.110721 2.000000
0.268615 0.478997 0.135760 2.000000
0.123706 0.498277 0.011916 2.000000
0.160020 -0.496459 0.030542 2.000000
-0.274363 -0.488131 -0.098143 2.000000
0.213360 0.473346 0.154068 2.000000
0.057080 0.450396 0.211367 2.000000
-0.140049 0.059266 -0.496799 2.000000
-0.080988 0.340722 -0.365906 2.000000
-0.084460 -0.100760 0.485355 2.000000
0.123903 0.025636 -0.499711 2.000000
0.269390 0.363755 -0.342871 2.000000
-0.044127 -0.480689 0.126605 2.000000
0.187955 0.064319 0.491765 2.000000
0.105911 -0.425839 -0.259653 2.000000
-0.117139 0.343832 -0.362878 2.000000
-0.226117 -0.382547 -0.320408 2.000000
-0.164403 -0.419438 0.265563 2.000000
-0.144626 0.374059 -0.331494 2.000000
0.219745 0.444968 0.222381 2.000000
0.074058 -0.473420 -0.155236 2.000000
-0.202332 0.488039 0.099119 2.000000
0.071888 -0.447509 0.215662 2.000000
-0.113337 -0.192477 0.456844 2.000000
-0.001293 0.044399 -0.498191 2.000000
-0.124458 0.498381 0.006137 2.000000
-0.141122 -0.453618 0.202050 2.000000
-0.063162 -0.461551 0.183777 2.000000
-0.242785 0.395553 -0.305441 2.000000
-0.031500 0.319757 -0.384366 2.000000
0.159186 0.444305 -0.228092 2.000000
-0.265712 -0.496424 0.031323 2.000000
0.174964 -0.474554 0.147057 2.000000
-0.290240 -0.330355 0.370039 4.000000
0.043246 0.305393 0.391575 2.000000
0.129509 -0.055455 -0.496966 2.000000
0.017571 -0.471436 -0.160989 2.000000
0.128953 0.365622 0.336615 2.000000
0.224238 0.354465 0.348076 2.000000
0.189977 -0.267602 0.417481 2.000000
-0.010954 0.444710 -0.227323 2.000000
0.123536 0.250100 -0.433051 2.000000
-0.278342 0.064739 -0.496007 2.000000
-0.118279 -0.091606 0.487273 2.000000
-0.106596 -0.451003 -0.212407 2.000000
0.105866 0.463513 -0.185631 2.000000
-0.185574 0.254918 -0.430289 2.000000
0.252143 0.498173 0.017715 2.000000
-0.066229 -0.481390 0.123655 2.000000
-0.278919 0.408128 0.284178 2.000000
0.257711 0.307976 0.389516 2.000000
0.253683 -0.214827 0.446821 2.000000
0.227811 -0.415865 -0.275260 2.000000
-0.102841 0.166632 0.467329 2.000000
-0.009780 -0.487522 -0.101050 2.000000
-0.199159 0.035972 0.494672 2.000000
0.187966 -0.488338 0.093158 2.000000
0.106106 -0.021615 -0.499623 2.000000
0.093943 -0.413276 0.274991 2.000000
0.236091 0.464812 0.178151 2.000000
0.181589 0.485957 0.109058 2.000000
0.052583 0.262877 -0.425630 2.000000
0.049151 0.426957 -0.259263 2.000000
0.073327 0.292631 0.401156 2.000000
0.116224 0.488597 0.096456 2.000000
0.053491 -0.467382 -0.172740 2.000000
-0.097604 -0.171763 0.465127 2.000000
0.015184 -0.496889 -0.028945 2.000000
0.083091 -0.250276 -0.432461 2.000000
0.197641 0.317246 0.382124 2.000000
-0.222587 0.487509 -0.106571 2.000000
0.181446 0.459878 -0.194736 2.000000
-0.177831 -0.336340 -0.368899 2.000000
-0.052778 -0.016218 -0.499865 2.000000
-0.206475 -0.067824 0.491059 2.000000
0.057705 0.496752 0.038927 2.000000
-0.130889 0.247029 0.430711 2.000000
-0.098621 0.007204 -0.500075 2.000000
-0.175594 0.483471 -0.123566 2.000000
-0.077098 -0.470113 0.160957 2.000000
0.194661 -0.110477 -0.487606 2.000000
0.270702 -0.494995 -0.052322 2.000000
0.009950 -0.118537 0.481522 2.000000
-0.163845 0.309664 -0.392692 2.000000
-0.081650 0.351243 -0.355663 2.000000
0.286815 0.338194 -0.368367 1.000000
-0.234090 -0.459401 -0.193023 2.000000
-0.047840 -0.291530 -0.405562 2.000000
0.139713 0.285098 -0.410960 2.000000
0.113674 -0.328044 0.372022 2.000000
-0.200029 0.423158 0.261412 2.000000
-0.094217 0.427028 0.255013 2.000000
-0.227877 -0.389097 0.307899 2.000000
0.206625 -0.256783 0.424278 2.000000
-0.255866 -0.054297 -0.497091 2.000000
0.211731 0.408767 0.283211 2.000000
0.141288 -0.358138 -0.347603 2.000000
-0.190530 0.209350 -0.454379 2.000000
-0.029641 0.396424 0.299823 2.000000
-0.208075 -0.368996 -0.336199 2.000000
0.256250 0.298191 -0.401348 2.000000
0.040328 0.445210 0.221891 2.000000
0.238026 0.236665 0.436226 2.000000
-0.160388 0.490479 0.087474 2.000000
0.154982 -0.486657 -0.105179 2.000000
-0.153788 0.074630 -0.494576 2.000000
0.263944 -0.487675 -0.100316 2.000000
-0.228716 0.371643 0.329956 2.000000
0.008132 0.093046 0.487156 2.000000
-0.221391 -0.439137 -0.236462 2.000000
-0.185249 -0.417484 -0.272808 2.000000
-0.095016 -0.457638 0.193092 2.000000
-0.124003 0.081002 0.489230 2.000000
0.002089 -0.176300 -0.467670 2.000000
-0.010229 0.306551 -0.395041 2.000000
-0.228244 0.286373 0.405532 2.000000
0.115815 0.315880 -0.387693 2.000000
-0.056848 -0.401749 0.291473 2.000000
-0.287092 0.292489 -0.405650 4.000000
0.099201 -0.130023 -0.482949 2.000000
0.142921 0.410928 -0.284166 2.000000
0.172415 0.465862 0.175633 2.000000
-0.158452 -0.294631 -0.403393 2.000000
-0.111545 0.337284 -0.369253 2.000000
0.117894 -0.497476 -0.003896 2.000000
-0.110160 0.008082 -0.500059 2.000000
-0.276458 -0.120646 -0.485190 2.000000
0.083556 -0.486553 -0.105675 2.000000
-0.117442 -0.493182 -0.067343 2.000000
0.190015 0.477083 0.142692 2.000000
0.149373 -0.448784 0.212822 2.000000
-0.123312 -0.210538 -0.453244 2.000000
0.128663 0.337697 0.364245 2.000000
-0.085652 -0.404277 -0.292408 2.000000
0.162861 0.075922 -0.494389 2.000000
0.067794 0.024862 -0.499757 2.000000
-0.268395 -0.204875 -0.455786 2.000000
0.243462 -0.223069 -0.447198 2.000000
0.143077 -0.485707 -0.109714 2.000000
-0.001069 -0.240109 -0.438226 2.000000
-0.118983 0.305980 0.391107 2.000000
0.065670 0.390588 -0.311667 2.000000
-0.280078 -0.288206 -0.407887 4.000000
-0.243371 0.355062 0.347462 2.000000
-0.161274 0.487051 -0.108497 2.000000
0.225947 0.497327 -0.038382 2.000000
-0.212647 -0.473647 -0.154578 2.000000
-0.166833 -0.140766 -0.479671 2.000000
0.068232 0.180097 -0.466786 2.000000
-0.289454 0.148046 -0.478012 4.000000
0.065912 -0.331868 0.368741 2.000000
0.272540 -0.436195 -0.241594 2.000000
0.080597 0.080031 -0.493794 2.000000
-0.048696 -0.098269 -0.490434 2.000000
0.058342 -0.391845 0.304453 2.000000
-0.207044 0.495411 0.054663 2.000000
0.155872 -0.410476 -0.283424 2.000000
-0.188024 0.498065 -0.021924 2.000000
-0.237591 0.471503 -0.164339 2.000000
0.089505 -0.252489 0.426740 2.000000
0.071500 0.094119 -0.491314 2.000000
-0.248532 0.285490 -0.410702 2.000000
0.175453 0.369288 0.332701 2.000000
0.103932 -0.399842 -0.298287 2.000000
0.260636 0.013606 0.495675 2.000000
-0.199027 0.466762 -0.176973 2.000000
0.079250 0.266886 -0.422984 2.000000
-0.098699 0.394564 0.302287 2.000000
-0.069023 0.398950 -0.301181 2.000000
-0.028659 0.446267 0.219745 2.000000
-0.117301 -0.279607 0.409556 2.000000
0.200809 -0.450797 -0.212825 2.000000
-0.246117 -0.260080 0.422388 2.000000
0.114035 0.256516 -0.429372 2.000000
-0.144609 -0.152708 -0.476027 2.000000
-0.022572 -0.495191 -0.049895 2.000000
-0.148262 0.267992 0.417932 2.000000
0.082286 0.127811 0.479377 2.000000
0.251151 -0.091480 -0.491603 2.000000
-0.281095 -0.400999 -0.296753 4.000000
0.176464 0.212967 -0.452596 2.000000
0.274101 0.114868 -0.486967 1.000000
-0.002937 -0.368452 -0.336834 2.000000
-0.011377 0.402690 -0.295946 2.000000
-0.020846 -0.244573 0.431280 2.000000
-0.224253 -0.495764 0.040028 2.000000
0.000636 0.122888 0.480547 2.000000
-0.032943 0.193775 0.456873 2.000000
-0.014804 -0.005194 0.495739 2.000000
0.262030 0.049272 0.493391 2.000000
-0.206192 -0.412279 -0.280692 2.000000
-0.156291 0.108134 0.484053 2.000000
0.240985 -0.021374 -0.499634 2.000000
0.200643 -0.419742 -0.269387 2.000000
-0.016239 -0.400267 -0.297724 2.000000
0.118172 0.027084 0.495070 2.000000
0.151395 0.498125 0.020380 2.000000
