-0.290288 -0.171427 0.437079 4.000000
-0.290288 -0.453148 0.030125 4.000000
-0.290288 -0.467199 -0.136810 4.000000
-0.290288 -0.433780 -0.237616 4.000000
-0.290288 0.441190 0.134135 4.000000
-0.290288 -0.431215 0.109709 4.000000
-0.290288 0.224625 0.431059 4.000000
-0.290288 -0.294219 0.398842 4.000000
-0.290288 -0.074077 0.440366 4.000000
-0.290288 -0.333220 0.343649 4.000000
-0.290288 -0.466822 -0.061139 4.000000
-0.290288 0.156327 0.429662 4.000000
-0.290288 -0.417559 -0.156637 4.000000
-0.290288 0.463970 -0.145697 4.000000
-0.290288 0.479482 -0.024884 4.000000
-0.290288 -0.382536 -0.268207 4.000000
-0.290288 0.495802 -0.052641 4.000000
-0.290288 0.423564 -0.232224 4.000000
-0.290288 -0.007219 -0.449381 4.000000
-0.290288 -0.205270 0.433461 4.000000
-0.290288 0.491700 -0.048657 4.000000
-0.290288 -0.298284 0.337585 4.000000
-0.290288 -0.102886 -0.474601 4.000000
-0.290288 0.282328 0.387606 4.000000
-0.290288 -0.168752 0.409997 4.000000
-0.290288 0.402443 -0.253568 4.000000
-0.290288 -0.333833 -0.318320 4.000000
-0.290288 -0.435863 -0.132826 4.000000
-0.290288 -0.088964 -0.445618 4.000000
-0.290288 0.196055 0.415239 4.000000
-0.290288 0.286057 -0.350047 4.000000
-0.290288 0.329476 0.355978 4.000000
-0.290288 0.178254 -0.464086 4.000000
-0.290288 0.387573 0.236408 4.000000
-0.290288 0.053993 0.484794 4.000000
-0.290288 0.470879 -0.144744 4.000000
-0.290288 0.406601 0.227221 4.000000
-0.290288 0.382458 -0.286226 4.000000
-0.290288 0.093917 0.478863 4.000000
-0.290288 0.226176 -0.423678 4.000000
-0.290288 0.454930 0.092942 4.000000
-0.290288 -0.270328 -0.407701 4.000000
-0.290288 -0.394493 0.236458 4.000000
-0.290288 0.217350 0.402303 4.000000
-0.290288 0.252725 -0.395263 4.000000
-0.290288 -0.444935 0.219163 4.000000
-0.290288 -0.236166 0.409936 4.000000
-0.290288 -0.365283 0.328613 4.000000
-0.290288 -0.246955 0.428662 4.000000
-0.290288 -0.280000 0.381669 4.000000
-0.290288 0.474285 -0.155392 4.000000
-0.290288 0.152231 0.465809 4.000000
-0.290288 0.186678 0.453635 4.000000
-0.290288 0.281626 -0.375176 4.000000
-0.290288 -0.316643 -0.356389 4.000000
-0.290288 0.364978 0.331379 4.000000
-0.290288 0.072963 0.449463 4.000000
-0.290288 -0.039415 0.442381 4.000000
-0.290288 -0.450022 -0.043980 4.000000
-0.290288 -0.032271 -0.470139 4.000000
-0.290288 -0.349092 -0.328428 4.000000
-0.290288 -0.152574 0.462324 4.000000
-0.290288 0.378503 0.285677 4.000000
-0.290288 0.450037 0.190580 4.000000
-0.290288 -0.249810 -0.423770 4.000000
-0.290288 0.351354 0.308330 4.000000
-0.290288 0.450319 0.024131 4.000000
-0.290288 -0.483562 -0.061222 4.000000
-0.290288 0.363176 -0.270391 4.000000
-0.290288 -0.448702 -0.196283 4.000000
-0.290288 0.340200 0.360414 4.000000
-0.290288 -0.101477 0.472937 4.000000
-0.290288 -0.028653 -0.469572 4.000000
-0.290288 -0.452685 0.162275 4.000000
-0.290288 -0.226621 -0.418651 4.000000
-0.290288 0.203327 -0.421232 4.000000
-0.290288 0.218068 0.440947 4.000000
-0.290288 -0.124529 -0.430031 4.000000
-0.290288 0.427669 -0.227550 4.000000
-0.290288 0.452961 0.161849 4.000000
-0.290288 0.169519 -0.470340 4.000000
-0.290288 -0.054260 -0.470588 4.000000
-0.290288 -0.221852 -0.417216 4.000000
-0.290288 0.156725 -0.429763 4.000000
-0.290288 0.139805 -0.463268 4.000000
-0.290288 0.303181 -0.360355 4.000000
-0.290288 0.409989 0.176533 4.000000
-0.290288 0.163107 -0.460090 4.000000
-0.290288 0.085208 -0.483615 4.000000
-0.290288 0.116177 0.428368 4.000000
-0.290288 -0.047016 -0.448011 4.000000
-0.290288 0.424457 -0.228960 4.000000
-0.290288 0.421539 -0.266602 4.000000
-0.290288 -0.442527 0.181384 4.000000
-0.290288 -0.307218 0.373056 4.000000
-0.290288 0.445522 -0.076461 4.000000
-0.290288 0.379911 -0.309595 4.000000
-0.290288 -0.053242 0.482953 4.000000
-0.290288 -0.329477 -0.348373 4.000000
-0.290288 -0.484561 -0.056941 4.000000
-0.290288 -0.052764 -0.452312 4.000000
-0.290288 -0.457394 -0.099482 4.000000
-0.290288 0.086396 -0.454977 4.000000
-0.290288 -0.178600 -0.452703 4.000000
-0.290288 -0.459764 -0.148185 4.000000
-0.290288 0.442971 -0.133850 4.000000
-0.290288 -0.491132 -0.019396 4.000000
-0.290288 -0.476602 -0.050043 4.000000
-0.290288 0.288826 -0.406801 4.000000
-0.290288 0.241628 0.390122 4.000000
-0.290288 -0.458037 -0.169690 4.000000
-0.290288 0.313561 -0.384962 4.000000
-0.290288 -0.386104 0.296399 4.000000
-0.290288 0.393653 -0.220883 4.000000
-0.290288 -0.377952 -0.301929 4.000000
-0.290288 -0.440342 0.136047 4.000000
-0.290288 0.049532 0.449561 4.000000
-0.290288 0.100745 -0.460237 4.000000
-0.290288 0.382336 0.273646 4.000000
-0.290288 0.390087 -0.258322 4.000000
-0.290288 0.360437 -0.300329 4.000000
-0.290288 -0.410334 -0.199242 4.000000
-0.290288 -0.043211 -0.488035 4.000000
-0.290288 0.351867 -0.305055 4.000000
-0.290288 0.465280 -0.061991 4.000000
-0.290288 0.257349 0.424128 4.000000
-0.290288 0.111405 -0.442674 4.000000
-0.290288 0.401628 0.285402 4.000000
-0.290288 0.374475 0.258604 4.000000
-0.290288 -0.208951 0.448609 4.000000
-0.290288 0.367857 0.261369 4.000000
-0.290288 0.022929 -0.478034 4.000000
-0.290288 0.446701 -0.020931 4.000000
-0.290288 -0.448700 -0.006438 4.000000
-0.290288 0.005632 -0.491478 4.000000
-0.290288 -0.232832 0.426364 4.000000
-0.290288 -0.377022 -0.278911 4.000000
-0.290288 -0.307403 0.333929 4.000000
-0.290288 -0.024931 -0.497610 4.000000
-0.290288 0.489357 0.017473 4.000000
-0.290288 0.475000 -0.011197 4.000000
-0.290288 0.191518 0.403621 4.000000
-0.290288 -0.297401 0.346992 4.000000
-0.290288 -0.363118 -0.291239 4.000000
-0.290288 0.449155 -0.066157 4.000000
-0.290288 0.486488 0.021203 4.000000
-0.290288 -0.055926 -0.444116 4.000000
-0.290288 -0.393457 -0.220391 4.000000
-0.290288 0.050717 -0.495086 4.000000
-0.290288 0.468449 0.035177 4.000000
-0.290288 0.312935 -0.382012 4.000000
-0.290288 -0.253719 -0.403811 4.000000
-0.290288 0.441224 -0.201066 4.000000
-0.290288 0.479611 0.013326 4.000000
-0.290288 -0.116870 0.481183 4.000000
-0.290288 -0.100271 0.442066 4.000000
-0.290288 0.318237 0.375248 4.000000
-0.290288 -0.472965 0.057120 4.000000
-0.290288 -0.033787 -0.452028 4.000000
-0.290288 -0.238012 -0.408276 4.000000
-0.290288 -0.446961 0.058568 4.000000
-0.290288 -0.389611 0.280412 4.000000
-0.290288 -0.464160 0.153565 4.000000
-0.290288 0.324763 0.315290 4.000000
-0.290288 -0.454991 -0.026615 4.000000
-0.290288 0.406025 0.233285 4.000000
-0.290288 0.300580 0.372857 4.000000
-0.290288 -0.176270 0.411295 4.000000
-0.290288 0.123975 -0.459459 4.000000
-0.290288 0.097474 0.447889 4.000000
-0.290288 0.409780 -0.279587 4.000000
-0.290288 0.362397 0.319613 4.000000
-0.290288 0.027598 -0.464568 4.000000
-0.290288 -0.450821 -0.193031 4.000000
-0.290288 -0.490529 0.056602 4.000000
-0.290288 0.361919 -0.317078 4.000000
-0.290288 0.336518 0.320935 4.000000
-0.290288 0.391051 -0.280560 4.000000
-0.290288 -0.328050 -0.340478 4.000000
-0.290288 -0.131497 0.436538 4.000000
-0.290288 0.060675 0.476873 4.000000
-0.290288 0.341623 0.346478 4.000000
-0.290288 -0.496198 0.033936 4.000000
-0.290288 -0.216630 0.398767 4.000000
-0.290288 0.440399 -0.195448 4.000000
-0.290288 0.097298 -0.467371 4.000000
-0.290288 -0.305830 0.346424 4.000000
-0.290288 0.462261 0.136217 4.000000
-0.290288 -0.024963 0.479905 4.000000
-0.290288 -0.304121 0.367895 4.000000
-0.290288 0.388284 0.265704 4.000000
-0.290288 -0.467948 -0.160905 4.000000
-0.290288 0.081628 -0.477840 4.000000
-0.290288 0.460485 -0.068086 4.000000
-0.290288 -0.172784 -0.461914 4.000000
-0.290288 -0.487583 0.078060 4.000000
-0.290288 -0.203325 0.444364 4.000000
-0.290288 -0.177108 -0.437947 4.000000
-0.290288 0.179417 -0.453165 4.000000
-0.290288 0.417156 0.192503 4.000000
-0.290288 -0.205449 -0.434673 4.000000
-0.290288 -0.490235 0.080647 4.000000
-0.290288 0.318781 0.309529 4.000000
-0.290288 0.424217 0.194896 4.000000
-0.290288 -0.309703 0.355440 4.000000
-0.290288 0.487251 -0.025467 4.000000
-0.290288 0.340851 0.286349 4.000000
-0.290288 0.436094 0.159298 4.000000
-0.290288 -0.050682 -0.457328 4.000000
-0.290288 -0.484035 -0.032543 4.000000
-0.290288 -0.212087 0.419249 4.000000
-0.290288 -0.155681 -0.462960 4.000000
-0.290288 -0.431881 -0.117514 4.000000
-0.290288 -0.468027 0.106285 4.000000
-0.290288 0.398408 -0.261543 4.000000
-0.290288 0.328675 0.323056 4.000000
-0.290288 -0.138669 -0.427895 4.000000
-0.290288 -0.215405 0.443888 4.000000
-0.290288 -0.164592 0.439519 4.000000
-0.290288 0.476596 0.040931 4.000000
-0.290288 -0.000680 0.475505 4.000000
-0.290288 0.274756 0.396224 4.000000
-0.290288 -0.433052 -0.159962 4.000000
-0.290288 -0.207756 0.398476 4.000000
-0.290288 0.416231 -0.233693 4.000000
-0.290288 0.469082 0.110176 4.000000
-0.290288 0.360461 0.293355 4.000000
-0.290288 -0.339692 0.297282 4.000000
-0.290288 -0.040584 0.462017 4.000000
-0.290288 0.466770 -0.074925 4.000000
-0.290288 -0.417694 -0.186195 4.000000
-0.290288 0.003121 0.464905 4.000000
-0.290288 -0.261446 0.421268 4.000000
-0.290288 -0.401825 -0.266995 4.000000
-0.290288 0.087855 0.485352 4.000000
-0.290288 -0.399520 0.195350 4.000000
-0.290288 0.477998 -0.099038 4.000000
-0.290288 -0.279375 -0.402091 4.000000
-0.290288 0.047997 -0.493802 4.000000
-0.290288 0.463373 -0.108200 4.000000
-0.290288 -0.467375 0.001589 4.000000
-0.290288 -0.329994 -0.352088 4.000000
-0.290288 -0.464607 -0.180349 4.000000
-0.290288 0.147814 -0.437586 4.000000
-0.290288 0.326784 0.307651 4.000000
-0.290288 0.437687 0.180472 4.000000
-0.290288 0.057629 -0.459006 4.000000
-0.290288 -0.475672 0.003961 4.000000
-0.290288 0.278400 0.354702 4.000000
-0.290288 0.337468 0.301963 4.000000
-0.290288 0.198113 0.448779 4.000000
-0.290288 -0.218558 -0.446351 4.000000
-0.290288 -0.338721 -0.365007 4.000000
-0.290288 -0.418866 0.175457 4.000000
-0.290288 0.352402 -0.314283 4.000000
-0.290288 0.158563 -0.443772 4.000000
-0.290288 -0.160922 0.432636 4.000000
-0.290288 0.448969 -0.160778 4.000000
-0.290288 0.328594 0.366473 4.000000
-0.290288 -0.441704 -0.189131 4.000000
-0.290288 -0.360126 -0.303566 4.000000
-0.290288 0.450786 -0.214025 4.000000
-0.290288 -0.419539 -0.160915 4.000000
-0.290288 0.469100 -0.006023 4.000000
-0.290288 0.020013 0.456089 4.000000
-0.290288 0.018323 0.449422 4.000000
-0.290288 -0.284229 -0.381492 4.000000
-0.290288 0.205034 -0.431613 4.000000
-0.290288 0.417733 -0.178043 4.000000
-0.290288 0.145283 -0.463849 4.000000
-0.290288 -0.435408 -0.184781 4.000000
-0.290288 -0.378185 -0.262587 4.000000
-0.290288 0.128533 0.460984 4.000000
-0.290288 -0.182292 0.454258 4.000000
-0.290288 0.314680 0.350163 4.000000
-0.290288 -0.273422 -0.359291 4.000000
-0.290288 0.435360 -0.244367 4.000000
-0.290288 0.262345 0.421169 4.000000
-0.290288 0.223963 0.414256 4.000000
-0.290288 0.489490 -0.016382 4.000000
-0.290288 0.155550 -0.442611 4.000000
-0.290288 0.477582 -0.111122 4.000000
-0.290288 -0.110253 0.469303 4.000000
-0.290288 0.086777 -0.492419 4.000000
-0.290288 0.344638 -0.308080 4.000000
-0.290288 -0.458772 -0.037261 4.000000
-0.290288 -0.243566 -0.415946 4.000000
-0.290288 -0.407359 0.232845 4.000000
-0.290288 -0.416153 0.255202 4.000000
-0.290288 0.325182 0.344836 4.000000
-0.290288 0.460236 -0.089282 4.000000
-0.290288 0.430737 -0.145749 4.000000
-0.290288 -0.337665 -0.325430 4.000000
-0.290288 0.004293 0.490498 4.000000
-0.290288 -0.372819 -0.320257 4.000000
-0.290288 0.405636 0.277963 4.000000
-0.290288 0.138680 0.435754 4.000000
-0.290288 0.186206 -0.409191 4.000000
-0.290288 0.161495 -0.427278 4.000000
-0.290288 -0.244741 -0.418940 4.000000
-0.290288 -0.319476 0.331865 4.000000
-0.290288 -0.433243 -0.178749 4.000000
-0.290288 0.466588 -0.157029 4.000000
-0.290288 0.419860 -0.188084 4.000000
-0.290288 -0.095363 0.479702 4.000000
-0.290288 -0.471969 -0.041384 4.000000
-0.290288 0.374749 0.247500 4.000000
-0.290288 0.308052 -0.359216 4.000000
-0.290288 -0.264785 -0.410188 4.000000
-0.290288 -0.111539 -0.447671 4.000000
-0.290288 0.274795 -0.387795 4.000000
-0.290288 -0.087201 -0.448939 4.000000
-0.290288 -0.488273 0.066101 4.000000
-0.290288 -0.159940 0.423039 4.000000
-0.290288 0.456182 -0.114663 4.000000
-0.290288 0.134016 -0.459414 4.000000
-0.290288 0.364268 -0.331144 4.000000
-0.290288 -0.288263 0.378617 4.000000
-0.290288 0.235022 -0.429152 4.000000
-0.290288 -0.105375 -0.486048 4.000000
-0.290288 -0.476294 0.124151 4.000000
-0.290288 0.106579 -0.461218 4.000000
-0.290288 0.223852 -0.403857 4.000000
-0.290288 0.469294 0.057053 4.000000
-0.290288 0.442739 0.126158 4.000000
-0.290288 -0.167828 -0.447521 4.000000
-0.290288 -0.297834 0.350594 4.000000
-0.290288 0.461521 -0.032064 4.000000
-0.290288 0.093239 0.485930 4.000000
-0.290288 0.477532 0.140398 4.000000
-0.290288 -0.465138 0.108387 4.000000
-0.290288 -0.317286 0.354741 4.000000
-0.290288 0.431942 0.217701 4.000000
-0.290288 0.438976 0.194993 4.000000
-0.290288 0.027473 -0.456390 4.000000
-0.290288 -0.416235 -0.160727 4.000000
-0.290288 -0.280328 -0.348417 4.000000
-0.290288 0.341787 0.296611 4.000000
-0.290288 -0.140766 0.452435 4.000000
-0.290288 0.092004 -0.460580 4.000000
-0.290288 -0.179977 -0.417413 4.000000
-0.290288 0.377737 0.252391 4.000000
-0.290288 0.412938 0.244928 4.000000
-0.290288 0.445410 0.145657 4.000000
-0.290288 0.404770 0.207263 4.000000
-0.290288 -0.468903 -0.087867 4.000000
-0.290288 -0.230503 -0.403376 4.000000
-0.290288 -0.230738 0.421096 4.000000
-0.290288 0.480836 -0.097069 4.000000
-0.290288 0.185966 0.434118 4.000000
-0.290288 0.412960 -0.192770 4.000000
-0.290288 -0.047249 0.447577 4.000000
-0.290288 0.034727 -0.454730 4.000000
-0.290288 0.464812 -0.005855 4.000000
-0.290288 -0.420169 -0.168877 4.000000
-0.290288 -0.301109 0.365823 4.000000
-0.290288 0.434766 -0.122744 4.000000
-0.290288 -0.165123 0.415732 4.000000
-0.290288 -0.478230 0.093290 4.000000
-0.290288 -0.087237 -0.482102 4.000000
-0.290288 0.038679 -0.470912 4.000000
-0.290288 -0.432051 -0.113780 4.000000
-0.290288 0.344738 0.280467 4.000000
-0.290288 0.080644 0.446574 4.000000
-0.290288 0.479544 -0.001216 4.000000
-0.290288 -0.006486 0.453732 4.000000
-0.290288 -0.439281 0.190573 4.000000
-0.290288 0.492017 0.003155 4.000000
-0.290288 0.313292 -0.350819 4.000000
-0.290288 0.212837 0.417624 4.000000
-0.290288 -0.107415 -0.466572 4.000000
-0.290288 0.305124 -0.369302 4.000000
-0.290288 -0.414505 -0.276297 4.000000
-0.290288 0.266427 -0.361001 4.000000
-0.290288 0.020848 -0.460039 4.000000
-0.290288 -0.438719 0.121212 4.000000
-0.290288 0.121264 0.456678 4.000000
-0.290288 0.158899 0.462383 4.000000
-0.290288 0.199943 -0.401214 4.000000
-0.290288 0.423379 -0.163750 4.000000
-0.290288 -0.339275 0.307023 4.000000
-0.290288 -0.466218 -0.151392 4.000000
-0.290288 -0.052964 0.462800 4.000000
-0.290288 -0.298277 0.381970 4.000000
-0.290288 -0.002351 0.466666 4.000000
-0.290288 0.391399 0.283815 4.000000
-0.290288 0.184459 0.429531 4.000000
-0.290288 0.042137 0.488351 4.000000
-0.290288 -0.465545 -0.092341 4.000000
-0.290288 -0.000496 0.470233 4.000000
-0.290288 0.080444 -0.456795 4.000000
-0.290288 -0.358726 0.305170 4.000000
-0.290288 -0.377095 0.322052 4.000000
-0.290288 0.263422 0.405163 4.000000
-0.290288 0.429672 -0.160488 4.000000
-0.290288 0.068225 0.485545 4.000000
-0.290288 0.393287 0.273993 4.000000
-0.290288 -0.448735 -0.027178 4.000000
-0.290288 -0.428393 -0.185525 4.000000
-0.290288 0.484904 0.095653 4.000000
-0.290288 0.486756 -0.083017 4.000000
-0.290288 0.247192 0.376512 4.000000
-0.290288 -0.258332 -0.386297 4.000000
-0.290288 0.226872 0.387123 4.000000
-0.290288 -0.389429 0.241290 4.000000
-0.290288 -0.456366 -0.157902 4.000000
-0.290288 0.072939 0.475638 4.000000
-0.290288 -0.447691 -0.020822 4.000000
-0.290288 0.223969 -0.420882 4.000000
-0.290288 -0.151332 -0.441446 4.000000
-0.290288 0.458874 -0.157453 4.000000
-0.290288 -0.095124 -0.459514 4.000000
-0.290288 0.184886 -0.443079 4.000000
-0.290288 -0.316540 -0.374665 4.000000
-0.290288 -0.441040 0.197559 4.000000
-0.290288 0.146970 0.442153 4.000000
-0.290288 0.445102 -0.108746 4.000000
-0.290288 0.138661 -0.472826 4.000000
-0.290288 -0.123111 0.470387 4.000000
-0.290288 -0.466117 -0.109850 4.000000
-0.290288 0.024731 0.482527 4.000000
-0.290288 -0.220044 0.422361 4.000000
-0.290288 -0.168497 0.419902 4.000000
-0.290288 -0.215263 0.417844 4.000000
-0.290288 0.458729 -0.043389 4.000000
-0.290288 -0.306767 0.369644 4.000000
-0.290288 -0.068154 -0.482495 4.000000
-0.290288 -0.235542 0.431645 4.000000
-0.290288 -0.013896 -0.464303 4.000000
-0.290288 -0.109980 -0.443063 4.000000
-0.290288 -0.480432 0.126626 4.000000
-0.290288 0.010554 0.455037 4.000000
-0.290288 0.271462 -0.371769 4.000000
-0.290288 -0.084183 -0.491159 4.000000
-0.290288 0.145332 0.435845 4.000000
-0.290288 0.394337 0.290944 4.000000
-0.290288 0.267952 0.382587 4.000000
-0.290288 -0.421609 -0.185361 4.000000
-0.290288 0.079850 0.459361 4.000000
-0.290288 0.487388 -0.057732 4.000000
-0.290288 0.462576 0.131328 4.000000
-0.290288 -0.158859 0.453360 4.000000
-0.290288 0.071019 -0.456106 4.000000
-0.290288 0.466049 -0.065465 4.000000
-0.290288 0.097266 0.436475 4.000000
-0.290288 0.185558 -0.431223 4.000000
-0.290288 -0.101414 0.438805 4.000000
-0.290288 -0.440924 -0.102511 4.000000
-0.290288 -0.263800 0.395863 4.000000
-0.290288 -0.407536 0.281829 4.000000
-0.290288 0.246969 -0.395571 4.000000
-0.290288 0.295359 0.347157 4.000000
-0.290288 -0.238847 0.433088 4.000000
-0.290288 -0.422990 -0.170603 4.000000
-0.290288 -0.446190 0.030783 4.000000
-0.290288 -0.154624 -0.470349 4.000000
-0.290288 0.445468 0.129296 4.000000
-0.290288 -0.094705 0.475585 4.000000
-0.290288 -0.474008 0.090502 4.000000
-0.290288 -0.367878 0.266578 4.000000
-0.290288 0.085210 -0.470926 4.000000
-0.290288 -0.453544 0.008033 4.000000
-0.290288 -0.026730 0.462832 4.000000
-0.290288 -0.395270 0.258908 4.000000
-0.290288 -0.415005 0.251994 4.000000
-0.290288 0.355923 -0.281503 4.000000
-0.290288 -0.449137 0.074472 4.000000
-0.290288 -0.448145 0.129525 4.000000
-0.290288 -0.387027 -0.276218 4.000000
-0.290288 -0.116883 -0.471872 4.000000
-0.290288 0.301897 -0.375812 4.000000
-0.290288 -0.059282 0.479376 4.000000
-0.290288 -0.428063 -0.188606 4.000000
-0.290288 -0.256946 0.383050 4.000000
-0.290288 -0.467362 -0.095044 4.000000
-0.290288 -0.321035 -0.325314 4.000000
-0.290288 -0.340872 -0.358182 4.000000
-0.290288 0.037810 -0.480378 4.000000
-0.290288 0.391159 -0.303576 4.000000
-0.290288 0.405938 0.259786 4.000000
-0.290288 -0.440010 0.087954 4.000000
-0.290288 0.481962 -0.019563 4.000000
-0.290288 -0.299120 0.360609 4.000000
-0.290288 -0.443194 -0.144027 4.000000
-0.290288 -0.443257 0.041945 4.000000
-0.290288 0.395340 -0.305089 4.000000
-0.290288 0.075524 -0.448265 4.000000
-0.290288 -0.388518 -0.299022 4.000000
-0.290288 -0.296977 0.332389 4.000000
-0.290288 0.428733 0.221330 4.000000
-0.290288 -0.021408 -0.466965 4.000000
-0.290288 -0.217061 0.429725 4.000000
-0.290288 -0.113520 -0.450991 4.000000
-0.290288 -0.440906 0.106019 4.000000
-0.290288 0.257839 -0.376928 4.000000
-0.290288 -0.062834 0.457592 4.000000
-0.290288 -0.174000 -0.430575 4.000000
-0.290288 0.012546 0.486289 4.000000
-0.290288 -0.081189 0.441218 4.000000
-0.290288 -0.348487 0.326064 4.000000
-0.290288 -0.063475 -0.463611 4.000000
-0.290288 -0.425406 -0.225942 4.000000
-0.290288 0.411988 -0.203646 4.000000
-0.290288 -0.442457 0.225128 4.000000
-0.290288 0.337537 0.355665 4.000000
-0.290288 -0.079445 -0.490381 4.000000
-0.290288 -0.167047 0.426946 4.000000
-0.290288 0.485629 -0.101802 4.000000
-0.290288 -0.185914 -0.436349 4.000000
-0.290288 -0.005826 0.484171 4.000000
-0.290288 0.454001 -0.081150 4.000000
-0.290288 -0.204439 0.425920 4.000000
-0.290288 -0.487960 -0.031663 4.000000
-0.290288 0.230483 -0.407372 4.000000
-0.290288 0.239050 0.427145 4.000000
-0.290288 -0.381541 0.248115 4.000000
-0.290288 0.135165 -0.454667 4.000000
-0.290288 -0.233283 -0.389503 4.000000
-0.290288 0.141849 0.434466 4.000000
-0.290288 -0.457834 0.141905 4.000000
-0.290288 -0.177163 0.427172 4.000000
-0.290288 0.123332 -0.451808 4.000000
-0.290288 0.439611 0.156389 4.000000
-0.290288 0.348471 -0.314171 4.000000
-0.290288 0.169016 0.450019 4.000000
-0.290288 0.348667 0.297208 4.000000
-0.290288 0.250113 -0.384627 4.000000
-0.290288 0.447272 0.099903 4.000000
-0.290288 0.488213 -0.039415 4.000000
-0.290288 -0.258718 0.362152 4.000000
-0.290288 0.452517 0.011731 4.000000
-0.290288 -0.403600 -0.205450 4.000000
-0.290288 0.311310 0.329664 4.000000
-0.290288 0.381564 -0.291625 4.000000
-0.290288 -0.457593 -0.041274 4.000000
-0.290288 0.169852 -0.429776 4.000000
-0.290288 -0.068743 0.474310 4.000000
-0.290288 -0.454065 -0.176627 4.000000
-0.290288 -0.471350 0.103277 4.000000
-0.290288 0.276270 -0.414632 4.000000
-0.290288 -0.361196 -0.270351 4.000000
-0.290288 0.465663 0.053092 4.000000
-0.290288 0.314923 0.313375 4.000000
-0.290288 -0.465712 0.130474 4.000000
-0.290288 0.036986 0.448308 4.000000
-0.290288 0.465751 -0.021791 4.000000
-0.290288 -0.077391 -0.452570 4.000000
-0.290288 -0.361574 0.257389 4.000000
-0.290288 0.383031 0.292033 4.000000
-0.290288 -0.454767 0.169663 4.000000
-0.290288 -0.013078 -0.447744 4.000000
-0.290288 -0.423088 -0.249466 4.000000
-0.290288 -0.009299 0.451519 4.000000
-0.290288 0.356970 0.318617 4.000000
-0.290288 0.429557 0.175315 4.000000
-0.290288 0.031689 0.442836 4.000000
-0.290288 -0.419073 -0.191562 4.000000
-0.290288 0.438973 -0.158654 4.000000
-0.290288 -0.059687 -0.477503 4.000000
-0.290288 0.446634 0.137330 4.000000
-0.290288 0.240482 0.382636 4.000000
-0.290288 0.443567 0.108143 4.000000
-0.290288 0.479603 -0.087375 4.000000
-0.290288 0.191482 -0.440506 4.000000
-0.290288 0.325629 0.374827 4.000000
-0.290288 -0.281827 0.385429 4.000000
-0.290288 -0.440991 -0.121029 4.000000
-0.290288 0.412626 -0.179552 4.000000
-0.290288 0.007759 -0.476385 4.000000
-0.290288 -0.089227 -0.471192 4.000000
-0.290288 0.440753 -0.187289 4.000000
-0.290288 0.361277 -0.285073 4.000000
-0.290288 0.012064 -0.484397 4.000000
-0.290288 0.044279 -0.487961 4.000000
-0.290288 -0.418208 0.228695 4.000000
-0.290288 -0.400312 0.205992 4.000000
-0.290288 -0.344589 0.320839 4.000000
-0.290288 -0.277175 0.389711 4.000000
-0.290288 0.133233 -0.436018 4.000000
-0.290288 -0.405134 0.206507 4.000000
-0.290288 -0.349426 -0.346511 4.000000
-0.290288 -0.472788 0.032201 4.000000
-0.290288 -0.396919 0.269019 4.000000
-0.290288 -0.120099 0.480733 4.000000
-0.290288 -0.445915 -0.211865 4.000000
-0.290288 -0.401695 -0.248132 4.000000
-0.290288 0.384091 -0.246148 4.000000
-0.290288 0.307114 -0.335603 4.000000
-0.290288 -0.220738 0.404395 4.000000
-0.290288 0.033085 -0.493867 4.000000
-0.290288 -0.483297 -0.111290 4.000000
-0.290288 -0.184001 0.417997 4.000000
-0.290288 -0.445540 0.108962 4.000000
-0.290288 0.473627 0.078895 4.000000
-0.290288 0.333227 0.310989 4.000000
-0.290288 -0.036132 0.464983 4.000000
-0.290288 0.442651 -0.211416 4.000000
-0.290288 -0.082750 0.477997 4.000000
-0.290288 0.292549 -0.357816 4.000000
-0.290288 -0.087360 -0.486545 4.000000
-0.290288 -0.465448 -0.046084 4.000000
-0.290288 -0.459873 0.022473 4.000000
-0.290288 -0.339106 0.335467 4.000000
-0.290288 -0.403607 0.223516 4.000000
-0.290288 -0.113580 0.482524 4.000000
-0.290288 0.166013 -0.457629 4.000000
-0.290288 -0.418178 -0.270865 4.000000
-0.290288 -0.292883 0.373476 4.000000
-0.290288 0.159609 0.465572 4.000000
-0.290288 0.456898 0.079127 4.000000
-0.290288 -0.437301 0.081506 4.000000
-0.290288 0.035898 0.483009 4.000000
-0.290288 -0.448050 -0.177553 4.000000
-0.290288 -0.324884 -0.313274 4.000000
-0.290288 -0.295345 0.384393 4.000000
-0.290288 -0.355848 -0.319260 4.000000
-0.290288 0.326188 -0.376311 4.000000
-0.290288 0.335337 -0.362474 4.000000
-0.290288 0.345795 -0.350606 4.000000
-0.290288 0.064275 -0.464978 4.000000
-0.290288 -0.448921 0.155976 4.000000
-0.290288 -0.480460 0.024257 4.000000
-0.290288 0.447501 -0.045384 4.000000
-0.290288 -0.491971 0.025322 4.000000
-0.290288 -0.049908 -0.485544 4.000000
-0.290288 -0.124728 0.435133 4.000000
-0.290288 0.283694 0.350146 4.000000
-0.290288 -0.228665 0.397485 4.000000
-0.290288 -0.370931 -0.251533 4.000000
-0.290288 -0.428621 0.146588 4.000000
-0.290288 -0.483917 0.059806 4.000000
-0.290288 0.226731 0.433697 4.000000
-0.290288 -0.393316 0.269508 4.000000
-0.290288 0.446588 0.154048 4.000000
-0.290288 -0.231976 -0.441770 4.000000
-0.290288 0.285038 -0.362293 4.000000
-0.290288 -0.153992 -0.466636 4.000000
-0.290288 0.365961 0.301228 4.000000
-0.290288 -0.443136 -0.056293 4.000000
-0.290288 -0.423387 -0.201439 4.000000
-0.290288 -0.458612 0.065235 4.000000
-0.290288 0.477615 -0.037273 4.000000
-0.290288 -0.160902 -0.426335 4.000000
-0.290288 0.421450 -0.151403 4.000000
-0.290288 0.120372 -0.459675 4.000000
-0.290288 -0.443403 0.209412 4.000000
-0.290288 0.123363 0.476871 4.000000
-0.290288 0.241464 -0.377834 4.000000
-0.290288 0.420216 0.186250 4.000000
-0.290288 0.451599 -0.058649 4.000000
-0.290288 0.446217 -0.146184 4.000000
-0.290288 0.129512 0.468239 4.000000
-0.290288 0.279991 0.347668 4.000000
-0.290288 -0.183625 -0.407709 4.000000
-0.290288 0.051153 0.453076 4.000000
-0.290288 -0.473004 -0.049828 4.000000
-0.290288 0.452993 0.192073 4.000000
-0.290288 -0.082812 0.487478 4.000000
-0.290288 -0.250798 -0.420218 4.000000
-0.290288 0.447555 0.005386 4.000000
-0.290288 0.141566 0.427962 4.000000
-0.290288 0.342808 -0.287301 4.000000
-0.290288 0.175311 -0.439102 4.000000
-0.290288 0.343267 0.343379 4.000000
-0.290288 0.024956 -0.453711 4.000000
-0.290288 0.245690 0.427476 4.000000
-0.290288 0.356372 -0.335324 4.000000
-0.290288 0.127409 -0.436208 4.000000
-0.290288 -0.223970 -0.443822 4.000000
-0.290288 -0.266498 -0.398711 4.000000
-0.290288 -0.140483 -0.433939 4.000000
-0.290288 -0.277736 -0.367820 4.000000
-0.290288 -0.051069 -0.477248 4.000000
-0.290288 -0.395271 -0.292808 4.000000
-0.290288 -0.323794 -0.368710 4.000000
-0.290288 -0.321488 0.325758 4.000000
-0.290288 -0.474572 -0.082891 4.000000
-0.290288 0.382471 -0.264992 4.000000
-0.290288 -0.073788 0.447049 4.000000
-0.290288 0.135828 -0.463557 4.000000
-0.290288 0.147638 0.418783 4.000000
-0.290288 -0.397191 0.288616 4.000000
-0.290288 0.469826 -0.093458 4.000000
-0.290288 0.448283 0.124654 4.000000
-0.290288 -0.370954 -0.301480 4.000000
-0.290288 -0.392663 -0.212205 4.000000
-0.290288 -0.143344 0.466214 4.000000
-0.290288 -0.130104 -0.467869 4.000000
-0.290288 -0.243950 0.394017 4.000000
-0.290288 0.348639 -0.282904 4.000000
-0.290288 -0.185729 -0.415580 4.000000
-0.290288 -0.455079 0.055936 4.000000
-0.290288 -0.203188 0.447984 4.000000
-0.290288 0.377877 -0.270432 4.000000
-0.290288 -0.378002 -0.268463 4.000000
-0.290288 -0.413517 -0.195171 4.000000
-0.290288 -0.448589 -0.206905 4.000000
-0.290288 0.245993 -0.373883 4.000000
-0.290288 -0.165681 -0.462548 4.000000
-0.290288 0.083884 -0.458915 4.000000
-0.290288 -0.363744 -0.262919 4.000000
-0.290288 -0.474720 -0.127753 4.000000
-0.290288 -0.288080 -0.351440 4.000000
-0.290288 -0.442195 -0.079074 4.000000
-0.290288 -0.138932 0.471670 4.000000
-0.290288 -0.181890 0.448282 4.000000
-0.290288 -0.172452 -0.465663 4.000000
-0.290288 0.099871 -0.482026 4.000000
-0.290288 -0.217472 -0.435270 4.000000
-0.290288 -0.326682 0.347884 4.000000
-0.290288 0.353853 0.269040 4.000000
-0.290288 -0.227647 -0.396822 4.000000
-0.290288 -0.464152 -0.166381 4.000000
-0.290288 -0.351138 -0.276171 4.000000
-0.290288 0.014303 -0.458375 4.000000
-0.290288 -0.133617 -0.481498 4.000000
-0.290288 0.086784 0.455180 4.000000
-0.290288 -0.344514 0.334374 4.000000
-0.290288 -0.280199 -0.361115 4.000000
-0.290288 -0.484326 0.016235 4.000000
-0.290288 -0.169236 -0.461795 4.000000
-0.290288 0.423835 -0.193633 4.000000
-0.290288 -0.375155 -0.283737 4.000000
-0.290288 0.383997 0.233781 4.000000
-0.290288 -0.464292 0.029968 4.000000
-0.290288 -0.151980 -0.473519 4.000000
-0.290288 -0.469375 0.077604 4.000000
-0.290288 0.031230 -0.489058 4.000000
-0.290288 0.304974 -0.376092 4.000000
-0.290288 0.041455 0.494205 4.000000
-0.290288 0.089406 -0.462892 4.000000
-0.290288 0.136714 0.430398 4.000000
-0.290288 -0.460103 0.102464 4.000000
-0.290288 -0.156966 0.448524 4.000000
-0.290288 -0.142923 -0.476153 4.000000
-0.290288 -0.175434 -0.414811 4.000000
-0.290288 0.403302 -0.244501 4.000000
-0.290288 -0.099757 0.461270 4.000000
-0.290288 0.329491 0.316320 4.000000
-0.290288 -0.101639 0.476164 4.000000
-0.290288 0.483230 -0.066686 4.000000
-0.290288 -0.398669 -0.270237 4.000000
-0.290288 -0.370959 0.302561 4.000000
-0.290288 -0.076520 0.437701 4.000000
-0.290288 -0.418981 0.263651 4.000000
-0.290288 -0.453064 -0.095389 4.000000
-0.290288 -0.440861 -0.066067 4.000000
-0.290288 -0.331902 -0.344814 4.000000
-0.290288 0.288201 0.338759 4.000000
-0.290288 -0.438983 -0.165278 4.000000
-0.290288 -0.464334 0.094067 4.000000
-0.290288 0.076054 0.446873 4.000000
-0.290288 0.455094 -0.119414 4.000000
-0.290288 -0.465597 0.122622 4.000000
-0.290288 0.285408 -0.404028 4.000000
-0.290288 -0.452624 0.112288 4.000000
-0.290288 0.385273 -0.238829 4.000000
-0.290288 0.422889 0.181577 4.000000
-0.290288 -0.495538 0.026441 4.000000
-0.290288 -0.175546 -0.411675 4.000000
-0.290288 -0.226982 -0.427116 4.000000
-0.290288 -0.003154 -0.459488 4.000000
-0.290288 -0.221575 -0.400346 4.000000
-0.290288 -0.480775 -0.102672 4.000000
-0.290288 -0.446997 -0.132004 4.000000
-0.290288 0.164244 -0.444856 4.000000
-0.290288 0.278193 0.397825 4.000000
-0.290288 -0.274982 -0.406850 4.000000
-0.290288 -0.281943 0.353130 4.000000
-0.290288 -0.480477 0.104918 4.000000
-0.290288 0.472565 0.110814 4.000000
-0.290288 -0.071527 0.464218 4.000000
-0.290288 -0.091868 0.442242 4.000000
-0.290288 -0.074574 -0.489817 4.000000
-0.290288 -0.031662 -0.446571 4.000000
-0.290288 0.489059 0.053642 4.000000
-0.290288 0.337523 0.336077 4.000000
-0.290288 -0.250132 -0.384094 4.000000
-0.290288 -0.113183 0.432557 4.000000
-0.290288 -0.209865 -0.398788 4.000000
-0.290288 0.148876 0.464804 4.000000
-0.290288 0.468093 -0.172547 4.000000
-0.290288 -0.488279 -0.044070 4.000000
-0.290288 -0.067652 0.470008 4.000000
-0.290288 0.118525 0.475546 4.000000
-0.290288 0.115029 0.457581 4.000000
-0.290288 0.003125 -0.470064 4.000000
-0.290288 0.336889 0.358777 4.000000
-0.290288 0.310015 0.380321 4.000000
-0.290288 0.416240 0.167656 4.000000
-0.290288 -0.445662 0.127205 4.000000
-0.290288 0.466815 -0.052189 4.000000
-0.290288 -0.191417 0.452750 4.000000
-0.290288 -0.379286 0.313307 4.000000
-0.290288 -0.323062 -0.341716 4.000000
-0.290288 0.322950 -0.365820 4.000000
-0.290288 0.282838 -0.401148 4.000000
-0.290288 -0.348450 0.321526 4.000000
-0.290288 0.070849 -0.446858 4.000000
-0.290288 0.318513 -0.348094 4.000000
-0.290288 -0.438883 0.186901 4.000000
-0.290288 0.349949 0.342989 4.000000
-0.290288 -0.111875 0.442346 4.000000
-0.290288 -0.091264 -0.450545 4.000000
-0.290288 -0.489578 0.069536 4.000000
-0.290288 0.341886 -0.326472 4.000000
-0.290288 0.300252 0.369443 4.000000
-0.290288 -0.487745 0.095235 4.000000
-0.290288 0.379782 0.293405 4.000000
-0.290288 -0.057580 0.447532 4.000000
-0.290288 -0.319873 0.319097 4.000000
-0.290288 -0.291345 0.380582 4.000000
-0.290288 0.389838 0.256956 4.000000
-0.290288 -0.179649 0.417489 4.000000
-0.290288 -0.413509 -0.210160 4.000000
-0.290288 -0.407336 -0.220393 4.000000
-0.290288 -0.404527 -0.256597 4.000000
-0.290288 0.267155 0.369861 4.000000
-0.290288 0.046943 0.455631 4.000000
-0.290288 -0.281400 0.407518 4.000000
-0.290288 0.193064 -0.460760 4.000000
-0.290288 -0.019430 -0.498941 4.000000
-0.290288 0.027017 0.491395 4.000000
-0.290288 -0.429001 -0.145949 4.000000
-0.290288 -0.325817 0.337831 4.000000
-0.290288 0.458999 -0.117376 4.000000
-0.290288 0.386028 -0.272316 4.000000
-0.290288 -0.436096 0.223176 4.000000
-0.290288 0.212575 0.423187 4.000000
-0.290288 -0.430869 -0.245800 4.000000
-0.290288 -0.482880 0.114805 4.000000
-0.290288 0.261618 -0.368309 4.000000
-0.290288 0.036280 0.472912 4.000000
-0.290288 -0.397643 -0.213559 4.000000
-0.290288 0.397975 -0.274229 4.000000
-0.290288 0.081965 -0.471212 4.000000
-0.290288 0.213970 0.446524 4.000000
-0.290288 0.186107 -0.462703 4.000000
-0.290288 0.353858 -0.294991 4.000000
-0.290288 0.215199 0.436874 4.000000
-0.290288 0.123802 0.438993 4.000000
-0.290288 0.444797 0.090112 4.000000
-0.290288 -0.424211 0.152234 4.000000
-0.290288 -0.213237 0.422928 4.000000
-0.290288 0.414568 -0.227495 4.000000
-0.290288 0.447264 -0.188069 4.000000
-0.290288 0.045257 -0.445760 4.000000
-0.290288 -0.471711 0.080266 4.000000
-0.290288 -0.434337 -0.211298 4.000000
-0.290288 -0.290360 -0.384962 4.000000
-0.290288 0.236688 0.420373 4.000000
-0.290288 -0.427072 -0.142728 4.000000
-0.290288 -0.428716 -0.160364 4.000000
-0.290288 -0.179293 0.408518 4.000000
-0.290288 0.333812 -0.365287 4.000000
-0.290288 -0.173228 0.464374 4.000000
-0.290288 -0.013516 -0.451476 4.000000
-0.290288 0.475293 -0.122446 4.000000
-0.290288 0.252649 -0.407546 4.000000
-0.290288 -0.454107 0.182042 4.000000
-0.290288 -0.467368 -0.125478 4.000000
-0.290288 -0.258356 0.392704 4.000000
-0.290288 -0.105811 0.434899 4.000000
-0.290288 -0.478026 -0.126537 4.000000
-0.290288 -0.446896 0.090347 4.000000
-0.290288 0.248701 0.412512 4.000000
-0.290288 -0.368389 0.304663 4.000000
-0.290288 -0.096932 -0.473328 4.000000
-0.290288 0.038338 -0.456872 4.000000
-0.290288 0.430443 0.171067 4.000000
-0.290288 -0.380779 0.273943 4.000000
-0.290288 0.475274 -0.108273 4.000000
-0.290288 -0.266506 0.360045 4.000000
-0.290288 -0.381914 0.238149 4.000000
-0.290288 0.270708 -0.357902 4.000000
-0.290288 0.076889 0.481325 4.000000
-0.290288 0.134250 0.456342 4.000000
-0.290288 0.259298 0.418707 4.000000
-0.290288 -0.242297 -0.435718 4.000000
-0.290288 0.198451 -0.446599 4.000000
-0.290288 0.216000 -0.446931 4.000000
-0.290288 -0.384261 -0.315501 4.000000
-0.290288 -0.433312 0.153292 4.000000
-0.290288 -0.453294 0.130518 4.000000
-0.290288 -0.294433 0.377188 4.000000
-0.290288 0.058389 -0.471204 4.000000
-0.290288 0.191301 -0.434882 4.000000
-0.290288 -0.447526 -0.185865 4.000000
-0.290288 -0.445261 -0.059802 4.000000
-0.290288 0.126372 -0.448488 4.000000
-0.290288 -0.494191 -0.005906 4.000000
-0.290288 0.106527 -0.457467 4.000000
-0.290288 -0.365602 0.251580 4.000000
-0.290288 0.359800 0.289435 4.000000
-0.290288 0.041481 -0.495586 4.000000
-0.290288 -0.346031 0.324135 4.000000
-0.290288 -0.452696 0.058377 4.000000
-0.290288 -0.405667 0.202143 4.000000
-0.290288 -0.108908 0.459414 4.000000
-0.290288 -0.462175 0.099200 4.000000
-0.290288 -0.448644 -0.148970 4.000000
-0.290288 -0.246349 0.406142 4.000000
-0.290288 -0.410493 -0.174014 4.000000
-0.290288 -0.276450 0.411374 4.000000
-0.290288 -0.249244 0.367953 4.000000
-0.290288 0.269168 -0.376525 4.000000
-0.290288 0.080571 0.477429 4.000000
-0.290288 0.463182 -0.035946 4.000000
-0.290288 -0.324117 0.317554 4.000000
-0.290288 0.469770 -0.035154 4.000000
-0.290288 0.196709 0.428638 4.000000
-0.290288 -0.336493 0.316040 4.000000
-0.290288 0.044740 -0.453255 4.000000
-0.290288 -0.494431 -0.058526 4.000000
-0.290288 0.341592 0.327018 4.000000
-0.290288 -0.051757 0.441349 4.000000
-0.290288 -0.479114 -0.117228 4.000000
-0.290288 -0.121199 -0.454114 4.000000
-0.290288 -0.288403 0.382398 4.000000
-0.290288 -0.361104 -0.288347 4.000000
-0.290288 0.385705 -0.275537 4.000000
-0.290288 0.276160 -0.361912 4.000000
-0.290288 -0.334911 0.300856 4.000000
-0.290288 -0.230589 0.382468 4.000000
-0.290288 0.107872 -0.478042 4.000000
-0.290288 0.484612 0.000557 4.000000
-0.290288 -0.456283 0.148361 4.000000
-0.290288 0.416016 0.159717 4.000000
-0.290288 0.359437 -0.282530 4.000000
-0.290288 -0.445514 0.034496 4.000000
-0.290288 0.258260 -0.402396 4.000000
-0.290288 -0.467999 0.071265 4.000000
-0.290288 -0.475858 0.007484 4.000000
-0.290288 -0.177977 -0.429092 4.000000
-0.290288 -0.185782 0.440923 4.000000
-0.290288 0.460257 -0.170379 4.000000
-0.290288 -0.436785 0.150698 4.000000
-0.290288 -0.018714 -0.469241 4.000000
-0.290288 -0.212950 -0.441883 4.000000
-0.290288 -0.239302 0.400041 4.000000
-0.290288 -0.424525 -0.183753 4.000000
-0.290288 0.121117 0.442148 4.000000
-0.290288 -0.464589 -0.088580 4.000000
-0.290288 -0.307267 -0.379587 4.000000
-0.290288 -0.377867 0.289260 4.000000
-0.290288 0.488774 -0.042693 4.000000
-0.290288 0.094053 -0.485545 4.000000
-0.290288 -0.463613 -0.023790 4.000000
-0.290288 -0.374498 0.287706 4.000000
-0.290288 0.069029 -0.467939 4.000000
-0.290288 0.089554 0.476717 4.000000
-0.290288 -0.221078 0.434786 4.000000
-0.290288 -0.458920 -0.081781 4.000000
-0.290288 0.254493 -0.383622 4.000000
-0.290288 -0.311434 0.320033 4.000000
-0.290288 -0.482639 -0.009782 4.000000
-0.290288 0.277029 0.374155 4.000000
-0.290288 0.453754 -0.074928 4.000000
-0.290288 -0.126698 0.449409 4.000000
-0.290288 0.489278 0.031259 4.000000
-0.290288 0.024691 0.477705 4.000000
-0.290288 0.238275 -0.439576 4.000000
-0.290288 -0.203756 -0.437832 4.000000
-0.290288 -0.464503 0.171477 4.000000
-0.290288 -0.463525 -0.053648 4.000000
-0.290288 0.490094 0.084967 4.000000
-0.290288 0.174793 -0.419259 4.000000
-0.290288 -0.034724 0.471226 4.000000
-0.290288 0.387033 0.269465 4.000000
-0.290288 0.017825 -0.479597 4.000000
-0.290288 0.191923 0.444892 4.000000
-0.290288 -0.428583 0.118103 4.000000
-0.290288 -0.473607 0.015675 4.000000
-0.290288 -0.416942 0.172161 4.000000
-0.290288 -0.276407 0.394052 4.000000
-0.290288 -0.128754 -0.437243 4.000000
-0.290288 -0.451826 -0.086775 4.000000
-0.290288 -0.312288 -0.335553 4.000000
-0.290288 0.449005 -0.106275 4.000000
-0.290288 -0.389523 -0.230154 4.000000
-0.290288 -0.105522 -0.435543 4.000000
-0.290288 -0.255134 0.410222 4.000000
-0.290288 -0.062967 0.461221 4.000000
-0.290288 -0.214037 -0.421074 4.000000
-0.290288 -0.358409 -0.266824 4.000000
-0.290288 0.459822 -0.135949 4.000000
-0.290288 -0.450661 -0.111761 4.000000
-0.290288 0.284750 -0.392591 4.000000
-0.290288 -0.366227 0.280702 4.000000
-0.290288 -0.442532 -0.222795 4.000000
-0.290288 -0.430280 0.133287 4.000000
-0.290288 0.323426 0.323951 4.000000
-0.290288 0.351794 -0.354247 4.000000
-0.290288 0.287447 0.395331 4.000000
-0.290288 0.326438 -0.361626 4.000000
-0.290288 -0.093463 -0.475877 4.000000
-0.290288 0.480675 -0.111804 4.000000
-0.290288 -0.312399 -0.329143 4.000000
-0.290288 -0.042326 0.467698 4.000000
-0.290288 -0.384120 -0.285800 4.000000
-0.290288 0.155739 0.449550 4.000000
-0.290288 0.377631 -0.274429 4.000000
-0.290288 0.412963 0.166201 4.000000
-0.290288 -0.423961 0.157222 4.000000
-0.290288 -0.435652 0.089871 4.000000
-0.290288 -0.030621 -0.477546 4.000000
-0.290288 0.249833 -0.375117 4.000000
-0.290288 -0.430595 -0.250331 4.000000
-0.290288 -0.352439 -0.323156 4.000000
-0.290288 0.051207 0.440584 4.000000
-0.290288 -0.041385 -0.446130 4.000000
-0.290288 -0.487329 -0.080725 4.000000
-0.290288 -0.232047 0.431537 4.000000
-0.290288 0.354265 0.299370 4.000000
-0.290288 -0.192777 -0.427392 4.000000
-0.290288 0.457882 -0.026789 4.000000
-0.290288 0.062404 0.443180 4.000000
-0.290288 0.203573 -0.410642 4.000000
-0.290288 -0.190153 -0.449144 4.000000
-0.290288 -0.175282 0.422552 4.000000
-0.290288 0.076585 -0.489449 4.000000
-0.290288 -0.096770 -0.446960 4.000000
-0.290288 -0.369257 -0.259696 4.000000
-0.290288 -0.124478 -0.462800 4.000000
-0.290288 0.292809 0.333876 4.000000
-0.290288 -0.129762 0.462597 4.000000
-0.290288 0.448704 0.034873 4.000000
-0.290288 0.434530 -0.206544 4.000000
-0.290288 -0.348100 0.277317 4.000000
-0.290288 -0.421506 -0.198258 4.000000
-0.290288 -0.353121 -0.316586 4.000000
-0.290288 -0.243222 0.407949 4.000000
-0.290288 -0.215130 -0.391963 4.000000
-0.290288 0.144453 -0.468796 4.000000
-0.290288 -0.026347 -0.484997 4.000000
-0.290288 -0.300397 0.371358 4.000000
-0.290288 -0.443262 -0.163374 4.000000
-0.290288 -0.405650 -0.194771 4.000000
-0.290288 -0.415352 0.262851 4.000000
-0.290288 -0.303477 -0.347979 4.000000
-0.290288 0.038091 0.442160 4.000000
-0.290288 0.090095 -0.467386 4.000000
-0.290288 0.012256 -0.468311 4.000000
-0.290288 -0.201874 0.441329 4.000000
-0.290288 -0.460536 -0.134142 4.000000
-0.290288 -0.443500 -0.045359 4.000000
-0.290288 0.463661 -0.068380 4.000000
-0.290288 -0.407699 0.253919 4.000000
-0.290288 -0.122601 -0.465905 4.000000
-0.290288 0.084887 0.443094 4.000000
-0.290288 0.247864 0.398063 4.000000
-0.290288 0.181620 -0.429560 4.000000
-0.290288 -0.133541 -0.477828 4.000000
-0.290288 -0.357421 -0.270260 4.000000
-0.290288 0.354425 0.310385 4.000000
-0.290288 -0.384481 0.221871 4.000000
-0.290288 -0.455743 0.033724 4.000000
-0.290288 0.478275 -0.047662 4.000000
-0.290288 0.141164 -0.476370 4.000000
-0.290288 -0.004844 -0.480406 4.000000
-0.290288 -0.292966 0.390824 4.000000
-0.290288 -0.345013 -0.314856 4.000000
-0.290288 0.300577 -0.388781 4.000000
-0.290288 -0.422449 0.212666 4.000000
-0.290288 -0.412791 0.259534 4.000000
-0.290288 -0.235943 -0.405973 4.000000
-0.290288 -0.402956 0.278818 4.000000
-0.290288 0.385990 0.258612 4.000000
-0.290288 0.105378 -0.448028 4.000000
-0.290288 0.437282 -0.138783 4.000000
-0.290288 -0.355427 0.341410 4.000000
-0.290288 0.208946 -0.426038 4.000000
-0.290288 0.082652 0.449544 4.000000
-0.290288 0.157862 -0.435424 4.000000
-0.290288 -0.483869 0.039319 4.000000
-0.290288 -0.382940 0.268841 4.000000
-0.290288 -0.190805 -0.423297 4.000000
-0.290288 -0.345702 -0.326979 4.000000
-0.290288 0.381103 -0.323336 4.000000
-0.290288 0.085992 -0.461542 4.000000
-0.290288 0.398827 0.259737 4.000000
-0.290288 -0.400264 0.253054 4.000000
-0.290288 0.195507 -0.422022 4.000000
-0.290288 -0.483369 0.111208 4.000000
-0.290288 0.015574 -0.488851 4.000000
-0.290288 0.273737 -0.391793 4.000000
-0.290288 0.311911 0.372901 4.000000
-0.290288 -0.318270 -0.314740 4.000000
-0.290288 0.247909 -0.425915 4.000000
-0.290288 -0.458352 0.111269 4.000000
-0.290288 0.472990 0.100775 4.000000
-0.290288 -0.380471 0.253734 4.000000
-0.290288 0.268652 -0.420690 4.000000
-0.290288 -0.453385 0.098799 4.000000
-0.290288 -0.095304 0.439780 4.000000
-0.290288 0.105349 0.442866 4.000000
-0.290288 0.417212 -0.253844 4.000000
-0.290288 0.001385 -0.485215 4.000000
-0.290288 0.098354 0.444246 4.000000
-0.290288 0.265241 -0.408410 4.000000
-0.290288 0.415873 -0.208952 4.000000
-0.290288 0.355159 -0.324725 4.000000
-0.290288 -0.472102 -0.078328 4.000000
-0.290288 -0.193895 0.412312 4.000000
-0.290288 -0.459708 0.005424 4.000000
-0.290288 0.177868 0.442929 4.000000
-0.290288 0.232088 0.410158 4.000000
-0.290288 0.303836 -0.349643 4.000000
-0.290288 0.277384 -0.357745 4.000000
-0.290288 0.333657 0.293524 4.000000
-0.290288 0.006996 -0.471003 4.000000
-0.290288 0.475516 0.108247 4.000000
-0.290288 0.373822 -0.330980 4.000000
-0.290288 0.333290 -0.332197 4.000000
-0.290288 -0.440298 -0.214371 4.000000
-0.290288 0.413959 0.175171 4.000000
-0.290288 0.439638 0.103620 4.000000
-0.290288 -0.021194 0.486123 4.000000
-0.290288 0.321309 -0.327731 4.000000
-0.290288 0.183478 -0.461130 4.000000
-0.290288 0.113605 -0.464760 4.000000
-0.290288 0.367398 0.308225 4.000000
-0.290288 0.462581 0.052332 4.000000
-0.290288 0.315528 0.357085 4.000000
-0.290288 -0.342255 0.282842 4.000000
-0.290288 0.231212 -0.438641 4.000000
-0.290288 -0.230111 0.412704 4.000000
-0.290288 0.016421 0.485133 4.000000
-0.290288 -0.415655 -0.190531 4.000000
-0.290288 0.315347 -0.343235 4.000000
-0.290288 -0.359890 0.324836 4.000000
-0.290288 0.413035 -0.224439 4.000000
-0.290288 -0.435951 0.102701 4.000000
-0.290288 -0.465588 -0.039844 4.000000
-0.290288 -0.238763 0.416924 4.000000
-0.290288 0.404751 -0.287702 4.000000
-0.290288 0.469619 0.060599 4.000000
-0.290288 0.166519 0.431599 4.000000
-0.290288 -0.126566 0.431293 4.000000
-0.290288 -0.454759 -0.007933 4.000000
-0.290288 -0.389542 0.249430 4.000000
-0.290288 -0.335530 -0.339349 4.000000
-0.290288 0.393051 -0.240310 4.000000
-0.290288 -0.305929 -0.366620 4.000000
-0.290288 -0.460152 0.120768 4.000000
-0.290288 -0.424521 -0.173291 4.000000
-0.290288 -0.339988 -0.296504 4.000000
-0.290288 -0.443044 0.139048 4.000000
-0.290288 0.383890 -0.242224 4.000000
-0.290288 -0.486515 0.100833 4.000000
-0.290288 0.460503 0.179407 4.000000
-0.290288 0.307927 0.326816 4.000000
-0.290288 -0.402406 -0.251348 4.000000
-0.290288 0.242484 0.371895 4.000000
-0.290288 0.424201 0.153055 4.000000
-0.290288 -0.478324 -0.064475 4.000000
-0.290288 0.383190 -0.320188 4.000000
-0.290288 -0.070957 -0.484465 4.000000
-0.290288 0.319802 -0.356993 4.000000
-0.290288 -0.255453 0.417013 4.000000
-0.290288 0.384717 0.264499 4.000000
-0.290288 0.402126 0.276380 4.000000
-0.290288 -0.473427 -0.115791 4.000000
-0.290288 -0.268346 -0.420096 4.000000
-0.290288 -0.301062 -0.381973 4.000000
-0.290288 -0.157767 0.415090 4.000000
-0.290288 -0.209841 0.404446 4.000000
-0.290288 -0.234798 -0.382255 4.000000
-0.290288 -0.407014 0.225516 4.000000
-0.290288 0.332456 0.296765 4.000000
-0.290288 -0.372017 -0.264518 4.000000
-0.290288 0.001244 0.472798 4.000000
-0.290288 0.251930 -0.419649 4.000000
-0.290288 -0.243173 0.425294 4.000000
-0.290288 -0.390158 0.296872 4.000000
-0.290288 -0.271293 -0.397518 4.000000
-0.290288 0.072207 -0.486839 4.000000
-0.290288 0.423195 0.178430 4.000000
-0.290288 -0.401214 -0.288666 4.000000
-0.290288 -0.237199 0.393858 4.000000
-0.290288 0.363569 0.309162 4.000000
-0.290288 -0.428588 0.181100 4.000000
-0.290288 0.352905 -0.287827 4.000000
-0.290288 -0.069908 0.441949 4.000000
-0.290288 0.217206 0.444352 4.000000
-0.290288 0.079000 -0.448621 4.000000
-0.290288 0.018022 0.445744 4.000000
-0.290288 -0.362727 0.279726 4.000000
-0.290288 -0.319207 -0.340355 4.000000
-0.290288 -0.185067 0.459133 4.000000
-0.290288 -0.046864 0.455572 4.000000
-0.290288 0.412533 -0.208773 4.000000
-0.290288 -0.264344 -0.363533 4.000000
-0.290288 0.324095 -0.309672 4.000000
-0.290288 0.053237 -0.485635 4.000000
-0.290288 -0.459137 -0.003683 4.000000
-0.290288 -0.468947 0.057913 4.000000
-0.290288 0.398258 0.269931 4.000000
-0.290288 0.461461 0.071529 4.000000
-0.290288 0.296977 -0.381673 4.000000
-0.290288 0.249425 -0.409375 4.000000
-0.290288 0.133136 0.433174 4.000000
-0.290288 -0.330816 0.334159 4.000000
-0.290288 -0.343622 -0.290742 4.000000
-0.290288 -0.477112 0.048899 4.000000
-0.290288 0.273190 -0.374571 4.000000
-0.290288 0.303570 0.353091 4.000000
-0.290288 -0.275409 -0.370744 4.000000
-0.290288 -0.386118 -0.289379 4.000000
-0.290288 0.346723 0.318933 4.000000
-0.290288 -0.175965 0.437921 4.000000
-0.290288 0.272051 -0.368563 4.000000
-0.290288 0.292679 0.366540 4.000000
-0.290288 0.459782 -0.148134 4.000000
-0.290288 -0.065437 0.479882 4.000000
-0.290288 -0.312629 -0.325461 4.000000
-0.290288 -0.461310 0.079786 4.000000
-0.290288 0.371713 0.308632 4.000000
-0.290288 0.159439 0.418449 4.000000
-0.290288 -0.411719 0.272721 4.000000
-0.290288 -0.045203 0.474625 4.000000
-0.290288 -0.460832 -0.087477 4.000000
-0.290288 -0.180267 -0.421900 4.000000
-0.290288 0.276014 0.407504 4.000000
-0.290288 0.407834 -0.212271 4.000000
-0.290288 0.390909 0.300411 4.000000
-0.290288 -0.338278 0.324992 4.000000
-0.290288 0.395365 0.247181 4.000000
-0.290288 -0.456421 -0.105979 4.000000
-0.290288 -0.204565 0.418783 4.000000
-0.290288 0.416223 0.207525 4.000000
-0.290288 -0.359482 -0.319788 4.000000
-0.290288 -0.343938 0.301286 4.000000
-0.290288 0.000359 -0.495459 4.000000
-0.290288 -0.455196 -0.086717 4.000000
-0.290288 -0.357340 0.322736 4.000000
-0.290288 0.240177 -0.429461 4.000000
-0.290288 -0.312081 -0.321137 4.000000
-0.290288 -0.223319 -0.396353 4.000000
-0.290288 0.221489 0.432404 4.000000
-0.290288 -0.126076 -0.469456 4.000000
-0.290288 -0.464222 -0.160325 4.000000
-0.290288 0.373538 0.325119 4.000000
-0.290288 0.144767 0.428242 4.000000
-0.290288 0.217419 -0.402949 4.000000
-0.290288 0.443952 -0.180644 4.000000
-0.290288 0.453611 -0.191770 4.000000
-0.290288 0.455381 -0.024798 4.000000
-0.290288 0.473937 -0.093271 4.000000
-0.290288 -0.444145 0.174369 4.000000
-0.290288 0.465571 -0.110566 4.000000
-0.290288 0.433507 0.108827 4.000000
-0.290288 0.227247 0.428211 4.000000
-0.290288 -0.189250 -0.461287 4.000000
-0.290288 -0.175047 0.454939 4.000000
-0.290288 -0.362173 -0.315715 4.000000
-0.290288 0.296189 0.353273 4.000000
-0.290288 -0.451724 -0.167535 4.000000
-0.290288 -0.470829 0.157464 4.000000
-0.290288 0.436883 -0.233336 4.000000
-0.290288 -0.468706 0.164336 4.000000
