0.226701 0.269062 0.352968 3.000000
0.132259 0.385613 -0.225623 3.000000
0.175361 -0.440493 -0.063795 3.000000
0.098067 -0.427408 0.120718 3.000000
-0.113004 0.204294 0.393668 3.000000
0.072574 0.402740 -0.193432 3.000000
-0.262311 0.277575 0.346364 3.000000
-0.142950 -0.093402 -0.437386 3.000000
0.086325 -0.123345 0.425464 3.000000
0.120123 -0.274798 -0.352077 3.000000
-0.007309 -0.276810 0.346163 3.000000
-0.187363 -0.442954 -0.041671 3.000000
-0.200051 0.006380 0.443074 3.000000
-0.125083 0.428590 -0.124529 3.000000
0.190163 0.305705 0.322260 3.000000
-0.193813 -0.358829 0.260963 3.000000
0.141285 -0.300526 -0.330308 3.000000
-0.136284 -0.438022 -0.079396 3.000000
0.047965 -0.328906 0.297402 3.000000
-0.156261 0.219065 -0.390171 3.000000
-0.172338 -0.229158 -0.383596 3.000000
0.061934 0.424744 0.133412 3.000000
-0.220407 0.433587 -0.105643 3.000000
0.117830 -0.435284 -0.093468 3.000000
0.214092 0.062837 0.438717 3.000000
0.153043 0.192687 0.399582 3.000000
-0.033140 -0.444469 -0.016604 3.000000
0.286131 0.445844 -0.005469 1.000000
0.205722 -0.402840 -0.191116 3.000000
-0.034830 -0.409912 0.170419 3.000000
0.059270 -0.437407 -0.083281 3.000000
-0.270448 -0.378524 0.231523 3.000000
-0.051308 0.433460 0.101857 3.000000
0.271238 0.324198 -0.308120 3.000000
-0.247240 0.274453 0.348786 3.000000
0.193482 0.307217 -0.325101 3.000000
0.240210 -0.307977 0.318964 3.000000
-0.037520 -0.439612 -0.069355 3.000000
0.099436 0.101706 0.431406 3.000000
0.191404 -0.016173 0.442734 3.000000
-0.289134 -0.311617 0.315323 4.000000
0.046618 -0.376815 0.234413 3.000000
0.124738 -0.154243 -0.419651 3.000000
0.106418 -0.253061 0.363792 3.000000
0.068296 -0.429102 0.114886 3.000000
-0.082006 0.349851 0.273858 3.000000
-0.221563 0.202731 0.394465 3.000000
0.105933 -0.179123 -0.409555 3.000000
0.009228 -0.260286 -0.363236 3.000000
0.226241 0.126161 -0.429297 3.000000
-0.032808 0.391398 -0.215692 3.000000
-0.102040 0.401295 0.191915 3.000000
0.229112 -0.378603 0.231389 3.000000
0.281475 0.445429 -0.018671 1.000000
-0.179446 0.115531 0.428031 3.000000
-0.192405 0.302296 -0.329651 3.000000
-0.052929 -0.423677 0.133557 3.000000
0.197034 0.404683 -0.189224 3.000000
-0.221491 0.408920 0.175079 3.000000
-0.022035 0.421106 -0.148269 3.000000
0.151978 0.162322 -0.417111 3.000000
0.269360 0.134467 0.422530 3.000000
-0.200174 -0.323211 0.303729 3.000000
0.095719 -0.287783 -0.341542 3.000000
-0.160753 -0.402894 0.186638 3.000000
-0.084556 -0.264412 -0.360133 3.000000
-0.004191 -0.377320 -0.237912 3.000000
-0.202171 0.313868 0.314097 3.000000
-0.138972 0.444689 0.029810 3.000000
-0.195860 0.343086 0.282480 3.000000
0.283976 -0.202149 0.394239 3.000000
0.058876 0.401562 0.191390 3.000000
0.059218 0.395956 0.202391 3.000000
0.232667 0.020645 0.442626 3.000000
-0.170545 -0.023911 0.442491 3.000000
-0.101134 -0.282221 -0.346319 3.000000
-0.167798 -0.025495 -0.446795 3.000000
-0.238296 0.440860 0.063597 3.000000
0.147764 0.426080 0.128813 3.000000
0.271035 -0.356615 -0.268170 3.000000
0.087063 0.274134 -0.353387 3.000000
-0.018682 0.323830 -0.308488 3.000000
0.259350 -0.051078 -0.444500 3.000000
0.224120 -0.263764 -0.360636 3.000000
-0.024059 0.437417 -0.088510 3.000000
0.259039 -0.064583 0.438278 3.000000
0.129507 -0.371247 0.242877 3.000000
-0.114558 -0.143661 -0.423461 3.000000
0.156977 0.373361 -0.245627 3.000000
-0.064101 -0.439203 0.067590 3.000000
0.262385 0.434434 -0.101854 3.000000
-0.217325 -0.402477 0.187583 3.000000
0.153378 -0.362999 -0.259366 3.000000
-0.070535 0.367075 0.250523 3.000000
0.172666 0.347004 0.277528 3.000000
0.028479 0.318375 0.309590 3.000000
0.248051 0.322363 -0.309956 3.000000
-0.185913 -0.417482 -0.155489 3.000000
0.036107 -0.314308 -0.316986 3.000000
0.007820 -0.050057 -0.444596 3.000000
-0.095013 0.173305 0.408163 3.000000
-0.105712 0.088350 0.434391 3.000000
0.089250 -0.310067 -0.321226 3.000000
0.140017 0.200847 -0.399778 3.000000
-0.262115 0.269727 -0.356805 3.000000
-0.128638 0.445230 0.020645 3.000000
0.033135 0.443290 -0.048962 3.000000
0.241278 -0.038084 0.441375 3.000000
-0.007775 0.235069 -0.380706 3.000000
0.137696 0.280134 0.344379 3.000000
0.277118 -0.439679 0.064582 3.000000
-0.018473 -0.432202 -0.107255 3.000000
0.116720 -0.169750 0.409258 3.000000
0.194673 0.429073 -0.122866 3.000000
-0.022046 0.166756 0.410997 3.000000
-0.084858 -0.041513 0.441051 3.000000
-0.214129 0.294900 -0.336172 3.000000
0.190627 0.141081 -0.424759 3.000000
0.195541 -0.291092 0.334272 3.000000
-0.035741 0.440652 -0.069259 3.000000
0.081565 -0.228517 -0.383975 3.000000
0.058027 0.256735 -0.366345 3.000000
0.108965 -0.159211 0.413509 3.000000
-0.237280 -0.382084 0.225503 3.000000
0.103612 -0.373306 -0.244201 3.000000
0.028284 0.445753 -0.008371 3.000000
-0.178679 0.396616 -0.205451 3.000000
-0.045223 0.240149 -0.377617 3.000000
0.209528 0.424005 -0.140215 3.000000
0.276199 -0.229310 -0.383506 1.000000
-0.199706 0.298371 0.328758 3.000000
-0.123237 -0.443956 -0.031072 3.000000
0.118129 -0.319780 0.307160 3.000000
-0.217575 0.327726 0.299903 3.000000
-0.189026 0.445677 0.006431 3.000000
-0.260910 -0.440837 0.057271 3.000000
-0.061381 -0.429433 -0.118100 3.000000
0.110495 -0.303413 -0.327763 3.000000
0.013489 0.324729 0.303236 3.000000
-0.219137 0.337608 -0.293048 3.000000
-0.205048 -0.315157 0.311783 3.000000
0.074772 0.281302 0.343474 3.000000
-0.029617 0.325518 -0.306760 3.000000
-0.188214 -0.294615 -0.335519 3.000000
0.034415 -0.141422 -0.424267 3.000000
-0.118336 0.080799 0.435872 3.000000
-0.058946 -0.015616 -0.447105 3.000000
-0.252206 -0.094979 -0.437034 3.000000
-0.093794 -0.292961 0.332624 3.000000
0.255271 0.076552 -0.440898 3.000000
-0.203080 0.440859 0.063604 3.000000
-0.089316 0.198285 0.396730 3.000000
0.087254 0.329435 -0.302318 3.000000
-0.238653 -0.395530 -0.205571 3.000000
0.278311 0.143395 0.419572 3.000000
-0.123187 -0.442782 -0.043496 3.000000
-0.288113 -0.429818 -0.116773 4.000000
0.114801 0.418830 0.150236 3.000000
-0.145182 0.438943 -0.080051 3.000000
-0.182900 -0.352412 0.269236 3.000000
-0.051905 0.429537 0.116915 3.000000
0.064787 0.297281 0.329719 3.000000
-0.094115 -0.331826 0.294090 3.000000
-0.087924 -0.271674 0.350147 3.000000
-0.016316 0.390349 0.213260 3.000000
0.274557 0.191011 -0.404789 3.000000
0.041077 -0.049940 0.440254 3.000000
-0.213569 0.384989 -0.226677 3.000000
-0.289108 -0.246399 0.368320 4.000000
0.063732 -0.347519 0.275543 3.000000
-0.260618 -0.109657 0.429400 3.000000
0.121636 -0.397790 0.196782 3.000000
-0.181909 0.439679 0.071049 3.000000
-0.210703 -0.376710 0.234591 3.000000
-0.289776 0.064927 0.438386 4.000000
0.055665 0.312512 0.315453 3.000000
-0.276518 0.211893 0.389796 3.000000
-0.022113 -0.398054 -0.200617 3.000000
-0.260843 -0.428876 -0.120016 3.000000
0.281986 0.444850 0.028103 1.000000
0.058919 -0.387516 -0.220672 3.000000
-0.289828 0.079078 0.436145 4.000000
-0.012778 -0.078909 0.436009 3.000000
0.221599 -0.439824 -0.068021 3.000000
0.085465 -0.138434 -0.425343 3.000000
0.257703 0.383024 -0.229999 3.000000
0.252947 -0.428087 -0.122734 3.000000
-0.111335 0.223567 -0.387509 3.000000
-0.265176 -0.442122 0.046121 3.000000
-0.079070 -0.329037 -0.301607 3.000000
0.222837 0.285935 -0.344075 3.000000
0.080165 -0.274438 0.348003 3.000000
-0.257961 0.077900 0.436331 3.000000
-0.224262 0.151785 0.416552 3.000000
0.028936 -0.170083 -0.413467 3.000000
0.211255 0.275643 0.347863 3.000000
0.248730 -0.417133 -0.156456 3.000000
-0.087149 0.365875 -0.256642 3.000000
-0.017484 0.413018 -0.169965 3.000000
-0.286670 0.384488 0.223171 4.000000
0.272587 0.445154 0.023073 3.000000
-0.186050 0.274165 -0.353363 3.000000
-0.095665 0.269157 0.352894 3.000000
-0.089862 0.337062 -0.293666 3.000000
0.014738 0.182786 -0.408414 3.000000
-0.219129 0.444774 -0.033260 3.000000
0.192928 0.361841 0.258225 3.000000
0.013159 0.174823 0.407506 3.000000
0.015376 0.275842 -0.352062 3.000000
0.166234 -0.030571 -0.446438 3.000000
-0.085591 0.009035 0.442990 3.000000
0.023227 -0.380867 0.227560 3.000000
0.243182 0.132460 -0.427466 3.000000
0.180003 0.318046 -0.314273 3.000000
-0.143927 0.012691 0.442876 3.000000
0.127112 -0.441260 0.054599 3.000000
-0.216664 -0.429989 0.111834 3.000000
0.283106 0.319378 -0.312940 1.000000
0.122706 0.267420 -0.358595 3.000000
-0.186290 0.100367 0.431705 3.000000
0.132570 -0.330977 0.295053 3.000000
-0.028120 -0.336498 0.288790 3.000000
0.005519 -0.384051 0.222176 3.000000
-0.094131 -0.443887 0.027453 3.000000
0.197407 -0.315225 0.311715 3.000000
-0.068981 -0.235752 -0.379696 3.000000
-0.238962 0.243127 -0.375594 3.000000
0.018911 -0.423760 0.133273 3.000000
0.075306 -0.439983 0.062661 3.000000
-0.090677 0.148357 -0.422139 3.000000
0.241040 -0.406333 0.178691 3.000000
0.149182 -0.204304 -0.397494 3.000000
-0.290213 0.441842 0.057393 4.000000
-0.124546 -0.444737 0.003734 3.000000
-0.000971 -0.444648 -0.010912 3.000000
-0.015001 0.389123 -0.219688 3.000000
-0.013199 -0.386022 0.218844 3.000000
0.066919 -0.388962 0.213873 3.000000
0.198033 -0.045392 -0.445037 3.000000
-0.026500 -0.341379 -0.287608 3.000000
-0.236905 -0.235967 -0.379569 3.000000
0.158165 0.445732 0.004667 3.000000
0.285179 -0.324011 -0.307283 1.000000
-0.057515 -0.358941 0.260819 3.000000
0.040466 0.016440 0.442758 3.000000
0.089891 -0.247408 -0.371987 3.000000
-0.177941 0.440218 -0.072005 3.000000
0.117779 0.087663 0.434545 3.000000
-0.237862 0.411294 0.169594 3.000000
0.233762 -0.425064 0.128783 3.000000
0.004106 -0.188346 -0.405564 3.000000
0.140837 -0.015133 -0.447120 3.000000
0.226893 -0.198294 0.396203 3.000000
0.130784 0.429631 0.116593 3.000000
-0.051858 -0.419272 0.146163 3.000000
-0.061913 -0.067331 -0.442196 3.000000
0.162027 0.040379 -0.445608 3.000000
-0.147885 0.444749 -0.033526 3.000000
-0.120371 -0.439707 -0.068759 3.000000
0.067552 -0.281184 -0.347124 3.000000
-0.240561 -0.432373 -0.106492 3.000000
0.103084 0.441980 -0.060877 3.000000
-0.025081 0.100797 0.431609 3.000000
0.154441 -0.039812 0.441211 3.000000
0.027391 0.424795 -0.137591 3.000000
0.005772 -0.408483 0.173723 3.000000
0.164120 0.409304 0.174193 3.000000
-0.257472 -0.150951 0.416483 3.000000
-0.269966 -0.119835 -0.430837 3.000000
0.135689 0.280548 -0.348412 3.000000
-0.056726 -0.440537 -0.063516 3.000000
-0.226469 -0.440233 0.061083 3.000000
0.008978 0.173878 -0.412268 3.000000
-0.230215 -0.362421 -0.260218 3.000000
-0.171776 -0.149435 0.417029 3.000000
-0.156100 -0.415476 -0.161060 3.000000
0.090911 0.015495 0.442787 3.000000
0.040738 0.110867 -0.433711 3.000000
0.057920 -0.285896 0.338853 3.000000
0.177328 0.407643 0.178031 3.000000
0.064837 -0.278957 0.344497 3.000000
-0.122945 0.364985 0.253599 3.000000
-0.275129 -0.443041 -0.040749 3.000000
-0.278489 0.388746 0.215971 3.000000
-0.160360 0.009805 0.442966 3.000000
0.000246 -0.248943 0.366591 3.000000
0.061803 0.350123 -0.277861 3.000000
0.170624 0.034362 -0.446177 3.000000
0.170267 -0.331650 -0.298643 3.000000
-0.089857 -0.394394 -0.207800 3.000000
-0.151002 -0.256820 -0.365591 3.000000
0.269991 -0.293885 0.331810 3.000000
-0.146515 0.136952 0.421808 3.000000
-0.006766 0.093379 -0.437621 3.000000
0.078135 -0.026165 0.442420 3.000000
0.155948 -0.035347 -0.445987 3.000000
0.140051 0.412179 0.167548 3.000000
-0.243537 -0.085691 -0.439110 3.000000
0.032683 0.410467 0.171505 3.000000
-0.281362 -0.377571 0.233133 3.000000
-0.173772 0.392255 -0.214010 3.000000
-0.242280 -0.418284 -0.153262 3.000000
0.118623 0.401776 0.190970 3.000000
-0.218679 -0.363299 0.254572 3.000000
0.216765 0.397986 -0.202762 3.000000
-0.021916 0.129232 -0.428404 3.000000
0.286167 -0.409295 -0.176200 1.000000
-0.081352 -0.171433 0.408530 3.000000
0.236059 -0.391193 0.209728 3.000000
-0.148719 0.131241 -0.427821 3.000000
0.250111 0.194674 -0.402923 3.000000
0.208275 -0.225452 0.381434 3.000000
0.234393 -0.097285 0.432165 3.000000
0.203508 0.165885 0.411374 3.000000
0.141953 -0.394732 -0.207138 3.000000
-0.033523 -0.409954 -0.174676 3.000000
-0.176222 -0.420083 -0.148263 3.000000
-0.194552 -0.441662 -0.055344 3.000000
-0.184851 0.018171 -0.447057 3.000000
-0.159299 -0.443305 -0.037963 3.000000
-0.102615 -0.137419 -0.425708 3.000000
-0.044895 0.134401 -0.426903 3.000000
-0.270286 0.176958 -0.410935 3.000000
0.145450 0.329154 0.298283 3.000000
0.073050 0.066798 -0.442443 3.000000
-0.111584 0.225498 0.382013 3.000000
-0.208491 0.445562 -0.014450 3.000000
0.056322 -0.030081 0.442131 3.000000
0.208682 -0.444170 -0.026131 3.000000
0.098149 -0.089219 0.433968 3.000000
-0.212426 0.135063 0.422357 3.000000
-0.279704 -0.441102 0.055597 3.000000
0.060540 -0.075488 0.436551 3.000000
-0.280484 -0.021596 0.442564 3.000000
0.172034 -0.397947 -0.200827 3.000000
-0.173059 0.404288 0.185784 3.000000
0.001465 0.256665 -0.366393 3.000000
0.116396 0.365311 -0.257472 3.000000
-0.188526 -0.133422 -0.426889 3.000000
-0.168992 -0.382623 -0.228946 3.000000
0.027663 0.238406 0.374379 3.000000
0.137824 -0.444664 0.006045 3.000000
-0.194532 -0.038669 -0.445673 3.000000
-0.140829 -0.024530 -0.446825 3.000000
-0.109058 0.122518 0.426001 3.000000
-0.191671 0.339091 -0.291365 3.000000
-0.002090 0.250714 0.366084 3.000000
0.262733 0.297975 -0.333460 3.000000
-0.178034 -0.192348 0.399233 3.000000
0.252533 0.371903 0.243419 3.000000
-0.036543 -0.317160 0.309781 3.000000
-0.208947 0.017752 0.442717 3.000000
-0.219062 -0.155587 -0.419167 3.000000
0.241969 -0.433302 0.097982 3.000000
0.060367 -0.161108 -0.417180 3.000000
0.170879 -0.168651 -0.414087 3.000000
0.155895 -0.393565 0.205073 3.000000
-0.191166 0.284597 0.340901 3.000000
0.116628 0.353240 -0.273842 3.000000
-0.174599 -0.347577 0.275468 3.000000
-0.169225 -0.336031 -0.293674 3.000000
-0.102206 0.294536 0.332139 3.000000
-0.249757 0.419512 -0.152697 3.000000
0.136509 0.221934 -0.388474 3.000000
0.108869 -0.064561 0.438282 3.000000
0.193313 -0.424024 -0.136717 3.000000
0.089176 0.422201 0.140873 3.000000
0.255574 -0.398429 -0.199882 3.000000
0.182245 -0.341118 -0.287903 3.000000
-0.022884 0.257453 -0.365857 3.000000
0.268231 -0.148725 -0.421638 3.000000
0.205183 -0.353891 0.267328 3.000000
-0.137252 0.100898 -0.435940 3.000000
-0.289172 0.403859 0.186775 4.000000
0.004971 -0.444271 -0.022912 3.000000
-0.067495 -0.391166 0.209782 3.000000
-0.183618 0.421773 0.142062 3.000000
-0.214617 0.284501 -0.345340 3.000000
0.133429 -0.439129 -0.072410 3.000000
0.200263 0.441691 -0.062704 3.000000
-0.204152 0.436768 -0.091411 3.000000
0.020612 0.409843 0.172947 3.000000
0.068830 0.118217 -0.431604 3.000000
0.009542 -0.028132 -0.446669 3.000000
-0.233935 0.164809 0.411840 3.000000
-0.139372 0.440573 0.065407 3.000000
-0.101153 -0.374992 0.237366 3.000000
-0.142590 -0.132527 -0.427149 3.000000
0.240719 -0.026643 -0.446758 3.000000
0.242575 -0.264158 -0.360330 3.000000
0.029095 0.312833 -0.319486 3.000000
-0.110664 -0.419926 0.144347 3.000000
-0.074927 -0.356613 0.263819 3.000000
-0.107928 0.040409 0.441252 3.000000
-0.122298 0.238902 0.374086 3.000000
0.225639 0.328204 0.299361 3.000000
0.052227 0.169939 -0.413973 3.000000
0.271524 -0.116141 0.427556 3.000000
0.128620 -0.244207 0.369810 3.000000
0.283964 0.005820 -0.447445 1.000000
-0.129910 -0.424788 -0.134089 3.000000
0.274391 0.002959 0.443181 3.000000
0.250824 -0.257152 0.361012 3.000000
-0.288493 -0.195850 -0.401802 4.000000
-0.173368 -0.437245 0.079951 3.000000
0.274938 -0.400564 0.191338 3.000000
0.004578 -0.149651 0.416951 3.000000
-0.109619 -0.334607 -0.295289 3.000000
0.253608 0.165388 -0.415942 3.000000
-0.259312 -0.184742 0.402770 3.000000
-0.266853 0.053382 0.440026 3.000000
0.071150 -0.370568 0.243876 3.000000
-0.050573 -0.440835 0.057285 3.000000
-0.164293 0.053785 -0.444341 3.000000
-0.064596 -0.424051 -0.136623 3.000000
-0.227961 0.439274 -0.077960 3.000000
0.102838 -0.245253 -0.373452 3.000000
-0.147578 0.445369 0.016235 3.000000
-0.042149 0.425503 0.130801 3.000000
0.054185 0.265154 -0.360353 3.000000
-0.269231 0.425913 0.129391 3.000000
-0.157111 -0.437765 0.076664 3.000000
-0.036057 -0.443526 -0.035623 3.000000
-0.011736 -0.441042 0.055976 3.000000
-0.150875 -0.137215 0.421428 3.000000
-0.212824 0.215875 0.387704 3.000000
0.025815 -0.249460 0.366239 3.000000
-0.059641 -0.426513 -0.128150 3.000000
-0.159342 -0.233672 0.376573 3.000000
0.182495 0.024660 0.442499 3.000000
0.123802 -0.390334 -0.215768 3.000000
0.102874 0.416483 -0.161109 3.000000
0.286272 -0.348562 -0.278552 1.000000
-0.013550 0.377966 0.234199 3.000000
-0.236757 0.408765 -0.179793 3.000000
-0.115979 -0.303376 0.323442 3.000000
0.184406 -0.251931 -0.368914 3.000000
-0.227239 0.356739 -0.269331 3.000000
-0.271107 -0.118034 0.427006 3.000000
0.282883 0.047947 -0.444893 1.000000
0.227703 -0.331398 0.294576 3.000000
-0.167372 -0.369865 -0.249263 3.000000
0.207093 0.115882 -0.432283 3.000000
0.262510 0.165564 0.411513 3.000000
0.037026 0.425900 -0.133789 3.000000
-0.031758 -0.444458 0.012623 3.000000
-0.079387 -0.337753 -0.291720 3.000000
-0.054110 0.426333 0.127945 3.000000
-0.256115 0.176535 -0.411119 3.000000
-0.104523 0.234302 -0.381160 3.000000
0.022972 0.295915 -0.335277 3.000000
0.275822 -0.062945 -0.442891 1.000000
0.042790 -0.100990 -0.435690 3.000000
0.052298 0.445105 -0.028976 3.000000
-0.117572 -0.200550 0.395053 3.000000
-0.080924 0.418240 -0.156230 3.000000
0.149831 -0.239108 -0.377628 3.000000
0.152245 0.379877 -0.235321 3.000000
0.083108 -0.087588 0.434333 3.000000
0.087931 0.041284 0.441169 3.000000
-0.239184 0.056599 0.439705 3.000000
0.247979 -0.403602 -0.189355 3.000000
0.201013 0.443546 0.041899 3.000000
0.057959 0.078916 0.436170 3.000000
0.181094 -0.417849 0.150116 3.000000
-0.115466 0.435870 -0.095431 3.000000
-0.209723 0.444025 -0.041180 3.000000
-0.261663 0.411692 -0.173028 3.000000
-0.223573 0.369080 -0.251926 3.000000
0.039932 0.279482 -0.349239 3.000000
-0.178694 -0.289463 -0.340061 3.000000
-0.234566 -0.050594 -0.444546 3.000000
0.068890 -0.352542 -0.273420 3.000000
-0.239676 0.230336 0.379152 3.000000
-0.045266 0.155018 -0.419741 3.000000
-0.194260 -0.336864 0.288376 3.000000
0.200021 -0.428677 -0.120700 3.000000
0.176329 0.184986 -0.407462 3.000000
0.286562 -0.258397 -0.364519 1.000000
-0.027612 -0.442857 0.038344 3.000000
0.193070 0.247635 0.368176 3.000000
0.064408 -0.169924 0.409183 3.000000
0.259155 -0.296243 0.329731 3.000000
0.079756 0.433042 0.103726 3.000000
-0.238150 0.010175 -0.447308 3.000000
0.185540 0.441246 -0.065509 3.000000
-0.260446 -0.044771 -0.445096 3.000000
0.051785 0.430315 0.114236 3.000000
0.118966 0.445258 0.019749 3.000000
0.210018 0.230571 -0.383366 3.000000
-0.149406 -0.240000 -0.377022 3.000000
-0.285184 0.347675 -0.281017 4.000000
0.211167 -0.437778 0.076586 3.000000
0.074546 -0.219621 0.384883 3.000000
0.021793 0.375857 0.237601 3.000000
-0.230651 -0.421727 0.139344 3.000000
-0.156921 0.345807 0.279072 3.000000
0.071671 -0.147153 -0.422204 3.000000
-0.038659 0.255303 -0.367318 3.000000
0.100068 0.150409 -0.421400 3.000000
-0.109795 0.442159 -0.059748 3.000000
0.233469 -0.444445 -0.017362 3.000000
-0.138300 0.131926 -0.427622 3.000000
0.177964 0.009367 -0.447334 3.000000
0.114759 -0.226069 0.381070 3.000000
-0.283511 -0.256649 -0.365707 4.000000
0.144819 -0.061785 0.438721 3.000000
-0.249257 -0.307101 0.319839 3.000000
-0.054904 -0.428723 0.116191 3.000000
0.148905 0.194129 -0.403201 3.000000
-0.222968 0.230679 -0.383302 3.000000
-0.070419 0.439378 -0.077303 3.000000
-0.066089 -0.412079 0.165411 3.000000
0.000700 -0.401190 -0.194462 3.000000
-0.255816 0.435007 0.094935 3.000000
-0.248189 -0.330248 0.295880 3.000000
-0.070623 0.245566 -0.373935 3.000000
0.081370 -0.189674 0.400595 3.000000
0.051705 -0.312375 0.314565 3.000000
-0.211666 0.230090 -0.383651 3.000000
0.242018 -0.438455 -0.076660 3.000000
-0.236398 -0.415603 -0.160706 3.000000
-0.012827 0.249974 0.366586 3.000000
-0.179401 -0.182313 0.403821 3.000000
0.043730 0.143207 -0.423993 3.000000
-0.086334 -0.422020 -0.142884 3.000000
-0.072492 0.160502 0.413413 3.000000
-0.247688 -0.118327 -0.431275 3.000000
-0.216297 -0.369801 -0.249358 3.000000
0.232672 -0.276310 0.346551 3.000000
0.087563 0.363346 -0.260364 3.000000
0.267914 0.090643 0.433879 3.000000
0.169603 0.421560 -0.147007 3.000000
0.283991 0.428290 0.121209 1.000000
-0.024115 0.443317 -0.048672 3.000000
0.094547 -0.250764 0.365353 3.000000
-0.288847 0.146784 0.418352 4.000000
0.201105 0.241639 0.372251 3.000000
-0.198176 -0.297928 -0.332599 3.000000
-0.079251 0.048934 0.440446 3.000000
-0.096098 -0.387353 -0.220948 3.000000
-0.104687 -0.119293 -0.430994 3.000000
0.178956 -0.153205 0.415671 3.000000
0.269273 -0.390280 0.211520 3.000000
0.077102 -0.353209 0.268208 3.000000
-0.085875 0.372197 -0.247340 3.000000
0.253644 -0.333892 -0.296099 3.000000
0.282437 -0.350493 0.271709 1.000000
-0.254652 -0.290029 -0.339562 3.000000
0.055321 0.421186 0.143692 3.000000
0.106857 0.180472 0.405061 3.000000
0.155696 0.263021 -0.362007 3.000000
0.017818 -0.297881 0.328286 3.000000
-0.280183 0.428535 -0.124718 3.000000
0.190082 -0.383510 0.223092 3.000000
0.223551 0.325347 -0.306954 3.000000
-0.019305 -0.033462 -0.446165 3.000000
0.232508 -0.437384 -0.083428 3.000000
0.052820 0.370905 0.244888 3.000000
0.238436 -0.051903 0.440069 3.000000
-0.023224 0.385391 0.221644 3.000000
0.270765 0.442129 -0.059938 3.000000
-0.092741 0.338149 0.288081 3.000000
0.165367 0.355045 -0.271515 3.000000
-0.184412 0.346199 -0.282920 3.000000
0.176782 -0.320709 0.306231 3.000000
-0.056680 0.383313 0.225158 3.000000
0.123782 0.350959 0.272430 3.000000
0.102103 0.409434 -0.178247 3.000000
0.266547 -0.129590 -0.428003 3.000000
0.047777 0.416442 -0.161222 3.000000
0.128347 0.094458 -0.437379 3.000000
0.101640 0.141443 0.420275 3.000000
0.006030 -0.163105 0.412107 3.000000
-0.165216 -0.424497 -0.135090 3.000000
-0.259366 0.381018 -0.233392 3.000000
-0.263427 0.025542 -0.446825 3.000000
-0.050389 0.408583 -0.180213 3.000000
-0.104264 0.445693 0.005905 3.000000
-0.237263 -0.325028 -0.306154 3.000000
-0.261153 0.443893 -0.042577 3.000000
-0.272938 0.256698 0.362017 3.000000
-0.103334 -0.440866 0.057086 3.000000
-0.134687 0.445616 0.008354 3.000000
-0.051927 -0.187669 0.401503 3.000000
-0.004425 -0.411914 0.165794 3.000000
0.124681 -0.424338 0.131283 3.000000
-0.034929 -0.216669 0.386629 3.000000
0.082106 -0.288852 0.336247 3.000000
-0.056530 0.338456 -0.292086 3.000000
0.016604 -0.444080 -0.028997 3.000000
0.013855 -0.159383 -0.417801 3.000000
-0.134696 -0.430670 -0.113841 3.000000
-0.232467 0.206125 -0.397088 3.000000
-0.036145 0.065209 0.438341 3.000000
-0.246125 0.411406 -0.173688 3.000000
-0.040080 -0.253742 0.363329 3.000000
0.190932 -0.132163 -0.427255 3.000000
0.141525 -0.246539 -0.372578 3.000000
-0.158071 0.445684 -0.010567 3.000000
-0.009467 0.283717 -0.345954 3.000000
0.157217 0.366348 0.251593 3.000000
-0.156262 -0.337187 0.288009 3.000000
-0.131697 0.030854 0.442155 3.000000
-0.080792 0.298068 -0.333379 3.000000
0.175681 -0.428539 -0.121178 3.000000
0.159946 0.427321 0.124544 3.000000
-0.083950 -0.218455 0.385572 3.000000
0.138041 -0.258439 -0.364491 3.000000
0.082832 0.445193 -0.026175 3.000000
-0.218499 -0.076828 -0.440692 3.000000
-0.237616 -0.069231 -0.441895 3.000000
0.025891 0.007689 0.443033 3.000000
-0.212104 0.445245 -0.024512 3.000000
-0.254349 0.346724 0.277889 3.000000
-0.160744 0.244643 0.370210 3.000000
0.063754 -0.273265 -0.353266 3.000000
-0.013598 0.131774 0.423312 3.000000
-0.150610 0.250086 -0.370864 3.000000
0.011471 0.158232 0.414231 3.000000
0.038100 -0.398554 -0.199636 3.000000
-0.127172 0.126010 0.424987 3.000000
-0.085857 0.043072 -0.445354 3.000000
-0.079683 -0.424780 -0.134115 3.000000
0.000546 0.364018 -0.259375 3.000000
-0.157638 -0.346535 -0.281165 3.000000
-0.154148 -0.037717 -0.445763 3.000000
-0.261322 -0.428515 0.116904 3.000000
0.077660 -0.392956 -0.210622 3.000000
-0.004126 0.358664 -0.266850 3.000000
0.268486 -0.334757 0.290765 3.000000
0.254824 0.227793 0.380656 3.000000
0.050024 -0.211875 0.389284 3.000000
-0.069341 -0.358477 -0.265769 3.000000
0.107457 0.438095 -0.085405 3.000000
-0.095870 -0.050706 0.440182 3.000000
0.156017 -0.430540 0.109935 3.000000
-0.023272 -0.437368 0.079173 3.000000
0.227312 0.436321 0.089059 3.000000
0.207832 0.441431 0.059993 3.000000
0.261639 -0.393971 -0.208631 3.000000
-0.198834 0.162489 0.412698 3.000000
0.140664 -0.423111 -0.139853 3.000000
-0.105173 -0.193720 -0.402887 3.000000
-0.058210 0.307366 0.320599 3.000000
0.179516 0.438464 0.078724 3.000000
-0.280504 -0.390448 -0.215544 4.000000
-0.278110 -0.321390 -0.309904 3.000000
-0.172898 0.178908 -0.410092 3.000000
0.006311 0.445341 0.017112 3.000000
-0.158458 0.071188 0.437394 3.000000
-0.199579 0.103281 -0.435407 3.000000
0.236730 0.267726 -0.358358 3.000000
-0.008854 -0.331651 0.294288 3.000000
-0.262323 -0.186363 -0.406422 3.000000
-0.237256 0.369666 -0.251065 3.000000
0.147518 -0.023820 -0.446847 3.000000
0.144583 -0.371526 0.242467 3.000000
-0.050608 -0.131794 -0.427362 3.000000
0.007252 -0.385922 -0.223366 3.000000
-0.249555 -0.082954 0.435368 3.000000
-0.083323 0.027560 0.442408 3.000000
-0.090419 0.251315 -0.370029 3.000000
0.094152 0.439677 -0.075419 3.000000
-0.064786 0.433398 0.102133 3.000000
-0.277124 -0.424622 -0.134658 3.000000
0.188570 -0.443916 0.027146 3.000000
0.011916 0.262802 -0.362177 3.000000
-0.023723 0.415132 0.160509 3.000000
-0.260328 0.407289 -0.183204 3.000000
0.180168 0.126263 -0.429267 3.000000
-0.247819 0.038412 -0.445794 3.000000
0.197265 -0.359810 0.259697 3.000000
0.276995 -0.340947 -0.288097 1.000000
-0.084866 -0.210535 -0.394320 3.000000
-0.054267 -0.383073 0.223831 3.000000
-0.008944 0.435514 -0.097023 3.000000
-0.154278 0.118517 -0.431517 3.000000
0.213874 0.377917 0.234281 3.000000
-0.166058 -0.195989 -0.401731 3.000000
-0.089327 0.409069 -0.179090 3.000000
0.150638 -0.120232 -0.430721 3.000000
0.120007 -0.276258 0.346591 3.000000
-0.158685 -0.321305 0.305635 3.000000
-0.223482 -0.252311 -0.368656 3.000000
-0.255317 0.285702 -0.344280 3.000000
-0.098598 0.439346 -0.077507 3.000000
0.215218 -0.444805 -0.005926 3.000000
0.255363 0.040276 0.441265 3.000000
-0.202025 0.326270 -0.305907 3.000000
-0.250451 0.445402 0.015172 3.000000
0.239473 0.085512 0.435026 3.000000
0.039532 -0.428938 0.115451 3.000000
0.079142 -0.064686 -0.442615 3.000000
-0.174158 -0.395215 -0.206189 3.000000
-0.035005 0.210789 0.390359 3.000000
-0.214461 0.251404 -0.369968 3.000000
0.194444 0.153515 -0.420282 3.000000
-0.193555 -0.443765 -0.033096 3.000000
0.255687 -0.415789 0.155838 3.000000
0.004804 -0.355215 0.265621 3.000000
-0.128042 -0.193034 0.398883 3.000000
-0.280484 -0.374111 -0.243016 4.000000
-0.141464 -0.368389 0.247082 3.000000
-0.243250 -0.377489 0.233273 3.000000
-0.225895 0.440476 0.066017 3.000000
-0.003595 0.335731 0.290823 3.000000
-0.199689 -0.059889 0.439022 3.000000
0.015916 -0.348558 -0.278557 3.000000
0.232840 -0.417181 0.151972 3.000000
0.218484 -0.031274 -0.446372 3.000000
0.024197 -0.444633 0.007029 3.000000
0.141724 -0.441112 0.055532 3.000000
0.075789 0.437562 -0.087861 3.000000
-0.226805 -0.444870 -0.003848 3.000000
-0.066630 0.267667 -0.358403 3.000000
0.240746 0.445121 -0.028467 3.000000
0.156865 -0.131275 0.423159 3.000000
0.198264 -0.231385 0.377926 3.000000
-0.279741 0.425154 0.132003 3.000000
-0.016686 0.348624 0.275439 3.000000
0.285139 0.358588 -0.266948 1.000000
-0.204600 -0.175939 0.406580 3.000000
0.028016 0.357358 -0.268533 3.000000
-0.006828 0.416984 -0.159718 3.000000
-0.081047 0.313621 -0.318698 3.000000
0.145282 -0.400435 -0.195944 3.000000
-0.223556 0.364134 0.254850 3.000000
-0.262360 -0.380481 -0.232567 3.000000
-0.148891 0.272661 0.350176 3.000000
0.013221 0.221327 -0.388833 3.000000
-0.236678 -0.135451 -0.426300 3.000000
0.170041 0.211560 0.389966 3.000000
-0.228964 0.279573 0.344815 3.000000
-0.006775 -0.437383 0.079081 3.000000
0.199030 -0.247842 -0.371692 3.000000
-0.096415 0.076828 0.436501 3.000000
-0.189558 -0.296972 0.329088 3.000000
-0.016704 -0.049624 -0.444637 3.000000
-0.208385 -0.443733 0.029083 3.000000
0.107361 0.108706 0.429841 3.000000
-0.249421 -0.021659 0.442562 3.000000
-0.221012 -0.432971 -0.103814 3.000000
-0.263700 0.430866 0.112340 3.000000
-0.223462 0.308526 -0.323793 3.000000
-0.222343 -0.191590 0.399619 3.000000
0.138376 -0.418144 0.149295 3.000000
-0.096207 0.129814 0.423882 3.000000
0.063287 -0.103006 -0.435240 3.000000
0.090932 0.437126 0.085458 3.000000
0.199466 -0.259547 -0.363738 3.000000
0.171147 0.301348 -0.330487 3.000000
-0.162212 0.441426 0.060019 3.000000
-0.143561 0.068184 -0.442224 3.000000
0.076624 0.438809 0.076544 3.000000
0.135529 -0.418873 -0.151626 3.000000
-0.072983 0.443871 -0.042812 3.000000
0.119679 0.363385 0.255953 3.000000
-0.175098 -0.084161 0.435099 3.000000
0.255033 0.403540 -0.191861 3.000000
0.251960 -0.437811 0.076379 3.000000
0.255522 0.095592 0.432773 3.000000
0.097821 -0.259220 0.359607 3.000000
0.261103 -0.438549 -0.076072 3.000000
0.091795 -0.318246 0.308694 3.000000
-0.014918 0.341526 0.284250 3.000000
0.286088 0.220985 0.384682 1.000000
-0.100051 0.260362 -0.363880 3.000000
0.215616 -0.343236 0.281065 3.000000
-0.185534 -0.406602 0.178069 3.000000
0.020723 -0.240783 0.372136 3.000000
0.035396 0.072691 -0.441510 3.000000
-0.057495 -0.311303 -0.319991 3.000000
-0.170499 -0.443872 -0.031961 3.000000
-0.236963 0.400386 -0.198052 3.000000
-0.076082 0.176081 -0.411315 3.000000
-0.103231 -0.320053 -0.311241 3.000000
0.257408 0.443210 0.045455 3.000000
0.158395 0.106323 -0.434727 3.000000
-0.261579 0.100067 -0.436126 3.000000
-0.062691 0.333125 -0.298132 3.000000
-0.146965 0.404072 0.186282 3.000000
0.241409 0.000738 0.443251 3.000000
0.121373 0.234395 -0.381105 3.000000
0.228853 -0.177475 0.405915 3.000000
0.149505 -0.388574 0.214530 3.000000
-0.173759 -0.174038 -0.411756 3.000000
-0.078232 -0.294130 -0.335947 3.000000
-0.133415 -0.436070 -0.089948 3.000000
0.171392 0.137438 -0.426020 3.000000
0.117552 0.443421 0.043225 3.000000
0.030757 -0.396941 0.198448 3.000000
-0.217499 0.419700 -0.152175 3.000000
-0.246339 0.156926 0.414701 3.000000
-0.257996 0.075658 -0.441040 3.000000
-0.078340 -0.404446 -0.187406 3.000000
-0.016878 0.380596 -0.234105 3.000000
-0.082106 -0.184005 -0.407443 3.000000
-0.138046 -0.408916 -0.177075 3.000000
-0.024560 -0.259229 -0.363954 3.000000
-0.194037 -0.348327 0.274502 3.000000
-0.129479 0.225023 -0.386647 3.000000
0.175758 -0.394976 0.202305 3.000000
-0.274479 -0.413513 -0.166451 3.000000
-0.108609 -0.223728 0.382454 3.000000
0.120281 0.421668 0.142354 3.000000
-0.138311 0.162490 -0.417051 3.000000
-0.264603 -0.317381 0.309559 3.000000
0.017328 -0.391337 -0.213800 3.000000
-0.099505 -0.394404 0.203426 3.000000
-0.221023 -0.412541 -0.168699 3.000000
-0.261370 -0.307669 -0.323625 3.000000
-0.276481 0.005286 0.443108 3.000000
-0.117612 -0.438744 0.070488 3.000000
-0.139066 0.335457 -0.295487 3.000000
-0.004577 0.420767 -0.149209 3.000000
-0.090905 -0.400042 -0.196716 3.000000
0.210186 0.199220 -0.400607 3.000000
-0.226914 -0.125770 -0.429112 3.000000
-0.025600 0.063061 0.438681 3.000000
-0.047523 0.391281 0.211568 3.000000
0.074175 -0.414722 0.158801 3.000000
-0.248779 -0.105509 0.430327 3.000000
0.122070 0.426975 -0.130086 3.000000
-0.220879 -0.026811 0.442400 3.000000
0.239442 -0.052380 -0.444377 3.000000
0.113741 -0.387720 -0.220326 3.000000
-0.033578 -0.069903 0.437436 3.000000
0.048275 0.445080 0.025411 3.000000
-0.271512 0.273779 -0.353662 3.000000
-0.068304 0.276508 -0.351545 3.000000
0.042318 0.092853 -0.437738 3.000000
0.130321 0.018532 0.442692 3.000000
-0.286377 -0.062287 -0.442995 4.000000
-0.081814 0.444861 -0.032335 3.000000
-0.178254 -0.349361 -0.277521 3.000000
-0.137905 -0.242624 -0.375239 3.000000
-0.264003 0.281996 -0.347289 3.000000
0.090201 -0.007978 0.442991 3.000000
0.197831 0.283745 0.341579 3.000000
-0.031222 0.412380 -0.171437 3.000000
0.172780 0.441153 0.061748 3.000000
0.285230 -0.408698 0.173225 1.000000
0.208699 0.375487 -0.242498 3.000000
-0.242502 0.314288 -0.318031 3.000000
-0.181892 -0.163059 0.412124 3.000000
-0.204997 0.399226 -0.200327 3.000000
-0.076528 -0.409757 -0.175132 3.000000
0.184769 -0.223714 0.382462 3.000000
0.182289 0.411073 -0.174459 3.000000
-0.084667 0.157621 0.414451 3.000000
0.007312 0.350885 0.272526 3.000000
0.268570 -0.266201 -0.358746 3.000000
-0.137618 0.185774 -0.407120 3.000000
-0.030025 -0.196421 0.397157 3.000000
0.140121 -0.244433 0.369656 3.000000
-0.089110 -0.444409 -0.018518 3.000000
0.202220 -0.425383 0.127686 3.000000
0.180873 0.040282 -0.445617 3.000000
-0.234115 0.404891 -0.188743 3.000000
0.222306 0.069772 0.437619 3.000000
0.167888 -0.136829 0.421546 3.000000
0.145183 0.309473 0.318492 3.000000
-0.120716 0.306675 -0.325643 3.000000
0.172260 0.435827 -0.095620 3.000000
-0.289014 0.327508 0.300150 4.000000
-0.030676 -0.424332 -0.135658 3.000000
-0.169156 0.439822 0.070147 3.000000
-0.178765 0.147296 -0.422521 3.000000
-0.279077 -0.444171 -0.026111 3.000000
0.035282 0.414316 -0.166965 3.000000
-0.278139 0.044180 0.440895 3.000000
-0.005756 0.211358 -0.394422 3.000000
0.234248 0.107445 0.430123 3.000000
0.047022 -0.304560 0.322381 3.000000
-0.024628 -0.210841 0.389810 3.000000
-0.289872 -0.444598 0.008159 4.000000
0.133359 -0.036678 -0.445861 3.000000
0.155612 0.058929 -0.443689 3.000000
0.201372 -0.417451 0.151221 3.000000
-0.148485 0.236315 0.375616 3.000000
0.252811 -0.420867 -0.146086 3.000000
0.211002 -0.250304 -0.370019 3.000000
-0.026153 0.134172 0.422616 3.000000
-0.239427 -0.018598 0.442658 3.000000
0.252180 -0.437674 -0.081596 3.000000
-0.180414 -0.430948 0.108510 3.000000
-0.245592 0.395304 0.203673 3.000000
-0.007154 -0.350324 -0.276280 3.000000
-0.257244 0.126122 -0.429308 3.000000
0.226807 0.000311 -0.447605 3.000000
-0.078110 0.064006 0.438532 3.000000
0.153292 0.406710 0.180187 3.000000
-0.227164 0.256422 0.362205 3.000000
-0.095563 0.411417 0.169311 3.000000
0.006850 -0.278860 0.344573 3.000000
0.269316 0.294438 0.332225 3.000000
-0.261695 0.435896 -0.095313 3.000000
-0.122583 -0.441554 -0.056482 3.000000
-0.065161 -0.432260 0.102641 3.000000
0.149470 -0.010562 -0.447264 3.000000
-0.000961 -0.322856 -0.308437 3.000000
0.084160 -0.331418 0.294553 3.000000
-0.150713 0.411319 -0.173890 3.000000
0.223321 0.086581 -0.439140 3.000000
0.058742 -0.056946 -0.443841 3.000000
0.229945 0.222821 -0.387950 3.000000
-0.244644 -0.240411 0.372389 3.000000
0.157694 0.242226 0.371852 3.000000
-0.065234 -0.025579 0.442438 3.000000
-0.014633 0.308084 0.319881 3.000000
0.123184 0.441201 0.061440 3.000000
0.035265 0.229383 0.379716 3.000000
-0.289526 0.291361 -0.339292 4.000000
-0.272199 0.095996 -0.437036 3.000000
-0.100778 0.125141 -0.429593 3.000000
0.072718 -0.138654 0.420910 3.000000
-0.250766 -0.408976 -0.176937 3.000000
0.211983 -0.325996 0.300703 3.000000
0.054935 0.186130 0.402613 3.000000
-0.174028 -0.046069 0.440620 3.000000
0.026427 -0.154813 0.415092 3.000000
0.286899 0.241286 -0.376845 1.000000
-0.184268 -0.095770 0.432504 3.000000
0.016887 -0.183405 0.403349 3.000000
-0.069092 0.315452 -0.316866 3.000000
-0.164705 -0.014124 0.442798 3.000000
0.119907 -0.359171 -0.264875 3.000000
-0.010223 0.076171 0.436605 3.000000
0.218494 0.254906 0.363235 3.000000
-0.255046 0.427465 0.124048 3.000000
0.134725 -0.022359 0.442540 3.000000
0.175944 -0.228010 -0.384275 3.000000
-0.007297 -0.228826 -0.383792 3.000000
0.146125 -0.223949 0.382323 3.000000
-0.246918 0.414272 0.162713 3.000000
-0.098292 -0.236240 -0.379408 3.000000
0.261568 0.436999 -0.090378 3.000000
0.019211 0.245604 -0.373910 3.000000
0.269362 0.355020 0.267194 3.000000
0.037261 -0.278308 0.345001 3.000000
0.272825 -0.170314 0.409014 3.000000
0.198826 -0.144333 0.418866 3.000000
0.046423 -0.314363 -0.316930 3.000000
0.104876 0.440448 0.066196 3.000000
-0.261143 0.234551 0.376659 3.000000
-0.156729 -0.426454 0.124001 3.000000
-0.102008 -0.018131 -0.447026 3.000000
0.230744 0.319719 0.308246 3.000000
0.157713 0.423981 0.135930 3.000000
-0.252872 -0.341953 -0.286956 3.000000
0.198380 -0.325934 -0.305126 3.000000
0.250851 0.432298 0.107056 3.000000
-0.195229 -0.415800 0.155808 3.000000
0.193120 0.025469 -0.446827 3.000000
0.116988 -0.416182 0.154744 3.000000
-0.135314 0.339506 0.286541 3.000000
-0.257913 0.092596 0.433442 3.000000
-0.203519 0.339573 -0.290818 3.000000
-0.285671 -0.243119 -0.374902 4.000000
-0.059578 0.356384 0.265435 3.000000
0.078522 -0.428604 0.116601 3.000000
0.285003 -0.373640 0.239355 1.000000
0.256957 0.444010 -0.041338 3.000000
0.003975 -0.117930 -0.431390 3.000000
0.151296 0.204594 -0.397869 3.000000
-0.199635 -0.014924 -0.447127 3.000000
0.005982 0.203085 0.394284 3.000000
0.246326 0.103717 0.430956 3.000000
0.091856 0.391877 0.210399 3.000000
0.035188 -0.359891 -0.263940 3.000000
-0.142482 0.224977 0.382321 3.000000
0.075419 0.013727 0.442843 3.000000
0.168760 0.444092 -0.040473 3.000000
0.149635 0.217839 0.386543 3.000000
-0.096214 0.434487 0.097262 3.000000
0.258300 0.262497 -0.362414 3.000000
-0.237660 -0.427252 -0.125607 3.000000
-0.007742 -0.218036 -0.390173 3.000000
-0.166901 0.278339 0.345772 3.000000
0.276163 0.040185 -0.445626 1.000000
0.281190 -0.134400 0.422252 3.000000
0.107506 -0.055985 -0.443993 3.000000
0.067372 0.445415 0.014773 3.000000
-0.126025 0.436084 -0.094473 3.000000
-0.201713 0.374012 0.240316 3.000000
0.091313 0.400952 -0.196941 3.000000
-0.230532 -0.437446 -0.083032 3.000000
0.245699 0.391572 0.210996 3.000000
-0.250906 -0.414010 -0.165133 3.000000
-0.181919 -0.377993 -0.236774 3.000000
0.153863 -0.103426 -0.435146 3.000000
0.013518 0.445656 0.007089 3.000000
0.128918 -0.070663 -0.441669 3.000000
0.102386 0.068427 0.437832 3.000000
-0.227856 0.084197 -0.439673 3.000000
-0.206058 0.418203 -0.156332 3.000000
0.051200 0.201770 -0.399307 3.000000
-0.258308 0.378695 0.232967 3.000000
0.200392 -0.406504 0.178296 3.000000
0.150772 -0.302507 0.324208 3.000000
-0.107089 0.328475 -0.303406 3.000000
0.124206 -0.421041 -0.145603 3.000000
0.286444 -0.387719 0.215974 1.000000
0.206171 0.054023 0.439965 3.000000
0.053757 -0.405046 -0.186017 3.000000
-0.021152 0.118359 -0.431563 3.000000
0.068542 -0.377841 -0.237032 3.000000
-0.217257 0.274666 -0.352974 3.000000
0.005765 -0.348551 -0.278566 3.000000
0.117596 -0.433201 0.098431 3.000000
0.146081 0.431246 -0.115386 3.000000
0.030142 -0.403867 -0.188742 3.000000
-0.210905 0.263925 0.356953 3.000000
-0.225197 -0.353910 -0.271658 3.000000
0.000501 -0.318805 0.308136 3.000000
-0.178985 0.001095 0.443240 3.000000
-0.265008 0.439580 -0.076032 3.000000
-0.267066 -0.431385 -0.110911 3.000000
-0.090993 -0.415199 0.157475 3.000000
0.192669 0.128835 -0.428520 3.000000
0.275770 0.012958 0.442867 3.000000
0.233355 -0.347091 -0.280448 3.000000
0.218219 0.371808 -0.247912 3.000000
-0.163283 0.080079 0.435986 3.000000
0.162793 -0.441475 0.052971 3.000000
-0.188336 0.155270 0.415297 3.000000
-0.180307 0.431345 -0.115047 3.000000
-0.079496 -0.197753 0.396479 3.000000
0.142287 -0.200954 0.394848 3.000000
-0.168589 -0.079488 -0.440271 3.000000
0.051155 0.433745 -0.104938 3.000000
-0.023041 -0.444478 -0.016329 3.000000
-0.085255 -0.051682 0.440089 3.000000
-0.165526 0.394687 -0.209236 3.000000
0.037862 0.007596 -0.447389 3.000000
0.260807 0.216148 0.387542 3.000000
-0.148484 -0.175304 -0.411208 3.000000
-0.126007 0.437755 0.082643 3.000000
-0.272142 0.016474 0.442757 3.000000
-0.148855 -0.170099 0.409107 3.000000
0.109085 0.406538 0.180586 3.000000
-0.249839 0.423235 -0.142355 3.000000
0.189353 -0.226644 -0.385083 3.000000
-0.170871 0.312994 -0.319325 3.000000
0.240775 -0.330696 0.295371 3.000000
-0.257842 0.425841 -0.133991 3.000000
0.026973 -0.443898 0.027337 3.000000
-0.018443 0.445310 0.018093 3.000000
-0.188914 -0.407998 -0.179196 3.000000
-0.163007 -0.413067 0.163130 3.000000
0.204812 0.023792 -0.446880 3.000000
0.123060 0.133204 0.422897 3.000000
0.069943 -0.409057 0.172395 3.000000
0.217623 -0.067984 0.437739 3.000000
-0.050139 -0.435612 -0.091997 3.000000
-0.023606 -0.420099 -0.148218 3.000000
0.209667 0.429643 0.116551 3.000000
-0.004160 0.111045 0.429318 3.000000
-0.080697 -0.438199 0.073925 3.000000
-0.131719 -0.389953 -0.216516 3.000000
0.220188 -0.415764 0.155905 3.000000
0.172454 -0.108172 -0.434085 3.000000
0.282541 0.181341 -0.409038 1.000000
-0.104483 -0.099887 -0.435937 3.000000
0.149485 -0.213544 0.388433 3.000000
-0.181827 0.417210 0.154738 3.000000
0.090122 -0.096837 0.432265 3.000000
0.060442 0.443595 0.041377 3.000000
0.042474 0.017109 -0.447090 3.000000
0.146177 -0.442496 0.042167 3.000000
0.029093 0.429805 -0.120348 3.000000
-0.162914 0.445246 0.020157 3.000000
0.056670 -0.400213 -0.196380 3.000000
-0.032599 -0.205316 0.392625 3.000000
0.172623 -0.404508 -0.187262 3.000000
-0.276939 0.394118 0.205999 3.000000
-0.134637 0.176226 -0.411252 3.000000
-0.186573 -0.033384 0.441819 3.000000
-0.193511 0.238476 -0.378691 3.000000
0.164563 -0.418471 -0.152742 3.000000
0.218923 0.412820 0.166068 3.000000
-0.182617 -0.438681 0.070883 3.000000
0.250230 0.187343 0.402088 3.000000
0.135423 -0.166812 0.410529 3.000000
-0.111047 -0.063492 0.438451 3.000000
-0.068395 0.402726 0.189105 3.000000
0.221527 0.428976 0.118846 3.000000
-0.073287 -0.417025 -0.156757 3.000000
-0.100126 -0.417583 0.150854 3.000000
0.206977 0.154024 0.415746 3.000000
-0.009449 -0.370690 -0.248049 3.000000
0.156151 0.288687 -0.341649 3.000000
0.137271 0.443381 0.043644 3.000000
-0.024586 -0.251569 0.364806 3.000000
0.284555 -0.331534 -0.298775 1.000000
-0.152259 -0.419558 -0.149721 3.000000
0.242327 0.099362 -0.436283 3.000000
0.002622 0.127131 -0.429015 3.000000
-0.041688 0.078063 0.436305 3.000000
-0.043161 -0.439448 0.066038 3.000000
-0.065326 -0.380166 0.228746 3.000000
-0.162251 0.351974 0.271120 3.000000
0.044169 -0.198439 0.396129 3.000000
-0.134813 0.362670 0.257005 3.000000
0.199188 -0.413940 0.160972 3.000000
0.020478 -0.413585 -0.166284 3.000000
0.074922 0.429808 0.115984 3.000000
-0.264589 -0.383677 0.222810 3.000000
-0.093381 -0.426272 -0.128981 3.000000
-0.082809 -0.443192 0.034802 3.000000
-0.015443 0.329900 -0.301791 3.000000
-0.017123 0.241086 -0.376981 3.000000
-0.155738 -0.441714 0.050437 3.000000
-0.119494 0.196077 0.397855 3.000000
-0.283394 0.367796 -0.253815 4.000000
0.144845 -0.167506 -0.414582 3.000000
-0.053339 0.174739 0.407542 3.000000
-0.254995 -0.355122 0.265742 3.000000
0.025192 -0.166714 0.410572 3.000000
-0.057069 -0.182462 -0.408110 3.000000
0.098850 -0.153815 -0.419805 3.000000
0.224322 -0.420698 -0.146556 3.000000
0.135813 -0.329628 -0.300936 3.000000
-0.111049 -0.441956 -0.052231 3.000000
-0.076451 -0.315085 -0.316209 3.000000
-0.195685 -0.440707 0.058093 3.000000
-0.000607 0.287423 0.338410 3.000000
-0.270500 0.442331 -0.058660 3.000000
-0.289512 0.046777 -0.445003 4.000000
0.212200 -0.301545 -0.329410 3.000000
0.036698 -0.341916 0.282645 3.000000
-0.187001 -0.107536 0.429874 3.000000
0.069980 0.050474 0.440301 3.000000
0.223034 0.116404 -0.432131 3.000000
-0.214331 -0.444555 0.009530 3.000000
-0.037618 0.445232 -0.024926 3.000000
-0.220803 0.423795 -0.140800 3.000000
-0.020267 -0.426562 0.123629 3.000000
0.069840 -0.230945 0.378186 3.000000
0.168178 0.075711 -0.441031 3.000000
0.088811 -0.437191 -0.084644 3.000000
-0.238667 0.362172 0.257738 3.000000
0.103036 -0.028239 -0.446659 3.000000
-0.201147 -0.083063 -0.439697 3.000000
0.266888 0.266960 -0.358952 3.000000
0.232956 -0.268837 -0.356701 3.000000
0.089225 0.246970 -0.372982 3.000000
-0.143007 -0.444057 0.025366 3.000000
-0.208523 0.166736 -0.415359 3.000000
0.066343 -0.443316 -0.037839 3.000000
-0.147050 0.365103 -0.257778 3.000000
-0.236021 -0.103320 0.430816 3.000000
-0.172768 -0.412264 0.164984 3.000000
-0.101765 -0.343569 0.280636 3.000000
-0.100266 0.315250 0.312715 3.000000
0.246660 0.010747 -0.447290 3.000000
-0.070984 0.276823 0.346948 3.000000
-0.246803 -0.231183 -0.382398 3.000000
0.069713 0.413011 -0.169979 3.000000
0.243681 -0.359753 0.259772 3.000000
0.187544 -0.442043 -0.051311 3.000000
0.192768 -0.082017 -0.439870 3.000000
-0.142491 -0.248065 0.367188 3.000000
-0.016197 0.339870 -0.290481 3.000000
-0.058458 0.100739 0.431622 3.000000
0.164489 -0.183287 0.403400 3.000000
0.273461 0.196804 0.397485 3.000000
-0.090195 0.294426 0.332236 3.000000
-0.124649 0.067906 0.437914 3.000000
0.152602 -0.315350 0.311590 3.000000
-0.098288 -0.110114 0.429297 3.000000
0.218591 0.399771 0.194906 3.000000
0.014962 0.445831 -0.005866 3.000000
0.046757 -0.150469 0.416657 3.000000
0.286394 -0.383460 -0.227531 1.000000
-0.205491 0.239326 0.373823 3.000000
0.182752 0.382348 0.226790 3.000000
0.146255 -0.131744 0.423023 3.000000
-0.022640 0.280596 -0.348375 3.000000
-0.247524 -0.315901 0.311040 3.000000
0.212307 0.120536 0.426577 3.000000
0.155676 0.431006 0.111859 3.000000
0.152413 0.269054 0.352974 3.000000
-0.167492 0.317584 0.310381 3.000000
-0.012421 -0.444590 -0.012752 3.000000
0.061952 -0.440934 -0.061013 3.000000
0.177354 -0.443519 0.031346 3.000000
0.225029 -0.315092 0.311848 3.000000
-0.215511 0.404995 0.184150 3.000000
0.045606 -0.266364 0.354265 3.000000
-0.015569 0.234401 0.376748 3.000000
-0.059680 -0.375581 -0.240852 3.000000
0.112397 0.258307 -0.365277 3.000000
0.182870 -0.338689 0.286305 3.000000
0.270067 -0.278555 0.344810 3.000000
0.178132 -0.266194 0.354398 3.000000
-0.046857 -0.351835 0.269979 3.000000
-0.033055 0.141074 0.420408 3.000000
-0.165076 -0.205326 -0.396973 3.000000
0.182484 0.330927 0.296271 3.000000
-0.203925 0.306441 0.321524 3.000000
-0.234174 -0.441412 0.053634 3.000000
-0.251293 -0.409749 0.170795 3.000000
0.193521 -0.438373 -0.077183 3.000000
0.182081 -0.111309 0.428960 3.000000
-0.126806 -0.258086 -0.364731 3.000000
-0.279325 0.444783 -0.033169 3.000000
0.124323 -0.141213 0.419989 3.000000
0.144451 -0.288500 0.336557 3.000000
0.027941 -0.320339 -0.310955 3.000000
-0.012560 0.161539 -0.417393 3.000000
0.239241 -0.397808 -0.201099 3.000000
0.128270 -0.251474 -0.369224 3.000000
0.071231 -0.182241 0.403853 3.000000
0.010805 0.230746 0.378909 3.000000
0.054602 -0.433540 -0.101270 3.000000
-0.285394 -0.203535 0.393533 4.000000
0.202114 0.336571 0.289870 3.000000
0.002323 -0.087342 0.434388 3.000000
-0.039244 -0.123842 0.425319 3.000000
-0.081914 -0.416473 0.153937 3.000000
-0.175275 -0.034258 0.441736 3.000000
-0.048789 -0.428185 -0.122396 3.000000
0.247509 0.351076 0.272278 3.000000
0.182502 -0.313475 -0.317819 3.000000
-0.077275 -0.440866 -0.061442 3.000000
-0.100065 -0.421440 0.140142 3.000000
0.156061 -0.214320 -0.392371 3.000000
-0.207720 -0.388578 -0.218876 3.000000
-0.198307 0.184227 -0.407790 3.000000
0.001050 0.442061 -0.060365 3.000000
0.071728 0.022246 -0.446929 3.000000
0.064235 0.227773 -0.385021 3.000000
0.066734 -0.051753 -0.444436 3.000000
0.118555 -0.334454 -0.295463 3.000000
-0.154364 -0.444149 0.022439 3.000000
-0.164282 0.335349 -0.295610 3.000000
-0.107048 0.439069 0.074902 3.000000
-0.286861 0.210346 -0.394938 4.000000
0.158727 -0.193341 -0.403080 3.000000
0.057998 -0.297542 -0.332939 3.000000
-0.255891 0.123973 0.425579 3.000000
0.242979 0.139827 0.420857 3.000000
0.256830 -0.386816 -0.221855 3.000000
0.284109 -0.442999 -0.041198 1.000000
0.242234 0.419923 -0.151555 3.000000
0.265415 0.254346 -0.367969 3.000000
0.203010 -0.076209 0.436437 3.000000
-0.028219 0.426335 0.127936 3.000000
-0.262364 0.367073 0.250526 3.000000
0.074847 0.131493 -0.427747 3.000000
0.198547 0.146629 0.418408 3.000000
0.051788 0.294770 -0.336286 3.000000
-0.250513 -0.431236 0.107224 3.000000
0.015154 -0.105227 0.430390 3.000000
-0.062725 0.415655 -0.163410 3.000000
0.149015 0.353078 0.269697 3.000000
0.128026 -0.364311 0.253082 3.000000
0.180692 0.414982 -0.165280 3.000000
0.244848 0.112649 -0.433222 3.000000
0.027487 -0.349713 0.272715 3.000000
0.071802 -0.306354 -0.324940 3.000000
-0.149472 0.267490 -0.358541 3.000000
-0.227550 -0.439389 -0.070765 3.000000
-0.172108 -0.439638 -0.069191 3.000000
0.091789 0.441921 -0.061253 3.000000
-0.155259 0.341787 -0.288307 3.000000
0.248618 0.442353 -0.058521 3.000000
0.263107 0.279778 0.344656 3.000000
-0.269852 0.108815 -0.434170 3.000000
-0.048551 0.445860 0.000600 3.000000
0.033791 -0.110317 0.429248 3.000000
0.130734 0.025749 -0.446819 3.000000
0.223563 0.107503 0.430110 3.000000
-0.240245 -0.444219 0.020209 3.000000
0.235294 0.374390 -0.244114 3.000000
-0.217710 -0.357076 0.263222 3.000000
-0.037371 0.109414 0.429683 3.000000
