-2.503294500000000156e+01 6.216442500000000138e+01 -2.180004299999999873e+01 20.00000
-3.818836699999999951e+01 6.201165400000000005e+01 -1.566873299999999958e+01 20.00000
-3.280570999999999771e+01 6.272295900000000302e+01 -3.734094000000000335e+01 20.00000
-8.676200000000000578e-02 4.075474400000000230e+01 -2.913135199999999969e+01 20.00000
-4.417312100000000186e+01 6.008305299999999960e+01 1.360346999999999973e+00 20.00000
-1.764893000000000045e+00 4.464514599999999689e+01 -5.452807700000000324e+01 20.00000
-1.244591800000000070e+01 5.689427500000000038e+01 -1.124765700000000024e+01 20.00000
-1.249963699999999989e+01 5.693090099999999865e+01 -2.084364300000000014e+01 20.00000
-4.308440000000000047e+00 4.886288799999999810e+01 -2.350095999999999918e+01 20.00000
-1.399582200000000043e+01 5.792595099999999775e+01 -5.824878000000000000e+00 20.00000
-8.796450000000000102e-01 4.278977100000000178e+01 -2.306535300000000177e+01 20.00000
-1.309182200000000051e+01 5.733466399999999652e+01 -3.749309900000000084e+01 20.00000
-1.211520299999999928e+01 5.666878700000000180e+01 -6.085709399999999647e+01 20.00000
5.684090000000000531e-01 3.639229399999999970e+01 -3.566840200000000038e+01 20.00000
-1.620713399999999993e+01 5.917035599999999818e+01 -3.374535500000000354e+01 20.00000
-2.952400199999999941e+01 6.271396099999999763e+01 -5.740708899999999915e+01 20.00000
-6.850118000000000151e+00 5.202574099999999646e+01 -1.893524199999999880e+01 20.00000
-1.392532000000000103e+00 4.388855399999999918e+01 -6.798665999999999876e+00 20.00000
-4.150010999999999939e+01 6.109482400000000268e+01 -4.709599200000000252e+01 20.00000
-4.361471099999999979e+01 6.033301000000000158e+01 -5.158119400000000354e+01 20.00000
-2.550357800000000097e+01 6.224484999999999957e+01 -3.314528599999999869e+01 20.00000
-9.820674000000000348e+00 5.488663799999999782e+01 -2.841677599999999870e+01 20.00000
-2.946124999999999972e+01 6.270871499999999799e+01 -5.495430000000000037e-01 20.00000
-1.602422000000000013e+00 4.431502600000000314e+01 -5.927231400000000150e+01 20.00000
-3.316669000000000089e+00 4.739211699999999894e+01 -2.530323200000000128e+01 20.00000
8.846900000000000597e-02 4.006901100000000326e+01 -4.861937199999999848e+01 20.00000
6.576499999999999568e-01 3.570864199999999755e+01 -3.254293499999999995e+01 20.00000
-3.838817999999999842e+00 4.821748099999999937e+01 -4.233133000000000123e+01 20.00000
-2.063595199999999963e+01 6.100844099999999770e+01 -6.089703099999999836e+01 20.00000
-3.682092000000000098e+01 6.225214900000000284e+01 -8.675845999999999947e+00 20.00000
-2.455949800000000138e+01 6.208351900000000256e+01 -4.801263000000000147e+01 20.00000
-7.421821999999999697e+00 5.264765200000000078e+01 -4.014944400000000257e+01 20.00000
-3.578386400000000123e+01 6.243453800000000342e+01 -9.918265999999999138e+00 20.00000
-5.942570000000000352e-01 4.205728899999999726e+01 -4.649255200000000343e+01 20.00000
2.743999999999999911e-03 4.052501500000000334e+01 -2.721815300000000093e+01 20.00000
-1.279504900000000056e+01 5.713231900000000252e+01 -1.502313000000000009e+00 20.00000
-2.858883000000000152e+01 6.263578300000000354e+01 -3.460144799999999776e+01 20.00000
-9.514583000000000013e+00 5.463694699999999926e+01 -5.438779100000000000e+01 20.00000
-2.774805999999999884e+01 6.256549600000000311e+01 -3.272015000000000118e+00 20.00000
-6.063780000000000392e+00 5.111985299999999910e+01 -4.964215999999999696e+01 20.00000
3.492100000000000204e-01 3.807152700000000323e+01 -5.660476700000000250e+01 20.00000
8.441739999999999799e-01 3.427972100000000211e+01 -4.310636999999999830e+00 20.00000
-2.781926800000000100e+01 6.257144900000000121e+01 -5.076864499999999936e+01 20.00000
-3.027650399999999919e+01 6.274003700000000094e+01 -5.393392899999999912e+01 20.00000
-1.129776200000000053e+01 5.609156200000000325e+01 -4.279134299999999769e+01 20.00000
-2.262191000000000063e+00 4.564564200000000227e+01 -4.807964299999999724e+01 20.00000
-5.990850000000000009e+00 5.103583400000000125e+01 -4.786109799999999836e+01 20.00000
-2.446523799999999937e+01 6.206741099999999989e+01 -3.513358499999999651e+01 20.00000
-3.983171999999999713e+01 6.158351100000000145e+01 -4.689315100000000314e+01 20.00000
2.322190000000000087e-01 3.896776799999999952e+01 -2.808900900000000078e+01 20.00000
-1.118358300000000050e+01 5.599842100000000045e+01 -1.405400999999999900e+00 20.00000
-1.877080099999999874e+01 6.034089300000000122e+01 -3.282646199999999936e+01 20.00000
-2.888589299999999938e+01 6.266061599999999743e+01 -4.847005000000000230e+00 20.00000
-2.593720799999999826e+01 6.231895300000000049e+01 3.449699999999999989e-01 20.00000
-4.405301399999999745e+01 6.013837300000000141e+01 -5.336574900000000099e+01 20.00000
-2.219620499999999907e+01 6.149627699999999919e+01 -3.860116399999999715e+01 20.00000
1.537260000000000015e-01 3.956908800000000070e+01 -1.366817600000000077e+01 20.00000
-3.768662100000000237e+01 6.209989699999999857e+01 -2.709405399999999986e+01 20.00000
-1.027208599999999983e+01 5.525487400000000093e+01 3.836346999999999952e+00 20.00000
6.555879999999999486e-01 3.572443599999999719e+01 -3.996202799999999655e+01 20.00000
1.801139999999999963e-01 3.936693900000000212e+01 -4.509631499999999704e+01 20.00000
-3.933658700000000152e+01 6.171520100000000042e+01 -2.437115199999999859e+01 20.00000
-4.842741000000000184e+00 4.959718500000000319e+01 -5.124754000000000254e+00 20.00000
-3.085749799999999965e+01 6.273860899999999674e+01 -1.036095199999999927e+01 20.00000
-1.488085399999999936e+01 5.842399799999999743e+01 -3.575051999999999897e+00 20.00000
-2.747453999999999841e+00 4.644935600000000164e+01 -2.990483199999999897e+01 20.00000
-5.928843999999999781e+00 5.096440199999999976e+01 -6.082678700000000305e+01 20.00000
-3.068014200000000002e+01 6.273904499999999729e+01 -4.725663399999999825e+01 20.00000
-3.070344800000000163e+01 6.273898799999999909e+01 -1.457890800000000020e+01 20.00000
-1.049217499999999959e+01 5.543440999999999974e+01 -5.722259300000000337e+01 20.00000
-6.783522999999999747e+00 5.194902100000000189e+01 -2.899585599999999985e+01 20.00000
-3.600549800000000289e+01 6.239555899999999866e+01 -2.706064100000000039e+01 20.00000
-1.361480000000000024e+00 4.382545999999999964e+01 -1.161786999999999903e+00 20.00000
-2.040311300000000116e+01 6.092583799999999883e+01 -1.836154799999999909e+01 20.00000
-1.285762999999999989e+00 4.367161000000000115e+01 -3.697140999999999789e+00 20.00000
-4.026099000000000316e+00 4.847486299999999915e+01 -9.562274000000000385e+00 20.00000
-3.510525299999999760e+01 6.251944499999999749e+01 -4.339251200000000352e+01 20.00000
-4.537298400000000242e+01 5.953040699999999674e+01 -4.579453600000000080e+01 20.00000
-8.021698999999999913e+00 5.322944900000000246e+01 -3.462545500000000231e+01 20.00000
-8.300155000000000172e+00 5.349951300000000032e+01 -7.918889999999999540e-01 20.00000
-2.286029000000000089e+00 4.568512400000000184e+01 -2.486026000000000025e+01 20.00000
-3.455236099999999766e+01 6.256837699999999813e+01 -1.163475500000000018e+01 20.00000
-2.325035499999999900e+01 6.177114999999999867e+01 -5.548323100000000352e+01 20.00000
5.810149999999999482e-01 3.629572199999999782e+01 -2.008088100000000153e+01 20.00000
-6.561904000000000181e+00 5.169370800000000088e+01 -1.547164800000000007e+01 20.00000
6.395840000000000414e-01 3.584703600000000279e+01 -4.791884799999999700e+01 20.00000
-4.277572800000000086e+01 6.063526499999999686e+01 -1.500058800000000048e+01 20.00000
-3.481210699999999747e+01 6.254538900000000012e+01 -1.318529000000000018e+01 20.00000
-1.820476199999999878e+01 6.008352599999999910e+01 -5.042137999999999920e+01 20.00000
-2.205267999999999784e+00 4.553993700000000189e+01 -3.564266200000000140e+01 20.00000
-2.719595899999999844e+01 6.251934200000000175e+01 -5.891173799999999972e+01 20.00000
4.072939999999999894e-01 3.762656199999999984e+01 -3.306641100000000222e+01 20.00000
-4.489619400000000127e+01 5.975001199999999812e+01 -3.914202900000000085e+01 20.00000
-1.822028900000000107e+01 6.009058499999999725e+01 -1.687312599999999918e+01 20.00000
-4.576455599999999890e+01 5.935005300000000261e+01 -6.099876799999999832e+01 20.00000
-4.167011200000000315e+01 6.103357799999999855e+01 -5.368135500000000349e+01 20.00000
-8.937746999999999886e+00 5.411788800000000066e+01 -6.173225000000000406e+00 20.00000
-2.884297300000000064e+01 6.265702799999999684e+01 -5.497344600000000270e+01 20.00000
3.809330000000000216e-01 3.782850400000000235e+01 -3.805033099999999990e+01 20.00000
-7.375020000000000131e+00 5.260226000000000113e+01 -5.610788600000000059e+01 20.00000
8.367689999999999850e-01 3.433644999999999925e+01 -4.953384400000000198e+01 20.00000
6.448359999999999648e-01 3.580680600000000169e+01 -2.545854900000000143e+01 20.00000
-3.742568599999999890e+01 6.214578800000000314e+01 -3.486294900000000041e+01 20.00000
-6.697309999999999652e-01 4.225100400000000178e+01 -2.991858500000000021e+01 20.00000
-4.353999900000000167e+01 6.035992600000000152e+01 -4.215799100000000266e+01 20.00000
-4.196274300000000324e+01 6.092815399999999926e+01 -3.541894299999999873e+01 20.00000
-2.647257000000000193e+00 4.628340599999999938e+01 -4.239085099999999784e+01 20.00000
-4.599557699999999727e+01 5.924364700000000283e+01 -2.085901199999999989e+01 20.00000
-1.037925000000000075e+01 5.534229200000000048e+01 -2.841247000000000078e+00 20.00000
-2.304409100000000166e+01 6.171736599999999839e+01 -4.003016000000000219e+01 20.00000
-1.120535600000000009e+01 5.601618200000000058e+01 2.264867000000000186e+00 20.00000
-1.357335699999999967e+01 5.766298400000000157e+01 -3.988201399999999808e+01 20.00000
-3.963418000000000063e+01 6.163604999999999734e+01 -5.497292999999999985e+00 20.00000
-8.264421999999999713e+00 5.346485700000000207e+01 -2.146273599999999959e+01 20.00000
-3.746405800000000141e+01 6.213903899999999680e+01 -3.180853499999999912e+01 20.00000
-7.298262000000000249e+00 5.252781600000000140e+01 -7.561455999999999733e+00 20.00000
1.673219999999999985e-01 3.946493600000000157e+01 -5.192616000000000298e+01 20.00000
-1.598585100000000025e+01 5.904583000000000226e+01 -1.002213599999999971e+01 20.00000
-3.445024699999999740e+01 6.257741399999999743e+01 -2.597184299999999979e+01 20.00000
-2.381124999999999936e+00 4.584262700000000024e+01 3.802928000000000086e+00 20.00000
-4.637806000000000317e+00 4.931553999999999860e+01 -2.530255599999999916e+01 20.00000
-9.199934999999999974e+00 5.437217299999999653e+01 -1.622069799999999873e+01 20.00000
-3.726922499999999872e+01 6.217330499999999915e+01 -5.803555500000000222e+01 20.00000
4.089849999999999874e-01 3.761360299999999768e+01 3.489990999999999843e+00 20.00000
-4.229082100000000111e+01 6.080995999999999668e+01 -4.357204399999999822e+01 20.00000
-4.426931499999999886e+01 6.003874700000000075e+01 3.263243999999999811e+00 20.00000
-1.722855000000000025e+00 4.455973000000000184e+01 -1.048250499999999974e+01 20.00000
6.480199999999999849e-02 4.025031500000000051e+01 -3.257829100000000011e+01 20.00000
-2.603954399999999936e+01 6.233644100000000066e+01 -3.120688600000000079e+01 20.00000
-3.662673399999999901e+01 6.228630100000000169e+01 -4.836598899999999901e+01 20.00000
-1.021132000000000062e+01 5.520530500000000274e+01 -1.791510600000000153e+01 20.00000
-4.608087499999999892e+01 5.920435899999999663e+01 -3.098818800000000095e+01 20.00000
-2.062323299999999904e+01 6.100392899999999941e+01 -4.439934000000000225e+01 20.00000
-3.729961899999999986e+01 6.216795900000000330e+01 -6.020119700000000051e+01 20.00000
-4.232351000000000418e+00 4.875831800000000271e+01 -6.923893999999999771e+00 20.00000
-3.684049999999999825e-01 4.147761400000000265e+01 -3.164652299999999840e+01 20.00000
-1.115101600000000026e+01 5.597185400000000044e+01 -2.181836799999999954e+01 20.00000
-1.078524600000000078e+01 5.567347999999999786e+01 -4.073264600000000257e+01 20.00000
-1.969255799999999823e+01 6.067375799999999941e+01 -6.618580999999999825e+00 20.00000
-7.099188999999999972e+00 5.231267900000000282e+01 7.247699999999999976e-02 20.00000
2.208390000000000075e-01 3.905495200000000011e+01 -2.624183199999999871e+01 20.00000
-1.557340000000000113e-01 4.093176799999999815e+01 -1.766573899999999853e+01 20.00000
-1.775018100000000132e+01 5.987683599999999728e+01 -4.888812599999999975e+01 20.00000
-1.550271399999999922e+01 5.877394699999999972e+01 -5.722426399999999802e+01 20.00000
-3.261544399999999655e+01 6.273428799999999939e+01 -3.264385599999999954e+01 20.00000
-4.601482000000000028e+01 5.923478399999999766e+01 -6.052127999999999730e+00 20.00000
-2.187538400000000038e+01 6.141262199999999893e+01 -5.206928299999999865e+01 20.00000
-4.971452000000000204e+00 4.977407399999999882e+01 -4.601895499999999828e+01 20.00000
-2.894237100000000140e+01 6.266533799999999843e+01 -2.915560100000000077e+01 20.00000
-3.996573999999999849e+00 4.843428699999999765e+01 -4.999946599999999819e+01 20.00000
-3.976405299999999698e+01 6.160150800000000260e+01 -1.206746599999999958e+01 20.00000
-2.768000200000000177e+01 6.255980699999999928e+01 -3.317069599999999951e+01 20.00000
-1.266765099999999933e+01 5.704545600000000150e+01 -4.671018000000000114e+00 20.00000
3.572339999999999960e-01 3.801006199999999779e+01 -5.449713100000000310e+01 20.00000
-1.216060300000000005e+01 5.669974200000000053e+01 -2.335874199999999945e+01 20.00000
8.091049999999999631e-01 3.454837299999999800e+01 -4.503808699999999732e+01 20.00000
-1.321393199999999979e+01 5.741792099999999976e+01 -3.344665599999999728e+01 20.00000
-3.099315700000000007e+01 6.273827599999999904e+01 -2.997601299999999824e+01 20.00000
-2.445283099999999976e+01 6.206528999999999741e+01 -1.420879099999999973e+01 20.00000
-5.818440000000000278e-01 4.202543099999999754e+01 -2.765060899999999933e+01 20.00000
-1.244497400000000020e+01 5.689363099999999918e+01 -5.694777899999999704e+01 20.00000
-9.678447999999999496e+00 5.477061900000000350e+01 -4.712928999999999924e+00 20.00000
-3.517259999999999831e+00 4.772434400000000210e+01 -5.888996999999999815e+00 20.00000
-4.574822000000000166e+00 4.922897999999999996e+01 -1.098357900000000065e+01 20.00000
-9.124598999999999904e+00 5.429910799999999682e+01 -3.157044600000000045e+01 20.00000
-4.603788699999999778e+01 5.922415900000000022e+01 -1.618236900000000134e+01 20.00000
-2.303936999999999902e+00 4.571478299999999706e+01 -4.093534400000000062e+01 20.00000
-4.435742299999999716e+01 5.999816500000000019e+01 -5.532529999999999948e-01 20.00000
-7.961932000000000009e+00 5.317148300000000205e+01 -1.557583100000000087e+01 20.00000
-8.967124999999999346e+00 5.414638000000000062e+01 -5.806627600000000200e+01 20.00000
-3.709759100000000132e+01 6.220349000000000217e+01 -5.550592900000000185e+01 20.00000
-3.473745300000000213e+01 6.255199600000000260e+01 -2.136137499999999889e+01 20.00000
-4.205192499999999711e+01 6.089602500000000163e+01 -5.990678400000000181e+01 20.00000
-7.954720000000000013e+00 5.316448900000000322e+01 -2.604918299999999931e+01 20.00000
-8.944900000000000073e-01 4.282787299999999675e+01 1.137489999999999890e+00 20.00000
-2.054979900000000015e+01 6.097787699999999944e+01 -4.208954899999999810e+01 20.00000
-6.955955999999999584e+00 5.214766900000000049e+01 -2.676948600000000056e+01 20.00000
-2.216251700000000113e+01 6.148749300000000062e+01 -4.136494400000000127e+01 20.00000
-1.846677899999999894e+01 6.020266000000000162e+01 -4.685956600000000094e+01 20.00000
-3.317851300000000236e+01 6.268996500000000083e+01 -2.471375400000000155e+01 20.00000
-1.229087900000000033e+01 5.678856600000000299e+01 -9.360989000000000004e+00 20.00000
-4.232741999999999649e+01 6.079677399999999921e+01 -2.395378900000000044e+01 20.00000
-5.898489999999999789e+00 5.092943199999999848e+01 -1.791819100000000020e+01 20.00000
-2.500308899999999923e+01 6.215932300000000055e+01 -3.731026299999999907e+01 20.00000
-2.291783099999999962e+01 6.168444399999999916e+01 -2.421152999999999977e+01 20.00000
-2.832094000000000111e+00 4.658954200000000156e+01 -5.252907700000000091e+01 20.00000
-9.605789999999999607e-01 4.299749700000000274e+01 -3.563119100000000117e+01 20.00000
-3.143071000000000126e+01 6.273720000000000141e+01 -8.747579999999999245e+00 20.00000
-2.439992999999999856e+00 4.594012599999999935e+01 -4.595342099999999874e+01 20.00000
-2.194304899999999847e+01 6.143026600000000315e+01 -2.547357500000000030e+01 20.00000
8.792060000000000430e-01 3.401134799999999814e+01 -3.885264699999999749e+01 20.00000
-4.105815400000000182e+01 6.125404400000000038e+01 -7.759731000000000378e+00 20.00000
-6.682650999999999897e+00 5.183281300000000158e+01 -2.476255400000000151e+01 20.00000
4.859899999999999776e-01 3.702368700000000246e+01 -1.381944999999999979e+00 20.00000
-4.120252500000000140e+01 6.120203300000000013e+01 -4.537796900000000022e+01 20.00000
-1.583258299999999963e+01 5.895957899999999796e+01 -3.162769499999999923e+01 20.00000
-3.125875699999999924e+01 6.273762299999999925e+01 -4.424760700000000213e+01 20.00000
-2.314588900000000038e+01 6.174391099999999710e+01 -5.879197400000000329e+01 20.00000
-2.015095499999999973e+01 6.083638100000000293e+01 -3.934801699999999869e+01 20.00000
-4.483255499999999927e+01 5.977932400000000257e+01 -1.409942500000000010e+01 20.00000
7.283025000000000304e+00 3.932828099999999694e+01 -3.482919999999999905e-01 21.00000
2.682729000000000141e+00 5.034902799999999701e+01 -1.179783000000000026e+00 21.00000
1.346924000000000010e+00 5.242933200000000227e+01 -4.281209499999999935e+01 21.00000
-3.212236699999999701e+01 6.938709699999999714e+01 -5.885685200000000350e+01 21.00000
-1.999819099999999850e+01 6.778885599999999556e+01 -4.304909000000000319e+00 21.00000
6.404397999999999591e+00 4.230414600000000291e+01 -8.067410999999999888e+00 21.00000
8.509411999999999310e+00 3.459249899999999656e+01 -4.773861899999999991e+01 21.00000
-2.263412599999999841e+01 6.846420399999999518e+01 -1.541824199999999934e+01 21.00000
-1.308629799999999932e+01 6.503003900000000215e+01 -5.112811099999999698e+01 21.00000
-3.015131200000000078e+01 6.940833600000000558e+01 -5.048530300000000182e+01 21.00000
-2.182690900000000056e+01 6.828441899999999976e+01 -4.499121699999999890e+01 21.00000
-2.950828200000000123e+01 6.936907300000000021e+01 -2.140768999999999878e+01 21.00000
-3.737090999999999941e+00 5.835252700000000203e+01 1.546956999999999915e+00 21.00000
1.276003999999999916e+00 5.252459000000000344e+01 -2.636335400000000107e+01 21.00000
3.319503999999999788e+00 4.929699000000000098e+01 -5.078539500000000118e+01 21.00000
-1.990040000000000031e+00 5.658001000000000147e+01 -2.421449600000000046e+01 21.00000
2.749007999999999896e+00 5.024352400000000074e+01 -1.444909999999999961e+01 21.00000
-1.205043399999999920e+01 6.449428100000000086e+01 -5.527072100000000177e+01 21.00000
-6.562495000000000189e+00 6.083236999999999739e+01 -1.073357700000000037e+01 21.00000
-3.269800599999999946e+01 6.937669400000000053e+01 -1.065004700000000071e+01 21.00000
-3.092271799999999971e+01 6.940877700000000061e+01 -3.620927900000000221e+01 21.00000
-2.283880900000000125e+01 6.850979200000000446e+01 -6.089759699999999754e+01 21.00000
-2.826450399999999874e+01 6.929312899999999331e+01 -5.359087999999999852e+01 21.00000
-8.399518999999999735e+00 6.219116400000000056e+01 -1.366700000000000137e-01 21.00000
6.263697999999999766e+00 4.272354599999999891e+01 -3.694602499999999878e+01 21.00000
-5.879026999999999781e+00 6.026413900000000012e+01 -3.490630300000000119e+01 21.00000
-4.094686000000000270e+00 5.870112799999999709e+01 -5.923708299999999838e+01 21.00000
-1.264088199999999951e+01 6.481136800000000164e+01 -1.950346000000000046e+01 21.00000
-1.521057000000000103e+00 5.604427400000000148e+01 -5.734689199999999687e+01 21.00000
-3.646567000000000114e+00 5.826427999999999940e+01 -1.790178999999999832e+01 21.00000
5.619273999999999880e+00 4.447868700000000075e+01 -6.102240599999999660e+01 21.00000
-4.990348000000000006e+00 5.952529599999999732e+01 -4.966716300000000217e+01 21.00000
5.824283999999999573e+00 4.399748799999999704e+01 1.941546999999999912e+00 21.00000
-2.760110699999999895e+01 6.925262299999999982e+01 -1.647442900000000066e+01 21.00000
-3.327089300000000094e+01 6.936634100000000558e+01 -3.134821600000000075e+01 21.00000
-2.823171400000000020e+01 6.929112700000000302e+01 -1.851768399999999914e+01 21.00000
-2.424376099999999923e+01 6.881098799999999471e+01 -4.432515999999999678e+01 21.00000
2.156649999999999956e+00 5.118645599999999973e+01 -2.222388700000000128e+01 21.00000
1.054362000000000021e+00 5.282229300000000194e+01 -1.198823299999999925e+01 21.00000
-3.149268500000000159e+01 6.939847699999999975e+01 -2.447999899999999940e+01 21.00000
-1.807115100000000041e+01 6.719650599999999940e+01 -4.992285600000000301e+01 21.00000
-1.034577499999999972e+01 6.348302499999999782e+01 -5.446397699999999986e+01 21.00000
-1.806359000000000137e+01 6.719418199999999786e+01 -4.114491600000000204e+01 21.00000
3.397029999999999772e-01 5.378220100000000059e+01 -3.414235699999999696e+01 21.00000
-1.290713999999999917e+00 5.578114300000000014e+01 -5.908896099999999763e+01 21.00000
-2.587307500000000005e+01 6.904070600000000013e+01 -1.412876000000000021e+00 21.00000
-9.281261000000000649e+00 6.281337599999999810e+01 -2.871453800000000101e+01 21.00000
-4.124880000000000213e-01 5.477791400000000266e+01 -5.177490800000000348e+01 21.00000
-2.967929099999999920e+01 6.937951499999999783e+01 -3.297771600000000092e+01 21.00000
-3.284513000000000016e+00 5.791133299999999906e+01 -3.735623799999999761e+01 21.00000
-8.300138000000000460e+00 6.212103400000000164e+01 -5.221172700000000333e+01 21.00000
7.484244000000000341e+00 3.855125900000000172e+01 -4.255486199999999997e+01 21.00000
1.921362999999999932e+00 5.156099400000000088e+01 -2.013971000000000178e+00 21.00000
7.048027000000000264e+00 4.023574500000000143e+01 -2.014030400000000043e+01 21.00000
-2.485285599999999917e+01 6.889686399999999367e+01 -1.857921800000000090e+01 21.00000
-3.252753700000000237e+01 6.937977499999999509e+01 2.734204000000000079e+00 21.00000
3.894852999999999899e+00 4.819679099999999750e+01 -3.937133699999999692e+01 21.00000
-4.323249999999999815e+00 5.892394300000000129e+01 -3.142404900000000012e+01 21.00000
-1.806309100000000001e+01 6.719402900000000045e+01 -1.561134200000000050e+01 21.00000
-3.822297999999999973e+00 5.843559100000000228e+01 -2.970338200000000128e+01 21.00000
-7.239864999999999995e+00 6.137283999999999651e+01 -1.378097900000000031e+01 21.00000
-2.206706199999999995e+01 6.833790600000000381e+01 -8.988623999999999725e+00 21.00000
-2.767134700000000080e+01 6.925691199999999981e+01 -1.466570600000000013e+01 21.00000
-5.012173999999999907e+00 5.954344199999999887e+01 -2.048216100000000139e+01 21.00000
-7.098567000000000071e+00 6.127313099999999935e+01 -5.486816499999999763e+01 21.00000
-1.815771999999999942e+00 5.638093700000000297e+01 -6.057588299999999748e+01 21.00000
4.665892999999999624e+00 4.671645600000000087e+01 -2.660309900000000027e+01 21.00000
-3.471763999999999850e+00 5.809387399999999957e+01 -5.416381400000000212e+01 21.00000
1.582346000000000030e+00 5.210065000000000168e+01 1.677021000000000095e+00 21.00000
7.340484000000000009e+00 3.910640000000000072e+01 -5.702155000000000307e+00 21.00000
-1.630374399999999824e+01 6.649851400000000012e+01 -2.228609000000000151e+01 21.00000
-2.771565700000000021e+01 6.925961700000000576e+01 -3.990918800000000033e+01 21.00000
6.384477999999999653e+00 4.236352500000000276e+01 -5.757532499999999942e+01 21.00000
5.886344000000000243e+00 4.384836700000000320e+01 -1.574120399999999975e+01 21.00000
5.048436999999999841e+00 4.581855199999999684e+01 -5.366376600000000252e+01 21.00000
-1.014380099999999985e+01 6.336320700000000272e+01 -1.846593700000000027e+01 21.00000
-1.761134099999999947e+01 6.701667299999999727e+01 2.902710000000000012e-01 21.00000
7.240477000000000274e+00 3.949258199999999874e+01 -6.060460599999999687e+01 21.00000
6.193923999999999985e+00 4.293153000000000219e+01 -6.185418000000000305e+00 21.00000
-9.977071000000000467e+00 6.326429799999999659e+01 -2.485068800000000167e+01 21.00000
-5.765649999999999942e-01 5.496534400000000176e+01 -6.465101999999999904e+00 21.00000
2.432692999999999994e+00 5.074704200000000043e+01 -5.068033299999999741e+01 21.00000
4.761025000000000063e+00 4.649316400000000016e+01 -1.389442799999999956e+01 21.00000
-1.785164800000000085e+01 6.711189899999999398e+01 -5.552504600000000323e+01 21.00000
-3.188710599999999928e+01 6.939134900000000528e+01 4.355689999999999840e-01 21.00000
4.179725000000000357e+00 4.765205199999999763e+01 -2.359343000000000146e+01 21.00000
-3.258131199999999694e+01 6.937880300000000489e+01 -3.793396800000000013e+01 21.00000
-2.333163199999999904e+01 6.861955500000000541e+01 3.852873999999999910e+00 21.00000
-8.712607000000000212e+00 6.241209800000000030e+01 -4.034323799999999949e+01 21.00000
-2.878288600000000130e+01 6.932478100000000154e+01 -1.118487999999999927e+00 21.00000
-9.891040999999999528e+00 6.321326200000000028e+01 -2.121471999999999980e+01 21.00000
3.193340000000000067e+00 4.953622200000000220e+01 -4.063558499999999896e+01 21.00000
5.493121000000000365e+00 4.477479300000000251e+01 -1.736394999999999911e+00 21.00000
7.710732000000000141e+00 3.767665999999999826e+01 -5.813037599999999827e+01 21.00000
5.579315000000000246e+00 4.457247900000000129e+01 -5.098456500000000347e+01 21.00000
-2.999855099999999908e+01 6.939900799999999492e+01 -8.538738999999999635e+00 21.00000
4.852978000000000236e+00 4.627733099999999666e+01 -4.209553799999999768e+01 21.00000
3.030902999999999903e+00 4.979479500000000058e+01 -2.596007000000000176e+00 21.00000
-5.184349000000000096e+00 5.968658800000000042e+01 -3.238275999999999755e+01 21.00000
-2.103711099999999945e+01 6.810820800000000474e+01 -5.972185999999999773e+00 21.00000
5.663573999999999664e+00 4.437470700000000079e+01 -5.261403200000000169e+01 21.00000
-2.648968500000000148e+01 6.912764199999999448e+01 -4.085674600000000112e+01 21.00000
8.499560000000000670e+00 3.463053899999999885e+01 -4.363432399999999944e+01 21.00000
-2.795748199999999883e+01 6.927438300000000027e+01 -6.723614999999999675e+00 21.00000
-2.215577000000000130e+00 5.683764999999999645e+01 -5.511973199999999906e+01 21.00000
7.438006999999999813e+00 3.872980799999999846e+01 -2.619165299999999874e+01 21.00000
-2.958200000000000074e+01 6.937357400000000496e+01 -5.652165500000000264e+01 21.00000
7.027708999999999762e+00 4.031420200000000165e+01 -1.441505100000000006e+01 21.00000
7.905316000000000010e+00 3.692525700000000199e+01 3.139505000000000212e+00 21.00000
-1.188913699999999984e+01 6.439859400000000278e+01 -1.080075899999999933e+01 21.00000
7.633466999999999558e+00 3.797502200000000272e+01 -4.489267300000000205e+01 21.00000
6.124811000000000227e+00 4.313754300000000086e+01 -1.255738999999999983e+01 21.00000
4.569374999999999964e+00 4.690695399999999893e+01 -3.296632600000000224e+01 21.00000
-1.767827700000000135e+01 6.704319700000000637e+01 -5.189013400000000331e+01 21.00000
-2.429122299999999868e+01 6.881767999999999574e+01 -5.625606999999999580e+00 21.00000
-1.536232799999999976e+01 6.612546199999999885e+01 -2.812046799999999891e+01 21.00000
-3.228008599999999717e+01 6.938424700000000200e+01 -2.799918299999999860e+01 21.00000
-7.348440000000000083e+00 6.144945700000000244e+01 -3.708527999999999825e+00 21.00000
7.185656999999999961e+00 3.970427399999999807e+01 -3.924011800000000250e+01 21.00000
-2.274810700000000097e+01 6.848959100000000433e+01 -5.758937999999999668e+00 21.00000
-2.301307500000000061e+01 6.854860499999999490e+01 -1.148564200000000035e+01 21.00000
8.473100999999999772e+00 3.473271499999999889e+01 -5.847733099999999951e+01 21.00000
-1.161558499999999938e+01 6.423631500000000472e+01 -5.348221800000000314e+01 21.00000
-1.040495100000000050e+01 6.351812900000000184e+01 -6.073000000000000398e+00 21.00000
8.548261999999999361e+00 3.444247299999999967e+01 -1.855246999999999957e+01 21.00000
-9.612754000000000687e+00 6.304729799999999784e+01 9.730320000000000080e-01 21.00000
7.713451000000000057e+00 3.766615900000000039e+01 -6.092992600000000181e+01 21.00000
6.166222000000000314e+00 4.301410400000000323e+01 -2.372731599999999830e+01 21.00000
3.465251999999999999e+00 4.901828600000000336e+01 -4.493057699999999954e+01 21.00000
-2.404749599999999887e+01 6.877899499999999477e+01 -1.659034400000000176e+01 21.00000
-1.096629300000000029e+01 6.385113499999999931e+01 -4.139198600000000283e+01 21.00000
-4.360993999999999815e+00 5.896073700000000173e+01 -5.320026200000000216e+01 21.00000
3.047594000000000136e+00 4.976822599999999852e+01 -5.909305100000000266e+01 21.00000
-1.699616000000000016e+00 5.624824699999999922e+01 -7.909829999999999917e-01 21.00000
8.553048000000000428e+00 3.442399499999999790e+01 -4.203930299999999676e+01 21.00000
-2.403278399999999948e+01 6.877571799999999769e+01 -2.095357299999999867e+01 21.00000
1.453343000000000051e+00 5.228639400000000137e+01 -2.447006899999999874e+01 21.00000
-3.263436200000000298e+01 6.937784399999999607e+01 -1.943696299999999866e+01 21.00000
-1.265202400000000083e+01 6.481683700000000670e+01 -2.272861500000000134e+01 21.00000
2.118492999999999959e+00 5.124719600000000241e+01 -5.837189999999999657e+01 21.00000
-2.002415600000000140e+01 6.779683699999999646e+01 -8.889504000000000516e+00 21.00000
-1.720740000000000047e-01 5.446960399999999680e+01 -4.810019299999999731e+01 21.00000
5.916375000000000384e+00 4.375885000000000247e+01 -1.909619500000000158e+01 21.00000
-2.309259499999999932e+01 6.856631600000000049e+01 -4.284410799999999853e+01 21.00000
-3.145332499999999953e+01 6.939918799999999521e+01 -3.298030800000000085e+01 21.00000
6.753580000000000361e+00 4.126330200000000303e+01 -5.892095799999999883e+01 21.00000
5.914424000000000348e+00 4.376466700000000287e+01 -1.110747899999999966e+01 21.00000
-2.986974899999999877e+01 6.939114399999999705e+01 -2.722272500000000051e+01 21.00000
-2.347208399999999884e+01 6.865083699999999567e+01 -5.386634500000000259e+01 21.00000
-2.453931400000000096e+01 6.885265800000000525e+01 -5.111336699999999666e+01 21.00000
-3.121972600000000142e+01 6.940340999999999383e+01 -2.637136999999999887e+01 21.00000
6.398811000000000249e+00 4.232080100000000300e+01 -2.971273400000000109e+01 21.00000
8.552023999999999404e+00 3.442794800000000066e+01 -5.650882000000000183e+00 21.00000
-2.554452300000000164e+01 6.899438299999999913e+01 -1.121993800000000086e+01 21.00000
-2.429908700000000010e+01 6.881878799999999785e+01 -3.634301500000000118e+01 21.00000
-1.076528399999999941e+01 6.373188999999999993e+01 -2.806737499999999841e+01 21.00000
-2.377703599999999895e+01 6.871875699999999654e+01 -3.874783599999999950e+01 21.00000
8.505224000000000117e+00 3.460866899999999902e+01 -4.597958500000000015e+01 21.00000
2.525389000000000106e+00 5.059948700000000343e+01 -4.500116899999999731e+01 21.00000
-2.937891899999999978e+01 6.936117400000000544e+01 3.049684000000000061e+00 21.00000
6.047026999999999930e+00 4.336940100000000342e+01 -9.385125999999999635e+00 21.00000
2.632916999999999952e+00 5.042832099999999684e+01 -5.625899400000000128e+01 21.00000
-2.864632599999999840e+01 6.931644300000000669e+01 -4.642871999999999844e+01 21.00000
-8.593196000000000723e+00 6.232783500000000032e+01 -3.198719399999999879e+01 21.00000
-2.933262900000000073e+01 6.935834800000000655e+01 -5.850130800000000164e+01 21.00000
-1.474439600000000006e+01 6.584406300000000556e+01 -5.183310399999999873e+01 21.00000
6.633405999999999914e+00 4.162151699999999721e+01 -5.373207699999999676e+01 21.00000
-1.731162700000000143e+01 6.689790600000000609e+01 -7.440534999999999677e+00 21.00000
-1.130263999999999935e+00 5.559785600000000017e+01 -4.916679000000000244e+00 21.00000
-7.700863000000000014e+00 6.169814900000000080e+01 -1.478874000000000022e+00 21.00000
-1.765095799999999926e+01 6.703237199999999518e+01 -5.719276099999999730e+01 21.00000
-2.858511000000000024e+01 6.931270499999999402e+01 -5.186410800000000165e+01 21.00000
-3.258162000000000003e+00 5.788564499999999668e+01 -3.657881999999999856e+00 21.00000
-1.365516399999999919e+01 6.530931699999999296e+01 -2.738364999999999938e+01 21.00000
8.029013000000000844e+00 3.644759200000000021e+01 -3.413094600000000156e+01 21.00000
-3.281467999999999829e+00 5.790836500000000342e+01 -5.730546400000000062e+01 21.00000
7.981124999999999581e+00 3.663251499999999794e+01 -4.595495499999999822e+01 21.00000
-2.880633200000000116e+01 6.932621299999999565e+01 8.160800000000000276e-01 21.00000
-3.333707199999999915e+01 6.936514499999999828e+01 -3.480570999999999859e+00 21.00000
-1.923909799999999848e+01 6.755551900000000387e+01 -2.659975000000000200e+00 21.00000
-6.074546999999999919e+00 6.042669300000000021e+01 -2.552920000000000189e-01 21.00000
-1.843373499999999865e+01 6.730795999999999424e+01 -8.628683000000000547e+00 21.00000
-5.857883000000000173e+00 6.024656000000000233e+01 -5.120725600000000099e+01 21.00000
-2.778010199999999941e+01 6.926355200000000423e+01 -2.093970099999999945e+01 21.00000
-2.743323600000000084e+01 6.924237300000000062e+01 -1.952669999999999906e+00 21.00000
1.894255000000000022e+00 5.160414399999999802e+01 -1.807276699999999892e+01 21.00000
-7.066409999999999636e-01 5.511393499999999790e+01 2.624404000000000181e+00 21.00000
8.165644000000000347e+00 3.591998199999999741e+01 -1.243919999999999959e+01 21.00000
-8.336562000000000694e+00 6.214673799999999915e+01 -2.697541299999999964e+01 21.00000
-2.232263800000000131e+01 6.839482900000000143e+01 -2.185930499999999910e+01 21.00000
1.663119999999999932e+00 5.197207300000000174e+01 -4.796328599999999653e+01 21.00000
-1.381146999999999991e+01 6.538605400000000145e+01 -1.192632000000000048e+01 21.00000
5.960866000000000220e+00 4.362623099999999710e+01 -3.083702900000000113e+01 21.00000
8.062739000000000544e+00 3.631735700000000122e+01 -5.291643400000000241e+01 21.00000
3.840100000000000069e+00 4.830149099999999862e+01 -4.872029599999999760e+01 21.00000
2.948979999999999935e-01 5.384238200000000063e+01 2.984205999999999914e+00 21.00000
-2.993588799999999850e+01 6.939518200000000547e+01 -6.033694299999999799e+01 21.00000
-3.265775000000000095e+00 5.789306700000000205e+01 -4.646430000000000149e+01 21.00000
5.174995000000000012e+00 4.552149599999999907e+01 -4.796828999999999787e+00 21.00000
2.549494999999999845e+00 5.056111400000000344e+01 2.512575000000000003e+00 21.00000
-2.383335000000000203e+00 5.702928599999999904e+01 -3.459823200000000298e+01 21.00000
8.143297000000000452e+00 3.600627899999999926e+01 -1.057736899999999913e+01 21.00000
-1.795612699999999862e+01 6.715330000000000155e+01 2.163447000000000120e+00 21.00000
7.209379000000000204e+00 3.961266899999999680e+01 -3.762318799999999896e+01 21.00000
1.249579999999999913e+00 5.256008200000000130e+01 -9.861620000000000275e+00 21.00000
-2.368076299999999890e+01 6.869731500000000324e+01 -9.160481000000000762e+00 21.00000
-3.100729400000000169e+01 6.940724899999999309e+01 -4.505440200000000317e+01 21.00000
6.409023999999999610e+00 4.229035700000000020e+01 -1.996768600000000049e+01 21.00000
-1.558235000000000037e+00 5.608674299999999846e+01 -4.431577999999999662e+01 21.00000
8.326485999999999166e+00 3.529887999999999693e+01 -5.661442600000000169e+01 21.00000
6.938346000000000124e+00 4.065928600000000159e+01 -3.623221999999999809e+01 21.00000
1.283859000000000083e+00 5.251404000000000138e+01 -5.546187299999999709e+01 21.00000
4.556027000000000271e+00 4.693247800000000325e+01 -4.352766700000000100e+01 21.00000
-2.511165300000000045e+01 6.893335199999999929e+01 -5.936216100000000040e+01 21.00000
6.410910999999999582e+00 4.228473199999999821e+01 -5.221015299999999826e+01 21.00000
5.447176999999999936e+00 4.488263100000000350e+01 -1.789191399999999987e+01 21.00000
6.413993999999999751e+00 4.227554299999999898e+01 -2.208031400000000133e+01 21.00000
5.721995999999999860e+00 4.423757799999999918e+01 -4.841396999999999906e+01 21.00000
2.470887999999999973e+00 5.068624299999999749e+01 -3.248358900000000204e+01 21.00000
4.391721999999999682e+00 4.724666599999999761e+01 3.740171999999999830e+00 21.00000
8.482848000000000610e+00 3.469507399999999819e+01 -3.659600499999999812e+01 21.00000
-3.864627000000000034e+00 5.847685500000000047e+01 -1.410474999999999923e+00 21.00000
-4.569201999999999764e+00 5.916370799999999974e+01 -3.652468799999999760e+01 21.00000
-8.947869999999999990e-01 5.532886200000000088e+01 -2.765306899999999857e+01 21.00000
4.791793000000000191e+00 4.642094500000000323e+01 -5.936218600000000123e+01 21.00000
7.752134999999999998e+00 3.751677699999999760e+01 -9.530075999999999325e+00 21.00000
7.664742999999999640e+00 3.785424900000000292e+01 -3.314044400000000223e+01 21.00000
1.608899999999999997e+00 5.205838200000000171e+01 -4.102528600000000125e+01 21.00000
-2.004943199999999948e+01 6.780460600000000682e+01 -2.987697000000000003e+01 21.00000
-1.469922099999999965e+01 6.582188499999999465e+01 -3.041030299999999897e+01 21.00000
-7.155051000000000272e+00 6.131298999999999921e+01 -3.495991999999999678e+01 21.00000
-6.693647000000000347e+00 6.094140900000000016e+01 -1.723139700000000119e+01 21.00000
6.624749999999999694e+00 4.164732000000000056e+01 -4.003141699999999759e+01 21.00000
-1.833518199999999965e+01 6.727766599999999642e+01 -1.186176500000000011e+01 21.00000
2.178481999999999807e+00 5.115170400000000228e+01 -2.734093500000000176e+01 21.00000
-9.470779999999999532e+00 6.294711199999999707e+01 -6.107974500000000262e+01 21.00000
7.029265999999999792e+00 4.030819199999999825e+01 -5.738734600000000086e+01 21.00000
-2.050035000000000096e+01 6.794321399999999755e+01 -5.187800699999999665e+01 21.00000
2.926908000000000065e+00 4.996033700000000266e+01 -2.638864399999999932e+01 21.00000
6.555422000000000082e+00 4.185397199999999884e+01 -4.684378399999999942e+01 21.00000
2.402864000000000111e+00 5.079452500000000015e+01 -2.394754400000000061e+01 21.00000
-2.906350199999999973e+01 6.934191500000000019e+01 -1.315212499999999984e+01 21.00000
6.968191000000000024e+00 4.054403700000000299e+01 -5.170036400000000043e+01 21.00000
-7.934675999999999618e+00 6.186314200000000341e+01 -6.030981400000000292e+01 21.00000
-1.624083200000000105e+01 6.647358400000000245e+01 -2.946803999999999846e+01 21.00000
-3.226923500000000189e+01 6.938444300000000453e+01 -5.222061399999999765e+01 21.00000
-8.975825000000000387e+00 6.259784199999999998e+01 -3.738150999999999868e+01 21.00000
-1.868596300000000099e+01 6.738549199999999928e+01 -4.707202600000000103e+01 21.00000
-2.947553800000000024e+01 6.936707400000000234e+01 -3.591228999999999782e+00 21.00000
-2.016532700000000133e+01 6.784023100000000284e+01 -4.523831899999999706e+01 21.00000
1.867011999999999894e+00 5.164751100000000150e+01 -5.433550100000000072e+01 21.00000
6.198489999999999833e-01 5.340591700000000230e+01 -5.844150199999999984e+01 21.00000
6.212765000000000093e+00 4.287536899999999918e+01 -1.422642600000000002e+01 21.00000
-3.329187000000000296e+01 6.936596099999999865e+01 -3.488789500000000032e+01 21.00000
-3.552649999999999975e-01 5.471254499999999865e+01 -4.448419299999999765e+01 21.00000
-9.288779999999999148e+00 6.281868200000000257e+01 -4.461572699999999969e+01 21.00000
-3.001116000000000117e+00 5.763506499999999733e+01 -6.061074800000000096e+01 21.00000
-4.167770000000000086e-01 5.478281199999999984e+01 -5.462935399999999930e+01 21.00000
2.212858999999999909e+00 5.109698199999999702e+01 -2.565438899999999833e+01 21.00000
8.137672999999999490e+00 3.602799499999999711e+01 -2.409456600000000037e+01 21.00000
6.406914999999999694e+00 4.229664400000000057e+01 -1.279593999999999898e+00 21.00000
7.042634999999999756e+00 4.025656599999999941e+01 3.154958999999999847e+00 21.00000
-8.711734999999999118e+00 6.241148299999999693e+01 -5.864474400000000287e+01 21.00000
8.256059999999999732e+00 3.557083500000000242e+01 -3.013470099999999974e+01 21.00000
-1.247297700000000020e+01 6.472893600000000447e+01 -3.065022400000000147e+01 21.00000
-8.404422999999999533e+00 6.219462500000000205e+01 -1.043894899999999915e+01 21.00000
-1.784473399999999899e+01 6.710915900000000534e+01 3.856533000000000211e+00 21.00000
-1.921899999999999997e-01 5.449662299999999959e+01 -1.196110999999999969e+01 21.00000
3.871302000000000021e+00 4.824182600000000321e+01 -6.205174000000000412e+00 21.00000
5.153742000000000267e+00 4.557137999999999778e+01 -5.798668899999999837e+01 21.00000
-9.764279000000000153e+00 6.313806300000000249e+01 -7.619829000000000185e+00 21.00000
-2.955743400000000065e+01 6.937207399999999780e+01 -4.391608500000000248e+01 21.00000
5.613108000000000430e+00 4.449315899999999857e+01 -3.580650099999999725e+01 21.00000
-2.102254999999999985e+00 5.670819699999999841e+01 -2.247645199999999832e+01 21.00000
3.476249999999999840e+00 4.899725600000000014e+01 -5.331503699999999668e+01 21.00000
-1.795462300000000155e+01 6.715270399999999995e+01 -3.581512000000000029e+00 21.00000
-9.901647000000000531e+00 6.321955400000000225e+01 -5.920239999999999947e-01 21.00000
-1.016884600000000027e+01 6.337806499999999943e+01 -4.924612299999999721e+01 21.00000
6.963822999999999652e+00 4.056090199999999868e+01 -2.217231699999999961e+01 21.00000
-1.301911999999999914e+01 6.499705899999999303e+01 -5.778920800000000213e+01 21.00000
-2.121976899999999944e+01 6.814919399999999428e+01 -4.670537999999999812e+01 21.00000
-1.029167799999999922e+01 6.345093200000000166e+01 -3.259004199999999685e+01 21.00000
5.312007999999999619e+00 4.519989900000000205e+01 -4.056746799999999809e+01 21.00000
-2.276851100000000017e+01 6.849413499999999999e+01 -5.806048100000000289e+01 21.00000
-1.895538200000000018e+01 6.746830799999999329e+01 -3.341554800000000114e+01 21.00000
-9.011770000000000058e-01 5.533615999999999957e+01 -1.599958799999999925e+01 21.00000
-1.672652000000000072e+01 6.666604700000000605e+01 -9.147553000000000267e+00 21.00000
-2.951016399999999962e+01 6.936918799999999408e+01 -1.752626100000000164e+01 21.00000
-2.610689899999999852e+01 6.907367299999999943e+01 -2.782281899999999908e+01 21.00000
-3.118383000000000127e+00 5.774938199999999711e+01 -2.554246499999999997e+01 21.00000
-4.594910999999999746e+00 5.918877100000000269e+01 -4.775665599999999955e+01 21.00000
-1.914673099999999906e+01 6.752712699999999302e+01 -2.066829399999999950e+01 21.00000
-1.393081899999999962e+01 6.544464700000000335e+01 -2.894269200000000097e+01 21.00000
7.446894000000000347e+00 3.869548699999999997e+01 -3.511289699999999669e+01 21.00000
5.316272999999999804e+00 4.518988800000000339e+01 -4.632298899999999975e+01 21.00000
-4.249304000000000414e+00 5.885185700000000253e+01 -2.182366999999999990e+01 21.00000
-4.700375000000000192e+00 5.928421500000000322e+01 -3.815412700000000257e+01 21.00000
3.493768000000000207e+00 4.896375599999999650e+01 -2.518154499999999985e+01 21.00000
-1.937471700000000041e+01 6.759720699999999738e+01 -2.491781900000000149e+01 21.00000
-1.576787099999999953e+01 6.628616499999999689e+01 -1.036986199999999947e+01 21.00000
4.429910000000000236e-01 5.364346799999999860e+01 -6.019934800000000052e+01 21.00000
-6.898130000000000095e+00 6.111141500000000093e+01 -1.529402299999999926e+01 21.00000
-1.352822199999999953e+01 6.524699699999999325e+01 -3.986877999999999922e+00 21.00000
3.793368000000000073e+00 4.839085399999999737e+01 -3.342949800000000238e+01 21.00000
-2.528378000000000014e+01 6.895762100000000316e+01 -3.314115100000000069e+01 21.00000
-2.010989000000000004e+01 6.782319099999999423e+01 -1.524654600000000038e+01 21.00000
8.501029000000000835e+00 3.462486899999999679e+01 -5.137640100000000132e+01 21.00000
7.342590999999999646e+00 3.909826199999999830e+01 -3.952167000000000208e+00 21.00000
2.679196999999999829e+00 5.035464999999999947e+01 -1.923152800000000084e+01 21.00000
-8.428699999999999193e+00 6.221175600000000117e+01 -2.272561899999999824e+01 21.00000
5.991401999999999894e+00 4.353520999999999930e+01 3.841546000000000127e+00 21.00000
-2.452069900000000047e+01 6.885003399999999374e+01 -9.375300000000000300e-02 21.00000
7.406126000000000431e+00 3.885291699999999793e+01 -2.193252199999999874e+01 21.00000
4.836204999999999643e+00 4.631670100000000190e+01 -5.068131400000000042e+01 21.00000
7.378856999999999999e+00 3.895821899999999971e+01 -1.221146399999999943e+01 21.00000
7.685685000000000322e+00 3.777338000000000306e+01 -1.129922999999999966e+01 21.00000
-2.119220800000000082e+01 6.814305600000000140e+01 -5.035054300000000183e+01 21.00000
4.518915999999999933e+00 4.700344199999999972e+01 -6.099863100000000316e+01 21.00000
5.005692999999999948e+00 4.591888099999999895e+01 -2.840055800000000019e+01 21.00000
-2.290457100000000068e+01 6.852443900000000099e+01 -5.169542200000000065e+01 21.00000
8.048655999999999366e+00 3.637174000000000262e+01 -4.433255700000000132e+01 21.00000
-9.109660000000000535e-01 5.534734300000000218e+01 -1.967848100000000144e+01 21.00000
-1.284103799999999929e+01 6.490963200000000199e+01 -9.508748999999999896e+00 21.00000
7.850793999999999606e+00 3.713579899999999867e+01 -4.741161300000000267e+01 21.00000
8.297959000000000529e+00 3.540903899999999993e+01 -3.861288499999999857e+01 21.00000
5.045941000000000010e+00 4.582441099999999778e+01 -2.289702399999999827e+01 21.00000
-1.217124600000000001e+01 6.456595000000000084e+01 -2.864557200000000137e+01 21.00000
-3.295300300000000249e+01 6.937208599999999592e+01 -2.963334899999999905e+01 21.00000
-2.756208200000000019e+01 6.925024000000000513e+01 -2.705975899999999967e+01 21.00000
-2.302008999999999972e+00 5.693638399999999677e+01 -1.209423699999999968e+01 21.00000
-1.092130500000000026e+01 6.382444699999999926e+01 -2.319833799999999968e+01 21.00000
-1.313216500000000053e+01 6.505255699999999308e+01 -4.944301200000000307e+01 21.00000
-1.816988399999999970e+01 6.722685599999999795e+01 -5.381605100000000164e+01 21.00000
-1.168063999999999991e+00 5.564103599999999972e+01 -3.829470299999999838e+01 21.00000
3.016564999999999941e+00 4.981761800000000306e+01 -2.111433900000000108e+01 21.00000
-1.105749100000000062e+01 6.390523600000000215e+01 -2.603126900000000177e+01 21.00000
-1.243730000000000047e+01 6.471142100000000141e+01 -3.411520699999999806e+01 21.00000
-1.167615999999999943e+01 6.427224900000000218e+01 -3.262509099999999762e+01 21.00000
-1.775751000000000079e+00 5.633521900000000215e+01 -4.895598199999999878e+01 21.00000
6.343105999999999689e+00 4.248684599999999989e+01 -4.202616600000000346e+01 21.00000
6.770069000000000337e+00 4.121415100000000109e+01 -1.848657800000000151e+01 21.00000
-2.794331000000000120e+00 5.743348100000000045e+01 -5.891160599999999903e+01 21.00000
-1.342622199999999921e+01 6.519692100000000323e+01 -4.379424499999999654e+01 21.00000
-2.808858400000000088e+01 6.928238799999999742e+01 -2.325049999999999883e+01 21.00000
5.473027000000000086e+00 4.482195699999999761e+01 -2.962671200000000127e+01 21.00000
-2.156289699999999954e+01 6.822561699999999973e+01 -5.978392999999999802e+01 21.00000
3.020969000000000015e+00 4.981060800000000199e+01 -6.108040499999999895e+01 21.00000
-2.426391200000000126e+01 6.881382899999999836e+01 -4.897346199999999783e+01 21.00000
7.272269999999999790e+00 3.936981200000000314e+01 -9.245431999999999206e+00 21.00000
-1.734645199999999932e+01 6.691170599999999524e+01 -3.234626099999999838e+01 21.00000
-1.315693100000000015e+01 6.506471600000000421e+01 -4.145125399999999871e+01 21.00000
-8.520967999999999876e+00 6.227686599999999828e+01 -5.907830999999999833e+00 21.00000
7.715016000000000318e+00 3.766011499999999756e+01 -2.344449499999999986e+01 21.00000
-1.664207899999999896e+01 6.663258600000000342e+01 -5.376825199999999683e+01 21.00000
7.215912000000000326e+00 3.958744200000000291e+01 -5.338064299999999918e+01 21.00000
-5.528798000000000101e+00 5.997296000000000049e+01 -3.932977100000000092e+01 21.00000
5.300540000000000251e-01 5.352652799999999900e+01 -5.638652700000000095e+01 21.00000
-4.102572000000000330e+00 5.870881599999999878e+01 -1.564066000000000045e+01 21.00000
-3.187639899999999926e+01 6.939154200000000117e+01 -5.643273299999999892e+01 21.00000
2.663695999999999842e+00 5.037932599999999894e+01 -3.534765199999999652e+01 21.00000
