-49.852833 -34.363948 -57.297934 18
-25.384636 -0.410238 -39.324385 18
-21.081306 -0.153805 -29.698988 18
-39.766914 -7.908995 -3.352425 18
-49.739990 -27.840554 -12.624391 18
-49.130007 -24.385608 -10.186076 18
-24.529312 -0.359270 -14.660182 18
-49.723586 -35.824352 -13.650504 18
-47.799646 -43.505356 -25.945282 18
-25.926412 -0.442522 -52.538466 18
-49.427247 -37.639240 -57.905512 18
-31.357436 -2.103863 -26.764716 18
-49.807679 -34.874162 -37.477198 18
-23.924419 -0.323225 -36.984483 18
-25.246903 -0.402031 -28.884461 18
-41.627919 -9.827861 -28.696146 18
-42.519720 -10.918962 -45.608242 18
-27.829962 -0.618745 -33.173570 18
-36.352331 -5.094330 -28.625730 18
-24.442977 -0.354125 -22.309345 18
-48.693367 -40.816861 -45.340850 18
-28.953353 -1.056451 -21.717550 18
-43.339142 -11.923493 -55.550838 18
-48.936051 -39.904385 -20.151185 18
-49.938407 -33.397023 -54.663131 18
-36.116959 -4.923065 -52.577102 18
-35.021033 -4.152877 3.299779 18
-48.613369 -22.404254 -32.353889 18
-40.688249 -8.858976 -42.769435 18
-46.407587 -16.831888 -6.348216 18
-49.955521 -30.992530 -47.107415 18
-42.422275 -10.799503 0.671779 18
-48.626092 -22.453048 0.768377 18
-47.090666 -18.332498 0.260880 18
-35.018609 -4.151413 -12.436877 18
-32.945948 -2.899982 -9.789160 18
-49.745390 -27.905155 -19.529324 18
-48.351554 -21.581462 -21.731519 18
-49.725637 -27.668848 -48.147062 18
-49.479319 -37.343196 -29.863333 18
-47.292434 -44.773954 -47.420568 18
-35.691087 -4.613185 -21.282204 18
-49.618033 -27.011210 -39.331143 18
-49.955872 -30.848566 -48.983114 18
-43.550624 -12.212166 -50.814866 18
-23.227038 -0.281668 -46.685203 18
-31.702462 -2.273667 -22.538934 18
-31.866512 -2.354404 -29.573026 18
-46.542731 -17.127401 -11.819486 18
-26.870021 -0.498751 -19.682557 18
-39.312127 -7.498116 -32.380600 18
-46.632703 -46.206295 -48.227088 18
-38.105572 -6.450822 -6.840604 18
-48.669082 -40.908173 -37.122283 18
-48.978367 -23.804056 -7.097124 18
-47.435355 -44.463660 -23.924557 18
-47.347303 -44.654829 -22.115384 18
-49.953189 -31.949690 -25.787489 18
-49.809970 -34.848270 -33.136214 18
-48.311155 -42.085475 2.339446 18
-49.479492 -26.200447 -52.948326 18
-49.723331 -35.827242 -24.248491 18
-49.050140 -24.079310 -15.337852 18
-49.670351 -36.257131 -33.725741 18
-49.150334 -39.098699 -21.592131 18
-34.931807 -4.099004 -36.877329 18
-47.191588 -18.554460 -50.682428 18
-39.448146 -7.616181 -42.985570 18
-26.204516 -0.459094 -11.691996 18
-35.357799 -4.370673 -2.894320 18
-46.463848 -16.953910 -16.902761 18
-49.844515 -29.091043 -21.004392 18
-48.605861 -22.375461 -3.139249 18
-49.479454 -26.200228 -4.976824 18
-29.565890 -1.295113 -6.672837 18
-40.506787 -8.671872 -51.907306 18
-47.420481 -19.057874 -47.473843 18
-47.469747 -19.166228 -2.714039 18
-38.214246 -6.545151 -17.080584 18
-49.677662 -36.215567 3.772066 18
-22.661858 -0.247989 -8.628063 18
-39.721352 -7.862016 -17.399524 18
-49.385125 -37.878713 -24.285978 18
-38.616078 -6.893944 -34.424103 18
-42.372724 -10.738760 -56.204179 18
-49.951618 -32.594773 -8.559232 18
-44.626681 -13.790372 -34.417866 18
-31.443465 -2.146202 -54.737531 18
-39.648213 -7.789840 -49.396974 18
-48.630926 -22.471589 -9.763212 18
-49.465072 -26.116058 -22.597586 18
-37.421773 -5.872495 -54.936866 18
-34.028840 -3.553811 -3.353275 18
-48.642780 -22.517048 -50.212091 18
-24.905653 -0.381696 -55.438734 18
-28.310863 -0.806118 1.064459 18
-49.244985 -24.828074 -25.736838 18
-47.191411 -44.993289 -9.691066 18
-49.584858 -36.743178 -19.445273 18
-34.479165 -3.825708 -14.494579 18
-49.869034 -29.384367 -57.399062 18
-46.551697 -46.382212 -1.845381 18
-20.968202 -0.147065 -7.449049 18
-44.475598 -13.568786 -23.030010 18
-49.849204 -29.147138 -40.319737 18
-47.239287 -18.659367 -16.457591 18
-47.753907 -19.896811 1.216769 18
-49.537385 -26.539245 -57.473518 18
-35.936002 -4.791394 -1.079754 18
-49.651961 -36.361682 -60.065394 18
-28.880273 -1.027976 -38.729907 18
-46.808634 -17.712211 -59.372377 18
-47.325892 -18.849839 -60.411954 18
-32.913321 -2.880282 -34.126206 18
-46.073307 -16.237893 -58.363107 18
-48.717391 -22.803189 -18.193167 18
-46.334027 -16.701178 -45.650089 18
-49.806081 -34.892223 -49.208027 18
-48.267640 -21.344924 -56.016596 18
-43.449882 -12.064413 -57.109937 18
-33.138130 -3.016017 -23.791017 18
-49.726884 -35.787088 -3.098837 18
-48.520194 -41.467978 -5.135608 18
-45.731471 -15.630469 -15.072592 18
-47.780991 -19.973156 -15.459060 18
-49.953917 -31.650944 -55.424790 18
-30.474026 -1.669094 -47.145524 18
-49.283787 -25.055152 -40.077627 18
-49.692393 -27.446376 -27.605461 18
-49.838636 -34.524363 3.445569 18
-47.176989 -45.024597 -38.950568 18
-43.630331 -12.329069 -52.495820 18
-36.364720 -5.103345 -30.260401 18
-25.244743 -0.401902 -49.191739 18
-47.729538 -43.699964 -19.099956 18
-45.240767 -14.758516 -22.388283 18
-47.323456 -44.706612 3.184125 18
-21.018682 -0.150074 -23.102670 18
-46.731879 -45.991004 -7.062458 18
-47.215951 -44.940006 -45.119130 18
-48.567604 -41.289720 3.766169 18
-39.863380 -8.008460 -33.871229 18
-36.936790 -5.519604 -12.839524 18
-21.299051 -0.166781 -34.395647 18
-47.716294 -19.790788 -33.798154 18
-46.872771 -17.853272 -57.237190 18
-21.264159 -0.164701 -40.819047 18
-49.146184 -24.447646 -50.472191 18
-38.571572 -6.855312 -56.857832 18
-49.942072 -30.258161 -53.989304 18
-47.741755 -43.666052 -60.618676 18
-47.377393 -18.963108 -32.396276 18
-49.770601 -28.206770 -35.462990 18
-31.631117 -2.238555 -56.557729 18
-23.563506 -0.301718 -17.035869 18
-48.380453 -21.662921 -28.178231 18
-47.869886 -20.223732 -5.581861 18
-27.453596 -0.533526 -2.700413 18
-35.696882 -4.617402 -6.149265 18
-39.003461 -7.230193 -23.268856 18
-46.209961 -16.480719 -29.719052 18
-22.506416 -0.238727 -21.299516 18
-46.355186 -46.808855 -13.496355 18
-48.669765 -22.620539 -46.288319 18
-49.336911 -25.366042 -18.795499 18
-30.802672 -1.830837 -36.558182 18
-37.731415 -6.126052 -43.771264 18
-49.935321 -33.431897 -5.658662 18
-27.294553 -0.524049 -17.785195 18
-47.702992 -19.753293 -53.330708 18
-29.785262 -1.380587 -49.508274 18
-46.481577 -46.534417 -39.850703 18
-49.432557 -37.609047 -53.161259 18
-39.643716 -7.785937 -58.763345 18
-49.896191 -29.709271 -12.599521 18
-49.950686 -32.976989 -10.339820 18
-48.961746 -39.807776 -41.479675 18
-49.519345 -37.115634 -0.857561 18
-38.778361 -7.034805 -37.759204 18
-45.377456 -15.001406 -32.119391 18
-27.031947 -0.508401 -38.493788 18
-49.630604 -36.483100 -48.920377 18
-44.479422 -13.574394 -25.875023 18
-39.116736 -7.328516 -53.982764 18
-47.511930 -19.259002 -25.538712 18
-49.755582 -28.027089 -58.405055 18
-49.111237 -24.313622 -42.702200 18
-49.454369 -26.053425 -35.498618 18
-47.664321 -43.880997 -37.129882 18
-49.952596 -32.193226 -27.959856 18
-43.441840 -12.052617 -1.763014 18
-37.485936 -5.919183 -8.869378 18
-49.758949 -35.424782 -18.246907 18
-23.869324 -0.319942 -25.622696 18
-49.926015 -33.537048 -60.822344 18
-29.224835 -1.162228 -26.612123 18
-49.635868 -27.115585 -41.205453 18
-49.608410 -36.609282 -31.991962 18
-35.617357 -4.559536 -60.080439 18
-48.765921 -40.544061 1.914546 18
-47.117368 -18.391224 -24.309747 18
-37.261284 -5.755717 -56.963839 18
-49.754568 -35.474283 -58.582225 18
-25.235977 -0.401380 1.847865 18
-29.779604 -1.378382 -56.807876 18
-31.071714 -1.963245 -38.278112 18
-42.577815 -10.990180 -37.540663 18
-47.437005 -19.094216 3.699286 18
-49.955535 -30.986835 -45.319079 18
-48.057894 -42.788493 -35.876516 18
-49.162078 -24.508600 -58.701492 18
-32.662724 -2.746259 -27.956711 18
-24.856856 -0.378788 -47.427242 18
-49.955625 -30.949782 -40.643523 18
-46.805910 -17.706220 -40.183824 18
-33.635517 -3.316330 -49.599835 18
-46.001040 -16.109477 -2.822071 18
-49.327437 -25.310599 -12.955015 18
-49.954415 -31.446619 -38.358078 18
-49.146746 -24.449801 0.632105 18
-41.581543 -9.780043 -5.156656 18
-49.311569 -38.296897 -50.761839 18
-49.221083 -38.811330 -1.525035 18
-49.757294 -35.443480 -55.462901 18
-49.930076 -33.491156 -12.832777 18
-46.341919 -16.715200 -43.054938 18
-41.630582 -9.830607 -43.491330 18
-25.362897 -0.408943 -18.686330 18
-49.644317 -27.165031 -42.907967 18
-49.276617 -38.495604 -60.999573 18
-28.719880 -0.965483 -50.871607 18
-49.907355 -29.842829 -35.390006 18
-49.932326 -30.141566 -16.258886 18
-49.583087 -26.806704 -29.315726 18
-47.768869 -19.938987 -35.454263 18
-46.414418 -46.680224 -46.139625 18
-47.667838 -19.654200 -22.189424 18
-49.325377 -38.218396 -41.791260 18
-49.746929 -27.923574 -33.004932 18
-41.565408 -9.763406 -58.446405 18
-38.366526 -6.677331 -49.499679 18
-47.327622 -18.853645 -29.372795 18
-49.650189 -36.371757 -22.584766 18
-49.234648 -24.786915 -17.260685 18
-48.702266 -40.783402 -30.080814 18
-38.437701 -6.739112 -5.337521 18
-49.712195 -27.562265 -45.857243 18
-49.953248 -31.925448 -53.484177 18
-47.057706 -18.260006 -34.967193 18
-43.616137 -12.308251 -45.722922 18
-47.187689 -45.001375 -5.543080 18
-42.365229 -10.729571 3.101507 18
-49.033182 -24.014272 -44.360012 18
-21.569957 -0.182924 -15.213797 18
-43.742944 -12.494234 -33.206560 18
-30.433202 -1.649003 -30.149342 18
-45.334840 -14.925678 -41.970777 18
-22.190274 -0.219888 -60.177979 18
-49.872122 -34.146003 -35.873694 18
-47.371662 -18.950505 -6.848317 18
-44.584958 -13.729180 -21.235613 18
-49.566879 -26.711848 -3.029174 18
-49.350234 -25.444007 -48.266907 18
-46.577880 -46.325358 -9.069771 18
-22.950799 -0.265207 -39.998957 18
-21.517362 -0.179790 -38.778514 18
-49.120651 -24.349724 -52.290021 18
-47.060265 -18.265634 -38.605254 18
-33.530310 -3.252808 -36.923957 18
-34.391861 -3.772995 -8.843632 18
-33.363979 -3.152381 -55.048418 18
-37.144460 -5.670712 -17.790421 18
-38.364789 -6.675823 -41.626122 18
-39.326789 -7.510843 -7.699873 18
-46.786932 -17.664481 -25.692702 18
-32.403751 -2.618805 -44.183145 18
-49.939885 -30.232003 -14.382075 18
-27.820625 -0.615107 -11.528869 18
-34.240315 -3.681495 -56.785959 18
-49.518183 -26.426872 -59.390901 18
-37.665601 -6.068925 3.656239 18
-21.724998 -0.192162 -12.733053 18
-48.904759 -40.022041 -4.288758 18
-47.946589 -43.097459 -22.712562 18
-21.248553 -0.163771 -31.311208 18
-48.167126 -21.061594 -23.333463 18
-45.352145 -14.956429 -0.498212 18
-48.615291 -22.411627 -42.443918 18
-29.398101 -1.229738 -12.606774 18
-48.289186 -42.146457 -11.157351 18
-43.253432 -11.818421 -35.070900 18
-49.855763 -29.225600 -42.459298 18
-30.203334 -1.543480 -39.806385 18
-35.376842 -4.384529 -42.988286 18
-48.521081 -22.059325 -14.864074 18
-49.169071 -39.028248 -37.874006 18
-38.300487 -6.620010 -28.440784 18
-28.696387 -0.956329 -30.070753 18
-48.647439 -40.989546 -58.620386 18
-33.225276 -3.068634 -40.206078 18
-28.131889 -0.736384 -31.501579 18
-31.599415 -2.222953 -52.649746 18
-23.551585 -0.301008 -10.019990 18
-49.952646 -32.172444 2.221754 18
-47.502770 -19.238856 -11.386876 18
-48.485567 -41.598174 -2.786987 18
-39.289638 -7.478596 -30.620714 18
-44.462223 -13.549169 -8.635393 18
-47.516363 -44.287783 -41.880190 18
-49.954170 -31.547289 -36.439865 18
-47.056827 -45.285481 -32.754000 18
-22.750982 -0.253300 -52.639700 18
-36.114055 -4.920952 -57.701522 18
-38.206686 -6.538590 -58.565767 18
-49.252005 -38.635532 -54.877379 18
-49.775665 -28.267351 -53.877110 18
-44.873449 -14.152297 -16.021179 18
-37.170779 -5.689862 -1.596301 18
-43.529486 -12.181165 -24.427330 18
-46.502980 -46.487968 -19.632752 18
-49.052255 -24.087419 2.394838 18
-46.798680 -45.845956 -23.149476 18
-49.698359 -27.481292 0.615192 18
-20.932536 -0.144940 -9.451632 18
-22.689665 -0.249646 -50.551561 18
-45.755866 -15.673818 2.406922 18
-48.776127 -40.505689 -14.943742 18
-21.284445 -0.165910 -16.851395 18
-26.472680 -0.475074 -42.769541 18
-49.868861 -29.382309 -26.158133 18
-49.942602 -33.349624 -17.543742 18
-31.513233 -2.180538 -0.689241 18
-49.950603 -33.011089 -37.276678 18
-32.995780 -2.930069 -18.426771 18
-47.764524 -43.602849 -58.220610 18
-42.308057 -10.659484 -12.153171 18
-46.370718 -46.775114 -33.610346 18
-44.215229 -13.186914 -29.697059 18
-44.867537 -14.143626 -12.895413 18
-31.236997 -2.044589 -17.779393 18
-32.588252 -2.709607 -13.700675 18
-49.671569 -36.250203 -35.369009 18
-49.942805 -30.266938 2.672887 18
-49.941032 -30.245717 -0.498530 18
-35.807893 -4.698177 -39.484983 18
-33.074147 -2.977386 -5.908562 18
-23.038174 -0.270414 -7.006634 18
-48.746146 -22.913466 -5.831532 18
-49.568263 -26.719952 -14.058249 18
-46.828334 -17.755538 -19.805642 18
-30.650859 -1.756123 -19.529004 18
-25.614866 -0.423957 -20.968617 18
-46.183695 -16.434045 -27.412422 18
-49.912287 -33.692157 -31.364328 18
-41.257437 -9.445860 -47.281520 18
-44.469238 -13.559457 -1.189553 18
-24.306530 -0.345994 -60.905428 18
-39.305496 -7.492361 -60.983883 18
-24.578368 -0.362193 -43.319784 18
-46.638833 -46.192987 -50.345978 18
-49.515526 -26.411323 -61.006025 18
-46.935206 -17.990588 -52.456273 18
-49.812350 -28.706237 -59.862745 18
-47.778434 -19.965949 -30.950415 18
-37.135857 -5.664452 -40.181191 18
-49.615430 -36.569370 -7.648806 18
-26.523616 -0.478109 -7.816209 18
-27.975442 -0.675428 -48.621589 18
-26.940347 -0.502942 -29.826184 18
-49.952240 -32.339239 -57.511308 18
-45.087643 -14.486425 -19.370541 18
-44.737369 -13.952714 -40.048207 18
-49.762802 -28.113463 -51.337058 18
-29.486249 -1.264083 3.121011 18
-21.766226 -0.194619 -11.019521 18
-49.774482 -35.249262 -51.007397 18
-39.298286 -7.486103 -52.476554 18
-36.550475 -5.238507 -50.168681 18
-43.108203 -11.640385 -30.569237 18
-34.363323 -3.755765 -6.275019 18
-26.194574 -0.458502 -31.218163 18
-48.179957 -42.449662 -0.666064 18
-41.766661 -9.995785 -23.669950 18
-29.458671 -1.253338 -35.664109 18
-49.533785 -37.033542 -3.959624 18
-37.659892 -6.063970 -14.565402 18
-32.301477 -2.568471 -2.887859 18
-43.938315 -12.780776 -41.713190 18
-31.857646 -2.350041 -46.220597 18
-26.341970 -0.467285 -60.896532 18
-48.537904 -22.114839 -7.735832 18
-49.339694 -25.382327 -28.217226 18
-30.208654 -1.545553 -51.354198 18
-45.110462 -14.526972 -52.608141 18
-29.379338 -1.222427 -2.142215 18
-49.924069 -30.042780 -22.632175 18
-49.587368 -36.728912 -21.067688 18
-38.620450 -6.897738 -26.833228 18
-48.638691 -41.022438 -35.478749 18
-46.833122 -45.771167 -41.975817 18
-25.298369 -0.405098 -13.161419 18
-40.356358 -8.516766 -8.969566 18
-46.706032 -17.486555 3.756451 18
-20.965372 -0.146897 -36.370179 18
-26.885513 -0.499675 -55.758363 18
-48.656250 -22.568708 -20.246801 18
-49.147614 -24.453130 -33.750635 18
-49.056788 -39.450422 -18.379133 18
-48.666964 -40.916133 -22.869794 18
-40.282755 -8.440874 -27.428525 18
-28.946473 -1.053770 -19.430531 18
-25.414742 -0.412032 -34.310279 18
-28.061295 -0.708879 -46.873321 18
-30.054201 -1.485373 -8.245401 18
-40.101819 -8.254313 -12.505446 18
-48.987544 -39.710776 -32.258031 18
-30.642545 -1.752031 -60.473975 18
-31.993136 -2.416722 -11.373036 18
-49.953652 -31.759788 -24.185475 18
-40.100431 -8.252882 -56.537133 18
-33.860795 -3.452349 -44.206929 18
-49.351668 -38.068920 -32.934122 18
-45.904576 -15.938068 -48.500545 18
-39.658109 -7.798430 -40.990305 18
-42.343799 -10.703300 -54.433441 18
-49.924785 -33.550938 -24.447431 18
-34.795222 -4.016537 -16.823747 18
-43.255563 -11.821033 -20.952736 18
-21.210859 -0.161525 -0.656036 18
-36.278877 -5.040882 -19.515883 18
-24.169941 -0.337855 -4.193051 18
-48.379308 -41.896292 -6.745800 18
-24.731520 -0.371319 -32.797432 18
-46.850976 -45.732405 -30.973881 18
-33.067318 -2.973263 -59.268576 18
-26.793351 -0.494183 -9.386621 18
-49.954480 -31.419956 -42.888944 18
-48.385675 -21.677642 -47.790455 18
-26.324121 -0.466222 -4.817388 18
-48.882054 -40.107410 -56.474670 18
-49.484783 -37.312129 -10.703445 18
-48.628887 -41.059300 -18.055174 18
-26.354502 -0.468032 -50.840841 18
-47.901364 -20.312464 -17.259542 18
-42.939558 -11.433642 -40.473630 18
-48.429333 -21.800706 -11.953049 18
-48.831096 -23.239256 -23.098842 18
-30.781014 -1.820178 -25.190946 18
-48.508142 -41.513294 -31.657244 18
-37.196476 -5.708561 -16.089618 18
-46.883102 -17.875994 -27.811192 18
-42.021651 -10.308378 -39.065338 18
-49.953812 -31.694169 -13.528911 18
-47.431386 -44.472277 -53.231474 18
-27.486043 -0.535460 -53.829743 18
-48.756097 -22.951631 -37.266531 18
-48.135117 -20.971367 -8.962659 18
-30.100741 -1.503507 -34.081922 18
-42.706961 -11.148501 -8.270972 18
-43.662178 -12.375778 -5.123789 18
-49.258319 -38.599636 0.504510 18
-49.752348 -27.988401 -56.018402 18
-30.860070 -1.859086 -13.477000 18
-21.014399 -0.149818 -55.195131 18
-49.521232 -26.444718 -32.146860 18
-48.946501 -39.865097 -8.728567 18
-44.643904 -13.815633 -31.179927 18
-49.450685 -26.031862 -6.940410 18
-48.908306 -23.535365 -31.169070 18
-49.954441 -31.436031 -4.159177 18
-49.119410 -39.214970 -52.199246 18
-25.031873 -0.389217 -6.448991 18
-41.769987 -9.999863 -60.137334 18
-48.039805 -42.838705 -15.157154 18
-48.851738 -23.318423 -11.712900 18
-49.870068 -29.396740 -46.189718 18
-49.579501 -36.773634 1.071114 18
-24.121644 -0.334977 -27.625266 18
-23.995157 -0.327440 -44.838614 18
-30.180155 -1.534449 -32.378570 18
-47.934366 -20.405489 -39.499063 18
-49.620653 -36.539675 -26.615713 18
-22.792482 -0.255773 -14.235738 18
-49.852378 -34.369094 -52.984269 18
-45.908038 -15.944220 -13.071147 18
-38.145051 -6.485091 -2.727225 18
-22.200550 -0.220500 -18.258116 18
-42.385156 -10.754000 -47.783199 18
-40.927232 -9.105389 -30.774345 18
-49.391711 -37.841270 -59.458877 18
-46.011270 -16.127657 -37.849885 18
-49.237455 -38.718251 -5.247108 18
-48.821563 -23.202698 -27.859056 18
-49.950969 -32.861112 0.682108 18
-46.488235 -46.520002 2.963595 18
-47.803616 -43.494333 -6.872272 18
-45.232888 -14.744516 -49.492303 18
-41.404801 -9.597806 -11.521849 18
-48.407989 -21.740539 -4.825491 18
-42.034870 -10.324583 -51.239415 18
-45.421323 -15.079354 -7.311958 18
-25.375746 -0.409708 -26.685478 18
-47.974572 -43.019782 -32.207745 18
-43.881026 -12.696753 -43.916318 18
-44.235457 -13.216581 -3.603220 18
-28.843217 -1.013539 -43.214648 18
-49.042897 -24.051532 -35.601670 18
-49.107689 -39.259039 -24.991797 18
-46.035411 -16.170554 -52.575129 18
-37.559922 -5.977196 -61.062860 18
-35.728084 -4.640105 1.873172 18
-46.487608 -17.006166 -33.978008 18
-47.275389 -44.810960 -54.907958 18
-46.063975 -16.221310 -56.733967 18
-48.019375 -20.645113 -26.768057 18
-36.145013 -4.943478 -14.645912 18
-48.451589 -21.863439 -51.785374 18
-48.100327 -20.873302 -43.203694 18
-48.284391 -42.159767 -59.816356 18
-41.399122 -9.591950 -9.712289 18
-44.083372 -12.993525 -14.985408 18
-48.081140 -20.819218 -19.761962 18
-42.746522 -11.196999 -33.549502 18
-34.703371 -3.961079 -53.732908 18
-49.953655 -31.758525 -11.423804 18
-48.533056 -22.096249 -44.602537 18
-22.849248 -0.259156 -5.438835 18
-34.523507 -3.852481 -61.104359 18
-45.050293 -14.420055 -24.385312 18
-30.656402 -1.758851 -4.587540 18
-41.831896 -10.075757 -21.583538 18
-49.751890 -35.504542 -30.933112 18
-49.939218 -30.224025 -50.942750 18
-49.778450 -35.204434 -43.030031 18
-39.399114 -7.573621 -44.996779 18
-21.065408 -0.152858 -52.916223 18
-43.657795 -12.369349 -61.072623 18
-47.747081 -43.651267 -20.889559 18
-47.318202 -44.718018 1.472712 18
-40.750720 -8.923389 -39.302861 18
-48.213008 -42.357916 -26.951399 18
-49.907543 -29.845077 -31.710376 18
-24.072731 -0.332063 -58.285537 18
-45.582534 -15.365816 -11.098376 18
-21.096546 -0.154713 -20.153937 18
-49.763680 -28.123965 -7.424100 18
-48.809258 -40.381118 -6.958824 18
-47.913407 -43.189568 -48.006744 18
-49.956642 -30.532367 -27.547859 18
-44.137571 -13.073017 -19.523998 18
-36.936002 -5.519030 -27.220434 18
-49.023499 -23.977140 -55.237183 18
-49.452586 -37.495178 -45.907764 18
-26.811372 -0.495257 -40.569846 18
-45.178673 -14.648178 -36.026275 18
-49.437773 -25.956299 -44.966237 18
-49.229025 -38.766178 -48.576889 18
-43.109639 -11.642144 -59.137841 18
-48.791401 -23.087022 -29.457669 18
-48.837597 -40.274567 -0.403533 18
-49.147992 -24.454581 -60.938410 18
-47.590193 -44.086767 -30.954991 18
-49.797732 -34.986558 -29.342879 18
-48.944168 -39.873866 -47.074872 18
-40.973475 -9.153070 -50.026155 18
-49.223032 -38.800248 -27.296677 18
-40.648920 -8.818424 -59.581752 18
-36.777996 -5.404059 -59.169480 18
-42.892168 -11.375547 -23.239635 18
-29.499859 -1.269386 -0.543447 18
-49.723194 -35.828783 -16.290386 18
-46.521487 -46.447781 -25.129452 18
-21.229321 -0.162625 -47.210246 18
-36.323628 -5.073445 -46.385300 18
-40.660621 -8.830488 -2.321673 18
-32.178307 -2.507853 -4.580026 18
-49.701948 -36.068850 -52.942204 18
-49.955092 -31.168710 -20.969077 18
-34.540742 -3.862887 -10.503660 18
-36.371324 -5.108150 -34.519437 18
-30.500076 -1.681915 -45.157610 18
-36.091220 -4.904337 -25.699896 18
-23.409854 -0.292562 -34.095590 18
-47.764304 -43.603459 -4.453279 18
-46.596701 -46.284482 -21.510648 18
-33.994978 -3.533365 -35.391492 18
-47.069411 -18.285750 -55.637089 18
-49.908568 -29.857333 -18.020254 18
-48.288689 -21.404258 -54.357982 18
-42.874815 -11.354274 -49.695353 18
-37.165065 -5.685705 -24.324731 18
-34.585652 -3.890003 -22.521439 18
-42.810005 -11.274822 -42.902573 18
-29.531704 -1.281793 -54.004127 18
-47.816573 -43.458368 -13.274055 18
-37.350894 -5.820921 -31.632336 18
-25.727949 -0.430696 -37.521182 18
-46.899185 -45.627755 -11.214430 18
-47.439601 -19.099926 -20.310214 18
-48.703673 -40.778110 -26.102443 18
-45.696258 -15.567899 -44.282453 18
-23.856971 -0.319206 0.362004 18
-49.774896 -35.244589 -6.130584 18
-49.071277 -39.395948 -16.247515 18
-31.691336 -2.268192 -16.211287 18
-49.950688 -32.976188 -47.487786 18
-49.359730 -25.499583 -56.307306 18
-40.539419 -8.705519 -35.849846 18
-49.133016 -24.397145 -21.877851 18
-49.430742 -25.915154 -11.112716 18
-49.210281 -38.872746 -13.160138 18
-48.347798 -21.570874 -29.893917 18
-49.380580 -25.621600 -30.480019 18
-38.295544 -6.615718 -20.439971 18
-47.937535 -43.122592 -2.888558 18
-27.279016 -0.523123 -14.227859 18
-44.053943 -12.950363 -16.722530 18
-34.562135 -3.875804 -58.530138 18
-47.710701 -19.775022 -54.970616 18
-49.358197 -25.490610 -24.071617 18
-22.297568 -0.226282 -26.567800 18
-48.226609 -42.320163 -19.910791 18
-49.942736 -33.348102 -0.950227 18
-45.983739 -16.078734 0.791910 18
-44.644627 -13.816693 -51.041596 18
-46.805252 -17.704775 -30.448477 18
-39.473478 -7.638170 -1.577615 18
-21.053477 -0.152147 -27.949628 18
-39.627913 -7.772220 -46.910388 18
-47.958797 -20.474357 -3.683549 18
-46.483099 -46.531101 -56.291870 18
-48.835058 -23.254450 -48.399279 18
-49.953228 -31.933858 -31.840482 18
-48.375272 -41.907495 -28.668379 18
-48.394722 -21.703144 -24.910960 18
-48.725977 -22.836117 -53.742117 18
-49.950847 -32.910985 -39.853621 18
-45.173408 -14.638823 -4.609784 18
-36.960064 -5.536538 0.578640 18
-43.548692 -12.209333 -28.652386 18
-48.820302 -40.339595 -27.867022 18
-49.866597 -29.355215 -1.889413 18
-34.824930 -4.034474 -27.884086 18
-47.708857 -19.769824 -57.107975 18
-48.279816 -42.172468 -25.030873 18
-49.954234 -31.520905 -6.585207 18
-44.517435 -13.630146 -47.156187 18
-36.146311 -4.944423 -9.567117 18
-31.180031 -2.016554 -6.348278 18
-49.956254 -30.691898 -9.002770 18
-41.657413 -9.861857 -34.841817 18
-23.522109 -0.299251 -12.767422 18
-34.989255 -4.133690 -18.709369 18
-41.791373 -10.026080 -7.436925 18
-47.814228 -43.464878 -55.574160 18
-49.220896 -38.812394 -3.083058 18
-38.222779 -6.552558 1.390437 18
-49.852476 -29.186278 1.109374 18
-22.883805 -0.261215 -42.112634 18
-48.229553 -42.311991 -56.793537 18
-38.420492 -6.724174 -0.742478 18
-46.465391 -46.569547 -52.844378 18
-49.795046 -28.499219 -11.091866 18
-37.004724 -5.569035 -5.332214 18
-49.816802 -34.771072 -21.793291 18
-44.101943 -13.020762 -48.785871 18
-46.537750 -17.116445 -54.534876 18
-48.406486 -41.820847 -21.357029 18
-49.749511 -27.954454 -31.059457 18
-45.380739 -15.007239 -8.985786 18
-35.270125 -4.306878 -55.710219 18
-47.881820 -43.277251 -52.003502 18
-44.484184 -13.581378 3.201810 18
-28.848684 -1.015669 -3.727042 18
-34.998266 -4.139131 0.510877 18
-43.541763 -12.199171 -36.865471 18
-32.403358 -2.618612 -7.382843 18
-48.415647 -41.795418 -54.049016 18
-43.502719 -12.141907 -26.477851 18
-42.875807 -11.355489 -18.896191 18
-27.202450 -0.518561 -35.267437 18
-47.888987 -43.257356 -50.190084 18
-40.834301 -9.009568 -20.489536 18
-32.519509 -2.675776 -48.200848 18
-33.001598 -2.933582 -21.151722 18
-49.900448 -29.760196 -33.270890 18
-46.826786 -45.784927 -28.817796 18
-34.006716 -3.540453 -31.488992 18
-49.888080 -29.612234 -44.398201 18
-38.619104 -6.896569 -39.968896 18
-34.618036 -3.909555 -40.822075 18
-28.229378 -0.774369 -7.806303 18
-40.907592 -9.085138 -40.976453 18
-33.202363 -3.054800 -60.946055 18
-48.748276 -40.610408 -51.261865 18
-48.708884 -22.770564 -57.075909 18
-34.745268 -3.986376 -25.078767 18
-46.719956 -17.517178 -2.875021 18
-40.296276 -8.454816 -53.514051 18
-27.770359 -0.595522 -23.021437 18
-44.256000 -13.246711 -54.531641 18
-46.758623 -45.932929 -17.926685 18
-49.675355 -36.228683 -40.870701 18
-48.332921 -21.528938 -1.514031 18
-47.283332 -44.793715 -14.303155 18
-43.026779 -11.540566 -17.100966 18
-29.504584 -1.271227 -17.898182 18
-30.843731 -1.851044 -2.527496 18
-45.212496 -14.708282 -60.604082 18
-39.859465 -8.004423 -5.360982 18
-49.911562 -29.893162 -61.109812 18
-49.895394 -29.699728 -24.395971 18
-46.446002 -46.611653 -43.716199 18
-49.413808 -37.715641 -40.257790 18
-49.774561 -28.254148 -14.955224 18
-46.569276 -17.185781 -47.421296 18
-33.353469 -3.146035 -1.225919 18
-46.746813 -17.576246 -8.792451 18
-47.551126 -19.345207 -41.493687 18
-41.311187 -9.501282 -37.296930 18
-40.507196 -8.672293 -22.064419 18
-48.602290 -41.159303 -48.735118 18
-40.875257 -9.051798 -18.263246 18
-49.020379 -39.587319 -43.250549 18
-46.427325 -46.652244 -0.271443 18
-48.178989 -21.095033 -61.101574 18
-49.729458 -27.714556 -1.251356 18
-44.990656 -14.324199 -43.691998 18
-24.607481 -0.363928 -1.401058 18
-40.280451 -8.438499 -25.578546 18
-49.918791 -29.979637 -5.019285 18
-46.371085 -46.774334 -15.943368 18
-20.968897 -0.147107 -57.298016 18
-31.483451 -2.165881 3.661649 18
-48.063377 -42.773272 3.826385 18
-49.895243 -29.697928 -37.708346 18
-34.518029 -3.849173 -45.967891 18
-47.464394 -44.400611 -27.881174 18
-39.802941 -7.946143 -10.510609 18
-41.388247 -9.580738 0.122007 18
-21.199949 -0.160875 -48.832483 18
-49.950309 -33.131842 -19.378634 18
-49.810643 -28.685817 -49.399562 18
-27.485874 -0.535450 -27.228685 18
-49.819327 -34.742550 0.842272 18
-37.434204 -5.881540 -47.891181 18
-37.522916 -5.946090 -45.508165 18
-49.951373 -32.694962 -22.877418 18
-49.177258 -38.997464 -29.303694 18
-49.425430 -25.884070 3.481232 18
-42.106578 -10.412490 -15.729024 18
-45.102554 -14.512920 1.318663 18
-24.801561 -0.375493 -8.938393 18
-32.498126 -2.665252 -32.034090 18
-33.454647 -3.207124 -26.095424 18
-48.613668 -41.116524 -39.614999 18
-46.372226 -46.771816 -60.959614 18
-48.357737 -41.956167 -16.601548 18
-47.221988 -44.926899 -49.511626 18
-47.087467 -18.325463 -42.749483 18
-43.073552 -11.597906 -15.382844 18
-46.102016 -16.288907 -31.437258 18
-40.888272 -9.065218 3.558018 18
-49.125052 -39.193757 -39.596399 18
-45.279057 -14.826556 -17.365593 18
-43.967604 -12.823733 -7.117783 18
-27.562251 -0.540001 -45.253226 18
-46.427809 -46.651159 -36.356054 18
-49.601593 -26.915000 -18.340141 18
-37.762025 -6.152622 -52.778676 18
-46.441943 -16.905733 -22.621981 18
-26.185914 -0.457986 -15.561166 18
-49.267069 -38.549889 -7.451484 18
-25.591833 -0.422585 -59.510137 18
-22.423108 -0.233762 3.160099 18
-23.276524 -0.284617 -54.253821 18
-44.295407 -13.304508 -59.425997 18
-49.040693 -39.510938 3.540160 18
-48.886794 -40.089590 -53.722801 18
-49.930295 -33.488681 -42.232712 18
-45.107598 -14.521882 -2.331710 18
-46.030910 -16.162555 -40.144948 18
-36.766792 -5.395907 -36.727381 18
-48.280608 -21.381478 3.601885 18
-28.039526 -0.700397 -36.938300 18
-49.639152 -36.434502 -28.410405 18
-29.982865 -1.457579 1.073985 18
-49.315180 -25.238866 -54.365795 18
-49.827085 -34.654889 -40.733927 18
-21.508480 -0.179260 -24.877383 18
-36.491214 -5.195387 -7.611601 18
-47.279752 -44.801493 -3.394407 18
-40.797314 -8.971432 -6.544823 18
-38.709687 -6.975197 -9.034953 18
-49.841951 -34.486914 -39.183660 18
-49.429081 -37.628809 -16.230565 18
-31.847735 -2.345163 -51.014582 18
-49.947205 -33.297612 -49.237539 18
-36.023340 -4.854944 -23.145342 18
-49.870894 -34.159880 -45.771759 18
-48.218411 -21.206156 -41.128595 18
-47.223470 -44.923693 -0.813902 18
-36.882524 -5.480118 -42.467983 18
-48.022221 -42.887516 -39.951074 18
-37.680252 -6.081643 -29.994714 18
-49.115510 -39.229633 -34.051355 18
-26.396505 -0.470535 -47.658508 18
-45.445234 -15.121842 -28.685371 18
-34.405349 -3.781139 -38.659909 18
-48.296315 -42.126669 -43.642214 18
-34.042051 -3.561787 -19.754522 18
-25.234735 -0.401306 -17.019148 18
-40.211757 -8.367669 0.460422 18
-34.736899 -3.981322 -29.610089 18
-20.989397 -0.148328 -5.405464 18
-42.591835 -11.007368 -25.351583 18
-49.375587 -37.932940 -43.603692 18
-23.154596 -0.277351 -56.311372 18
-37.775843 -6.164617 -38.694360 18
-49.730694 -35.744037 -9.310466 18
-46.722102 -17.521899 -4.703251 18
-45.697043 -15.569292 -34.921752 18
-49.387031 -25.659350 -15.631328 18
-27.220322 -0.519626 -58.853649 18
-47.396257 -19.004597 -37.042694 18
-39.023044 -7.247191 -14.003472 18
-21.930618 -0.204415 -44.585380 18
-49.818343 -34.753663 -27.326020 18
-47.974336 -20.518157 -13.937407 18
-37.535289 -5.955815 -35.331939 18
-47.288101 -44.783363 -8.003141 18
-49.895712 -29.703531 -6.764058 18
-49.530979 -37.049497 -12.308772 18
-30.260480 -1.565746 -58.691442 18
-49.163339 -24.513439 -8.534623 18
-49.509175 -37.173453 -56.106941 18
-23.754294 -0.313087 -19.985992 18
-48.684447 -22.676847 -34.446998 18
-32.839381 -2.835639 0.315387 18
-43.626033 -12.322766 -9.271057 18
-28.804021 -0.998267 -40.608122 18
-49.240370 -24.808856 -46.349460 18
-49.340181 -25.385179 -37.143231 18
-46.806581 -17.707697 -14.892113 18
-28.214554 -0.768593 -15.959773 18
-49.254558 -38.621017 -30.958200 18
-34.928779 -4.097176 -51.443154 18
-40.274760 -8.432631 -14.995456 18
-49.954346 -31.475051 -29.909640 18
-41.503491 -9.699565 -26.334818 18
-43.463526 -12.084424 -38.439589 18
-40.207326 -8.363100 2.291905 18
-45.200732 -14.687377 -46.016943 18
-23.631720 -0.305783 -49.008782 18
-33.419907 -3.186149 -52.307515 18
-38.701045 -6.967695 -18.789367 18
-47.768377 -19.937599 -59.133662 18
-48.934146 -23.634464 -0.940157 18
-37.460746 -5.900853 -22.244180 18
-36.530711 -5.224126 -3.695082 18
-48.949526 -39.853721 -10.906505 18
-49.492791 -37.266603 -38.384677 18
-47.866433 -20.214001 -51.344981 18
-41.172504 -9.358286 -32.391563 18
-48.190699 -42.419845 -41.575643 18
-48.244576 -42.270289 -34.202573 18
-44.629447 -13.794430 -27.672099 18
-22.822778 -0.257579 -31.723605 18
-44.859557 -14.131922 -55.894847 18
-22.756943 -0.253655 -1.977214 18
-48.775848 -40.506740 -12.658746 18
-49.951248 -32.746530 -33.260808 18
-48.838557 -23.267872 -13.450928 18
-32.833376 -2.832013 -42.123567 18
-39.553065 -7.707252 -29.050509 18
-43.819318 -12.606248 -12.542168 18
-48.564107 -22.215331 -39.874457 18
-33.330459 -3.132142 -46.710616 18
-47.876997 -20.243777 -48.918317 18
-27.783889 -0.600793 -5.973124 18
-27.258416 -0.521896 3.711513 18
-49.070442 -24.157169 -38.687187 18
-49.694522 -27.458840 -9.020545 18
-31.681896 -2.263546 -40.967481 18
-25.772172 -0.433331 -45.987133 18
-41.407227 -9.600308 -14.052360 18
-32.032938 -2.436310 -35.653284 18
-31.502928 -2.175467 -20.866004 18
-42.234635 -10.569475 -31.700661 18
-45.272530 -14.814957 -54.530425 18
-46.068089 -16.228620 -25.073077 18
-47.710463 -19.774353 -45.608187 18
-30.141161 -1.519256 -10.565478 18
-24.296999 -0.345427 -31.039871 18
-48.263391 -21.332948 -58.090801 18
-49.725356 -27.665483 -22.507760 18
-46.727952 -17.534765 -36.913436 18
-41.478802 -9.674108 -45.556299 18
-47.103499 -45.184150 -57.767226 18
-49.057199 -24.106380 -4.031555 18
-45.718177 -15.606846 -20.760560 18
-49.951164 -32.781144 -2.901163 18
-29.743896 -1.364469 -14.866181 18
-49.407951 -37.748938 -36.655877 18
-43.458772 -12.077451 0.847655 18
-36.002937 -4.840099 -48.530452 18
-47.441352 -19.103777 -13.399261 18
-38.529099 -6.818445 -36.182464 18
-49.953826 -31.688136 -60.719660 18
-47.136963 -45.111498 -20.177658 18
-20.990635 -0.148402 -3.815680 18
-47.286907 -44.785955 -51.274517 18
-47.832176 -43.415055 -9.029688 18
-49.496594 -26.300530 -26.468977 18
-45.327513 -14.912660 -57.312824 18
-49.950944 -32.871228 3.743219 18
-42.160675 -10.478807 -1.808388 18
-31.438634 -2.143824 1.842133 18
-49.929191 -33.501158 -14.665117 18
-49.954477 -31.421272 -18.313786 18
-35.377687 -4.385143 -32.178034 18
-24.252312 -0.342764 3.382974 18
-49.432196 -37.611100 -8.879262 18
-49.442258 -25.982547 1.413007 18
-49.817291 -34.765554 -20.014114 18
-47.203192 -44.967708 -25.932927 18
-42.467662 -10.855144 -4.197386 18
-49.647345 -27.182749 -16.473690 18
-48.285924 -21.396464 -38.158679 18
-49.950767 -32.944010 -44.374037 18
-27.758474 -0.590891 -25.114725 18
-30.639090 -1.750331 -28.306045 18
-47.619733 -44.004769 -10.969387 18
-42.593050 -11.008857 -13.842843 18
-47.595195 -44.072882 -35.106478 18
-41.098594 -9.282079 -16.273194 18
-28.536268 -0.893942 -10.022160 18
-31.371115 -2.110595 -9.070860 18
-47.457483 -19.139254 -9.187850 18
-49.745437 -35.577452 -44.808073 18
-48.003733 -42.938836 -46.329974 18
-49.807714 -34.873770 -25.554268 18
-38.829935 -7.079572 -11.501127 18
-41.520220 -9.716814 -3.263980 18
-30.870973 -1.864451 -43.121529 18
-35.937541 -4.792514 -41.070520 18
-33.485913 -3.226002 -15.888526 18
-46.427527 -46.651752 -58.605134 18
-44.704885 -13.905071 -38.532097 18
-49.792887 -28.473392 3.629304 18
-49.939459 -30.226898 -58.924593 18
-49.797996 -28.534505 -3.636727 18
-49.950003 -33.257438 -59.139332 18
-49.778575 -35.203014 -47.425785 18
-49.930542 -30.120224 -10.749096 18
-46.453414 -46.595549 -54.452341 18
-22.610768 -0.244945 -35.634104 18
-49.883453 -29.556870 -29.705992 18
-49.017836 -23.955420 -19.630510 18
-49.876308 -34.098694 -3.845207 18
-33.269798 -3.095516 3.841594 18
-49.540885 -36.993179 -5.639582 18
-46.745297 -17.572912 2.146686 18
-28.022693 -0.693838 -61.043371 18
-25.622625 -0.424420 -24.496733 18
-47.458498 -44.413412 -43.561946 18
-34.085675 -3.588126 2.083414 18
-28.422615 -0.849660 -57.585871 18
-42.793331 -11.254382 -6.015371 18
-49.664273 -27.281816 -37.341367 18
-29.685958 -1.341895 -24.077733 18
-46.330476 -16.694867 -1.181988 18
-42.641240 -11.067933 -52.470267 18
-49.761425 -28.096991 -25.031465 18
-40.514315 -8.679634 -44.480872 18
-25.752362 -0.432151 0.285476 18
-21.036795 -0.151153 -50.749598 18
-48.994024 -39.686413 -59.861056 18
-47.082193 -18.313862 -44.355698 18
-46.041765 -16.181843 -60.669293 18
-46.415707 -16.848031 -50.175510 18
-26.138534 -0.455163 -22.523859 18
-27.844749 -0.624506 -0.664036 18
-31.463000 -2.155816 -33.455962 18
-46.469119 -46.561499 -4.251039 18
-49.761790 -28.101355 -5.449154 18
-49.953152 -31.964926 -50.780968 18
-49.240925 -38.698527 2.034293 18
-49.955861 -30.853075 1.091541 18
-23.073240 -0.272503 -23.462283 18
-49.592857 -26.863880 -21.093979 18
-44.435606 -13.510131 -57.507506 18
-47.564709 -44.157507 -16.522425 18
-23.012031 -0.268856 -29.431647 18
-40.931444 -9.109732 -55.162048 18
-49.953700 -31.739984 -16.032257 18
-44.584226 -13.728106 -11.086235 18
-49.374098 -25.583666 -1.325759 18
-21.362535 -0.170563 1.690758 18
-42.702258 -11.142735 -10.256148 18
