-6.705260 -0.657448 -27.994375 4
-3.681606 16.930360 -58.955312 4
-7.871349 9.690361 -58.768781 4
16.147421 17.729143 -28.215367 4
21.576681 7.843714 -6.815158 4
19.064673 14.566626 -13.421539 4
8.462411 -8.788511 -18.895358 4
17.532526 -4.251726 -20.531537 4
14.628443 18.814882 -13.216422 4
15.557735 18.184429 -16.460836 4
-0.384852 19.320451 -32.508380 4
20.635615 0.605711 -51.541668 4
21.642386 7.138354 -60.706257 4
-8.213904 4.418685 1.665745 4
12.054711 -7.900300 -17.448879 4
-2.861078 -5.461663 -2.046007 4
1.342773 -7.911093 -22.235464 4
17.135520 16.852057 -58.937249 4
16.420778 17.502658 -23.260158 4
20.898237 10.873734 -22.246092 4
-1.994937 -6.126667 6.841785 4
-7.729773 1.954698 -2.806751 4
21.597977 4.519582 -31.268619 4
6.455749 21.091496 -40.802751 4
-8.101697 8.594014 -27.165058 4
-7.277653 11.558966 -47.177632 4
-7.468547 11.053347 -2.416510 4
-5.072008 -3.209168 1.564949 4
4.576579 -8.746478 -4.147230 4
6.552125 -8.893803 -23.265952 4
20.316165 -0.147029 -49.775094 4
-7.863913 2.478818 -8.719939 4
11.091983 20.431295 -5.728058 4
21.086920 1.903745 -48.776393 4
10.270904 20.657150 -54.879232 4
18.249469 15.640827 -30.159999 4
-7.451505 11.105659 -56.743679 4
10.321504 -8.446574 -8.427196 4
21.677859 5.816302 -3.713247 4
-8.180454 4.152302 -51.799160 4
9.163263 20.889240 -22.535896 4
13.205642 19.599978 -11.713622 4
20.942560 1.460436 -2.197870 4
-8.307140 6.074462 -47.086053 4
-7.321348 0.749286 6.828500 4
-3.683672 -4.730760 -15.517388 4
-7.021483 0.015904 -2.236120 4
12.454323 19.939373 -3.939808 4
-5.274075 15.144348 -48.325496 4
1.672111 20.234232 -39.559283 4
20.893883 10.887170 -11.268255 4
18.376323 15.487253 -48.640006 4
21.435595 8.786476 -18.354333 4
4.532324 -8.740852 -29.836549 4
13.894399 19.244413 -52.551465 4
14.174519 19.090138 -42.011183 4
-4.640320 -3.731786 -42.733087 4
15.191456 -6.252881 -4.063920 4
21.599273 4.529782 -11.117482 4
13.751766 -7.125273 -42.637517 4
-6.481609 13.268845 -52.915052 4
3.244642 20.693913 -30.842118 4
21.234919 2.478334 -29.834136 4
18.560075 15.262226 -3.426879 4
0.464905 19.740932 -22.861147 4
19.812836 -1.143587 -21.824168 4
1.419902 -7.941701 -53.643087 4
-4.190986 -4.220631 -52.388182 4
20.654502 11.543753 -24.529616 4
21.677881 5.843717 -40.162143 4
20.451801 0.142471 -3.681064 4
6.114137 21.084740 -8.374487 4
11.044711 -8.248852 -33.056959 4
21.663733 5.396730 -56.281297 4
7.491636 21.070337 -28.972827 4
-7.949192 9.388107 -45.789880 4
16.963377 -4.816580 -44.005368 4
-8.176546 4.121185 -1.071552 4
-8.182281 4.166857 -21.447649 4
19.206477 -2.151340 5.653585 4
16.119472 17.752300 1.775160 4
9.903289 20.747516 -34.036345 4
21.676574 5.598404 -42.592253 4
-5.946785 -1.976458 -5.440058 4
-1.927109 -6.176030 -28.123249 4
-3.785744 16.832717 -17.198440 4
20.576493 11.741219 -44.443759 4
20.675845 11.489726 -1.510175 4
6.913584 21.091140 -24.560714 4
6.793930 -8.893976 -37.824240 4
-8.195042 4.268477 -19.146813 4
16.208117 -5.481387 -13.178202 4
0.884658 -7.729290 -0.368107 4
13.156874 -7.425740 -20.489063 4
-7.311793 0.725100 -15.848783 4
2.992901 -8.432167 -7.485191 4
20.999582 1.635472 -35.759656 4
4.126493 -8.676305 -43.442420 4
20.337269 12.298928 -52.462708 4
5.798836 21.065138 -18.391055 4
13.692938 19.355367 -5.524912 4
10.949583 -8.279683 -14.050396 4
-6.879355 -0.286738 -61.008325 4
13.190640 -7.409883 -36.865399 4
21.533222 8.189806 -29.956570 4
0.305566 19.666100 -20.385902 4
18.821486 14.901865 6.290163 4
4.794028 -8.774121 -14.486533 4
13.918627 -7.033713 -55.835374 4
17.977801 -3.771382 -27.729074 4
21.630682 7.326633 -55.794660 4
14.176288 -6.892327 -49.725543 4
1.736044 -8.057045 -18.696764 4
-2.094620 18.251428 -0.607109 4
14.445637 18.931079 -23.059385 4
0.421560 19.720575 6.755747 4
-6.749940 -0.562310 -46.470413 4
5.243233 -8.831225 -24.972523 4
16.896481 -4.879303 -3.995129 4
-2.670995 17.816050 -22.445283 4
-8.293443 6.790425 -7.177768 4
21.384949 9.053072 -42.831789 4
2.785498 20.576403 -41.302716 4
-8.278122 5.166671 -55.974381 4
21.657870 5.304645 -36.186774 4
-3.256827 -5.132195 -30.414208 4
11.600379 -8.068762 -47.761792 4
-2.220046 -5.962842 -6.358661 4
0.026566 19.535070 -18.424371 4
9.302804 -8.664811 -27.699668 4
-2.279925 -5.919265 -35.038946 4
4.070927 -8.665663 -49.526286 4
17.818962 16.143899 -56.818835 4
21.312562 2.779769 -34.177476 4
-3.690510 -4.724329 -27.977146 4
19.902944 13.176848 -2.642186 4
20.849373 11.024505 -18.767858 4
-7.826400 9.864890 -39.004091 4
4.997671 20.997095 5.569742 4
21.473125 8.588919 -46.701245 4
-8.301138 6.669569 -57.926414 4
-8.307084 6.149564 -42.499255 4
21.427387 3.366963 -37.722419 4
7.773482 21.052392 -0.713412 4
19.878555 -1.024264 -42.613603 4
17.778845 -3.989839 -47.792476 4
4.579004 -8.746786 2.412818 4
14.531716 -6.678595 -16.285096 4
-8.307438 5.674301 -60.952365 4
21.336611 2.893035 -20.921505 4
-6.006035 -1.882940 -57.047955 4
2.137214 20.384970 -10.884274 4
21.621570 4.734552 -8.614523 4
3.838529 20.818584 -25.150593 4
-8.276254 5.136613 -39.922895 4
-3.715708 16.898384 -8.827339 4
11.852022 -7.980379 -22.059530 4
-4.420927 -3.975382 -47.990966 4
21.503961 3.779819 -48.394972 4
-0.374941 -7.128820 -60.661612 4
-4.634244 15.935685 -31.534591 4
15.155005 18.477520 -54.236228 4
-5.304180 15.102978 -37.921104 4
-2.550748 17.915381 -13.750172 4
-4.583018 -3.801158 -20.452675 4
14.294730 -6.827335 -10.282995 4
15.698109 18.082271 -46.387355 4
9.650353 20.795956 -48.375923 4
9.722580 20.782124 -57.403756 4
21.674544 5.566527 -51.093129 4
18.020329 15.918233 -19.243723 4
-7.973717 9.262181 2.662189 4
16.113648 17.757125 -55.709809 4
1.454291 -7.955349 -61.104786 4
16.561741 -5.189273 -11.215698 4
4.148157 -8.680454 -51.454530 4
21.621766 7.470051 -35.509934 4
17.723933 16.245249 -27.362322 4
-0.232615 19.403988 -49.646801 4
16.237254 -5.457318 6.653834 4
18.288207 -3.396721 -10.706930 4
-1.458573 -6.489686 -17.959701 4
0.179601 -7.409328 -41.725987 4
-1.898278 -6.197012 -44.840406 4
6.294833 -8.893620 -10.147526 4
-2.762031 -5.543727 4.914785 4
-4.976865 15.522160 -45.646984 4
-1.036324 18.954828 -55.822855 4
16.700059 -5.063473 -55.965134 4
10.565833 -8.384042 -51.168331 4
11.682190 20.239035 -22.576560 4
-6.560122 -0.928219 1.724844 4
-1.419672 18.711942 -47.668052 4
16.284755 17.615357 -0.830773 4
-1.113128 -6.709263 -13.546856 4
19.731933 -1.290480 -57.405832 4
20.029686 -0.749863 -0.479464 4
-3.094805 -5.268013 -13.628866 4
8.062562 21.033987 -27.037019 4
19.700233 -1.348037 -31.614694 4
-4.891974 15.624618 -7.019530 4
15.596209 18.156430 -52.001559 4
-6.899898 12.440554 -20.630146 4
12.368014 -7.776520 -59.799401 4
-8.294044 6.780986 -9.485672 4
8.227789 -8.817980 -51.801029 4
1.481019 20.162783 -27.204436 4
-5.871372 14.292302 -32.238628 4
21.403158 8.957223 -24.053336 4
7.553408 -8.868878 -26.512089 4
-3.176622 17.398372 -29.225956 4
13.870671 19.257481 -36.629687 4
-6.250670 13.688122 -47.202544 4
-0.263290 -7.190312 -15.440996 4
12.925445 19.732086 -14.366578 4
11.219633 20.389713 -42.875894 4
13.381688 19.516976 -50.573945 4
19.961907 13.069401 -17.361116 4
13.535767 19.441928 0.494108 4
18.772465 -2.771841 -50.096922 4
18.091460 15.832119 4.548832 4
11.987584 -7.926821 -30.810796 4
19.618999 13.694276 -41.875540 4
19.388482 14.062187 4.152774 4
20.955138 10.698165 -33.396197 4
19.960724 13.071556 6.340462 4
17.043443 -4.741508 -37.134328 4
19.146281 -2.246040 2.668517 4
-8.307430 5.685822 -29.778616 4
-5.841823 14.338789 -29.824514 4
-1.041410 18.951606 -7.040715 4
21.511714 8.361088 -4.178796 4
20.084421 -0.638569 -26.322490 4
20.991819 10.584987 -54.337809 4
0.827468 19.904585 -56.760352 4
21.677766 6.569261 -24.242469 4
-6.020344 14.057939 -6.586138 4
12.556715 -7.701967 -4.014076 4
7.736832 21.054726 -20.729996 4
20.903439 10.857685 -47.081642 4
21.167603 9.981338 -40.214557 4
-0.178728 19.433557 -16.069545 4
5.639648 21.055242 -21.885730 4
5.089152 -8.811637 -36.280542 4
-3.032338 -5.319769 -37.387907 4
21.519242 8.301142 -58.469033 4
-2.156644 18.206440 -58.323844 4
-3.227196 -5.158323 -4.444023 4
19.113430 14.496345 -11.198735 4
-5.387007 14.989159 -9.164921 4
1.647678 20.226314 -16.908995 4
8.400678 -8.796265 -49.785247 4
-7.560089 10.772345 -51.603294 4
-7.857509 2.453795 -35.958033 4
-0.175184 -7.238836 -28.659332 4
-8.307439 5.673130 -27.631823 4
14.999020 18.579330 -2.895769 4
17.489817 16.494939 -34.652419 4
-5.620693 14.668034 -4.544140 4
19.144447 14.447386 -52.335599 4
-7.726138 1.940493 -0.341045 4
21.554064 4.174052 -57.818397 4
16.209335 17.677845 -32.253264 4
-7.742407 2.004063 -31.533855 4
-8.266411 7.214975 -0.358857 4
9.832640 20.761046 -50.560730 4
6.101396 21.083948 -56.173997 4
13.872325 19.256570 -39.288509 4
13.852305 -7.070105 -45.295491 4
16.758532 -5.008648 -0.583850 4
3.459114 20.746516 -33.844878 4
5.564338 -8.852895 6.720844 4
6.459313 21.091493 -43.153081 4
9.691052 -8.591067 -21.933355 4
8.493636 -8.784589 -46.909450 4
18.246919 15.643914 -0.642900 4
-6.889108 -0.265970 -21.148212 4
8.905041 20.929797 -14.307232 4
15.973423 17.873306 -42.457212 4
-1.773678 18.484222 -36.210451 4
-7.993041 3.033947 -11.974351 4
1.575011 -8.003257 -43.964723 4
12.800139 -7.593278 -6.110112 4
21.646519 5.126384 -1.390443 4
-7.181217 11.802000 -60.497432 4
0.509709 19.761973 -45.221618 4
2.849352 -8.395192 -59.612825 4
-7.651615 10.491395 -19.524769 4
10.661519 -8.359552 -19.436948 4
2.402139 20.470832 -44.279449 4
2.088624 -8.171901 -3.228061 4
-6.778826 12.697355 -27.026851 4
-5.516983 14.810550 -35.439772 4
17.432345 16.556234 -39.678526 4
3.972710 20.844071 -14.108000 4
-0.719679 -6.938958 -38.212089 4
0.867440 -7.722457 -36.066420 4
-1.393721 18.728384 -20.107071 4
17.521154 16.461517 -46.971958 4
20.609785 0.540615 -11.984338 4
21.537701 4.045301 -13.547822 4
0.514892 19.764408 -51.548281 4
-4.576917 16.004875 -54.850518 4
-8.062136 3.397657 -38.414913 4
7.559374 21.066024 -51.451223 4
-6.180267 -1.607939 -37.838432 4
12.796277 -7.595092 -34.584534 4
-7.016564 0.005430 -0.224435 4
-7.281155 11.550142 -37.193879 4
-8.306883 6.419498 -2.617662 4
13.085613 -7.459208 -14.161527 4
-4.758514 -3.588696 -3.576562 4
10.928811 -8.286415 2.271826 4
-8.307261 5.912607 4.193597 4
20.036267 -0.737915 -16.589532 4
-8.199935 4.307440 -44.188010 4
19.749477 13.456507 -22.816330 4
5.851800 21.068431 -5.666009 4
-6.732005 -0.600500 -33.452352 4
6.838407 21.091199 2.242680 4
21.371425 3.074791 -3.923354 4
15.714392 -5.873557 -27.953680 4
-6.421168 -1.181432 -54.520257 4
-0.673246 19.162202 -11.428034 4
21.658869 5.320343 -6.515034 4
-2.441378 17.999909 -53.475673 4
-4.394581 -4.003483 -35.334338 4
21.201525 9.848795 -35.620477 4
6.237225 -8.893579 -49.879398 4
20.405699 12.153217 0.963322 4
-0.796493 19.094573 -28.509170 4
4.733644 -8.766445 -41.095530 4
11.844244 -7.983452 -0.494221 4
14.991010 18.584421 -57.741683 4
14.805537 18.702314 -44.133109 4
21.278384 2.647080 -51.092743 4
6.063076 21.081566 -52.845091 4
0.677819 19.840925 -47.629766 4
-0.269929 -7.186656 -43.652816 4
18.123703 -3.595277 0.482325 4
-1.134973 18.892325 -40.782531 4
-4.202660 16.405428 -43.609896 4
-2.475168 17.975400 -43.939527 4
-0.907988 -6.835248 4.972357 4
19.566336 -1.585210 -45.718282 4
20.934836 10.760810 -58.635616 4
-7.674741 10.420406 -29.707482 4
-4.294618 -4.110100 -17.791742 4
-4.195530 -4.215784 -11.564655 4
14.324906 19.007314 -33.620938 4
21.395630 8.996850 -21.149875 4
-0.279357 19.378339 -53.911525 4
3.380040 20.728566 -37.730572 4
9.300517 20.862954 0.894591 4
-7.321866 11.447544 1.325852 4
-1.468337 18.681108 -34.311686 4
21.316246 9.400551 -1.348550 4
20.893992 1.311349 -44.035889 4
9.575989 20.810198 -18.792515 4
20.089113 -0.628618 -36.231205 4
5.623969 -8.856691 -7.573957 4
15.824200 -5.793905 -47.992999 4
-6.583986 13.082976 -50.578505 4
16.392227 -5.329301 -53.153384 4
19.029786 14.614718 -34.484621 4
18.842372 -2.675782 -30.132872 4
-2.305883 -5.900373 -42.717108 4
2.962734 20.621763 -35.689666 4
21.365779 3.045317 -6.521585 4
19.542418 13.819206 -60.994402 4
3.190768 -8.483133 -55.302699 4
7.039235 21.091042 4.604416 4
7.046859 -8.894156 -60.600623 4
-2.146880 -6.016089 -25.860903 4
20.720372 11.377013 -42.214049 4
-7.148970 0.312942 -36.401640 4
-2.577089 17.893622 -3.352726 4
-3.034892 -5.317653 1.635868 4
4.257415 20.898150 -60.298228 4
16.987432 16.991329 -15.972602 4
-0.347288 19.341063 -58.497300 4
21.678146 6.184703 -21.458251 4
17.353704 16.640107 -51.983539 4
-3.050266 17.502749 -20.104581 4
14.519520 -6.686322 -6.330978 4
16.884580 -4.890462 -17.516747 4
11.387192 20.335131 -47.047009 4
21.262100 9.612115 -13.468280 4
17.333414 16.661746 -37.230122 4
-3.556457 -4.850403 -54.519998 4
-3.264543 17.321408 -26.015255 4
16.665169 17.294409 -25.517634 4
14.520395 18.883561 -30.336917 4
12.138901 20.064549 -48.953888 4
-8.127650 8.458519 -37.674887 4
-5.248978 -2.982300 -46.274207 4
-4.266377 16.337681 -12.040411 4
10.790810 -8.326463 -41.261637 4
8.485970 -8.785552 -13.491294 4
2.442082 20.483777 6.602041 4
19.189499 -2.178049 -6.986014 4
1.024909 -7.784949 -56.036776 4
16.804424 -4.965618 -60.892483 4
5.952935 -8.877637 -12.447713 4
16.712813 -5.051515 -46.066205 4
-7.586655 10.690798 -25.901563 4
15.669785 18.102884 4.254769 4
14.416298 -6.751720 -29.962299 4
10.768915 -8.332066 -43.528384 4
-6.613586 13.029236 -58.569855 4
7.998493 -8.841237 -35.693773 4
-8.250371 4.720049 -16.369436 4
15.885996 17.945534 -35.195808 4
14.239583 19.054305 5.090687 4
0.826165 19.904070 -35.320260 4
6.161352 -8.890907 -18.951799 4
21.516219 3.876266 -41.289420 4
18.073817 -3.655490 4.983679 4
-8.213378 4.414501 -58.843889 4
0.604224 19.806362 -12.952241 4
19.551607 13.804702 -38.459756 4
21.678157 6.198856 -29.780170 4
-0.854336 -6.864796 -22.663110 4
8.911821 -8.732065 2.484978 4
13.782053 -7.108654 -27.591231 4
8.774324 -8.749335 -6.248270 4
-5.941553 -1.984715 -21.372062 4
21.407643 8.933612 -11.280664 4
16.470465 17.461491 6.512975 4
8.502588 -8.783465 6.870966 4
21.469017 8.610544 -38.510441 4
8.266669 -8.813096 -8.353730 4
8.285566 21.008548 -58.922919 4
12.386369 19.966341 -40.731265 4
3.651156 20.782993 -53.938083 4
-2.490574 -5.765963 -23.957386 4
20.252748 -0.281540 1.805991 4
21.259881 9.620786 -27.986964 4
4.181913 -8.686918 -18.760315 4
-8.275820 7.067210 -50.370380 4
4.244943 20.895780 -43.027855 4
-7.970174 9.280679 -17.967355 4
21.535476 4.027791 -43.755703 4
-6.928165 -0.182804 -13.341551 4
-0.311340 -7.163848 -20.340072 4
15.905495 -5.731371 3.851000 4
-5.472560 -2.674087 -16.030229 4
3.504045 20.755050 -46.374709 4
13.000078 19.696897 -55.487978 4
-4.474329 -3.918425 -57.531642 4
21.625481 7.410295 -49.375596 4
-8.083930 8.686774 -51.905982 4
19.384196 -1.871753 -34.218811 4
11.889538 20.163508 -0.970509 4
6.479022 -8.893751 -3.460531 4
14.372465 -6.779491 -12.501101 4
14.957803 -6.408640 -23.748020 4
8.140986 21.026928 6.862589 4
-4.988781 -3.309925 -28.864558 4
-4.085594 -4.333039 3.543381 4
-2.936911 17.596388 -55.992700 4
5.172559 21.019061 -0.073644 4
21.301863 9.456751 -48.634020 4
21.479760 3.640397 -22.804776 4
-6.203091 13.770442 -60.829303 4
18.105065 -3.617773 -5.822726 4
-2.833738 17.681614 -7.231575 4
3.323504 20.714097 -6.235640 4
19.998159 13.003338 -58.674922 4
17.067418 -4.719028 -29.266934 4
7.629435 -8.864157 -15.392855 4
-1.057588 -6.744566 -9.768959 4
15.575862 -5.974043 -33.306751 4
20.962824 1.522639 -27.910993 4
0.818436 19.901017 -4.385190 4
19.602133 -1.526152 -10.557622 4
12.194555 -7.845050 -11.168216 4
10.244315 -8.466329 -57.566638 4
3.116657 20.661157 -48.655187 4
3.210553 20.685189 2.136635 4
18.235526 15.657707 -32.849508 4
21.634149 7.270861 0.115815 4
-7.306394 11.486536 -6.756787 4
21.542379 4.082110 -24.985179 4
-7.361757 0.851577 -5.666656 4
11.701694 20.232682 -17.697712 4
0.723455 -7.665316 -8.131732 4
14.266984 19.039214 -9.724748 4
21.656721 6.907777 -11.604337 4
4.161577 -8.683024 0.197587 4
4.099829 20.868217 -11.096357 4
21.069226 10.346149 -52.268517 4
-6.353250 13.501885 -16.834611 4
13.382852 19.516427 -46.902935 4
2.090965 20.369981 -52.663602 4
19.233617 14.306636 -19.125192 4
9.406876 20.842585 -9.110038 4
4.024004 -8.656677 -11.361895 4
10.493193 -8.402633 -4.818251 4
10.042983 -8.517857 -35.173436 4
20.275612 12.430219 -49.290676 4
1.304670 20.093113 -9.130106 4
2.169731 -8.198323 2.347845 4
-8.064763 3.411485 -46.331093 4
20.905511 10.851290 -3.917894 4
9.316761 20.859844 -52.675174 4
-6.078967 -1.767826 -35.717076 4
2.225626 -8.216531 -30.535525 4
21.620651 7.487977 -44.666355 4
-5.466629 14.879745 3.294797 4
4.942777 -8.793030 -60.301165 4
20.638646 11.583891 -39.122839 4
19.137562 14.458253 -27.690976 4
14.706327 -6.567967 -35.322212 4
20.055497 -0.699918 -24.018460 4
12.982263 19.705297 -58.323284 4
16.149048 -5.530182 -25.973102 4
-7.116131 0.229814 -10.903493 4
18.707172 15.059449 -5.853641 4
-5.171158 15.285774 -14.045017 4
20.635815 11.591055 -27.451279 4
18.508917 15.326729 -40.792784 4
5.546757 21.049467 -15.844851 4
-7.754638 2.051850 -22.896339 4
19.121460 -2.285088 -4.094306 4
-7.224233 0.503457 3.437902 4
-6.608891 13.037760 -22.692296 4
18.826857 -2.697102 -40.479502 4
18.853737 -2.660166 -53.865469 4
-0.496733 19.259059 -1.515231 4
5.325317 21.035700 -31.986955 4
18.949165 14.725856 -58.240397 4
15.852112 17.970193 -37.526326 4
-1.910146 -6.188375 -54.967900 4
-8.014626 9.048603 -10.223168 4
-3.972045 -4.454147 -25.091080 4
-6.688046 12.889904 5.803896 4
-3.969471 16.653366 3.799670 4
17.479620 16.505814 -6.938301 4
16.810812 -4.959629 -58.320686 4
12.478965 -7.732685 -50.222684 4
-7.969306 9.285212 -6.017168 4
6.858042 21.091183 -37.607967 4
21.396587 8.991811 1.575961 4
-7.406626 0.965154 -38.339840 4
-1.994533 -6.126961 -15.983644 4
15.134895 18.492156 -20.999393 4
21.215945 9.792452 5.702028 4
-8.306916 6.375521 -14.390663 4
11.194978 20.397744 -27.950559 4
-7.756652 2.059719 -42.625826 4
6.962981 -8.894096 -42.514957 4
-1.278751 18.801228 -4.971396 4
21.528398 8.228225 4.152756 4
20.578265 11.736734 -56.299448 4
14.797515 -6.510193 -40.364548 4
20.347511 12.277120 -7.012859 4
-7.590994 1.520195 -58.662098 4
21.069727 10.344601 2.963073 4
16.315211 -5.392921 -35.324376 4
10.751574 20.533342 -32.139847 4
5.578302 -8.853784 -55.067847 4
13.140583 -7.433391 -1.946258 4
-6.590353 13.071417 -24.652328 4
0.292345 -7.462483 -25.325600 4
6.065396 21.081710 -59.460693 4
21.548222 4.128085 1.778833 4
10.777040 20.526782 -25.039543 4
19.837331 -1.099113 -55.232801 4
19.607948 13.714414 -0.498810 4
-8.067612 8.771967 -41.352314 4
12.071821 -7.893540 3.856644 4
17.510383 16.473005 2.796581 4
-8.192756 4.250269 -23.613557 4
-4.980910 15.517278 -50.698453 4
16.512166 17.426940 -30.165978 4
-8.304344 5.588687 6.177337 4
8.173656 -8.824779 -58.744987 4
-8.145781 8.316955 -24.232186 4
15.566330 -5.980957 -42.479914 4
10.961282 -8.275891 -37.527367 4
-5.891543 -2.063650 -59.847703 4
12.555673 19.899152 -33.234002 4
-5.540668 14.778002 -43.881053 4
21.549084 8.063491 -26.085710 4
4.204744 20.888145 -19.762603 4
3.340896 20.718548 -3.948033 4
12.904231 -7.544392 6.572966 4
-6.333812 -1.340620 -19.196816 4
18.922903 14.762059 2.067345 4
-7.959228 9.337827 -3.725805 4
-6.249342 -1.494548 -48.334019 4
9.240077 -8.676725 4.661282 4
-1.660458 -6.361361 2.927753 4
-7.894407 9.600826 -48.228133 4
-7.570569 10.740174 -8.898697 4
18.068035 -3.662469 -34.105270 4
16.543520 17.400962 -19.297550 4
3.025781 20.637899 -28.586346 4
4.613514 -8.751173 -27.234565 4
-8.214106 7.779480 -12.586849 4
-2.538283 -5.729109 -51.667058 4
-8.296622 6.740499 -53.329967 4
-4.081003 -4.337936 -32.368593 4
-7.707309 1.879086 2.067186 4
-8.218023 4.451491 -36.719888 4
2.541069 -8.315786 -57.470778 4
2.764615 -8.373366 -25.828556 4
21.389446 3.168880 -54.519538 4
5.694138 21.058629 -46.224624 4
20.710607 0.794702 -53.775084 4
19.968431 13.057511 -5.163106 4
18.352515 15.516076 -54.850953 4
20.161780 12.672607 -20.417376 4
-0.533358 -7.041573 -53.485437 4
17.688785 -4.085591 -12.825765 4
8.852105 -8.739566 -31.381973 4
-1.563229 -6.423163 -32.894898 4
-6.918856 -0.202627 -42.393945 4
6.252336 -8.893590 -52.689314 4
21.678203 6.258435 -33.553406 4
-5.003292 -3.292358 -9.340146 4
0.700804 -7.655057 -5.051197 4
-0.670359 -6.966121 -58.215215 4
6.305550 21.091613 -10.902330 4
17.379893 16.612176 -21.106771 4
21.678074 6.091854 2.759232 4
-7.646306 10.507690 -0.345631 4
15.413623 -6.091727 1.747504 4
1.498686 20.169763 -54.880601 4
15.972718 -5.675840 -19.707416 4
-8.152376 8.265072 -43.440740 4
21.424129 3.349953 -17.653436 4
12.753024 19.813379 -29.610799 4
-5.809491 14.389652 -2.438999 4
20.965893 10.664983 -16.011455 4
0.988989 19.968397 -29.189803 4
-7.279488 0.643326 -26.004456 4
-5.047841 15.436497 -60.938076 4
20.936109 1.440631 -0.270772 4
18.470762 -3.176376 -59.076692 4
-5.389128 14.986244 -53.187792 4
20.467357 12.017480 -9.067555 4
18.312053 -3.367938 -14.575189 4
0.874629 -7.725310 -33.489608 4
5.773509 -8.866213 -21.418621 4
-6.620726 13.016273 -56.309100 4
21.677801 5.741454 -16.529826 4
2.952940 -8.421874 -46.999272 4
-4.746936 -3.602713 -60.164416 4
13.656998 -7.177275 -22.490384 4
10.674176 20.553277 -45.158306 4
-8.283798 6.941909 -26.020813 4
-8.135375 3.793310 -3.547108 4
-8.253829 7.412576 -39.874401 4
14.269802 19.037662 2.560855 4
-4.188746 16.420223 -5.276530 4
-8.251687 7.446225 -55.880508 4
-7.459116 11.082295 6.658928 4
21.678420 6.537339 -19.328852 4
16.318441 -5.390252 -6.109140 4
18.650910 15.137007 -36.540365 4
-5.833150 -2.155814 -41.833879 4
11.818003 20.191897 -36.443620 4
21.524889 3.944491 -15.574137 4
-6.532291 -0.978935 -17.177995 4
-5.140944 15.324126 -57.588133 4
20.364259 12.241457 3.127905 4
12.323115 -7.794258 -54.032923 4
-5.183561 15.268730 -22.836971 4
20.715358 0.806677 -8.243418 4
-4.414062 16.180655 -39.598481 4
-3.880280 16.744077 -14.939551 4
-7.999245 3.066602 -60.997091 4
-0.144133 -7.255937 1.511573 4
-2.979434 17.561261 -61.034662 4
14.095685 -6.936556 -57.927789 4
5.625130 -8.856765 -34.219587 4
-5.264330 -2.961136 -31.224471 4
20.440412 0.116506 -58.489390 4
-5.695823 -2.366314 -13.079342 4
10.811835 20.517820 -12.703871 4
11.494852 20.300061 -19.936382 4
-4.604695 15.971349 -2.812873 4
-4.323830 16.276594 -27.605885 4
3.355487 -8.525560 -20.652381 4
-6.405540 -1.209912 -9.360790 4
14.600614 18.832571 -26.877031 4
3.306431 20.709727 -22.777315 4
18.234854 -3.461118 -56.934109 4
21.056030 1.808745 -41.768699 4
-8.166342 8.155209 -20.045384 4
1.345978 -7.912365 -27.152318 4
8.773112 -8.749487 -11.470373 4
19.457230 13.953671 -45.183883 4
20.483920 0.223418 -29.455443 4
-4.496906 -3.894345 -1.148522 4
-5.171337 -3.088917 -33.431604 4
21.584289 7.783128 6.730281 4
21.551827 4.156453 -60.464238 4
16.084546 -5.583464 -21.842436 4
1.087776 20.007425 -42.431716 4
14.108295 -6.929637 -52.519838 4
-8.188596 7.980149 -60.755346 4
11.894417 -7.963630 -25.390975 4
-6.327738 13.548204 -41.023613 4
-7.444363 11.127584 -17.308143 4
21.632736 4.909918 -53.298944 4
5.245931 -8.831568 -45.402654 4
9.298473 20.863346 3.120374 4
19.304814 14.194254 -50.123459 4
15.921115 17.916645 -6.827166 4
-2.040261 18.290857 -17.478681 4
-0.091126 19.479797 -60.823474 4
8.856607 -8.739000 -44.450117 4
11.382992 20.336499 -38.552530 4
21.305858 9.441140 -56.447149 4
-8.221753 4.481197 -13.914431 4
10.502975 -8.400129 -54.371915 4
-7.705850 1.874582 -33.678475 4
-2.447954 -5.796980 -11.638469 4
6.490933 -8.893760 -47.439473 4
8.429326 -8.792667 -24.461724 4
12.196310 20.041766 6.201861 4
14.082634 -6.943718 -18.553259 4
19.718099 -1.315598 -52.386306 4
-4.522464 16.065396 -0.585110 4
-7.301219 0.698335 -49.307029 4
-3.053852 17.499787 2.054634 4
20.474336 0.199265 -33.605628 4
6.691170 -8.893903 -56.931345 4
-3.425962 17.170058 -45.817088 4
-6.394792 -1.229497 -31.290510 4
12.928775 -7.532865 -8.931940 4
-2.631732 -5.651684 -19.328254 4
-6.687835 12.890352 -39.052783 4
19.683207 13.577271 -25.886818 4
8.397001 20.994382 -6.290253 4
-1.872423 18.412598 3.962295 4
2.449681 20.486240 -50.682103 4
1.983044 20.335004 -60.311879 4
19.006796 -2.449848 -36.342281 4
-0.343521 -7.146125 -46.212931 4
-7.121761 11.951839 -4.301139 4
-7.151712 0.319883 -8.013109 4
-8.255848 7.380879 -45.403838 4
21.140950 2.113512 -14.253400 4
4.680708 20.957285 -27.073775 4
-7.501004 10.953716 -23.818121 4
-8.293625 6.787567 -21.905488 4
-6.542761 13.157821 -13.636123 4
-7.663187 10.455874 -43.861645 4
-3.206210 17.373931 -37.774816 4
6.282514 -8.893611 0.375309 4
10.909520 20.490732 -15.493909 4
19.471673 13.930874 -55.820330 4
2.850908 -8.395593 -13.073639 4
17.267548 -4.531381 -50.083266 4
20.956217 1.502358 -22.516391 4
8.458289 20.986591 -32.360955 4
-8.245932 4.673745 -6.665438 4
1.672271 20.234284 -32.477790 4
10.381591 -8.431196 -45.903156 4
19.915123 13.154655 -30.757810 4
20.537619 11.839622 -60.719338 4
-3.530592 -4.874727 -44.441782 4
7.238468 -8.888438 -28.744344 4
-3.960179 16.663246 -52.501637 4
-8.259438 7.324494 -16.704758 4
6.914303 -8.894062 -31.107765 4
13.931437 19.224015 -25.014251 4
-1.348944 -6.559370 -3.600282 4
1.597270 20.208710 3.298738 4
-1.291889 -6.595637 -40.456811 4
-8.306949 6.331631 -37.888141 4
18.376521 -3.290124 -44.788833 4
5.189227 21.021154 -50.372722 4
-8.058578 3.378929 -54.023779 4
0.008050 -7.328448 -49.004521 4
20.289957 -0.202618 -19.112344 4
-7.627830 10.564405 -12.079236 4
14.632755 18.812141 -49.086064 4
17.698240 -4.075539 2.984708 4
-5.825386 14.364646 -27.530177 4
-5.726038 14.520940 -11.638101 4
21.653955 5.243168 -27.558699 4
-5.264152 15.157983 -41.724871 4
-5.271892 -2.950712 -26.767412 4
16.788729 -4.980334 -23.536992 4
7.943805 -8.844633 -54.840211 4
13.937907 -7.023133 4.475427 4
20.489495 0.237467 -46.582161 4
-5.186486 -3.068446 -23.449385 4
15.660413 18.109705 -40.300117 4
-6.709555 12.844282 -8.539407 4
9.590479 -8.610170 -39.735022 4
-6.963211 -0.108178 -23.840139 4
-7.952379 2.824476 -14.991377 4
-8.307017 6.239328 -4.893851 4
21.593603 4.485161 -19.433673 4
-3.164829 17.408114 -33.072756 4
21.570361 4.302287 6.277791 4
-5.895753 -2.057005 -2.329152 4
7.531743 21.067783 -48.694364 4
19.259151 -2.068473 -25.346933 4
20.057797 -0.695040 4.516573 4
7.405995 21.075790 -16.568888 4
5.410198 21.040977 -28.945225 4
21.677841 5.792858 -48.055838 4
-8.306930 6.356503 -33.490931 4
14.029178 -6.973050 -60.713137 4
-2.997080 -5.348981 -60.139053 4
1.254777 20.073402 -6.850623 4
10.395984 20.624933 -60.999789 4
18.512016 15.322977 -16.784339 4
2.781832 -8.377801 -1.181507 4
-6.324083 -1.358348 -26.118022 4
18.578786 -3.037975 -21.574855 4
-7.594206 10.667620 -34.251193 4
4.764551 -8.770374 -31.976903 4
-4.486487 16.103649 1.467694 4
18.281229 -3.405142 -38.432646 4
-6.639611 -0.783367 -44.313064 4
2.121005 -8.182450 -49.197749 4
21.118754 10.172204 -5.849239 4
16.912169 17.062112 -60.863089 4
8.793740 20.943946 -11.643627 4
3.324636 20.714386 -56.556086 4
18.406721 -3.253673 -2.402928 4
-5.022212 15.467428 5.200409 4
-2.473336 -5.778507 -47.113483 4
-7.790198 2.190793 -47.926303 4
17.632909 -4.144999 -41.457250 4
9.324594 20.858343 -3.670105 4
10.455952 -8.412164 -2.707362 4
-7.414244 11.214737 4.063786 4
3.302192 -8.511833 -39.075042 4
-8.261458 4.898493 -8.809090 4
8.365541 20.998381 -39.310744 4
21.317645 9.395086 -9.353421 4
13.588973 -7.214602 -47.743335 4
8.385140 -8.798216 -2.572290 4
-7.037522 12.148648 -28.977351 4
19.265559 -2.058391 -12.740295 4
-2.479799 17.972041 -10.612417 4
7.034802 21.091046 -35.093907 4
-4.248266 16.356937 -35.656824 4
16.386291 17.531232 -48.774020 4
-1.793883 -6.272987 0.488235 4
6.138140 21.086233 -13.140281 4
1.570789 20.198249 -25.149411 4
-8.061714 3.395434 6.708659 4
2.669908 -8.348972 -34.925873 4
-8.192164 4.245558 -31.696626 4
-8.112806 3.664379 -25.872496 4
2.616410 -8.335192 -41.670991 4
-7.306950 11.485135 -53.755571 4
12.314245 19.994963 -9.826375 4
14.210138 19.070522 -7.705495 4
-8.269811 5.032913 -49.388497 4
-6.816971 -0.419575 -51.559388 4
-0.908419 -6.835010 -51.097095 4
3.212170 20.685603 -1.958118 4
-7.714950 1.902661 -51.220052 4
11.946765 20.140798 -52.498532 4
-0.815282 19.084263 -9.408806 4
15.325511 18.353433 -11.386937 4
10.026544 -8.522064 -16.989029 4
19.756774 -1.245378 -61.032657 4
7.898014 21.044464 -60.841039 4
17.549392 -4.233794 -8.939786 4
-8.179800 8.049342 -29.699075 4
21.134998 2.090400 4.796229 4
21.497985 8.458060 -33.711398 4
19.370236 -1.893714 -28.143881 4
-1.894541 18.396554 -30.868875 4
10.313367 -8.448656 -60.118240 4
1.605963 -8.014670 -10.937581 4
-7.387532 11.282056 -14.693661 4
3.351758 20.721328 -16.209986 4
-0.063563 19.492741 1.957947 4
8.293463 21.007544 -46.183323 4
-4.310513 -4.093147 -39.479814 4
2.563325 20.519541 0.147094 4
-3.589224 17.016979 -47.887694 4
-2.810589 17.700737 -40.206476 4
21.678065 6.081399 5.158264 4
20.369872 12.229506 -34.895511 4
20.849882 1.175947 -25.700779 4
5.291052 -8.835494 -16.355472 4
11.536459 -8.089478 -27.842284 4
-6.129917 13.885560 0.315657 4
-4.857974 -3.468285 5.556382 4
5.004543 -8.800882 -1.733323 4
13.976603 19.199140 -60.629416 4
17.057076 16.925832 -4.472621 4
-6.228269 -1.532174 6.653994 4
4.082204 20.864869 -8.615966 4
9.141296 20.893447 -30.429713 4
20.068759 -0.671789 -5.827928 4
-8.298909 5.501219 -11.484951 4
20.947944 1.476962 -56.037906 4
-5.049827 -3.236022 -49.875987 4
20.141862 12.715021 -14.636933 4
-3.272373 17.314066 5.928495 4
21.531610 8.202642 -15.820829 4
-7.603284 1.558115 -18.138663 4
-8.070673 3.442592 -28.877820 4
0.970153 -7.763219 -51.757847 4
-8.108881 8.556508 -35.317853 4
5.142582 21.015296 3.170967 4
3.316316 -8.515470 4.619320 4
-6.920752 12.396322 -44.851304 4
-1.060946 18.939228 -25.608118 4
0.913276 -7.740647 -39.299076 4
17.159270 16.829721 -44.409664 4
20.482444 0.219697 -14.508289 4
21.653741 5.239804 -45.418885 4
-5.475469 14.867598 -24.945675 4
17.029981 -4.754130 -39.238086 4
14.687702 -6.579767 -0.400772 4
10.013345 -8.525442 0.366283 4
0.078530 -7.361677 -30.932310 4
19.314625 -1.981201 -19.335019 4
15.886168 -5.747336 -8.762298 4
-8.204685 4.345271 -34.233946 4
-6.894753 12.451467 -32.552122 4
0.444961 -7.534436 -12.719725 4
11.974065 -7.932162 -56.056442 4
21.678089 6.111440 -13.692992 4
8.276674 21.009679 -55.713153 4
13.622602 19.394104 -19.105367 4
-6.151059 -1.654040 4.053418 4
16.726499 -5.038682 -32.092817 4
21.046165 1.778463 2.150326 4
21.143792 2.124544 -58.338155 4
-8.285494 6.915273 2.366190 4
0.563781 -7.590455 6.012853 4
-8.020881 9.015944 -14.515411 4
18.661535 15.122360 -23.839799 4
18.411835 -3.247501 -16.753239 4
-7.413264 0.981959 -44.787651 4
8.932806 20.926267 -42.275092 4
-7.384166 11.290537 -42.147726 4
-3.830563 -4.592614 -22.925486 4
-0.094372 19.478272 -37.370371 4
21.287851 2.683833 -46.242683 4
20.359535 12.251517 -37.150720 4
-7.013310 12.200003 -11.219443 4
20.107498 12.788194 -46.954733 4
-7.965050 2.886606 -40.521622 4
1.226608 20.062273 -2.446878 4
-7.670718 10.432755 -31.699512 4
2.816871 -8.386826 -28.669210 4
21.591150 7.728494 -51.844594 4
6.914335 -8.894062 2.877531 4
21.106805 10.218893 -31.328541 4
-8.137960 3.813901 3.813128 4
2.629255 -8.338501 -15.716363 4
-8.306766 6.577263 -18.811776 4
-2.641990 17.840010 -50.280216 4
-4.042046 -4.379486 -7.602471 4
-6.552742 13.139701 2.579553 4
-7.050976 0.078705 -56.890031 4
-7.985721 9.199509 -54.275674 4
-5.211790 -3.033564 -54.851405 4
-8.200236 7.888589 -31.936013 4
4.616009 -8.751491 -57.278626 4
-8.174442 8.091495 4.998949 4
13.319630 19.546235 -16.791627 4
21.042516 1.767263 -16.582504 4
6.860926 21.091181 -2.915366 4
3.621496 -8.579591 -22.549382 4
-5.199684 15.246575 -17.743694 4
-2.580717 -5.693951 -49.208825 4
19.218728 14.330137 -9.110965 4
-1.617582 18.586547 6.593090 4
5.104342 21.010493 -38.809145 4
21.678367 6.469424 -38.134589 4
18.296839 15.583479 -43.078592 4
-7.944331 2.793030 -56.364236 4
12.444530 19.943260 2.632828 4
15.412568 -6.092492 -37.273032 4
-2.416435 -5.819918 -21.619192 4
21.235307 2.479838 -9.851621 4
21.660631 6.844875 -8.474235 4
19.637532 -1.461880 -38.310196 4
-5.731977 14.511597 -20.238859 4
-1.167619 18.871641 -51.979912 4
2.800064 -8.382497 -5.100958 4
14.085080 -6.942376 -25.492097 4
2.226601 20.413940 -19.016254 4
16.794228 17.173033 -8.876490 4
-7.294228 0.680637 -40.367520 4
-7.475927 1.165153 -28.682312 4
13.246554 -7.383623 1.664311 4
20.916173 1.379436 -61.114655 4
-2.667613 -5.621956 -57.903548 4
17.312098 16.684480 -13.839487 4
10.545020 -8.389369 6.828755 4
