7.283025 39.328281 -0.348292 21
2.682729 50.349028 -1.179783 21
1.346924 52.429332 -42.812095 21
-32.122367 69.387097 -58.856852 21
-19.998191 67.788856 -4.304909 21
6.404398 42.304146 -8.067411 21
8.509412 34.592499 -47.738619 21
-22.634126 68.464204 -15.418242 21
-13.086298 65.030039 -51.128111 21
-30.151312 69.408336 -50.485303 21
-21.826909 68.284419 -44.991217 21
-29.508282 69.369073 -21.407690 21
-3.737091 58.352527 1.546957 21
1.276004 52.524590 -26.363354 21
3.319504 49.296990 -50.785395 21
-1.990040 56.580010 -24.214496 21
2.749008 50.243524 -14.449100 21
-12.050434 64.494281 -55.270721 21
-6.562495 60.832370 -10.733577 21
-32.698006 69.376694 -10.650047 21
-30.922718 69.408777 -36.209279 21
-22.838809 68.509792 -60.897597 21
-28.264504 69.293129 -53.590880 21
-8.399519 62.191164 -0.136670 21
6.263698 42.723546 -36.946025 21
-5.879027 60.264139 -34.906303 21
-4.094686 58.701128 -59.237083 21
-12.640882 64.811368 -19.503460 21
-1.521057 56.044274 -57.346892 21
-3.646567 58.264280 -17.901790 21
5.619274 44.478687 -61.022406 21
-4.990348 59.525296 -49.667163 21
5.824284 43.997488 1.941547 21
-27.601107 69.252623 -16.474429 21
-33.270893 69.366341 -31.348216 21
-28.231714 69.291127 -18.517684 21
-24.243761 68.810988 -44.325160 21
2.156650 51.186456 -22.223887 21
1.054362 52.822293 -11.988233 21
-31.492685 69.398477 -24.479999 21
-18.071151 67.196506 -49.922856 21
-10.345775 63.483025 -54.463977 21
-18.063590 67.194182 -41.144916 21
0.339703 53.782201 -34.142357 21
-1.290714 55.781143 -59.088961 21
-25.873075 69.040706 -1.412876 21
-9.281261 62.813376 -28.714538 21
-0.412488 54.777914 -51.774908 21
-29.679291 69.379515 -32.977716 21
-3.284513 57.911333 -37.356238 21
-8.300138 62.121034 -52.211727 21
7.484244 38.551259 -42.554862 21
1.921363 51.560994 -2.013971 21
7.048027 40.235745 -20.140304 21
-24.852856 68.896864 -18.579218 21
-32.527537 69.379775 2.734204 21
3.894853 48.196791 -39.371337 21
-4.323250 58.923943 -31.424049 21
-18.063091 67.194029 -15.611342 21
-3.822298 58.435591 -29.703382 21
-7.239865 61.372840 -13.780979 21
-22.067062 68.337906 -8.988624 21
-27.671347 69.256912 -14.665706 21
-5.012174 59.543442 -20.482161 21
-7.098567 61.273131 -54.868165 21
-1.815772 56.380937 -60.575883 21
4.665893 46.716456 -26.603099 21
-3.471764 58.093874 -54.163814 21
1.582346 52.100650 1.677021 21
7.340484 39.106400 -5.702155 21
-16.303744 66.498514 -22.286090 21
-27.715657 69.259617 -39.909188 21
6.384478 42.363525 -57.575325 21
5.886344 43.848367 -15.741204 21
5.048437 45.818552 -53.663766 21
-10.143801 63.363207 -18.465937 21
-17.611341 67.016673 0.290271 21
7.240477 39.492582 -60.604606 21
6.193924 42.931530 -6.185418 21
-9.977071 63.264298 -24.850688 21
-0.576565 54.965344 -6.465102 21
2.432693 50.747042 -50.680333 21
4.761025 46.493164 -13.894428 21
-17.851648 67.111899 -55.525046 21
-31.887106 69.391349 0.435569 21
4.179725 47.652052 -23.593430 21
-32.581312 69.378803 -37.933968 21
-23.331632 68.619555 3.852874 21
-8.712607 62.412098 -40.343238 21
-28.782886 69.324781 -1.118488 21
-9.891041 63.213262 -21.214720 21
3.193340 49.536222 -40.635585 21
5.493121 44.774793 -1.736395 21
7.710732 37.676660 -58.130376 21
5.579315 44.572479 -50.984565 21
-29.998551 69.399008 -8.538739 21
4.852978 46.277331 -42.095538 21
3.030903 49.794795 -2.596007 21
-5.184349 59.686588 -32.382760 21
-21.037111 68.108208 -5.972186 21
5.663574 44.374707 -52.614032 21
-26.489685 69.127642 -40.856746 21
8.499560 34.630539 -43.634324 21
-27.957482 69.274383 -6.723615 21
-2.215577 56.837650 -55.119732 21
7.438007 38.729808 -26.191653 21
-29.582000 69.373574 -56.521655 21
7.027709 40.314202 -14.415051 21
7.905316 36.925257 3.139505 21
-11.889137 64.398594 -10.800759 21
7.633467 37.975022 -44.892673 21
6.124811 43.137543 -12.557390 21
4.569375 46.906954 -32.966326 21
-17.678277 67.043197 -51.890134 21
-24.291223 68.817680 -5.625607 21
-15.362328 66.125462 -28.120468 21
-32.280086 69.384247 -27.999183 21
-7.348440 61.449457 -3.708528 21
7.185657 39.704274 -39.240118 21
-22.748107 68.489591 -5.758938 21
-23.013075 68.548605 -11.485642 21
8.473101 34.732715 -58.477331 21
-11.615585 64.236315 -53.482218 21
-10.404951 63.518129 -6.073000 21
8.548262 34.442473 -18.552470 21
-9.612754 63.047298 0.973032 21
7.713451 37.666159 -60.929926 21
6.166222 43.014104 -23.727316 21
3.465252 49.018286 -44.930577 21
-24.047496 68.778995 -16.590344 21
-10.966293 63.851135 -41.391986 21
-4.360994 58.960737 -53.200262 21
3.047594 49.768226 -59.093051 21
-1.699616 56.248247 -0.790983 21
8.553048 34.423995 -42.039303 21
-24.032784 68.775718 -20.953573 21
1.453343 52.286394 -24.470069 21
-32.634362 69.377844 -19.436963 21
-12.652024 64.816837 -22.728615 21
2.118493 51.247196 -58.371900 21
-20.024156 67.796837 -8.889504 21
-0.172074 54.469604 -48.100193 21
5.916375 43.758850 -19.096195 21
-23.092595 68.566316 -42.844108 21
-31.453325 69.399188 -32.980308 21
6.753580 41.263302 -58.920958 21
5.914424 43.764667 -11.107479 21
-29.869749 69.391144 -27.222725 21
-23.472084 68.650837 -53.866345 21
-24.539314 68.852658 -51.113367 21
-31.219726 69.403410 -26.371370 21
6.398811 42.320801 -29.712734 21
8.552024 34.427948 -5.650882 21
-25.544523 68.994383 -11.219938 21
-24.299087 68.818788 -36.343015 21
-10.765284 63.731890 -28.067375 21
-23.777036 68.718757 -38.747836 21
8.505224 34.608669 -45.979585 21
2.525389 50.599487 -45.001169 21
-29.378919 69.361174 3.049684 21
6.047027 43.369401 -9.385126 21
2.632917 50.428321 -56.258994 21
-28.646326 69.316443 -46.428720 21
-8.593196 62.327835 -31.987194 21
-29.332629 69.358348 -58.501308 21
-14.744396 65.844063 -51.833104 21
6.633406 41.621517 -53.732077 21
-17.311627 66.897906 -7.440535 21
-1.130264 55.597856 -4.916679 21
-7.700863 61.698149 -1.478874 21
-17.650958 67.032372 -57.192761 21
-28.585110 69.312705 -51.864108 21
-3.258162 57.885645 -3.657882 21
-13.655164 65.309317 -27.383650 21
8.029013 36.447592 -34.130946 21
-3.281468 57.908365 -57.305464 21
7.981125 36.632515 -45.954955 21
-28.806332 69.326213 0.816080 21
-33.337072 69.365145 -3.480571 21
-19.239098 67.555519 -2.659975 21
-6.074547 60.426693 -0.255292 21
-18.433735 67.307960 -8.628683 21
-5.857883 60.246560 -51.207256 21
-27.780102 69.263552 -20.939701 21
-27.433236 69.242373 -1.952670 21
1.894255 51.604144 -18.072767 21
-0.706641 55.113935 2.624404 21
8.165644 35.919982 -12.439200 21
-8.336562 62.146738 -26.975413 21
-22.322638 68.394829 -21.859305 21
1.663120 51.972073 -47.963286 21
-13.811470 65.386054 -11.926320 21
5.960866 43.626231 -30.837029 21
8.062739 36.317357 -52.916434 21
3.840100 48.301491 -48.720296 21
0.294898 53.842382 2.984206 21
-29.935888 69.395182 -60.336943 21
-3.265775 57.893067 -46.464300 21
5.174995 45.521496 -4.796829 21
2.549495 50.561114 2.512575 21
-2.383335 57.029286 -34.598232 21
8.143297 36.006279 -10.577369 21
-17.956127 67.153300 2.163447 21
7.209379 39.612669 -37.623188 21
1.249580 52.560082 -9.861620 21
-23.680763 68.697315 -9.160481 21
-31.007294 69.407249 -45.054402 21
6.409024 42.290357 -19.967686 21
-1.558235 56.086743 -44.315780 21
8.326486 35.298880 -56.614426 21
6.938346 40.659286 -36.232220 21
1.283859 52.514040 -55.461873 21
4.556027 46.932478 -43.527667 21
-25.111653 68.933352 -59.362161 21
6.410911 42.284732 -52.210153 21
5.447177 44.882631 -17.891914 21
6.413994 42.275543 -22.080314 21
5.721996 44.237578 -48.413970 21
2.470888 50.686243 -32.483589 21
4.391722 47.246666 3.740172 21
8.482848 34.695074 -36.596005 21
-3.864627 58.476855 -1.410475 21
-4.569202 59.163708 -36.524688 21
-0.894787 55.328862 -27.653069 21
4.791793 46.420945 -59.362186 21
7.752135 37.516777 -9.530076 21
7.664743 37.854249 -33.140444 21
1.608900 52.058382 -41.025286 21
-20.049432 67.804606 -29.876970 21
-14.699221 65.821885 -30.410303 21
-7.155051 61.312990 -34.959920 21
-6.693647 60.941409 -17.231397 21
6.624750 41.647320 -40.031417 21
-18.335182 67.277666 -11.861765 21
2.178482 51.151704 -27.340935 21
-9.470780 62.947112 -61.079745 21
7.029266 40.308192 -57.387346 21
-20.500350 67.943214 -51.878007 21
2.926908 49.960337 -26.388644 21
6.555422 41.853972 -46.843784 21
2.402864 50.794525 -23.947544 21
-29.063502 69.341915 -13.152125 21
6.968191 40.544037 -51.700364 21
-7.934676 61.863142 -60.309814 21
-16.240832 66.473584 -29.468040 21
-32.269235 69.384443 -52.220614 21
-8.975825 62.597842 -37.381510 21
-18.685963 67.385492 -47.072026 21
-29.475538 69.367074 -3.591229 21
-20.165327 67.840231 -45.238319 21
1.867012 51.647511 -54.335501 21
0.619849 53.405917 -58.441502 21
6.212765 42.875369 -14.226426 21
-33.291870 69.365961 -34.887895 21
-0.355265 54.712545 -44.484193 21
-9.288780 62.818682 -44.615727 21
-3.001116 57.635065 -60.610748 21
-0.416777 54.782812 -54.629354 21
2.212859 51.096982 -25.654389 21
8.137673 36.027995 -24.094566 21
6.406915 42.296644 -1.279594 21
7.042635 40.256566 3.154959 21
-8.711735 62.411483 -58.644744 21
8.256060 35.570835 -30.134701 21
-12.472977 64.728936 -30.650224 21
-8.404423 62.194625 -10.438949 21
-17.844734 67.109159 3.856533 21
-0.192190 54.496623 -11.961110 21
3.871302 48.241826 -6.205174 21
5.153742 45.571380 -57.986689 21
-9.764279 63.138063 -7.619829 21
-29.557434 69.372074 -43.916085 21
5.613108 44.493159 -35.806501 21
-2.102255 56.708197 -22.476452 21
3.476250 48.997256 -53.315037 21
-17.954623 67.152704 -3.581512 21
-9.901647 63.219554 -0.592024 21
-10.168846 63.378065 -49.246123 21
6.963823 40.560902 -22.172317 21
-13.019120 64.997059 -57.789208 21
-21.219769 68.149194 -46.705380 21
-10.291678 63.450932 -32.590042 21
5.312008 45.199899 -40.567468 21
-22.768511 68.494135 -58.060481 21
-18.955382 67.468308 -33.415548 21
-0.901177 55.336160 -15.999588 21
-16.726520 66.666047 -9.147553 21
-29.510164 69.369188 -17.526261 21
-26.106899 69.073673 -27.822819 21
-3.118383 57.749382 -25.542465 21
-4.594911 59.188771 -47.756656 21
-19.146731 67.527127 -20.668294 21
-13.930819 65.444647 -28.942692 21
7.446894 38.695487 -35.112897 21
5.316273 45.189888 -46.322989 21
-4.249304 58.851857 -21.823670 21
-4.700375 59.284215 -38.154127 21
3.493768 48.963756 -25.181545 21
-19.374717 67.597207 -24.917819 21
-15.767871 66.286165 -10.369862 21
0.442991 53.643468 -60.199348 21
-6.898130 61.111415 -15.294023 21
-13.528222 65.246997 -3.986878 21
3.793368 48.390854 -33.429498 21
-25.283780 68.957621 -33.141151 21
-20.109890 67.823191 -15.246546 21
8.501029 34.624869 -51.376401 21
7.342591 39.098262 -3.952167 21
2.679197 50.354650 -19.231528 21
-8.428700 62.211756 -22.725619 21
5.991402 43.535210 3.841546 21
-24.520699 68.850034 -0.093753 21
7.406126 38.852917 -21.932522 21
4.836205 46.316701 -50.681314 21
7.378857 38.958219 -12.211464 21
7.685685 37.773380 -11.299230 21
-21.192208 68.143056 -50.350543 21
4.518916 47.003442 -60.998631 21
5.005693 45.918881 -28.400558 21
-22.904571 68.524439 -51.695422 21
8.048656 36.371740 -44.332557 21
-0.910966 55.347343 -19.678481 21
-12.841038 64.909632 -9.508749 21
7.850794 37.135799 -47.411613 21
8.297959 35.409039 -38.612885 21
5.045941 45.824411 -22.897024 21
-12.171246 64.565950 -28.645572 21
-32.953003 69.372086 -29.633349 21
-27.562082 69.250240 -27.059759 21
-2.302009 56.936384 -12.094237 21
-10.921305 63.824447 -23.198338 21
-13.132165 65.052557 -49.443012 21
-18.169884 67.226856 -53.816051 21
-1.168064 55.641036 -38.294703 21
3.016565 49.817618 -21.114339 21
-11.057491 63.905236 -26.031269 21
-12.437300 64.711421 -34.115207 21
-11.676160 64.272249 -32.625091 21
-1.775751 56.335219 -48.955982 21
6.343106 42.486846 -42.026166 21
6.770069 41.214151 -18.486578 21
-2.794331 57.433481 -58.911606 21
-13.426222 65.196921 -43.794245 21
-28.088584 69.282388 -23.250500 21
5.473027 44.821957 -29.626712 21
-21.562897 68.225617 -59.783930 21
3.020969 49.810608 -61.080405 21
-24.263912 68.813829 -48.973462 21
7.272270 39.369812 -9.245432 21
-17.346452 66.911706 -32.346261 21
-13.156931 65.064716 -41.451254 21
-8.520968 62.276866 -5.907831 21
7.715016 37.660115 -23.444495 21
-16.642079 66.632586 -53.768252 21
7.215912 39.587442 -53.380643 21
-5.528798 59.972960 -39.329771 21
0.530054 53.526528 -56.386527 21
-4.102572 58.708816 -15.640660 21
-31.876399 69.391542 -56.432733 21
2.663696 50.379326 -35.347652 21
-6.536661 60.810892 -31.493358 21
8.469365 34.747141 -32.150011 21
-28.657620 69.317133 -49.195254 21
-25.159442 68.940090 -39.971266 21
-29.842583 69.389485 -54.997724 21
-10.270385 63.438301 -52.769032 21
-31.528719 69.397826 -43.442784 21
7.280746 39.337082 1.732938 21
-31.225479 69.403306 -22.091251 21
-21.458182 68.202295 -55.286423 21
-26.068297 69.068230 -47.954897 21
-32.657060 69.377434 -48.032274 21
-11.610969 64.233577 -21.623987 21
-11.247405 64.017899 -36.266912 21
-12.363635 64.675256 -60.981562 21
8.479271 34.708890 -40.435476 21
3.067473 49.736581 0.462688 21
1.392245 52.368459 -19.641709 21
2.485669 50.662714 -46.578323 21
-8.919069 62.557791 -3.252118 21
-13.425145 65.196392 -54.603350 21
3.791131 48.395132 -43.481918 21
-20.342017 67.894544 -26.605288 21
-22.504587 68.435353 2.510786 21
-28.174477 69.287632 -33.822641 21
-33.201738 69.367590 -7.373915 21
8.491637 34.661138 3.493270 21
-30.725070 69.412349 -31.156846 21
-7.011779 61.205903 -50.494624 21
-6.602781 60.865863 -2.158476 21
-7.978557 61.894107 -12.238329 21
-19.399625 67.604863 -6.479968 21
-0.434794 54.803394 -57.643784 21
5.518012 44.716368 -33.878661 21
-17.253812 66.874996 -14.191529 21
1.062381 52.811522 -46.467391 21
-3.795826 58.409785 -10.650021 21
-8.298211 62.119675 -15.028929 21
-15.247544 66.079976 2.998034 21
4.789662 46.425948 -1.924425 21
0.348768 53.770026 -16.004987 21
-22.113320 68.348209 0.713096 21
-17.659893 67.035913 -25.777360 21
-21.774767 68.272805 -25.270933 21
-1.217489 55.697497 -47.597418 21
5.406847 44.977294 -9.954561 21
-29.996178 69.398863 -6.817189 21
-5.330520 59.808113 -45.871821 21
-26.779643 69.168523 -31.821242 21
-4.375356 58.974738 -40.153788 21
-17.398438 66.932306 -28.510772 21
-24.871976 68.899560 -26.323202 21
-27.143163 69.219776 -4.620678 21
4.564371 46.916522 -52.378835 21
-29.959421 69.396619 -28.977481 21
-8.456574 62.231425 -34.868112 21
-3.518518 58.139452 -44.252462 21
-9.769995 63.141454 -56.395518 21
-2.352109 56.993616 -50.508046 21
-5.921606 60.299539 -42.823330 21
-31.095569 69.405654 -5.110607 21
-3.175283 57.804851 -31.938322 21
-2.205788 56.826467 -38.244859 21
-24.960999 68.912112 -23.743128 21
3.647774 48.669263 2.401213 21
2.079503 51.309261 -36.546432 21
-1.863792 56.435792 -20.493153 21
8.119343 36.098777 -27.325608 21
5.066887 45.775245 -16.379077 21
7.278799 39.344601 -32.632804 21
2.256541 51.027447 -6.066894 21
-6.633199 60.891153 -22.915328 21
-26.629457 69.147348 -29.777363 21
-14.566997 65.756971 -32.272705 21
-25.173272 68.942040 -54.214442 21
-5.661041 60.082907 -15.796313 21
8.086742 36.224669 -42.073721 21
6.751079 41.270759 -10.805723 21
-10.599434 63.633503 1.956107 21
3.298715 49.336742 -37.009051 21
-30.682367 69.413121 -1.840777 21
2.582205 50.509046 -53.148173 21
0.143709 54.045454 -10.046941 21
0.104389 54.098268 -53.081032 21
-16.152516 66.438588 -50.845657 21
0.234486 53.923525 -20.039044 21
-10.858024 63.786906 -19.791412 21
-14.325567 65.638444 -38.016767 21
-15.424533 66.150111 -54.686033 21
-32.783750 69.375144 -26.091776 21
5.305599 45.214942 -26.143858 21
6.121312 43.147973 -55.516141 21
-9.768649 63.140656 -4.451262 21
-30.220517 69.412561 1.481505 21
-11.858021 64.380135 -42.743340 21
-5.656100 60.078798 -24.537794 21
-0.088765 54.357706 -46.282055 21
7.155946 39.819007 -46.863699 21
5.273761 45.289673 -55.376641 21
-2.859213 57.496731 -48.015816 21
-9.686009 63.091631 -42.478869 21
-31.476116 69.398776 -3.339692 21
-22.799655 68.501072 -29.280542 21
-2.900830 57.537301 -21.064988 21
-21.021598 68.103439 -35.297769 21
-22.003643 68.323781 -48.789988 21
4.612680 46.824144 -9.797688 21
5.887586 43.844664 -0.485428 21
-21.646732 68.244289 -53.546045 21
-12.802244 64.890586 -25.292978 21
-9.993934 63.274302 -34.208797 21
1.621659 52.038071 -35.174643 21
-28.817103 69.326870 -25.924557 21
-16.391116 66.533137 -41.516959 21
7.268276 39.385237 -27.580874 21
-1.274812 55.762979 -12.792597 21
-2.138038 56.749074 -8.402504 21
-11.016359 63.880836 -51.433591 21
-32.735515 69.376016 -1.367774 21
-13.168066 65.070182 -7.170328 21
-23.127011 68.573981 -34.709237 21
-2.285097 56.917065 3.790652 21
-26.309922 69.102297 3.403508 21
-5.302181 59.784552 -44.139136 21
4.801501 46.398157 -34.358629 21
-33.250825 69.366703 -12.301478 21
1.438330 52.306559 -51.031152 21
-9.789476 63.153011 -26.897280 21
-0.269442 54.600386 -30.806491 21
-10.470571 63.557057 -16.550988 21
-5.405655 59.870580 -29.580144 21
-3.425933 58.049196 -35.569587 21
-8.854563 62.512271 -47.145388 21
-19.402792 67.605837 -52.933766 21
6.302521 42.607824 -48.922879 21
-13.774585 65.367946 -47.674112 21
7.468417 38.612375 -14.426747 21
-14.799129 65.870934 -41.532326 21
-14.405150 65.677514 -5.457705 21
-5.778372 60.180455 -36.825516 21
8.490865 34.664119 -26.494430 21
8.577700 34.328797 -0.683657 21
-27.046948 69.206211 -0.393212 21
-20.901153 68.066416 -18.295005 21
8.313987 35.347147 -17.181719 21
-1.115875 55.581418 -45.857648 21
2.859870 50.067050 -29.038887 21
-10.620318 63.645892 -47.521232 21
-15.011688 65.975287 -16.191716 21
-19.451708 67.620873 -58.272479 21
-14.400611 65.675286 -24.405252 21
-16.058673 66.401401 -5.415080 21
-7.979109 61.894497 -42.538151 21
-0.836241 55.261982 -25.400785 21
-17.677885 67.043042 -38.823772 21
-5.031844 59.559796 3.729801 21
-26.558583 69.137356 -8.395818 21
2.670845 50.367945 -17.114367 21
-25.625549 69.005807 -16.048424 21
-4.781546 59.351699 -4.044478 21
7.316846 39.197680 -16.193640 21
3.094866 49.692976 -49.092976 21
-7.186312 61.335050 -32.994086 21
5.794257 44.067968 -54.201784 21
6.960831 40.572457 -33.912809 21
3.459492 49.029299 -9.681650 21
7.280950 39.336295 -58.982574 21
-4.948109 59.490179 -54.957615 21
-23.735542 68.709515 -7.267339 21
-18.853653 67.437038 -17.185661 21
-2.461778 57.109292 0.730519 21
6.853683 40.964915 -2.211536 21
7.636475 37.963407 -49.613499 21
-7.872880 61.819534 2.662945 21
6.714798 41.378905 -12.433612 21
1.159003 52.681743 -21.583147 21
-25.599657 69.002156 1.401987 21
1.358808 52.413371 -37.588229 21
0.750381 53.230591 -36.126817 21
-23.386144 68.631696 -46.428062 21
-5.645590 60.070061 -41.227612 21
7.786123 37.385532 -15.980143 21
-11.094052 63.926925 -31.193948 21
8.037775 36.413756 -60.048140 21
-14.604047 65.775160 -20.569046 21
-15.699769 66.259178 -7.752170 21
-15.057658 65.997856 -39.593762 21
-11.394120 64.104935 3.848996 21
-11.722624 64.299814 -49.988605 21
0.494843 53.573822 -6.812508 21
-27.875657 69.269387 -61.118663 21
-6.445054 60.734731 -38.088813 21
-3.483437 58.105253 -33.690453 21
-16.390878 66.533043 -26.802533 21
-26.952543 69.192900 -12.728471 21
-33.130698 69.368874 -53.601577 21
-4.657722 59.248753 -6.837071 21
-0.960313 55.403714 -23.676549 21
-17.803393 67.092777 -23.969258 21
8.425245 34.917512 -54.838846 21
8.457018 34.794819 -49.290793 21
6.290062 42.644959 0.649337 21
3.603229 48.754443 -1.584775 21
3.902113 48.182908 -14.341407 21
-14.029817 65.493249 -35.086367 21
-3.678484 58.295395 -5.149525 21
-21.014141 68.101147 -38.105844 21
-13.152291 65.062438 -52.874787 21
-31.815966 69.392634 -8.446603 21
5.776258 44.110216 -57.133727 21
-15.878706 66.330086 -31.178130 21
-15.831941 66.311554 -35.582295 21
-18.442694 67.310714 -45.195665 21
-4.075378 58.682306 -42.599388 21
-3.044307 57.677169 -23.909282 21
-21.257592 68.157618 -57.264959 21
4.943680 46.064437 -48.006965 21
2.963798 49.901614 -38.834012 21
-14.062622 65.509354 -56.354634 21
-30.946472 69.408348 -53.609830 21
-17.188085 66.848950 -10.849913 21
-8.556248 62.301762 -20.897462 21
-12.119519 64.535264 -47.847760 21
-32.535053 69.379639 -20.939928 21
-1.386847 55.890960 0.761862 21
7.183018 39.714466 -43.971907 21
-10.215473 63.405726 -2.822539 21
-21.355302 68.179381 -14.267080 21
-14.958547 65.949198 -48.697152 21
-12.963592 64.969798 -46.048094 21
-1.536212 56.061585 -42.429807 21
-27.049042 69.206506 -35.657403 21
6.969673 40.538311 -4.585603 21
-0.297755 54.638416 -42.702278 21
-15.980207 66.370307 -58.703221 21
-21.203294 68.145525 -10.409787 21
-2.034947 56.631309 -52.079465 21
4.987046 45.962649 2.860731 21
6.998909 40.425418 -25.984807 21
-0.895383 55.329543 -8.372265 21
6.715964 41.375430 -38.319835 21
-0.009557 54.251316 -18.294709 21
-17.857479 67.114209 -22.110001 21
-11.489008 64.161225 -46.102822 21
-26.414876 69.117094 -38.292431 21
-24.622581 68.864398 -56.953226 21
-2.293015 56.926110 -10.328528 21
0.106721 54.095135 -26.428086 21
-26.127530 69.076581 -20.265957 21
6.144429 43.079064 -3.164826 21
-32.817956 69.374526 -46.201204 21
-1.129594 55.597091 -55.733014 21
-12.812835 64.895786 -13.891519 21
-17.139615 66.829743 -2.010403 21
7.530373 38.373130 -19.295665 21
8.157287 35.952253 -19.989244 21
-21.840292 68.287399 -41.400543 21
5.816119 44.016653 -4.362419 21
-7.269727 61.393912 -21.466418 21
-11.292057 64.044388 -7.567711 21
4.307292 47.408116 -0.665251 21
-29.241338 69.352774 -5.296658 21
-4.915881 59.463385 -11.943683 21
7.441680 38.715623 3.847014 21
4.751532 46.515446 -36.359791 21
-12.568018 64.775596 -0.717915 21
3.338368 49.260916 -46.626127 21
-4.651696 59.243743 -34.282507 21
2.012291 51.416252 -28.991124 21
8.539454 34.476489 -10.227682 21
6.236475 42.804694 -59.274199 21
8.542041 34.466496 -34.479200 21
-6.678539 60.928848 -44.163706 21
-22.687758 68.476150 -2.800237 21
-22.533910 68.441884 -23.604903 21
-4.613148 59.206549 0.092237 21
7.441438 38.716556 -51.591598 21
-9.659526 63.075921 -30.694060 21
-26.412302 69.116732 -25.655627 21
6.625076 41.646349 -55.496088 21
1.586087 52.094696 -31.895073 21
-0.204429 54.513063 -21.725975 21
-32.972556 69.371732 -49.883347 21
-26.837153 69.176632 -49.714346 21
6.054416 43.347377 -47.157375 21
-30.709974 69.412622 -46.552483 21
-18.749715 67.405089 -1.014668 21
-30.050235 69.402164 -42.022053 21
8.478427 34.712147 -23.321607 21
-30.785212 69.411262 -20.223008 21
-33.275890 69.366250 -57.096128 21
3.503768 48.944635 -30.648873 21
5.083317 45.736683 -8.186664 21
0.231523 53.927505 -24.064374 21
-17.869230 67.118866 -60.791793 21
4.241791 47.533368 -8.034900 21
4.784119 46.438956 -19.903238 21
8.183757 35.850038 -3.936201 21
-33.316408 69.365518 -60.340530 21
-25.389629 68.972544 -9.481320 21
-15.784305 66.292677 -56.917453 21
4.292555 47.436296 -12.585603 21
7.129842 39.919809 -55.746365 21
3.429279 49.087073 -27.992220 21
-18.870323 67.442162 -19.078569 21
6.237989 42.800179 -17.625202 21
-11.565925 64.206855 -39.076934 21
-25.285687 68.957890 -30.906218 21
-17.479247 66.964328 -43.432546 21
7.653953 37.895916 -53.846558 21
4.043233 47.913056 -41.284522 21
-7.667455 61.674574 -48.715805 21
-27.948378 69.273827 -11.286276 21
7.986023 36.613603 -48.973362 21
4.000773 47.994248 -58.643670 21
-31.580809 69.396884 -17.186104 21
-20.232559 67.860898 -21.821442 21
3.992333 48.010388 -19.981225 21
-14.192201 65.572969 -9.207054 21
-10.093585 63.333418 -13.938665 21
-7.264122 61.389957 -25.988910 21
8.566008 34.373947 -2.818562 21
-12.096850 64.521816 -12.442844 21
-8.042655 61.939338 -7.388728 21
1.048946 52.829568 -44.886635 21
5.420123 44.946133 -24.315637 21
-21.640661 68.242937 -0.889594 21
-29.706727 69.381190 -24.585408 21
-8.732246 62.425956 -8.996400 21
-15.204391 66.062876 -43.491759 21
6.191186 42.939692 -25.403917 21
3.290156 49.353109 -23.501423 21
-5.944665 60.318710 -47.442356 21
-28.343842 69.297974 -8.302479 21
-26.079886 69.069864 -57.896258 21
6.920893 40.726682 -42.151262 21
-26.183068 69.084412 -42.977931 21
-4.333152 58.933596 -26.737542 21
1.198717 52.628400 3.416750 21
8.087466 36.221873 -8.828311 21
-2.395891 57.043629 -39.978670 21
6.936299 40.667190 -8.142563 21
4.120859 47.764617 -51.220288 21
4.231184 47.553651 -28.050793 21
2.204702 51.109966 -49.073898 21
-13.235918 65.103493 -39.330685 21
8.130318 36.056398 -6.080238 21
-27.290318 69.233647 -45.201625 21
-20.937644 68.077632 -20.155753 21
-10.654996 63.666464 -43.934700 21
-22.792522 68.499483 -31.045712 21
-26.148303 69.079510 -60.888166 21
-1.213989 55.693498 -40.002309 21
-14.233268 65.593131 -59.353611 21
3.381453 49.178527 -12.029401 21
7.983840 36.622032 -2.332475 21
-16.278278 66.488423 1.412080 21
-29.864376 69.390816 -40.476205 21
-16.205974 66.459771 -38.667955 21
1.146704 52.698262 -14.977947 21
-20.064853 67.809347 -11.730915 21
-33.142330 69.368664 -14.172500 21
8.000400 36.558084 -31.952122 21
-15.983479 66.371604 -0.472220 21
-19.322686 67.581213 -39.085816 21
8.408327 34.982845 -28.707186 21
-9.881531 63.207621 -10.604247 21
-22.599075 68.456398 -36.496584 21
-25.021246 68.920606 -2.801827 21
-16.189653 66.453304 -12.234766 21
-25.713005 69.018137 -21.847045 21
-3.056234 57.688796 -13.523801 21
6.784555 41.170974 -23.818053 21
-17.611019 67.016545 -58.995842 21
5.441276 44.896483 -59.393102 21
-23.143439 68.577640 -56.102133 21
-11.826336 64.361339 -5.868985 21
-12.741994 64.861007 -37.308467 21
3.729493 48.512997 -17.600174 21
-11.499100 64.167213 0.462534 21
-12.275284 64.627668 -59.247352 21
-33.252379 69.366675 -55.304637 21
-14.103876 65.529608 0.359195 21
-14.555269 65.751214 -22.307198 21
5.309985 45.204648 -32.272393 21
-15.207893 66.064264 -25.921957 21
-1.911105 56.489839 -29.020452 21
-5.124508 59.636836 -14.408543 21
-19.210342 67.546680 -36.445306 21
4.539450 46.964178 -49.306438 21
-23.331654 68.619560 -25.879065 21
4.090076 47.823481 -4.016738 21
-26.660322 69.151700 -53.425092 21
-6.761947 60.998194 -5.216603 21
-25.843524 69.036539 -14.240683 21
-10.381117 63.503990 -59.146896 21
-15.744883 66.277056 -46.867187 21
6.930844 40.688252 -15.903829 21
6.558233 41.845594 3.488785 21
7.769144 37.451095 -20.536512 21
6.397725 42.324039 -27.969916 21
8.029952 36.443968 -0.213371 21
2.460695 50.702468 -30.772041 21
-31.114949 69.405303 -10.140549 21
-3.305111 57.931413 -52.158673 21
-6.715344 60.959448 -6.907956 21
4.441294 47.151873 -17.146628 21
7.678528 37.801018 -28.002736 21
-14.415121 65.682409 -45.332654 21
7.808679 37.298428 -29.638383 21
6.316235 42.566945 -44.371575 21
4.761057 46.493089 1.419314 21
8.455735 34.799773 1.245408 21
4.040440 47.918396 -37.461321 21
-6.108434 60.454866 -12.839135 21
4.772380 46.466512 -30.106529 21
-1.983344 56.572361 -3.755758 21
2.149067 51.198528 -43.547374 21
1.615449 52.047956 -3.996507 21
-1.782162 56.342543 -26.122861 21
-28.728530 69.321462 -9.782039 21
0.877593 53.059724 -17.939948 21
-3.904127 58.515362 -50.771746 21
-2.107512 56.714202 2.185211 21
-6.784920 61.017293 -56.442438 21
-12.763173 64.871405 -15.652207 21
-26.443076 69.121070 -17.970057 21
0.325855 53.800801 -40.073709 21
6.617531 41.668838 -32.854232 21
-9.407310 62.902324 -50.561484 21
-5.312738 59.793330 -22.771739 21
1.084781 52.781435 -30.319376 21
5.602307 44.518511 -22.285882 21
-19.824345 67.735417 -56.508453 21
7.319146 39.188796 -1.991271 21
-31.597983 69.396574 -6.770777 21
-9.076410 62.668820 -19.441583 21
-0.919675 55.357291 -29.629335 21
-15.196146 66.059609 -3.774947 21
3.886938 48.211927 -57.034794 21
-7.128951 61.294572 -8.798174 21
-10.016436 63.287650 -46.074790 21
-31.177479 69.404173 -49.260947 21
-7.570503 61.606159 -36.831475 21
-30.373845 69.418697 -38.036064 21
-28.595195 69.313321 -38.419557 21
-4.121079 58.726857 -56.272327 21
4.879992 46.213925 -37.885112 21
5.914804 43.763534 -20.731065 21
5.477352 44.811804 -6.635485 21
7.999065 36.563241 1.591770 21
-14.768772 65.856030 -1.950099 21
-27.767982 69.262812 -56.226814 21
-1.643683 56.184354 -6.519560 21
-28.960304 69.335614 -15.659303 21
4.209800 47.594542 -54.233034 21
-6.627537 60.886446 -52.532366 21
-0.162690 54.457000 -14.099713 21
7.891983 36.976746 -18.600046 21
6.762428 41.236929 -6.622208 21
2.045867 51.362804 -12.689401 21
-7.388307 61.477589 -58.613826 21
7.992081 36.590208 -55.405301 21
8.124072 36.080514 -22.064170 21
-2.073967 56.675883 -30.684967 21
-31.036736 69.406717 -57.729159 21
1.404242 52.352345 -7.697551 21
6.143533 43.081735 -39.273107 21
-2.441847 57.089862 -5.232960 21
4.099424 47.805605 -29.683559 21
-6.785051 61.017402 -29.264871 21
1.377788 52.387877 -53.014338 21
-27.645337 69.255324 2.009857 21
-33.315695 69.365531 -43.702805 21
-23.685576 68.698387 -33.239538 21
-18.367835 67.287703 -35.029062 21
-21.860617 68.291926 -39.826566 21
-19.795631 67.726591 -13.567583 21
5.055980 45.800847 -0.140738 21
-3.290051 57.916732 -8.988916 21
-6.216364 60.544599 -60.731366 21
-29.870529 69.391191 -23.030525 21
-33.276213 69.366244 1.178966 21
-2.331701 56.970302 -36.180719 21
-20.730358 68.013915 -2.390201 21
-21.789617 68.276113 -4.325962 21
0.322261 53.805629 1.317520 21
-1.002791 55.452239 -34.486415 21
-4.164390 58.769079 -45.514955 21
1.057782 52.817700 -27.848791 21
6.150941 43.059654 -50.469828 21
2.820709 50.129387 -42.439595 21
-19.807335 67.730189 -32.113921 21
1.757647 51.821601 -60.700968 21
-4.202850 58.806571 -24.863688 21
-1.354548 55.854064 -53.606564 21
0.277457 53.865807 -3.224285 21
-7.070561 61.253368 -40.408235 21
-3.716457 58.332412 3.725769 21
-25.827397 69.034266 -36.577127 21
3.271603 49.388586 -15.802105 21
-30.061298 69.402840 -11.286524 21
5.082429 45.738767 -44.461961 21
-13.266395 65.118456 -20.930153 21
-20.259225 67.869094 -60.701986 21
0.820225 53.136778 -5.334699 21
7.140061 39.880347 -17.808671 21
-4.968127 59.506822 -17.053969 21
-0.668828 55.070740 -60.907682 21
3.583526 48.792120 -55.085511 21
-12.057027 64.498192 -2.532839 21
-15.758336 66.282387 -37.153740 21
8.559641 34.398536 -13.620093 21
-21.468972 68.204698 -43.326039 21
-2.618006 57.261591 -1.776314 21
-21.734250 68.263781 -16.661580 21
-18.886160 67.447030 -27.608914 21
-1.040949 55.495828 -10.448226 21
-32.455575 69.381075 -41.780171 21
7.663903 37.857494 -56.244514 21
-6.015884 60.377921 -26.558552 21
-8.077361 61.963829 -17.699493 21
6.913166 40.756519 -28.890315 21
-26.644318 69.149444 -55.027946 21
-6.863054 61.082253 0.959664 21
-21.092472 68.120842 -33.725693 21
1.502559 52.220288 -57.232159 21
6.893206 40.833597 0.025265 21
-29.743448 69.383432 -47.786590 21
-17.109304 66.817732 -33.876018 21
-20.123341 67.827325 1.946416 21
-32.862926 69.373713 -39.774620 21
5.829270 43.985785 -7.967956 21
-15.403261 66.141682 -33.736724 21
-1.540563 56.066556 -17.876183 21
-0.253753 54.579313 -35.527648 21
-6.351113 60.656628 -19.878217 21
5.288720 45.254562 -11.659176 21
-6.729959 60.971599 3.404862 21
-25.567421 68.997611 -6.975614 21
6.901017 40.803432 -45.256807 21
-22.081090 68.341031 -27.231175 21
7.824080 37.238958 -36.141591 21
1.937136 51.535886 -15.774278 21
7.352912 39.058407 -24.514539 21
-33.352401 69.364868 -17.525633 21
-28.407187 69.301841 -30.552417 21
-3.315033 57.941086 -7.158463 21
7.707795 37.688000 -7.624067 21
-14.262595 65.607529 -13.971207 21
-17.451320 66.953262 -18.110819 21
-11.422479 64.121759 -56.614977 21
8.040855 36.401863 -50.972913 21
2.446050 50.725780 -9.221327 21
-7.748670 61.731884 -38.680422 21
-14.416670 65.683170 -60.916514 21
4.585731 46.875677 -45.877394 21
-21.018736 68.102559 3.561929 21
8.559030 34.400893 -20.458739 21
-0.172685 54.470424 -50.012735 21
-1.073864 55.533428 -31.749374 21
0.290731 53.847979 -28.750701 21
-29.158923 69.347742 -36.740096 21
-5.148133 59.656478 -27.826733 21
3.006197 49.834122 -7.687660 21
-8.430900 62.213308 -56.871535 21
-2.692278 57.333995 -42.562067 21
-7.463659 61.530763 -24.380741 21
-2.627592 57.270936 -16.782655 21
-13.303123 65.136487 3.667739 21
7.133398 39.906076 -50.129106 21
-14.580280 65.763493 -50.295998 21
-5.199849 59.699475 -9.726438 21
-16.025972 66.388442 -18.015496 21
-30.443655 69.417435 -34.519384 21
-23.063722 68.559886 -13.645034 21
-1.062220 55.520126 -2.511815 21
-1.188576 55.664468 -36.588195 21
-15.707159 66.262107 -14.011526 21
3.887577 48.210705 -60.241622 21
-20.138417 67.831960 -54.464201 21
-24.516985 68.849510 -27.833513 21
6.581120 41.777373 -61.066457 21
-21.999622 68.322886 -7.320003 21
-13.800953 65.380891 -17.535137 21
0.808082 53.153088 -49.616177 21
5.676703 44.343891 -37.983767 21
-2.843281 57.481200 -15.272638 21
-33.307079 69.365687 -5.606637 21
-21.020129 68.102987 -28.457721 21
5.740877 44.193260 -44.429329 21
8.329516 35.287179 -15.240566 21
-16.798431 66.694543 -48.725108 21
-25.477526 68.984937 -34.721856 21
-5.992926 60.358834 -58.028267 21
-16.644031 66.633359 -16.084967 21
-32.791560 69.375003 -22.942482 21
-25.109974 68.933116 -46.129890 21
2.148010 51.200210 -38.447444 21
-3.374341 57.998901 -27.704507 21
-15.962235 66.363185 -24.170745 21
-32.364419 69.382723 -15.634147 21
-23.844261 68.733729 1.450196 21
0.998373 52.897495 -1.665712 21
-18.970569 67.472977 -43.323761 21
5.565429 44.605071 -13.282716 21
-7.692087 61.691956 -45.977907 21
-19.088342 67.509179 -51.109373 21
-6.384198 60.684135 -49.034777 21
-8.577592 62.316823 -55.245515 21
4.129875 47.747377 -21.781363 21
7.763404 37.473262 -4.873326 21
-30.306371 69.417803 -52.045418 21
-10.228109 63.413221 -38.073040 21
-26.305495 69.101673 -51.862046 21
-0.231616 54.549579 0.035033 21
7.465398 38.624033 -31.085159 21
-12.713139 64.846841 -35.665393 21
-20.290839 67.878812 -40.715154 21
-9.482347 62.955275 3.758874 21
2.985769 49.866639 -4.224102 21
-22.449515 68.423087 -19.439505 21
-24.567669 68.856656 -12.713296 21
7.838518 37.183203 -39.559085 21
-14.786440 65.864704 -18.936809 21
3.991455 48.012067 -11.107491 21
0.155644 54.029424 -32.600439 21
-21.981458 68.318840 -32.406353 21
0.044351 54.178908 -37.137950 21
6.545517 41.883498 -31.271423 21
4.190722 47.631024 -35.288272 21
4.699186 46.638311 -6.038079 21
8.519201 34.554696 -60.172935 21
8.402220 35.006428 -7.552482 21
6.168323 43.007841 -34.336595 21
-11.110589 63.936736 -15.205434 21
-28.127754 69.284780 -42.647036 21
5.702074 44.284340 -28.157670 21
-11.790715 64.340207 -17.055130 21
-31.440687 69.399416 -12.662102 21
