68.480499 33.123451 -21.582905 15
69.944527 42.106936 -47.012103 15
47.213594 8.080075 -43.038277 15
69.966678 45.304348 -34.692739 15
65.195556 25.027598 -32.634980 15
42.946443 6.398422 -52.597165 15
68.495197 33.171268 -23.907756 15
47.549647 8.244025 -25.028159 15
36.655607 4.657018 -6.179265 15
69.680245 39.031583 -31.696340 15
69.981732 44.471802 -25.868748 15
42.214051 6.152715 -57.962976 15
69.049317 35.410819 -45.554962 15
46.102324 7.606647 -37.401888 15
38.091873 5.028976 -3.022572 15
59.433399 17.028099 -21.447185 15
58.301544 15.867040 -42.222589 15
41.906434 6.049513 -41.174880 15
40.646947 5.690678 -3.127952 15
57.027148 14.651963 -57.678398 15
34.921542 4.207938 -18.629114 15
69.982476 44.430649 -5.530769 15
69.961443 42.383931 -11.359946 15
52.128700 10.850850 -6.235417 15
55.121893 13.005011 -55.303534 15
63.789914 22.658174 0.150300 15
67.288289 29.600103 -29.530150 15
69.977267 44.718697 0.820011 15
65.586918 25.809539 -35.069291 15
54.425543 12.486584 -11.174884 15
62.158051 20.305269 -29.029640 15
40.255993 5.589431 -19.880059 15
57.652005 15.200742 -11.214342 15
54.054894 12.210639 -39.232753 15
63.405661 22.073268 1.948101 15
69.579830 38.319366 -37.351994 15
39.971415 5.515732 -1.046107 15
66.209293 27.077251 -16.014017 15
69.953480 46.034132 -5.447239 15
57.366214 14.948780 -41.237398 15
59.578307 17.176746 -14.918519 15
69.505627 37.793060 -1.543020 15
41.513720 5.917763 -0.693448 15
61.904328 19.945717 -60.460235 15
61.002448 18.845475 -38.770063 15
66.649348 27.987732 -45.791204 15
59.617096 17.216536 -33.695259 15
70.005577 43.106626 3.438131 15
58.336331 15.902725 -14.973398 15
67.936870 31.354851 -35.535425 15
69.875441 40.975648 -54.037727 15
44.884820 7.087961 1.320200 15
54.595380 12.613026 -46.941526 15
47.799324 8.374595 -14.722349 15
58.141809 15.703184 -55.820718 15
52.269012 10.938997 -12.040141 15
43.902335 6.719111 -3.798746 15
68.708043 33.878487 -47.026795 15
50.593723 9.886548 -12.347667 15
46.124646 7.616157 2.164498 15
67.826549 30.995943 -14.431080 15
69.006077 35.216670 -39.801538 15
69.821005 40.084261 -49.455785 15
35.082333 4.249579 -48.766747 15
53.756148 11.988224 -48.343212 15
67.051040 29.001404 -7.484913 15
67.891633 31.207681 -3.871858 15
68.620450 33.578756 -16.192240 15
40.719157 5.709379 -32.740179 15
69.987645 42.812998 -16.537313 15
57.702834 15.252882 -39.154190 15
69.709122 39.236401 -0.991981 15
44.015707 6.757146 -48.954042 15
70.005989 43.113381 -24.491951 15
66.633842 27.948602 -19.148484 15
69.045048 35.391653 -33.132816 15
45.385789 7.301386 -8.606080 15
50.697979 9.952044 -3.344444 15
50.354675 9.736374 -55.299849 15
52.222574 10.909824 -49.128019 15
65.932479 26.513410 -51.587912 15
69.974863 44.851617 3.362270 15
69.981025 44.510919 -38.250272 15
52.181361 10.883933 -25.597475 15
65.620454 25.877848 -55.842515 15
68.848467 34.508998 -59.531192 15
67.235912 29.467929 -56.202119 15
59.586997 17.185660 -58.858687 15
56.152686 13.886461 -54.267845 15
59.249802 16.839765 -7.533480 15
66.925874 28.685546 -20.750883 15
35.043925 4.239632 -60.662922 15
69.952744 46.074863 -25.809833 15
36.332818 4.573424 -43.320787 15
57.555706 15.114661 -46.649644 15
45.727735 7.447063 -26.336247 15
38.495112 5.133405 -6.059274 15
63.013023 21.516857 -61.088253 15
65.769457 26.181351 -24.083134 15
58.403413 15.971538 -59.398622 15
64.467882 23.800992 -56.027845 15
66.674633 28.051536 -36.095643 15
46.234898 7.663127 -61.090595 15
39.502056 5.394179 -8.969628 15
35.254662 4.294208 -20.545863 15
67.035459 28.962085 1.669077 15
65.470109 25.571612 -1.837153 15
46.797346 7.902743 3.832828 15
55.713968 13.502408 3.827875 15
36.962200 4.736419 -39.460062 15
58.834953 16.414213 -1.044740 15
60.355087 18.066820 1.422283 15
35.322666 4.311819 -1.552636 15
53.650309 11.909428 -13.115590 15
52.480263 11.071709 -45.519842 15
54.740188 12.720834 -49.470866 15
56.579673 14.260245 -1.389155 15
68.864868 34.582637 -24.982063 15
42.287773 6.177448 -33.010319 15
40.266332 5.592108 -48.374803 15
69.980498 44.540044 -31.480538 15
41.954631 6.065683 -21.265697 15
58.322239 15.888269 -33.920353 15
46.531716 7.789578 -33.633463 15
64.046289 23.090333 -41.382721 15
57.015223 14.641523 -16.373764 15
43.470905 6.574372 -37.551439 15
59.664827 17.265498 -46.352760 15
69.422821 37.205736 -44.951970 15
64.910592 24.547247 -60.995149 15
69.961620 45.584098 -54.621092 15
55.128217 13.009720 -17.036351 15
45.723326 7.445185 -46.473558 15
43.630935 6.628060 -17.465958 15
35.078025 4.248463 -35.738103 15
58.059771 15.619029 -31.750399 15
36.924508 4.726657 -31.173791 15
35.117513 4.258689 -39.423907 15
60.560353 18.313717 -4.977128 15
46.718876 7.869313 -9.060633 15
49.050823 9.029074 -18.220224 15
56.154777 13.888292 -48.122184 15
57.210291 14.812286 -28.588646 15
69.994235 43.780390 -47.954306 15
66.664307 28.025480 -47.540071 15
54.809683 12.772573 -51.312279 15
65.545299 25.724767 -4.793750 15
66.910433 28.646581 3.508718 15
69.174646 35.973553 -4.837238 15
69.952751 46.074533 -38.253415 15
69.395492 37.011903 -57.128458 15
66.468967 27.606179 0.501129 15
39.021850 5.269818 -37.727190 15
40.604299 5.679634 3.875555 15
42.774638 6.340784 3.622295 15
68.977000 35.086112 -6.882335 15
69.688480 39.089993 -40.766415 15
62.937638 21.410029 -26.896458 15
42.944213 6.397674 -29.737938 15
35.060163 4.243837 2.209189 15
68.842885 34.483931 -20.732136 15
66.618808 27.911390 -10.079456 15
60.991295 18.832061 -34.845817 15
63.607477 22.359263 -50.548348 15
68.302822 32.545412 -46.126053 15
69.955998 45.894866 -12.773774 15
60.275074 17.970579 -29.158251 15
67.708279 30.659949 -49.168921 15
48.358105 8.666813 -29.459475 15
64.506183 23.865555 -59.132961 15
49.184577 9.099022 -37.985870 15
39.461028 5.383554 -35.393093 15
66.361870 27.388035 -59.894038 15
57.776764 15.328720 -13.250946 15
39.274841 5.335336 -43.928342 15
58.836052 16.415340 -30.477256 15
51.841802 10.670615 -43.466464 15
51.140579 10.230093 -54.070388 15
35.060460 4.243914 -46.367023 15
61.885076 19.918434 -55.630172 15
63.580075 22.320432 -43.061429 15
35.750397 4.422591 -33.034381 15
69.952850 46.068972 -11.167839 15
68.021450 31.630018 -9.196380 15
69.846946 40.509043 -19.152539 15
51.907078 10.711623 -47.186602 15
63.170379 21.739849 -5.555370 15
54.410158 12.475130 -29.559912 15
48.347876 8.661463 -27.773536 15
54.730706 12.713775 -61.109287 15
67.551909 30.265348 -1.706055 15
67.837291 31.030890 -6.268915 15
34.923662 4.208487 -44.604456 15
48.986934 8.995663 2.661769 15
61.522519 19.471025 -7.767893 15
69.964351 42.431550 -54.857008 15
42.118131 6.120535 -38.404373 15
54.057506 12.212583 -9.139929 15
65.514687 25.662413 -15.711033 15
63.838401 22.739906 -18.534296 15
67.909906 31.267129 3.780744 15
64.464006 23.794459 -42.744112 15
69.815257 39.990136 -25.497718 15
37.524690 4.882090 -0.618473 15
69.186217 36.025505 -21.553293 15
69.031317 35.329999 -57.364009 15
69.751281 39.535423 -42.421869 15
37.546498 4.887738 1.003852 15
51.590612 10.512813 -23.680082 15
49.340366 9.180492 -39.486597 15
49.793687 9.417559 -4.846212 15
69.985453 42.777100 -41.435889 15
69.394247 37.003069 -0.049499 15
56.476008 14.169496 -59.098404 15
67.312456 29.661087 -18.048699 15
67.961916 31.436334 1.960584 15
60.866595 18.682070 -30.530186 15
63.053112 21.573668 -45.345203 15
48.133106 8.549148 -11.075351 15
69.868493 40.861880 -5.999984 15
68.540709 33.319334 -57.967790 15
60.639398 18.408793 -10.403203 15
67.373743 29.815745 -19.619965 15
42.618703 6.288470 -50.638047 15
68.858803 34.555406 -53.653036 15
55.286064 13.127822 -33.571692 15
58.164137 15.726088 -5.652629 15
48.355779 8.665596 -31.168263 15
69.689100 39.094391 -26.779191 15
68.383186 32.806860 -52.136446 15
48.214416 8.591670 -49.161868 15
40.840138 5.740710 -29.588922 15
66.495878 27.660993 -6.726712 15
66.530813 27.732153 -56.305281 15
52.406870 11.025602 -28.987338 15
55.631595 13.430299 -12.469363 15
64.470545 23.805481 -7.742493 15
63.578189 22.317759 -22.175589 15
55.617870 13.418284 -29.377218 15
59.961381 17.593265 -44.539286 15
69.949259 42.184412 -45.172935 15
69.980251 44.553701 -19.323971 15
61.537164 19.488639 -58.703054 15
59.674236 17.275150 -31.957276 15
56.171387 13.902832 -41.594141 15
69.689556 39.097623 -10.619387 15
64.084625 23.154954 3.531271 15
38.777624 5.206569 -52.646769 15
67.669070 30.561006 -40.910070 15
66.080409 26.814728 -21.763730 15
65.460387 25.551809 -54.270576 15
69.934859 41.948617 -17.837313 15
47.575844 8.257725 -56.689031 15
45.843974 7.496584 -22.353163 15
40.163667 5.565521 -25.931318 15
35.016388 4.232500 -55.579698 15
69.299340 36.533433 -40.895839 15
54.351517 12.431472 -35.452060 15
69.962388 45.541568 -23.115376 15
67.105786 29.139555 -41.889096 15
52.911147 11.359127 -23.623059 15
41.952958 6.065122 -6.396879 15
67.257730 29.522986 -12.954141 15
55.270210 13.115432 -8.911550 15
56.250502 13.972088 -51.645254 15
59.114935 16.701419 -37.055778 15
65.852990 26.351500 -11.800877 15
67.194147 29.362533 -45.052196 15
55.848397 13.620087 -50.007201 15
69.352088 36.770273 -6.608198 15
62.256405 20.444649 -33.937438 15
69.985944 44.238880 -10.465123 15
65.181033 25.003117 -46.143697 15
43.325227 6.525499 -19.945314 15
58.469248 16.039071 2.739022 15
67.194529 29.363498 -33.093493 15
48.789911 8.892628 -22.086674 15
59.264191 16.854526 -5.786918 15
41.935368 6.059220 -4.438570 15
69.952780 46.072899 -32.928610 15
68.849800 34.514982 -51.946258 15
68.200755 32.213355 -47.905309 15
53.701522 11.947555 -58.066050 15
39.711282 5.448364 0.707460 15
69.385308 36.939671 -8.136338 15
41.224684 5.840298 -49.872330 15
65.727264 26.095409 -60.469372 15
46.726931 7.872745 -30.217799 15
58.629176 16.203126 -45.405037 15
35.037819 4.238051 -28.488998 15
69.988162 42.821451 -56.478445 15
40.419365 5.631740 -45.207187 15
69.804295 39.911434 -33.896429 15
68.670390 33.741229 -40.256837 15
69.949717 46.242320 -44.731886 15
46.484589 7.769501 -59.019920 15
69.869849 40.884073 -21.957777 15
69.841436 40.418808 -45.446378 15
50.702213 9.954704 -29.304479 15
57.840645 15.394249 -0.476535 15
68.988227 35.136525 -55.221328 15
59.029304 16.613578 -24.989399 15
64.839401 24.427245 -34.536914 15
60.527635 18.274363 -53.903496 15
47.348890 8.139038 0.496883 15
50.794709 10.012812 -31.693774 15
56.193948 13.922581 -9.975038 15
62.020108 20.109789 -51.156500 15
56.367677 14.074663 -44.626329 15
48.377490 8.676951 -47.422960 15
61.788976 19.791522 -21.060919 15
68.664326 33.721501 -8.690035 15
53.573472 11.852223 -24.968406 15
68.412649 32.902714 -28.672240 15
42.232596 6.158936 -23.201674 15
65.595638 25.827301 -37.600181 15
69.573573 38.274987 -5.216311 15
63.877201 22.805310 -6.373067 15
36.897244 4.719596 -19.860881 15
60.566222 18.320776 -26.955258 15
60.767320 18.562661 -56.384836 15
64.488203 23.835247 -49.152739 15
65.897520 26.442202 -46.946098 15
36.448783 4.603456 -7.769932 15
65.850466 26.346358 -9.320946 15
69.674236 38.988958 -2.619186 15
69.348777 36.755406 -59.685394 15
55.807539 13.584320 -23.565759 15
55.331751 13.167816 -31.576094 15
36.829824 4.702136 -56.846568 15
66.605822 27.884938 -53.339985 15
53.961764 12.141304 -41.765616 15
36.977525 4.740387 -25.768977 15
69.280258 36.447753 -13.585390 15
66.957524 28.765416 -37.746929 15
35.180252 4.274937 -31.144072 15
69.991885 43.910302 -45.143385 15
68.598184 33.506320 -56.263763 15
68.346743 32.688301 -4.774833 15
69.934539 41.943383 -12.926558 15
46.080951 7.597541 -13.993117 15
69.326015 36.653202 -36.851593 15
38.664035 5.177152 -11.076950 15
67.058283 29.019682 -50.093998 15
69.981240 44.499009 -41.480575 15
47.284319 8.110205 -23.428342 15
55.448667 13.270164 -43.052821 15
42.220303 6.154812 -48.226373 15
69.488859 37.674128 -30.664290 15
36.183174 4.534670 -22.011826 15
69.103532 35.654246 -43.613717 15
62.799931 21.214883 -52.104183 15
67.930165 31.333036 -21.638063 15
50.938501 10.103144 -51.989314 15
50.345447 9.730576 -22.146640 15
49.557994 9.294302 -53.256084 15
61.340882 19.252549 -3.557148 15
66.725077 28.178833 -29.744377 15
41.456231 5.900263 -12.938801 15
58.127192 15.688189 -53.993893 15
67.955618 31.415845 -33.293156 15
60.777852 18.575328 -43.127337 15
69.974134 42.591752 -37.517089 15
50.723718 9.968213 -18.641441 15
52.053004 10.803297 -55.376445 15
69.955163 45.941185 -51.599503 15
43.242923 6.497887 -5.233140 15
64.354974 23.610670 -44.698644 15
66.270386 27.201691 -26.375209 15
52.097542 10.831276 -16.554384 15
51.865346 10.685406 -59.095968 15
69.883544 41.108341 -16.021321 15
47.831079 8.391201 -5.500714 15
69.905481 41.467554 -29.460956 15
69.630178 38.676468 -58.718135 15
69.664614 38.920714 -43.976076 15
69.713551 39.267812 -54.431684 15
66.503698 27.676922 -43.143695 15
38.610149 5.163197 -26.963286 15
60.038589 17.686132 -50.099133 15
69.711017 39.249839 -21.731990 15
69.984870 44.298248 -16.038699 15
40.174700 5.568378 -21.476466 15
38.401896 5.109265 -19.528805 15
44.981286 7.129058 -29.421346 15
65.045973 24.775453 -28.273473 15
60.880200 18.698434 -51.261907 15
36.906432 4.721976 -13.718089 15
41.653792 5.964756 -31.201561 15
39.579389 5.414207 -60.982723 15
63.687661 22.485812 -2.742988 15
62.672285 21.033995 -30.714550 15
65.225718 25.078441 -47.894855 15
56.579393 14.259999 -7.556958 15
48.858000 8.928236 -44.711450 15
69.971449 45.040470 -29.657449 15
66.149190 26.954827 -28.681152 15
43.986133 6.747224 -47.133557 15
40.586175 5.674940 -52.587592 15
50.009412 9.530374 -48.261041 15
40.397746 5.626141 -58.824724 15
40.956448 5.770832 -36.237130 15
52.689416 11.203103 -53.379657 15
40.589010 5.675674 -14.684285 15
69.977597 44.700493 -36.629412 15
40.490814 5.650244 -57.126144 15
44.290548 6.849351 -54.607649 15
54.571219 12.595039 -7.478280 15
61.738893 19.731282 -44.331414 15
50.907726 10.083811 -39.641610 15
62.919467 21.384279 -10.977413 15
69.820477 40.075613 -57.444404 15
51.972868 10.752954 1.032471 15
59.373855 16.967019 -53.370093 15
43.108102 6.452657 -59.480220 15
69.866292 40.825838 -55.815304 15
42.158648 6.134128 -43.186552 15
37.596542 4.900698 -29.618672 15
69.972336 44.991450 -49.927787 15
69.952352 46.096607 -59.451924 15
48.046848 8.504039 -12.685361 15
69.505411 37.791529 -25.728288 15
68.949559 34.962901 -34.820701 15
69.977474 44.707283 -14.086185 15
69.959337 45.710237 -9.248961 15
42.949440 6.399428 -2.225680 15
69.275024 36.424251 -18.590104 15
55.419516 13.244645 -5.884112 15
68.003479 31.571551 -39.838742 15
49.710699 9.374160 -30.346422 15
39.458189 5.382819 -15.814597 15
69.376119 36.878174 -53.826712 15
54.354927 12.434011 -23.380785 15
38.033467 5.013851 -48.615404 15
53.939260 12.124550 -52.495568 15
68.518109 33.245809 -25.858265 15
65.306231 25.237810 -20.135756 15
69.703687 39.197849 -38.731185 15
40.291029 5.598504 -54.123390 15
68.286564 32.492517 -14.180214 15
45.117024 7.186885 -16.150554 15
65.759076 26.160207 -44.256094 15
51.831924 10.664410 -41.146921 15
62.566024 20.883412 -54.220230 15
37.164735 4.788870 -18.063934 15
69.841678 40.422775 1.950235 15
45.260808 7.248141 -40.317432 15
58.800314 16.378679 -4.016206 15
69.860058 40.723748 -35.643446 15
69.631223 38.683883 -8.803317 15
68.441892 32.997852 0.485663 15
58.081463 15.641280 -25.862710 15
66.980174 28.822571 -27.318130 15
57.205380 14.807987 -24.504768 15
69.882510 41.091409 -61.025846 15
34.967741 4.219902 -24.368953 15
68.901254 34.746014 -13.791347 15
48.223285 8.596308 -55.269914 15
69.862457 40.763038 -1.365620 15
69.962701 45.524261 -27.256952 15
65.734908 26.110979 -39.198163 15
61.370432 19.288092 -14.017657 15
47.416168 8.174221 -35.734532 15
69.646364 38.791272 -52.482783 15
69.942706 42.077120 -51.762463 15
42.397908 6.214396 -46.695898 15
57.173577 14.780146 -30.830503 15
58.308419 15.874093 -43.844891 15
54.061441 12.215512 -15.525227 15
45.421602 7.316643 -51.569914 15
59.370713 16.963796 -42.645755 15
61.111495 18.976639 -19.494620 15
47.701246 8.323304 -16.262763 15
42.907324 6.385299 -12.873406 15
53.549715 11.834537 -17.085906 15
62.628643 20.972150 -43.092261 15
49.111949 9.061040 -20.605799 15
68.015095 31.609342 -0.341850 15
59.265957 16.856337 -28.738934 15
36.341647 4.575710 -45.241363 15
38.359080 5.098176 -56.235692 15
65.020198 24.732005 0.839551 15
69.888968 41.197157 0.654826 15
58.202625 15.765569 -52.156109 15
35.864606 4.452168 -52.810750 15
42.260095 6.168162 -35.213803 15
69.179287 35.994389 1.129218 15
59.189973 16.778393 0.546047 15
69.529648 37.963434 -28.155248 15
38.942172 5.249183 -24.677562 15
44.716614 7.016301 -1.217152 15
64.446972 23.765746 -20.303505 15
69.966272 42.463010 -14.932209 15
45.763192 7.462168 -18.379874 15
35.361759 4.321943 -3.545705 15
59.628200 17.227926 -9.406052 15
56.121778 13.859404 -25.349745 15
69.954726 45.965209 -0.407519 15
69.699932 39.171216 -6.849208 15
55.256898 13.105522 -21.929139 15
41.025535 5.788723 1.543157 15
38.550001 5.147620 -57.833018 15
63.801570 22.677822 -9.323595 15
55.262835 13.109941 -53.260304 15
68.222920 32.285465 -2.403749 15
69.819082 40.052761 3.748515 15
69.953079 42.246964 -6.786723 15
40.118741 5.553886 -50.973115 15
49.276338 9.147008 -32.283824 15
66.239162 27.138091 -5.071863 15
53.739922 11.976144 -32.706560 15
69.049946 35.413643 -0.440072 15
36.464647 4.607564 -60.284682 15
69.993872 43.800443 -59.425472 15
62.659450 21.015806 -16.371472 15
69.587598 38.374462 -48.901655 15
67.857517 31.096690 -43.340554 15
62.184207 20.342335 -14.876661 15
67.384883 29.843858 -47.206538 15
38.392426 5.106812 -54.458538 15
64.139344 23.247192 -14.690702 15
69.858894 40.704698 -11.545940 15
66.808006 28.388106 -24.856477 15
66.350375 27.364620 -23.151054 15
51.079420 10.191672 3.463687 15
55.538261 13.348594 -15.579444 15
36.205465 4.540443 -41.410204 15
69.927161 41.822566 -20.659411 15
45.418029 7.315121 -56.131379 15
39.874930 5.490745 -28.075721 15
46.592142 7.815321 -4.211308 15
66.562734 27.797172 -33.579146 15
69.950446 46.201976 -40.180223 15
68.748523 34.060247 -27.265448 15
69.656933 38.866232 -35.484455 15
63.215248 21.803432 -55.761849 15
49.411623 9.217757 -13.341030 15
58.996698 16.580131 -57.142958 15
57.232345 14.831592 -19.031923 15
55.077246 12.971772 -13.880475 15
64.711389 24.211460 -5.854049 15
35.159687 4.269611 -50.727970 15
69.890969 41.229916 -32.345950 15
59.763700 17.366923 -3.201792 15
53.186122 11.563844 -27.239188 15
66.003870 26.658825 -31.176879 15
42.200547 6.148184 -28.377997 15
45.888080 7.515374 -0.075104 15
69.927298 41.824815 -27.778132 15
69.976593 42.632017 -30.921617 15
65.763272 26.168753 -49.650591 15
59.067840 16.653109 -40.445429 15
69.208799 36.126901 3.367247 15
36.376993 4.584864 -9.807279 15
56.993609 14.622603 -34.155685 15
69.329229 36.667633 -46.652565 15
69.364202 36.824666 -23.754428 15
68.009649 31.591625 -44.904696 15
69.965597 42.451956 -1.753900 15
61.917849 19.964877 -32.100453 15
67.701116 30.641874 -54.670155 15
66.773491 28.301007 -17.427529 15
52.955828 11.392392 -37.935877 15
52.669938 11.190866 3.372923 15
46.824535 7.914326 -55.024389 15
53.258219 11.617520 -20.946325 15
63.339977 21.980187 -48.991622 15
55.678220 13.471114 0.043029 15
69.992564 43.872794 -51.502141 15
56.052333 13.798612 2.034176 15
48.972034 8.987871 -43.138375 15
67.190701 29.353838 -52.498528 15
69.337905 36.706589 -38.821165 15
64.528119 23.902531 -36.107905 15
69.917398 41.662694 -49.823580 15
69.843149 40.446861 -23.772016 15
69.428126 37.243364 -3.304827 15
69.952287 46.100144 -20.720354 15
64.369484 23.635127 -22.059430 15
64.520146 23.889091 -10.213886 15
63.515489 22.228906 -59.508149 15
69.957948 45.787160 -48.011449 15
67.930200 31.333152 -23.521805 15
57.603837 15.156795 3.849783 15
69.931028 41.885887 -25.405388 15
40.425666 5.633372 -7.563547 15
66.446378 27.560167 -50.429170 15
59.731905 17.334307 -55.288526 15
45.980804 7.554877 -49.036737 15
64.104838 23.189027 -60.856158 15
60.742303 18.532569 -47.286582 15
69.955510 45.921990 -56.513283 15
61.034687 18.884253 -36.979081 15
44.636530 6.982183 -13.136508 15
54.543274 12.574234 -20.313383 15
69.991739 42.880033 -60.998674 15
62.876542 21.323449 -35.353140 15
68.528841 33.280725 -33.736013 15
56.308962 14.023265 -14.034684 15
68.628816 33.605974 -18.250538 15
48.632665 8.810396 1.007141 15
51.072412 10.187270 -5.234673 15
60.099474 17.759365 -60.748043 15
68.197202 32.201796 -60.451375 15
56.775991 14.432101 -55.749209 15
61.238658 19.129593 -28.696437 15
44.245405 6.834206 -25.561408 15
52.611357 11.154065 -34.909578 15
69.899291 41.366196 -3.383065 15
67.968788 31.458691 -56.867558 15
67.338475 29.726747 -11.198792 15
41.206013 5.835463 -27.261911 15
69.136059 35.800295 -2.298092 15
59.616996 17.216433 -18.290966 15
69.983459 44.376298 -53.189871 15
68.681244 33.776538 -1.783678 15
69.953012 46.060007 -2.976169 15
69.330397 36.672879 -49.841209 15
62.024312 20.115746 -1.242711 15
42.396292 6.213854 -25.320128 15
53.342225 11.680062 1.708723 15
69.445650 37.367657 -35.332361 15
52.544474 11.112048 -50.701528 15
64.371103 23.637856 -32.784818 15
64.548756 23.937318 -16.707421 15
39.810659 5.474100 -41.019126 15
35.403057 4.332638 -57.836544 15
69.959671 45.691852 -42.958034 15
53.709529 11.953517 -2.644672 15
67.319830 29.679695 -34.795330 15
57.049107 14.671185 -42.967210 15
56.330835 14.042412 -46.201753 15
68.049133 31.720078 -31.481787 15
69.488553 37.671955 -20.312071 15
65.892742 26.432470 -18.346644 15
40.051654 5.536512 -6.072589 15
52.234717 10.917452 -2.744564 15
69.617756 38.588360 -50.802095 15
68.514012 33.232481 -35.380359 15
62.814743 21.235874 -3.887820 15
60.540887 18.290303 -8.782219 15
69.991303 43.942521 -28.067863 15
68.131810 31.989055 -50.498933 15
68.131383 31.987665 -7.576291 15
61.777923 19.778228 -23.033901 15
54.416809 12.480081 -4.283136 15
44.952185 7.116660 -42.218726 15
68.478641 33.117407 -19.857367 15
53.607671 11.877685 -18.957975 15
54.458883 12.511405 -0.635223 15
38.311201 5.085777 -7.613950 15
49.401633 9.212532 -60.227466 15
65.324222 25.274455 -10.904773 15
55.409671 13.236027 -2.208589 15
48.071168 8.516757 -2.513502 15
50.463778 9.804914 -10.119892 15
52.729943 11.228563 -4.494603 15
50.311585 9.709304 -43.538360 15
43.342875 6.531420 -7.676398 15
62.877150 21.324311 -57.747258 15
46.932615 7.960371 -47.334460 15
65.638198 25.913992 -0.145634 15
50.085018 9.569913 -8.370263 15
63.614089 22.368633 -32.167862 15
44.097423 6.784561 -50.818112 15
51.688534 10.574329 -21.000671 15
67.324956 29.692633 -15.251895 15
61.444576 19.377273 -49.802002 15
36.750979 4.681717 -47.117756 15
38.234851 5.066004 -59.717109 15
55.736343 13.521995 -4.162908 15
67.375290 29.819650 -31.251011 15
54.036044 12.196605 -5.890695 15
69.518105 37.881563 3.331573 15
69.526782 37.943105 -14.595019 15
49.384988 9.203828 -35.124864 15
59.190315 16.778743 -51.198985 15
45.906038 7.523024 -24.250366 15
69.864751 40.800600 -7.565866 15
51.718005 10.592844 -60.664244 15
38.977184 5.258250 -4.572075 15
68.631534 33.614816 -37.645727 15
68.901028 34.744997 -36.365959 15
52.613124 11.155175 -56.904724 15
62.043272 20.142616 -46.280849 15
58.941595 16.523605 -13.246868 15
66.703397 28.124124 -14.899812 15
58.412172 15.980523 -22.141429 15
51.172472 10.250129 -37.861975 15
67.293010 29.612017 -57.921452 15
69.940951 42.048374 -58.444759 15
59.750596 17.353481 -38.819456 15
53.025584 11.444325 -60.907271 15
51.166725 10.246519 -50.454064 15
62.745516 21.137771 -25.257755 15
62.350831 20.578460 0.669404 15
65.387414 25.403171 -22.209442 15
37.240864 4.808586 -34.547112 15
43.616975 6.623377 -31.865046 15
64.369218 23.634679 -38.357750 15
47.717874 8.332000 -51.675057 15
43.965694 6.740367 -23.715980 15
69.982937 44.405117 -0.915145 15
69.065968 35.485583 -11.360545 15
60.525783 18.272136 -17.439845 15
69.596767 38.439490 -16.944637 15
43.123118 6.457695 -44.872415 15
68.698954 33.837677 -10.448677 15
68.994303 35.163803 -49.476735 15
57.397760 14.976396 1.390716 15
42.540399 6.262200 2.064476 15
60.596272 18.356921 -15.592865 15
69.886924 41.163678 -41.108132 15
63.730957 22.558792 -28.435310 15
69.953352 46.041211 -7.338111 15
69.983581 44.369530 -8.474475 15
39.468882 5.385588 -30.479054 15
47.063934 8.016316 -50.179511 15
61.847559 19.865268 -10.250225 15
46.019762 7.571474 -20.381083 15
69.815349 39.991645 -13.609242 15
60.961772 18.796550 -1.984993 15
56.654113 14.325409 -2.885258 15
55.475752 13.293874 -27.040695 15
68.516333 33.240031 -6.516524 15
65.061019 24.800816 -40.979337 15
58.491869 16.062276 -47.702129 15
62.080714 20.195675 -38.589976 15
69.949712 46.242622 -15.120690 15
69.228665 36.216099 -31.476756 15
69.705019 39.207297 -29.651105 15
67.553040 30.268203 -60.246291 15
35.233759 4.288794 -12.876655 15
35.954564 4.475465 3.831688 15
55.605120 13.407122 -36.502389 15
56.103051 13.843010 -18.336459 15
57.153081 14.762205 -22.844170 15
35.433473 4.340515 -14.531824 15
68.084161 31.834037 -26.916843 15
59.476024 17.071824 3.839232 15
41.832144 6.024590 -15.554582 15
69.821057 40.085114 -37.495588 15
45.699667 7.435105 -43.900665 15
44.859630 7.077229 -59.340589 15
37.984327 5.001124 3.313657 15
68.205027 32.227252 -54.970471 15
46.869977 7.933686 -44.964165 15
63.890013 22.826906 -57.620164 15
66.021361 26.694452 -57.406176 15
47.570837 8.255106 -41.071007 15
47.714359 8.330162 -20.803549 15
40.550487 5.665698 -42.723073 15
58.176404 15.738671 -20.308197 15
68.698997 33.837871 2.349233 15
34.931016 4.210391 -5.557102 15
44.658892 6.991710 -38.661890 15
67.949594 31.396247 -12.632821 15
68.051009 31.726182 -15.801632 15
69.994072 43.789369 -43.480267 15
66.009108 26.669495 3.711244 15
68.570209 33.415307 -30.459685 15
49.241943 9.129021 -6.797924 15
59.399150 16.992966 -26.727804 15
45.826466 7.489125 -35.130992 15
41.055360 5.796447 -9.255130 15
64.777581 24.323037 -26.746116 15
68.948900 34.959944 -28.472875 15
47.869704 8.411400 -53.530018 15
68.879969 34.650440 -23.168488 15
46.054195 7.586143 -2.407102 15
36.760607 4.684211 -23.846640 15
64.964826 24.638667 2.762918 15
66.573312 27.818718 -8.499719 15
69.987096 44.175151 -55.506453 15
36.613804 4.646192 -27.686982 15
53.267047 11.624092 -44.203050 15
69.976154 42.624827 1.877419 15
70.000949 43.409043 -49.829733 15
46.109425 7.609672 -53.171122 15
58.348821 15.915537 -9.001062 15
51.031641 10.161657 -7.158814 15
51.335723 10.352687 -0.837841 15
54.890671 12.832868 -18.842072 15
68.893982 34.713360 -17.183407 15
60.766504 18.561679 -21.165598 15
67.893602 31.214087 -52.042742 15
62.854949 21.292849 -41.366239 15
64.717752 24.222187 -18.501819 15
68.830107 34.426560 3.858396 15
61.365383 19.282019 1.623753 15
46.603475 7.820149 -12.011779 15
58.828819 16.407920 -10.779191 15
62.255064 20.442748 -6.624718 15
69.085298 35.572376 -26.426563 15
44.651781 6.988680 3.773170 15
66.287049 27.235631 -1.397933 15
67.324884 29.692451 -36.344708 15
39.118181 5.294765 -33.511152 15
44.032204 6.762680 -11.706258 15
69.977375 44.712773 -57.490352 15
69.953621 46.026350 -18.533112 15
64.342255 23.589229 -29.433048 15
62.666098 21.025227 -18.552956 15
36.754222 4.682557 -51.358010 15
62.645241 20.995670 -12.704971 15
69.980133 44.560242 -20.965813 15
61.530106 19.480150 -52.558088 15
52.561349 11.122649 -31.346119 15
39.652351 5.433102 -18.499202 15
49.584360 9.308091 -26.673258 15
60.218615 17.902670 -23.797514 15
51.377377 10.378855 -13.776261 15
65.154102 24.957721 -9.236224 15
66.594746 27.862377 -3.534022 15
61.886497 19.920449 -4.992025 15
60.766035 18.561115 -33.243019 15
42.154756 6.132822 -18.941212 15
61.675789 19.655380 -17.993983 15
47.747012 8.347238 -60.367552 15
38.120882 5.036489 -45.946796 15
65.540389 25.714764 -42.687980 15
69.464309 37.500000 -21.877424 15
52.668421 11.189914 -39.716270 15
46.861563 7.930101 -39.675128 15
53.972422 12.149239 -56.335547 15
62.887791 21.339390 -20.413776 15
58.482780 16.052953 -49.663214 15
69.762031 39.611669 -4.278217 15
39.512640 5.396920 -13.576355 15
69.603462 38.486979 -60.462705 15
60.513567 18.257443 3.832727 15
64.551185 23.941413 -3.825046 15
54.510738 12.550011 0.977206 15
69.985410 44.268399 -17.710039 15
46.359003 7.715998 -5.795784 15
64.950725 24.614898 -52.232965 15
62.380855 20.621007 -8.804987 15
69.501192 37.761602 -32.582769 15
69.854071 40.625721 -51.199668 15
63.958580 22.942487 -47.276631 15
69.995545 43.707918 -2.630551 15
69.998643 42.993091 -26.718704 15
55.758428 13.541329 -56.734734 15
40.451608 5.640090 -11.376447 15
40.999666 5.782024 -24.252662 15
55.864502 13.634185 -20.318764 15
59.023487 16.607611 -23.475839 15
60.154865 17.825990 -12.017134 15
56.455306 14.151373 -39.982473 15
46.553599 7.798901 -7.367701 15
65.945028 26.538972 -40.958492 15
69.602716 38.481686 -55.866713 15
53.377178 11.706084 -54.674198 15
69.949834 42.193829 -23.232538 15
43.995130 6.750243 -56.665293 15
44.427101 6.895163 -9.957969 15
49.955405 9.502131 -1.609871 15
37.550713 4.888829 -16.217735 15
61.620670 19.589081 3.810088 15
40.654112 5.692534 -16.893707 15
51.120041 10.217192 -33.820514 15
69.956018 42.295097 -4.930178 15
51.182648 10.256522 -35.455582 15
67.757107 30.783169 -25.395321 15
42.887461 6.378635 -39.773696 15
61.318815 19.226006 -11.896176 15
67.471393 30.062166 -39.133446 15
60.408092 18.130575 -41.121612 15
58.138150 15.699430 -17.547357 15
69.970793 45.076758 -46.621300 15
55.128202 13.009708 -40.102441 15
52.543752 11.111594 -10.110872 15
50.277003 9.687578 -58.762007 15
36.844255 4.705874 -4.591115 15
69.575133 38.286046 -18.797671 15
53.110419 11.507484 0.158376 15
45.280060 7.256343 -32.901532 15
65.262673 25.149088 -14.147669 15
38.095508 5.029918 -42.949439 15
46.791119 7.900090 -28.573681 15
63.660199 22.439520 -24.958082 15
48.764637 8.879411 -9.296925 15
69.410182 37.116096 -9.884588 15
47.044995 8.008247 -19.193924 15
57.854580 15.408544 -7.213028 15
62.976046 21.464457 -0.941281 15
61.727098 19.717095 -26.598861 15
63.157334 21.721362 -7.541495 15
61.337573 19.248568 -24.912651 15
69.834652 40.307735 -30.718046 15
56.729478 14.391383 -5.822977 15
62.534163 20.838261 -48.030031 15
68.536608 33.305991 -12.281818 15
48.522731 8.752905 -33.806329 15
43.532336 6.594982 -15.681463 15
57.484550 15.052372 -60.883041 15
69.998871 42.996819 -32.646681 15
48.201534 8.584933 -58.026722 15
68.152976 32.057914 -38.060292 15
41.488561 5.909323 -61.014896 15
69.899826 41.374956 -38.709314 15
70.004421 43.217051 -39.435625 15
67.273635 29.563123 -22.264569 15
42.337455 6.194115 -10.801647 15
49.532912 9.281185 -50.478386 15
69.013532 35.250143 -30.232529 15
65.170963 24.986143 -30.096029 15
66.667747 28.034160 -58.069613 15
49.564031 9.297460 -14.984423 15
61.086350 18.946394 0.111454 15
45.344535 7.283810 -57.758771 15
63.511456 22.223191 -37.565552 15
70.003332 43.069867 -21.931514 15
46.629961 7.831433 -31.911171 15
49.359473 9.190485 -24.668827 15
43.468482 6.573559 -0.434883 15
69.053441 35.429338 -47.696242 15
43.323785 6.525016 -27.118058 15
36.879086 4.714894 -54.768605 15
66.955319 28.759851 -40.124004 15
67.050900 29.001049 -0.513902 15
62.386117 20.628464 2.615686 15
52.469256 11.064794 -33.368087 15
63.838669 22.740357 -54.197122 15
52.134784 10.854673 -19.467309 15
66.430998 27.528840 -13.122067 15
48.378672 8.677568 -0.737173 15
47.585729 8.262894 -37.799211 15
40.654867 5.692729 -34.396209 15
43.752014 6.668680 -33.888923 15
38.578235 5.154932 -21.262211 15
64.671505 24.144231 -50.774960 15
60.339501 18.048074 -13.752006 15
44.351152 6.869683 -35.791144 15
56.985978 14.615922 -26.515303 15
68.619031 33.574142 -50.262908 15
69.506759 37.801090 -42.128026 15
57.468725 15.038518 -50.698757 15
52.617722 11.158063 -14.593475 15
63.583459 22.325228 -15.907602 15
64.746500 24.270645 -2.321874 15
67.601101 30.389487 -8.029117 15
68.658128 33.701335 -48.641370 15
69.081275 35.554315 -8.949665 15
66.760926 28.269299 -11.567080 15
69.951226 46.158724 2.455913 15
55.790173 13.569118 -38.608689 15
35.026381 4.235089 -16.527051 15
67.337176 29.723469 -5.330758 15
69.867796 40.850464 -43.588749 15
38.367033 5.100236 -51.017448 15
68.842644 34.482850 -3.945027 15
50.751181 9.985466 -25.856047 15
69.570162 38.250789 1.340713 15
55.971186 13.727576 -60.490266 15
69.824514 40.141710 -59.538994 15
54.941996 12.871079 -45.464139 15
64.095569 23.173402 -12.048777 15
68.755489 34.091522 -31.880252 15
37.005441 4.747617 -11.764625 15
63.170782 21.740419 -33.654821 15
57.985059 15.542390 -35.983449 15
65.567419 25.769822 -7.157030 15
38.631579 5.168747 -40.023578 15
67.291097 29.607189 -3.092002 15
55.224241 13.081209 -58.242471 15
39.840990 5.481955 -23.246633 15
50.549821 9.858968 1.335910 15
68.098317 31.880091 -10.820033 15
65.108855 24.881451 -24.640061 15
41.554716 5.931517 -55.127139 15
37.430522 4.857703 -32.640334 15
54.898310 12.838555 -25.445109 15
35.922551 4.467175 -37.541370 15
67.574046 30.321211 -28.189959 15
69.694743 39.134415 -47.411693 15
63.256475 21.861855 -39.750648 15
69.930792 41.882016 -9.073984 15
37.310745 4.826683 -36.477397 15
69.515606 37.863840 -12.335744 15
50.552089 9.860393 -46.614208 15
66.870478 28.545753 -61.038492 15
49.602689 9.317676 -41.530068 15
69.356016 36.787911 -16.038002 15
67.927099 31.323062 -18.578694 15
69.995529 42.942100 -34.312392 15
68.646468 33.663403 -43.891883 15
60.045712 17.694700 -1.365415 15
35.014950 4.232128 0.377461 15
50.489171 9.820867 -16.162887 15
69.157913 35.898420 -60.915410 15
64.731858 24.245965 -53.849693 15
65.102812 24.871264 -57.124985 15
68.699609 33.840619 -41.928954 15
66.264397 27.189491 -37.901887 15
63.265908 21.875224 -14.111896 15
39.847273 5.483582 -39.106536 15
49.862994 9.453804 -56.976775 15
52.815514 11.287929 -8.353797 15
61.686938 19.668790 -41.230494 15
