-52.140630 -13.458679 -23.908448 19
-26.567515 6.690185 -35.575646 19
-35.054269 3.495466 -1.142762 19
-52.396289 -13.979428 -5.229887 19
-55.582208 -22.781636 -18.985064 19
-55.382843 -21.886479 -1.755793 19
-22.540252 7.733153 2.026348 19
-56.613214 -30.558465 -30.022750 19
-41.381985 -0.532931 -20.870589 19
-33.168515 4.404520 -28.386812 19
-56.594609 -33.168808 -31.734919 19
-22.941597 7.629214 -10.858391 19
-33.014399 4.470180 -22.206849 19
-56.480846 -28.390928 -9.631565 19
-56.235781 -26.312712 1.421439 19
-41.960197 -0.969892 -46.977700 19
-50.682698 -10.905336 -43.389716 19
-54.837500 -20.041023 -35.855393 19
-52.431070 -14.050274 -56.798065 19
-51.684791 -12.594517 -8.775921 19
-26.016885 6.832786 -9.379319 19
-46.334446 -5.109717 -5.668784 19
-39.209470 1.062762 -58.432264 19
-49.081848 -8.525557 -38.321380 19
-23.332638 7.527944 0.512094 19
-56.371873 -27.277982 -31.311376 19
-32.321204 4.765516 1.377957 19
-30.481755 5.494977 -49.899251 19
-56.627959 -31.324960 -28.351991 19
-56.116810 -25.468887 -20.880620 19
-41.467358 -0.596490 -36.765014 19
-53.438662 -16.194762 -1.091845 19
-53.511791 -16.379306 -7.601810 19
-38.905807 1.253527 1.007913 19
-47.740325 -6.778976 -12.576766 19
-53.919640 -17.408544 -14.494437 19
-49.736687 -9.453536 -1.372031 19
-23.742503 7.421798 -19.047189 19
-56.439943 -27.760786 3.422144 19
-36.952080 2.480882 -54.125479 19
-22.068320 7.855373 -40.085672 19
-30.988418 5.325010 -2.591881 19
-34.974727 3.537063 -11.025190 19
-54.900031 -20.244452 -31.853720 19
-30.442862 5.508023 -51.589764 19
-31.201781 5.242446 -14.010539 19
-24.476379 7.231741 -40.573272 19
-28.323041 6.219144 -2.332970 19
-39.072553 1.148775 -30.244066 19
-36.670137 2.650437 -18.989437 19
-46.206900 -4.978881 -26.746742 19
-54.221946 -18.171435 2.036086 19
-56.344584 -27.084427 -34.362148 19
-46.317580 -5.092416 -59.883426 19
-53.747595 -16.974377 -36.613433 19
-54.437407 -18.739438 -42.628925 19
-55.114148 -20.941018 -37.596729 19
-55.815013 -23.826940 -21.583841 19
-43.159074 -2.019386 -46.090329 19
-39.226020 1.052365 -39.867380 19
-39.921501 0.554389 -10.500165 19
-38.795403 1.322884 -53.365298 19
-28.199940 6.260440 -36.263951 19
-56.342018 -27.066224 -39.517274 19
-52.466918 -14.123292 -60.684692 19
-53.767605 -17.024872 -17.802404 19
-40.797224 -0.097580 -50.406428 19
-55.496923 -22.398703 1.243474 19
-42.738985 -1.651641 -55.464238 19
-36.548932 2.713822 -14.407965 19
-46.466962 -5.247357 -3.853975 19
-42.439671 -1.389622 -8.004467 19
-54.288597 -18.339633 -33.340017 19
-52.949271 -15.105793 -14.016854 19
-36.037140 2.981467 -22.868994 19
-28.960244 6.005386 -60.590545 19
-45.307817 -4.056600 -59.286838 19
-53.454178 -16.233916 -25.484934 19
-56.618566 -31.844383 -10.360107 19
-35.580972 3.220023 -31.722987 19
-54.041174 -17.715244 -22.248967 19
-37.634026 2.052475 -16.604852 19
-39.460717 0.897439 -33.231407 19
-40.065519 0.447169 -21.679045 19
-34.929742 3.560588 -13.755467 19
-29.959104 5.670306 -39.158779 19
-33.302528 4.347423 -0.238697 19
-44.658522 -3.390551 -0.781226 19
-52.778779 -14.758520 -20.886927 19
-54.518671 -19.003804 -40.956166 19
-41.573979 -0.675869 -44.904365 19
-43.008114 -1.887236 -6.206255 19
-56.251691 -26.425563 -24.606748 19
-21.812140 7.921717 -21.568581 19
-49.466931 -9.071262 -9.406866 19
-56.606848 -30.454220 -31.723044 19
-26.647902 6.669367 -10.965570 19
-49.326458 -8.872197 -4.282975 19
-56.583399 -33.788035 -48.981859 19
-50.382261 -10.398903 -47.254181 19
-46.477076 -5.259522 -9.431946 19
-37.021836 2.437061 -1.829341 19
-56.607850 -32.436596 -46.172024 19
-56.581346 -33.902402 -10.139392 19
-33.711144 4.173333 -26.948977 19
-21.658102 7.961610 -9.679817 19
-55.463282 -22.247655 -25.946417 19
-44.200414 -2.930973 -3.594579 19
-24.177357 7.309181 -42.689260 19
-29.339294 5.878229 3.863347 19
-56.582527 -30.055960 -10.285583 19
-48.456675 -7.640612 -43.063040 19
-25.494547 6.968059 0.222291 19
-55.278511 -21.475728 -35.335985 19
-56.067988 -25.122601 -59.436376 19
-52.035670 -13.244887 -39.465130 19
-56.579989 -33.976427 -51.622111 19
-33.703473 4.176601 -2.289570 19
-23.809885 7.404348 -22.110850 19
-56.631035 -31.154853 -13.824894 19
-55.198613 -21.215802 -13.221252 19
-53.693180 -16.837056 -44.884599 19
-36.236011 2.877466 -25.175081 19
-27.083883 6.556458 -32.574996 19
-50.118264 -9.994271 -29.438981 19
-40.896539 -0.171519 -59.500693 19
-46.551027 -5.348471 -51.841760 19
-56.612902 -32.157291 -48.741176 19
-51.336762 -12.007860 -53.659059 19
-24.573241 7.206656 -52.094752 19
-53.977685 -17.555025 -31.491562 19
-53.230509 -15.678645 -54.824229 19
-38.898778 1.257943 2.894386 19
-55.514216 -22.476347 -20.546815 19
-43.934506 -2.698198 -34.015756 19
-39.152995 1.098241 -11.862008 19
-49.259817 -8.777759 -23.400009 19
-56.392987 -27.427736 -49.043990 19
-56.576960 -29.964797 -16.091868 19
-51.392757 -12.102249 -60.799465 19
-29.303077 5.890379 -48.431767 19
-37.646562 2.044600 2.105121 19
-52.807518 -14.817057 -17.363619 19
-35.204837 3.416725 -56.236001 19
-39.523297 0.850849 -51.502583 19
-21.604130 7.975587 -32.639116 19
-44.372934 -3.097594 -46.628636 19
-25.090093 7.072803 -14.828362 19
-51.209932 -11.794069 -25.630834 19
-56.606942 -32.487198 -1.429944 19
-53.333284 -15.928831 -60.930701 19
-33.446776 4.285967 -57.180024 19
-21.760274 7.935150 -26.857906 19
-25.083655 7.074471 -5.657831 19
-25.527988 6.959399 -22.946772 19
-56.488419 -28.514944 -28.531816 19
-36.578667 2.698272 -60.939954 19
-43.137204 -2.000241 0.205157 19
-53.560548 -16.502350 -16.138190 19
-56.576269 -29.953490 -40.538196 19
-39.028866 1.176220 -16.937401 19
-51.951352 -13.073140 -46.051320 19
-23.358499 7.521246 -55.530129 19
-56.469584 -28.206518 -56.054582 19
-42.152520 -1.138251 -18.771586 19
-48.247392 -7.388883 -45.097453 19
-56.607138 -32.476390 -12.025429 19
-49.098645 -8.549361 3.537580 19
-21.698451 7.951160 -16.454215 19
-52.168159 -13.514752 -18.982492 19
-50.028537 -9.867118 -50.483090 19
-41.264041 -0.445122 -34.968210 19
-55.297024 -21.535954 -60.056875 19
-34.045560 4.022977 -48.304833 19
-25.193639 7.045987 -20.634859 19
-52.011435 -13.195522 -6.703934 19
-55.794645 -23.735486 -14.967198 19
-40.856870 -0.141986 -31.693134 19
-55.985316 -24.591607 -53.256251 19
-50.530604 -10.648958 -48.945495 19
-56.593914 -33.207658 -7.747862 19
-41.927582 -0.941340 -1.235673 19
-38.101685 1.758686 -57.650826 19
-41.762853 -0.816484 -33.368030 19
-27.644939 6.411157 -45.263401 19
-56.579791 -33.987280 -55.287561 19
-42.289006 -1.257731 -59.607863 19
-48.165725 -7.290653 -23.340541 19
-28.841334 6.045276 -56.483166 19
-56.579024 -34.030075 -17.919959 19
-41.049411 -0.285332 -43.122662 19
-53.687985 -16.823944 -23.690906 19
-45.206942 -3.953122 3.170562 19
-56.257459 -26.466469 -12.444204 19
-56.511706 -28.896259 -5.381128 19
-44.223852 -2.951490 -17.666029 19
-56.539906 -29.358041 -25.589503 19
-23.121802 7.582545 -3.900935 19
-49.653916 -9.336240 -11.198230 19
-56.631746 -30.861911 -43.810240 19
-51.987247 -13.146253 -1.962031 19
-41.801007 -0.844889 1.758641 19
-35.149868 3.445472 -9.238135 19
-50.686372 -10.911528 -19.796460 19
-50.293842 -10.249860 -7.584707 19
-40.042263 0.464482 -36.298545 19
-53.145616 -15.505727 -18.987954 19
-46.595180 -5.401579 -36.276101 19
-55.486061 -22.349930 -31.925601 19
-56.619889 -31.771248 -16.070817 19
-56.439754 -27.759444 -2.764600 19
-56.633525 -31.017179 0.178091 19
-52.053414 -13.281028 -53.006483 19
-46.122018 -4.891809 0.209030 19
-38.061098 1.784184 -18.231121 19
-54.255846 -18.256984 -12.780945 19
-56.383989 -27.363919 -4.671870 19
-56.307785 -26.823418 -29.506231 19
-22.196794 7.822101 -2.218101 19
-51.926816 -13.023162 -29.331171 19
-43.928888 -2.693280 -38.189148 19
-47.258922 -6.199937 -11.089983 19
-56.631255 -31.142698 -7.504092 19
-45.252218 -3.999566 -21.275400 19
-37.296948 2.264232 -39.589193 19
-56.488319 -28.513297 -37.702680 19
-52.085644 -13.346678 -13.770995 19
-46.309707 -5.084340 1.911589 19
-54.933815 -20.354358 -0.646070 19
-51.433951 -12.171686 -10.407436 19
-51.038324 -11.504797 -39.007752 19
-52.636171 -14.468042 -15.443036 19
-33.349676 4.327336 -33.823666 19
-43.898287 -2.666491 -22.464528 19
-27.412425 6.471373 -41.771381 19
-50.858688 -11.201994 -9.294944 19
-23.295166 7.537648 -59.561240 19
-33.449642 4.284745 -7.718920 19
-46.504266 -5.292227 -1.509747 19
-54.828713 -20.012440 -48.957287 19
-55.676260 -23.203932 -33.722771 19
-56.626190 -30.770935 -60.796567 19
-40.257759 0.304047 -54.333760 19
-56.520700 -29.043536 -46.067923 19
-56.597869 -30.307190 -12.064257 19
-49.436425 -9.028032 -33.046540 19
-51.261647 -11.881243 -33.487564 19
-43.962585 -2.722778 -25.242521 19
-27.163444 6.535853 -48.489433 19
-36.594178 2.690161 -12.499693 19
-56.479682 -28.371875 -41.187803 19
-48.223645 -7.360320 -56.181780 19
-38.325517 1.618072 -46.816878 19
-49.304200 -8.840654 -60.199730 19
-47.895848 -6.966041 3.748938 19
-44.037846 -2.788661 -54.802610 19
-53.490153 -16.324702 -30.747216 19
-43.131962 -1.995652 -24.118570 19
-55.539496 -22.589856 -38.584875 19
-52.749627 -14.699139 -7.493655 19
-47.728422 -6.764659 -33.232300 19
-44.843691 -3.580498 -26.537770 19
-55.179348 -21.153129 -33.405300 19
-51.671359 -12.571874 -31.324716 19
-55.767115 -23.611876 -40.219377 19
-41.603907 -0.698150 -52.770260 19
-43.368529 -2.202743 -9.001477 19
-46.539128 -5.334159 -23.541044 19
-35.655261 3.181173 -47.202840 19
-56.622763 -30.714819 -53.942500 19
-50.300498 -10.261078 -57.948232 19
-41.603012 -0.697484 -29.479442 19
-56.579250 -34.017819 -28.360351 19
-47.553652 -6.554443 -52.813342 19
-51.165265 -11.718776 -47.412496 19
-51.801365 -12.791019 -11.820742 19
-25.351482 7.005110 -31.715016 19
-23.965146 7.364139 -38.790146 19
-34.723721 3.668328 -45.964908 19
-36.988646 2.457911 -10.726295 19
-53.853747 -17.242259 -59.817470 19
-37.413449 2.191044 -30.425461 19
-33.648122 4.200183 -10.523324 19
-23.583437 7.462992 -8.405153 19
-55.993785 -24.629630 -50.399450 19
-54.138046 -17.959706 -10.276082 19
-31.328953 5.188264 -22.034796 19
-33.460561 4.280093 -4.071714 19
-56.390702 -27.411532 -44.244634 19
-29.997210 5.657523 -58.328102 19
-33.831780 4.121935 -55.537717 19
-36.275962 2.856574 3.829307 19
-51.851794 -12.876025 2.554064 19
-56.196243 -26.032279 -36.181816 19
-41.514292 -0.631432 -6.109548 19
-53.345040 -15.958498 -3.879018 19
-42.550346 -1.486507 -38.010401 19
-56.294898 -26.732020 -57.866763 19
-46.178961 -4.950220 -11.778809 19
-51.165968 -11.719961 -50.238070 19
-54.856252 -20.102028 -51.176528 19
-50.431811 -10.482426 -24.364106 19
-55.791473 -23.721241 -25.256363 19
-53.970815 -17.537687 -46.664181 19
-21.724155 7.944503 -41.897559 19
-42.723347 -1.637952 -48.883895 19
-51.227102 -11.823011 -18.291819 19
-38.884017 1.267216 -20.895068 19
-42.684379 -1.603840 -2.866912 19
-56.223846 -26.228061 -32.522909 19
-47.811936 -6.865111 -30.777959 19
-24.095298 7.330432 2.017008 19
-37.930557 1.866191 -55.736739 19
-38.514786 1.499171 -43.206655 19
-41.491447 -0.614424 -56.852283 19
-51.508059 -12.296608 -5.219333 19
-39.459823 0.898105 -2.296408 19
-37.431646 2.179613 0.313108 19
-32.088519 4.864651 -10.658858 19
-27.415066 6.470689 -12.544158 19
-36.320457 2.833305 -38.072007 19
-30.354745 5.537584 -15.467342 19
-47.187033 -6.113468 -25.295062 19
-51.163894 -11.716465 -7.245273 19
-52.519226 -14.229837 -35.723774 19
-34.532668 3.768240 3.102390 19
-54.382627 -18.576924 -1.185318 19
-44.590091 -3.320355 0.991339 19
-54.547296 -19.096929 -47.191771 19
-52.820232 -14.842955 3.668143 19
-51.612113 -12.472006 0.983333 19
-38.043296 1.795367 -51.515424 19
-56.618987 -31.821107 -5.467923 19
-51.941209 -13.052480 -50.193181 19
-40.001449 0.494868 2.024587 19
-48.552579 -7.775527 -58.630594 19
-40.297441 0.274504 -28.240298 19
-53.445844 -16.212885 3.465419 19
-56.569863 -29.848583 -27.481764 19
-54.613927 -19.313694 -15.164903 19
-25.468539 6.974795 -39.432568 19
-21.929191 7.891404 -0.496555 19
-56.574613 -29.926360 -23.908268 19
-38.401366 1.570423 -38.413702 19
-28.369279 6.203633 -20.494347 19
-55.926928 -24.329440 -23.529129 19
-50.195029 -10.103056 -13.414879 19
-23.873249 7.387938 -48.350843 19
-51.061912 -11.544558 -45.249769 19
-45.018706 -3.760029 -11.358581 19
-54.796834 -19.908731 -45.408987 19
-55.350405 -21.740830 -4.961919 19
-36.088041 2.954848 -27.603298 19
-56.583860 -33.762858 -35.770695 19
-53.938087 -17.455096 -27.144215 19
-26.011326 6.834225 -47.176025 19
-36.599426 2.687416 -55.841297 19
-31.829175 4.975145 -54.710261 19
-21.887533 7.902192 -49.319877 19
-33.959779 4.067402 -12.400920 19
-54.405466 -18.635524 3.874485 19
-34.707402 3.676862 -61.002466 19
-55.878335 -24.111257 -27.295042 19
-38.891535 1.262493 -27.926023 19
-24.676582 7.179893 -35.289241 19
-43.129301 -1.993323 -21.118763 19
-49.798800 -9.541556 -56.107119 19
-48.382961 -7.551947 -35.269160 19
-26.432457 6.725162 -1.723282 19
-32.036492 4.886817 -7.267287 19
-55.958009 -24.468995 -7.824316 19
-51.064637 -11.549152 -12.876042 19
-28.438428 6.180436 -43.801984 19
-30.318957 5.549589 -30.854371 19
-55.573179 -22.741094 -22.915010 19
-55.354492 -21.759183 -28.455254 19
-49.432686 -9.022733 -48.490058 19
-56.554992 -29.605071 -2.250667 19
-25.161804 7.054232 -37.523803 19
-31.958046 4.920240 -49.461116 19
-39.782741 0.657695 -44.334226 19
-41.326937 -0.491947 -38.999274 19
-56.590526 -33.394829 -16.484838 19
-51.983412 -13.138442 -25.523930 19
-35.055068 3.495048 -42.936457 19
-31.415465 5.151406 -12.261932 19
-34.580513 3.743219 -6.199000 19
-31.542523 5.097273 -59.235656 19
-31.582560 5.080215 -44.485614 19
-47.103140 -6.012561 -55.977286 19
-26.649118 6.669052 -25.283712 19
-50.135669 -10.018936 -18.274919 19
-25.100779 7.070036 -7.767375 19
-28.717119 6.086946 -32.439370 19
-54.741068 -19.727312 -17.640242 19
-47.396424 -6.365326 -17.088275 19
-52.891662 -14.988450 -29.234061 19
-43.993666 -2.749986 -39.849329 19
-55.457955 -22.223734 -43.207417 19
-37.988786 1.829611 -41.491271 19
-37.392836 2.203994 -3.537641 19
-56.388953 -27.399126 -25.884729 19
-56.580150 -33.967673 -46.838971 19
-28.819323 6.052660 -15.417688 19
-48.068232 -7.173387 -54.279420 19
-54.636388 -19.386766 -38.897966 19
-35.972232 3.015411 -57.863236 19
-56.039326 -24.919310 -11.426466 19
-24.778222 7.153571 -10.863736 19
-55.845706 -23.964751 -35.964644 19
-40.690753 -0.018313 -16.322517 19
-52.737392 -14.674219 -11.789608 19
-50.239914 -10.166663 -40.793474 19
-55.075271 -20.814546 -56.097956 19
-56.167035 -25.825116 -3.071831 19
-56.631569 -31.125350 -20.898293 19
-56.607279 -32.468038 -50.473931 19
-48.134103 -7.252618 -51.199121 19
-26.807520 6.628030 -19.329438 19
-29.392453 5.860396 -9.868544 19
-27.373984 6.481328 -5.421933 19
-40.085156 0.432549 -3.948989 19
-50.730218 -10.985437 -52.515893 19
-47.494126 -6.482844 -49.812122 19
-47.629870 -6.646119 -2.993642 19
-29.143784 5.943815 -22.166545 19
-43.944739 -2.707156 -7.508689 19
-51.471548 -12.235063 -51.817559 19
-44.791387 -3.526844 -41.089045 19
-48.329210 -7.487295 0.598940 19
-24.977730 7.101903 -12.597394 19
-51.505000 -12.291451 -0.743315 19
-56.008750 -24.702439 2.844113 19
-56.033275 -24.876388 -13.250724 19
-24.557079 7.210842 -46.632888 19
-34.865221 3.594329 -19.479024 19
-56.214057 -26.158633 -17.106928 19
-50.660931 -10.868644 -54.455885 19
-55.381221 -21.879196 -54.883373 19
-56.425181 -27.656085 -14.143442 19
-41.466231 -0.595651 -61.111003 19
-53.124329 -15.462367 -41.789695 19
-33.433330 4.291695 -20.097313 19
-55.787090 -23.701562 -54.675191 19
-54.886997 -20.202050 -5.736578 19
-33.222276 4.381615 -13.939643 19
-33.066696 4.447899 -24.637429 19
-53.562241 -16.506622 -34.356266 19
-48.190033 -7.319891 -27.054883 19
-40.096279 0.424268 -38.297896 19
-45.340521 -4.090147 -1.941097 19
-45.134191 -3.878493 -22.943863 19
-55.538110 -22.583632 -44.993941 19
-54.412526 -18.658494 -36.884966 19
-29.222201 5.917510 1.401374 19
-55.050759 -20.734802 -53.330415 19
-42.377882 -1.335532 -39.884239 19
-55.124850 -20.975834 -41.988420 19
-47.628875 -6.644922 -61.052789 19
-54.066464 -17.779065 -2.587794 19
-31.958337 4.920115 -30.284126 19
-56.631835 -30.863382 -56.133495 19
-31.857986 4.962870 -16.630631 19
-22.105750 7.845679 -19.851725 19
-54.823560 -19.995674 -26.982891 19
-56.353311 -27.146322 -20.763423 19
-27.206234 6.524772 -15.154685 19
-41.564811 -0.669043 -55.220184 19
-43.518969 -2.334437 -59.043524 19
-56.603955 -32.651527 -60.713970 19
-50.297252 -10.255608 -34.266104 19
-56.101951 -25.363495 -34.620819 19
-51.433091 -12.170237 -20.771551 19
-32.783865 4.568399 -38.875162 19
-32.554548 4.666100 -18.426382 19
-23.937649 7.371260 -17.268655 19
-55.667106 -23.162829 -61.055128 19
-56.024675 -24.815394 -48.530483 19
-52.065712 -13.306078 -41.442678 19
-27.260192 6.510798 -3.395470 19
-42.528079 -1.467015 3.080092 19
-26.700268 6.655805 -30.696603 19
-44.450614 -3.177279 -15.132874 19
-56.220534 -26.204571 -19.040787 19
-43.922628 -2.687799 -29.073476 19
-56.572517 -29.892051 3.154747 19
-50.909298 -11.287304 -14.899609 19
-46.440982 -5.219002 -15.722044 19
-21.549810 7.989655 -4.832716 19
-52.896374 -14.998048 -9.212325 19
-24.406160 7.249926 -56.906163 19
-56.250112 -26.414362 -53.382078 19
-50.714425 -10.958816 -16.746599 19
-56.206938 -26.108138 -15.189352 19
-53.896438 -17.349991 -28.892920 19
-30.226373 5.580647 -55.586162 19
-43.200983 -2.056073 -32.309848 19
-50.249522 -10.180278 -21.087545 19
-46.917806 -5.789638 3.814819 19
-45.540719 -4.295511 -39.727339 19
-52.421479 -14.030737 1.459378 19
-35.453536 3.286666 -52.609282 19
-29.244258 5.910110 -37.508822 19
-33.693165 4.180992 1.727317 19
-39.852074 0.606077 -60.684911 19
-46.732704 -5.566995 -48.378747 19
-33.163586 4.406620 -40.395907 19
-52.303637 -13.790705 -0.087357 19
-56.610933 -32.266511 -18.087487 19
-46.294628 -5.068872 -19.685878 19
-55.245345 -21.367830 -7.069686 19
-37.592391 2.078631 3.692188 19
-56.494859 -28.620399 -53.116215 19
-56.195348 -26.025937 -51.853625 19
-50.871958 -11.224362 -30.375141 19
-53.308420 -15.866086 -58.930132 19
-48.462764 -7.648249 -24.976199 19
-24.338139 7.267542 -53.638982 19
-56.515639 -28.960661 -32.527444 19
-54.530378 -19.041891 -61.079310 19
-50.114397 -9.988791 -22.780601 19
-26.736234 6.646491 -7.447285 19
-54.856497 -20.102824 3.189942 19
-50.794054 -11.093043 -27.371745 19
-56.603392 -32.683547 3.583077 19
-36.164094 2.915076 -33.438747 19
-44.862909 -3.600212 -30.438360 19
-23.518586 7.479787 -34.367901 19
-26.548312 6.695158 3.643715 19
-31.651440 5.050869 -28.559779 19
-45.796251 -4.557636 -57.470510 19
-30.654441 5.437047 -10.818598 19
-45.224702 -3.971340 -52.877845 19
-56.483643 -28.436725 -19.535309 19
-51.144522 -11.683810 -58.894686 19
-37.507486 2.131969 -37.264088 19
-50.038040 -9.880585 -31.474728 19
-55.778483 -23.662917 -47.126960 19
-48.930500 -8.311082 -2.793626 19
-51.999839 -13.171903 -3.916347 19
-29.153763 5.940468 -40.609807 19
-53.716507 -16.895922 -19.709807 19
-55.408867 -22.003330 -40.247907 19
-49.098927 -8.549761 -26.369520 19
-56.574299 -29.921222 -8.653014 19
-56.489916 -28.539448 -0.903973 19
-56.585634 -33.664837 -33.382324 19
-21.729603 7.943093 3.677172 19
-50.775349 -11.061513 -35.857570 19
-48.604185 -7.848657 -8.011501 19
-45.071473 -3.814158 -19.714594 19
-54.893267 -20.222445 -43.543595 19
-38.889354 1.263863 -5.438861 19
-28.919064 6.019200 -11.848683 19
-38.120237 1.747031 -25.439259 19
-40.287100 0.282203 3.597890 19
-49.017269 -8.434043 -31.168474 19
-55.651445 -23.092513 -58.846715 19
-31.043580 5.306505 -36.443998 19
-46.106927 -4.876329 -41.649881 19
-48.205242 -7.338185 -14.056394 19
-40.967986 -0.224711 -40.773117 19
-34.124916 3.981477 -36.152008 19
-29.848714 5.707338 -1.289712 19
-26.062967 6.820851 -45.264294 19
-31.410034 5.153720 -5.653919 19
-49.009379 -8.422861 -54.775252 19
-22.020320 7.867804 -29.364224 19
-40.727958 -0.046013 -12.002141 19
-56.526423 -29.137249 -17.490804 19
-22.422223 7.763720 -23.725786 19
-45.108287 -3.851922 -34.304258 19
-41.398953 -0.545563 -3.027186 19
-54.218684 -18.163202 -44.115878 19
-33.631730 4.207167 -43.742870 19
-53.713378 -16.888027 -40.720827 19
-54.850377 -20.082918 -2.622652 19
-56.278981 -26.619121 -37.780008 19
-51.999876 -13.171977 -27.496177 19
-56.631758 -31.114850 -22.579379 19
-31.926504 4.933678 -23.652996 19
-43.552934 -2.364170 -60.923109 19
-55.235217 -21.334884 -58.084795 19
-56.531928 -29.227390 -43.906357 19
-55.630666 -22.999212 -3.362946 19
-46.472441 -5.253946 -50.336197 19
-21.752552 7.937149 -54.967034 19
-28.974779 6.000510 -4.195992 19
-56.510708 -28.879918 -30.261368 19
-54.107789 -17.883351 -50.139244 19
-53.483405 -16.307672 -43.053265 19
-48.586015 -7.822909 -21.595214 19
-55.568233 -22.718888 -0.384320 19
-25.025957 7.089413 -55.039395 19
-25.337885 7.008631 -43.702747 19
-54.681863 -19.534705 -54.379843 19
-54.723720 -19.670874 -23.486896 19
-37.425764 2.183308 -32.711033 19
-56.595061 -30.261197 -38.523711 19
-56.023001 -24.803519 0.568390 19
-42.264119 -1.235945 -25.576617 19
-54.477396 -18.869528 0.447497 19
-21.738004 7.940917 -53.100849 19
-29.906585 5.687924 -33.671750 19
-36.612995 2.680320 -51.145407 19
-55.661903 -23.139468 -10.726363 19
-55.631152 -23.001395 -41.894692 19
-43.360902 -2.196066 -50.546469 19
-21.800921 7.924623 -56.581650 19
-37.018013 2.439462 -59.329541 19
-48.846398 -8.191900 -15.478805 19
-23.608089 7.456608 -30.029497 19
-33.703435 4.176617 -52.019613 19
-25.731502 6.906693 2.142490 19
-32.864420 4.534079 -60.674728 19
-39.880110 0.585204 -26.396726 19
-55.703236 -23.325058 -49.031944 19
-56.597439 -30.300147 -36.162037 19
-56.580009 -33.975503 -45.080105 19
-55.222017 -21.291939 -22.017577 19
-52.690617 -14.578944 -26.164190 19
-54.685091 -19.545204 -21.618106 19
-50.098417 -9.966146 -39.078197 19
-56.452769 -27.931171 -7.216729 19
-53.344028 -15.955945 -37.899881 19
-55.238666 -21.346102 -46.258607 19
-34.985003 3.531689 -34.401383 19
-51.303178 -11.951250 3.828823 19
-56.484981 -28.458642 -59.714911 19
-51.278764 -11.910096 -3.053880 19
-22.751150 7.678536 -43.295230 19
-49.308209 -8.846336 -41.794549 19
-28.403731 6.192076 -13.895784 19
-24.174329 7.309965 -61.014220 19
-55.844873 -23.961010 -43.463778 19
-47.336386 -6.293113 -8.221454 19
-56.582710 -33.826877 -14.971601 19
-21.742526 7.939746 -30.964562 19
-28.364597 6.205203 -0.586120 19
-45.006060 -3.747056 -28.133304 19
-42.944903 -1.831901 -53.438903 19
-49.256725 -8.773377 -57.569560 19
-52.681378 -14.560124 -45.455639 19
-35.472944 3.276517 -3.049046 19
-30.032505 5.645683 -46.645556 19
-45.570572 -4.326134 -32.719609 19
-53.626484 -16.668742 -11.547163 19
-49.960094 -9.770127 -3.031194 19
-27.446798 6.462471 -22.165108 19
-39.504745 0.864661 -49.571845 19
-28.715690 6.087425 -18.422874 19
-37.023387 2.436086 -47.677600 19
-49.401670 -8.978781 -36.513639 19
-28.985514 5.996909 -7.990517 19
-22.395555 7.770626 -38.082360 19
-51.370943 -12.065478 -24.029188 19
-52.105965 -13.388069 -44.435066 19
-34.984396 3.532006 0.617871 19
-55.287555 -21.505151 -15.005900 19
-56.250312 -26.415779 -42.885979 19
-56.511574 -28.894103 -22.753109 19
-52.147372 -13.472411 -21.432322 19
-40.599486 0.049634 -1.715018 19
-56.620069 -30.670704 -49.316368 19
-42.068873 -1.065026 -11.101084 19
-55.713246 -23.370002 -9.149361 19
-27.911851 6.342033 -26.864306 19
-50.051831 -9.900129 0.661468 19
-52.687495 -14.572583 -1.970040 19
-56.610335 -32.299050 -55.317803 19
-40.448931 0.161721 -30.215355 19
-54.108952 -17.886287 -48.630308 19
-23.219528 7.557237 -25.245483 19
-55.597096 -22.848483 -56.583561 19
-54.758377 -19.783620 -57.418710 19
-52.474523 -14.138782 -32.889599 19
-46.277958 -5.051772 -46.150008 19
-50.585233 -10.741043 -0.515748 19
-56.047453 -24.976952 -57.807493 19
-48.695830 -7.978528 -10.916772 19
-56.040485 -24.927531 -28.632644 19
-32.489538 4.693797 -46.483520 19
-30.935278 5.342836 -18.026908 19
-41.676244 -0.752004 -17.275908 19
-25.725020 6.908372 -58.983619 19
-31.792457 4.990788 -1.121675 19
-49.409196 -8.989445 -5.987725 19
-42.972609 -1.856155 -30.040300 19
-31.690303 5.034311 -32.313009 19
-56.466478 -28.155651 1.058575 19
-56.501247 -28.724994 -50.284798 19
-42.417294 -1.370033 -12.897095 19
-27.521389 6.443154 -8.874311 19
-28.465273 6.171430 -46.717115 19
-45.067025 -3.809595 -5.970413 19
-27.688954 6.399758 -59.656796 19
-56.582402 -33.843969 -13.279590 19
-45.913695 -4.678111 -55.968811 19
-43.127141 -1.991432 -4.412791 19
-32.076304 4.869856 -52.739282 19
-23.268198 7.544632 -6.599428 19
-21.871312 7.906393 -34.620832 19
-56.550589 -29.532970 -20.827764 19
-55.036986 -20.689994 -18.987914 19
-56.579088 -34.026581 -24.523728 19
-37.794399 1.951727 -13.579667 19
-43.757807 -2.543516 -36.497927 19
-21.720616 7.945420 -51.408758 19
-49.208547 -8.705104 -52.000617 19
-55.608095 -22.897867 -13.475948 19
-32.342317 4.756521 -42.365175 19
-56.597879 -32.987780 -43.796498 19
-31.230567 5.230182 -47.512938 19
-53.371031 -16.024088 -5.560000 19
-56.325111 -26.946312 -22.864493 19
-23.677554 7.438618 -1.291759 19
-29.579418 5.797676 -26.422279 19
-46.726675 -5.559743 -30.397746 19
-21.898939 7.899238 -36.458613 19
-56.218113 -26.187400 -61.018934 19
-35.224706 3.406335 -17.511634 19
-24.060616 7.339414 -50.569918 19
-44.145544 -2.882940 -52.159986 19
-21.811258 7.921946 -44.762565 19
-53.615129 -16.640087 -51.608463 19
-50.284033 -10.233324 -45.333063 19
-53.414759 -16.134439 -49.221550 19
-46.537426 -5.332111 -13.511519 19
-49.904744 -9.691690 -53.132776 19
-56.012201 -24.726917 -45.490407 19
-34.779533 3.639141 -50.825187 19
-46.255631 -5.028869 -28.577860 19
-49.932681 -9.731280 -25.919546 19
-38.124109 1.744599 -49.684088 19
-56.602832 -32.714466 -22.232171 19
-29.655624 5.772112 -35.512323 19
-38.445911 1.542439 -35.579878 19
-55.892145 -24.173266 -1.471886 19
-31.184816 5.249674 2.757804 19
-37.056165 2.415495 -45.830599 19
-56.586657 -33.608086 -42.350607 19
-55.382867 -21.886586 -48.520635 19
-45.176646 -3.922044 -4.319501 19
-50.230246 -10.152963 3.875440 19
-50.402057 -10.432272 -60.326586 19
-48.036344 -7.135031 -47.560574 19
-40.522731 0.106778 -24.279588 19
-51.033252 -11.496247 -40.953644 19
-21.902448 7.898330 -7.800708 19
-49.352633 -8.909289 -44.455522 19
-29.767332 5.734638 -13.209543 19
-39.852161 0.606012 -0.373606 19
-55.365097 -21.806798 -9.773645 19
-27.414697 6.470785 -34.102081 19
-36.563695 2.706102 -35.999571 19
-56.578881 -34.037802 -39.148672 19
-56.612996 -32.152283 -39.718086 19
-25.376844 6.998542 -49.662427 19
-31.388114 5.163059 -40.247672 19
-55.795661 -23.740048 -30.226093 19
-42.996336 -1.876926 -17.211546 19
-43.629018 -2.430774 -12.021647 19
-34.512153 3.778968 -29.145302 19
-23.752412 7.419232 -36.775824 19
-24.175284 7.309718 -2.783492 19
-53.852801 -17.239872 -58.141912 19
-50.464418 -10.537391 -5.940064 19
-56.556869 -29.635800 -14.359998 19
-37.419756 2.187082 -22.058756 19
-52.819275 -14.841006 -24.597049 19
-33.916603 4.085797 -53.701442 19
-39.053092 1.161001 -23.847137 19
-44.925022 -3.663928 -36.717590 19
-54.482304 -18.885496 -8.450503 19
-42.461497 -1.408728 -57.904515 19
-48.687017 -7.966039 -28.517528 19
-43.532127 -2.345956 -19.247266 19
-56.407677 -27.531931 -46.344689 19
-45.715523 -4.474825 -25.135555 19
-52.847301 -14.898092 -48.260113 19
-23.634244 7.449835 -26.968528 19
-49.162200 -8.639425 -0.018423 19
-53.158136 -15.531230 -39.968030 19
-39.837835 0.616678 -56.084975 19
-56.596779 -33.048366 -52.993923 19
-33.884535 4.099459 -58.822751 19
-46.714670 -5.545304 -21.307132 19
-45.159440 -3.904394 -60.963734 19
-33.363388 4.321494 -50.144024 19
-21.805701 7.923385 -13.610928 19
-36.034065 2.983075 -41.223459 19
-47.065677 -5.967500 -44.035958 19
-22.421963 7.763787 -46.893274 19
-53.160488 -15.536020 -22.356920 19
-30.606097 5.453264 -60.585594 19
-30.218069 5.583433 -43.395047 19
-49.797191 -9.539276 -16.314585 19
-54.019741 -17.661157 -55.412360 19
-56.579736 -30.010254 1.584774 19
-28.806017 6.057123 -53.812231 19
-25.066542 7.078903 -25.774270 19
-32.203686 4.815585 -51.182802 19
-55.999325 -24.654506 -41.677434 19
-56.584988 -33.700623 -30.007484 19
-43.441635 -2.266739 -14.191216 19
-26.734644 6.646903 -16.808800 19
-28.779515 6.066014 -23.852571 19
-52.562866 -14.318728 -30.973274 19
-56.127465 -25.544457 -9.082348 19
-49.226522 -8.730576 -19.800772 19
-56.143682 -25.659477 -26.692573 19
-56.505323 -28.791748 -39.507154 19
-45.660369 -4.418248 -44.342272 19
-42.237320 -1.212485 -22.586124 19
-56.620208 -31.753232 -59.234781 19
-28.865613 6.037131 -50.168180 19
-38.065932 1.781147 -60.709845 19
-27.958079 6.330061 2.773655 19
-48.343182 -7.504101 -37.382014 19
-48.939660 -8.324062 -40.231766 19
-56.609230 -32.360696 -25.093526 19
-48.611016 -7.858338 -17.945216 19
-55.187752 -21.180470 -24.092098 19
-26.076554 6.817333 -56.832629 19
-42.029581 -1.030630 -15.175237 19
-48.957289 -8.349044 -50.346262 19
-40.444692 0.164877 -46.360819 19
-34.737752 3.660990 -24.009728 19
-50.552128 -10.685239 -37.710618 19
-22.395494 7.770642 -18.160714 19
-40.902164 -0.175708 -7.881699 19
-30.062487 5.635625 -24.596267 19
-53.851769 -17.237266 0.233979 19
-54.500652 -18.945184 -52.454810 19
-50.593802 -10.755488 -4.063509 19
-27.166810 6.534982 -23.713138 19
-54.519530 -19.006600 -28.294906 19
-34.596815 3.734694 -15.432606 19
-34.453293 3.809750 -25.611939 19
-47.458363 -6.439827 -42.307983 19
-56.584174 -33.746257 -0.381479 19
-47.363320 -6.325509 -4.895915 19
-36.310492 2.838516 -21.123638 19
-56.584479 -33.729012 -19.791953 19
-39.905185 0.566536 -14.660826 19
-43.874858 -2.645982 3.646774 19
-24.965571 7.105052 3.718555 19
-56.156552 -25.750766 -1.138653 19
-55.822146 -23.858967 -5.170861 19
-46.410548 -5.187783 -17.920649 19
-25.244139 7.032909 -29.826266 19
-31.035258 5.309297 -9.135175 19
-42.572180 -1.505620 -28.062488 19
-54.215226 -18.154477 -25.124626 19
-56.618433 -31.851744 -35.356811 19
-37.604186 2.071221 -34.296034 19
-53.772039 -17.036063 -53.666098 19
-56.250912 -26.420032 -56.002276 19
-54.773349 -19.832328 -11.801829 19
-27.184769 6.530331 0.480512 19
-47.009098 -5.899445 -39.703808 19
-31.092448 5.289027 0.521302 19
-55.916875 -24.284301 -19.122614 19
-47.297420 -6.246243 -0.105174 19
-33.563267 4.236335 -31.534093 19
-39.753512 0.679455 -41.813659 19
-25.575217 6.947168 -33.863131 19
-56.254606 -26.446233 -47.760575 19
-52.935990 -15.078741 -53.312063 19
-26.961446 6.588166 -50.291472 19
-55.381827 -21.881917 3.050644 19
-28.147330 6.278088 -57.983993 19
-53.895047 -17.346481 -38.975328 19
-45.863880 -4.627010 -38.259848 19
-52.413281 -14.014040 -37.461613 19
-44.398825 -3.124153 -49.187707 19
-52.566453 -14.326034 -58.516215 19
-23.449610 7.497651 -13.742102 19
-42.473267 -1.419032 -43.162736 19
-44.862296 -3.599583 -9.530315 19
-44.368474 -3.093020 -44.668028 19
-31.590742 5.076729 -57.403725 19
-27.806214 6.369391 -29.208742 19
-47.766388 -6.810325 -20.499630 19
-56.626310 -31.416138 -41.869884 19
-54.973517 -20.483517 -29.997226 19
-46.736184 -5.571181 -31.947696 19
-55.448375 -22.180721 -30.097802 19
-50.820781 -11.138095 1.317146 19
-56.578788 -34.042656 -59.966305 19
-23.404588 7.509310 -32.204538 19
-33.534811 4.248459 -17.080572 19
-56.230366 -26.274306 -7.518144 19
-56.595768 -33.104189 -56.840149 19
-36.007486 2.996975 -29.349394 19
-46.500140 -5.287264 -34.241366 19
-26.373327 6.740475 -27.847709 19
-35.614267 3.202612 -39.607350 19
-55.659751 -23.129808 -6.881854 19
-52.074133 -13.323231 -47.745700 19
-48.090575 -7.200262 -1.577741 19
-55.997943 -24.648302 -32.867214 19
-39.765973 0.670178 -18.402885 19
-56.581134 -33.914243 -4.888788 19
-49.250627 -8.764736 1.775997 19
-36.840588 2.550923 -44.303946 19
-33.186679 4.396781 -5.754737 19
-27.473571 6.455538 -52.746081 19
-56.610730 -32.277723 1.615825 19
-56.579171 -34.022088 -2.807197 19
-49.354552 -8.912008 -46.696797 19
-38.355827 1.599031 -9.612331 19
-38.289401 1.640761 -15.119652 19
-32.811977 4.556422 -37.163063 19
-54.801640 -19.924363 -9.821613 19
-29.274541 5.899951 -45.250486 19
-56.629931 -31.215924 -51.386838 19
-37.483159 2.147252 -28.547155 19
-55.552542 -22.648436 -52.247133 19
-51.647374 -12.531444 -56.664982 19
-28.689253 6.096293 -51.668335 19
-45.350877 -4.100771 -16.006911 19
-21.832691 7.916395 -61.114286 19
-31.166965 5.257279 -26.936209 19
-56.598700 -32.942558 -37.152361 19
-54.530478 -19.042216 -59.013125 19
-35.802978 3.103924 2.297512 19
-56.220956 -26.207565 -41.015974 19
-47.292462 -6.240280 -45.921201 19
-27.398884 6.474880 -39.580062 19
-47.379241 -6.344658 2.293829 19
-50.725113 -10.976832 -56.418901 19
-55.518856 -22.497184 -36.612260 19
-29.010504 5.988526 -28.359887 19
-52.284147 -13.751007 -10.189940 19
-53.269712 -15.768402 -46.882098 19
-47.471976 -6.456202 -59.118088 19
-47.219554 -6.152586 -27.666849 19
-26.856450 6.615358 -37.758404 19
-47.717081 -6.751017 -29.056258 19
-56.552710 -29.567702 -48.098170 19
-26.537015 6.698084 -55.145619 19
-23.111924 7.585103 -57.640455 19
-36.383429 2.800373 -5.561177 19
-51.965712 -13.102390 -59.255138 19
-45.306010 -4.054746 -50.882484 19
-48.544010 -7.763383 -5.295250 19
-52.654012 -14.504382 -43.178305 19
-54.440217 -18.748577 -6.344085 19
-49.092282 -8.540344 -13.564464 19
-56.631921 -31.105850 -3.892062 19
-56.157012 -25.754025 -4.690878 19
-23.292560 7.538323 3.565386 19
-56.492646 -28.584162 -57.724257 19
-56.462061 -28.083328 -11.653000 19
-51.251326 -11.863845 -22.378359 19
-50.656937 -10.861912 -11.410656 19
-37.858540 1.911433 -6.957931 19
-29.893522 5.692306 -6.295503 19
-52.124801 -13.426436 -54.945151 19
-46.207108 -4.979094 -7.205622 19
-47.338516 -6.295674 -15.018088 19
-53.334510 -15.931924 -27.782583 19
-51.801609 -12.791431 -36.522002 19
-41.011581 -0.257168 -9.597506 19
-56.594210 -30.247274 -19.295049 19
-56.583538 -33.780117 -58.230281 19
-40.893595 -0.169328 -47.984610 19
-35.449919 3.288558 -49.405152 19
-31.224578 5.232733 -38.312843 19
-43.763368 -2.548384 -42.592861 19
-35.407758 3.310607 -44.519144 19
-55.697880 -23.301005 -17.345246 19
-31.456717 5.133831 -34.282185 19
-55.250509 -21.384632 -17.059520 19
-41.328954 -0.493449 -27.085742 19
-56.274976 -26.590713 -10.694193 19
-45.552567 -4.307665 -49.017992 19
-36.755372 2.604456 -8.697842 19
-55.338555 -21.687626 -11.619324 19
-56.538155 -29.329359 -34.369032 19
-49.450585 -9.048098 -34.876122 19
-47.319754 -6.273107 -18.886974 19
-43.723527 -2.513508 -57.018000 19
-29.880908 5.696538 -20.181538 19
-53.104194 -15.421355 0.293692 19
-54.421498 -18.687682 -35.165270 19
-54.522131 -19.015063 -4.600610 19
-56.587828 -33.543742 -26.405102 19
-43.663275 -2.460762 -1.761080 19
-32.877978 4.528302 3.352879 19
-55.078024 -20.823502 1.118867 19
-56.025861 -24.823808 -37.594183 19
-55.341188 -21.699447 -50.490448 19
-51.603448 -12.457400 -16.269978 19
-32.666172 4.618542 -35.560444 19
-53.614593 -16.638734 -56.471294 19
-39.931995 0.546576 -6.452339 19
-56.624447 -30.742405 -46.106397 19
-52.888377 -14.981760 -50.429946 19
