51.574328 -53.863821 -60.554342 8
46.891340 -57.129556 -0.455907 8
49.082136 -55.653388 -30.916797 8
49.384047 -55.449959 -46.100422 8
58.751579 -47.754843 2.799701 8
58.891480 -47.622602 -16.539394 8
55.639202 -50.597329 -7.467156 8
51.501293 -53.919078 -38.219289 8
56.525887 -49.846740 -59.122349 8
55.259909 -50.918406 -2.569995 8
57.127022 -49.290450 -28.528546 8
57.519644 -48.919325 -32.976495 8
58.027193 -48.439567 -39.723633 8
54.354223 -51.685079 -26.253444 8
52.708652 -53.005613 -47.261674 8
58.041470 -48.426072 -55.014686 8
58.710320 -47.793843 -50.506692 8
56.870107 -49.533298 -37.233309 8
53.371227 -52.504321 -2.764107 8
50.105014 -54.964169 -16.231115 8
51.661135 -53.798144 -22.619461 8
48.731733 -55.889491 -0.619382 8
58.492509 -47.999728 -27.023827 8
54.956011 -51.175658 -50.277123 8
49.350000 -55.472900 -57.718937 8
48.255577 -56.210327 -28.227092 8
57.474670 -48.961837 -14.625687 8
53.767157 -52.182038 -32.588383 8
56.483585 -49.882549 -20.801643 8
55.506133 -50.709974 -52.964635 8
55.503698 -50.712035 -38.039859 8
53.506876 -52.401692 -47.246237 8
57.473909 -48.962556 -54.514257 8
56.364610 -49.983262 -33.928422 8
55.976638 -50.311685 -3.471278 8
52.988027 -52.794243 0.414623 8
51.540770 -53.889210 -34.684394 8
57.949871 -48.512654 0.322870 8
57.694754 -48.753803 -27.536819 8
51.151914 -54.183411 -52.451638 8
57.695930 -48.752692 -24.481631 8
51.924043 -53.599233 -48.356866 8
56.507573 -49.862243 1.404322 8
59.555593 -46.994852 -51.151665 8
48.105327 -56.311566 -23.608867 8
59.617395 -46.936434 -15.579300 8
51.217656 -54.133672 -46.524721 8
54.624228 -51.456517 -23.564832 8
51.360629 -54.025501 -36.492126 8
47.020584 -57.042471 -16.138057 8
54.828246 -51.283814 -8.768274 8
58.476697 -48.014675 -2.871224 8
56.200761 -50.121963 -55.192708 8
49.774526 -55.186853 0.398580 8
54.233219 -51.787511 -13.785334 8
54.521969 -51.543080 -30.227420 8
47.371911 -56.805745 -13.782215 8
58.666454 -47.835308 -1.993980 8
59.002487 -47.517673 -34.265630 8
47.133494 -56.966391 0.379306 8
55.556832 -50.667057 -20.713495 8
49.582633 -55.316151 -45.329982 8
56.251048 -50.079394 -19.861285 8
47.183205 -56.932896 -12.888206 8
49.880600 -55.115380 -52.744143 8
56.142700 -50.171112 -35.411690 8
57.063339 -49.350646 -53.701053 8
54.889628 -51.231852 -60.136366 8
55.566784 -50.658632 -49.639782 8
58.933479 -47.582903 -7.111143 8
47.251514 -56.886869 -36.207135 8
54.466899 -51.589698 -44.983798 8
57.302600 -49.124486 -30.420482 8
47.615908 -56.641339 -5.490017 8
57.057088 -49.356555 -36.231307 8
46.876810 -57.139346 -46.286817 8
53.019861 -52.770158 -38.315738 8
50.938741 -54.344693 -58.781413 8
49.385647 -55.448881 -16.770780 8
52.479740 -53.178803 -30.189287 8
52.910931 -52.852573 -1.683318 8
53.752811 -52.194182 -8.361118 8
50.082325 -54.979457 -60.768670 8
50.449311 -54.714987 -41.372581 8
53.548751 -52.366921 -33.471965 8
54.075348 -51.921151 -43.515960 8
57.646207 -48.799692 -48.280087 8
58.266372 -48.213483 -43.249944 8
48.090357 -56.321653 2.608933 8
50.735750 -54.498273 -33.345184 8
59.624259 -46.929945 -9.189600 8
58.315109 -48.167415 -20.454621 8
56.340746 -50.003463 -41.943420 8
50.940410 -54.343431 -10.061333 8
48.469803 -56.065980 -24.694927 8
51.774382 -53.712464 -42.614477 8
54.954889 -51.176608 -4.918762 8
49.490020 -55.378554 -0.541653 8
49.106097 -55.637243 -21.715711 8
52.881076 -52.875160 -18.520174 8
56.180027 -50.139514 -17.163425 8
55.452713 -50.755194 -35.035929 8
48.742872 -55.881985 -54.618594 8
55.830421 -50.435460 -52.244616 8
54.015843 -51.971522 -3.341019 8
54.111886 -51.890220 -49.233306 8
49.724705 -55.220423 -4.559793 8
54.838170 -51.275413 -55.413089 8
54.037244 -51.953406 -38.928064 8
48.989775 -55.715621 -14.089424 8
57.038928 -49.373720 -38.591833 8
58.164711 -48.309578 -5.925558 8
59.183696 -47.346386 -45.544186 8
55.107916 -51.047069 -14.611014 8
51.386660 -54.005807 -11.559156 8
55.931502 -50.349894 -54.272036 8
48.092488 -56.320217 -61.007229 8
57.837685 -48.618698 -47.444026 8
49.400095 -55.439146 -10.326820 8
54.788523 -51.317439 -6.491092 8
53.591689 -52.330573 -56.499987 8
46.944715 -57.093591 -54.670454 8
53.508067 -52.400791 -50.257740 8
49.755413 -55.199731 -21.167928 8
49.792126 -55.174994 -37.851096 8
49.598954 -55.305154 -49.604484 8
48.348833 -56.147491 -44.485527 8
58.101185 -48.369625 -60.907480 8
53.210517 -52.625912 -5.703325 8
57.772213 -48.680586 -28.629979 8
58.460105 -48.030358 -11.300018 8
58.905474 -47.609374 -48.095523 8
56.064806 -50.237050 -25.688770 8
47.968033 -56.404075 -54.209835 8
49.145804 -55.610488 -52.071331 8
58.476858 -48.014522 -25.792032 8
57.952828 -48.509860 -52.044562 8
54.748268 -51.351515 -34.442679 8
53.628900 -52.299074 -26.457610 8
54.377494 -51.665380 -52.656753 8
52.882319 -52.874220 -28.448057 8
53.720544 -52.221496 -18.374555 8
52.439146 -53.209516 -12.627334 8
47.314783 -56.844238 -17.320813 8
51.653744 -53.803736 -55.197481 8
48.095662 -56.318078 -33.467431 8
51.568788 -53.868012 2.553309 8
59.597591 -46.955154 -12.677493 8
47.469171 -56.740211 -51.134647 8
46.896069 -57.126369 3.518602 8
59.605386 -46.947785 -7.429508 8
50.860361 -54.403994 -38.328027 8
57.063375 -49.350612 -42.569938 8
59.625611 -46.928668 -23.738090 8
55.892502 -50.382908 3.625033 8
47.545132 -56.689028 -49.266259 8
50.376177 -54.770318 -50.819949 8
56.998706 -49.411740 -33.337406 8
51.086505 -54.232898 -43.127179 8
50.783280 -54.462312 -17.548896 8
56.673430 -49.719206 -11.203515 8
56.119849 -50.190455 -47.872737 8
48.006907 -56.377881 -41.491132 8
54.468129 -51.588657 2.724233 8
47.819545 -56.504127 -7.078362 8
57.386327 -49.045343 -52.927019 8
52.160389 -53.420418 -32.870041 8
59.167355 -47.361832 -11.156158 8
47.459822 -56.746510 -32.649086 8
49.260324 -55.533324 -24.825249 8
53.125895 -52.689935 -20.291584 8
54.961571 -51.170952 2.014104 8
59.537442 -47.012009 -14.633583 8
57.865447 -48.592457 -3.165266 8
51.192062 -54.153036 -49.783034 8
59.135496 -47.391947 -55.171769 8
59.575378 -46.976150 -55.934516 8
46.848410 -57.158482 -6.287442 8
57.268924 -49.156318 -58.535463 8
54.923722 -51.202991 -3.299858 8
58.099435 -48.371280 -11.939945 8
49.924424 -55.085851 -25.891123 8
48.771260 -55.862857 -26.639494 8
57.661076 -48.785637 -35.293798 8
48.471705 -56.064699 -25.710703 8
58.157268 -48.316613 -21.384246 8
55.611179 -50.621051 -46.613573 8
54.982983 -51.152826 -16.259168 8
56.221758 -50.104188 2.708883 8
58.745045 -47.761019 -32.146108 8
56.004389 -50.288194 -48.657073 8
53.016001 -52.773078 -30.879645 8
47.000112 -57.056264 -23.382125 8
59.595817 -46.956830 -34.785324 8
55.757896 -50.496854 -33.426893 8
54.087729 -51.910670 -53.556478 8
53.106211 -52.704827 -45.316788 8
53.046878 -52.749717 -4.876800 8
54.479651 -51.578903 3.819450 8
48.039940 -56.355624 -27.455109 8
57.115825 -49.301034 -60.055854 8
56.636916 -49.752752 -43.310476 8
57.715786 -48.733923 -8.766248 8
50.505874 -54.672192 -21.145711 8
59.605865 -46.947332 -58.112252 8
55.472843 -50.738154 -60.908666 8
51.447671 -53.959647 -59.290950 8
53.285870 -52.568901 -14.212639 8
53.709243 -52.231062 -19.719708 8
51.696128 -53.771669 -58.309804 8
51.556003 -53.877685 -6.139216 8
59.129478 -47.397636 -2.741415 8
47.715873 -56.573982 -55.105497 8
52.636864 -53.059926 -14.022739 8
47.049134 -57.023233 -25.466694 8
55.461635 -50.747641 -0.995143 8
58.718053 -47.786534 -60.948344 8
58.175363 -48.299510 -36.543525 8
56.074953 -50.228461 -56.136358 8
54.543991 -51.524439 -18.186406 8
57.678425 -48.769238 -56.012168 8
52.864987 -52.887333 -27.444805 8
51.609824 -53.836965 -27.779916 8
54.596717 -51.479805 -9.913893 8
48.658825 -55.938617 -51.306388 8
51.580737 -53.858971 -29.998577 8
59.619943 -46.934025 -22.580660 8
54.815526 -51.294581 -1.283183 8
56.492155 -49.875294 -39.428228 8
47.750250 -56.550818 -60.056234 8
47.149973 -56.955287 -40.860537 8
49.196062 -55.576624 -17.637632 8
57.787288 -48.666336 -22.040581 8
52.417125 -53.226177 -51.405973 8
47.039227 -57.029908 -18.913823 8
50.010748 -55.027686 -34.563969 8
48.201397 -56.246834 -3.817458 8
53.220179 -52.618601 -9.545606 8
51.253017 -54.106919 -54.509950 8
56.191759 -50.129583 -5.378342 8
57.576930 -48.865176 -15.535812 8
51.887881 -53.626592 -28.637137 8
50.717296 -54.512234 -18.937787 8
48.576161 -55.994316 -46.280261 8
48.018633 -56.369981 -48.412825 8
48.889738 -55.783027 -23.897977 8
50.934817 -54.347662 -60.873131 8
53.645125 -52.285339 -52.489429 8
47.127544 -56.970400 -47.242838 8
48.081544 -56.327591 -38.569446 8
53.792283 -52.160768 -10.974913 8
54.016826 -51.970690 -7.397652 8
56.970072 -49.438806 -5.892872 8
54.638196 -51.444693 -41.752584 8
54.206715 -51.809946 -0.085696 8
47.572920 -56.670304 -22.864524 8
48.773648 -55.861248 -32.794105 8
49.029928 -55.688566 -42.658377 8
58.031104 -48.435870 -57.827250 8
49.794529 -55.173375 -33.546621 8
49.839974 -55.142754 -12.236764 8
53.678641 -52.256968 -17.501289 8
58.316534 -48.166068 -17.834190 8
47.680556 -56.597778 -56.222955 8
54.878965 -51.240879 -10.737897 8
50.196958 -54.902217 -44.898762 8
58.690900 -47.812200 -46.094669 8
55.576420 -50.650475 1.842035 8
48.214040 -56.238315 -9.128304 8
53.715922 -52.225409 -5.182725 8
54.100867 -51.899548 -39.875179 8
50.406204 -54.747601 -58.087640 8
59.452961 -47.091864 -38.692031 8
59.046929 -47.475665 -56.452347 8
51.132167 -54.198351 -45.440883 8
52.683384 -53.024730 -48.226911 8
52.016765 -53.529081 -2.461611 8
54.424662 -51.625452 -5.665197 8
55.622213 -50.611711 -31.022352 8
51.299671 -54.071621 -12.422089 8
52.025118 -53.522762 -4.623060 8
52.335047 -53.288276 -15.755352 8
53.859007 -52.104285 0.587598 8
55.413613 -50.788293 2.854479 8
58.382861 -48.103372 -8.003260 8
56.995091 -49.415158 -3.184619 8
51.916045 -53.605284 -31.609254 8
52.397741 -53.240842 -42.231633 8
54.322780 -51.711696 -31.583742 8
49.007132 -55.703926 -28.848433 8
47.441103 -56.759123 2.941118 8
51.259806 -54.101782 -55.933734 8
57.776393 -48.676634 -53.717208 8
56.994337 -49.415870 -15.973910 8
57.059489 -49.354286 -48.861118 8
56.556737 -49.820624 -34.696380 8
56.550318 -49.826058 -54.538017 8
58.063305 -48.405431 -7.164495 8
57.582623 -48.859795 -6.314944 8
57.831858 -48.624207 -1.827596 8
59.249771 -47.283929 -28.621592 8
50.282395 -54.841272 -53.539234 8
56.374848 -49.974596 -37.763667 8
49.705745 -55.233198 -48.793022 8
50.818704 -54.435511 -35.028082 8
56.015589 -50.278713 -38.736746 8
47.937037 -56.424961 1.622432 8
48.246671 -56.216328 -22.769364 8
50.069230 -54.988280 -18.377674 8
56.544192 -49.831244 -1.893229 8
53.450922 -52.444026 -6.974073 8
57.694995 -48.753575 -38.625580 8
52.516721 -53.150824 -14.891845 8
56.982577 -49.426986 -20.042985 8
54.484208 -51.575045 -54.502362 8
59.310394 -47.226625 -43.115621 8
55.738306 -50.513437 -34.279142 8
57.674795 -48.772669 -42.666250 8
50.918375 -54.360102 -29.714119 8
47.546304 -56.688238 -3.462198 8
54.931024 -51.196811 -15.473748 8
50.547267 -54.640875 0.581701 8
52.313679 -53.304442 -55.357515 8
48.649037 -55.945212 -20.952602 8
48.715198 -55.900632 -3.205300 8
50.214402 -54.890463 -0.696930 8
58.761084 -47.745859 -14.694789 8
47.002874 -57.054403 -50.490483 8
50.499247 -54.677207 -51.972026 8
57.349423 -49.080226 -0.431494 8
58.757611 -47.749141 -6.183812 8
57.623615 -48.821047 -12.687593 8
53.731879 -52.211901 -37.970884 8
47.745548 -56.553986 -42.478012 8
46.840541 -57.163784 -29.190554 8
54.645593 -51.438431 -56.366641 8
58.910094 -47.605007 -37.787258 8
48.365513 -56.136252 -15.731689 8
59.041978 -47.480344 -22.988566 8
57.909414 -48.550896 -19.304273 8
48.281017 -56.193185 -59.108681 8
54.733761 -51.363796 -44.028109 8
50.419643 -54.737433 -45.890753 8
48.286437 -56.189534 -30.591047 8
53.093461 -52.714474 -55.426376 8
59.565368 -46.985612 -6.244268 8
56.279176 -50.055584 -61.023337 8
57.543810 -48.896483 -16.751375 8
54.545217 -51.523400 -37.478145 8
48.295143 -56.183667 -7.991430 8
50.384412 -54.764089 -11.156287 8
58.744498 -47.761537 -44.519414 8
59.608157 -46.945165 -1.988216 8
52.942510 -52.828681 -59.624473 8
46.867592 -57.145557 2.492914 8
52.125312 -53.446956 -38.744368 8
55.525357 -50.693701 -40.239307 8
58.465248 -48.025496 -31.236025 8
47.549715 -56.685940 -19.899603 8
46.936109 -57.099390 -20.792347 8
58.999466 -47.520528 -18.510670 8
47.679267 -56.598647 -24.515380 8
56.250432 -50.079916 -53.110160 8
51.882808 -53.630431 -52.883234 8
57.056907 -49.356726 -27.661614 8
55.744514 -50.508181 -26.836063 8
57.572763 -48.869115 -11.351760 8
53.459500 -52.437536 -53.731553 8
47.927078 -56.431671 -6.236908 8
50.933188 -54.348895 -44.555934 8
56.760862 -49.636561 -26.842211 8
56.794144 -49.605102 -52.669878 8
59.526073 -47.022756 -57.220606 8
48.468724 -56.066707 -4.558946 8
47.157438 -56.950257 -59.575941 8
53.901482 -52.068330 -44.502917 8
58.430684 -48.058168 -24.842102 8
46.958022 -57.084625 -21.660572 8
48.136983 -56.290236 -13.283189 8
49.299020 -55.507251 -34.589240 8
58.020620 -48.445780 -14.265601 8
52.829441 -52.914226 -8.510342 8
55.875339 -50.397436 -40.977225 8
47.668324 -56.606021 -8.607652 8
53.456747 -52.439618 -25.126036 8
51.751553 -53.729736 -10.429689 8
54.955166 -51.176374 -7.472181 8
58.805384 -47.703984 3.793776 8
51.919112 -53.602964 -7.883745 8
50.859139 -54.404919 -25.235631 8
56.531226 -49.842220 -3.966035 8
47.327777 -56.835482 -60.781255 8
57.622176 -48.822408 -20.328996 8
53.413671 -52.472209 -40.529366 8
48.862794 -55.801181 -55.903528 8
55.098225 -51.055272 -26.807997 8
51.690382 -53.776016 1.700557 8
52.015374 -53.530134 -36.022517 8
54.079019 -51.918043 -20.528015 8
48.377380 -56.128255 -43.520877 8
58.917715 -47.597804 -8.621738 8
59.460700 -47.084549 -31.133507 8
53.523131 -52.388609 -31.568406 8
54.756855 -51.344247 -43.090312 8
55.198581 -50.970320 -42.066117 8
53.785504 -52.166507 -54.933764 8
56.897446 -49.507456 -6.798855 8
58.562726 -47.933356 -52.365849 8
47.469615 -56.739911 -43.987020 8
55.656348 -50.582815 0.041367 8
59.445079 -47.099315 -48.686314 8
56.677093 -49.715744 -12.345835 8
56.192173 -50.129232 -11.763015 8
52.783646 -52.948874 -0.776552 8
52.506635 -53.158455 -52.689120 8
52.656569 -53.045018 -17.282321 8
50.075758 -54.983882 -10.291256 8
57.110892 -49.305696 -29.617188 8
52.496412 -53.166190 -29.328386 8
53.123300 -52.691898 -13.234463 8
59.119877 -47.406711 -19.756451 8
49.118463 -55.628911 1.675381 8
50.958569 -54.329692 1.495787 8
58.386886 -48.099568 -27.950548 8
48.623677 -55.962300 -60.508878 8
53.616411 -52.309646 2.457281 8
52.896438 -52.863537 2.330971 8
54.781670 -51.323240 -27.601945 8
57.777287 -48.675789 -25.598243 8
55.116762 -51.039581 -28.552908 8
52.556303 -53.120877 -3.563398 8
59.426415 -47.116957 -25.522783 8
52.812475 -52.927062 -21.699649 8
54.118589 -51.884547 -34.635294 8
57.315218 -49.112559 -10.588709 8
56.498065 -49.870291 -14.497556 8
48.124630 -56.298560 -50.401696 8
50.481349 -54.690747 -42.341891 8
55.509887 -50.706796 -18.962521 8
53.719435 -52.222435 -29.637960 8
59.492276 -47.054702 -1.028012 8
50.468356 -54.700578 -55.507207 8
59.597448 -46.955289 -59.665719 8
53.408870 -52.475841 -58.919275 8
50.705604 -54.521080 -49.168856 8
51.535217 -53.893411 -9.441446 8
52.335738 -53.287753 -7.082889 8
52.803349 -52.933967 3.694681 8
57.061364 -49.352513 -13.033302 8
55.268472 -50.911156 -57.746541 8
56.589708 -49.792715 -50.708821 8
50.006550 -55.030514 -57.108086 8
57.342399 -49.086866 -39.358795 8
54.390471 -51.654395 -33.194984 8
53.073474 -52.729596 -7.674964 8
50.996724 -54.300825 -7.829788 8
52.940533 -52.830176 -39.844784 8
51.963263 -53.569560 -23.554640 8
59.501095 -47.046366 -49.698208 8
50.874232 -54.393500 -5.654395 8
52.745237 -52.977933 -57.061234 8
52.535798 -53.136391 -57.885282 8
57.794787 -48.659247 -40.576100 8
57.570982 -48.870799 -41.537381 8
49.268484 -55.527826 -43.424494 8
49.707854 -55.231777 3.698915 8
47.261719 -56.879993 -14.717531 8
50.264842 -54.854553 -22.224144 8
50.192654 -54.905117 -3.262844 8
53.796012 -52.157612 -23.364662 8
53.302906 -52.556012 -41.516873 8
55.960767 -50.325121 -58.487493 8
59.084743 -47.439921 -26.646017 8
47.070982 -57.008512 -38.798618 8
59.620756 -46.933257 1.508160 8
50.199565 -54.900460 -23.266615 8
47.148797 -56.956080 -53.800873 8
51.868061 -53.641588 -45.322240 8
52.448849 -53.202175 -44.947898 8
59.555236 -46.995189 -37.613462 8
55.379943 -50.816795 -10.098348 8
49.572149 -55.323216 -56.314422 8
58.152173 -48.321430 -41.817840 8
54.270664 -51.755813 -50.058183 8
53.605582 -52.318813 -21.527361 8
52.637555 -53.059403 -49.609326 8
56.357840 -49.988993 -13.037036 8
55.004801 -51.134357 -12.340866 8
51.528429 -53.898547 -51.430163 8
50.183174 -54.911504 -6.625181 8
50.387107 -54.762050 -31.644688 8
56.458530 -49.903758 -9.777764 8
47.976791 -56.398174 -35.256593 8
52.466220 -53.189032 -40.852120 8
57.669733 -48.777454 -36.145509 8
48.240348 -56.220588 -31.417516 8
58.594145 -47.903657 -13.903621 8
47.045229 -57.025864 -1.481943 8
55.311969 -50.874336 -17.192082 8
54.469556 -51.587448 -50.955465 8
49.624845 -55.287709 -44.302139 8
48.572716 -55.996638 -16.621928 8
58.252738 -48.226371 -37.456696 8
52.356067 -53.272372 1.471365 8
47.605145 -56.648590 -15.547774 8
54.253487 -51.770353 -57.331002 8
53.455270 -52.440736 -0.980549 8
55.997132 -50.294337 -29.199455 8
54.986165 -51.150133 -32.248864 8
49.689266 -55.244301 -5.470249 8
59.005751 -47.514588 -42.052661 8
59.524822 -47.023937 -43.896547 8
48.882135 -55.788149 -36.294153 8
53.888233 -52.079546 -30.691598 8
56.816805 -49.583682 -47.554569 8
55.865074 -50.406126 -1.657858 8
51.411535 -53.986987 -18.873640 8
50.467317 -54.701364 -12.497228 8
52.922069 -52.844146 -54.332707 8
48.275331 -56.197016 -39.481616 8
46.864432 -57.147686 -26.956039 8
49.389041 -55.446594 -38.571747 8
58.481806 -48.009845 -57.331637 8
57.583174 -48.859274 -22.848424 8
48.629011 -55.958706 -10.749911 8
54.451880 -51.602412 -35.546441 8
55.591043 -50.638097 -15.535139 8
51.674054 -53.788370 -15.401341 8
56.678838 -49.714094 -24.616644 8
47.685668 -56.594334 -2.377817 8
53.949719 -52.027497 -6.348975 8
55.823272 -50.441512 -59.273403 8
50.378657 -54.768442 -46.886894 8
55.151228 -51.010405 -13.183456 8
54.972315 -51.161857 -36.187127 8
55.719954 -50.528971 -5.896684 8
57.107215 -49.309172 -13.899061 8
56.958953 -49.449317 -19.076051 8
56.601645 -49.782610 -32.428379 8
54.826983 -51.284882 -25.314811 8
52.335116 -53.288223 -43.907395 8
58.640947 -47.859418 -40.122343 8
48.148336 -56.282587 -52.977611 8
58.242264 -48.236272 -46.607051 8
53.565149 -52.353040 -28.025447 8
55.167665 -50.996491 -51.190303 8
53.914783 -52.057071 1.527491 8
58.845827 -47.665756 -47.152462 8
58.529290 -47.964961 -22.019811 8
48.964488 -55.732660 -37.890698 8
47.330925 -56.833361 -41.718585 8
50.220167 -54.886578 -30.285113 8
46.989953 -57.063109 -7.368130 8
52.538189 -53.134582 -20.930522 8
51.119002 -54.208312 -28.709545 8
47.054718 -57.019471 -4.920495 8
59.516004 -47.032273 -21.135232 8
57.426950 -49.006944 -60.947161 8
59.496689 -47.050531 -17.592375 8
53.805922 -52.149223 -58.132854 8
50.318643 -54.813848 -15.029278 8
52.141024 -53.435069 -61.106350 8
51.703357 -53.766200 -43.548112 8
59.142299 -47.385516 -3.666417 8
55.771595 -50.485257 -13.916836 8
53.465426 -52.433052 3.539033 8
56.179616 -50.139862 -8.203453 8
58.653305 -47.847736 -51.316289 8
52.133590 -53.440694 -24.488777 8
56.124929 -50.186155 -10.558968 8
49.421684 -55.424599 -18.717510 8
51.946341 -53.582363 -20.000451 8
50.600228 -54.600806 3.643085 8
54.813711 -51.296117 -0.343010 8
58.917090 -47.598394 -15.632435 8
47.349593 -56.820783 -48.097160 8
59.135837 -47.391624 -12.121772 8
58.511816 -47.981478 -28.952255 8
56.751295 -49.645605 -30.765900 8
58.455172 -48.035021 1.384764 8
47.719351 -56.571638 -57.626277 8
57.629844 -48.815159 -46.125388 8
47.998975 -56.383226 -47.580731 8
54.482577 -51.576426 -14.611838 8
57.304133 -49.123037 -43.511500 8
56.600162 -49.783865 -44.458073 8
50.851585 -54.410634 -37.266747 8
57.984649 -48.479781 -52.894893 8
49.702366 -55.235475 -24.122556 8
48.252418 -56.212456 -58.247028 8
56.754280 -49.642783 -4.963670 8
48.913605 -55.766945 -40.038720 8
56.499321 -49.869228 -21.643517 8
48.192050 -56.253132 -18.200808 8
52.755809 -52.969935 -26.316727 8
58.395271 -48.091642 -33.936314 8
53.175812 -52.652168 -51.063857 8
55.899044 -50.377370 -22.845672 8
50.273061 -54.848334 -32.506294 8
50.195290 -54.903341 -36.406577 8
51.679120 -53.784537 -13.160271 8
57.439226 -48.995340 -34.370518 8
58.866409 -47.646300 -1.034742 8
52.085861 -53.476804 3.435850 8
46.843167 -57.162014 -35.265578 8
58.371717 -48.113906 -9.299180 8
52.626632 -53.067667 -25.226839 8
53.134026 -52.683783 -16.217243 8
49.262516 -55.531847 -28.014879 8
50.107500 -54.962494 -1.829959 8
59.204765 -47.326470 -58.835442 8
58.697530 -47.805932 0.492341 8
58.480017 -48.011536 -12.771431 8
59.331390 -47.206779 -27.386731 8
48.056250 -56.344634 -17.392460 8
49.965607 -55.058102 -7.415693 8
51.163639 -54.174540 -24.093549 8
57.221804 -49.200858 -9.802496 8
52.977167 -52.802459 -37.098051 8
49.767007 -55.191919 -31.371749 8
50.118644 -54.954985 -38.940532 8
57.964022 -48.499279 -32.354269 8
51.114996 -54.211343 -41.749374 8
50.581432 -54.615027 -8.535496 8
55.992447 -50.298303 -46.003687 8
50.921749 -54.357549 -13.594451 8
54.827139 -51.284750 -53.245814 8
51.021796 -54.281855 -40.787889 8
47.557523 -56.680679 -0.398947 8
54.765956 -51.336543 -46.819084 8
48.336430 -56.155848 -29.716598 8
48.841326 -55.815647 -5.315965 8
51.385065 -54.007013 -33.022928 8
54.267076 -51.758850 -60.017177 8
51.535510 -53.893189 -39.203225 8
53.934480 -52.040397 -41.291793 8
54.799201 -51.308400 -20.446495 8
51.378702 -54.011828 -1.245986 8
55.274717 -50.905870 -54.831296 8
58.798444 -47.710544 -49.703983 8
48.910484 -55.769048 -15.105582 8
58.713193 -47.791128 -35.916111 8
59.627899 -46.926505 -46.059048 8
56.211834 -50.112589 -47.042048 8
58.146905 -48.326409 -45.538990 8
50.704434 -54.521966 2.400662 8
57.089130 -49.326268 -22.210291 8
55.675571 -50.566542 -22.049876 8
49.084706 -55.651657 -12.977634 8
55.116742 -51.039598 -33.141000 8
48.885002 -55.786217 -56.717403 8
51.012649 -54.288777 -32.155956 8
59.492685 -47.054315 -40.942802 8
50.480033 -54.691743 -59.696834 8
58.056715 -48.411661 -4.640576 8
50.429287 -54.730136 -54.496972 8
51.754121 -53.727792 -33.728807 8
55.631927 -50.603488 -32.082687 8
48.371851 -56.131981 -37.458826 8
58.304191 -48.177735 -38.284233 8
58.232027 -48.245948 -59.556070 8
49.618344 -55.292089 -41.271930 8
54.085518 -51.912541 -25.380805 8
48.324904 -56.163614 0.276243 8
53.879396 -52.087026 -51.248643 8
59.629023 -46.925442 -33.892970 8
55.518932 -50.699140 -44.050450 8
57.086514 -49.328740 -20.969132 8
53.270329 -52.580659 -11.533766 8
58.427368 -48.061303 -40.959492 8
59.220292 -47.311794 -53.526274 8
49.742498 -55.208433 -35.703156 8
57.277395 -49.148311 -50.717772 8
58.449893 -48.040011 -54.009039 8
51.767306 -53.717817 -50.491340 8
59.546048 -47.003874 -47.216546 8
59.611739 -46.941780 -42.334973 8
49.566626 -55.326937 -55.402894 8
52.357770 -53.271083 -46.213685 8
49.985378 -55.044780 2.560309 8
47.172708 -56.939968 -10.037599 8
48.927895 -55.757316 2.644813 8
55.328050 -50.860723 -56.228071 8
49.407162 -55.434385 -3.046784 8
48.411586 -56.105207 -57.409218 8
57.981327 -48.482921 -49.064396 8
47.223937 -56.905450 -31.862204 8
51.789014 -53.701393 -44.422234 8
55.491663 -50.722223 -4.047573 8
48.721371 -55.896473 -6.924319 8
48.668615 -55.932020 -35.297673 8
57.036252 -49.376250 -8.882037 8
46.927778 -57.105003 -52.546417 8
55.113381 -51.042443 -45.846857 8
50.841071 -54.418589 -6.593458 8
54.321968 -51.712384 -61.116730 8
55.993320 -50.297564 -9.187697 8
59.473026 -47.072898 -10.478895 8
56.369834 -49.978840 -36.690862 8
56.096204 -50.210471 -42.763105 8
54.653359 -51.431857 -58.140863 8
50.041743 -55.006801 -39.884993 8
55.358006 -50.835365 -48.276182 8
58.704445 -47.799397 -10.518588 8
49.971762 -55.053954 -17.367069 8
50.833070 -54.424642 -22.949112 8
56.326503 -50.015520 -57.015542 8
56.211183 -50.113140 -27.480780 8
49.246628 -55.542553 -9.437739 8
54.365420 -51.675601 -4.334268 8
46.946686 -57.092263 -58.222252 8
46.937139 -57.098696 -31.057022 8
51.810726 -53.684967 -49.499541 8
52.123827 -53.448080 -39.939144 8
48.544255 -56.015814 -53.788885 8
48.108530 -56.309408 -14.533811 8
57.281357 -49.144565 -44.457078 8
59.548539 -47.001520 -0.068137 8
57.397644 -49.034645 3.877310 8
54.412592 -51.635669 -45.840981 8
53.495301 -52.410449 -39.393163 8
48.843276 -55.814333 -59.586228 8
47.762451 -56.542597 -26.430075 8
58.861959 -47.650507 -17.399859 8
55.337820 -50.852453 0.992103 8
47.938966 -56.423661 -29.018457 8
49.369444 -55.459799 -61.108654 8
49.930876 -55.081504 -20.186497 8
49.616801 -55.293129 -54.337579 8
59.411883 -47.130693 -36.754585 8
57.458014 -48.977581 -5.129866 8
52.482310 -53.176859 -34.385176 8
57.155683 -49.263358 -25.066527 8
46.903811 -57.121153 -8.957984 8
46.880807 -57.136653 -17.926891 8
55.029140 -51.113754 -52.306580 8
47.004240 -57.053483 -2.464120 8
52.126472 -53.446079 -18.144509 8
51.836489 -53.665475 -53.913921 8
57.798180 -48.656040 -56.997840 8
47.038649 -57.030298 -56.617636 8
49.282287 -55.518525 -15.939957 8
53.355830 -52.515971 -35.095429 8
54.811994 -51.297571 -39.915184 8
47.648371 -56.619465 -37.007417 8
55.674775 -50.567216 -16.405806 8
49.332081 -55.484974 -46.940874 8
49.676653 -55.252800 -14.349293 8
53.177510 -52.650884 -51.924462 8
56.842175 -49.559701 -45.528027 8
47.551484 -56.684748 -4.362543 8
55.343466 -50.847673 -19.797328 8
50.724318 -54.506922 -0.226137 8
50.452423 -54.712633 -56.523200 8
58.021476 -48.444971 -29.623439 8
51.576000 -53.862556 -25.355413 8
53.674130 -52.260787 -42.604286 8
48.399492 -56.113357 -12.206485 8
54.866152 -51.251725 -31.112289 8
51.233310 -54.121828 -19.819346 8
50.894761 -54.377968 -15.596713 8
57.462753 -48.973101 -37.779525 8
47.808015 -56.511896 -21.700337 8
58.710534 -47.793640 -58.167050 8
54.089945 -51.908794 -24.271616 8
53.199593 -52.634176 -60.708958 8
55.737216 -50.514360 -36.126124 8
54.820335 -51.290510 -38.971814 8
52.719197 -52.997635 -56.169183 8
51.261238 -54.100699 -2.168251 8
49.988719 -55.042529 -28.242467 8
49.170902 -55.593577 -7.892005 8
53.107118 -52.704141 -42.940417 8
56.454245 -49.907385 -51.793606 8
51.887801 -53.626653 -41.561482 8
52.779223 -52.952220 -22.865917 8
47.798654 -56.518204 3.757836 8
57.916083 -48.544593 -0.860393 8
53.660551 -52.272281 -4.343615 8
52.252911 -53.350418 -60.300140 8
48.177029 -56.263253 -1.523488 8
51.175617 -54.165478 -3.429998 8
57.397820 -49.034479 -2.535024 8
55.767616 -50.488625 -28.087314 8
48.934803 -55.752661 -47.584129 8
50.545131 -54.642492 -4.818152 8
50.306263 -54.823214 -26.542138 8
47.917682 -56.438002 -45.158936 8
59.257745 -47.276391 -39.728294 8
54.315416 -51.717930 -11.683550 8
56.945599 -49.461939 -41.680886 8
48.576680 -55.993966 -34.136725 8
54.444502 -51.608657 -8.061505 8
50.956082 -54.331574 -22.001208 8
55.885611 -50.388741 -51.283811 8
52.403248 -53.236676 -58.823883 8
51.421793 -53.979226 -16.462744 8
55.612948 -50.619553 -12.113473 8
49.401863 -55.437955 -32.096692 8
55.235750 -50.938856 3.750872 8
53.185796 -52.644615 -23.618388 8
50.124825 -54.950820 1.368631 8
54.174904 -51.836875 -0.972867 8
56.199755 -50.122814 -18.941633 8
52.471652 -53.184922 -50.395092 8
47.235650 -56.897558 -28.396749 8
54.488957 -51.571025 -17.258891 8
58.355420 -48.129311 -16.130416 8
49.141546 -55.613357 -20.159394 8
47.764786 -56.541024 -10.516613 8
50.485803 -54.687378 -48.211391 8
56.000133 -50.291797 -23.851011 8
47.796460 -56.519682 -34.315741 8
50.323570 -54.810120 -13.296978 8
57.991577 -48.473232 -50.314647 8
48.714540 -55.901076 -48.706440 8
50.674660 -54.544492 -20.376495 8
57.457299 -48.978257 -7.835981 8
53.377321 -52.499710 -57.493471 8
52.425414 -53.219905 -6.252765 8
52.362617 -53.267417 -10.759909 8
52.500878 -53.162811 -5.423019 8
50.001744 -55.033752 -9.169303 8
58.643829 -47.856693 -48.906198 8
58.553152 -47.942406 -33.070298 8
53.360842 -52.512178 -49.040514 8
52.204874 -53.386761 -9.058132 8
49.617686 -55.292532 -8.517491 8
55.532492 -50.687661 -25.024770 8
54.258656 -51.765978 -9.180554 8
58.195124 -48.280831 -15.157420 8
51.193135 -54.152224 -57.828666 8
48.727066 -55.892636 -40.990015 8
56.269491 -50.063782 -31.761494 8
57.262607 -49.162289 -51.703400 8
58.591098 -47.906538 -35.007894 8
55.363739 -50.830512 -23.532369 8
55.163957 -50.999630 -29.783287 8
56.332000 -50.010867 -15.710715 8
46.875684 -57.140105 -30.003697 8
59.175763 -47.353885 2.199673 8
59.366127 -47.173944 -60.673717 8
48.831088 -55.822545 -50.039871 8
51.071907 -54.243943 -31.254914 8
46.864997 -57.147306 -44.860758 8
46.910701 -57.116510 -43.069492 8
50.914533 -54.363009 -39.481574 8
48.279735 -56.194049 -20.098945 8
59.003590 -47.516630 -20.750510 8
51.537183 -53.891924 -14.234160 8
47.866767 -56.472309 -46.779908 8
57.158709 -49.260498 -1.329857 8
55.459227 -50.749680 -8.687192 8
50.603919 -54.598014 -27.504481 8
57.011563 -49.399588 -55.405397 8
56.594024 -49.789061 -40.275051 8
52.867172 -52.885679 -33.340732 8
55.610269 -50.621821 -4.921638 8
57.899639 -48.560137 -58.798698 8
54.386304 -51.657922 -2.637510 8
50.777223 -54.466895 -16.749644 8
51.916530 -53.604917 -37.211393 8
56.485266 -49.881126 -0.471665 8
51.491618 -53.926397 -17.914290 8
59.118824 -47.407706 -24.670529 8
51.862459 -53.645826 -3.510774 8
55.253758 -50.923612 -47.362012 8
55.291576 -50.891598 -53.921226 8
54.824359 -51.287104 -22.777985 8
58.871700 -47.641299 -43.697279 8
58.216715 -48.260422 -23.757153 8
55.904499 -50.372752 -18.048125 8
48.005507 -56.378825 -36.295411 8
52.423007 -53.221726 -11.638267 8
57.277481 -49.148230 -4.149823 8
53.679128 -52.256556 -1.788873 8
59.269139 -47.265622 -32.507018 8
49.621600 -55.289895 -11.324562 8
46.851918 -57.156118 1.378496 8
51.507660 -53.914260 -7.011315 8
49.179226 -55.587968 -4.006272 8
52.686826 -53.022126 -53.569624 8
49.180100 -55.587379 -50.774123 8
53.417819 -52.469071 -35.955924 8
56.612918 -49.773067 -46.344220 8
53.320419 -52.542762 -43.779692 8
49.510609 -55.364681 -26.604329 8
55.946379 -50.337300 -2.538877 8
47.546459 -56.688133 -58.540710 8
59.180686 -47.349232 -21.933796 8
56.451936 -49.909340 -49.497314 8
55.945058 -50.338418 -60.276798 8
52.659049 -53.043142 -31.524990 8
51.954774 -53.575982 -57.100542 8
53.941200 -52.034709 -22.385563 8
47.975507 -56.399039 -11.401326 8
46.864403 -57.147706 -10.943398 8
57.108369 -49.308082 3.131231 8
53.344957 -52.524197 -34.271155 8
46.898416 -57.124787 -33.232089 8
52.193961 -53.395018 -1.548702 8
56.535240 -49.838822 -28.176182 8
59.574882 -46.976619 -18.919784 8
49.434398 -55.416033 -6.922664 8
49.291915 -55.512038 -29.990991 8
49.835124 -55.146022 -29.303122 8
58.968472 -47.549826 -9.543721 8
57.681091 -48.766718 2.522698 8
47.917864 -56.437879 -40.598020 8
54.480949 -51.577805 -58.956065 8
51.173562 -54.167032 -48.008303 8
57.139579 -49.278580 1.005657 8
50.424168 -54.734010 -43.236399 8
53.237323 -52.605630 1.216613 8
51.768190 -53.717148 -0.248548 8
54.989647 -51.147185 -21.902086 8
54.039588 -51.951422 -12.622982 8
48.999507 -55.709064 -1.974523 8
55.737668 -50.513976 -36.994907 8
53.782955 -52.168665 -14.779458 8
51.265351 -54.097587 -56.862350 8
56.257974 -50.073531 -6.989801 8
59.466309 -47.079247 -54.255065 8
48.682615 -55.922587 -45.485574 8
58.373029 -48.112666 -55.760284 8
50.289592 -54.835827 -49.916998 8
54.885536 -51.235317 -24.360510 8
58.619485 -47.879704 -4.303665 8
59.312568 -47.224570 -30.012652 8
58.681156 -47.821410 -5.322129 8
49.478970 -55.386000 -23.268544 8
52.626870 -53.067487 -19.453598 8
54.435900 -51.615939 -19.650424 8
53.875078 -52.090681 -45.487134 8
58.131287 -48.341172 -44.063788 8
56.545128 -49.830452 -30.017205 8
56.245183 -50.084359 -45.126565 8
53.733755 -52.210313 -15.875126 8
59.595291 -46.957327 -52.837873 8
49.806398 -55.165377 -27.377015 8
50.711597 -54.516546 -2.698817 8
47.687678 -56.592979 -20.857845 8
51.515208 -53.908550 -21.268781 8
56.599658 -49.784292 -17.914612 8
53.107150 -52.704117 -46.292651 8
57.090805 -49.324684 -17.284747 8
51.004884 -54.294651 -34.146340 8
54.445992 -51.607396 -28.995618 8
48.695976 -55.913584 3.716128 8
59.532403 -47.016772 -35.629202 8
58.044103 -48.423582 -51.121652 8
56.813403 -49.586897 -57.881239 8
58.163279 -48.310931 -30.453894 8
55.134718 -51.024381 -58.931698 8
57.628246 -48.816669 -17.816655 8
59.583624 -46.968355 3.105564 8
53.996863 -51.987589 -46.599499 8
57.360359 -49.069889 -26.631072 8
48.455708 -56.075478 -19.035480 8
51.716284 -53.756420 0.773908 8
59.342827 -47.195968 -5.169183 8
51.421494 -53.979452 -4.345228 8
49.010243 -55.701830 -22.672099 8
47.065837 -57.011979 -12.017197 8
54.963701 -51.169149 -49.073263 8
53.768766 -52.180676 -9.959845 8
57.981001 -48.483229 -10.185040 8
47.053406 -57.020355 -37.659226 8
56.227173 -50.099604 0.394127 8
59.247829 -47.285765 -52.061417 8
55.431547 -50.773112 -39.374948 8
57.768657 -48.683947 1.447428 8
49.800319 -55.169473 -51.474041 8
51.137952 -54.193974 -26.744583 8
57.271413 -49.153965 -46.889134 8
54.608409 -51.469908 -48.371786 8
57.086563 -49.328694 -23.358412 8
57.036317 -49.376188 -35.326077 8
54.706217 -51.387112 -40.819310 8
54.299144 -51.731704 -16.199789 8
50.161868 -54.925860 -25.026859 8
53.915135 -52.056773 -27.330280 8
57.399150 -49.033222 -31.347343 8
51.111715 -54.213825 -50.658011 8
51.719897 -53.753686 -5.364711 8
47.597971 -56.653425 -39.642627 8
56.859997 -49.542855 -7.921898 8
47.565168 -56.675527 -30.772233 8
47.493911 -56.723541 -29.663703 8
56.883646 -49.520500 2.268091 8
59.607700 -46.945598 -13.539807 8
56.979854 -49.429560 -56.340315 8
55.151100 -51.010513 -44.908571 8
49.725799 -55.219685 -42.152270 8
48.217388 -56.236059 -51.999530 8
57.846936 -48.609953 -13.486353 8
48.690743 -55.917110 0.966102 8
52.706343 -53.007360 -32.433826 8
49.624646 -55.287843 -58.817247 8
52.733113 -52.987106 -35.552857 8
