-30.581040 -11.833160 6.879021
63.236349 -24.370514 6.879021
14.955014 -18.360211 6.879021
5.164974 38.433864 6.879021
50.750760 -19.873886 6.879021
38.340723 -7.841418 6.879021
-50.806394 35.677088 6.879021
-30.102602 -39.697080 6.879021
33.360660 -40.449481 6.879021
-42.036957 36.934551 6.879021
-9.940306 -62.324147 6.879021
-25.453692 -29.740067 6.879021
60.220815 -43.701477 6.879021
-45.934662 -43.962180 6.879021
66.500154 51.028502 6.879021
16.158299 67.205789 6.879021
27.757014 -55.237328 6.879021
-33.955634 -37.907940 6.879021
43.712400 -30.224120 6.879021
46.651422 53.325170 6.879021
-58.266904 -0.333292 6.879021
28.245055 -33.862244 6.879021
-29.328624 64.756931 6.879021
64.421173 9.802853 6.879021
4.133227 -42.104964 6.879021
48.685968 28.700157 6.879021
-39.395341 -9.224060 6.879021
58.920349 -31.943727 6.879021
32.286322 59.515971 6.879021
-29.692304 34.312648 6.879021
-40.810425 -1.059213 6.879021
-26.643348 -32.220250 6.879021
68.382003 39.804572 6.879021
77.536602 22.477426 6.879021
-52.299496 -35.600497 6.879021
49.966863 11.301533 6.879021
44.319161 -1.977070 6.879021
73.218438 34.699903 6.879021
54.434846 -33.131439 6.879021
-6.279870 -12.530470 6.879021
47.141944 -12.239975 6.879021
58.991567 19.055152 6.879021
-58.247194 2.110778 6.879021
-11.200245 64.450958 6.879021
-13.530505 34.267860 6.879021
-14.779953 -15.896510 6.879021
-51.286593 -19.455510 6.879021
-42.555895 24.844434 6.879021
23.453430 77.025736 6.879021
28.817356 3.133767 6.879021
-38.233888 -52.738260 6.879021
4.912923 -14.929755 6.879021
20.967563 -53.200202 6.879021
-17.528617 40.784736 6.879021
78.244576 1.081543 6.879021
-31.521419 16.001142 6.879021
-40.793731 46.257731 6.879021
-50.177879 50.216313 6.879021
-33.469289 -49.928375 6.879021
68.108588 6.191502 6.879021
72.994603 -27.992457 6.879021
74.245802 26.498726 6.879021
14.472637 19.305058 6.879021
-6.346120 -61.217374 6.879021
-22.858385 -13.168949 6.879021
4.825268 54.703141 6.879021
62.257558 31.038086 6.879021
26.219858 64.956627 6.879021
15.026319 -62.542240 6.879021
-41.977505 5.743715 6.879021
-62.225921 28.012611 6.879021
-27.333599 -6.401144 6.879021
-35.172562 -34.274284 6.879021
23.413832 37.354777 6.879021
-6.312324 30.970996 6.879021
44.491982 -4.598493 6.879021
12.431006 78.218563 6.879021
-20.977540 -15.940332 6.879021
27.272714 45.962593 6.879021
-40.869283 -27.127231 6.879021
50.199049 54.182407 6.879021
-11.504116 -35.120891 6.879021
52.532002 64.897981 6.879021
59.569640 1.117905 6.879021
4.414838 -67.984978 6.879021
-54.074138 -11.702426 6.879021
-1.717139 39.969124 6.879021
-34.650511 1.562849 6.879021
13.360243 -10.298905 6.879021
55.768054 -7.886683 6.879021
39.197418 -34.675887 6.879021
16.470686 -29.490236 6.879021
64.171865 45.357750 6.879021
33.202655 -29.720350 6.879021
-50.380068 7.146263 6.879021
1.118461 -44.921281 6.879021
-45.775884 16.010049 6.879021
-56.140048 39.418597 6.879021
65.603759 -11.017177 6.879021
-15.035014 70.578149 6.879021
34.283020 -19.668828 6.879021
-23.577628 -5.571361 6.879021
-16.396146 60.488787 6.879021
46.135547 -35.994777 6.879021
-32.847211 -47.346844 6.879021
29.240433 74.730433 6.879021
14.349110 -55.071585 6.879021
-50.755203 -29.896474 6.879021
15.261006 -39.414019 6.879021
-9.883270 66.729394 6.879021
70.877300 -29.463869 6.879021
25.807476 -33.075624 6.879021
53.516399 48.550597 6.879021
-50.880031 -8.485341 6.879021
21.701628 65.180640 6.879021
-4.614833 -35.418549 6.879021
-41.880414 -30.927540 6.879021
-35.122276 26.605133 6.879021
71.727739 24.574663 6.879021
-47.061034 26.918976 6.879021
20.811651 27.705149 6.879021
-38.280254 -44.596523 6.879021
77.450294 -1.775979 6.879021
55.413313 -26.189614 6.879021
-27.111267 68.369053 6.879021
-28.020719 -3.986335 6.879021
33.474202 13.829187 6.879021
76.750972 -20.153966 6.879021
21.253424 67.861051 6.879021
-38.270673 47.003054 6.879021
-23.306468 -47.939122 6.879021
9.526070 -33.012451 6.879021
-14.687566 42.931291 6.879021
32.694583 35.053620 6.879021
71.525110 43.255146 6.879021
-0.086394 -37.437429 6.879021
10.815512 55.844810 6.879021
-57.846163 11.690582 6.879021
15.812880 48.483568 6.879021
60.591422 7.090759 6.879021
39.966936 34.215949 6.879021
-2.688395 -65.389986 6.879021
24.347371 34.597744 6.879021
54.383896 9.894276 6.879021
39.892160 4.704669 6.879021
46.136719 -50.451097 6.879021
2.554913 -48.037117 6.879021
0.662252 67.609279 6.879021
-5.724472 24.340991 6.879021
18.815709 -15.542573 6.879021
6.359195 62.255005 6.879021
52.503873 -12.814055 6.879021
-4.369326 29.662280 6.879021
3.235034 -62.479509 6.879021
-11.519154 42.132542 6.879021
58.165607 27.790301 6.879021
4.059525 78.352329 6.879021
45.125350 -15.999628 6.879021
-16.550550 72.385045 6.879021
-63.784679 -13.334473 6.879021
31.895773 -59.885379 6.879021
78.167248 15.765313 6.879021
10.928160 -26.071016 6.879021
-63.889963 24.686837 6.879021
61.221031 20.674799 6.879021
-19.994645 -13.262424 6.879021
26.626894 -5.552362 6.879021
-20.875823 28.735209 6.879021
-50.560998 -5.865866 6.879021
-18.888363 68.154415 6.879021
-8.861116 -48.183114 6.879021
-21.303932 9.363914 6.879021
-36.669406 17.294646 6.879021
21.361224 35.290668 6.879021
13.367929 -49.118340 6.879021
-44.862089 -24.334669 6.879021
16.711637 59.545181 6.879021
27.507055 25.135325 6.879021
80.792615 -0.523852 6.879021
-29.682807 -59.155056 6.879021
10.052579 -21.072188 6.879021
-45.294207 36.498794 6.879021
-21.882648 12.159188 6.879021
27.304024 61.072523 6.879021
-19.388134 -29.091396 6.879021
73.888853 29.428637 6.879021
24.375345 -45.249159 6.879021
29.718241 -58.833625 6.879021
-24.621814 19.809761 6.879021
49.588885 31.939497 6.879021
46.814519 -47.742174 6.879021
-7.590713 -32.406309 6.879021
-37.839943 -11.416636 6.879021
69.224898 -27.229945 6.879021
37.586838 66.243804 6.879021
-45.160712 2.642396 6.879021
64.783723 22.437071 6.879021
-58.001329 -28.778177 6.879021
-34.382858 68.542466 6.879021
-19.412084 13.235773 6.879021
21.277700 -36.311935 6.879021
37.975459 -20.394823 6.879021
-52.054426 40.267802 6.879021
36.366923 5.429686 6.879021
52.264783 50.914024 6.879021
36.429501 -62.075107 6.879021
-1.544135 27.415071 6.879021
47.588100 -3.229144 6.879021
17.408190 -26.837872 6.879021
-24.791113 -24.841431 6.879021
73.770299 14.483693 6.879021
-62.082036 30.749438 6.879021
4.772874 64.069032 6.879021
-8.201462 -30.158932 6.879021
21.527313 38.592030 6.879021
60.862975 -0.648580 6.879021
43.595376 64.162470 6.879021
-15.325248 -33.078559 6.879021
25.041083 -8.436231 6.879021
-18.276074 -37.371797 6.879021
5.320635 66.396908 6.879021
-21.440662 24.291643 6.879021
47.069944 68.136027 6.879021
-39.874167 64.682173 6.879021
-36.015435 -9.592595 6.879021
54.123446 6.450359 6.879021
-23.449105 14.637708 6.879021
75.722450 34.681687 6.879021
59.315306 31.995258 6.879021
66.176600 38.525586 6.879021
28.343558 -29.541910 6.879021
-35.776124 4.615656 6.879021
-3.342800 55.974344 6.879021
-64.727056 -2.462432 6.879021
-4.807303 -18.818569 6.879021
73.293984 39.855935 6.879021
-26.139629 -47.685201 6.879021
25.939103 -65.937232 6.879021
48.371516 -41.840777 6.879021
-59.129744 4.621775 6.879021
12.172340 21.458416 6.879021
23.557997 -62.439360 6.879021
40.454565 52.369911 6.879021
36.333292 -41.997444 6.879021
7.012763 -40.641979 6.879021
-66.077470 -9.809916 6.879021
-51.576869 -21.796378 6.879021
-30.700951 -29.654954 6.879021
-17.383781 11.268463 6.879021
-37.812054 -6.837454 6.879021
-53.718384 7.929716 6.879021
31.537243 -44.563156 6.879021
74.845163 23.678351 6.879021
38.812900 41.320887 6.879021
-10.836613 -52.125082 6.879021
24.267545 -30.913506 6.879021
-12.998064 53.450012 6.879021
-33.798458 -41.475416 6.879021
53.280043 -46.913021 6.879021
-17.378248 43.455586 6.879021
10.557251 41.527771 6.879021
35.378167 2.633561 6.879021
30.323173 36.301628 6.879021
38.152316 -60.158257 6.879021
22.420492 4.138749 6.879021
62.647297 27.266210 6.879021
32.580454 -33.366235 6.879021
-46.248549 -32.043551 6.879021
-9.825390 52.131535 6.879021
7.990798 -68.140564 6.879021
-8.342570 -6.372623 6.879021
36.488337 74.697834 6.879021
19.977285 43.302088 6.879021
-31.744801 57.506698 6.879021
36.132995 -12.196227 6.879021
0.726919 50.014925 6.879021
-37.802115 11.423535 6.879021
-43.770669 14.384795 6.879021
43.306497 -22.919850 6.879021
-6.688327 -36.519290 6.879021
40.706928 -18.961585 6.879021
-29.010819 39.922244 6.879021
13.108707 -61.004172 6.879021
17.637990 45.313503 6.879021
45.233142 -41.660123 6.879021
-46.043727 58.585972 6.879021
20.210052 -4.487907 6.879021
48.041815 -55.278803 6.879021
-49.278762 20.944030 6.879021
-61.006951 -19.720901 6.879021
24.007858 9.067828 6.879021
-32.061384 66.804489 6.879021
-17.697558 64.016582 6.879021
-9.032009 37.170345 6.879021
43.367223 -27.861235 6.879021
33.904378 48.261360 6.879021
-38.065024 20.061057 6.879021
12.892251 42.705352 6.879021
46.348175 -25.844306 6.879021
26.644379 74.078666 6.879021
-36.638029 -46.298917 6.879021
56.376811 47.101108 6.879021
-27.134795 19.305157 6.879021
2.643351 -37.627378 6.879021
-18.662428 35.120826 6.879021
39.046445 -13.232274 6.879021
17.882839 -44.081970 6.879021
19.938204 -9.207106 6.879021
1.424879 32.711976 6.879021
-16.595816 8.807989 6.879021
4.230904 -35.500442 6.879021
67.921890 15.310325 6.879021
-51.373124 -0.769736 6.879021
-21.569654 -33.403946 6.879021
50.745579 -9.680679 6.879021
50.538639 21.511449 6.879021
-13.705508 24.469108 6.879021
36.360822 -38.365569 6.879021
-18.580826 -55.535324 6.879021
-24.175009 -10.605202 6.879021
17.308491 -5.184969 6.879021
69.480690 18.707540 6.879021
55.242853 -14.654571 6.879021
36.375556 56.314937 6.879021
28.352812 63.393896 6.879021
6.551009 -57.200529 6.879021
-22.718974 -51.076520 6.879021
-33.186218 7.547770 6.879021
-58.874360 17.820004 6.879021
-32.349492 30.343368 6.879021
-54.471965 44.797038 6.879021
15.205755 44.457882 6.879021
35.664185 -3.726287 6.879021
-63.913130 5.417234 6.879021
13.167849 46.164816 6.879021
47.510173 10.521411 6.879021
-27.141180 -23.584082 6.879021
68.027160 -2.885257 6.879021
9.598795 -61.134466 6.879021
-4.253295 48.001977 6.879021
-14.793119 58.576237 6.879021
-15.676912 -46.709580 6.879021
-38.261628 -35.934556 6.879021
20.728904 24.494890 6.879021
9.695107 71.728599 6.879021
31.506957 -55.005572 6.879021
-4.315593 -38.099050 6.879021
36.325827 48.273374 6.879021
48.832801 -26.207153 6.879021
56.876807 -39.427999 6.879021
-16.945003 28.129200 6.879021
68.718336 35.082584 6.879021
23.569964 -1.373831 6.879021
40.133098 -1.932348 6.879021
42.294881 62.337925 6.879021
5.651870 52.212915 6.879021
51.021961 -45.572945 6.879021
19.454521 -6.935981 6.879021
-41.705179 -40.653287 6.879021
-28.195494 15.920123 6.879021
25.978827 37.155673 6.879021
45.041192 19.359639 6.879021
38.305617 -43.857406 6.879021
39.175982 54.439051 6.879021
-19.700141 -31.561934 6.879021
9.212379 -58.300347 6.879021
-30.343862 11.693081 6.879021
32.357719 -49.730636 6.879021
-41.420463 58.331964 6.879021
55.288897 17.592225 6.879021
-23.420090 -35.299291 6.879021
-63.827211 21.798942 6.879021
51.818696 -17.775856 6.879021
-31.421313 61.755864 6.879021
30.864321 -28.702857 6.879021
-1.639844 48.238828 6.879021
-46.452131 7.647032 6.879021
43.165245 35.900656 6.879021
36.077209 -0.912387 6.879021
-30.968947 -18.566951 6.879021
68.958704 -14.230484 6.879021
-44.626030 26.554165 6.879021
-6.685882 -46.770707 6.879021
64.033554 -20.966564 6.879021
8.926992 24.520975 6.879021
55.979410 5.174284 6.879021
12.220931 26.858157 6.879021
-43.084250 -26.213608 6.879021
-66.879437 -6.665365 6.879021
-0.807108 74.534749 6.879021
1.353418 -64.561059 6.879021
-55.645688 27.578946 6.879021
55.277011 23.011289 6.879021
-61.944935 14.197705 6.879021
48.607314 -23.787016 6.879021
-37.104134 -16.235332 6.879021
-25.513713 66.185023 6.879021
-48.359483 46.810992 6.879021
-29.551301 -24.819395 6.879021
21.324953 -19.911882 6.879021
29.788906 30.679019 6.879021
-1.693265 -35.473569 6.879021
-49.896498 4.643801 6.879021
12.607162 -18.707781 6.879021
-13.391803 0.169851 6.879021
26.338779 -57.473377 6.879021
-12.407005 14.203132 6.879021
-58.708837 21.886842 6.879021
-56.430033 35.877372 6.879021
39.067334 -23.014264 6.879021
-32.062403 23.393126 6.879021
-55.021243 47.871703 6.879021
32.907867 -24.883020 6.879021
33.372876 44.175267 6.879021
16.471034 -68.124747 6.879021
9.351714 -39.532562 6.879021
71.987645 -24.858727 6.879021
60.418931 -17.120620 6.879021
-55.115898 -35.078973 6.879021
56.573314 31.115542 6.879021
-34.941793 11.344837 6.879021
33.064347 69.847010 6.879021
-59.497363 -26.630705 6.879021
74.893371 9.636425 6.879021
-32.033944 -23.927827 6.879021
-18.431005 23.499831 6.879021
50.909646 36.531658 6.879021
-39.687361 -42.767218 6.879021
-7.665897 -63.219636 6.879021
8.600269 21.450450 6.879021
-12.565484 78.454845 6.879021
-10.143084 -19.888868 6.879021
-42.268145 55.958641 6.879021
-42.486970 -8.725184 6.879021
41.976574 -15.159889 6.879021
80.383119 14.463431 6.879021
2.334479 40.116586 6.879021
-10.310009 78.872338 6.879021
10.919512 -37.726902 6.879021
41.766872 -37.528466 6.879021
21.376752 -40.997631 6.879021
54.199436 -5.597561 6.879021
-37.202655 36.280763 6.879021
-3.425409 -5.133702 6.879021
39.307382 -47.491874 6.879021
32.289632 19.714278 6.879021
-45.395566 0.137556 6.879021
-37.831329 30.095654 6.879021
5.107321 35.289073 6.879021
-44.637936 -41.993491 6.879021
7.796690 -44.217690 6.879021
-61.710044 36.087491 6.879021
-4.542195 73.037665 6.879021
17.867165 50.912451 6.879021
50.448155 41.495126 6.879021
7.891087 32.027607 6.879021
45.834643 -31.449177 6.879021
75.637850 3.264568 6.879021
-19.740397 65.035166 6.879021
-52.762345 10.330160 6.879021
21.909714 55.115131 6.879021
42.309536 0.027162 6.879021
71.008251 15.113355 6.879021
10.363742 74.219458 6.879021
42.139102 71.255801 6.879021
5.169742 31.600592 6.879021
78.244845 3.745425 6.879021
5.030696 -20.989722 6.879021
-30.468051 21.176005 6.879021
33.394980 51.178745 6.879021
-20.543512 56.842242 6.879021
57.620513 -16.677094 6.879021
30.336322 -10.225064 6.879021
-51.497708 25.372829 6.879021
-42.251992 -19.688665 6.879021
35.848605 54.101485 6.879021
31.431769 12.440116 6.879021
76.614603 -17.834968 6.879021
50.612602 -40.377675 6.879021
-61.920988 2.969398 6.879021
-8.426778 -44.661167 6.879021
1.817676 -41.893531 6.879021
-13.729677 -19.525819 6.879021
-54.275472 -0.360509 6.879021
-17.890287 -42.000209 6.879021
-45.584383 -26.982450 6.879021
-60.594151 -13.588047 6.879021
68.145489 -11.500361 6.879021
-20.234959 4.237810 6.879021
17.672692 41.722379 6.879021
47.961569 -20.711891 6.879021
26.781504 -62.722755 6.879021
2.441746 -28.582748 6.879021
19.311598 -51.409611 6.879021
24.260872 1.683717 6.879021
51.995502 -43.153756 6.879021
-26.834734 -59.666895 6.879021
-7.454224 -55.875764 6.879021
-48.783559 13.013180 6.879021
-65.083695 15.690435 6.879021
47.803191 44.711510 6.879021
44.655389 43.750157 6.879021
57.860376 52.088212 6.879021
15.894115 38.283171 6.879021
26.029674 -2.313186 6.879021
-32.111864 -52.521802 6.879021
-7.752721 -67.224793 6.879021
-36.921776 1.905706 6.879021
-67.376204 1.082488 6.879021
-14.999986 -57.340356 6.879021
-38.221088 -0.941808 6.879021
24.971652 55.825961 6.879021
56.377696 -3.150359 6.879021
8.913230 -51.418164 6.879021
0.585163 72.409678 6.879021
-22.540104 -3.269315 6.879021
-6.130103 35.646181 6.879021
26.387201 50.787017 6.879021
16.261228 28.876405 6.879021
-16.732007 -64.570199 6.879021
6.214427 -54.852392 6.879021
-50.661464 44.284127 6.879021
-14.995543 10.564313 6.879021
31.875942 32.632769 6.879021
-8.636866 -27.551738 6.879021
32.506191 -15.979217 6.879021
39.692230 60.869029 6.879021
18.064197 -54.397150 6.879021
60.090720 49.772220 6.879021
7.401849 60.246776 6.879021
43.102117 -58.878362 6.879021
26.352575 69.138448 6.879021
58.743753 22.117974 6.879021
-28.100960 36.713428 6.879021
46.661952 -44.436772 6.879021
12.769818 -7.699730 6.879021
45.850659 23.249510 6.879021
35.006127 40.101783 6.879021
47.681709 33.814204 6.879021
-5.596112 -6.315462 6.879021
10.178947 50.445943 6.879021
39.175376 -51.755371 6.879021
26.210728 -43.794609 6.879021
-22.404989 -25.577138 6.879021
-30.136111 -21.401789 6.879021
19.298258 -29.661839 6.879021
19.117180 -39.701875 6.879021
-45.106570 43.138796 6.879021
-46.108976 -11.075506 6.879021
-35.359333 -14.126819 6.879021
72.734092 -4.850082 6.879021
3.792303 50.642733 6.879021
27.090603 -12.107562 6.879021
-56.243153 17.729338 6.879021
-50.795945 -17.056254 6.879021
-13.938153 -27.302656 6.879021
64.819990 -28.988860 6.879021
52.189018 -52.713015 6.879021
-26.163737 0.743533 6.879021
-25.537650 -13.196463 6.879021
-0.149492 30.244401 6.879021
56.364915 49.473638 6.879021
-40.314547 23.959807 6.879021
-46.432083 -22.600254 6.879021
48.821227 47.853559 6.879021
-26.769057 40.464583 6.879021
69.146647 -0.695091 6.879021
-56.647378 45.917929 6.879021
-33.030139 -20.961332 6.879021
-21.500005 41.940291 6.879021
-33.700930 -18.425491 6.879021
78.247137 -6.760365 6.879021
-22.461202 4.575286 6.879021
-51.291921 18.591135 6.879021
-26.741658 -26.747507 6.879021
49.225115 -53.102373 6.879021
30.768061 21.399391 6.879021
21.655313 -31.366431 6.879021
48.707373 -49.616501 6.879021
-26.532366 33.669889 6.879021
-48.346535 -25.530211 6.879021
35.714948 69.149249 6.879021
1.566651 -15.663727 6.879021
-2.456236 -19.164669 6.879021
-2.701273 -33.245037 6.879021
41.798510 -3.459094 6.879021
-10.160560 -37.723633 6.879021
-7.694041 10.366223 6.879021
42.756908 38.712332 6.879021
-6.201456 -15.786937 6.879021
-8.536285 69.687331 6.879021
-42.788659 17.152155 6.879021
-12.461986 -63.166417 6.879021
68.295969 -5.901193 6.879021
-12.265480 9.929309 6.879021
-63.940070 -18.903652 4.826636
-25.022609 73.948947 6.121777
-42.792012 62.369112 6.284881
-49.925293 55.160091 6.712802
78.526388 27.350839 6.242742
-26.548053 -61.032689 6.029118
38.181879 74.049098 5.006613
-15.324016 -65.498645 4.783277
-61.552415 -24.783982 6.698896
42.284602 71.993399 6.325539
-64.985917 27.880930 4.194233
30.531835 -64.901501 5.463194
-23.844898 -62.307183 6.810293
81.550197 8.887383 5.943083
-66.553361 21.845430 5.992674
-67.061759 19.191243 5.075477
75.778623 -22.835170 6.817180
80.905677 -3.939223 4.049416
-25.879914 73.546318 6.547317
-12.929026 78.386146 4.014264
-20.396825 75.925690 5.896882
69.459727 -34.755621 6.071637
61.793419 -44.624124 4.752074
-0.321034 80.700526 6.853518
-59.700703 -28.603047 6.112822
26.462908 78.342594 3.926657
-44.754006 60.533079 5.754255
63.759981 54.602734 4.310713
62.343301 56.233409 4.358200
-66.049240 23.970391 4.689590
79.735240 22.734713 6.761822
-51.332633 53.461518 6.150901
14.912990 80.549010 4.589894
-18.806178 -64.360302 4.731127
7.894095 -68.795751 6.567702
-58.456530 -30.870247 6.060326
28.711131 77.690818 6.684848
-57.767631 44.311995 4.697356
-54.123842 49.818818 6.162642
-67.258225 18.165553 4.264407
75.483340 35.786043 6.068919
57.510217 61.110790 5.565605
21.135925 -67.389110 4.882429
78.970820 25.721360 5.629936
-4.503998 -67.975164 5.298841
64.492764 53.715578 6.600424
-67.564717 15.900676 5.982137
42.842844 -59.488697 5.266341
80.998775 15.403316 4.310873
-68.208678 5.291854 5.408983
-48.057053 -45.025484 4.033914
80.565307 18.485595 6.730140
65.182171 -40.686495 4.841817
-64.533543 29.269621 4.809355
33.877470 75.882991 5.205470
-53.182072 -38.918802 4.892182
72.933900 41.051452 4.812090
-29.439839 -59.506215 5.453532
68.643972 -36.038897 4.882019
-47.796248 -45.294843 4.748099
39.002484 73.662196 6.602042
9.266244 -68.778925 5.017087
66.659772 50.969037 5.908674
9.585863 80.959216 3.972280
3.107424 -68.718678 6.772941
5.540630 -68.793982 6.714230
25.369903 78.624106 3.883050
-51.733781 -40.777311 5.636051
-30.340155 71.209603 6.756070
-44.802527 60.498659 3.959490
78.229259 28.267667 4.837576
-1.518337 -68.354635 5.232235
-23.751265 -62.351329 4.941370
-55.505752 -35.678269 5.843174
80.344942 -7.452074 3.970345
34.967624 -63.254298 4.929920
46.713388 -57.200670 5.209554
78.438438 27.622219 4.506033
80.850380 16.585207 6.851316
-59.911495 -28.218930 4.139407
81.284427 -0.909417 5.043336
25.341056 78.631536 5.085079
45.401728 70.232100 4.576299
-66.833534 -8.187442 4.781919
-10.268124 -66.872495 5.604539
-46.002377 -47.161181 4.201663
-13.374327 78.272173 5.770677
81.235096 -1.347437 4.348387
-66.675591 -9.018828 4.468725
-33.009061 69.609265 6.076200
48.944441 67.971334 6.178633
76.945750 32.084203 6.491294
80.292310 19.922563 6.811417
-43.485955 -49.527842 4.392487
-23.674777 74.581950 6.299534
-12.192401 78.574682 5.546681
44.471807 -58.594782 5.606876
79.970181 -9.408652 3.930820
-37.586662 -54.308948 5.546340
64.185048 -41.889961 4.130151
34.685338 75.562429 5.130535
58.507759 -47.985313 5.338008
81.160154 14.118012 5.846067
73.593049 -27.609471 3.946841
-63.416956 32.488993 5.340653
70.164894 45.842428 4.630987
-65.108605 -15.297987 3.961025
12.618199 -68.570600 4.729332
-5.528110 -67.816916 4.240573
2.647822 80.885767 6.746936
52.305023 65.525805 6.859875
-19.880687 -63.933937 4.912868
-0.761131 80.645268 3.905931
20.428482 79.721352 4.011798
41.028621 72.685122 6.111810
-37.064867 -54.688664 4.006561
63.827192 -42.321871 5.370709
80.958939 -3.520175 6.794381
-16.054247 -65.260768 3.935905
-33.763838 69.131066 5.956483
-67.933959 12.785051 5.364031
27.048142 78.191862 4.582138
-26.438515 -61.084334 4.784690
77.141800 31.587936 4.866975
-30.089388 -59.148477 5.811330
-58.072689 43.761435 6.248079
-68.008863 11.608732 5.533953
-50.456621 -42.323523 6.850610
-28.569694 72.181167 6.587745
44.765585 -58.433567 4.846397
-14.768291 77.874281 6.502101
-68.145332 2.764388 4.191581
71.422799 -31.601877 6.869865
67.628552 49.633500 5.645916
55.378802 -50.819443 6.827139
-57.803097 44.250947 5.513644
53.745254 -52.168776 6.332769
-42.770615 -50.185056 6.284390
-62.735259 34.206947 6.416788
13.287458 80.723512 4.771327
-55.074954 48.511796 3.994844
58.876331 -47.636922 4.685525
-10.938511 -66.699822 4.705506
-2.584488 -68.219130 4.865950
7.192236 -68.795224 6.213126
-63.310778 32.756573 3.884059
-19.751604 76.180587 5.024930
-4.239165 80.208574 4.460717
-67.974374 12.150357 6.783288
-28.445205 72.249482 5.771792
-13.904029 78.136598 5.170036
-18.650440 76.615606 5.214624
29.407134 77.464080 6.758327
57.267287 -49.139876 4.851825
71.307766 44.014721 5.887999
64.998473 -40.908206 5.920262
-34.980684 68.360122 5.600574
64.214192 -41.854785 6.792315
-47.554676 -45.558287 3.891388
2.811255 80.895925 5.317061
-67.700128 -2.630049 4.965440
19.767991 79.847866 5.190237
29.343824 77.484705 4.082293
-50.219888 -42.610107 3.969874
43.185442 71.497268 5.896060
-27.651315 -60.491239 4.087504
78.943179 25.829354 4.949678
-66.735265 20.895763 4.023081
81.514260 9.465580 5.483796
30.426150 -64.935752 6.253845
1.054766 -68.587972 6.840728
81.122760 -2.231267 4.830769
-56.302669 46.616519 3.961733
21.692231 79.479284 3.950716
-48.387377 56.858822 3.944935
80.899024 16.197788 4.001834
66.806105 50.767293 6.808201
69.916348 46.234733 4.076153
-6.300638 -67.668940 6.112890
-52.821989 51.607828 4.851537
-66.330743 -10.668429 4.931744
57.617665 61.009736 4.066492
63.198200 -43.081025 3.986514
-13.540796 78.229565 6.469999
-51.484951 -41.078554 5.017754
-7.091823 -67.517391 6.150069
76.124540 -21.963418 6.464602
47.141633 69.126074 6.752351
80.822089 16.810538 4.440532
-68.208934 4.954411 4.751927
-49.382969 -43.602847 4.768104
57.847268 -48.609640 4.612327
80.179400 -8.316349 5.413652
43.255580 -59.262202 5.944814
74.944496 36.936406 4.694976
17.655399 -68.005503 6.878500
-65.673861 25.427803 4.061081
81.393985 0.811106 6.656260
-45.317159 -47.805619 5.783906
29.320015 -65.294231 5.091956
40.598809 -60.715884 6.380643
8.128293 -68.795928 5.744111
73.202583 40.561838 6.829357
-60.504848 -27.014566 4.484998
11.765937 -68.623569 4.236369
36.126337 -62.796541 5.888968
34.304047 75.713725 4.521859
-41.199761 63.684326 4.097263
81.577702 4.358007 3.994404
-60.897207 -26.179116 6.552978
-53.250408 -38.824577 3.881678
-56.489399 -34.125688 6.822007
9.466331 80.966827 5.701926
13.562166 80.706020 3.979671
60.608433 -45.884084 5.067196
-33.124265 -57.339597 5.556833
79.855403 -10.007895 6.775429
46.113116 69.779884 5.051831
76.525948 -20.951824 5.416737
62.082731 56.511301 6.002637
-57.014872 -33.296324 4.338841
-4.883984 80.127612 3.964092
40.229946 73.083468 5.448480
-55.902134 47.246599 4.319971
-62.953052 -21.460647 5.708932
-31.026507 70.832958 6.634822
64.492271 53.716170 4.181610
81.377982 11.658191 6.868222
-25.526638 -61.514269 4.604384
81.524949 9.293610 6.794602
78.592977 -14.958803 4.779692
-58.179010 -31.375957 3.926941
64.183110 54.090457 5.919310
-63.928990 -18.937841 3.909955
-62.458592 34.904182 6.790618
-40.575989 -52.003394 6.733524
-22.238498 75.198131 4.290473
-59.494439 41.179887 5.144286
9.647807 80.955271 4.791468
81.333542 12.373198 5.903358
-68.209750 3.879239 6.737430
61.335970 57.321671 3.957391
7.638322 -68.795559 4.280997
-7.958685 -67.351347 5.906360
70.283403 45.655371 5.284685
-31.579302 70.515108 5.893231
-68.021651 0.774351 6.400573
-34.530284 68.645486 4.760306
61.825106 -44.590432 3.917638
-65.833790 24.806876 5.100001
-65.896322 24.564097 6.110348
60.131785 -46.390890 6.589454
65.956408 51.938667 4.251625
79.138049 -12.868501 6.066740
68.197315 48.849427 4.727258
-66.274790 23.094687 5.622954
-40.240526 -52.281340 5.304486
68.505173 48.425004 5.885384
-66.943244 19.809974 4.037089
64.237428 -41.826741 6.087882
79.955911 -9.483155 5.850956
-57.477310 44.768698 4.006888
73.653088 -27.482133 4.671490
63.682130 -42.496952 4.092078
-33.874719 -56.862550 5.444987
-16.997701 77.151767 3.931273
16.398277 80.360235 4.149378
31.232020 76.869584 5.573569
-14.179261 78.065175 4.438935
-11.174255 78.835272 6.759857
-18.422299 -64.489361 4.139233
-64.800025 -16.250150 4.973534
-40.405494 64.340389 4.827314
-15.906596 -65.308866 5.350188
68.940323 47.775282 4.017734
11.134711 -68.662799 6.012880
71.974205 42.800285 4.741060
-23.850016 74.499650 4.096812
-43.857480 -49.178427 6.550309
-49.407467 55.774201 6.489033
74.458401 -25.774132 5.197288
76.247821 -21.652737 5.006878
-61.604141 -24.673842 4.125219
-63.872622 31.298504 5.944561
-39.003673 -53.277775 4.800327
77.324050 -18.854134 5.468010
80.967936 -3.449385 4.705887
45.060821 70.448809 5.829736
-36.781194 67.091174 4.938315
44.520107 -58.568276 6.876574
81.080661 14.751138 4.120567
60.107181 58.621665 5.828978
-65.740654 25.168478 6.875705
81.566436 8.626109 3.914151
-66.465247 22.305448 6.645116
-0.450662 80.684250 5.707874
12.516960 80.772574 4.629818
62.811283 55.734293 3.979702
-8.693490 79.410100 5.478672
49.427466 -55.419447 3.954990
-67.223625 -6.134055 6.158383
-67.905879 13.216429 3.930747
-37.743460 -54.194845 4.109712
63.618567 -42.573668 6.691065
71.529543 -31.408060 5.806344
-66.001402 -11.955192 4.825658
19.966945 79.809757 6.875870
22.799772 -67.073023 4.062548
31.909395 -64.455057 5.981361
26.948266 -66.022836 4.015770
29.923269 77.295938 5.839672
65.090646 -40.796960 4.146287
5.387327 80.993206 4.734294
51.918981 -53.612159 3.884480
53.172518 64.842415 5.730949
-7.458758 79.644667 5.148953
-21.914733 -63.126828 5.969395
-67.224676 -6.128525 6.843979
-44.759353 -48.330227 6.124700
57.026331 -49.365803 5.591391
-60.452598 39.317945 4.953394
-64.371059 -17.573780 4.930057
76.001808 34.473632 6.215336
72.540748 41.767885 5.291378
75.412465 35.939974 4.545081
-55.308267 -35.987640 5.114379
-17.091112 -64.923003 5.167270
-38.086964 66.144008 4.687057
77.843048 -17.260923 5.464113
-33.550065 -57.068925 6.014148
-7.949424 -67.353121 6.712496
52.577031 65.327862 5.863839
6.717735 -68.794867 4.034532
10.559403 80.897224 6.340619
-58.918605 -30.028228 6.818967
-67.369920 -5.259861 4.070166
-65.317178 -14.628507 4.867986
-21.061430 -63.465418 4.753520
-64.382015 -17.539976 4.005080
-63.366226 32.616838 6.693065
-51.882775 -40.596923 4.627856
-10.046370 -66.929613 6.648297
-25.773573 73.596260 4.599665
4.608254 -68.793280 6.713850
54.835192 63.464820 6.758022
-36.796056 67.080391 5.753755
-30.362862 71.197142 3.943408
40.020992 -60.987251 6.860905
25.728775 -66.334960 3.883055
59.315278 59.413154 6.265903
32.397596 -64.269604 6.419984
41.281484 -60.345514 4.443273
68.934401 47.784624 6.181696
79.678857 -10.768808 3.952030
-56.683890 46.016822 4.102312
79.047754 -13.219074 4.229479
-18.854709 76.534909 4.167902
66.992045 -38.312312 6.734722
29.170471 -65.342696 5.823128
-51.839390 52.849895 6.100338
-28.529563 -60.007546 6.162455
69.731330 -34.328360 4.218895
65.834974 -39.898601 6.585267
62.693069 55.860365 5.747287
35.113937 75.392361 5.691700
79.473299 -11.566891 5.274187
-67.695380 -2.667867 6.862684
65.644890 52.320750 6.645973
-55.975838 47.130655 6.240114
79.654068 -10.865050 6.535191
-27.798346 72.604455 5.545421
74.942555 36.940538 5.735060
6.981140 80.992008 5.453870
-68.209577 4.107114 6.062106
-33.653215 -57.003356 4.781696
21.432437 79.529047 5.456670
-61.299515 -25.322484 4.362642
58.389254 60.284067 5.880609
-68.018475 0.723249 5.710126
-16.368773 77.355592 4.834818
41.302937 -60.333742 6.817551
14.380637 80.616671 5.281051
-54.572835 -37.001510 3.944454
-52.265726 52.335334 6.400107
-51.705213 53.011838 5.088611
16.521206 -68.147909 6.816200
-65.537621 25.956758 4.829069
78.738954 -14.417995 5.988480
15.144525 80.519583 5.752225
14.102857 -68.451549 5.647903
-2.036005 80.485198 6.063285
76.860700 32.299493 5.063913
-21.931782 -63.120063 6.638352
-67.654875 -2.990454 6.052915
-38.815533 65.615515 5.680545
-63.523861 -20.015767 4.505531
53.431228 64.628063 4.835809
73.371753 -28.063106 5.337201
75.042016 -24.536333 3.910445
28.127369 -65.680748 4.031727
-27.932564 -60.336342 5.533181
13.422000 -68.520644 3.992178
36.953890 74.628075 6.662531
-64.365829 29.784465 5.518058
71.344644 43.947520 4.726329
-64.766575 -16.353366 6.725586
-44.200972 61.051625 6.654999
27.496704 -65.882466 4.612559
41.051664 72.672432 5.361699
30.210841 -65.005530 4.866126
-62.430775 -22.782678 5.090981
56.246422 -50.097069 6.794781
-58.662997 42.689580 6.513963
-55.807387 47.395644 5.560819
42.212912 -59.834381 6.711081
-10.892558 78.907371 5.788355
-9.493327 79.258153 5.354564
12.224181 80.791218 3.897323
44.542905 70.749654 4.670855
-17.636063 76.944885 6.826875
68.892571 -35.647822 6.230298
-46.423276 -46.754650 6.877215
51.238774 66.301725 6.300635
0.342267 80.742477 4.929412
36.262805 74.936490 6.659160
81.347348 0.078710 4.053805
44.644553 -58.499985 3.935577
20.186416 -67.569491 5.739550
-68.167612 9.115685 5.219896
17.109630 80.269824 6.352493
-29.358650 -59.550929 4.031285
-31.832207 -58.160929 4.933045
8.987899 -68.796224 4.104157
79.694597 22.893506 3.906526
-61.121955 37.898295 3.998116
-34.469586 68.683939 3.884840
23.076209 -67.013873 4.922413
-63.635905 31.937216 4.799634
-63.723644 -19.510059 6.074494
-65.785496 -12.798752 6.521652
-65.322686 -14.606984 3.975414
31.250216 76.863656 4.259047
12.473790 -68.579575 3.898381
80.766326 17.254656 5.090218
-67.385857 -5.132935 4.967163
-66.922068 -7.721410 5.364391
-67.938525 -0.563147 5.841739
-68.180550 3.331049 6.266699
-60.005216 -28.048148 5.043492
-42.354162 -50.530105 3.999354
55.451277 -50.759579 4.114448
35.914250 75.074797 5.544186
-53.876031 50.159360 6.869559
-41.563902 -51.184868 6.052320
81.187127 13.903189 4.936201
-19.210075 -64.200036 3.959635
-23.130294 -62.644107 5.940820
-63.711263 -19.541399 5.062240
34.420781 -63.470332 6.297511
51.623952 66.021427 5.644762
46.637602 69.446478 5.755536
-68.022248 11.398531 4.441450
-67.193212 18.504964 6.077687
76.249386 33.846928 6.520404
-22.889117 -62.740192 6.717310
38.232503 -61.827201 5.306942
0.979377 -68.583172 3.907548
68.502140 -36.237156 5.589721
72.673540 -29.330871 5.864656
-42.397767 -50.493976 5.648491
71.846232 -30.833039 6.776562
80.220749 20.299236 5.565217
60.032190 -46.496785 5.085097
-58.110218 43.693291 3.987779
62.749128 -43.607947 3.907989
74.120123 -26.491592 4.008823
-39.411594 65.161359 5.344845
-53.246676 51.024222 5.477264
79.613789 -11.021434 5.759325
-47.791507 -45.295406 6.468039
66.936847 50.587072 5.186431
-28.593491 72.168108 4.330521
59.909533 58.830766 5.111995
-63.187896 -20.866189 5.475140
25.407161 -66.417276 5.039918
-50.764110 54.147691 4.709571
-17.384790 77.026318 4.936472
-21.049235 -63.470257 5.739395
-39.828784 -52.622485 6.672434
-58.319586 -31.119794 4.577518
73.634737 -27.521054 6.679401
-67.367028 -5.282890 6.710020
77.167002 -19.336237 6.016565
11.565654 -68.636016 6.721932
-4.012720 80.237006 5.739356
53.111659 64.892839 4.141046
-12.771913 78.426358 5.130888
77.557705 -18.136864 5.254011
55.505228 62.909668 4.498754
41.280853 72.546207 4.561803
-17.731700 -64.714328 4.076267
-68.209355 4.398939 3.914314
-53.245193 -38.831783 6.188294
-36.607220 -55.021698 4.722391
-31.765707 70.397010 4.074693
-68.206593 8.041160 4.198940
49.136627 -55.630409 6.677211
57.626257 -48.803294 5.745742
-41.633114 63.326370 5.014215
-65.901958 -12.343728 4.151987
-28.489421 -60.029654 4.448886
-54.927384 -36.512733 4.306553
81.059727 14.917864 5.709056
50.401053 -54.713235 6.806748
81.429057 10.836431 6.012146
-55.722020 -35.336914 4.473126
81.094659 14.639651 6.839670
58.370574 60.301636 6.708226
-33.849200 69.076998 5.146372
75.704251 -23.022597 4.557955
-39.458561 -52.929230 4.324921
-27.918136 72.538719 6.235011
-42.998470 -49.986315 5.597092
52.184428 65.613563 5.173618
5.216859 80.993335 3.951442
65.064354 53.023581 6.824149
57.795089 60.842871 4.704757
35.799127 75.120478 3.976738
-34.858898 -56.236930 6.160611
75.575733 35.552166 5.219784
-16.528746 77.303747 6.857069
9.517400 -68.763315 6.794819
-52.630044 -39.679826 3.995240
-52.136618 -40.289611 5.190142
62.317078 -44.067333 6.809699
15.647611 80.455642 4.182021
-66.923315 19.914016 5.023214
60.985520 -45.483138 6.514620
81.496976 2.428522 4.044360
-57.107207 45.350904 5.404021
-66.251309 23.185852 6.485067
-17.359018 -64.835731 6.480326
-58.758018 42.517046 5.694790
-23.889088 -62.286348 3.964150
-55.699281 -35.372806 6.747379
-60.621632 38.959437 3.901596
81.002881 -3.174450 3.932519
79.489744 23.693886 5.060688
-58.955175 42.159059 3.883017
-32.958084 69.641590 3.879641
-67.886024 13.372650 4.775958
-1.069092 -68.411734 4.217258
54.943474 -51.179030 6.295838
61.104574 57.554524 5.947178
81.579574 6.825613 4.967844
-67.701460 -2.619442 3.995893
-55.828969 -35.168107 5.273429
-39.810790 64.831620 6.875239
-52.060574 -40.381688 6.472225
-38.431493 -53.694156 4.703735
61.188185 57.465347 6.603507
-34.140334 -56.693705 4.285091
-68.209131 4.694369 6.637757
33.077876 -64.000855 5.605894
-35.267965 68.178108 6.208242
-66.082416 23.841583 3.893508
-67.158630 -6.476179 5.104298
-64.989121 27.871093 4.996896
-18.749618 -64.382735 5.532399
67.254920 50.148588 4.655395
70.203502 -33.585580 6.773045
-34.977465 68.362157 6.797113
56.513833 -49.846371 4.023912
81.031714 15.140970 5.010943
-24.914879 73.999542 4.462698
73.177482 40.607579 3.902266
-45.189718 -47.925475 6.714166
-48.837129 56.380618 6.693057
-21.876356 -63.142056 4.086979
81.457853 10.373127 5.130771
77.972944 -16.862168 4.879076
22.217434 79.378684 4.919561
68.457627 -36.298325 6.254496
24.204128 78.924361 3.951708
79.089120 25.259154 6.138480
72.204694 42.380268 4.046455
-44.071431 61.189726 4.233031
36.142284 74.984313 4.794712
4.489058 80.993882 5.035776
-0.308829 -68.501143 6.836535
15.985882 80.412649 6.814332
76.390847 -21.292295 6.805950
-51.472639 53.292541 4.305606
-57.809806 -32.041566 4.063337
4.018427 80.970951 6.810700
79.266253 -12.370750 3.880977
67.086437 50.380846 5.887995
-53.740450 50.345677 5.403507
-63.901710 31.209212 5.158224
-64.433947 29.575358 6.690369
-59.764134 40.690187 4.070710
-65.282230 26.948316 6.223128
80.032335 -9.084154 6.594259
18.464773 80.097494 5.593667
-25.192683 -61.671724 6.857997
-0.783767 -68.447998 4.899009
3.541672 80.941320 6.269613
-68.207362 7.027226 5.546125
74.000989 38.945384 5.809245
-35.410704 -55.886160 4.088474
-27.389279 -60.635555 5.179712
61.233485 -45.219485 4.920281
-54.239303 49.660151 4.262785
80.710905 17.696064 5.903155
-55.423314 47.999827 6.690071
81.247308 13.423877 3.927789
53.329901 -52.511863 5.576517
-65.307457 -14.666485 6.688484
40.391536 -60.813228 4.852123
-43.089150 62.094112 4.152945
-50.245187 -42.579498 5.129533
48.353925 68.355442 6.725479
-30.949504 70.875214 4.672377
77.507181 -18.291961 3.994120
66.876652 50.670054 4.250983
-68.207669 6.622508 6.424250
-39.284134 65.266639 3.896957
58.489210 -48.002847 3.928010
50.313416 -54.776806 4.832563
22.293017 -67.169293 5.807303
48.295452 -56.198325 5.268534
47.038546 -56.994657 6.694611
54.134793 64.045130 6.618108
15.451729 80.480538 5.069333
-8.344194 79.476457 4.089681
33.116494 -63.985599 6.651586
-32.826145 -57.529105 4.825373
-53.786711 50.282104 4.528226
-13.450680 -66.052759 5.954795
15.319148 -68.298835 6.871877
-50.421148 54.561626 6.753045
54.029979 64.131973 5.209434
66.527526 51.151345 5.135377
-28.880489 -59.814275 6.756145
-66.330715 22.877559 3.962506
71.780097 -30.953122 5.286644
-4.012758 -68.037600 4.534075
35.029890 -63.229700 4.118941
48.581803 68.210584 5.587401
41.709886 72.309920 3.980300
-19.702633 76.199933 5.899109
-54.867304 48.797149 4.757148
59.481995 59.256359 5.579718
36.660754 -62.565360 5.004099
74.402293 38.090900 6.319880
19.151005 -67.766192 4.054390
-52.628501 -39.681953 5.196279
-7.530395 -67.433384 5.299274
37.982849 -61.944448 6.816672
50.107853 67.124707 4.007754
61.720387 56.897754 4.913763
-16.588809 -65.086632 5.920794
81.137664 -2.114005 6.858167
-68.208080 6.080685 4.373091
17.093436 80.271882 4.101751
34.626091 75.585938 6.688233
81.578289 5.131885 5.986508
45.317308 -58.085178 5.331039
81.450691 1.701643 6.219769
69.718935 46.546322 5.667013
27.429901 78.093537 6.841410
77.628656 -17.919058 5.912731
-42.762477 62.393508 4.877639
-49.594588 55.559232 5.792304
-55.487090 47.899502 3.918273
-62.850961 -21.719069 6.425360
57.148510 -49.251244 6.515987
81.579181 6.307346 4.021678
78.128399 28.578886 6.342154
80.456905 19.056192 6.008265
-31.282654 -58.491289 5.111097
-68.208665 5.308731 6.181945
-32.365543 -57.821899 6.679674
77.050328 -19.630325 6.877663
37.497677 74.371688 4.797702
50.110093 -54.924288 5.489597
-26.890612 -60.871178 3.904233
13.724361 80.695692 5.855044
-43.678717 -49.346551 5.420171
68.254287 -36.577754 4.078049
27.202522 78.152100 5.251790
74.968384 -24.692501 5.512826
80.500869 -6.638000 5.601231
-66.707800 21.039150 6.432559
-64.194972 -18.117120 6.304429
76.842064 32.346667 4.249457
75.590686 35.514316 3.942303
81.174628 -1.823186 6.135232
-15.195479 -65.540517 3.903097
-68.104464 10.107378 6.347007
-6.211065 79.881695 4.729053
-63.289901 -20.607987 6.268280
-41.398289 -51.322085 4.222964
39.569934 73.394653 5.124248
-43.204715 -49.792344 4.977545
1.671478 80.825088 4.046701
75.128495 -24.352919 6.843262
-17.999076 76.827238 5.439520
-25.161019 -61.686653 5.317979
-67.459839 -4.543737 4.224148
77.350515 30.979146 6.776115
-15.016920 -65.598683 6.759895
-66.220189 -11.100372 6.483203
-49.885218 -43.015297 6.586578
-38.711435 -53.490439 6.583763
-14.307853 -65.829666 6.681641
28.233786 77.846324 6.215578
53.532078 64.544504 6.832541
-62.753857 34.160078 4.613455
51.506445 -53.911419 6.615953
-67.638215 15.322396 5.432627
57.368811 61.243780 6.593660
73.245373 -28.292578 3.965485
-43.334849 -49.669954 6.709523
-15.493787 77.639160 5.933678
72.855790 -28.999954 5.012886
26.939161 78.219931 6.045648
-36.438011 67.340141 3.970007
-61.285374 37.551695 5.276716
71.833828 43.056090 6.780461
-38.689079 -53.506708 5.484381
-67.485770 -4.337217 4.988702
-4.885478 80.127424 4.684574
67.719184 49.508567 4.929057
15.498772 -68.276282 5.128551
-11.273501 -66.613538 4.043430
52.480934 -53.204553 5.378569
-2.082580 -68.282921 4.065579
26.308476 78.382369 4.679753
81.511761 2.660712 5.734315
-26.839298 73.095748 4.031185
45.831185 -57.759602 6.573310
72.283220 -30.039586 3.891286
22.390218 -67.150828 5.044206
42.675666 71.778024 5.448800
26.094293 -66.241407 4.454745
77.660307 30.023244 3.912815
12.164264 80.795033 5.440738
16.500911 80.347190 4.886396
-29.452416 71.696761 5.661059
73.564957 39.873812 6.564551
75.449630 -23.664272 4.074300
-67.448118 16.818075 6.055008
78.439360 -15.430372 6.859145
4.180283 80.981010 4.408881
-29.245424 71.810351 6.797087
-17.147905 77.103088 5.694258
-43.352131 61.847530 6.699066
76.604880 -20.752907 4.702951
81.579688 6.976471 4.253093
60.417925 -46.086645 5.875904
-6.783206 -67.576506 5.147562
-12.685415 -66.249869 5.606036
78.756045 26.560502 4.738088
17.375802 80.235994 4.850754
-59.337170 -29.265496 4.076912
23.116015 -67.003685 5.754677
50.149018 -54.896046 3.899679
-67.648852 15.238710 4.590000
6.661638 -68.794825 5.781871
-68.099280 2.023415 6.858352
-9.736545 79.203248 6.185501
-67.099439 -6.787753 6.292132
-18.082564 76.800181 4.673311
23.921084 78.997262 6.243518
-61.117536 37.907665 6.087991
0.638778 80.760905 6.604994
20.637912 79.681236 5.594637
67.887265 49.276863 4.098842
-56.447585 -34.191713 4.934108
-56.927590 -33.434049 6.704623
-68.197174 8.651439 5.911043
-1.652037 80.533408 3.942665
11.205877 80.856059 3.896301
81.578984 6.047765 5.325897
-3.651188 -68.083555 6.809347
7.766165 80.991417 5.458217
62.776140 -43.579225 6.090977
73.630814 39.733585 4.712120
-53.828175 -38.028081 3.968800
60.550758 58.152384 3.980031
4.124468 -68.783439 5.711885
59.361914 59.369294 4.079144
-30.003116 71.394557 4.966706
-6.957240 79.739942 5.786355
58.458049 60.219367 4.085064
-15.613164 77.600472 6.688582
-62.381918 -22.906350 6.425232
81.377408 11.667423 5.794894
68.318980 48.681706 4.011104
49.749899 67.385194 5.599390
69.920191 -34.031259 5.908931
61.511831 -44.923527 6.067796
80.722291 -5.382059 5.112015
-20.579299 -63.656728 6.241633
30.572564 77.084416 5.315944
-56.239888 46.715279 5.592005
-24.977149 -61.773345 4.135219
78.767542 -14.307003 4.787038
-3.378348 80.316656 4.800677
-37.684774 66.435750 4.120814
-23.045810 74.877341 5.674076
81.577548 4.154315 6.063670
13.006002 80.741434 5.707586
65.097656 52.983249 5.084937
73.343621 40.304827 6.100715
81.577761 4.435083 6.871531
-59.463577 -29.035151 5.449523
-48.842383 -44.177312 5.919762
19.586477 79.882635 5.895154
-67.363666 17.482536 4.111639
51.833398 -53.674238 4.709140
0.469644 -68.550714 5.449087
-56.552878 -34.025493 5.698404
39.417453 73.466545 4.010010
80.895764 -4.017214 5.189576
-26.602279 73.207062 4.778882
64.622701 53.558258 5.325975
-2.539000 -68.224911 6.423381
-31.910207 70.305458 5.263931
-17.658379 76.937652 4.103863
-63.134458 33.200921 5.638648
-14.391856 -65.802302 6.015634
-68.002908 0.472781 5.058208
-30.062452 71.361996 5.887110
81.579288 6.448642 6.087343
-49.483708 -43.491112 5.766902
-60.211728 39.828810 3.955557
76.530993 33.134090 5.298611
72.766803 -29.161531 3.884772
59.191206 -47.339287 6.040116
-54.424118 49.406177 5.002969
3.610798 80.945616 4.844470
-40.628753 64.155977 3.983510
-58.622255 -30.568254 4.098982
29.865399 -65.117482 5.478807
0.830104 -68.573666 4.734685
-53.904412 -37.922988 6.382172
71.376908 -31.685203 4.904189
77.414926 -18.575163 4.692918
81.571622 3.600779 6.693858
-24.419097 74.232384 6.675779
-5.996550 79.922447 5.791398
-65.169592 27.317087 4.557752
45.309104 70.290980 6.832800
-41.254152 63.639394 6.579983
-49.293346 -43.694962 6.491249
54.645798 63.621742 5.975981
59.775000 -46.770248 5.943406
-39.843866 -52.609989 5.862732
-45.913352 59.448656 3.926014
70.978457 44.558297 4.571713
38.107292 74.084265 4.117255
53.891544 -52.047938 5.424255
-23.963047 74.446565 4.942634
-53.751105 -38.134325 4.727019
-66.964277 -7.499228 4.309207
24.569314 78.830305 4.743082
-61.005121 -25.949336 3.966016
71.982817 42.784590 5.905756
6.749526 80.992182 4.779198
-49.153020 56.044744 4.597603
-63.136920 33.194714 4.656492
70.403141 -33.271525 5.394494
-42.173801 62.879756 6.113053
-3.642690 80.283466 6.638505
-40.540994 64.228466 6.687311
26.383003 78.363174 6.764861
80.454313 -6.881060 6.655713
-52.078196 -40.360329 3.898454
-32.082383 -58.001897 5.597768
-26.373588 -61.114947 6.834880
-22.725445 75.005760 6.803983
78.639574 27.001590 3.969690
36.779259 -62.509705 4.017201
31.939085 -64.445435 3.891296
73.187168 -28.398262 6.138508
77.831312 29.495586 6.284380
19.358506 -67.726772 5.902220
65.580816 52.398311 5.425925
-66.152333 -11.365490 5.315449
77.960569 29.096746 4.214666
-61.283531 -25.356517 6.181306
11.846380 80.815275 4.661440
79.306650 -12.213906 6.652492
66.337679 -39.211534 6.726377
20.785952 -67.455596 6.616289
81.436847 1.484225 5.010757
-68.206774 7.801553 5.849555
14.490214 80.602744 6.029498
76.284740 33.757436 5.834095
-39.959945 64.708417 5.302477
32.109453 -64.383437 4.726999
-65.387859 26.538210 5.681236
27.669715 78.030082 5.885775
-1.206117 -68.394318 6.853359
77.223327 -19.163332 3.996849
3.918517 -68.770325 4.071021
55.364347 -50.831384 4.965006
39.874253 -61.056166 5.238860
39.143064 -61.399563 5.485391
-57.947880 -31.797136 4.949326
81.579415 6.615576 6.759618
-68.150197 2.842672 5.070009
-64.387469 29.718034 4.235710
58.989914 59.719155 5.630092
43.859998 -58.930520 5.901668
-4.731337 -67.946270 6.758675
33.594083 -63.796924 4.634948
14.631547 -68.385168 6.728318
66.158746 51.659733 6.521075
79.116394 -12.952580 5.333207
-60.089715 -27.894168 5.686926
-66.545303 -9.704650 3.913359
-68.208130 6.013955 5.163395
-37.381924 -54.457938 6.531807
72.261593 -30.078855 5.670241
72.110142 -30.353850 4.836766
12.435300 80.777774 6.174263
-67.575100 -3.625785 5.629925
-54.353577 -37.303771 6.459831
56.113691 -50.212415 5.995427
71.293389 44.040921 4.004646
56.971488 61.617457 5.605508
-62.340893 35.200797 5.490173
-37.973635 -54.027344 6.258946
-31.454713 -58.396529 6.047868
16.794553 -68.113588 3.938831
65.562189 -40.227836 4.005373
7.360281 -68.795350 5.257636
-61.356567 37.400701 6.696959
57.626781 -48.802803 6.745181
-12.849208 -66.207681 4.919246
81.484366 2.230486 5.164373
-65.136622 27.418299 5.506968
-12.131229 -66.392612 4.395906
-63.279447 -20.634447 4.751569
-19.535306 76.266036 4.319703
-60.995096 38.167351 6.745872
78.009015 28.947260 5.699424
-7.664915 79.605502 6.822306
81.341166 12.250530 4.804029
53.913877 64.228169 4.203062
-67.797943 -1.851045 6.749120
-67.804458 -1.799160 4.695387
-12.393714 -66.325003 6.612845
31.390912 -64.623089 4.636401
-61.478302 37.142511 4.115526
-50.899286 -41.787585 3.962868
-65.062428 -15.440471 6.772829
-66.567142 -9.589692 6.102598
-53.715849 -38.182939 5.653266
39.476510 73.438701 5.941770
-52.039088 52.608872 3.965129
77.592853 30.231380 6.055832
-64.980470 27.897649 6.677736
-2.432057 80.435471 4.189620
-66.510701 22.068147 4.397887
-54.287533 -37.394816 4.481260
56.055785 -50.260246 5.250621
1.526132 -68.617987 4.349427
80.122211 -8.614924 4.406786
38.573229 -61.667181 5.859212
-8.051774 79.532009 4.693135
-21.177625 75.617232 4.352538
76.546743 33.094220 4.450133
22.779056 79.271107 5.295645
-36.482375 -55.112549 4.055013
69.149914 -35.242993 4.963630
-63.073637 33.354197 6.510877
-5.650454 79.988196 4.048270
70.548819 -33.042356 4.724798
70.874208 -32.530483 4.319630
65.091759 52.990384 4.391944
67.348780 -37.822091 6.431123
5.541573 -68.793982 4.500605
56.394100 62.160483 5.743815
23.615326 -66.875889 4.042867
-46.112859 59.260072 4.685276
7.413686 80.991683 6.126127
81.580059 7.465052 5.268558
32.764225 -64.124765 4.155391
-60.124132 40.014593 4.771576
48.969798 -55.751422 5.248156
4.503075 -68.793201 4.470933
81.281168 -0.960599 6.770380
31.636883 -64.543374 6.842011
57.178600 61.422671 4.882367
79.256891 24.603658 6.699149
29.517886 77.428000 4.982542
-50.917826 53.962166 3.922503
76.125976 -21.959799 4.119804
-30.085316 -59.150720 4.668422
33.693434 75.956016 6.041622
-67.604568 -3.391102 4.849341
30.604368 -64.877995 4.117144
77.353580 30.969690 4.197481
-45.675077 -47.469002 6.460777
22.675061 -67.096715 6.600977
-47.467761 57.836613 4.032536
-2.748861 80.395693 5.771452
-50.358534 54.637197 4.010288
61.583723 57.043504 5.671492
76.104028 34.214878 4.227156
-62.099895 -23.618234 6.771193
-67.728023 -2.407890 5.587916
-31.064649 -58.611355 3.951355
78.263663 -15.969726 3.998891
-38.680409 -53.513018 3.895065
