-0.129890 -0.079171 -0.493722
0.076230 -0.126807 -0.483726
0.184220 -0.387853 0.309459
-0.179588 -0.256715 0.424317
-0.090309 -0.095070 -0.490985
-0.073317 -0.070784 -0.495166
0.183422 -0.301679 0.393590
-0.242125 -0.031956 0.494762
-0.202401 -0.023439 0.495411
0.256505 0.479575 0.133665
-0.228860 0.289569 -0.407852
0.230927 -0.148507 -0.477309
-0.061843 0.055645 -0.497280
0.021727 0.488887 -0.100276
0.258877 -0.414621 0.273068
-0.192330 0.234826 0.437194
-0.224022 -0.460321 0.187054
0.247488 -0.228224 0.440220
-0.280237 -0.408332 0.282061
0.025126 0.225372 0.442171
-0.106346 -0.307890 0.388904
0.204970 0.081372 0.489166
-0.189383 0.120765 0.481051
0.194512 -0.024309 0.495382
0.190836 -0.104735 -0.488971
0.060770 0.498021 -0.022904
0.173831 -0.398718 -0.299777
0.166145 -0.337434 0.363756
0.256715 0.490853 -0.088856
0.045635 0.402137 0.292250
-0.279275 -0.496997 0.018540
-0.193662 0.493714 0.066396
-0.273327 0.109992 -0.487989
-0.282959 -0.431637 0.245552
-0.095359 -0.395301 0.300119
-0.262207 0.454871 -0.205894
-0.106557 -0.490505 0.080571
0.076116 0.116828 -0.486557
0.167188 0.495704 0.051865
0.056599 -0.488966 0.089513
0.007328 0.202605 0.452911
0.108987 0.362423 0.339901
-0.151588 -0.113297 -0.486936
-0.230284 0.483379 -0.123950
0.057277 -0.143114 -0.478955
0.276882 0.422598 0.262259
0.141156 0.117647 0.481792
-0.150911 -0.334301 -0.370745
0.134250 -0.389994 -0.311340
0.257174 0.047129 0.493623
-0.128327 -0.458434 0.191316
-0.252107 0.373006 0.328368
-0.173425 -0.455316 -0.202821
-0.074675 0.117994 0.481710
0.205114 0.203714 -0.456940
0.017027 -0.071453 0.490534
-0.025040 -0.343198 0.358144
-0.273570 -0.494654 -0.056522
0.276973 -0.297121 0.397028
0.001801 0.062535 -0.496326
0.244314 0.326530 0.374359
-0.264109 0.485293 -0.115895
0.117624 -0.423501 -0.263694
-0.186658 0.486524 -0.110715
0.259558 0.364105 -0.342484
-0.164973 0.194255 0.456658
-0.265361 -0.447746 0.215134
-0.271160 -0.486397 -0.106420
0.147643 -0.497211 -0.018602
0.120194 -0.341112 -0.364577
-0.237910 -0.472096 0.155115
-0.207321 0.155315 -0.475508
0.037275 0.132325 0.478205
-0.088447 -0.496531 0.028923
0.070771 0.452336 0.207429
-0.002778 -0.141074 0.475300
-0.141020 0.089113 0.487833
0.107416 -0.410434 -0.283486
-0.182298 0.494481 -0.065736
-0.222117 -0.081217 0.489121
0.052060 -0.164865 0.467507
0.273203 -0.497105 -0.024467
0.282420 -0.464873 0.174921
-0.070580 0.310041 -0.392408
-0.084330 0.495968 0.048601
0.130547 -0.134385 0.477147
0.027729 0.157133 -0.474881
0.036940 0.002320 0.495875
-0.169509 -0.496612 0.027132
0.021223 0.496177 0.046021
0.045503 -0.413360 0.274871
0.135080 0.062900 -0.496273
0.215732 -0.453051 0.203312
0.252104 0.497506 -0.034406
0.256012 -0.339328 -0.366192
-0.253565 -0.446965 0.216741
-0.091423 -0.038991 0.494192
0.095148 -0.275091 -0.417059
0.247351 -0.391605 -0.309205
0.020239 -0.377364 -0.326448
-0.207707 0.042788 -0.498321
-0.275210 -0.471352 0.157551
0.184594 -0.140074 0.475577
-0.283761 0.071728 0.490826
0.025828 0.391926 0.305784
0.072908 0.496968 0.036258
-0.156193 0.467943 0.169733
0.176475 0.445239 0.221831
0.286430 -0.066799 0.491207
-0.273300 0.008007 0.495926
0.249268 0.021912 -0.499810
-0.215647 0.492064 0.077798
0.012789 -0.348474 0.353008
-0.032536 -0.491315 0.075869
0.050920 0.453946 0.204162
0.112246 0.351402 -0.355508
-0.126680 0.359044 0.343372
-0.199871 -0.241318 0.433146
-0.064501 0.100404 -0.489998
0.063575 -0.285864 0.405425
0.266708 -0.491475 0.074940
0.200079 -0.212912 0.447765
-0.134011 0.123082 0.480501
-0.075282 0.493110 0.070573
0.223485 -0.469765 0.161887
-0.263344 -0.033573 0.494631
0.091784 -0.459726 -0.192244
0.260337 -0.496234 0.035549
-0.092111 0.191380 0.457948
-0.231406 0.492052 0.077886
-0.148765 0.470293 0.162919
0.286332 -0.154168 0.471197
-0.095390 0.359547 0.342855
-0.060436 0.453900 -0.208057
-0.170655 0.181617 0.461706
-0.002804 -0.045725 0.493647
-0.198243 -0.018594 -0.499759
0.227689 0.179101 0.462650
-0.084501 -0.393302 0.302626
-0.010784 -0.491320 0.075835
-0.203706 0.315985 -0.387603
0.046384 -0.108012 0.483836
-0.031848 0.497867 0.025165
-0.005873 -0.488944 -0.094259
-0.179678 0.078355 0.489685
-0.097184 -0.056932 0.492635
0.134029 0.457076 -0.200981
0.069883 0.172154 0.465257
-0.088027 -0.214967 -0.451257
0.019490 -0.315176 -0.387311
-0.145077 -0.338606 0.362615
-0.159254 -0.198851 -0.458489
-0.020741 -0.177926 -0.467059
0.167759 0.113118 0.482869
-0.198646 -0.487745 -0.099986
-0.177447 -0.343349 0.357997
-0.108278 -0.010594 0.495642
0.150830 -0.484173 0.111945
0.024214 -0.295690 -0.402652
-0.059495 -0.003431 -0.500267
-0.270613 -0.472478 -0.157969
-0.093682 0.464232 0.179542
0.208400 0.425592 -0.261502
0.035060 -0.112172 0.482964
-0.039260 -0.482209 0.120210
-0.015876 -0.487320 -0.102012
-0.209831 0.184858 -0.464801
-0.223651 -0.392268 -0.308326
-0.288348 -0.204559 0.451806
-0.288974 -0.285347 -0.409886
-0.290015 -0.042479 -0.498368
0.046836 0.123651 0.480366
-0.011868 0.387252 0.311765
0.152119 -0.388292 0.308909
0.089147 0.182815 -0.465653
0.277310 0.388627 -0.314128
0.132929 -0.160278 -0.473682
-0.108257 0.468014 0.169528
-0.091487 -0.217783 0.445365
-0.213579 0.498164 0.018223
-0.155113 0.324380 0.376306
0.249140 -0.107380 -0.488342
-0.123615 0.331767 -0.374060
-0.129523 -0.428871 0.250088
0.155019 0.031674 0.494864
-0.000234 -0.496387 0.032145
0.224828 0.477840 -0.144002
0.155289 -0.365183 -0.340367
-0.053339 0.249017 -0.433673
-0.036561 -0.436802 -0.240535
-0.050732 -0.497519 -0.001499
-0.213843 -0.042677 0.493894
-0.134138 0.311990 0.386315
-0.032870 -0.497081 -0.025794
-0.209487 0.224092 0.442846
0.068729 0.485839 0.109623
0.262588 0.133870 -0.481926
0.158737 -0.227752 0.440452
-0.058131 -0.439895 0.230168
-0.260763 0.437809 0.236213
-0.216712 0.197381 0.455255
0.142192 0.270059 0.416672
-0.167963 -0.386156 0.311588
-0.210368 0.072937 -0.494821
0.097477 0.320452 -0.383770
0.142669 -0.070635 0.490652
-0.078402 -0.246351 0.430261
-0.096506 0.468136 0.169173
0.285526 -0.308564 -0.392583
-0.128135 0.374931 -0.330532
0.023910 -0.487478 -0.101257
-0.286748 0.397121 0.298899
-0.243330 -0.280406 -0.413342
0.055781 0.049717 0.493343
-0.087480 -0.445425 -0.223728
0.056820 -0.438805 0.232237
0.043472 0.089124 0.487831
-0.089898 0.412171 0.278054
-0.199939 -0.448315 0.213865
-0.053478 0.259755 -0.427515
-0.163232 0.256936 -0.429131
0.156062 0.333514 0.368033
0.028527 -0.495366 0.043706
0.212810 -0.277249 0.411112
-0.276871 0.494303 0.062326
-0.138847 -0.433171 -0.246866
0.183044 0.247731 0.430284
0.094239 0.452547 0.207000
-0.082746 0.183838 -0.465226
-0.257037 -0.328856 0.371326
0.237233 0.430077 0.249696
0.250446 -0.172497 -0.469097
-0.054593 -0.491601 -0.078268
-0.160198 -0.339484 0.361760
0.105916 0.442746 0.226891
0.084081 0.477315 0.141853
-0.159369 -0.088466 -0.492122
0.062055 -0.402718 0.290087
-0.260932 -0.412927 -0.279710
-0.082015 -0.334085 -0.370941
0.049626 -0.261512 0.421501
-0.153538 -0.322343 0.376914
-0.139149 -0.392197 0.304012
0.254237 0.193826 0.456851
-0.161699 -0.412001 0.276814
0.274401 0.365610 0.336627
-0.127452 0.048627 -0.497848
0.270775 0.030339 -0.499330
-0.053123 0.185475 0.460258
-0.026506 -0.018274 -0.499773
-0.289468 -0.183553 -0.464948
-0.175301 -0.368379 0.332280
-0.129142 0.465660 0.176116
-0.186848 0.332086 0.369326
0.029097 0.342140 0.360220
-0.184498 -0.495018 0.046932
-0.180742 -0.466383 0.170898
0.069444 0.396301 -0.304503
0.199686 0.468995 -0.171023
-0.078942 -0.257327 0.423966
-0.128982 -0.109961 0.483427
0.228133 0.498195 0.016506
0.153416 0.482873 0.121718
-0.220195 -0.496441 0.030938
0.171887 -0.496338 0.033229
-0.112636 0.384139 0.315393
-0.134948 0.397238 -0.303328
0.153312 -0.089658 -0.491916
-0.107171 -0.497624 0.004568
0.165602 -0.367036 0.333763
0.000290 0.183784 -0.465248
0.189606 -0.305981 -0.394643
-0.131486 0.498112 0.021079
0.182833 0.491330 0.082876
0.057628 -0.352415 0.349171
-0.167994 0.340266 -0.366350
-0.253841 0.262067 0.421544
0.052231 -0.477147 -0.143105
-0.044802 -0.252175 -0.431303
0.114948 0.497709 -0.029861
-0.015278 0.156746 -0.475014
-0.160166 0.492487 -0.079363
-0.033651 -0.139545 0.475723
-0.057933 0.385973 -0.317455
-0.115521 0.205832 -0.456057
0.216572 -0.496610 -0.032388
0.017846 -0.109998 0.483420
-0.150814 -0.306277 0.390120
0.163461 -0.480580 -0.130667
0.056679 0.492670 0.073612
-0.226124 -0.402720 -0.294471
-0.035623 -0.495425 -0.047008
0.124639 -0.470384 0.160236
-0.189174 0.379864 0.320375
-0.001284 0.195652 0.456031
0.153125 -0.473383 0.150896
0.259490 0.028364 -0.499490
0.249280 -0.442726 -0.229205
0.045526 0.450240 -0.216214
0.052176 -0.481320 0.123948
0.166826 0.360791 -0.346143
0.059978 -0.218704 -0.449496
0.096896 -0.462056 0.182429
0.200718 0.242384 0.433214
0.107996 0.026294 -0.499658
0.272793 -0.093969 0.486778
-0.278374 -0.487327 0.098672
-0.202617 -0.311849 0.385917
0.033106 0.455358 0.200826
0.281178 0.441597 -0.233235
-0.040681 0.314985 -0.388461
0.040910 -0.370340 -0.334634
0.279906 0.067422 -0.495619
-0.248566 0.472401 -0.161826
-0.116569 0.431833 -0.251264
-0.130488 -0.010235 0.495649
-0.107821 -0.152860 -0.475981
-0.286579 -0.354732 0.346915
0.201083 -0.163320 0.468040
0.027210 0.275833 0.412904
-0.080959 -0.488275 -0.097456
-0.244093 -0.269927 -0.420481
0.071092 -0.292249 -0.405059
0.252565 0.485934 0.109169
-0.134619 0.409033 0.282808
-0.289994 -0.460593 -0.190165
0.265911 0.344575 0.358015
0.060928 -0.490334 -0.087028
-0.226081 -0.095605 -0.490893
-0.037787 0.212295 0.448562
-0.174815 -0.198323 -0.458726
0.252402 -0.470553 -0.163549
0.235284 0.249153 -0.433595
-0.252554 -0.353399 0.348213
0.109249 0.330650 0.370627
0.124578 0.188422 -0.463315
-0.081285 0.457553 0.195561
0.093446 -0.139263 -0.480129
-0.227203 -0.148910 0.473011
0.080750 -0.483440 0.115030
0.138949 0.438372 0.235230
-0.276637 -0.173528 -0.468710
0.033434 -0.197607 0.454705
0.010302 -0.479949 0.129378
0.027537 0.014452 0.495637
-0.234650 0.377527 -0.327665
-0.162377 -0.361941 -0.343697
-0.111819 0.230851 0.439287
0.039235 -0.497336 -0.011661
0.091520 -0.453222 0.202931
0.286687 -0.490556 0.080276
-0.254515 -0.467598 -0.172114
0.016814 -0.491246 0.076269
-0.089749 -0.366450 0.334410
0.286152 0.276869 0.412179
0.028924 -0.153149 0.471549
-0.246228 0.457298 0.196174
0.064191 0.084191 -0.493193
0.238068 -0.368333 0.332331
0.003147 -0.272968 -0.418544
-0.230251 -0.492293 0.070187
-0.275481 -0.247605 0.429541
-0.076554 -0.297288 -0.401535
-0.131833 -0.269604 -0.420678
0.156885 -0.072098 -0.494940
-0.189704 -0.195228 -0.460115
-0.258613 -0.489959 -0.089414
0.038403 0.245088 0.431790
-0.268357 -0.444065 -0.226488
0.154672 0.495811 0.050536
-0.079101 -0.239592 -0.438498
-0.223686 0.024029 -0.499772
-0.267120 -0.251714 -0.431584
0.010668 -0.464815 -0.180038
-0.263483 0.100994 -0.489874
0.204766 0.438864 -0.238425
0.218142 0.478293 0.138312
-0.033743 0.465375 -0.180668
-0.110504 -0.224747 -0.446314
0.093540 0.436068 0.239248
-0.132548 0.451554 0.209016
0.069381 -0.271464 -0.419544
-0.098035 0.452826 -0.210451
-0.094976 -0.156918 0.470248
0.207891 -0.067964 -0.495614
0.285045 -0.486175 0.103521
0.192335 0.190882 -0.462289
-0.209086 -0.340752 -0.364902
0.061421 -0.007202 0.495703
-0.240348 0.421795 -0.267730
0.225984 0.363919 0.338365
-0.204410 0.477577 -0.144863
-0.248207 0.204820 -0.456479
0.238521 0.498311 0.010025
-0.028415 -0.460800 -0.189668
0.055707 -0.269189 -0.420931
0.285730 -0.291098 0.401572
0.090755 -0.394102 0.301623
-0.043509 0.207611 -0.455236
-0.253091 -0.171002 0.465390
-0.288292 0.319874 -0.384266
-0.029302 0.107326 0.484245
0.184756 0.427633 -0.258155
-0.173598 0.079027 -0.493940
0.183992 -0.434661 -0.244268
0.215896 -0.135573 0.476819
0.036795 0.347589 -0.359220
0.053672 0.457323 -0.200429
-0.099666 -0.328877 0.371308
-0.246508 -0.459667 -0.192385
-0.034102 0.498293 0.011061
-0.062267 -0.347351 -0.358683
-0.139993 0.344536 -0.362193
0.092014 0.358797 -0.348309
-0.043866 -0.020840 0.495458
-0.240858 0.118918 -0.486053
-0.250632 -0.384869 -0.317702
-0.166936 0.474466 -0.155059
0.076196 0.117906 0.481731
-0.276047 -0.360973 0.340457
-0.043368 0.127246 0.479511
-0.259851 -0.043946 -0.498210
0.015799 -0.270037 -0.420414
0.276206 0.349224 -0.357629
0.217506 0.184153 0.460754
0.031694 -0.336514 0.364652
-0.221307 -0.466654 -0.174853
-0.138626 0.481004 0.128492
0.000193 -0.192707 -0.461246
-0.178209 -0.436107 -0.241746
-0.078117 -0.495067 -0.051425
-0.175761 -0.235587 0.436433
0.284069 0.011461 0.495771
-0.129778 0.495597 -0.055404
-0.103517 0.275212 0.413338
-0.099276 -0.126506 -0.483797
0.023090 0.219823 -0.449218
0.177717 -0.285072 -0.410079
0.119203 0.227732 -0.445321
-0.288638 -0.427313 -0.257081
0.035049 0.357655 0.344798
0.283819 0.312661 0.385780
-0.096979 -0.041908 -0.498430
-0.011257 0.425700 -0.261324
-0.137836 -0.216886 -0.450396
-0.070860 0.129157 -0.483226
-0.004044 -0.108841 -0.487995
0.173575 0.313002 -0.390162
0.283432 -0.118275 -0.485753
0.030404 -0.479668 0.130298
-0.231362 -0.494557 -0.057725
0.016555 0.141220 -0.479897
-0.056036 0.401932 -0.297029
-0.038124 0.489450 0.092383
-0.283296 -0.205142 -0.455666
0.056220 -0.241285 -0.437607
0.175561 0.439421 0.233401
0.205144 -0.474045 -0.153425
-0.126275 -0.290060 -0.406590
-0.017116 0.173372 0.464800
-0.286509 0.142503 -0.479542
-0.261329 -0.110589 0.483296
-0.018537 -0.496633 0.026651
-0.121272 0.167199 -0.471409
0.222132 0.432930 0.244720
-0.207866 -0.396827 0.298205
0.191101 -0.244325 -0.374083
-0.255365 0.402026 0.190480
0.256764 -0.040885 -0.445463
-0.224028 0.369744 0.246595
0.181170 -0.231953 0.377589
0.212238 -0.407394 -0.180591
0.043612 0.045773 0.440745
-0.248785 -0.291525 0.333890
0.142206 -0.438398 0.072668
-0.283187 0.250902 -0.370310
-0.112798 0.436654 -0.091921
-0.006293 -0.176070 0.406523
0.242155 -0.438489 -0.076450
0.071499 -0.308031 0.318909
0.269509 -0.054826 -0.444146
-0.268735 -0.009664 -0.447292
0.220608 0.258540 0.360765
-0.236151 -0.091520 -0.437807
0.086611 0.445321 0.017759
-0.068044 0.064073 0.438521
-0.200531 0.053581 0.440007
0.208858 -0.285445 -0.343604
0.092269 -0.438633 0.071186
-0.119904 -0.426934 0.122347
0.079508 0.242892 0.371399
-0.021855 0.301282 -0.330545
-0.178187 -0.438282 -0.077755
-0.275885 -0.218377 0.385618
-0.224379 0.302049 0.325516
-0.099650 0.278549 0.345609
-0.100201 -0.347355 0.275754
0.212109 0.398178 -0.202386
0.104867 0.168579 0.410208
0.107483 -0.425509 0.127254
-0.023908 -0.378012 0.232388
0.105368 -0.086785 0.434512
-0.162720 -0.431927 -0.108485
0.143036 0.416621 0.156374
0.285142 -0.300401 -0.330418
-0.132241 -0.181424 0.404206
-0.168548 0.420136 0.146608
-0.233923 0.420518 -0.149903
-0.175766 0.223697 0.383078
-0.208303 0.445540 0.010801
0.286685 -0.352451 0.269185
-0.156815 0.381052 -0.233335
-0.285533 -0.360154 -0.263552
0.103521 0.402122 -0.194644
-0.042552 0.442628 0.051607
-0.194536 -0.328018 -0.302762
-0.288801 -0.275235 0.347384
0.284563 0.430311 -0.118603
0.145754 0.374722 -0.243624
0.161480 0.321044 0.306921
0.064798 -0.230742 0.378306
-0.129186 0.082496 -0.439957
0.119393 0.071118 -0.441759
-0.024409 0.335993 0.290526
0.166827 0.427005 -0.129982
0.079730 0.161398 -0.417444
-0.284325 0.358063 0.263271
-0.244650 0.117346 0.427504
-0.214945 -0.022273 -0.446896
0.019427 0.128121 -0.428727
-0.211401 -0.410035 0.170135
0.063922 0.378476 0.233337
0.286871 0.387848 -0.221843
0.072133 -0.444116 -0.027841
0.136881 -0.018573 -0.447012
-0.107921 0.171618 0.408893
0.251089 -0.288265 0.336764
0.115327 0.080118 0.435980
-0.175492 -0.442213 -0.049509
-0.002452 0.262407 -0.362483
-0.140245 -0.410763 -0.172807
-0.234348 -0.265479 -0.359305
-0.014080 0.092212 0.433528
-0.112224 0.132612 -0.427422
-0.009332 0.287887 -0.342354
-0.243548 -0.003192 -0.447495
-0.068365 0.083543 -0.439791
-0.037864 -0.387331 -0.220985
0.181192 -0.439674 0.064616
-0.232462 -0.299815 -0.330935
-0.282913 -0.083773 -0.439539
0.030384 0.265985 -0.359708
-0.191235 0.444324 -0.038026
0.161023 0.352087 0.270976
0.254891 -0.146038 0.418252
0.239013 0.370597 0.245340
0.006563 -0.289605 -0.339937
-0.184482 0.327060 -0.305012
0.148514 -0.384555 0.221325
-0.062702 -0.094991 -0.437031
-0.119400 0.298530 -0.332971
0.208466 -0.398396 -0.199946
0.271414 -0.431983 -0.108236
0.109722 0.074257 -0.441262
-0.287138 -0.426930 0.122363
0.039429 -0.408292 -0.178517
-0.172950 0.255136 0.363079
-0.281912 0.233810 -0.381451
0.009530 -0.323924 -0.307370
-0.230389 0.430491 -0.117984
-0.019898 -0.440723 0.057993
-0.231466 -0.273026 0.349098
0.218733 -0.092535 0.433227
-0.091144 0.256112 0.362415
-0.069488 -0.359875 -0.263963
-0.128852 -0.385368 -0.224303
0.176733 -0.217972 0.385858
-0.100597 0.323162 -0.309156
-0.269275 0.285703 0.339926
-0.068698 0.310953 0.317012
-0.086838 0.407049 -0.183758
0.014991 0.443149 -0.050450
0.005197 -0.409068 -0.176723
0.085870 -0.135828 -0.426190
0.172807 0.445296 0.018565
0.229164 0.223625 -0.387474
0.235650 0.445417 -0.019068
0.243803 0.044764 -0.445194
0.219580 -0.304887 0.322053
-0.026271 0.367108 -0.254829
0.222126 0.328912 -0.302911
-0.268188 -0.378969 -0.235123
-0.111417 0.247100 -0.372893
-0.125208 0.440040 0.068771
0.285062 -0.092023 -0.437695
-0.048939 0.148518 -0.422081
0.081895 -0.354840 -0.270458
-0.259335 0.242394 0.371738
0.035250 0.028354 0.442383
-0.124612 0.108301 -0.434285
-0.116085 -0.266049 0.354510
0.193936 0.431376 0.110586
-0.145068 -0.429024 0.115154
0.271518 0.024704 -0.446852
-0.026106 0.356640 0.265105
-0.198693 0.399123 0.196177
0.185585 -0.315548 0.311392
0.185718 -0.161005 -0.417217
-0.107894 0.317159 -0.315159
-0.138045 -0.441825 0.049258
0.118764 0.044568 0.440859
0.210335 0.381196 -0.233091
-0.024704 0.323715 -0.308604
0.198768 0.062858 0.438714
0.150348 0.383962 0.224060
-0.067385 0.338273 0.287939
0.200832 0.242412 0.371726
-0.247245 0.025629 0.442469
0.256069 0.337918 0.288342
0.096516 0.264229 0.356717
0.250674 -0.271704 -0.354477
-0.288027 -0.070654 -0.441670
0.024504 -0.336571 -0.293060
-0.115802 0.444681 0.029887
0.286872 0.422164 0.140976
-0.165562 0.334169 0.292595
0.017453 -0.111276 0.428970
-0.015137 -0.107182 -0.434306
0.138924 -0.387393 -0.220879
-0.093571 0.440612 -0.069517
0.148194 -0.400506 -0.195805
0.009244 -0.442078 -0.050944
0.256248 -0.090255 -0.438090
0.202807 -0.433074 -0.103354
0.264902 -0.443013 0.036699
0.176589 0.433972 0.099566
-0.209477 0.439461 0.072429
-0.164954 0.403932 -0.190961
0.156131 -0.390191 -0.216048
-0.203095 -0.210273 0.390100
0.236671 0.376233 -0.241401
0.176693 0.189919 -0.405327
-0.102288 0.409258 -0.178652
-0.237406 -0.410451 -0.173527
-0.053490 -0.344451 -0.283852
-0.200384 -0.444654 -0.010720
-0.119945 -0.090738 0.433629
-0.143146 0.151576 -0.420980
-0.244867 0.340851 0.285015
-0.063690 -0.421347 -0.144753
0.055831 -0.408437 0.173828
0.011891 -0.346658 0.276654
0.070928 0.237952 0.374648
-0.006638 0.338425 0.287767
0.228959 0.319173 0.308792
-0.131581 0.080226 0.435963
0.180144 0.445725 0.004914
-0.072054 0.416228 -0.161818
0.188216 -0.430139 0.111316
-0.211840 -0.177690 -0.410175
-0.174173 0.330607 0.296634
0.270457 0.381074 0.228944
0.001741 -0.150544 0.416630
0.150936 -0.185831 -0.406652
-0.279943 -0.382354 0.225047
0.286426 -0.238052 0.373983
0.276929 0.215231 0.388085
-0.071452 0.346714 -0.282255
0.095572 0.222010 0.384076
-0.091430 0.435700 0.091837
-0.078070 -0.428713 -0.120576
-0.038484 0.067116 0.438039
0.027508 -0.359032 0.260701
-0.278315 0.432723 0.105154
0.066209 -0.431334 0.106785
-0.241653 0.225751 0.381863
0.200549 -0.245982 -0.372957
-0.158584 -0.438420 0.072530
-0.061817 0.365640 -0.256988
0.278970 -0.398408 -0.199922
-0.105880 -0.235837 -0.379646
0.128407 -0.436429 -0.088344
-0.290211 -0.289792 0.335418
-0.275079 0.062996 0.438692
0.177680 -0.239777 -0.377174
0.202283 -0.279043 -0.348784
0.043739 0.445659 -0.011360
-0.099027 -0.272855 0.349231
0.104343 -0.160496 0.413047
0.232900 0.393199 -0.212157
0.217521 0.269753 0.352432
0.257391 0.442053 -0.060416
-0.288286 -0.222767 -0.387375
-0.035292 0.246701 0.368811
-0.173964 0.196272 0.397755
0.232279 -0.417849 -0.154470
0.266040 -0.120138 -0.430749
-0.245291 -0.403184 -0.190321
0.225188 0.427863 0.122678
-0.019461 0.041540 -0.445498
-0.230086 -0.206716 -0.396265
0.264378 0.436317 0.089078
0.064464 0.428804 -0.123791
-0.224561 -0.442420 0.042966
-0.278177 -0.443077 0.036020
0.227989 -0.210658 -0.394257
-0.058115 0.105500 -0.434911
0.039611 -0.088855 -0.438403
-0.112408 -0.423527 -0.138430
0.268070 0.138291 -0.425763
-0.266022 -0.171265 0.408602
-0.145550 0.438423 0.078983
0.186188 0.442807 -0.054074
0.190187 0.424315 0.134888
0.196322 -0.410094 0.169998
0.116913 0.252841 0.364638
-0.160939 -0.216269 -0.391218
-0.268822 0.281487 -0.347683
0.173290 0.430394 0.113966
-0.288231 0.389879 -0.218409
0.216595 0.138863 0.421204
-0.084326 0.194758 -0.402880
-0.274805 0.198246 0.396750
0.228480 -0.379488 -0.234246
-0.090885 -0.435558 0.087886
0.005680 -0.109873 0.429351
-0.026654 0.374560 -0.243863
-0.001410 -0.330439 0.295663
-0.283280 0.050723 -0.444630
-0.252514 0.142941 0.419736
0.198324 0.368225 0.248832
-0.193390 0.332162 -0.299225
-0.041732 0.425769 0.129884
0.088359 -0.251350 -0.369308
0.134876 0.213591 -0.393285
0.047000 -0.444873 -0.003749
-0.209817 0.256586 0.362093
0.264567 0.086187 -0.439228
0.083874 -0.328383 0.297995
0.169814 0.119910 0.426759
-0.210882 -0.444207 -0.024950
-0.207685 0.384166 0.223716
-0.084055 -0.287273 0.337638
-0.274791 0.163471 -0.416698
0.174356 0.126319 -0.429251
0.231090 0.033202 0.441933
0.283114 -0.287630 -0.341677
0.183136 -0.365234 0.251724
-0.120624 -0.437219 0.080113
0.015866 -0.125373 0.424874
0.017621 0.293395 -0.337498
0.127344 -0.030359 0.442105
-0.289830 -0.319511 0.307429
0.021591 0.400389 -0.198045
-0.069664 0.166251 0.411215
-0.011738 -0.434631 0.092037
-0.235787 0.295793 0.331030
-0.029590 -0.268992 0.352227
-0.064158 -0.181509 -0.408522
0.268250 -0.428203 -0.122333
-0.200850 -0.416571 0.153666
-0.012088 0.436890 -0.090866
0.162011 0.431318 0.110784
0.040575 -0.324601 -0.306638
-0.241294 -0.329431 0.296806
-0.210017 -0.423123 -0.139817
0.271035 0.332658 0.294308
0.090715 -0.211156 -0.394003
0.205331 0.425509 0.130779
0.244329 -0.179548 0.405018
-0.144192 0.408861 -0.179569
-0.018821 -0.092646 0.433202
0.047752 -0.379671 -0.233936
0.247631 0.033562 0.441899
0.095161 0.445101 0.024762
-0.005126 0.407672 -0.182317
-0.014183 0.445536 -0.015283
0.063749 -0.436224 0.084907
0.045655 -0.314359 0.312581
-0.289362 -0.441771 0.049839
0.205837 0.435072 0.094645
-0.024844 -0.444512 -0.015248
-0.099040 0.184997 0.403103
-0.131867 0.307088 0.320877
0.204068 0.265090 0.356049
0.107002 -0.314883 0.312057
-0.245103 0.322324 -0.309994
0.187983 0.296983 0.329981
0.267540 0.445168 0.022618
-0.277042 0.303744 -0.328374
0.106204 0.445396 0.015355
0.001978 -0.383683 0.222799
0.188409 -0.253260 0.363657
0.140185 0.442782 -0.054331
-0.060439 0.292523 -0.338267
0.025792 -0.003048 -0.447500
0.177239 -0.345915 0.277611
0.074345 0.443703 0.040237
-0.173329 0.400311 0.193845
-0.135336 -0.415704 -0.160426
0.244063 0.391356 0.211420
-0.000925 -0.293613 0.332050
0.203227 -0.405189 -0.185688
0.173110 -0.365631 0.251141
-0.132884 -0.444538 0.010062
-0.066339 -0.030397 0.442101
-0.177755 0.143243 -0.423980
0.234047 -0.407791 -0.179674
0.005746 -0.090105 -0.438123
-0.074880 0.412104 -0.172076
-0.078080 -0.443883 -0.031846
0.191398 -0.153072 -0.420073
0.009980 0.428440 0.120693
0.225401 -0.138490 -0.425323
0.014478 0.289623 0.336471
0.262913 -0.321994 0.304946
0.068676 -0.317666 -0.313628
0.246671 -0.159979 -0.417586
0.051860 0.323679 -0.308639
0.034992 0.292815 0.333656
-0.218547 -0.184957 -0.407031
0.046362 0.432916 -0.108644
-0.223108 -0.146895 -0.422297
-0.045740 0.422794 0.139228
0.132248 -0.419937 -0.148669
-0.174767 0.276133 0.347483
-0.154334 -0.126133 -0.429007
0.166915 0.392839 0.208510
-0.226373 -0.439574 -0.069600
-0.184451 -0.438112 0.074476
0.201317 0.444247 0.034481
0.066102 0.425178 0.131917
0.088157 0.297191 -0.334152
-0.241641 -0.033759 0.441784
-0.290187 -0.308081 0.318859
-0.282688 -0.417892 0.149995
-0.158571 0.236357 0.375591
-0.155983 0.002976 0.443181
-0.141496 -0.156834 0.414365
-0.078309 0.364673 0.254058
-0.096205 0.445346 -0.021302
0.027341 0.302151 0.325426
-0.273626 0.381783 0.227745
-0.096387 0.053394 0.440024
0.151026 -0.432443 -0.106175
-0.267288 0.416118 -0.162123
-0.264904 0.300975 -0.330816
0.128553 0.286883 0.338886
-0.003869 -0.257402 -0.365196
0.170984 -0.438440 -0.076761
0.113781 -0.416308 -0.158748
-0.093561 -0.031710 0.441977
-0.072163 -0.425329 0.127873
-0.093017 0.326003 0.301857
-0.031141 -0.320021 0.306919
0.146863 0.185294 0.402975
-0.075080 -0.295424 0.330452
-0.158279 -0.158142 0.413894
0.157202 0.154305 0.415645
0.215996 -0.415075 -0.162173
0.263229 -0.196837 -0.401299
-0.122206 -0.325881 -0.305187
-0.065036 0.420395 0.145890
0.005799 0.439666 -0.075487
-0.101450 -0.023422 0.442506
-0.128053 0.445577 -0.013950
0.009700 -0.205188 -0.397044
-0.255507 0.415982 -0.162501
-0.017328 -0.053865 0.439883
0.151605 0.367693 -0.253967
-0.061831 0.438602 0.077850
-0.145008 0.100277 0.431725
-0.245656 -0.407385 0.176259
0.115096 -0.342780 -0.286006
-0.289165 0.113712 -0.432913
-0.072117 -0.170990 0.408721
-0.076166 0.187982 0.401811
0.051223 0.425369 -0.135616
0.077891 -0.256235 0.361636
-0.191070 0.434027 0.099320
-0.000591 0.318966 0.308999
0.036760 -0.345146 -0.282955
-0.132369 0.239805 0.373498
0.081926 0.384821 0.222608
-0.265737 -0.327451 0.299052
0.130894 0.312371 0.315594
-0.192139 -0.255310 -0.366617
-0.056272 0.072695 0.437156
-0.053104 -0.389597 -0.217153
0.163160 -0.240011 -0.377014
-0.170162 0.288795 0.337200
-0.269813 0.028093 -0.446745
-0.117659 0.445485 -0.016899
-0.175934 -0.236190 -0.379437
0.156972 -0.106338 -0.434495
0.197440 -0.346347 -0.281408
-0.095625 -0.092622 -0.437561
-0.075552 0.188284 -0.406034
-0.014987 0.306704 0.321261
-0.075335 0.288018 -0.342238
0.214086 -0.430187 0.111152
-0.147735 0.171921 0.408762
-0.279007 0.100808 -0.435960
-0.121485 0.095907 0.432702
-0.206050 -0.439056 -0.072868
-0.151887 -0.426743 -0.127357
-0.043816 -0.338224 -0.291186
-0.211707 0.125540 -0.429477
0.127700 -0.093816 0.432940
-0.191666 0.143796 0.419428
-0.123690 -0.251034 0.365170
-0.203534 0.246866 0.368699
-0.241933 0.053050 0.440057
0.046872 0.129061 0.424101
-0.238148 0.435759 0.091572
-0.040399 0.445812 -0.006490
-0.150341 -0.421217 0.140760
-0.102717 0.294052 0.332565
-0.017179 0.209710 -0.395262
0.260493 -0.281413 0.342592
-0.124314 0.169694 -0.414079
-0.169161 0.167238 -0.415142
0.061438 0.236648 -0.379772
0.033323 -0.352732 0.268823
0.185547 -0.348523 -0.278602
0.040596 -0.287858 0.337123
-0.097409 -0.012327 0.442855
-0.231128 0.445782 -0.007453
0.154559 -0.394004 0.204213
-0.169917 0.191365 -0.404609
-0.039964 -0.131226 -0.427527
-0.240023 0.163211 -0.416791
0.017084 0.443362 0.043846
-0.097837 0.084525 0.435246
0.125922 -0.416095 0.154986
-0.113855 0.163563 0.412311
-0.005203 -0.199849 -0.399764
-0.153695 -0.401561 0.189380
0.227557 -0.433793 0.095784
-0.169307 0.404489 0.185320
0.123595 -0.439867 -0.067747
-0.236852 0.334311 -0.296786
-0.105183 0.141036 0.420421
-0.180960 -0.369586 0.245320
0.276061 -0.230783 -0.382635
0.274545 -0.370937 0.243333
-0.034684 0.250187 -0.370795
0.243485 0.365540 -0.257135
-0.061392 0.439799 -0.074649
-0.018330 0.411547 0.169010
-0.219066 -0.055151 0.439761
0.078186 0.436006 -0.094820
0.228646 -0.405389 0.180872
-0.015839 -0.262061 -0.361957
-0.073209 -0.153411 -0.419951
-0.051332 -0.214202 -0.392441
0.190824 -0.444185 0.021287
-0.099890 0.365600 0.252694
-0.289126 0.154502 0.415574
-0.023393 -0.438876 0.069654
-0.067903 -0.439235 0.067386
-0.059704 -0.428633 -0.120854
0.195315 -0.316352 0.310588
-0.011215 -0.432740 -0.104848
-0.097995 0.385347 0.221719
0.232825 -0.283213 0.341196
-0.235980 -0.444911 -0.001800
-0.234971 -0.133826 -0.426772
-0.068562 -0.420376 0.143095
0.026635 0.392874 -0.212794
-0.199502 -0.441052 0.055912
-0.196901 0.179979 -0.409628
-0.050492 -0.336962 0.288265
0.070980 0.200290 0.395708
-0.221646 -0.423378 -0.138942
-0.050237 -0.431947 0.104044
0.016850 -0.426250 -0.129055
-0.173169 0.157920 -0.418696
0.168823 0.439672 -0.075452
-0.124211 -0.271890 -0.354333
0.049547 -0.443224 0.034463
0.191330 -0.414255 0.160099
0.106655 -0.384180 0.221959
0.195402 -0.395772 -0.205096
-0.154562 -0.272193 -0.354098
-0.158433 -0.063092 0.438514
0.125585 0.420802 0.144759
0.180487 -0.291228 -0.338505
-0.078616 0.206769 0.392407
-0.175925 0.443647 0.040826
0.088406 0.441098 0.062093
0.192125 0.345566 0.279382
0.115084 -0.000279 -0.447587
-0.272538 0.397164 -0.204376
-0.252618 0.437943 -0.086154
-0.257596 0.397564 -0.203590
0.270633 -0.379778 0.229403
0.231595 -0.439255 -0.071613
-0.164942 0.019306 0.442668
0.083903 0.332993 -0.298281
0.240131 0.053175 0.440045
0.113629 0.423080 0.138432
0.000982 0.412152 -0.171966
-0.066539 0.118435 0.427188
0.195160 0.018201 -0.447056
-0.105222 -0.308160 0.318781
0.065764 -0.074081 -0.441127
-0.098791 0.007005 -0.447408
-0.083971 -0.416776 -0.157450
-0.147181 0.387501 0.218077
0.129036 0.036521 -0.445973
0.084693 -0.034325 -0.446084
0.102619 -0.413560 0.161989
0.020671 0.171508 0.408941
-0.060217 -0.170269 0.409033
-0.076172 0.384533 0.223095
-0.217816 -0.397057 0.198221
-0.136805 -0.380398 -0.232708
0.255899 0.370024 0.246184
-0.066253 -0.389853 -0.216713
0.040050 0.354570 -0.272127
-0.048327 0.436621 -0.092072
-0.278468 0.223775 -0.387386
0.200648 0.376888 0.236021
-0.186850 -0.383888 -0.226807
-0.091302 0.116508 0.427747
-0.171761 -0.332867 -0.297263
0.015863 -0.092035 0.433339
0.097527 -0.171502 -0.412853
0.285205 0.443578 0.041565
-0.009856 0.345152 0.279917
-0.058415 0.345495 -0.283827
-0.112363 -0.036982 -0.445832
0.062380 -0.300384 0.326080
0.214775 0.240546 -0.377347
-0.009057 -0.440437 0.059793
0.167635 0.000491 -0.447611
0.173907 -0.239692 0.372878
-0.125719 0.442737 0.050455
0.239426 0.011267 -0.447274
0.225193 -0.386487 0.218057
-0.027196 0.309410 0.318555
0.195701 0.390618 0.212807
-0.034155 0.108629 -0.434212
0.065342 0.338714 -0.291793
-0.197860 0.152056 0.416454
0.118401 -0.386656 0.217772
0.008714 -0.267318 -0.357880
-0.049653 -0.050275 -0.444576
0.243232 0.390865 -0.216738
0.039547 -0.313024 -0.318269
0.066752 0.048612 -0.444830
0.235201 -0.037334 -0.445799
0.236908 -0.425961 -0.130050
-0.224964 0.242273 0.371820
0.246350 -0.060787 -0.443233
-0.155829 -0.321301 -0.309993
-0.051164 -0.381483 -0.230874
-0.022327 -0.124271 -0.429548
-0.071109 -0.005368 0.443073
-0.027776 0.424551 -0.138430
0.087476 0.122617 0.425973
0.192961 -0.380310 0.228503
-0.268945 -0.222427 -0.387577
-0.015784 0.119753 -0.431158
-0.163104 -0.318008 0.308932
-0.200241 -0.422518 -0.141500
0.068441 0.436756 -0.091465
-0.128564 0.356924 0.264740
-0.184063 -0.336860 -0.292734
-0.091216 0.439609 0.071492
0.123079 0.112965 0.428777
0.179839 -0.052314 -0.444383
0.009968 -0.143415 0.419196
-0.086934 -0.072948 -0.441307
-0.059842 0.083936 0.435375
0.023471 -0.433636 -0.100839
0.239137 0.413491 0.164518
-0.211815 -0.324915 -0.306282
0.207729 0.217453 -0.391124
0.115760 -0.243213 0.370485
-0.014607 0.445792 0.002767
0.013552 0.281698 0.343167
-0.102682 -0.431403 -0.110827
0.115462 -0.414375 0.159765
0.283168 0.112961 -0.433131
-0.073449 0.441422 -0.064403
-0.199243 -0.064473 -0.442649
-0.062198 -0.216558 -0.391047
0.180423 0.257441 0.361512
0.097978 0.299267 -0.332322
0.209403 0.034044 0.441854
0.209782 0.372881 0.241980
0.043714 -0.273899 0.348421
0.106990 0.351488 -0.276100
-0.220925 -0.132653 0.422759
-0.290124 0.358604 -0.266927
0.142230 -0.404830 -0.186518
0.082659 0.388792 -0.220247
-0.241639 0.277012 0.346801
0.168023 -0.427652 0.119878
-0.206793 0.229120 0.379871
-0.061586 -0.163180 -0.416434
-0.235500 0.319909 -0.312410
-0.020421 0.407175 -0.183466
0.245526 -0.443081 -0.040326
-0.289674 -0.111107 0.429019
0.248062 -0.238945 -0.377739
-0.223782 0.330113 -0.301549
0.218716 0.434069 -0.103487
0.205992 0.255777 0.362643
-0.143656 -0.309195 -0.322099
0.271584 -0.318222 -0.313071
-0.247035 0.430938 0.112094
-0.209874 0.314747 0.313218
-0.061241 -0.051217 -0.444487
0.199707 0.299495 0.327767
-0.166144 -0.413603 0.161890
0.145723 0.445089 -0.029495
-0.119991 0.321496 -0.310823
0.012071 0.423716 0.136664
-0.232267 0.333642 0.293192
-0.278405 0.114189 -0.432775
0.283174 -0.242585 -0.375265
0.184066 0.034646 0.441797
0.031304 0.334765 0.291918
0.140660 0.428336 -0.125404
0.279144 0.316432 0.311533
0.194564 0.445477 0.012784
-0.088205 0.445206 0.021401
0.159570 0.306209 -0.326109
0.164282 0.197659 0.397049
0.180953 -0.180695 -0.408875
0.114641 0.120922 0.426465
-0.280931 -0.444465 -0.016723
-0.090550 -0.354502 -0.270894
-0.029296 0.440122 -0.072609
-0.121234 -0.330534 0.295556
-0.125007 0.037315 0.441544
0.011284 -0.415413 -0.161234
-0.203197 0.264584 -0.360795
-0.063209 -0.350785 0.271332
0.143036 -0.062395 0.438625
-0.147898 -0.382152 -0.229742
0.203144 0.169592 0.409770
-0.008139 -0.120279 0.426354
0.166943 -0.337933 0.287163
0.205815 0.445625 -0.012423
-0.207007 0.445384 -0.020110
-0.059511 0.445031 0.026189
-0.116734 0.098352 -0.436509
-0.226358 0.352639 0.270264
-0.202991 0.083058 0.435514
0.012963 0.321272 -0.311047
-0.198124 0.335697 0.290861
0.206353 -0.391700 0.208733
0.241527 0.083552 0.435436
-0.277493 0.420173 0.146506
0.136367 -0.335507 -0.294267
-0.100784 -0.444674 -0.010078
-0.129865 0.445655 0.007141
-0.247953 -0.411337 0.167128
-0.112957 -0.276366 -0.350861
-0.081373 0.376616 -0.240835
0.182996 -0.364983 -0.256447
0.206742 0.430629 0.113158
-0.216886 -0.404681 -0.186861
-0.200148 -0.436665 -0.087286
-0.042802 -0.436569 -0.087717
-0.175038 -0.037727 -0.445762
-0.043813 -0.058282 0.439276
-0.069591 -0.428631 0.116505
0.064336 0.403389 -0.192158
-0.155293 0.439977 0.069168
-0.086749 0.166008 0.411321
0.084776 0.070313 0.437533
0.079841 0.265943 0.355387
0.151424 0.101688 0.431410
0.238249 -0.404111 -0.188178
-0.099015 0.036857 -0.445941
0.282375 -0.376416 -0.239441
0.056114 -0.277135 0.345911
0.189670 -0.371064 0.243146
0.177212 -0.442147 0.045852
0.007036 -0.383218 -0.227938
0.105603 0.416906 -0.159933
0.091686 0.157110 0.414635
-0.237902 -0.196139 -0.401655
0.272512 0.442171 0.055315
-0.122719 0.278527 0.345626
-0.190131 -0.424102 -0.136451
-0.070429 -0.034201 -0.446095
0.021204 -0.188629 -0.405441
-0.091703 -0.444314 0.017177
-0.097286 -0.293484 -0.336516
0.011024 -0.371705 0.242202
-0.127343 0.107847 0.430033
0.106811 0.322025 -0.310293
0.234723 -0.318148 0.308792
0.046928 -0.108886 -0.433925
0.274531 0.142241 0.419988
0.093689 0.443981 -0.041647
0.120215 -0.117826 -0.431420
-0.133568 -0.291219 0.334160
-0.077056 -0.057599 -0.443738
0.185907 0.429937 -0.119892
0.019795 0.412631 0.166505
0.265327 0.435901 -0.095290
-0.284499 0.297277 -0.334076
0.104634 -0.197406 0.396656
-0.126049 0.420059 -0.151175
-0.205269 -0.433924 -0.099552
-0.252338 -0.353074 -0.272735
-0.091163 -0.090918 0.433588
-0.165444 -0.417723 -0.154818
-0.181204 -0.444494 0.011450
-0.161177 0.142468 0.419906
-0.248711 0.444126 -0.040116
0.190096 -0.063091 0.438514
-0.221832 0.257143 -0.366068
-0.151315 0.135615 -0.426550
0.266702 0.345080 -0.284362
-0.133062 0.405606 0.182738
0.071265 0.387055 -0.223184
0.083922 0.051694 0.440185
-0.044619 0.402973 0.188621
-0.039885 0.444892 -0.032009
-0.234647 0.029711 -0.446617
0.232729 -0.393331 0.205534
0.212154 -0.442372 0.043479
-0.167261 0.409762 -0.177488
-0.010000 -0.444541 -0.014307
-0.020004 0.056849 -0.444019
-0.285677 -0.157034 -0.418646
0.232954 0.063238 -0.443007
-0.064879 -0.279630 -0.348329
0.171864 -0.046665 0.440564
0.063425 0.282963 0.342185
0.050019 0.443814 0.039064
0.028348 -0.329558 0.296662
0.271823 -0.439901 -0.067533
-0.083088 -0.109972 0.429329
0.076356 -0.216120 0.386953
0.141660 0.393588 0.207039
0.141247 0.435480 0.092819
-0.003769 -0.369022 -0.250504
-0.181177 0.413912 -0.167897
-0.117407 0.431147 0.111373
-0.016206 -0.368927 -0.250644
-0.050110 -0.085627 0.434771
0.175596 -0.165375 -0.415504
0.112770 -0.393740 -0.209084
0.147146 0.425840 -0.133995
0.204219 -0.294252 -0.335840
-0.114041 -0.107394 -0.434259
0.141725 0.039618 0.441327
-0.241750 0.113031 -0.433111
0.252962 0.431102 -0.115883
0.239094 0.023085 -0.446902
0.260123 0.373561 -0.245333
-0.290175 -0.421326 0.140458
0.008671 -0.236536 0.374879
0.124255 -0.298958 -0.331690
0.189442 -0.014212 -0.447149
-0.107210 -0.100895 0.431358
0.276837 -0.444308 0.017371
0.119037 -0.438808 0.070079
-0.091960 -0.189566 0.400650
0.230281 0.430289 0.114329
0.262668 -0.424795 -0.134064
0.226524 -0.374098 -0.243035
-0.090885 -0.409266 0.171912
-0.151830 -0.444567 0.009133
-0.099984 0.445120 0.024160
0.152411 -0.310628 0.316313
0.240794 -0.061191 0.438815
0.153302 0.289671 -0.340782
-0.173031 0.239918 -0.377774
-0.127596 -0.231684 0.377749
0.253895 -0.138816 -0.425205
0.098145 0.251898 -0.369633
-0.057266 0.212576 0.389448
-0.284867 0.259579 -0.364413
0.040089 -0.419732 0.144885
0.108581 0.290433 -0.340110
-0.059594 -0.423369 0.134619
0.221541 -0.327901 -0.302895
-0.102633 0.256391 0.362226
0.222858 -0.443595 -0.034890
0.211776 0.000863 -0.447601
0.012789 0.091276 -0.438091
0.175947 0.387198 0.218589
0.212469 0.158384 0.414176
0.093205 0.075454 0.436719
-0.199945 0.420610 -0.149646
0.120877 0.344347 -0.285307
-0.186876 -0.134406 -0.426603
-0.288711 -0.430428 0.110322
0.103651 -0.359901 0.259572
-0.191674 -0.439312 0.066902
-0.193507 -0.175111 -0.411291
0.064020 0.092816 -0.437746
0.169241 -0.199640 0.395517
-0.132133 -0.346133 0.277330
0.261347 -0.432471 -0.106052
0.091936 0.443973 0.037383
0.044707 0.081106 -0.440177
0.135694 -0.107960 0.429779
0.212717 -0.440075 -0.066435
-0.124991 0.442919 -0.052882
-0.263750 -0.036483 -0.445880
-0.128954 -0.293063 -0.336887
-0.007076 -0.443546 -0.035411
0.286501 -0.444412 -0.018433
0.192028 -0.092469 -0.437595
-0.172391 0.389619 0.214496
0.263667 0.430832 0.112459
-0.053513 -0.099233 0.431730
-0.178921 -0.205029 0.392771
-0.209189 -0.375084 0.237230
-0.227490 -0.419814 -0.149012
-0.225458 0.434786 0.095927
-0.018746 0.012472 0.442882
0.014089 0.386935 0.219033
0.056041 0.445674 0.006538
0.077427 0.429093 -0.122796
0.286480 -0.406198 0.179003
-0.072411 0.006301 0.443076
-0.216164 0.318055 -0.314264
-0.259486 -0.224751 -0.386202
-0.111646 -0.070655 0.437316
-0.095299 0.303670 0.324087
0.182256 0.428522 0.120410
0.116698 0.352540 -0.274744
-0.156608 0.347282 0.277170
-0.025786 -0.409514 -0.175693
-0.015067 0.357494 0.264004
0.246129 0.169730 -0.414063
-0.054396 0.419767 0.147633
0.002833 0.147860 -0.422318
-0.130965 -0.096224 0.432402
0.224328 0.412793 -0.170485
-0.192913 -0.403891 -0.188688
-0.288742 0.119441 0.426895
-0.204244 0.292248 0.334156
0.046348 0.326292 0.301530
0.104954 0.294834 0.331877
0.022539 -0.351911 0.269881
0.052801 0.404345 -0.190006
-0.225164 -0.021722 0.442560
0.272872 0.428571 -0.124594
0.126996 0.148872 -0.421954
-0.110597 -0.412903 0.163509
-0.006894 -0.436782 0.082411
-0.137349 0.421063 -0.148387
-0.241337 -0.097021 0.432224
0.200034 -0.136237 -0.426071
-0.037624 -0.444709 0.004608
0.264061 -0.406491 -0.182680
-0.105681 0.427787 -0.127293
-0.060009 0.132642 -0.427414
-0.274758 -0.396648 -0.203377
0.064354 0.331309 -0.300192
0.056276 0.108891 -0.434153
-0.262928 -0.441519 -0.056851
0.111406 -0.436342 0.084380
-0.250696 -0.414686 -0.163255
0.274872 0.363863 -0.259603
-0.144009 -0.258915 0.359814
-0.123095 -0.067349 -0.442193
-0.227478 0.021609 0.442595
-0.217610 0.167481 0.410683
-0.090251 -0.380283 0.228549
0.090005 -0.042947 -0.445269
0.243741 -0.327255 -0.303628
-0.171001 0.438496 -0.082872
0.098734 0.436426 0.088586
0.213247 -0.380126 0.228815
-0.220553 -0.273782 0.348511
-0.274117 0.429622 0.116623
0.102211 0.041124 -0.445538
-0.220063 0.235549 -0.380422
-0.176742 -0.412810 0.163722
0.097024 0.239329 -0.378174
0.151035 0.357734 0.263695
0.159087 -0.440398 0.060041
0.240792 0.411945 -0.172443
-0.040312 -0.346953 -0.280627
0.013497 -0.411472 -0.171168
0.285514 -0.362952 0.255083
0.141069 -0.416051 -0.159464
0.213446 0.412433 -0.171315
0.286897 0.300008 0.327315
0.153848 0.378009 -0.238480
0.155144 -0.185227 0.402560
-0.033839 -0.424586 -0.134785
-0.244909 -0.128041 -0.428453
-0.085331 0.366729 -0.255385
-0.149586 -0.394366 0.203502
0.197165 0.141384 -0.424650
-0.252470 -0.326496 -0.304489
0.201283 0.388637 -0.220509
0.112536 0.226342 0.381514
-0.138329 -0.076746 0.436352
-0.120678 -0.351455 -0.274822
0.174736 0.094176 0.433089
0.263143 -0.097031 -0.436575
0.135423 0.363781 -0.259723
-0.147168 -0.348899 -0.278118
0.052212 0.337110 0.289259
0.076336 -0.224558 0.381963
-0.043237 -0.313439 -0.317855
-0.222690 -0.354965 -0.270297
-0.005390 -0.430697 -0.113748
0.269870 0.390595 -0.217199
0.071478 0.442682 0.051043
-0.130967 -0.075636 -0.440881
-0.078341 0.393949 -0.210685
0.223762 -0.444501 -0.015583
0.107709 -0.063391 -0.442820
-0.263379 0.288623 -0.341705
0.111171 -0.398270 0.195840
-0.223400 0.432316 0.106976
0.228283 -0.360435 0.258787
-0.000399 -0.208584 0.390960
-0.005989 0.444006 -0.041390
0.010986 -0.209008 0.390744
-0.155751 0.296229 -0.335000
-0.222687 0.427193 -0.129337
0.263478 0.445109 -0.028842
0.050801 0.240981 -0.377052
-0.244167 0.256148 -0.366744
-0.256983 -0.148221 -0.421819
-0.079633 0.056172 -0.444115
0.188804 0.306978 -0.325340
0.250089 -0.065786 0.438088
-0.243667 -0.432272 -0.106943
0.149664 -0.325791 0.300935
-0.161442 0.087933 0.434484
-0.172012 -0.149111 -0.421499
0.124750 -0.005471 -0.447424
0.126382 0.245759 0.369451
0.135394 0.330006 -0.301670
0.234893 0.194889 0.398460
0.264281 -0.411829 0.165990
0.160350 0.413952 -0.167806
0.106872 0.236767 -0.379702
-0.023394 -0.004859 0.443089
-0.018715 -0.372493 0.241043
0.224404 0.159054 -0.418288
0.242253 -0.042009 0.441004
0.113816 -0.267206 0.353612
-0.238428 -0.154416 -0.419589
-0.096550 0.445454 0.013519
-0.097582 0.437949 0.081774
-0.181607 -0.072877 0.436964
0.226015 -0.020004 0.442614
0.044526 0.438856 -0.080599
-0.098152 -0.417310 -0.155966
-0.022968 -0.346313 0.277098
0.192056 0.167305 0.410759
0.114474 0.430081 0.115043
0.145488 -0.014198 -0.447149
0.273324 -0.444785 0.002218
-0.205413 -0.155623 0.414801
-0.024095 -0.355797 -0.269225
-0.096275 0.423340 0.137710
-0.113974 -0.248049 0.367199
0.103934 -0.283221 0.341190
-0.008825 -0.088469 -0.438489
0.198822 -0.003422 -0.447488
0.014837 -0.059425 -0.443448
0.175447 0.357050 -0.268931
0.012237 -0.398878 0.194646
0.145287 -0.378546 -0.235839
-0.265125 0.361754 0.258352
-0.134300 0.403426 -0.192084
-0.222225 0.090406 0.433932
0.052999 0.445885 -0.004178
-0.147767 0.334473 -0.296603
-0.026412 0.411212 -0.174137
0.105811 0.269171 0.352884
-0.211497 0.033406 -0.446267
0.023462 0.276371 0.347298
0.256533 -0.330909 -0.299483
-0.009875 0.416444 0.156863
-0.027594 0.445698 -0.010109
-0.036645 0.419856 -0.151741
0.206679 0.362763 -0.261222
-0.148223 -0.321146 0.305794
0.024234 0.159048 0.413937
-0.282942 0.247669 0.368153
0.108851 -0.378806 0.231046
0.086581 -0.325316 -0.305827
-0.044520 -0.365317 0.251602
-0.079570 -0.026868 -0.446751
-0.136602 0.006288 -0.447430
0.271718 0.266565 -0.359258
0.255496 0.215541 -0.392255
0.208550 0.331607 0.295501
0.099430 0.231682 0.378356
-0.101162 -0.323154 0.303786
0.113588 0.432889 0.104414
0.053526 -0.424386 0.131117
0.284617 0.210683 -0.394766
0.282063 0.263006 -0.362019
-0.196138 0.091944 0.433588
-0.231806 0.298865 -0.332676
0.118561 0.009154 -0.447340
0.104223 0.396558 -0.205565
0.043949 0.204148 -0.398096
0.157941 0.286422 0.339293
0.074675 -0.429506 0.113493
0.196741 0.344833 -0.284680
0.099038 0.439136 -0.078837
-0.202337 0.061131 -0.443341
-0.238877 0.175600 0.407170
0.228277 -0.233562 -0.380991
0.264051 -0.224254 0.382143
-0.232910 -0.328987 -0.301664
-0.002419 0.359360 -0.265952
0.161187 0.443258 0.044943
-0.277417 -0.428540 0.116820
0.246441 0.433290 0.102616
0.152812 0.322367 -0.309951
-0.138432 0.439611 -0.075837
0.269473 0.228898 -0.384356
-0.274682 0.426686 -0.131082
0.269819 -0.014471 0.442787
0.283261 -0.022889 -0.446876
-0.057275 0.184940 0.403128
-0.083888 0.402441 -0.194017
-0.047867 -0.385290 0.220082
-0.002250 0.026058 -0.446809
0.002358 -0.435299 0.089045
0.277032 -0.131962 0.422960
0.136682 0.245991 -0.373647
-0.072281 -0.444605 0.007927
-0.016891 0.419746 0.147692
0.281094 -0.272833 0.349248
-0.181095 -0.352399 0.269252
0.140968 -0.436472 -0.088154
-0.107866 0.445627 0.008031
-0.145721 -0.035107 -0.446010
0.164298 -0.420795 -0.146285
-0.080149 -0.422803 0.136355
0.074700 -0.294182 -0.335901
0.230331 0.084645 0.435220
-0.046065 -0.258706 -0.364309
0.054652 0.182131 0.404343
-0.222588 -0.131723 -0.427383
-0.014278 0.252172 -0.369446
0.224803 -0.336498 -0.293144
-0.017787 0.361464 -0.263133
-0.002857 -0.102307 -0.435396
0.243955 0.443209 0.045459
0.082674 0.439513 0.072101
0.169874 0.076207 -0.440953
-0.033542 -0.327060 -0.303850
-0.020582 0.442864 0.049109
0.203876 -0.329446 0.296789
0.254641 0.445612 -0.012844
-0.086904 -0.419359 0.145922
0.024477 0.255891 0.362566
0.178427 -0.150439 -0.421021
0.144393 -0.125656 -0.429145
0.000891 -0.390161 0.211755
-0.217695 0.429087 0.118465
-0.009982 0.172905 0.408336
-0.051619 0.445113 -0.028744
0.034883 -0.029955 0.442143
0.158149 0.064966 -0.442733
-0.171557 -0.079583 -0.440256
0.085077 0.028736 0.442355
-0.035705 -0.439014 -0.073135
0.183132 0.443740 -0.044198
-0.288016 0.022398 0.442571
0.143743 -0.264840 0.355448
-0.201500 0.349667 -0.278448
-0.146179 0.433175 0.103134
0.092741 -0.432020 -0.108067
0.089324 -0.182839 0.403594
0.075427 -0.348572 -0.278539
0.138149 -0.155746 -0.419110
0.213797 -0.394776 0.202696
0.017898 -0.163260 0.412051
-0.180753 -0.403370 -0.189891
0.192615 0.235275 0.376231
0.091749 -0.030876 0.442056
0.045064 0.347684 -0.281005
0.031291 -0.444351 -0.020366
-0.218331 0.441075 0.062237
0.140898 0.154796 0.415468
-0.249618 -0.436562 0.083395
0.018016 0.103214 0.431069
-0.214343 0.420332 0.146066
0.241616 -0.347766 -0.279578
0.034997 -0.336582 -0.293048
-0.024018 -0.394694 0.202858
-0.270302 -0.419591 0.145277
0.117326 -0.206339 0.392104
0.024437 -0.370585 0.243851
0.244851 0.404442 -0.189781
0.035768 0.428069 -0.126321
0.170955 -0.440808 -0.061804
0.253624 -0.402532 -0.191828
0.286862 0.248306 -0.372074
0.020401 0.380122 -0.234906
0.155593 -0.177081 -0.410439
0.156438 -0.042144 -0.445344
-0.023034 -0.045088 0.440713
0.149700 0.103849 -0.435280
0.011291 -0.396692 -0.203289
0.090084 -0.141569 0.419861
-0.060653 -0.091503 0.433457
-0.218932 -0.352999 0.268478
-0.121802 0.248867 0.367339
0.169553 0.432547 -0.110293
-0.021297 0.221093 -0.388971
-0.129495 0.427192 0.124988
0.051303 -0.026433 0.442412
-0.059132 0.110936 0.429343
-0.217867 -0.413278 -0.166994
0.117734 -0.056964 0.439485
0.052841 -0.299218 -0.331461
-0.076006 -0.437115 0.080768
0.153888 0.335839 0.290701
0.206088 0.415499 0.159490
0.167830 0.232499 -0.382226
-0.018738 -0.331771 -0.298506
0.058551 -0.123657 0.425373
-0.192273 -0.349597 0.272864
0.207422 -0.393993 -0.208586
0.026326 0.088599 0.434336
0.211704 -0.277924 0.345299
-0.059239 0.173354 0.408142
-0.070394 -0.444846 -0.004618
-0.256373 0.154813 -0.419815
0.047371 -0.366818 0.249394
-0.046526 0.137408 0.421675
-0.223601 0.192030 -0.404270
-0.060015 -0.387005 0.217183
-0.212914 0.352612 0.270298
-0.110045 0.217375 0.386817
0.166489 0.101913 -0.435713
-0.012800 0.419552 -0.152585
-0.044148 -0.106096 -0.434549
-0.057721 0.391749 -0.215002
0.010056 0.260278 -0.363937
-0.261815 -0.102958 -0.435250
0.061855 0.361446 -0.263159
0.135422 -0.266661 -0.358389
0.023260 -0.398327 -0.200081
0.088999 0.418718 0.150547
-0.240910 -0.277873 0.345338
0.127493 -0.048794 0.440362
0.203436 0.439206 0.074039
0.276938 -0.101571 -0.435560
0.113069 -0.011198 -0.447244
0.235661 0.431989 -0.112793
-0.258718 0.025713 -0.446820
-0.055317 -0.144818 -0.423044
0.229690 0.423959 0.135990
-0.176877 0.333098 -0.298163
-0.199235 0.434431 -0.101868
-0.085245 -0.197222 0.396749
0.166883 -0.256642 -0.365712
-0.116737 -0.122394 -0.430093
0.142802 0.230619 -0.383338
0.286786 -0.152293 0.416000
0.162519 -0.415807 -0.160140
-0.116275 0.145071 -0.423322
-0.162731 -0.440458 0.059662
-0.271764 -0.318646 -0.312648
0.270373 -0.081835 0.435546
-0.209163 -0.110894 0.429081
0.275485 0.062513 0.438768
-0.282132 0.441965 0.056621
-0.141567 0.175408 -0.411606
0.247505 -0.406285 -0.183154
-0.050533 -0.442000 0.047408
0.198661 0.201128 0.395281
0.236123 0.250498 -0.370584
