-6.532872 -14.461266 48.113734 4
-6.552799 -14.431689 49.740872 4
-6.657571 -14.276180 2.504844 4
-0.940525 -22.039562 13.836340 4
-6.241753 -14.893345 44.374894 4
-1.242294 -21.688524 23.691430 4
-2.835111 -19.683527 2.950454 4
-6.618424 -14.334289 22.192713 4
-2.828251 -19.692593 18.310806 4
0.962761 -24.250096 7.313832 4
-6.329090 -14.763692 9.720065 4
-6.686683 -14.232978 31.614009 4
0.184340 -23.387134 61.611127 4
2.987881 -26.392590 57.861221 4
-5.025344 -16.698637 43.096732 4
-5.900299 -15.400080 28.460332 4
-6.744547 -14.147095 32.777092 4
-1.542371 -21.328597 19.153760 4
2.553081 -25.932568 35.392928 4
0.019217 -23.173317 45.220147 4
-3.757136 -18.464841 3.517565 4
0.039174 -23.196889 40.524360 4
-3.385512 -18.966783 36.220684 4
-5.434819 -16.090913 9.742690 4
1.567459 -24.889828 18.117744 4
3.445764 -26.876996 41.887660 4
-4.337875 -17.697251 8.193921 4
3.103104 -26.514493 60.168772 4
-1.166603 -21.772490 0.697900 4
-6.460100 -14.569274 39.212864 4
1.654538 -24.981960 49.040884 4
-6.100738 -15.102613 34.037113 4
-1.258710 -21.663682 42.142675 4
0.590521 -23.848177 45.045172 4
-2.232585 -20.479915 31.814272 4
-4.255572 -17.806035 48.400952 4
-1.394001 -21.503864 41.926127 4
1.300717 -24.607631 21.793203 4
-5.700942 -15.695951 17.868564 4
2.849308 -26.245953 23.553621 4
-0.552575 -22.497852 27.070953 4
-3.232838 -19.175693 56.523448 4
0.272624 -23.472645 15.790270 4
-2.827109 -19.717594 57.277446 4
2.105864 -25.459427 2.248616 4
-6.755835 -14.130342 42.661387 4
-0.013324 -23.134878 48.411259 4
-4.913920 -16.864000 20.140838 4
-2.802727 -19.726330 43.921982 4
-0.573557 -22.473060 15.629954 4
3.328795 -26.753226 18.224441 4
-4.537684 -17.422383 18.889932 4
0.084216 -23.250078 12.666817 4
-4.789813 -17.048196 45.181381 4
0.708831 -23.981454 55.891361 4
0.573550 -23.828132 59.965896 4
-3.283408 -19.094500 37.377471 4
3.280685 -26.702350 42.231696 4
3.450208 -26.881677 20.357186 4
0.296832 -23.501255 37.191529 4
-5.068049 -16.635260 51.029158 4
0.340186 -23.552482 56.875573 4
-4.994814 -16.743939 0.503980 4
-4.809917 -17.018358 31.575502 4
3.400944 -26.829542 3.738630 4
-2.802505 -19.763621 62.340359 4
-3.398915 -18.943933 59.579037 4
0.686800 -23.958146 25.359154 4
-5.903788 -15.394935 57.824333 4
3.197289 -26.614134 56.549545 4
-3.563781 -18.720408 0.121350 4
-5.360443 -16.201314 57.989016 4
0.583548 -23.839929 1.995239 4
1.321146 -24.629244 26.095139 4
-1.353913 -21.551219 27.327832 4
-0.248654 -22.860854 46.650902 4
-0.237867 -22.869622 38.788320 4
-5.891116 -15.413713 33.989823 4
-6.743724 -14.148317 56.729195 4
0.112519 -23.283504 -0.165972 4
-2.143809 -20.597253 60.105902 4
-1.745656 -21.088458 39.459405 4
1.612885 -24.937886 17.319863 4
-4.376228 -17.646559 28.224872 4
0.183735 -23.367643 17.979634 4
-4.579321 -17.360590 56.622031 4
1.761372 -25.094976 36.024103 4
2.752747 -26.143788 1.851189 4
-0.552354 -22.498098 3.112992 4
1.826658 -25.164048 41.146617 4
-5.561880 -15.902343 35.289829 4
2.359677 -25.727954 34.951270 4
-0.877829 -22.119309 39.045786 4
1.593674 -24.917567 47.829077 4
-1.075160 -21.880523 19.770416 4
0.800972 -24.078933 45.743848 4
-0.119817 -23.009066 27.837319 4
-0.832731 -22.172063 41.751256 4
-2.608897 -19.982525 53.148380 4
-5.500190 -15.993896 21.019157 4
-4.972958 -16.776389 60.184799 4
-4.172784 -17.915572 17.607016 4
3.373819 -26.800855 13.765862 4
3.088117 -26.498599 18.945422 4
0.823685 -24.102962 27.423043 4
1.204986 -24.506355 10.469229 4
2.057401 -25.408156 10.114655 4
-2.915078 -19.577830 26.622558 4
-4.093170 -18.020690 29.990993 4
-6.561377 -14.418958 30.413791 4
-3.282655 -19.101702 62.313816 4
0.901049 -24.184809 59.305659 4
-1.415831 -21.478077 54.707562 4
1.467934 -24.784536 16.481216 4
-4.131543 -17.969971 27.706777 4
-0.644606 -22.394925 48.935251 4
-5.671527 -15.739626 51.702229 4
-6.321676 -14.774696 12.731604 4
1.126790 -24.423628 50.247240 4
0.528898 -23.775389 30.650781 4
-5.923143 -15.366177 27.780525 4
0.084389 -23.250281 9.297995 4
-5.004589 -16.729433 5.963996 4
-1.489392 -21.391179 42.236598 4
3.261718 -26.682262 19.209826 4
-6.339907 -14.747666 46.703391 4
1.435325 -24.750038 15.857336 4
-4.133178 -17.967810 45.474965 4
0.951268 -24.237937 36.639469 4
-5.286110 -16.311620 19.381071 4
0.069697 -23.232949 45.760662 4
0.428496 -23.656785 30.296014 4
-5.025615 -16.698229 16.904996 4
-6.223148 -14.920924 6.949413 4
2.571935 -25.952534 56.264783 4
0.741876 -24.016413 26.163334 4
1.789724 -25.124985 53.396485 4
-4.355363 -17.674137 61.623035 4
-2.499969 -20.126501 56.373417 4
-4.932430 -16.836533 34.383246 4
-4.120651 -17.984368 23.523136 4
-3.521082 -18.776849 58.128194 4
-5.889837 -15.415641 59.194761 4
1.258923 -24.563416 11.347079 4
-4.430612 -17.574675 48.618220 4
0.136372 -23.311700 28.809949 4
-6.271332 -14.849433 33.106719 4
-3.939446 -18.223873 1.175216 4
-0.545028 -22.506764 22.105158 4
1.201905 -24.503095 2.495532 4
-0.396001 -22.682806 18.325438 4
-2.821241 -19.731336 59.145906 4
1.659820 -24.987557 58.258524 4
-5.841986 -15.486624 18.498981 4
0.037896 -23.195387 52.598412 4
3.287293 -26.709331 31.782334 4
-2.042453 -20.731221 21.449084 4
-3.235905 -19.174675 43.757788 4
-4.881761 -16.911736 51.153060 4
-3.750975 -18.472985 0.564208 4
3.450746 -26.882271 46.067837 4
-0.008005 -23.159315 58.226987 4
1.954640 -25.299441 33.814638 4
0.463133 -23.697682 -0.188669 4
-4.867778 -16.932487 49.637992 4
-1.443823 -21.445010 33.832160 4
-5.671536 -15.739615 53.753592 4
-4.574999 -17.367004 9.580567 4
-0.515789 -22.541296 9.403662 4
1.622786 -24.948361 8.086554 4
-0.874752 -22.117247 58.792874 4
-1.991620 -20.797903 9.213398 4
-5.111994 -16.570031 14.352804 4
-1.896115 -20.910722 19.826117 4
-0.054107 -23.086685 21.462199 4
3.268002 -26.688932 42.625861 4
-5.366508 -16.192316 60.842873 4
3.050958 -26.459308 41.584256 4
-3.080810 -19.358774 31.417112 4
-3.531795 -18.762685 18.799741 4
3.462435 -26.894653 63.072598 4
-3.782960 -18.439582 32.221636 4
-0.126323 -23.001381 29.301264 4
-4.973669 -16.775322 10.413572 4
-4.023389 -18.112923 62.585769 4
-4.810750 -17.017119 19.357316 4
-1.003675 -21.964952 58.011458 4
0.430226 -23.658812 4.059759 4
-0.562407 -22.486216 63.770137 4
-5.737950 -15.641028 21.892195 4
0.911158 -24.195508 63.509462 4
1.574530 -24.897309 5.985702 4
1.011193 -24.301333 23.500466 4
-1.166759 -21.772303 62.904974 4
2.286201 -25.650241 57.651686 4
0.968165 -24.255812 11.446780 4
-1.165266 -21.774066 58.965192 4
-4.334173 -17.702144 25.601153 4
-4.990027 -16.751045 10.814516 4
-5.421930 -16.110041 6.208181 4
-6.462144 -14.566220 -0.762248 4
-0.956651 -22.020507 6.414437 4
2.968251 -26.371804 39.092039 4
0.242816 -23.437445 33.889513 4
2.645898 -26.030787 59.187544 4
-6.542004 -14.447712 53.782413 4
-5.354885 -16.209552 42.149143 4
-3.021841 -19.436717 22.009270 4
-6.051718 -15.175372 41.106809 4
-5.348568 -16.218924 26.468498 4
-4.036626 -18.095428 61.142498 4
3.455760 -26.887564 33.903073 4
-6.561821 -14.418299 32.153500 4
-2.915971 -19.576650 41.042996 4
3.203193 -26.620340 14.372994 4
-4.530102 -17.433636 9.085035 4
-0.052119 -23.089019 0.027903 4
-5.953281 -15.321448 24.560472 4
0.706699 -23.979198 30.827325 4
0.058681 -23.219908 2.016021 4
-3.272992 -19.116581 40.043497 4
-5.357458 -16.205733 32.973308 4
-0.313380 -22.780405 17.679953 4
-3.432998 -18.893271 8.151290 4
-4.382990 -17.637620 44.194585 4
-0.085341 -23.049789 22.936021 4
1.946002 -25.290303 23.613763 4
2.687310 -26.074591 50.490900 4
-0.948209 -22.038879 32.038497 4
-5.972280 -15.293291 61.534996 4
3.214390 -26.632195 24.133365 4
3.089105 -26.499672 48.059058 4
-4.344764 -17.688146 39.941326 4
-0.724340 -22.303508 35.049316 4
-1.670944 -21.176715 59.726430 4
-6.228820 -14.912505 4.733742 4
1.450492 -24.766085 22.037576 4
0.032871 -23.189433 23.812572 4
-3.142494 -19.277244 24.530950 4
-4.117545 -17.988473 62.060143 4
-3.179822 -19.254156 50.667254 4
-3.325499 -19.035357 9.791241 4
-5.309712 -16.276592 19.134014 4
1.941059 -25.285074 -0.547569 4
-0.772980 -22.237484 18.494894 4
-3.246401 -19.139905 28.472104 4
0.311836 -23.518975 29.482146 4
0.227465 -23.419292 5.352474 4
-4.700049 -17.181415 53.927895 4
0.119735 -23.310261 63.664215 4
-6.531756 -14.462922 24.691539 4
0.618337 -23.881023 1.622095 4
-6.419375 -14.629719 34.409389 4
-1.292804 -21.623406 37.275426 4
-1.049963 -21.911617 38.004439 4
-3.482651 -18.827642 7.349786 4
-5.925641 -15.362466 10.776274 4
-1.812654 -21.009314 63.775797 4
-3.845654 -18.347846 52.051440 4
-1.110775 -21.838445 9.096673 4
2.917438 -26.318039 30.568454 4
-0.786729 -22.221228 62.570939 4
2.709790 -26.098363 38.961438 4
2.869880 -26.267717 23.210410 4
-3.630101 -18.632750 14.138153 4
-6.750675 -14.138001 36.329596 4
-6.438302 -14.601625 26.805077 4
-3.824239 -18.376151 52.794575 4
-3.222778 -19.190070 55.970741 4
1.055609 -24.348323 21.367403 4
-0.383897 -22.697097 6.511437 4
-3.665206 -18.586353 60.334823 4
-3.101333 -19.331648 8.646192 4
0.719378 -23.992612 24.898136 4
-1.392253 -21.505931 -0.186738 4
-2.083752 -20.676634 33.914647 4
-0.400258 -22.677767 2.458860 4
-5.712166 -15.679296 23.781084 4
-2.919660 -19.571773 4.555082 4
-2.885773 -19.649870 61.203626 4
3.118491 -26.530766 53.567480 4
0.299405 -23.504285 21.131626 4
-3.163815 -19.273877 53.224377 4
2.346154 -25.713638 14.096797 4
-3.801292 -18.406480 48.671490 4
-3.261317 -19.120190 16.036164 4
-5.512581 -15.975507 27.331450 4
-1.546654 -21.323539 0.367703 4
-2.959049 -19.519712 7.326485 4
-4.009004 -18.131937 43.647657 4
2.020425 -25.369058 54.106819 4
-6.322637 -14.773268 1.213175 4
-3.822119 -18.378950 7.677304 4
-0.983829 -21.988401 3.530994 4
-3.733956 -18.495479 0.103025 4
2.106112 -25.459690 18.600303 4
-6.092464 -15.114922 60.117354 4
-1.246688 -21.677883 41.205716 4
-6.540074 -14.450576 22.755664 4
-2.758924 -19.784226 17.561541 4
-2.603480 -19.989684 11.822176 4
-6.511557 -14.492896 16.727467 4
-4.312023 -17.731422 10.203598 4
-4.589685 -17.345209 38.304120 4
-5.852875 -15.470459 1.274048 4
-0.967527 -22.007667 18.062491 4
-1.783158 -21.044158 45.870613 4
-1.599049 -21.261643 42.016030 4
2.582997 -25.964235 53.938226 4
1.163567 -24.462536 36.587441 4
0.535646 -23.783364 48.951988 4
2.837269 -26.233207 0.618242 4
0.234294 -23.427378 34.833790 4
1.409171 -24.722376 52.917019 4
0.438523 -23.668627 26.690567 4
-6.081174 -15.131633 4.604304 4
-3.262150 -19.119089 2.866014 4
0.637310 -23.903439 35.324543 4
2.696633 -26.084454 49.904244 4
-2.434857 -20.212562 52.382486 4
-2.567043 -20.039723 59.330769 4
-3.545701 -18.744306 6.521320 4
-4.608364 -17.317487 40.169143 4
2.723535 -26.112888 21.587925 4
2.530190 -25.908349 33.819074 4
0.836269 -24.116275 13.958560 4
-3.949531 -18.215885 25.745634 4
-0.136406 -23.002616 60.052786 4
0.289749 -23.492866 1.466447 4
2.847062 -26.243568 2.864616 4
-0.957232 -22.021583 41.381580 4
-1.815272 -21.006222 27.661905 4
3.279851 -26.701466 40.396677 4
-2.029514 -20.748323 54.760809 4
-6.059456 -15.163890 42.494197 4
-3.263784 -19.116929 35.910500 4
-0.769675 -22.242337 50.647724 4
0.768689 -24.044779 54.187979 4
3.403815 -26.832609 34.756535 4
-3.015008 -19.445748 1.370606 4
-5.527568 -15.953267 37.337614 4
3.389912 -26.817905 39.970896 4
-6.754898 -14.131734 54.323206 4
-6.130573 -15.058360 58.606621 4
-0.626787 -22.410177 11.762959 4
-5.599351 -15.846746 54.130977 4
2.986866 -26.391514 55.517262 4
-4.370452 -17.654193 44.465767 4
-1.584816 -21.278457 52.462558 4
-6.746519 -14.144169 38.986811 4
-0.484801 -22.577919 36.854793 4
-0.657649 -22.374541 55.669429 4
1.344715 -24.654179 2.759128 4
-4.330277 -17.707293 54.580792 4
1.991226 -25.338163 50.390656 4
-1.791019 -21.034871 24.701409 4
-2.941940 -19.570860 62.921595 4
-4.056051 -18.069753 48.373148 4
3.467302 -26.899751 7.846562 4
0.797395 -24.075149 41.768061 4
-6.516908 -14.484960 36.513974 4
-1.912671 -20.891165 26.620072 4
-6.540575 -14.449832 38.575475 4
0.659089 -23.928830 17.093406 4
-5.526754 -15.954470 13.827054 4
2.865471 -26.263081 53.023531 4
2.582108 -25.963277 34.767676 4
1.782703 -25.117564 61.358602 4
2.510789 -25.887827 38.494815 4
-4.943642 -16.819894 36.423870 4
-5.357489 -16.205685 23.167824 4
-6.368596 -14.705086 42.054500 4
-2.452907 -20.188704 46.853553 4
0.750092 -24.025106 32.971060 4
2.023411 -25.372197 17.399172 4
-2.990138 -19.478621 42.927566 4
-0.301094 -22.794920 20.572030 4
-6.359871 -14.718020 22.559861 4
-2.946204 -19.536690 42.441559 4
-4.940995 -16.823826 60.914045 4
1.242125 -24.545648 54.396338 4
-5.755938 -15.614329 16.862090 4
-6.576555 -14.396431 24.145076 4
-5.306166 -16.281849 -0.545988 4
-4.498587 -17.480408 46.188049 4
1.618603 -24.943936 13.026033 4
-5.617757 -15.819415 40.858701 4
1.054388 -24.347031 37.943306 4
-2.953382 -19.527202 24.699730 4
-5.905677 -15.392129 56.297288 4
-2.218913 -20.497985 39.580925 4
1.564500 -24.886698 37.580430 4
0.859242 -24.140579 42.050280 4
2.881738 -26.280296 59.176622 4
3.282703 -26.704476 33.221708 4
-5.925315 -15.362953 26.521023 4
-3.159579 -19.275041 58.320071 4
-6.573801 -14.400519 36.166856 4
-4.019227 -18.118425 54.059323 4
-6.412963 -14.639213 9.149644 4
-0.121294 -23.007311 12.484214 4
-3.007774 -19.455310 11.657885 4
-4.268510 -17.788935 60.729733 4
-3.443647 -18.879195 -0.661477 4
-2.193592 -20.531453 38.154237 4
-2.931255 -19.556448 23.758886 4
-3.480503 -18.830654 60.450872 4
-0.821129 -22.191367 34.041964 4
-1.616359 -21.241197 1.457625 4
-4.450566 -17.548302 20.545527 4
-0.951903 -22.033342 33.598455 4
-2.946782 -19.535926 43.199271 4
0.608982 -23.869981 37.251231 4
-2.873074 -19.640455 51.227837 4
3.443541 -26.874642 39.415973 4
-5.153067 -16.509077 37.996234 4
-5.922517 -15.367101 4.663218 4
-3.219484 -19.175482 27.342728 4
2.819022 -26.213944 58.081274 4
1.273353 -24.578682 25.443324 4
-5.173331 -16.478996 5.696793 4
-4.710878 -17.165341 12.322273 4
-4.264283 -17.794522 32.293094 4
-4.470008 -17.522604 26.653841 4
-4.504283 -17.471954 34.065845 4
-5.727264 -15.656921 64.219375 4
-2.697929 -19.864847 38.783732 4
-4.694064 -17.190295 8.990818 4
-2.068903 -20.696261 41.643570 4
-0.750396 -22.273433 39.274950 4
1.397096 -24.709598 50.539926 4
-1.018671 -21.947250 16.471202 4
-4.045656 -18.083492 42.502539 4
-5.588081 -15.863454 27.582115 4
-4.679697 -17.211618 11.677243 4
-1.498788 -21.380080 29.775717 4
-1.233817 -21.693088 60.794214 4
-5.547524 -15.923648 30.613211 4
1.446932 -24.762318 6.571317 4
0.378274 -23.597477 60.792538 4
1.429028 -24.743377 31.798780 4
2.685741 -26.072900 13.620930 4
-0.756790 -22.256610 19.940145 4
-3.395810 -18.964327 42.017375 4
0.356622 -23.571888 42.688960 4
-5.102056 -16.584784 37.322341 4
-6.571375 -14.404119 34.600173 4
-4.282453 -17.770882 5.239542 4
0.145756 -23.322800 52.398655 4
-1.683118 -21.162333 37.563136 4
-6.333634 -14.756975 47.222505 4
-5.092970 -16.598277 63.415215 4
-4.008054 -18.141688 18.680071 4
0.291668 -23.509776 63.506992 4
-3.198094 -19.203754 6.588416 4
-6.744527 -14.147126 50.528764 4
2.382102 -25.751703 60.620753 4
-4.553581 -17.398791 10.509691 4
-3.885031 -18.295799 43.276543 4
1.283142 -24.589039 42.514846 4
-4.765432 -17.084380 49.341095 4
-0.696264 -22.328093 57.762141 4
-2.728736 -19.824127 5.000517 4
-5.016249 -16.712136 48.406768 4
-4.418905 -17.590149 53.597698 4
-0.955379 -22.022011 6.685434 4
-5.942678 -15.337190 33.728403 4
0.209825 -23.412655 61.225628 4
-6.445134 -14.591487 57.941548 4
-3.103157 -19.351029 60.278068 4
-1.326464 -21.583647 0.472103 4
-3.687658 -18.556674 13.822257 4
-0.384293 -22.696651 39.136683 4
-4.833379 -16.983540 43.802413 4
0.162181 -23.342180 15.462006 4
-1.698558 -21.144094 21.370480 4
-1.449328 -21.438517 12.854868 4
-5.140756 -16.527351 48.562487 4
-1.588005 -21.274689 48.849608 4
-4.966241 -16.786354 42.813134 4
-4.703875 -17.175737 54.329214 4
-5.905576 -15.392248 21.663546 4
-5.812078 -15.531014 33.475703 4
0.300092 -23.505116 53.324808 4
-5.380450 -16.171604 13.228378 4
0.740143 -24.014580 53.584284 4
2.492134 -25.868091 37.962199 4
2.578398 -25.959376 60.433468 4
-0.717197 -22.303386 27.273403 4
2.853565 -26.250486 54.624700 4
2.841126 -26.237291 17.765332 4
-6.540232 -14.450341 57.720778 4
-0.088034 -23.060527 53.233128 4
-1.436172 -21.454048 49.539393 4
2.094402 -25.447300 27.549551 4
1.375198 -24.686428 48.289650 4
-3.929753 -18.247254 21.275632 4
-1.754483 -21.078031 17.412624 4
2.241379 -25.602807 42.266482 4
-3.990019 -18.163218 22.312868 4
-5.045531 -16.668675 32.965006 4
-4.416504 -17.593323 49.458244 4
-6.758900 -14.125793 40.823340 4
1.376853 -24.688190 59.688619 4
-2.257209 -20.447367 16.622557 4
-1.084044 -21.875193 30.912268 4
-4.630578 -17.284518 30.702978 4
1.881467 -25.222029 7.230922 4
-4.756825 -17.097154 32.339759 4
-6.078316 -15.135875 7.826322 4
-3.052945 -19.395605 36.460482 4
3.458003 -26.889920 15.865433 4
-5.013536 -16.716158 25.521415 4
-4.382309 -17.638521 43.841161 4
-5.507731 -15.982709 43.514591 4
-4.750101 -17.107130 16.408953 4
-4.406940 -17.605964 56.935030 4
-2.971761 -19.502910 37.654485 4
-4.084962 -18.034054 20.431073 4
-5.475553 -16.030460 18.850026 4
-2.173352 -20.558205 29.114855 4
-3.407909 -18.944070 45.916540 4
-3.344050 -19.017881 61.419881 4
-2.239607 -20.470633 52.346284 4
0.606803 -23.867407 56.262898 4
2.582669 -25.963870 35.078601 4
-2.365720 -20.303944 48.406712 4
-2.020345 -20.760441 58.859805 4
2.847783 -26.244365 49.507731 4
-1.853995 -20.960479 22.049316 4
-4.258827 -17.801733 54.972687 4
-3.744557 -18.489035 36.024872 4
-5.425426 -16.104859 34.911704 4
-3.858997 -18.341519 21.565561 4
-5.306041 -16.282045 44.914369 4
-0.038324 -23.105347 49.502786 4
0.720730 -23.994042 48.968590 4
-4.564875 -17.382029 50.273405 4
-3.310591 -19.055061 9.228700 4
1.906674 -25.248696 3.565653 4
-0.878550 -22.112775 19.065044 4
0.219730 -23.410159 10.497901 4
-6.639726 -14.302672 56.239502 4
3.062458 -26.471461 28.844093 4
-5.350376 -16.216242 27.937347 4
-2.360664 -20.310626 26.859294 4
2.744280 -26.134831 16.833906 4
1.731789 -25.063679 29.987677 4
-4.223266 -17.848736 47.209175 4
3.203272 -26.620426 16.758949 4
2.131229 -25.486269 38.217276 4
-2.646222 -19.933190 15.649670 4
-6.091744 -15.115988 56.886176 4
3.158907 -26.573511 39.286058 4
-5.696209 -15.702978 28.889904 4
2.596429 -25.978438 45.812836 4
0.897887 -24.181463 36.189257 4
-1.822642 -20.997515 34.455732 4
-4.767100 -17.081905 53.120865 4
-0.786290 -22.221759 15.610840 4
3.441669 -26.872684 63.825831 4
-4.405181 -17.608290 62.415046 4
-3.433669 -18.910277 36.724732 4
-4.688353 -17.198774 39.567256 4
0.249172 -23.444938 10.205933 4
-1.934948 -20.864850 45.965226 4
-1.851922 -20.962927 20.670009 4
-6.249232 -14.882218 21.595790 4
-1.916821 -20.886450 2.329025 4
-3.553496 -18.734003 2.688676 4
-3.902141 -18.273183 44.135288 4
-5.295732 -16.297342 33.350766 4
-6.740982 -14.152387 37.747518 4
-5.305825 -16.282367 52.427520 4
1.747467 -25.080283 57.624552 4
-6.276074 -14.842385 24.485762 4
-5.520899 -15.963160 14.529508 4
-6.760052 -14.124084 58.564679 4
-6.236086 -14.901728 22.385195 4
0.167097 -23.347981 5.704757 4
-2.941481 -19.562988 52.732223 4
-0.950110 -22.028227 63.592545 4
-3.300690 -19.068149 4.629164 4
-2.102635 -20.651675 25.131089 4
-0.227280 -22.895897 55.211172 4
-6.553441 -14.430737 17.924331 4
0.548972 -23.799097 22.754559 4
-5.912333 -15.382253 57.467955 4
1.071595 -24.365236 14.689471 4
-1.047614 -21.917924 32.926415 4
-6.223460 -14.920497 61.505763 4
-4.048713 -18.079450 5.326914 4
3.267796 -26.688722 50.746332 4
-1.539963 -21.331440 41.465090 4
-0.997724 -21.976656 35.373767 4
-1.900337 -20.905735 16.496474 4
1.503523 -24.822188 27.934642 4
-5.088498 -16.604907 33.965083 4
-1.409372 -21.485706 34.862921 4
-3.224477 -19.186609 57.188873 4
-6.289264 -14.822798 3.680267 4
0.161332 -23.341188 32.313859 4
-4.552314 -17.400672 11.876627 4
-2.640590 -19.940634 33.555924 4
1.706719 -25.037156 6.887805 4
-6.660944 -14.271181 15.765827 4
2.676855 -26.063500 2.139767 4
-0.969955 -22.004785 55.085133 4
-0.156011 -22.980227 58.078390 4
2.796465 -26.190084 62.699186 4
-0.106939 -23.036987 61.965730 4
-1.338985 -21.568863 10.860761 4
0.212592 -23.401727 11.796528 4
-4.503349 -17.473340 5.616786 4
0.534476 -23.781982 36.441769 4
-5.760679 -15.607291 6.774098 4
-0.863790 -22.130197 55.771784 4
-6.745448 -14.145759 35.852928 4
-4.722250 -17.148467 42.310258 4
-0.874967 -22.117689 46.501195 4
-0.185010 -22.932055 28.554085 4
-2.146837 -20.593251 2.897204 4
0.386197 -23.606821 35.459433 4
2.405872 -25.776816 6.549627 4
-1.056341 -21.902742 0.374826 4
-5.571825 -15.887602 58.937564 4
-0.381763 -22.699620 9.667626 4
-2.276410 -20.421989 12.570386 4
0.015317 -23.168711 46.780519 4
-5.499325 -15.995183 36.993331 4
1.293544 -24.600044 0.484215 4
-0.414243 -22.661252 10.839001 4
-5.029404 -16.692615 59.221002 4
-1.885861 -20.922836 56.564059 4
-5.225728 -16.401244 57.901566 4
1.895163 -25.236519 2.336729 4
-0.099718 -23.048079 58.519480 4
2.590216 -25.971851 30.156301 4
-2.569129 -20.035088 41.726259 4
1.421990 -24.735931 10.869514 4
1.014361 -24.304691 62.429826 4
0.883704 -24.166458 53.983555 4
3.377348 -26.804594 19.732112 4
-2.067742 -20.697795 29.878879 4
0.493054 -23.733038 17.258411 4
-1.103453 -21.847085 61.200208 4
-3.689713 -18.553960 62.753733 4
3.016043 -26.422381 54.527967 4
2.272141 -25.635367 58.828149 4
-1.662890 -21.186229 60.841335 4
-0.037770 -23.105986 25.680743 4
-3.209182 -19.210949 44.862066 4
-5.581190 -15.873680 15.933829 4
-5.502456 -15.990538 41.777579 4
-5.794036 -15.557785 9.923687 4
-1.802193 -21.021672 41.976905 4
-3.265828 -19.114228 16.992803 4
1.217805 -24.519923 58.942741 4
-2.039254 -20.735449 30.262162 4
-2.399199 -20.259693 46.340245 4
2.839416 -26.235506 43.151831 4
2.904100 -26.303945 49.769664 4
-5.498785 -15.995980 16.945292 4
2.440199 -25.813170 63.003266 4
-6.175658 -14.991418 28.071547 4
3.459327 -26.891341 37.099665 4
-4.951043 -16.808908 34.678379 4
-6.142474 -15.040658 16.191366 4
-0.925124 -22.057762 24.558890 4
0.522331 -23.767638 44.355782 4
2.859235 -26.256453 20.638575 4
-2.395988 -20.263936 37.622852 4
-1.870510 -20.940969 63.029917 4
0.887360 -24.170326 -0.407201 4
2.236237 -25.597355 30.079917 4
-1.559779 -21.308032 42.599976 4
1.409707 -24.722947 57.393301 4
0.974293 -24.262296 9.109775 4
-5.246456 -16.370471 16.759880 4
-5.211520 -16.422329 50.550445 4
-0.409263 -22.682513 45.033938 4
0.357177 -23.572542 38.773921 4
-3.393668 -18.945255 -0.014428 4
-6.340906 -14.746169 25.503551 4
3.100305 -26.511482 0.249469 4
1.834519 -25.172361 25.581088 4
-3.379079 -18.986636 42.841807 4
-5.602170 -15.842549 43.858838 4
0.403929 -23.627748 5.124901 4
-2.051792 -20.718877 60.366049 4
-0.663797 -22.366455 9.315857 4
-1.226320 -21.701947 2.368232 4
2.663531 -26.049411 25.758562 4
1.282591 -24.588464 59.252592 4
-5.282939 -16.316324 11.047752 4
-4.679674 -17.211652 10.739737 4
-5.520575 -15.963647 42.638432 4
-5.640238 -15.786047 30.220275 4
-3.119953 -19.313442 43.306537 4
-3.097941 -19.336131 5.989518 4
-6.737742 -14.157196 41.263013 4
1.837721 -25.175750 38.067901 4
1.132122 -24.429269 6.068459 4
-3.199847 -19.201437 0.534786 4
-4.989807 -16.751382 56.219188 4
-3.245131 -19.155084 60.515051 4
-3.163911 -19.248936 26.857070 4
-0.265655 -22.836777 10.203683 4
-3.853910 -18.336933 55.292210 4
-0.341771 -22.746877 33.505508 4
-2.220601 -20.495754 13.966503 4
-1.108083 -21.841630 18.264742 4
-0.723795 -22.307864 36.013571 4
-4.294171 -17.755017 61.047355 4
-0.495239 -22.575549 49.248737 4
0.799568 -24.077447 43.053180 4
-2.244059 -20.464749 29.806748 4
-3.681104 -18.582182 29.845867 4
-5.080634 -16.616577 30.025625 4
-3.358657 -18.991530 5.314613 4
-1.991422 -20.798137 31.384840 4
2.087223 -25.439705 25.526740 4
0.536341 -23.784162 -0.540927 4
-6.609697 -14.347241 54.485151 4
-3.454997 -18.870914 54.896285 4
-5.486945 -16.013562 48.860227 4
2.854102 -26.251016 0.291543 4
-2.940270 -19.575617 60.246552 4
-0.564149 -22.484308 60.702925 4
-1.693961 -21.149525 35.986334 4
-4.317026 -17.724809 15.493955 4
-4.560994 -17.387789 8.458702 4
0.640962 -23.907749 -0.317414 4
0.270807 -23.470505 25.777477 4
-2.263812 -20.438640 44.841545 4
-2.937436 -19.561479 50.929222 4
-5.172919 -16.479607 7.407706 4
-4.193975 -17.887451 59.748108 4
0.232493 -23.425256 42.479265 4
-1.427480 -21.467769 18.637891 4
-0.140434 -22.984722 43.990699 4
2.638333 -26.022779 54.396359 4
-2.843871 -19.671948 27.350215 4
-6.088283 -15.121081 0.682182 4
1.323802 -24.632054 6.272247 4
-6.519908 -14.480506 44.958757 4
-6.077227 -15.137491 7.175705 4
1.258775 -24.563264 54.781272 4
-3.291490 -19.080309 20.453319 4
-3.415595 -18.916273 15.706680 4
-2.717270 -19.839283 -0.403429 4
0.214406 -23.424712 63.908266 4
-5.128643 -16.545331 54.530422 4
2.986485 -26.391071 12.774299 4
1.241296 -24.544768 11.660243 4
-5.562874 -15.900866 26.930578 4
-3.582644 -18.699697 49.707691 4
-2.321953 -20.361791 1.652832 4
-6.657649 -14.276070 64.178663 4
-5.615759 -15.822385 47.179683 4
-1.706708 -21.134471 4.587697 4
-6.280411 -14.835971 58.334222 4
-4.055616 -18.070328 41.907000 4
-5.927781 -15.359293 25.910115 4
-6.601544 -14.359341 57.068263 4
-4.893177 -16.894793 53.917012 4
-0.966070 -22.009374 45.318717 4
-4.477635 -17.511503 26.993440 4
1.400610 -24.713313 43.236541 4
0.850698 -24.131540 28.277581 4
-3.607788 -18.662242 14.445525 4
-3.300992 -19.067749 1.746320 4
-3.381608 -18.981978 44.118696 4
-4.967641 -16.784269 7.286308 4
-1.403512 -21.492629 29.575274 4
-0.946351 -22.032682 17.793281 4
1.698621 -25.028589 25.213593 4
-1.050602 -21.909517 58.557533 4
2.469053 -25.843658 0.470884 4
-4.275778 -17.779327 13.883681 4
3.448339 -26.879733 55.135130 4
-3.940294 -18.222752 2.138260 4
1.720192 -25.051410 12.214677 4
-2.686301 -19.904528 61.914082 4
-4.869968 -16.929235 32.531899 4
-5.318910 -16.262943 36.973943 4
-1.938652 -20.860474 36.454030 4
-1.538929 -21.332662 43.928547 4
0.237962 -23.431722 52.605856 4
-4.691625 -17.193918 38.919854 4
-0.677294 -22.350511 8.671261 4
-2.311936 -20.375032 32.693918 4
-1.166286 -21.772874 17.083262 4
0.592046 -23.849969 4.994223 4
-5.170504 -16.483198 31.751730 4
-5.774992 -15.586049 2.819296 4
2.609837 -25.992599 5.403217 4
-6.391363 -14.671268 0.003161 4
-5.850400 -15.474170 59.616384 4
-6.485801 -14.531128 25.088381 4
3.051039 -26.459377 24.371685 4
0.812362 -24.090983 14.436470 4
1.993652 -25.340727 48.378813 4
-3.902731 -18.272404 63.471417 4
-1.383715 -21.516015 46.255225 4
-1.990828 -20.798840 34.815656 4
-1.301516 -21.613116 35.108535 4
-5.752353 -15.619652 27.019766 4
2.548509 -25.927735 40.235993 4
0.466783 -23.702019 40.778827 4
-6.758148 -14.126909 8.680267 4
-4.999454 -16.737058 25.956709 4
-4.463781 -17.530834 16.054604 4
-1.763794 -21.067032 15.398754 4
2.808004 -26.202251 19.215963 4
-3.612236 -18.656363 23.694839 4
-3.081042 -19.358467 4.833871 4
0.907431 -24.191559 35.071079 4
1.497449 -24.815773 55.843417 4
-2.354845 -20.318318 61.381236 4
1.458242 -24.774301 64.199896 4
0.080835 -23.259184 57.536918 4
-5.845501 -15.481424 46.013147 4
-5.295564 -16.297589 18.813668 4
-5.760430 -15.607686 52.344036 4
-5.873390 -15.440039 50.517668 4
-6.438932 -14.600692 58.964994 4
-0.888084 -22.101518 25.151870 4
-4.154818 -17.939207 51.234748 4
-3.084114 -19.354408 12.111190 4
-5.033174 -16.687014 31.606917 4
-2.106790 -20.646184 48.355953 4
2.917923 -26.318557 35.721412 4
-4.292798 -17.756831 43.331611 4
-3.714499 -18.521197 14.719519 4
-1.466330 -21.418423 35.920176 4
-2.638094 -19.943934 28.181515 4
-4.968065 -16.783639 7.976193 4
3.000399 -26.405812 34.787206 4
1.640660 -24.967270 23.409885 4
2.187238 -25.545515 21.323885 4
-3.855218 -18.335202 0.927281 4
0.135982 -23.311243 34.148105 4
-6.605650 -14.353241 7.802982 4
1.738048 -25.070305 44.064298 4
2.050351 -25.400698 29.772079 4
-0.627448 -22.409405 26.814542 4
-2.778358 -19.758540 8.589002 4
1.375398 -24.686639 7.540647 4
-2.431316 -20.217242 17.032154 4
2.360616 -25.728938 21.803837 4
-5.055734 -16.653525 -0.081106 4
1.876184 -25.216440 22.268032 4
-6.642704 -14.298252 59.209396 4
-6.307149 -14.796286 42.668230 4
-5.498612 -15.996238 24.225543 4
-3.144749 -19.274263 17.945653 4
-6.624757 -14.324889 53.101438 4
-3.499971 -18.804749 9.807050 4
-4.627314 -17.289359 0.318341 4
-6.638834 -14.303996 12.550069 4
-1.779821 -21.048100 13.155468 4
0.446110 -23.677599 42.041025 4
-3.443455 -18.894223 46.834223 4
2.452224 -25.825863 31.998242 4
0.950880 -24.237527 2.816312 4
-4.516049 -17.454493 57.698316 4
0.332800 -23.543727 11.501847 4
-0.395776 -22.683079 30.040612 4
-6.477959 -14.542767 64.050402 4
-4.585357 -17.351631 52.871000 4
-4.327785 -17.710587 23.787357 4
-0.600615 -22.453246 41.512723 4
0.258681 -23.456185 31.617382 4
2.417326 -25.788948 38.863049 4
-6.710634 -14.197429 21.531797 4
-4.321132 -17.719381 11.250141 4
-1.282753 -21.635280 50.007116 4
-2.799738 -19.730281 14.461110 4
-0.460137 -22.607040 14.269409 4
-2.790898 -19.757200 56.086448 4
-3.926709 -18.242285 31.264759 4
2.142849 -25.498555 30.713562 4
0.331261 -23.546193 62.157359 4
-3.246187 -19.140187 13.836326 4
-6.419928 -14.628874 4.774527 4
-2.459098 -20.180521 14.496206 4
-6.377163 -14.692370 43.348916 4
-1.187642 -21.747634 57.965809 4
0.782938 -24.059855 19.246559 4
-2.065582 -20.700650 25.903739 4
-2.409275 -20.246374 33.162797 4
-5.664838 -15.749537 23.212869 4
-1.814528 -21.007100 45.524096 4
-1.549303 -21.320408 20.099744 4
-3.955732 -18.202349 63.071960 4
-0.033706 -23.110771 2.679603 4
-1.027863 -21.936379 62.082257 4
-5.083554 -16.612245 39.291050 4
2.066410 -25.417705 50.650342 4
-0.182051 -22.935544 18.782589 4
-5.007858 -16.724580 3.969188 4
-3.334933 -19.023707 35.008434 4
2.408842 -25.779993 59.992087 4
3.071948 -26.481513 40.069595 4
0.400230 -23.623395 32.595305 4
2.979464 -26.383689 62.101425 4
-6.225989 -14.916743 48.377860 4
2.231794 -25.592653 16.531846 4
-1.978844 -20.812996 7.645152 4
-5.922537 -15.367095 45.389275 4
-1.106281 -21.851689 25.898403 4
0.955704 -24.242629 1.714792 4
-0.801637 -22.203630 16.044236 4
-2.722089 -19.832914 9.745899 4
-2.824991 -19.731711 63.333337 4
-3.546885 -18.742740 16.833398 4
-1.045249 -21.915841 52.943952 4
-2.388102 -20.274361 42.016474 4
-2.488029 -20.142282 43.310345 4
3.125280 -26.537914 16.264457 4
-0.686277 -22.339905 16.572924 4
-4.260549 -17.799457 50.019899 4
-5.789591 -15.564402 47.218919 4
-4.842334 -16.970248 62.638055 4
-4.369373 -17.655618 20.946303 4
3.445377 -26.876570 24.020473 4
-1.140257 -21.803618 9.916335 4
-1.363656 -21.539710 56.355768 4
-4.225593 -17.845660 1.847552 4
1.165479 -24.464561 55.792441 4
-5.472590 -16.034861 31.503951 4
-0.502806 -22.556649 35.489519 4
1.632721 -24.958871 31.340347 4
-4.112099 -17.995671 50.572520 4
0.490773 -23.730347 23.833901 4
2.051232 -25.401640 43.328736 4
-0.345751 -22.742173 29.173206 4
-1.293179 -21.622964 29.796468 4
-1.081624 -21.872877 4.651633 4
-1.577023 -21.287662 58.574391 4
-2.087701 -20.671414 1.529583 4
-3.651214 -18.604844 24.072350 4
-1.784559 -21.042502 20.036261 4
-5.475925 -16.029906 11.307197 4
-4.785202 -17.055039 55.271909 4
-3.914529 -18.256809 53.469215 4
-3.024886 -19.432693 32.661064 4
-5.568875 -15.891961 37.895445 4
-4.677549 -17.214809 29.163602 4
-6.004918 -15.244806 0.325583 4
0.290573 -23.493875 58.260663 4
1.383589 -24.695305 24.999569 4
-4.097737 -18.014653 -0.756591 4
-5.110842 -16.571753 62.901080 4
-5.695496 -15.704061 58.036666 4
0.135987 -23.311233 9.551908 4
-1.460477 -21.425343 6.498138 4
-3.056000 -19.391567 9.530889 4
-1.328977 -21.580684 9.929730 4
2.227761 -25.588386 7.354021 4
0.109758 -23.280273 47.678429 4
1.848655 -25.187325 46.761707 4
0.560709 -23.812966 47.904129 4
2.376144 -25.745403 63.627913 4
0.422141 -23.649276 28.089803 4
2.632036 -26.016094 29.510421 4
-4.214091 -17.860862 57.008163 4
1.850773 -25.189557 15.940240 4
-3.550060 -18.739458 55.332166 4
-2.431510 -20.216985 26.629373 4
-1.725325 -21.112475 36.531080 4
-1.320522 -21.590664 50.744616 4
-6.307635 -14.795550 28.206353 4
-3.205661 -19.206134 64.180836 4
3.075044 -26.484759 7.311207 4
2.896761 -26.296193 63.153582 4
-0.220331 -22.898813 63.273217 4
-5.865449 -15.451821 47.806069 4
0.297956 -23.502573 21.806073 4
1.340037 -24.649230 22.785756 4
0.985057 -24.273684 38.458205 4
-5.299628 -16.291571 59.984167 4
-4.951525 -16.808192 32.784028 4
-1.679437 -21.166682 59.994405 4
-5.006517 -16.726580 47.401592 4
1.457256 -24.773240 12.664509 4
-5.338689 -16.233592 50.105284 4
-6.647709 -14.290823 51.521693 4
-4.564724 -17.382253 7.571788 4
-6.614673 -14.339856 15.344840 4
-0.127429 -23.000068 17.784511 4
-4.541395 -17.416877 18.475587 4
-3.764466 -18.469780 27.096775 4
-2.479347 -20.153757 2.945361 4
3.134419 -26.547584 18.116097 4
2.056254 -25.406943 -0.176708 4
2.445200 -25.818423 2.448875 4
-0.178298 -22.939979 23.327534 4
-2.399269 -20.259601 54.898701 4
-3.836940 -18.359361 14.524360 4
2.900721 -26.300336 10.716391 4
0.254415 -23.451159 52.969600 4
-2.800772 -19.728914 1.245163 4
0.659102 -23.928843 62.213163 4
-5.793891 -15.557998 0.704349 4
-1.984283 -20.806571 10.579476 4
-6.237889 -14.899065 32.756581 4
3.007977 -26.413843 50.299603 4
2.922494 -26.323400 43.747663 4
1.058095 -24.350953 39.316996 4
-5.437844 -16.086425 17.543961 4
-0.310707 -22.783558 9.381958 4
-6.148992 -15.031023 63.938580 4
0.803401 -24.081502 3.063303 4
-1.585029 -21.278210 5.316456 4
-4.378031 -17.644175 51.804443 4
-2.035456 -20.740469 43.461060 4
2.290540 -25.654833 59.388891 4
-3.952545 -18.206561 60.763062 4
-5.810889 -15.532779 32.937612 4
-5.217915 -16.412838 51.200605 4
-4.708286 -17.169191 50.994776 4
-4.393406 -17.623854 22.222841 4
-4.764717 -17.085436 12.036026 4
-0.957662 -22.019306 53.196259 4
-1.056675 -21.902358 19.298351 4
-4.814787 -17.011131 41.619505 4
-6.465019 -14.561973 42.752455 4
-3.636879 -18.636481 37.115911 4
-1.763576 -21.067289 23.374016 4
2.912076 -26.312368 33.741153 4
-3.632593 -18.646438 32.704441 4
3.321814 -26.745830 7.532087 4
1.617558 -24.942843 56.305926 4
-1.691962 -21.151889 2.094451 4
-4.351798 -17.678848 40.657569 4
2.088258 -25.440801 -0.774761 4
0.762354 -24.038078 57.723459 4
-6.648648 -14.289430 14.846539 4
2.654587 -26.039949 26.868859 4
-2.389659 -20.272302 16.464136 4
-5.177262 -16.473172 51.949892 4
-6.350907 -14.731339 45.406033 4
-3.096582 -19.337928 28.866683 4
-5.864553 -15.453131 20.429292 4
1.242272 -24.545801 49.600510 4
3.435949 -26.866628 58.461568 4
0.115278 -23.286796 49.305101 4
2.270062 -25.633154 44.704733 4
-6.001693 -15.249601 30.599882 4
-4.054756 -18.071464 62.862548 4
-2.655571 -19.920834 50.209488 4
0.690501 -23.962062 42.827930 4
-2.208924 -20.511189 48.605763 4
-6.299983 -14.806918 37.199580 4
-2.556025 -20.052408 58.248533 4
2.951699 -26.354291 37.446981 4
0.565242 -23.818309 11.523082 4
1.403025 -24.715867 3.178131 4
-4.657422 -17.244679 27.174398 4
1.285608 -24.591648 18.233254 4
-3.084357 -19.354086 35.419375 4
-6.755309 -14.131123 14.307268 4
1.528399 -24.848505 33.154005 4
-3.010952 -19.480966 53.317339 4
0.203575 -23.398611 59.513088 4
1.246933 -24.550732 10.745862 4
-1.663641 -21.185342 61.907764 4
-2.023827 -20.755839 27.138719 4
0.306507 -23.512679 28.274000 4
-6.282026 -14.833572 60.027226 4
0.132238 -23.306822 36.364202 4
1.347246 -24.656856 34.358206 4
0.892134 -24.175376 23.261030 4
-2.216845 -20.500718 26.227676 4
-2.343422 -20.333415 10.395776 4
-0.283557 -22.815647 38.226019 4
3.453944 -26.885644 35.296152 4
-6.275980 -14.842514 7.837454 4
-6.572446 -14.402530 37.620740 4
3.202868 -26.620018 37.360489 4
-4.123350 -17.980799 2.247590 4
-3.813963 -18.389733 58.959741 4
-0.303709 -22.802656 56.251072 4
-2.400366 -20.258151 29.930129 4
-4.103021 -18.007670 36.107352 4
-2.426426 -20.223706 21.173461 4
-1.122342 -21.825056 36.440204 4
-4.130649 -17.971151 6.251479 4
-6.746451 -14.144270 6.523970 4
0.558652 -23.810536 34.631692 4
-4.703567 -17.176195 34.247363 4
3.431895 -26.862322 40.995734 4
0.777237 -24.053823 43.743970 4
1.053750 -24.346356 4.803568 4
-3.125906 -19.299169 35.767963 4
-0.409065 -22.680388 48.502369 4
-3.644805 -18.613315 -0.448880 4
-2.580026 -20.020686 41.116607 4
0.925992 -24.211196 7.767465 4
-2.308879 -20.379072 18.397155 4
-3.039490 -19.413389 40.583270 4
2.086530 -25.438973 19.508662 4
-2.668598 -19.903615 46.701382 4
-4.082672 -18.034566 40.022271 4
-3.099810 -19.354747 61.255433 4
-1.624416 -21.231677 63.846099 4
-6.719179 -14.184747 55.037289 4
-3.612008 -18.656665 11.045811 4
-0.067900 -23.070389 19.748571 4
-0.361417 -22.723675 42.552566 4
-3.999287 -18.144778 9.902085 4
-0.513530 -22.543977 29.207351 4
-4.074327 -18.045596 62.341093 4
0.098400 -23.266850 39.080318 4
-0.055500 -23.097481 53.756109 4
0.888199 -24.171214 30.282354 4
-6.356370 -14.723216 23.282455 4
1.149259 -24.447409 63.962505 4
-5.409549 -16.128419 15.839835 4
0.255659 -23.452617 35.698957 4
2.295932 -25.660528 49.297652 4
2.837537 -26.233510 33.974669 4
-1.916261 -20.886925 17.909819 4
1.832329 -25.170044 34.514444 4
-5.719302 -15.668727 55.441187 4
0.732185 -24.006160 58.354733 4
2.068556 -25.419957 4.039614 4
-2.426212 -20.223988 30.273710 4
1.701463 -25.031602 47.517079 4
-0.245911 -22.875026 52.740248 4
-1.087375 -21.866088 11.163275 4
-6.605966 -14.352779 38.916185 4
-2.608320 -19.983287 16.245707 4
0.729120 -24.002918 13.743493 4
-3.350490 -19.013025 57.037201 4
0.468331 -23.703846 38.568289 4
-5.546023 -15.925874 21.932726 4
2.022933 -25.371697 39.509643 4
2.458695 -25.832700 10.683836 4
-5.789706 -15.564215 23.427929 4
-3.811652 -18.392785 14.143214 4
-5.250448 -16.364545 6.412469 4
0.501435 -23.742951 37.910709 4
-4.022110 -18.114614 51.936684 4
-2.024405 -20.755076 20.575278 4
-6.099652 -15.104211 15.424180 4
-3.009478 -19.485325 54.667299 4
-3.624815 -18.643972 47.078161 4
-5.703837 -15.691658 30.566797 4
2.255142 -25.617353 16.213114 4
-1.089980 -21.863001 43.984415 4
1.739433 -25.071776 49.692645 4
0.790891 -24.068268 58.652544 4
-0.986677 -21.985031 48.797742 4
-2.534081 -20.081413 18.218461 4
-2.636524 -19.946009 37.056875 4
1.680678 -25.009616 50.366635 4
-2.453982 -20.187283 34.360035 4
-3.665550 -18.594155 40.167796 4
-5.945341 -15.333230 17.312498 4
-5.428179 -16.100768 10.947102 4
-1.148324 -21.794095 20.356459 4
-0.330511 -22.760168 17.209678 4
-5.028738 -16.693604 58.703484 4
-1.881626 -20.927838 18.786277 4
2.966600 -26.370052 33.060391 4
-5.665043 -15.749229 11.280584 4
-6.363561 -14.712557 33.363600 4
3.465745 -26.898098 1.809609 4
3.221151 -26.639339 13.988878 4
-6.718528 -14.185713 18.797035 4
3.143665 -26.557355 3.518766 4
-6.145350 -15.036415 43.762091 4
-4.036606 -18.095454 54.969464 4
-6.494941 -14.517554 15.579002 4
-3.535173 -18.758221 4.746324 4
2.075359 -25.427155 7.575441 4
-4.133453 -17.968342 19.189855 4
-3.666733 -18.589726 43.217384 4
-6.249682 -14.881546 15.367729 4
3.165584 -26.580587 52.193142 4
3.181942 -26.597866 23.477357 4
-4.199648 -17.879952 43.037033 4
-0.720773 -22.299140 61.390443 4
-0.491696 -22.569774 36.189599 4
-2.691772 -19.872985 36.481497 4
2.946902 -26.349198 18.146132 4
0.512421 -23.755932 62.082931 4
-0.183589 -22.933722 11.829729 4
-1.677568 -21.168889 29.675907 4
-0.392559 -22.689877 63.889893 4
-5.845581 -15.481300 40.557221 4
-4.428697 -17.577207 18.244379 4
-1.583437 -21.280090 4.785303 4
2.749951 -26.140863 50.784713 4
1.012037 -24.302226 25.923500 4
-5.746223 -15.628748 18.135486 4
0.080987 -23.246273 25.860381 4
-1.971272 -20.821940 41.901035 4
2.065728 -25.416972 38.483785 4
-3.404557 -18.930862 28.552869 4
-2.962600 -19.515018 34.453016 4
-4.694996 -17.188915 36.203523 4
-4.883245 -16.909530 33.533264 4
-5.164876 -16.491554 53.010643 4
-3.899919 -18.276118 12.571356 4
1.531989 -24.852306 47.040360 4
-2.271171 -20.428914 32.435567 4
-4.812119 -17.015092 61.559276 4
-0.771259 -22.239515 14.528640 4
-4.698896 -17.183125 14.456695 4
-5.604446 -15.839196 64.071729 4
-1.136782 -21.807725 14.312141 4
-2.413667 -20.240569 31.872198 4
1.007796 -24.297739 30.697039 4
-6.474588 -14.547757 12.710232 4
-2.476320 -20.163876 63.362796 4
-3.550913 -18.737419 57.855411 4
2.512554 -25.889679 5.171495 4
1.397841 -24.710383 36.033446 4
-0.786318 -22.221736 29.882684 4
0.583752 -23.840181 37.635022 4
2.167443 -25.524573 8.202822 4
-5.664461 -15.750092 4.226438 4
-2.918263 -19.573621 33.537623 4
-6.749042 -14.140425 62.637988 4
-5.637062 -15.790787 61.255274 4
-0.711889 -22.316410 44.617781 4
-6.048968 -15.179432 11.202863 4
-4.607517 -17.318741 0.895681 4
-6.703821 -14.207542 34.123406 4
-2.167683 -20.565698 53.189787 4
0.339775 -23.551983 36.290355 4
-1.938051 -20.861184 46.766589 4
0.781158 -24.057971 7.543414 4
-1.530587 -21.342517 57.537612 4
2.676194 -26.062806 24.428551 4
1.760752 -25.094320 13.304900 4
-6.060319 -15.162586 10.151814 4
-4.743588 -17.116800 44.918023 4
2.250993 -25.612979 43.313122 4
-2.935158 -19.551289 11.403829 4
-0.159446 -22.962240 8.729568 4
1.491365 -24.809326 7.306205 4
-1.058818 -21.899812 43.561592 4
3.093573 -26.504367 14.996250 4
-5.749510 -15.623872 28.321394 4
2.599426 -25.981605 40.891184 4
-0.386000 -22.694619 16.214698 4
-0.838591 -22.159964 52.888572 4
-4.722133 -17.148640 45.513658 4
-3.698716 -18.542061 53.986609 4
1.755613 -25.088884 18.526998 4
2.792331 -26.185706 58.606156 4
2.407892 -25.778986 58.602258 4
-6.475847 -14.545895 19.156670 4
-5.412246 -16.124418 26.854456 4
-2.813158 -19.712542 0.549548 4
-2.738284 -19.811507 46.464417 4
-4.317291 -17.724458 48.867520 4
-0.118403 -23.010745 42.537625 4
2.969441 -26.373069 44.579537 4
-2.340086 -20.337824 7.569363 4
1.366454 -24.677177 17.509222 4
-4.732734 -17.132908 40.466273 4
-6.189652 -14.970676 55.473148 4
1.687920 -25.017268 10.097370 4
-1.818110 -21.002869 15.760270 4
-3.999541 -18.144445 52.976317 4
2.706462 -26.094822 3.131697 4
2.131369 -25.486410 4.428620 4
1.270955 -24.576146 41.255119 4
-6.209515 -14.941160 16.681291 4
-0.152334 -22.983107 60.383616 4
-2.385817 -20.277380 3.343726 4
2.331889 -25.698561 40.079555 4
-0.585280 -22.459216 23.315817 4
0.148123 -23.325586 35.471649 4
-5.746512 -15.628319 12.255150 4
-5.876563 -15.435308 24.325488 4
-6.169523 -15.000509 -0.246632 4
3.041246 -26.449003 10.434483 4
-0.838829 -22.168748 35.786494 4
-1.383554 -21.516458 25.223555 4
-6.527506 -14.469230 31.094787 4
-1.236304 -21.690150 53.537282 4
2.876876 -26.275156 63.409465 4
1.967740 -25.313300 10.742053 4
-1.042145 -21.919526 24.301025 4
-6.344308 -14.741105 1.557645 4
-0.950002 -22.028375 26.731187 4
3.410443 -26.839607 19.444588 4
3.165074 -26.580045 49.677592 4
-5.938699 -15.343128 60.949191 4
-0.648983 -22.383969 30.809073 4
-4.827794 -16.991827 39.646447 4
-2.589612 -20.008014 13.330791 4
-1.331655 -21.577512 36.206187 4
-2.050718 -20.720297 39.010406 4
1.033636 -24.325078 56.353785 4
-1.668720 -21.179342 27.886557 4
1.303679 -24.610773 56.796067 4
-6.452768 -14.580157 57.416580 4
-1.216339 -21.713739 3.413701 4
2.077716 -25.429648 10.467832 4
-3.812083 -18.406936 24.044005 4
-1.522989 -21.351492 50.582921 4
1.875339 -25.215545 16.965467 4
-1.337380 -21.570750 39.883567 4
-3.975225 -18.176584 32.703435 4
-4.414227 -17.596333 7.381065 4
-5.766540 -15.598594 15.379179 4
-3.494602 -18.830797 39.111350 4
-2.005102 -20.780590 48.123357 4
-6.302704 -14.802882 40.102669 4
-2.132064 -20.612778 27.624793 4
-5.126351 -16.548729 43.593902 4
-3.873013 -18.312351 18.131886 4
-3.183519 -19.223019 30.131232 4
1.974319 -25.320278 52.781121 4
-2.697547 -19.865352 35.145564 4
-6.545789 -14.442094 40.728832 4
1.834179 -25.172003 39.981764 4
-6.458940 -14.570988 19.485245 4
2.191197 -25.549737 63.748916 4
1.031860 -24.323198 45.176136 4
-0.192560 -22.923118 0.689631 4
-2.745020 -19.802605 41.244211 4
0.667257 -23.937471 29.570938 4
-2.614200 -19.975515 47.952180 4
0.580368 -23.836184 31.011216 4
-4.608316 -17.317557 36.629734 4
-1.025509 -21.945098 32.323083 4
1.227824 -24.530516 16.091163 4
-1.348410 -21.562565 20.005085 4
-2.729104 -19.823641 29.519150 4
0.307927 -23.514377 59.748869 4
-5.996391 -15.257461 4.017828 4
-6.238025 -14.898879 48.937111 4
-0.585748 -22.458656 13.466483 4
-5.774329 -15.587034 11.883541 4
-5.606349 -15.836339 10.114580 4
-4.284782 -17.767427 46.407541 4
1.646956 -24.973931 24.924579 4
-3.405400 -18.937021 57.367487 4
-3.086247 -19.351588 19.450447 4
1.390037 -24.702126 30.856818 4
-4.960384 -16.795049 53.097774 4
1.655308 -24.982785 61.031343 4
-1.292234 -21.630194 20.566491 4
-1.098255 -21.853229 1.476863 4
-3.735212 -18.501118 36.897425 4
-5.564302 -15.898769 60.241327 4
-5.221087 -16.408126 34.923096 4
-3.039486 -19.436008 63.328822 4
-2.190562 -20.535457 -0.665214 4
-3.720487 -18.513285 58.502944 4
2.084132 -25.436464 61.770325 4
-0.679357 -22.348079 17.769399 4
-2.982159 -19.489167 42.162299 4
-4.119212 -17.986270 39.502629 4
3.213902 -26.631679 23.867170 4
-4.887097 -16.903815 44.401453 4
-6.440512 -14.598347 57.061709 4
2.962792 -26.366018 27.842426 4
-1.414101 -21.480123 2.071561 4
-5.994891 -15.259726 55.227239 4
2.384238 -25.753943 39.750115 4
-1.234026 -21.692853 14.015521 4
-5.033674 -16.686279 61.133705 4
-0.840892 -22.157254 9.166364 4
2.170334 -25.527641 39.338499 4
-2.897512 -19.601048 32.996119 4
1.109089 -24.404902 54.583314 4
-4.500064 -17.478216 37.832807 4
-4.271506 -17.784974 35.893325 4
-4.903259 -16.879825 26.387000 4
-5.842309 -15.486169 52.075146 4
-2.771634 -19.767427 33.719648 4
-2.724828 -19.829293 39.999313 4
-1.099076 -21.852273 21.426920 4
-0.836829 -22.162049 1.761657 4
-5.442723 -16.079182 11.815078 4
-2.573367 -20.029486 34.158887 4
0.432856 -23.661948 50.506747 4
-0.706069 -22.316533 29.648130 4
-3.587552 -18.702992 38.743609 4
-6.748533 -14.141179 21.217774 4
-4.986122 -16.756843 14.901341 4
-4.590089 -17.344608 8.720883 4
2.137248 -25.492644 45.444737 4
0.079244 -23.244207 15.839048 4
-1.102593 -21.848101 58.261804 4
-6.078278 -15.135969 53.377670 4
2.374668 -25.743804 23.621727 4
-3.253633 -19.149110 42.602621 4
1.774474 -25.108837 25.871661 4
2.015231 -25.363542 5.245107 4
-5.489676 -16.009498 9.196860 4
-1.728986 -21.108150 42.749482 4
-3.156377 -19.258893 6.237527 4
3.354007 -26.779942 64.099891 4
-1.033754 -21.930694 38.807819 4
-5.175165 -16.476283 45.045072 4
-3.631065 -18.631476 13.486232 4
1.272474 -24.577766 64.203898 4
-0.320220 -22.772330 25.687152 4
-0.700962 -22.330474 43.393730 4
0.896319 -24.179804 51.976217 4
-6.625456 -14.323851 17.427804 4
-6.161356 -15.012630 0.352694 4
-2.348008 -20.327354 2.726753 4
-1.366108 -21.536814 64.213452 4
0.223204 -23.414259 3.976059 4
-6.641765 -14.299644 8.393834 4
1.253464 -24.557641 22.539233 4
-0.433825 -22.651136 47.437868 4
1.470899 -24.787687 59.340878 4
1.978354 -25.324529 26.759467 4
-4.521379 -17.446582 54.386512 4
-2.400175 -20.258403 41.317326 4
-6.538495 -14.452920 20.232226 4
-3.377174 -18.977959 55.161230 4
-5.801977 -15.546001 11.572752 4
-2.788324 -19.781927 63.697915 4
1.749108 -25.082001 33.169759 4
-0.599908 -22.442495 36.504282 4
-2.654433 -19.922337 1.592773 4
2.232988 -25.593916 2.945584 4
-5.000192 -16.735965 37.790845 4
-2.635045 -19.947963 42.651290 4
-2.216371 -20.501346 46.463928 4
-0.499058 -22.561071 25.768313 4
1.996630 -25.343864 9.596378 4
-6.737710 -14.157243 11.169223 4
-5.548972 -15.921496 17.956526 4
2.928676 -26.329945 49.268770 4
-2.585151 -20.013911 28.965439 4
2.286740 -25.650800 45.308416 4
-4.108660 -18.000216 37.522082 4
-4.274287 -17.781299 59.157528 4
-2.677814 -19.891433 39.082951 4
-3.129598 -19.294289 17.099720 4
-6.289272 -14.822818 57.665432 4
-6.415416 -14.635573 9.449625 4
-0.649443 -22.394802 40.528467 4
0.265015 -23.463672 40.428630 4
-4.019901 -18.117533 0.581885 4
-4.051801 -18.075368 9.599642 4
3.277120 -26.698584 48.472915 4
-4.986424 -16.756395 22.512037 4
-4.715982 -17.157768 20.102477 4
-5.204415 -16.432865 12.754399 4
-5.864874 -15.452664 37.925398 4
-2.208222 -20.512115 6.497932 4
2.929870 -26.331211 52.205524 4
3.254312 -26.674434 26.759044 4
0.541907 -23.790754 27.478962 4
-2.261679 -20.441459 64.016265 4
-1.829952 -20.988880 24.050585 4
0.738902 -24.013267 28.816866 4
1.606161 -24.930790 61.490228 4
-5.542134 -15.931671 62.733923 4
1.814116 -25.150786 48.476461 4
-6.544560 -14.443918 45.894976 4
-5.825251 -15.511458 9.170136 4
-2.104605 -20.649071 4.301054 4
3.348456 -26.774057 51.048756 4
3.204977 -26.622257 46.341173 4
-0.607684 -22.432738 4.778742 4
0.342406 -23.555069 2.019193 4
-6.030159 -15.207356 31.579555 4
