0.031266 -0.390445 0.306208
-0.120809 -0.400666 0.293021
-0.014250 -0.264996 0.419201
0.266402 -0.398231 -0.300422
-0.099042 0.498385 -0.014805
-0.227371 -0.326609 0.373254
-0.205816 -0.416091 0.270966
-0.246274 -0.193067 0.456598
0.044072 0.243686 -0.436730
-0.222924 -0.109655 0.483491
0.055658 -0.079457 0.489376
-0.032935 -0.140198 -0.479844
0.198148 0.032596 0.494823
0.270322 0.363295 -0.343378
-0.084595 0.489219 0.093487
0.255824 0.497443 -0.035801
-0.002916 0.392357 -0.309450
0.012757 0.451368 0.209393
-0.244431 0.207016 -0.455529
-0.168809 0.252547 0.427348
0.090500 -0.006363 0.495718
0.128251 -0.462358 -0.185931
-0.028324 -0.153596 -0.475756
-0.228517 -0.494277 -0.059771
-0.222002 -0.023307 0.495413
-0.027951 0.299035 -0.400711
-0.105911 0.408688 0.283330
0.265224 0.134372 -0.481787
-0.199809 0.181675 0.461684
-0.247324 -0.389197 -0.312396
0.088465 0.491969 -0.082375
0.089249 0.064575 0.491737
0.111968 -0.294743 0.398822
0.162752 -0.495844 0.039289
0.117973 -0.382822 -0.320087
-0.110541 0.017492 0.495500
0.276679 -0.102456 -0.489512
-0.274306 -0.379060 0.320486
-0.018320 0.060355 0.492194
-0.209744 -0.444866 -0.224862
0.133013 0.493210 0.069879
0.006985 0.001538 -0.500177
0.035348 0.409537 0.282044
-0.140895 -0.493189 0.063858
-0.258882 0.133561 -0.482011
-0.108654 0.442394 0.227605
0.283558 0.002339 0.495875
0.070031 -0.492346 -0.073123
-0.216270 -0.497107 0.016093
-0.116715 -0.455125 -0.203280
-0.028473 -0.094900 -0.491014
-0.005083 0.089683 -0.492243
-0.038803 0.498354 -0.015493
0.166523 -0.175625 0.463795
0.166684 0.337333 -0.369205
-0.010714 -0.073125 0.490292
-0.275612 -0.014220 -0.499955
-0.037171 0.371759 -0.334033
0.009670 0.322919 0.377600
0.005907 0.495662 0.052385
-0.108467 -0.241532 0.433024
0.007924 -0.332543 0.368162
0.097399 -0.099889 -0.490122
0.107195 -0.163509 -0.472469
0.245900 -0.283456 -0.411209
-0.286351 -0.173367 -0.468770
0.270322 -0.427807 0.251835
-0.255328 0.497645 -0.031300
0.059444 0.159184 -0.474174
0.238347 -0.290756 -0.406103
-0.262479 0.294438 -0.404179
0.125364 -0.443993 -0.226635
0.206800 -0.211367 0.448527
0.208949 -0.480003 -0.132756
-0.245104 -0.029622 -0.499264
-0.152176 -0.481023 0.125197
0.224627 0.161996 -0.473203
-0.172572 -0.174800 -0.468233
0.140939 -0.432437 0.244240
-0.002771 -0.493805 0.058156
0.080759 0.476239 0.145681
0.110076 0.108361 0.483999
0.096213 0.447395 -0.222223
-0.148626 -0.428027 -0.255836
-0.277583 -0.326869 0.373031
-0.168700 0.288143 0.404294
-0.259568 0.013094 -0.499969
-0.117257 -0.409364 -0.285107
0.224701 -0.016747 0.495531
-0.287544 -0.276920 -0.415780
-0.070244 -0.370975 0.329414
0.087943 -0.482309 -0.124405
-0.116646 -0.245275 -0.435506
-0.262663 -0.495088 -0.051172
0.098257 0.103335 0.485194
0.276653 -0.371729 0.328582
0.071621 -0.375602 -0.328501
-0.218164 -0.263167 0.420409
-0.128952 0.404010 0.289767
-0.289259 -0.497582 0.005506
-0.269775 -0.488713 -0.095361
-0.263903 0.489973 0.089888
0.129723 -0.214362 0.447051
0.136142 -0.297681 -0.401260
-0.289351 -0.497246 -0.016614
-0.092370 0.217975 0.446013
-0.230131 0.350982 0.351653
-0.240698 -0.435754 0.238031
0.262833 0.412332 -0.282159
0.172816 0.450038 -0.216665
0.154197 0.392356 0.305214
0.140660 0.190655 0.458273
0.245998 -0.232553 -0.442205
-0.261859 0.456225 -0.202877
-0.278639 0.185037 -0.464726
-0.024222 0.484733 -0.118253
0.122666 0.493809 0.065742
-0.272260 0.205616 0.451560
0.136227 0.387291 0.311719
0.229197 -0.150780 -0.476615
-0.217183 0.390566 0.307587
0.264194 -0.491373 -0.079848
0.123258 0.432667 -0.249897
-0.010755 -0.189776 -0.462561
0.031807 0.047967 -0.497902
-0.121091 -0.235475 0.436497
0.285460 -0.383507 0.314910
-0.050037 0.281253 0.409113
0.140299 0.485395 -0.115466
-0.081050 -0.394892 0.300631
0.274931 0.496270 -0.049181
0.268892 0.463804 0.180568
-0.243809 0.417372 -0.274953
-0.257051 0.498223 0.014960
0.222952 -0.484579 -0.115094
-0.257367 0.448014 -0.221047
0.267584 0.493604 -0.072879
0.247137 -0.373528 -0.330918
0.145303 -0.316939 -0.385905
-0.184294 -0.477861 -0.140517
0.050536 0.070721 -0.495142
0.176207 -0.486369 -0.106551
-0.070285 -0.254459 0.425611
0.107715 0.069263 -0.495352
-0.044054 0.235471 -0.441441
-0.062376 0.134957 -0.481625
-0.093275 0.317561 0.381873
-0.090343 0.082037 0.489051
-0.055413 -0.488845 0.090215
0.286233 -0.495476 -0.046374
0.192618 -0.343901 0.357460
-0.243294 -0.062859 0.491777
-0.129882 -0.080860 -0.493431
0.020926 0.200141 0.454016
0.035722 -0.309578 -0.391775
0.205153 -0.363635 -0.341956
0.009245 -0.326720 -0.377612
0.024045 -0.281914 -0.412287
0.201054 -0.070601 0.490657
-0.074723 0.326113 0.374736
-0.042412 -0.224730 0.441942
0.179016 -0.368511 -0.336765
-0.102626 -0.464889 -0.179861
0.154163 -0.373787 0.326310
0.256932 -0.420330 0.264100
0.131784 -0.488495 0.092248
0.072200 -0.284747 0.406162
-0.017040 -0.016998 0.495527
0.211999 -0.357900 -0.347848
-0.050398 -0.230825 0.438939
0.179555 0.458930 -0.196850
-0.220106 0.121718 -0.485280
0.059685 -0.022426 0.495429
-0.058658 0.467495 0.171030
-0.241683 0.359311 -0.347777
-0.003985 0.083285 0.488837
0.074440 0.038497 0.494556
0.033060 0.028960 -0.499442
-0.151330 0.116900 -0.486542
0.151230 0.329368 0.371788
0.049069 -0.497232 -0.017412
-0.246214 -0.450070 0.209955
-0.170496 -0.447843 0.214918
0.057608 -0.285203 -0.409987
0.150675 -0.155083 -0.475302
-0.051047 0.494662 0.059844
0.132013 -0.416376 0.270558
0.038570 0.464453 -0.183126
-0.276704 -0.441648 -0.231392
-0.145682 0.369407 0.332562
-0.167245 -0.459356 0.189263
-0.076619 0.124539 -0.484501
-0.218951 0.275858 0.412886
-0.289645 -0.240953 0.433355
0.035973 -0.107208 -0.488383
-0.127268 0.039881 0.494406
-0.128654 -0.345065 -0.360996
0.216461 0.480596 -0.134967
0.078496 -0.363349 0.337834
0.282738 0.226297 -0.446028
-0.188490 0.322601 0.377854
0.169262 0.377791 0.322792
-0.288617 0.165341 -0.472050
0.197885 -0.022961 -0.499563
-0.091849 -0.385326 -0.317169
-0.261414 -0.251882 -0.431482
-0.115223 0.482965 -0.125691
-0.106704 0.487007 0.104044
0.098959 -0.198037 0.454525
-0.276003 -0.481391 -0.127728
0.157721 0.424879 0.258761
0.200547 -0.436695 -0.240721
0.127699 0.415572 -0.277526
0.118082 -0.406563 -0.289350
0.269945 -0.369967 -0.335069
0.285562 -0.496738 0.024322
-0.046289 0.414431 -0.279159
-0.047214 -0.145344 0.474122
-0.056000 0.498362 0.007228
0.060743 0.492619 0.073965
0.082116 0.265266 -0.424053
0.013752 0.196330 -0.460018
-0.236599 0.474665 0.150247
0.006962 0.281099 -0.413601
0.000967 0.406363 -0.290695
-0.183978 0.026132 0.495113
0.219086 -0.496257 -0.036744
0.204198 -0.280825 0.408751
0.280808 0.359522 -0.347544
0.071477 -0.495255 -0.049111
0.175179 -0.221521 -0.448013
0.264034 0.207754 -0.455165
0.028087 0.155976 -0.475280
-0.040966 0.299783 0.396049
0.262881 0.377610 0.323002
0.071270 0.473754 0.152886
-0.097255 -0.101416 -0.489759
-0.039370 0.327535 0.373448
-0.187240 0.489248 0.093346
0.073249 0.052999 -0.497494
-0.102729 -0.416477 -0.274334
0.104876 -0.461362 0.184279
-0.249970 -0.107779 -0.488247
-0.213540 0.251867 -0.432038
-0.196742 0.301597 0.394602
0.121746 -0.428810 0.250189
-0.114114 -0.220119 -0.448751
0.134082 -0.497064 -0.026759
-0.061100 0.097443 -0.490618
-0.134766 -0.449868 -0.214711
0.237207 0.424936 0.258662
-0.207155 -0.375433 -0.328698
-0.209861 -0.491719 -0.077454
-0.034407 0.423294 0.261205
0.284878 0.450918 0.210308
-0.188295 0.011763 -0.499993
0.273819 0.493260 0.069537
-0.141246 -0.256167 -0.428869
0.147297 -0.166097 -0.471498
0.068468 -0.479566 -0.134341
-0.132802 0.493388 -0.074130
-0.210538 0.481239 -0.132861
0.041236 0.202973 0.452746
-0.095877 -0.451677 0.206375
0.226604 -0.461640 -0.187655
-0.089454 0.497035 0.035428
0.139128 -0.446150 0.218287
0.090353 0.059834 -0.496717
0.043408 -0.497077 -0.026007
-0.273451 -0.342641 -0.363192
-0.277745 -0.412262 0.276441
-0.192882 -0.459365 0.189243
0.282045 0.080733 -0.493693
-0.007903 0.447576 0.217088
-0.268908 0.475144 -0.152838
-0.133510 -0.011660 -0.500070
-0.002654 -0.045652 -0.498025
-0.201892 -0.472811 0.152769
0.033089 -0.080659 -0.493466
-0.003117 0.442528 0.227333
0.155088 0.151944 0.472219
0.219582 -0.325339 0.374344
0.183671 -0.300099 -0.399333
-0.072238 -0.096847 0.486175
-0.241474 -0.218723 -0.449486
0.232441 -0.401610 -0.295943
-0.123548 -0.450702 0.208546
-0.259962 0.482868 -0.126100
-0.210741 -0.351850 0.349721
0.102046 0.144286 0.474556
-0.099449 0.494285 -0.067545
0.186632 0.498424 0.003769
0.227569 0.399564 -0.300411
-0.176886 0.458979 -0.196739
-0.149325 0.444842 -0.227072
0.184510 -0.224369 0.442120
0.046138 -0.487433 0.098225
-0.201427 0.399890 0.295228
0.118916 0.340781 -0.365849
0.026101 0.424890 0.258741
-0.138181 -0.109326 0.483560
-0.160448 0.121170 0.480955
0.068551 -0.322629 0.376669
0.210989 -0.491991 0.071939
-0.020813 -0.377368 0.322356
-0.004855 -0.344599 -0.361418
-0.266515 0.480320 -0.135874
-0.154638 0.254209 -0.430695
0.265248 -0.302422 0.393029
0.178526 0.430857 0.248336
0.058309 0.217779 -0.450225
0.168580 0.270754 -0.420430
-0.150321 -0.385152 0.312847
-0.075923 -0.176638 0.463446
-0.275819 0.247269 0.430565
-0.254139 -0.181556 -0.465697
-0.069664 0.384970 -0.318713
0.167931 0.232449 0.438445
-0.148928 0.393362 -0.308189
-0.170079 -0.491567 -0.078504
0.232607 0.208749 -0.454675
-0.090414 -0.497288 -0.014279
-0.281013 -0.457619 0.193133
0.094117 -0.417388 -0.272953
-0.259628 0.492307 0.076120
0.099833 -0.492295 0.070173
0.242353 0.134948 0.477405
-0.147982 -0.497142 0.015305
0.284979 0.005782 -0.500101
-0.084586 0.464291 -0.183557
0.200269 0.345264 -0.361484
-0.145381 -0.188206 -0.463202
-0.150921 0.361612 -0.345236
0.263775 0.486866 -0.109279
0.062752 -0.268451 0.416920
-0.235707 -0.467617 -0.172060
0.236718 0.437216 -0.241555
0.208324 0.330073 -0.375514
0.095373 0.341581 -0.365069
0.166533 -0.460859 0.185619
-0.189965 0.273783 0.414337
-0.163289 -0.241886 0.432821
-0.193768 -0.242546 -0.436943
0.119468 -0.188522 -0.463084
0.123884 -0.006398 -0.500305
0.124546 0.496243 0.045202
-0.042307 0.097088 -0.490692
0.008646 0.090567 -0.492058
0.024704 -0.104064 0.484663
0.083845 0.051650 -0.497603
0.267883 -0.296785 -0.401887
0.159524 -0.195527 -0.459980
-0.121039 0.211420 -0.453359
-0.069511 -0.201612 0.453035
0.020555 0.309865 0.388010
0.194976 0.402492 0.291779
0.242830 -0.318776 -0.384440
-0.056666 0.045375 0.493812
0.130059 0.498139 0.019625
-0.056581 0.497762 0.026457
0.129596 0.370532 0.331251
0.012561 0.498604 -0.006221
-0.255621 -0.078639 -0.493813
-0.280281 -0.235862 0.436275
0.208929 -0.097574 -0.490554
0.181902 -0.488849 -0.094715
-0.156968 -0.423948 0.258165
-0.035545 -0.494546 0.051298
-0.007501 0.301715 -0.398689
0.050976 0.417078 -0.275373
-0.251312 0.016942 0.495525
0.279822 -0.425126 0.256232
-0.263599 -0.440075 -0.234586
-0.158463 0.482323 -0.128396
-0.047230 0.005538 0.495933
0.120638 -0.102446 -0.489515
0.168506 0.321278 -0.383061
-0.270941 0.494602 -0.064619
0.193775 0.394790 0.301988
-0.066198 0.488200 -0.103663
-0.287378 -0.056469 -0.496856
0.137872 0.332329 0.369106
-0.082485 0.119308 0.481398
-0.248046 -0.472668 0.153241
0.220497 0.000939 0.495850
-0.217461 0.102939 -0.489466
0.225431 0.385006 0.314382
0.184859 -0.152111 -0.476209
0.181410 -0.128528 0.478764
-0.039685 -0.110405 -0.487623
-0.033294 -0.388231 -0.313677
-0.025312 0.202605 0.452911
0.242638 0.293063 0.400853
0.187274 -0.362021 0.339300
-0.196868 -0.484293 0.111439
-0.277975 0.019468 0.495412
0.280448 -0.007891 -0.500239
-0.075786 0.192215 -0.461734
-0.207830 0.495778 -0.053738
-0.230895 -0.199408 -0.458239
-0.083722 0.315631 -0.387906
-0.068479 -0.445773 0.219004
0.272636 -0.351260 -0.354668
0.190235 0.496778 -0.044480
0.070460 0.078520 -0.494013
0.142947 0.113051 -0.487348
-0.194928 0.119764 0.481289
-0.031159 -0.118772 0.481457
-0.113464 0.472834 -0.160407
0.034913 -0.288097 -0.407963
0.127540 0.112352 -0.487494
-0.097526 0.091478 0.487426
0.286401 -0.447386 0.215937
0.208245 0.252105 0.427617
0.207593 -0.380834 0.318261
0.276842 -0.273967 0.413279
0.033820 0.496718 0.039349
-0.241274 0.047510 -0.497939
-0.049607 0.239855 0.434546
0.253764 -0.019419 0.495483
-0.142761 0.408117 -0.288186
0.167205 -0.449941 0.210242
-0.124118 0.322937 -0.381637
-0.080222 -0.426298 -0.258852
0.016697 0.051648 0.493134
-0.114367 -0.292672 0.400385
-0.152111 0.495015 -0.060793
0.285833 0.365762 -0.340654
-0.058479 -0.483654 0.114127
-0.033124 -0.492893 0.066597
-0.061866 0.045748 -0.498081
-0.046167 -0.161228 0.468761
0.071362 0.486027 -0.112807
0.157404 -0.388915 -0.312770
-0.164299 0.424838 -0.262740
-0.072188 0.420121 0.266013
-0.090229 0.108437 0.483981
-0.025118 0.355752 -0.351273
0.244228 -0.493989 -0.061766
0.115689 0.172492 -0.469583
0.270931 -0.208845 -0.454004
0.082671 -0.020759 0.495459
-0.265428 0.024716 -0.499760
-0.041043 -0.486790 -0.104544
0.170046 -0.272292 -0.419017
-0.122049 -0.496909 0.020509
-0.274748 -0.160362 -0.473650
-0.136757 -0.237885 -0.439397
-0.049385 -0.002605 -0.500252
0.092232 0.202733 -0.457348
0.148618 -0.483171 -0.121279
-0.005704 -0.494288 -0.059694
0.107736 -0.272537 0.414223
0.261805 -0.430251 -0.251958
-0.264792 0.367015 0.335184
0.154307 -0.272608 -0.418795
0.107476 0.057242 -0.497092
-0.225080 -0.359835 -0.345861
-0.024216 0.493027 -0.076226
-0.056643 0.365778 -0.340637
-0.034561 0.149548 0.472951
0.030802 0.088468 -0.492498
-0.224278 0.276335 -0.416746
0.077237 0.092299 0.487285
-0.262890 -0.457506 -0.197569
-0.254894 -0.183671 0.460515
-0.035435 -0.072155 -0.494930
-0.236932 0.125566 0.479910
0.197994 0.489504 0.092128
0.267305 -0.020191 0.495469
0.192693 -0.369600 0.330932
0.047587 -0.139606 0.475706
0.101256 0.489927 -0.094236
-0.161492 0.175319 -0.468608
0.107821 0.306397 -0.395157
-0.243306 0.487471 -0.106730
-0.172993 -0.409241 -0.285293
0.040252 0.016964 -0.499899
0.173363 0.004576 -0.500122
-0.263666 -0.401039 -0.296701
0.044191 0.457809 0.194947
0.286007 0.052510 0.493041
-0.155529 0.174322 0.464443
0.164589 0.489359 -0.097534
-0.167154 0.314779 0.384091
0.083135 -0.445950 -0.222663
-0.033169 0.491429 -0.085514
0.080224 -0.068871 -0.495495
-0.060548 -0.258095 -0.427694
-0.071637 0.435968 -0.243926
0.159822 0.058695 0.492373
-0.133977 0.084512 -0.493146
0.066881 -0.436339 0.236922
-0.192984 0.461175 0.186872
0.284345 0.304645 0.392171
-0.277189 0.292753 0.401070
-0.226391 0.110930 -0.487792
0.070795 0.089311 -0.492321
0.022255 -0.495967 0.038150
-0.141934 -0.440536 -0.233649
0.137932 -0.363650 -0.341941
0.229302 0.498118 0.020746
0.163179 -0.062427 -0.496212
-0.285953 -0.080210 0.489267
0.056634 -0.257312 0.423975
-0.161435 0.282126 0.408503
-0.131162 0.476960 -0.146885
0.079410 -0.139358 -0.480100
0.160232 0.264057 -0.424851
0.093813 0.154986 -0.475622
-0.163542 0.495749 -0.053999
0.237426 0.496612 0.040654
-0.215802 0.226815 0.441412
-0.217086 -0.334686 -0.370397
0.237731 0.431458 0.247288
-0.053814 -0.298161 -0.400878
0.064838 0.346853 0.355894
-0.141891 -0.308190 0.388678
-0.289099 0.493598 0.067200
0.214305 0.163653 0.468446
0.057129 -0.226362 -0.445464
-0.199502 -0.416113 -0.274884
0.052469 0.051189 -0.497641
-0.014851 -0.202793 0.452543
0.037302 0.472347 0.156966
0.286324 0.498091 0.022290
0.060236 -0.415450 -0.275888
0.090558 -0.363724 0.337419
-0.236499 -0.482365 0.119550
0.165850 -0.187370 0.458973
-0.171979 0.028066 -0.499514
0.029163 -0.273708 -0.418027
-0.062066 0.007139 -0.500076
-0.025036 0.218908 -0.449669
-0.222935 -0.492875 -0.069463
0.211572 -0.226551 -0.445365
0.226161 0.496115 0.046784
0.260820 -0.487909 -0.099201
-0.054500 0.474689 0.150175
-0.274403 0.397104 -0.303497
0.243907 0.412045 -0.282569
-0.056449 0.488533 0.096759
0.247059 -0.487252 -0.102337
0.154376 0.435509 -0.244797
-0.132335 0.433286 -0.248881
0.239889 -0.476400 0.141009
0.138038 0.481981 -0.129831
0.134704 0.240704 0.434099
-0.027646 -0.211394 -0.452860
-0.103561 -0.489626 0.085678
-0.007253 -0.481297 0.124047
-0.211221 0.413957 -0.279836
0.009150 0.470206 0.163172
-0.224883 0.337752 0.364194
0.161154 0.465283 0.177019
-0.170036 -0.249900 -0.432690
0.043385 0.342112 0.360246
-0.229436 0.246694 0.430916
0.130307 0.063838 -0.496137
-0.165477 0.473099 -0.159539
0.164523 -0.370089 0.330393
0.284313 -0.041589 0.493982
0.180059 -0.408583 -0.286290
-0.185361 -0.282622 -0.411792
0.120621 -0.089030 -0.492025
-0.271546 -0.219209 0.444662
-0.132530 -0.327508 -0.376898
-0.036202 0.378592 -0.326489
-0.107896 -0.195915 -0.459807
0.283636 0.418451 -0.273216
-0.223547 0.444986 -0.226798
0.116275 -0.401207 0.292248
0.275857 0.062707 0.491939
0.185097 -0.210541 -0.453243
0.028926 0.107638 0.484171
-0.152874 0.488900 -0.100201
-0.167226 0.384921 -0.318775
-0.115465 0.266530 0.418823
-0.289401 -0.448574 -0.217336
-0.244328 0.497986 0.023700
0.156792 -0.400048 0.293905
-0.032232 0.495713 -0.054337
-0.040507 0.475456 0.147953
0.023164 -0.471521 -0.160742
-0.036320 0.398501 -0.301744
-0.239871 0.379746 -0.325216
0.082891 0.405934 0.287216
0.115458 0.271356 0.415881
0.243773 -0.130594 0.478194
-0.010325 -0.286375 -0.409167
-0.263947 0.399633 -0.300317
0.008669 0.400280 0.294711
0.019835 -0.251116 -0.431949
-0.242126 -0.489639 0.085604
0.275307 0.205591 -0.456157
-0.287104 -0.422353 0.260780
-0.219151 0.132652 0.478106
-0.020383 -0.076816 0.489758
0.109056 0.285157 -0.410921
0.264363 0.160636 -0.473673
0.271177 -0.496415 0.031523
0.247051 -0.049982 -0.497557
0.208985 0.490117 0.089201
-0.010595 -0.267256 -0.422109
0.166457 -0.395738 0.299571
0.186635 -0.463254 0.179238
0.078723 -0.117482 0.481813
-0.014843 0.028680 0.494999
0.113986 0.037571 0.494600
-0.143990 0.074304 0.490383
-0.076839 -0.163401 -0.472510
0.117939 0.247469 0.430443
0.216066 0.431354 -0.252051
-0.048378 0.328033 -0.377265
-0.120108 0.430330 -0.253730
0.074792 -0.457108 0.194272
-0.115108 0.462050 -0.189531
-0.010753 -0.492473 -0.072245
-0.274406 0.445481 0.221341
0.114023 -0.466265 -0.175979
0.126144 -0.372488 -0.332130
0.121097 -0.477964 -0.140145
0.019591 -0.483624 0.114256
0.285279 -0.493953 0.056782
0.008417 0.483197 -0.124717
-0.276079 0.464921 -0.181878
-0.154940 0.410531 0.280538
0.001384 -0.022705 -0.499574
0.034233 -0.489042 -0.093793
-0.265174 -0.369852 0.330654
-0.054510 0.116186 -0.486691
0.263096 -0.318949 0.379827
0.071820 -0.494364 0.052987
0.081284 0.378587 0.321864
-0.237052 -0.345190 0.356205
-0.029558 -0.044414 -0.498159
0.072263 0.176431 0.463652
0.164808 -0.205759 -0.455389
0.117469 0.498295 0.010948
-0.089025 -0.389113 0.307879
0.071773 0.389047 0.309600
-0.033150 -0.348539 0.352944
-0.091620 0.380395 -0.324451
-0.182987 -0.120402 0.481007
0.056317 0.343959 -0.362755
0.147161 0.444881 0.222558
-0.243648 -0.418623 0.266899
-0.217498 -0.284665 -0.410363
0.218982 0.093578 -0.491427
0.159190 0.458137 -0.198615
0.254824 -0.493062 -0.068173
0.230664 -0.481721 -0.126533
0.038946 -0.480547 0.127200
0.233111 -0.292373 0.400610
-0.042718 -0.469342 -0.167059
0.086496 -0.462369 0.181597
-0.271812 0.281517 -0.413325
0.217706 -0.185346 -0.464275
-0.250095 -0.060261 -0.496446
0.040288 0.107711 0.484154
-0.277134 -0.233764 -0.441567
0.233257 -0.187968 -0.463291
-0.180119 0.411947 0.278394
-0.195265 -0.432425 -0.248167
-0.187681 0.497576 0.028761
-0.186067 -0.027868 -0.499343
-0.289202 -0.414688 0.272972
-0.005023 0.278153 -0.415545
-0.211215 0.495075 0.056991
-0.262998 0.497114 -0.041372
-0.118861 -0.475099 -0.150371
-0.207144 -0.495893 0.038832
0.236757 -0.050496 0.493260
-0.039343 -0.345727 -0.360351
0.044721 -0.346033 0.355385
0.232021 -0.205543 0.451396
0.268505 -0.085581 0.488490
-0.156373 0.315278 0.383693
0.063572 -0.480057 0.129023
0.190258 -0.066660 -0.495755
0.275725 -0.188150 -0.463223
-0.034218 -0.447593 0.215474
-0.162672 -0.399143 -0.299213
-0.132209 0.491403 -0.085660
-0.127412 -0.473032 -0.156361
0.147360 0.469927 0.163981
0.060520 -0.494976 -0.052551
0.286137 0.105797 0.484609
-0.182378 0.430528 -0.253405
0.182864 -0.269141 -0.420960
0.181858 0.022826 -0.499794
0.030970 0.225548 -0.446397
-0.186100 -0.466131 -0.176367
0.215288 -0.027828 0.495097
0.223265 0.490422 -0.091359
-0.208471 -0.497564 0.001015
0.142952 -0.306661 0.389831
0.023448 0.430369 -0.253666
-0.195979 -0.206776 -0.454933
-0.071578 -0.482835 0.117576
0.003841 -0.275654 0.412165
0.059508 -0.455841 -0.201563
0.273430 0.455118 0.201403
0.026200 0.498602 -0.006117
0.059196 -0.154315 -0.475537
0.046032 0.469842 0.164228
0.072155 0.073875 0.490457
0.058218 0.088373 -0.492518
0.275470 0.363240 0.339062
0.219034 -0.298815 0.395751
-0.237491 -0.438878 -0.236914
0.004428 0.341426 0.360867
-0.059192 -0.039049 -0.498739
0.200150 0.293942 -0.404553
-0.119658 0.464138 0.179766
0.243798 0.015470 -0.499926
-0.028975 -0.084396 0.488661
0.197784 0.108616 -0.488277
0.284292 0.442551 -0.231423
0.234879 -0.486421 0.102485
0.201891 0.313094 -0.390083
-0.050997 -0.495962 0.038194
-0.060821 0.068397 0.491324
0.161775 -0.226381 0.441128
0.163175 0.288418 -0.408721
-0.048044 0.176005 0.463811
0.250040 0.481249 0.127604
0.231940 -0.470959 -0.162371
-0.136343 -0.226131 0.441252
0.272635 0.293132 0.400805
0.009965 -0.364242 -0.341333
0.110287 0.497774 0.026310
0.126539 0.281048 -0.413634
-0.098927 0.481905 0.125225
-0.093374 0.404131 -0.293886
-0.100259 0.473982 -0.156644
0.226825 -0.406128 0.285211
-0.196626 -0.463857 -0.182336
-0.147786 0.327889 -0.377389
0.186945 -0.287622 -0.408295
-0.231633 0.287600 0.404674
-0.190265 -0.448038 0.214484
-0.240024 0.362809 0.339504
-0.179232 -0.461980 -0.186839
-0.275821 -0.172496 -0.469097
-0.078698 -0.215550 0.446465
-0.024541 0.443340 -0.229924
-0.235817 -0.112299 -0.487173
-0.219910 0.217165 0.446377
-0.053178 -0.010171 0.495650
-0.188006 0.339734 0.362399
0.046919 0.151924 0.472226
-0.085314 -0.047273 0.493521
0.201032 -0.403426 0.289074
-0.140322 -0.279584 -0.413917
-0.263055 -0.006093 0.495723
-0.232798 -0.176514 -0.467589
0.116866 0.352182 -0.354749
-0.188780 -0.495735 0.040299
0.073226 0.033725 -0.499056
-0.035233 0.216679 -0.450767
0.074385 -0.497393 -0.008489
-0.220016 0.484792 -0.118005
-0.218447 0.139733 -0.480307
0.272949 0.498404 -0.014371
-0.072003 -0.000801 0.495819
0.054001 0.425105 -0.262301
0.286240 0.378112 -0.327020
0.038707 -0.383043 0.315492
0.054194 -0.466941 0.169412
0.248792 0.285203 0.406351
-0.040089 0.143231 -0.479341
0.279661 -0.482219 -0.124730
-0.263814 0.432181 0.246027
0.036383 0.322080 0.378269
0.091461 -0.113336 0.482720
0.103599 0.452696 -0.210740
-0.169497 0.239913 -0.438893
0.056376 0.243714 -0.436714
-0.279175 0.064264 -0.496076
0.255571 0.498299 0.010723
0.246719 0.302865 0.393591
-0.158442 0.260295 0.422624
0.042713 -0.476239 0.141536
0.023634 0.153697 0.471685
0.068421 -0.445302 0.219898
0.254458 -0.115379 -0.486441
-0.192584 0.465392 -0.180625
0.020559 -0.460706 0.186028
-0.229176 0.162304 0.468953
0.122748 -0.295690 -0.402653
-0.158114 -0.453060 -0.208232
0.206891 0.238564 0.435226
0.232476 -0.074726 0.490061
0.234128 0.073272 -0.494772
-0.289560 -0.297570 0.396690
-0.192978 -0.347693 0.353769
-0.130364 0.201236 -0.457972
0.116491 -0.337048 -0.368257
0.162330 0.477714 -0.144415
0.102360 0.470336 0.162795
0.107339 -0.474004 0.148860
0.147375 0.210502 0.449367
0.269619 0.050477 -0.497698
0.242727 -0.099689 0.485579
0.257067 -0.496972 -0.027918
-0.145360 0.166450 -0.471667
0.275234 0.427635 0.253954
-0.258952 -0.153791 -0.475697
-0.164200 0.305399 0.391571
0.226965 0.460436 -0.193492
0.022781 -0.486222 0.103322
0.035067 -0.448793 -0.216893
-0.137889 0.495369 0.054953
-0.252670 0.492405 -0.079841
0.202723 0.497321 0.031908
0.167818 0.497270 -0.039653
0.140290 -0.395517 0.299848
-0.034308 -0.156016 0.470559
-0.083994 -0.329026 0.371180
-0.211573 0.487084 -0.108359
-0.253164 0.498642 -0.008298
-0.219400 -0.423853 0.258320
-0.045934 0.269951 0.416738
0.178723 0.225477 0.442116
-0.074084 0.498516 -0.011883
0.069085 0.011681 0.495761
0.253321 0.494047 -0.069755
-0.224037 -0.308146 -0.392916
0.136594 0.102099 -0.489642
-0.168206 0.454182 0.203647
-0.214754 -0.145236 -0.478307
0.039558 -0.491486 -0.079064
-0.213984 0.449823 0.212529
-0.272386 -0.027419 0.495130
0.125525 -0.495112 -0.050868
0.090372 -0.467570 -0.172195
-0.203594 0.485979 0.108950
-0.154430 -0.469383 0.162904
-0.002941 -0.356950 -0.348823
-0.011896 -0.474223 0.148142
0.271560 0.450366 -0.215932
-0.200177 -0.099744 -0.490157
0.250595 -0.459903 -0.191820
0.023961 -0.421257 -0.267093
-0.270920 -0.486030 -0.108172
0.184755 -0.078396 0.489530
0.223325 0.424848 0.258814
0.028520 0.057670 0.492484
0.219258 0.297527 -0.401849
0.159778 -0.496978 -0.027839
-0.006319 -0.158566 -0.474240
0.183365 -0.026560 0.495200
0.177158 0.478462 0.137699
0.032595 0.473194 -0.159227
0.065994 -0.451790 -0.210810
-0.184714 -0.079480 0.489373
0.009425 -0.496630 0.026724
0.056320 -0.473457 -0.155131
0.013302 0.429414 0.250852
-0.240336 -0.243119 0.432114
0.016427 0.486126 -0.112392
-0.011913 -0.138375 0.476046
-0.166408 -0.094458 -0.491090
0.275204 0.334780 -0.371475
0.156029 -0.366326 -0.339193
0.173861 0.485480 0.111334
0.067660 -0.209675 -0.453632
0.136205 0.263337 0.420770
0.159674 -0.221847 -0.447841
-0.226991 -0.497435 -0.006140
-0.150287 0.425678 0.257367
0.081046 0.442822 -0.230908
-0.181914 -0.006128 0.495723
0.207801 -0.496679 -0.031535
0.164898 -0.395478 -0.304071
0.037966 -0.037632 0.494303
-0.289755 0.360167 0.342218
-0.266939 0.169990 0.466069
0.091647 0.417181 -0.275226
0.170994 0.426830 -0.259472
-0.148841 -0.497625 0.004411
-0.106930 0.280085 0.409929
-0.200512 -0.186413 0.459372
0.147876 -0.039225 -0.498720
-0.221370 -0.483677 0.114030
0.158912 0.272043 0.415462
0.212799 0.331360 0.369984
-0.083008 -0.348577 0.352908
-0.042915 0.289600 0.403275
-0.201304 -0.051469 -0.497396
-0.249444 0.359073 0.343342
-0.100843 0.163196 -0.472790
0.196301 0.210938 -0.453596
-0.142916 0.177336 -0.467912
-0.002800 0.261291 0.422017
0.221435 -0.439450 0.231012
-0.190888 0.374997 0.326048
0.274331 0.173158 0.464880
0.149312 0.317269 -0.386501
0.260079 -0.368269 0.332402
-0.038050 -0.405427 -0.290883
-0.206182 0.010604 -0.500014
-0.093317 0.424101 -0.263947
0.008319 -0.492962 0.065954
-0.159615 -0.497214 -0.018429
0.240307 0.483974 -0.121448
0.109702 -0.251718 0.427182
-0.160847 -0.482917 0.117227
0.032447 -0.060015 -0.496473
0.285490 0.306385 -0.395166
0.006878 -0.108629 0.483706
0.059064 0.033850 -0.499045
0.229211 0.275023 0.413470
0.248678 -0.100500 -0.489977
-0.202569 -0.488593 -0.095937
0.093388 0.467853 0.169992
-0.140583 0.234732 0.437243
-0.041703 0.272471 -0.419297
-0.085178 -0.411651 -0.281643
-0.133186 -0.158240 0.469792
0.043638 -0.421733 0.261798
0.141791 -0.420553 -0.268159
0.110789 0.497595 -0.032417
0.024558 0.470803 -0.166204
-0.090612 -0.228095 0.440284
0.177353 0.419557 0.266866
0.226818 -0.062978 -0.496153
0.136735 -0.366771 0.334056
-0.122820 -0.199045 0.454105
-0.072473 -0.031935 -0.499160
-0.021589 0.497393 -0.036913
0.018840 -0.431451 0.245858
-0.113943 0.117545 0.481817
-0.136676 0.414973 -0.278383
-0.245781 -0.492081 -0.074955
-0.032529 0.292816 0.401026
-0.222614 0.496285 -0.049045
-0.008071 0.471004 0.160859
0.114673 0.084129 -0.493202
-0.027224 -0.490625 -0.085018
-0.155769 0.493316 -0.074549
-0.202697 0.494062 0.063992
0.100086 0.370891 0.330833
0.193657 0.249337 0.429305
-0.264623 0.216839 -0.450689
0.285758 0.494413 -0.066369
-0.054978 -0.448465 0.213533
-0.199752 0.403029 -0.295461
-0.130391 -0.283306 0.407114
-0.160154 -0.345022 -0.361035
0.149544 -0.117579 -0.485919
0.058248 -0.198403 -0.458690
-0.151534 0.417382 0.270160
0.151374 -0.469591 0.162349
-0.289338 -0.496523 0.029107
0.286491 -0.457053 -0.198655
0.277679 0.175341 -0.468600
-0.194099 0.430219 0.249447
-0.098695 0.475191 0.148720
-0.018635 -0.423395 0.259071
-0.104957 -0.441892 0.226375
0.125770 0.460092 0.189471
0.027450 -0.412525 0.276064
-0.225676 0.498643 -0.009041
-0.050056 0.207526 0.450703
0.095705 0.405856 -0.291420
-0.101005 -0.485841 -0.109072
0.151030 -0.455225 0.198469
-0.074119 -0.152538 -0.476079
-0.280296 0.498419 -0.014036
0.180441 0.021683 0.495312
-0.017142 0.181735 0.461661
-0.087585 0.497161 -0.040936
0.096366 -0.271845 0.414680
-0.121084 -0.437024 0.235619
-0.123782 0.472207 0.157371
-0.236016 -0.313618 -0.388553
0.163637 0.418708 -0.272794
-0.081445 0.222615 0.443623
0.285531 0.482649 -0.127020
0.019645 0.474039 -0.156458
0.161595 0.478861 0.136254
0.102983 0.293118 -0.405175
0.226175 -0.424982 -0.261146
-0.215240 0.444277 0.223784
0.181794 -0.273848 0.413358
0.220515 -0.495587 0.041663
-0.076410 -0.432619 0.243942
0.285784 0.250891 0.428357
-0.078922 -0.477465 -0.141951
0.210994 -0.493194 -0.067257
0.018170 -0.312896 -0.389129
0.252088 0.406341 0.286678
0.243102 -0.206260 0.451043
-0.203784 -0.382973 0.315580
0.067510 0.304635 -0.396486
-0.004637 -0.093712 -0.491219
0.192518 -0.493947 -0.062058
-0.252451 -0.460093 0.187620
0.132305 0.494629 -0.064364
0.140552 0.379008 0.321373
-0.271282 -0.225598 -0.445867
-0.027751 0.427849 -0.257800
0.016341 0.311697 -0.391159
0.110435 -0.398666 -0.299846
-0.064875 -0.215677 -0.450939
0.109360 0.485345 0.111981
-0.279200 0.045152 0.493836
-0.061745 0.353929 0.348626
-0.242277 0.211217 0.449046
0.270405 -0.052298 -0.497307
-0.020211 0.339880 -0.366726
0.009614 -0.206494 0.450928
-0.065281 0.479662 -0.138029
-0.132413 0.272584 0.415133
0.028396 0.486782 -0.109631
0.162746 0.486610 0.105941
0.045766 -0.427907 0.251671
0.184078 0.167741 -0.471222
0.254120 0.228465 0.440543
0.167720 -0.497207 0.013852
-0.238903 -0.077308 0.489687
-0.264701 -0.290184 0.402262
-0.160199 -0.492213 -0.074041
-0.188281 -0.463659 0.178158
0.283042 0.350699 0.351944
-0.082390 -0.482179 0.120335
0.254113 0.343484 0.359003
0.186242 0.377214 0.323464
0.036672 0.390625 -0.311621
0.239429 0.493800 -0.071739
-0.113410 0.169282 0.466334
0.059803 -0.035383 0.494485
-0.182635 -0.050280 0.493278
0.056184 -0.466384 -0.175635
-0.215629 0.286212 0.405645
-0.038410 -0.161610 -0.473182
-0.239705 0.490617 0.086814
-0.182952 0.491904 0.078903
-0.079879 -0.260066 0.422396
0.262676 -0.056225 0.492737
0.117330 -0.036099 -0.498973
0.135056 -0.231097 -0.442971
0.091417 0.042380 0.494136
0.081933 0.222533 -0.447883
-0.184535 0.380736 0.319359
-0.020651 0.097677 0.486359
0.197718 -0.494821 0.048749
0.177184 -0.194841 0.455858
-0.070816 -0.492640 -0.071086
0.152972 0.498110 0.021182
0.244533 0.361421 -0.345448
0.176181 -0.401695 -0.295830
0.240633 0.082725 -0.493405
-0.100201 0.358203 -0.348888
-0.147976 0.119436 0.481367
0.124927 -0.320297 -0.383227
0.255322 0.373814 -0.331765
-0.188099 -0.494639 -0.056713
-0.064881 -0.465833 -0.177231
-0.029314 -0.026245 0.495225
-0.155697 -0.248149 0.429229
-0.266484 -0.299359 0.395340
0.158927 -0.482465 -0.123839
0.174155 0.315115 0.383823
0.215345 -0.420277 0.264187
0.245017 -0.127259 -0.483618
-0.104351 0.461488 -0.191027
-0.232671 0.497524 0.029391
0.058279 0.143685 0.474739
0.214023 0.205050 0.451814
0.203621 0.463687 0.180848
-0.196271 -0.390469 -0.310711
-0.042046 -0.194515 -0.460435
-0.098418 0.486824 -0.109454
0.183296 -0.187082 0.459093
-0.106913 0.179802 -0.466909
-0.157570 -0.392098 -0.308551
0.270665 0.479426 0.134205
-0.235946 -0.048406 0.493430
0.248912 -0.071597 -0.495026
0.038747 0.262972 -0.425568
0.189342 -0.488841 0.090240
-0.172544 -0.454670 0.199705
-0.170726 -0.367309 0.333462
0.243751 -0.002815 -0.500256
-0.233574 0.189360 0.458800
0.220122 0.323438 0.377160
-0.195173 0.498300 0.010639
0.173229 -0.401205 0.292251
-0.016585 0.251314 0.428100
0.250045 0.491792 -0.083402
0.254286 0.129184 0.479051
0.091590 -0.144050 -0.478669
0.122435 -0.495109 0.046091
0.241933 -0.147720 0.473421
0.178965 -0.110207 -0.487670
-0.077068 -0.215541 -0.450999
0.174681 -0.412243 0.276468
-0.172433 0.257325 -0.428908
-0.185432 -0.366501 0.334354
-0.154257 -0.497419 -0.007018
-0.159049 -0.173444 0.464548
0.157680 -0.317394 0.381161
-0.073655 -0.343694 -0.362238
-0.206862 -0.486674 -0.105096
-0.186345 0.439147 -0.237888
0.238030 0.123007 0.480519
0.192473 -0.124229 0.479951
0.200259 0.051530 -0.497613
-0.255712 -0.493786 -0.063164
-0.052574 0.086771 -0.492819
-0.279223 0.253379 -0.431171
-0.259902 -0.062251 0.491865
0.100874 -0.372385 0.327858
-0.225343 -0.351185 -0.354745
-0.009246 -0.109559 -0.487824
0.124846 0.332818 -0.373159
-0.095100 -0.496368 0.032568
0.252085 -0.325675 0.374055
-0.078994 -0.025828 0.495259
-0.239984 0.476774 -0.147494
-0.196411 0.476968 -0.146857
0.096986 0.224736 0.442507
-0.126768 0.200547 0.453834
-0.088642 0.475055 -0.153127
0.049170 -0.322916 0.376422
-0.221683 -0.089468 0.487720
-0.117654 -0.389684 0.307163
0.233403 0.473171 0.154576
-0.188548 0.316165 -0.387448
-0.079977 -0.282416 -0.411936
-0.112882 -0.067936 -0.495617
-0.245878 -0.152127 0.471901
0.073988 0.215999 -0.451103
0.284952 0.390899 0.307145
0.245060 0.123001 -0.484926
-0.107771 0.028921 0.494988
-0.119528 -0.073200 0.490281
0.248769 -0.231219 0.438744
0.167794 0.123382 0.480429
-0.263145 -0.496610 0.027181
-0.135348 -0.366616 0.334227
0.009732 0.497885 -0.025940
0.278912 -0.126454 -0.483809
-0.008845 -0.489670 -0.090794
-0.189081 0.452275 0.207552
-0.036320 -0.417240 -0.273178
0.004993 0.419802 -0.270999
0.237468 -0.330771 0.369683
-0.227738 0.459209 -0.196227
-0.193737 -0.474647 -0.151681
-0.040709 -0.429572 0.248938
0.024258 0.106451 -0.488731
0.187934 0.489774 0.090837
0.227712 0.068110 0.491355
0.286790 -0.431020 -0.250617
-0.055315 0.494284 -0.067554
-0.256009 -0.490192 0.082391
-0.081106 0.234593 0.437316
-0.045490 0.366141 -0.340236
-0.172347 -0.249051 0.428712
0.273536 0.397583 0.298285
-0.200992 0.293511 -0.404879
-0.182747 0.095133 -0.491102
-0.169159 0.182806 -0.465656
-0.045819 -0.227077 -0.445088
0.078243 0.497254 -0.040021
0.131265 0.142060 0.475235
-0.137316 0.475866 0.146763
-0.055954 -0.016838 -0.499837
-0.215603 0.319940 -0.384209
0.028618 0.004231 -0.500129
-0.023852 -0.466050 -0.176602
0.284965 0.263908 0.420422
-0.142390 0.497509 0.029583
0.040579 0.463550 0.181177
0.108508 -0.378584 -0.325027
-0.219254 -0.448273 -0.217948
0.285917 0.412288 -0.282223
-0.259412 0.444540 0.223251
0.286821 0.364028 0.338253
-0.167017 0.355523 0.346989
-0.046659 0.135820 -0.481387
-0.232193 -0.455783 -0.201701
-0.229366 -0.285444 -0.409818
0.248597 -0.189718 -0.462587
0.072478 0.293357 0.400648
-0.186954 0.182885 -0.465624
0.206776 -0.270378 0.415648
-0.186640 0.127675 0.479409
-0.038820 0.183772 0.460897
-0.198758 -0.477228 0.138293
-0.214910 -0.043906 0.493794
0.145073 0.497417 0.030718
0.094097 -0.252664 -0.431005
0.056150 0.227658 0.440968
-0.219959 -0.367931 -0.337441
0.048775 -0.038164 -0.498834
0.019415 0.188391 0.459164
-0.165913 -0.332743 0.367991
0.149327 -0.343468 -0.362442
-0.036122 -0.285707 -0.409634
0.144299 -0.494091 0.055508
0.135958 -0.353596 -0.352269
0.267775 -0.212783 0.447829
-0.241422 0.178853 -0.467304
-0.256898 -0.444246 0.221904
0.036285 0.114606 -0.487022
0.136206 -0.384415 -0.318231
0.164179 0.498191 0.016739
0.051271 0.237248 0.435919
-0.105502 -0.491727 -0.077398
0.099907 0.356971 0.345502
0.133721 -0.232445 0.438140
0.067193 -0.258498 0.423295
0.227144 -0.007078 -0.500275
-0.120466 -0.300185 0.394717
0.023686 -0.493614 0.059923
0.140466 -0.190082 0.457842
0.074407 0.479423 0.134218
0.007797 -0.336564 -0.368695
-0.003755 0.472752 -0.160675
0.084353 0.482978 -0.125639
-0.037513 0.037775 0.494591
0.112661 0.489084 -0.099134
-0.130028 0.481229 0.127676
-0.234987 0.192690 -0.461535
0.095777 -0.027131 -0.499376
-0.277302 -0.480875 0.125820
0.219344 0.420186 -0.270370
0.114902 -0.217428 0.445540
0.067007 -0.497260 -0.015856
-0.108550 -0.051570 0.493173
-0.201071 0.467391 0.171332
0.103404 -0.326109 -0.378165
-0.028856 -0.485136 -0.112439
0.083207 0.142859 0.474991
-0.275958 -0.493408 -0.065783
0.279491 -0.391009 -0.309994
0.082310 -0.171795 -0.469360
-0.126950 0.223937 -0.447191
-0.187127 0.498635 -0.007913
0.092465 0.231902 -0.443266
-0.024994 -0.208394 0.449991
-0.284366 -0.219644 0.444448
0.277385 0.196150 0.455807
0.286304 -0.181991 0.461216
-0.215509 0.164596 0.468093
0.247104 -0.496389 -0.035117
-0.116491 -0.389469 -0.312036
-0.049820 0.401645 -0.297440
-0.134805 -0.487814 0.096202
-0.003978 0.118273 0.481644
-0.136231 0.463897 -0.184608
0.237689 0.483835 0.118235
-0.138461 -0.382416 0.316278
0.259868 0.366314 -0.340045
0.029651 0.316986 -0.386744
0.284075 -0.253891 0.425936
-0.067166 -0.265589 -0.423126
-0.143242 0.045161 -0.498129
0.119385 -0.206962 0.450697
0.115482 0.203923 -0.456852
0.132279 -0.018214 -0.499776
-0.222841 0.414277 -0.279378
0.270638 0.354802 0.347730
-0.140369 0.347450 -0.359356
-0.059639 0.425307 -0.261969
-0.164353 0.027129 0.495068
-0.151460 0.158419 -0.474437
0.286143 -0.436358 -0.241309
-0.212859 0.401071 -0.298260
-0.248980 -0.301141 -0.398502
-0.041979 -0.020089 0.495471
0.101896 0.480985 0.128560
0.198247 0.332451 0.368996
-0.137849 0.196437 0.455679
-0.194261 0.431990 -0.251007
0.201245 0.458560 0.193147
0.071830 -0.491707 0.073592
0.101325 -0.245006 -0.435647
-0.264160 -0.429732 0.248677
-0.047252 0.336975 -0.369554
-0.275399 -0.289533 0.402753
-0.160514 0.394647 -0.306578
0.193585 -0.172308 -0.469168
0.088190 0.281490 -0.413342
-0.120313 0.145869 -0.478613
0.097202 0.493964 0.064669
-0.219728 0.479617 -0.138176
0.107554 0.482596 -0.127244
0.042879 -0.394390 -0.305513
0.196860 0.498534 -0.002346
-0.064589 0.121034 -0.485469
-0.066014 -0.362156 0.339151
-0.143960 0.490886 -0.088665
0.112123 -0.491859 -0.076489
0.263669 -0.469260 0.163232
-0.158741 -0.458720 -0.194657
0.014666 -0.401206 -0.296478
-0.132495 -0.118911 0.481419
0.156233 -0.490778 0.078989
0.240347 -0.145123 -0.478341
-0.003342 0.372799 0.328609
-0.123200 0.448999 0.214200
0.240110 0.048238 -0.497880
-0.238830 0.135521 -0.481470
0.263307 -0.433339 0.242619
-0.109582 -0.296163 -0.402322
0.209369 -0.447275 -0.219973
-0.108139 -0.286524 -0.409063
0.020997 -0.079195 -0.493718
0.043114 0.271251 0.415945
-0.251786 0.469132 0.166284
0.164405 0.496057 -0.051149
-0.185207 0.487871 -0.105047
0.142012 0.157477 0.470531
-0.225609 0.401364 -0.297842
0.264062 0.498510 -0.001008
-0.049085 -0.329679 0.370620
0.172233 0.280218 -0.414182
-0.004490 0.286865 -0.409794
-0.225779 -0.015084 -0.499916
0.109675 -0.329884 0.370444
0.187936 -0.221580 -0.447982
-0.069501 0.119973 0.481240
-0.129084 -0.463122 0.179589
0.283223 0.195580 -0.460331
-0.287431 0.198103 -0.459279
-0.247567 -0.289992 0.402407
-0.010464 0.135615 0.477202
0.066264 0.498485 -0.012575
-0.116421 -0.059164 0.492312
0.229970 0.485544 0.111027
0.166272 0.498397 -0.014537
0.188315 -0.482889 0.117346
0.142803 -0.484694 0.109750
0.002560 0.394934 0.301798
0.077221 -0.256095 -0.428913
-0.213825 -0.376292 0.323544
-0.201483 -0.175240 -0.468067
0.245194 -0.294109 0.399301
0.024747 0.248543 -0.433944
0.042012 -0.414496 -0.277333
-0.146245 -0.325297 0.374380
0.269757 -0.459571 0.188783
0.189175 0.283058 -0.412308
-0.259843 0.494703 -0.063678
0.260719 0.103879 -0.489269
0.095980 0.450442 0.211271
-0.247832 -0.312425 0.385425
0.063282 0.494814 -0.062652
-0.169791 0.430460 -0.253517
0.234779 0.338746 -0.367830
-0.229523 0.198764 0.454634
-0.197702 -0.403129 -0.293930
-0.201716 0.272664 -0.419169
0.080430 -0.478900 -0.136753
0.231745 0.031876 -0.499205
-0.006109 0.483082 -0.125198
-0.006262 0.145454 -0.478728
0.207869 -0.163692 0.467912
-0.044371 0.497522 0.029419
0.025810 0.056297 -0.497227
-0.076560 -0.107509 0.483941
-0.060161 -0.335924 0.365226
-0.136507 0.117064 0.481931
0.166692 -0.152025 -0.476235
-0.246417 0.486072 0.108509
0.193107 0.074192 0.490402
-0.051307 0.093525 0.487074
-0.221810 -0.039020 -0.498742
0.004632 -0.474837 0.146129
-0.207788 0.242917 0.432934
0.041444 -0.115474 0.482272
-0.209219 0.050646 -0.497685
-0.171510 0.388920 0.309768
-0.148313 -0.449639 -0.215175
-0.242679 0.493318 -0.074540
-0.249585 0.472244 -0.162341
0.040492 -0.338664 0.362559
-0.047192 0.379153 -0.325869
-0.223604 -0.183230 0.460699
0.026459 -0.264417 0.419584
0.201729 0.200502 -0.458278
-0.044759 0.408542 0.283551
-0.129680 -0.206942 0.450707
0.206464 0.484400 0.116187
0.043167 -0.495669 0.040909
-0.280882 0.265353 -0.423996
0.286853 0.497428 -0.036142
-0.177452 -0.469997 -0.165161
-0.051551 -0.329350 -0.375230
0.179139 -0.093819 -0.491200
0.262196 0.089863 -0.492206
0.213260 -0.464046 0.177127
-0.163623 -0.324424 0.375129
-0.169723 0.008998 -0.500043
0.222015 -0.172749 -0.469002
-0.215345 0.497336 -0.038180
-0.138702 -0.433244 -0.246738
-0.041141 0.464590 -0.182761
0.059797 -0.460420 -0.190579
0.209107 0.099825 -0.490119
-0.255911 0.473647 0.153196
-0.031947 0.384989 0.314403
0.028319 0.284736 -0.411200
-0.026278 -0.442432 0.225350
-0.027145 0.498615 -0.006804
-0.005103 0.494922 0.058048
-0.274172 -0.391952 -0.308745
-0.180832 -0.453836 -0.206372
0.243539 0.423229 -0.265378
0.237602 0.495607 0.053064
-0.105780 0.498497 -0.000267
0.198630 0.354099 0.348451
0.252791 0.389157 0.309455
0.018379 -0.495899 -0.041159
0.286489 -0.184784 -0.464486
0.080152 0.445759 0.220775
-0.092895 0.420726 0.265096
-0.230062 0.486359 -0.111409
-0.058072 -0.184611 0.460123
-0.130104 0.430307 0.249294
0.087433 0.489667 -0.095747
-0.017336 -0.252360 0.426814
0.123459 0.493886 -0.071239
-0.147209 -0.247720 -0.434019
-0.195919 -0.017899 0.495511
0.022864 -0.205618 0.451359
-0.227548 -0.465066 -0.179436
0.034589 -0.443926 -0.226770
-0.074479 0.354504 0.348036
0.137817 -0.173150 -0.468852
0.192880 0.072219 -0.494925
-0.274590 -0.452940 0.203560
-0.147747 0.316269 -0.387360
0.113814 0.374023 -0.331534
-0.173987 -0.497187 0.014302
-0.267575 0.192837 0.457294
0.088284 0.435880 0.239577
-0.287960 -0.117347 0.481850
0.075191 0.497143 0.034098
-0.288115 0.284704 0.406699
-0.142935 -0.216966 0.445767
-0.098158 0.034697 0.494729
0.165470 -0.186045 -0.464013
-0.163138 -0.255179 0.425198
0.005263 -0.497109 -0.024238
-0.012285 -0.206542 -0.455038
0.098915 -0.133783 -0.481802
0.020140 -0.278604 0.410218
-0.118035 -0.361347 -0.344307
-0.103217 -0.011912 0.495618
0.067967 -0.482889 0.117346
0.134385 -0.471638 0.156614
-0.175121 -0.336419 -0.368827
-0.010574 0.094234 0.486952
0.281270 -0.484349 0.111201
0.278248 -0.426232 -0.258967
-0.159462 -0.381718 0.317153
0.215104 -0.296613 -0.402007
-0.285025 -0.027106 0.495155
-0.290266 -0.184329 -0.464657
0.098058 -0.063292 0.491715
0.229392 -0.491320 -0.080213
0.096945 0.401660 0.292881
-0.053927 0.372760 -0.332928
-0.195548 -0.154273 0.471161
0.024682 0.022553 -0.499799
0.090399 0.137955 -0.480798
-0.215018 -0.099656 0.485586
-0.052752 -0.092363 0.487114
0.188956 -0.356673 -0.349108
-0.238196 0.302492 0.393888
-0.221733 0.481663 0.126101
0.058771 -0.341196 -0.364500
-0.171746 -0.376606 -0.327331
-0.015475 -0.306393 0.390033
0.256794 0.331946 0.369453
0.089836 0.498077 -0.021672
-0.080524 0.464152 0.179734
-0.256086 -0.343828 -0.362116
0.253613 -0.321874 -0.381970
0.066290 0.132409 0.478180
0.073247 0.495962 -0.052031
0.029185 -0.062506 0.491828
0.097046 -0.176771 -0.467493
-0.242584 -0.336131 -0.369088
-0.083558 -0.373165 0.326996
0.223152 0.174643 -0.468841
-0.034987 0.433291 0.244090
-0.159325 0.460738 -0.192819
-0.263846 -0.495915 0.038630
0.009913 -0.087586 0.488115
0.212258 0.176458 0.463642
0.282573 0.498617 -0.006939
-0.090416 0.244863 0.431909
-0.167808 0.498117 0.020844
-0.197609 0.170137 0.466013
0.074605 0.401133 0.293580
0.176047 0.347940 0.354778
0.065519 -0.084938 0.488583
-0.188752 0.103657 0.485117
-0.164227 0.346059 -0.360710
-0.261722 -0.361459 0.339921
-0.195284 0.285597 0.406075
-0.065783 -0.053226 0.493039
-0.177405 -0.145148 -0.478334
0.143018 0.147176 0.473674
0.065919 -0.417450 0.268824
0.131862 0.251284 0.428118
0.065757 0.247063 0.430691
-0.118835 -0.493097 0.064705
-0.104062 0.268430 0.417665
-0.246322 -0.497402 0.009504
0.094016 -0.186942 0.459151
-0.128862 0.115855 -0.486761
0.208891 0.189513 0.458743
0.169208 0.152685 0.471993
0.095430 0.493870 -0.071333
-0.245479 -0.161670 -0.473159
0.092034 0.350898 -0.355999
0.145575 -0.022998 -0.499561
0.229391 0.491233 0.083545
-0.161839 0.496981 -0.042600
0.120963 -0.272043 -0.419190
0.023657 -0.465735 -0.177516
0.274342 0.132521 0.478146
0.255601 -0.495042 0.046705
0.193800 0.085319 -0.493029
0.243244 0.227329 0.441141
0.253223 -0.268851 0.416657
-0.149995 -0.228012 -0.444595
0.201797 0.479382 -0.138948
-0.130502 -0.387146 0.310346
-0.032393 0.497034 -0.042111
0.257231 0.119379 0.481381
-0.208116 -0.108482 0.483737
-0.205918 -0.039405 -0.498700
0.260311 -0.474256 -0.152814
-0.232626 -0.004978 -0.500295
0.224172 0.345007 0.357623
0.249401 -0.295237 -0.402970
0.062141 0.291474 -0.406415
0.127791 -0.497393 0.009714
0.181064 -0.491861 0.072697
-0.289586 -0.190752 0.457563
-0.113826 0.497105 0.034563
-0.097850 -0.039826 -0.498655
-0.254014 -0.366026 -0.339501
0.106493 -0.390887 0.305654
-0.099453 -0.251210 -0.431891
0.272445 -0.245897 -0.435130
-0.153374 0.086829 -0.492811
-0.161746 -0.231112 -0.442963
-0.239498 -0.484018 -0.117774
-0.034302 -0.183098 -0.465119
0.261318 -0.451117 0.207623
-0.286082 0.477910 0.139700
0.285640 -0.195925 -0.459802
0.227906 -0.495686 -0.043784
-0.043676 -0.446895 -0.220744
0.002559 0.351198 0.351431
-0.205075 0.191651 0.457826
0.116899 -0.171098 0.465357
-0.225943 -0.480011 -0.132727
0.101592 0.316045 -0.387551
0.282265 -0.318807 -0.384415
0.080845 0.304328 -0.396718
-0.066144 -0.490935 -0.082873
0.239080 -0.426853 -0.257883
0.129020 0.071850 0.490805
0.264025 0.495768 -0.053828
-0.002575 0.478756 -0.140997
0.231259 0.299833 -0.400109
-0.282620 -0.128954 0.478646
-0.158926 -0.265723 -0.423044
0.045990 0.429799 0.250180
-0.111274 0.279196 -0.414857
0.264179 -0.095037 0.486554
0.263005 -0.072766 0.490344
-0.119423 0.479473 0.134035
-0.273080 0.153479 0.471751
0.162876 -0.283118 -0.411445
-0.161133 -0.497020 0.018031
0.222236 -0.384575 -0.318045
0.254012 -0.050673 0.493246
-0.122828 -0.153608 -0.475752
0.011466 -0.401687 0.291561
0.051726 -0.121834 0.480612
0.060628 -0.304082 -0.396157
0.274676 0.271808 0.415606
0.196625 -0.031284 0.494817
0.268695 -0.483541 0.114603
0.147768 0.482157 0.124312
-0.282141 0.127122 0.479541
-0.074771 -0.132454 -0.482207
0.081700 0.318794 0.380890
-0.156394 0.056127 -0.497241
0.213461 0.394714 -0.306493
0.270407 -0.002975 -0.500258
-0.053774 0.486589 -0.110441
0.144277 -0.256690 0.424331
-0.114056 0.126907 -0.483848
-0.089034 0.293386 -0.404973
-0.088830 0.476496 0.144821
0.209081 -0.430831 0.246874
0.183128 0.406604 -0.290349
-0.121272 -0.486201 -0.107356
-0.029376 0.378459 0.322013
-0.006495 -0.288002 0.403908
-0.070426 -0.478681 0.133531
0.113861 0.486534 -0.110673
-0.265579 0.482536 0.122939
0.284829 0.480760 0.129373
-0.129706 0.469063 0.166485
-0.235178 0.236568 0.436277
-0.027506 -0.471295 -0.161398
0.207339 0.009657 0.495852
0.259341 -0.464641 0.175541
0.088589 -0.339296 -0.366221
0.231959 -0.497163 -0.021231
-0.034384 -0.134532 0.477106
0.061229 -0.397087 -0.301939
0.237227 0.371887 0.329672
-0.077632 0.440666 0.231112
-0.259248 -0.011808 -0.500063
-0.226156 0.162353 -0.473080
0.273414 -0.409290 0.280690
-0.205158 -0.325362 0.374324
0.056985 0.028569 0.495004
0.035633 0.013653 0.495673
-0.236432 -0.347460 -0.358571
-0.035668 0.273542 0.414505
0.120859 -0.285894 0.405405
0.170129 0.493799 0.065810
-0.285343 -0.346705 0.354730
-0.246711 0.462713 -0.187764
-0.236813 0.111965 -0.487576
-0.225359 -0.419293 -0.270068
-0.217181 -0.391930 0.304346
-0.162021 0.469354 -0.170065
0.009402 -0.257047 -0.428333
0.029905 -0.398519 0.296083
-0.247932 -0.490622 -0.085034
-0.041074 0.405273 -0.292253
-0.027175 -0.319244 -0.384067
0.002254 -0.492855 -0.069602
0.154780 0.407915 -0.288475
-0.006003 0.001821 0.495866
-0.009615 0.491765 0.079866
-0.100693 -0.113782 0.482627
0.212719 0.344393 0.358180
0.223337 0.087451 0.488119
-0.202478 0.497097 -0.041529
0.270218 0.419711 -0.271148
0.185054 -0.418441 0.267198
0.244598 -0.260676 -0.426121
0.066454 0.195280 -0.460456
0.011017 -0.302218 0.393183
0.217709 -0.267421 0.417600
-0.053551 -0.488110 -0.098243
0.220198 0.404355 -0.293565
-0.079071 0.455941 -0.203509
0.102745 0.356901 -0.350155
-0.175999 0.463674 -0.185203
-0.067328 -0.080250 0.489261
0.190877 -0.010624 -0.500116
0.060951 -0.490490 -0.085952
-0.176401 0.323379 0.377212
0.029876 0.431039 0.248019
0.081963 -0.484576 0.110247
-0.107176 -0.072038 0.490449
-0.197916 0.498292 -0.016876
0.197192 0.311378 0.386803
-0.181022 -0.434486 -0.244573
-0.064817 -0.390534 0.306097
-0.265715 0.313270 0.385294
-0.169693 0.492273 0.076353
-0.130686 -0.116039 -0.486285
