0.009807 0.348708 0.353988
0.225910 0.335355 0.366365
0.151336 0.085543 -0.492997
0.205508 -0.026821 -0.499390
0.032173 0.482424 -0.127969
0.238405 0.075962 0.490097
0.120852 0.367063 -0.339219
-0.183415 -0.495124 0.045945
0.223652 0.326793 -0.378329
0.140514 0.484870 0.114248
0.184385 -0.073451 0.490245
-0.091998 0.241420 0.433722
0.079418 -0.446365 -0.221819
-0.160339 0.428365 0.252682
-0.006140 0.420124 0.266007
-0.202626 -0.427819 0.251815
0.268266 -0.281260 -0.412745
0.083442 0.456361 -0.202573
0.095711 -0.464919 0.174801
0.085736 0.439409 -0.237391
-0.128518 0.205479 -0.456204
-0.117251 -0.089641 -0.491919
-0.039776 0.020808 0.495352
0.284836 -0.132819 -0.482096
0.161603 -0.491492 0.074838
-0.198470 -0.473514 -0.154966
-0.002673 0.269200 -0.421456
0.227063 -0.296129 0.397777
-0.004141 0.146677 0.473826
0.099072 0.226646 0.441501
0.176257 0.454560 0.202741
0.268503 0.189184 -0.462997
0.206918 0.447433 -0.222151
-0.267629 0.445615 0.221067
0.286199 0.455591 -0.204290
0.179318 -0.013502 -0.499987
-0.169359 -0.161607 -0.473183
-0.235785 0.184658 0.460564
0.196564 -0.002816 -0.500256
-0.141992 0.136336 0.476982
0.040561 0.170648 0.465822
-0.120853 0.245131 0.431768
0.214506 -0.208603 -0.454113
0.134177 -0.227098 -0.445077
-0.029433 0.340877 0.361365
0.145668 0.134667 0.477491
-0.072071 0.470779 -0.166267
-0.062892 -0.119512 0.481253
-0.274807 -0.126898 -0.483704
0.246850 0.436000 0.239368
0.038007 -0.495521 0.042273
0.259925 0.126375 0.479718
-0.154123 -0.497451 0.008427
-0.089005 -0.277185 0.411154
0.205053 0.244832 -0.436072
-0.118883 0.469511 -0.169647
-0.135233 -0.494855 0.048438
-0.034691 -0.389853 0.306951
0.035766 -0.468967 0.164013
-0.075939 0.076424 0.490018
-0.054690 0.359045 -0.348067
0.154158 -0.239287 0.434311
-0.104491 -0.446577 -0.221389
0.082073 0.367109 0.335088
-0.217370 -0.082857 0.488884
-0.091514 0.455033 -0.205532
-0.056561 -0.497359 0.010476
-0.166266 -0.152278 -0.476158
0.111841 0.424068 0.260034
0.118038 0.250305 -0.432934
0.238266 -0.331860 0.368749
-0.052058 -0.299348 0.395348
0.010293 -0.493407 0.061842
0.008920 0.428291 -0.257075
0.221076 0.209931 -0.454092
0.283997 -0.497593 0.002628
-0.000368 -0.224220 0.442193
-0.036645 0.003792 -0.500137
-0.020454 -0.351655 -0.354262
-0.213796 0.358203 -0.348887
-0.212077 -0.487527 -0.101026
-0.021073 0.465345 -0.180749
0.227775 -0.469438 -0.166781
-0.245243 0.027660 0.495044
0.078070 -0.050200 0.493284
-0.244962 -0.372017 -0.332679
-0.043926 0.428778 -0.256276
0.120953 -0.402357 0.290603
-0.267152 0.344527 -0.362201
0.126115 -0.288959 0.403186
-0.018441 -0.202753 -0.456738
-0.235281 -0.471312 0.157684
0.228458 0.484208 0.116882
-0.143100 -0.309926 -0.391497
0.265810 -0.342277 0.359041
-0.162572 -0.494301 -0.059605
-0.186853 0.149850 -0.477393
-0.011079 0.120039 0.481224
-0.219787 -0.176341 0.463548
0.185035 0.495493 0.054097
0.280925 -0.130627 0.478185
0.012587 0.213672 0.447945
0.227491 -0.376440 -0.327525
0.070416 0.498284 0.011560
0.133523 0.400356 0.294610
-0.071115 -0.480732 0.126425
0.208360 -0.295648 0.398140
-0.214154 -0.114763 -0.486588
-0.032149 0.381736 -0.322769
0.265466 -0.035282 0.494493
-0.142288 0.421214 0.264357
0.119826 -0.080752 0.489189
0.203266 0.015620 -0.499923
-0.208531 0.331689 0.369686
-0.135857 0.484367 -0.119793
-0.257920 -0.215253 -0.451129
0.285552 -0.455413 -0.202589
-0.190331 0.471305 -0.164865
-0.285190 0.431254 -0.252215
-0.007946 0.093248 0.487121
0.139021 0.480759 0.129379
-0.103740 -0.269362 -0.420825
0.020320 -0.383826 -0.318917
0.182964 0.497200 0.033395
0.021872 -0.026281 0.495222
0.060951 -0.207720 0.450324
-0.190860 -0.302927 0.392648
0.184693 -0.206258 -0.455165
0.102379 -0.489346 -0.092344
0.262711 -0.008439 -0.500214
-0.043646 0.269691 -0.421132
0.272684 -0.409910 -0.284281
0.117778 0.159344 0.469962
-0.238758 -0.048754 0.493401
0.284911 -0.384966 0.313080
-0.179312 -0.267814 -0.421769
-0.026186 0.251057 0.428256
-0.092304 -0.098874 -0.490330
-0.129877 0.097748 -0.490554
-0.106351 0.463000 -0.187000
-0.203074 0.487512 -0.106559
-0.042271 -0.456900 -0.199024
-0.049741 -0.337347 -0.367987
-0.249432 0.495617 0.052931
0.004680 0.330552 -0.375104
0.027503 0.371834 -0.333951
0.261099 -0.483379 -0.120527
0.016653 -0.401345 -0.296294
0.270798 0.498569 -0.004268
0.050900 -0.318513 0.380201
-0.081805 0.435099 -0.245576
0.219762 0.369537 0.332411
0.239794 0.396309 -0.304493
-0.170732 0.449829 0.212517
-0.264286 0.430843 0.248361
-0.122613 0.221979 0.443958
-0.017445 -0.255638 -0.429192
-0.151447 0.481164 -0.133105
-0.260623 -0.139114 0.475842
0.000157 0.122932 0.480536
-0.283255 0.486081 0.108467
-0.210094 0.455920 0.199478
-0.122289 -0.497523 0.006826
-0.207289 0.336725 -0.369797
-0.225055 0.447379 0.217488
-0.232340 0.121200 0.480948
-0.002101 0.441792 -0.232865
-0.022591 -0.113248 -0.486948
-0.166767 -0.232894 -0.442025
0.004464 -0.122334 0.480474
-0.226715 0.053006 -0.497493
-0.230153 0.487675 0.100858
-0.140408 0.473381 -0.158615
-0.016791 -0.469429 -0.166807
-0.276385 0.061671 -0.496451
-0.251909 0.341452 -0.365196
0.156715 0.492591 0.074157
-0.081851 0.034187 -0.499018
-0.095625 0.380460 -0.324370
0.167100 0.489354 -0.097566
0.072723 0.474645 -0.154471
-0.278751 -0.032490 -0.499135
0.248843 -0.496326 0.033510
-0.149656 0.077876 -0.494106
0.115509 -0.310307 -0.391193
-0.221324 -0.496523 0.029106
-0.267736 0.408449 -0.287712
-0.097727 -0.163229 0.468071
-0.005079 0.030681 -0.499302
0.284794 0.479610 0.133539
0.207448 -0.404752 0.287179
0.204726 -0.091813 -0.491545
0.235962 0.494471 0.061164
0.122800 -0.474470 0.147332
-0.120942 0.314858 -0.388570
0.261015 -0.429463 -0.253333
-0.044959 0.443702 0.224950
0.186001 -0.089138 0.487790
-0.019930 -0.077993 0.489588
-0.236099 -0.171984 -0.469289
0.254443 0.327385 -0.377821
0.128203 0.455490 0.200511
-0.284204 0.424878 -0.262674
-0.103716 0.440205 0.232034
0.227344 0.221718 0.444096
0.079326 -0.410514 0.278941
0.261582 0.372366 -0.333363
-0.173555 0.208677 0.450186
0.067348 -0.080216 0.489266
-0.106895 0.158872 -0.474281
0.120183 -0.209745 -0.453600
-0.228003 -0.466745 0.169934
-0.164550 -0.320621 0.378392
-0.038589 0.102753 0.485332
0.125592 0.239362 -0.439209
-0.045914 0.497613 -0.032010
-0.244466 -0.380021 -0.323351
0.129179 0.317015 0.382308
0.078460 -0.007526 0.495697
0.069251 -0.497074 -0.026201
-0.186270 -0.345114 -0.360952
0.182568 0.442439 0.227515
-0.259579 -0.444663 0.221112
0.197595 -0.493998 0.056365
0.214057 -0.115736 0.482217
0.269303 0.395887 -0.305023
0.032493 -0.446142 -0.222273
0.271765 0.340598 0.361617
-0.093169 -0.480555 -0.130759
0.145009 0.462571 -0.188143
-0.168021 0.496414 0.043103
-0.162679 0.341208 0.361064
0.106722 0.479074 0.135480
0.108443 0.090536 0.487588
-0.229978 -0.263411 0.420248
0.013098 -0.354325 0.347311
-0.289604 0.361519 -0.345339
0.226343 0.247579 0.430376
0.066578 0.267949 0.417958
-0.080234 -0.437248 0.235195
0.079271 0.360711 -0.346231
-0.256106 -0.079844 -0.493606
-0.158475 0.414353 -0.279269
-0.205729 -0.178005 -0.467030
-0.189446 -0.473656 0.150002
0.281316 0.092637 -0.491625
-0.179842 0.442570 -0.231386
0.160993 -0.457765 -0.196949
-0.266839 -0.406586 -0.289315
-0.221394 -0.484651 -0.114752
0.203144 0.490309 -0.092015
-0.270647 -0.345713 -0.360366
-0.225801 -0.084380 -0.492825
-0.120416 -0.492436 -0.072501
-0.002420 0.259424 -0.427704
-0.100546 0.269663 -0.421150
0.167212 0.352956 -0.353995
-0.213287 0.468197 -0.173149
0.027081 -0.192966 -0.461130
-0.072695 0.477885 0.139789
-0.165719 0.252178 -0.431860
0.112463 0.470136 0.163376
-0.150587 -0.077753 -0.493966
0.237159 -0.050891 0.493228
-0.161921 -0.183319 0.460662
-0.194169 0.493457 0.068174
-0.004083 -0.396547 -0.302654
0.212536 0.497943 0.024223
-0.198175 0.450972 0.210197
-0.071755 0.483404 0.119794
-0.182772 -0.383054 0.315477
-0.176368 0.491244 -0.086585
0.284918 -0.402775 -0.294399
0.188870 -0.441348 -0.232002
-0.287003 -0.413434 0.274766
0.031063 -0.489589 -0.091181
-0.246567 -0.137876 0.476183
-0.039574 0.278027 -0.415629
-0.288814 0.085866 -0.492950
0.088462 0.451082 0.209973
0.152344 -0.291128 0.401550
0.129144 -0.418603 -0.271112
0.107592 0.443217 0.225936
-0.099559 -0.277195 0.411148
-0.154534 0.150466 -0.477181
0.286905 -0.284887 -0.410208
-0.091566 0.072147 0.490754
-0.225737 0.326590 -0.378503
0.271022 0.284237 -0.411529
-0.028253 -0.315685 -0.386905
-0.034733 -0.476091 -0.146929
0.209376 0.480665 -0.134742
-0.122688 -0.489724 -0.090537
-0.120314 -0.419524 0.265422
0.282882 0.460330 -0.193729
0.011501 -0.473269 -0.155674
0.008055 -0.278314 -0.414805
0.001696 -0.295172 0.398499
-0.034517 -0.327741 0.372282
-0.211822 -0.050999 0.493220
-0.118724 -0.031246 -0.499191
-0.209284 -0.493082 -0.068034
0.284581 -0.211059 -0.453011
-0.070359 0.078938 -0.493953
0.091593 0.489313 -0.097805
0.195899 -0.403144 0.289477
-0.235048 0.498151 -0.020022
0.210634 -0.489496 -0.091625
-0.101865 0.452889 -0.210310
0.042816 -0.497114 0.015940
0.202149 0.256868 -0.429171
0.011512 -0.317639 -0.385347
0.135506 0.169912 -0.470473
-0.023060 -0.479321 0.131434
0.049603 0.225317 0.442201
-0.220357 -0.334113 0.366815
-0.165675 -0.481428 -0.127597
-0.028305 0.390350 0.307874
-0.080562 0.491622 -0.084387
0.144739 0.023255 0.495242
-0.046013 0.483957 0.117791
-0.177928 -0.378065 -0.325631
-0.103886 -0.376849 -0.327048
0.003095 0.389400 0.309132
0.164990 0.039291 -0.498605
0.008542 0.408191 -0.288080
-0.124945 0.472272 0.157182
-0.028363 -0.055380 -0.496974
-0.064809 -0.141332 0.475229
0.094277 -0.130956 0.478094
0.038537 0.148919 -0.477714
-0.125509 -0.041890 -0.498432
-0.169214 -0.289739 -0.406815
0.049819 -0.416156 -0.274820
0.270771 -0.347938 -0.358080
0.226939 0.366340 -0.340016
-0.233889 0.131347 0.478504
-0.087179 -0.463850 -0.182353
-0.277594 -0.433682 0.241967
-0.180904 -0.037934 -0.498859
0.085900 0.031215 0.494885
0.241785 0.365210 -0.341264
0.228724 -0.337801 0.363398
0.228865 -0.263751 -0.424246
-0.120001 0.485612 0.110704
0.261538 0.442690 0.227003
-0.021289 0.300033 -0.399958
0.030396 -0.454612 0.199834
0.237335 -0.484694 -0.114550
-0.044511 -0.359482 -0.346223
0.093305 0.079364 -0.493891
0.114885 0.489695 -0.095582
0.199387 -0.466440 -0.175471
-0.220571 -0.380003 -0.323373
0.123988 0.498425 0.003700
-0.286169 0.449925 0.212322
0.090183 0.279943 0.410029
0.206337 0.367643 0.334539
-0.119968 0.488803 0.095472
-0.248476 -0.051976 -0.497342
0.284746 -0.485562 -0.110407
-0.260254 -0.336314 0.364847
0.138405 0.256319 0.425048
0.165768 0.177153 -0.467975
-0.012174 0.271151 0.416006
0.284401 -0.442840 -0.228974
0.110206 -0.494124 -0.060830
-0.276755 0.279157 -0.414883
0.041914 -0.143596 -0.478807
0.051926 -0.123334 -0.484551
0.249528 -0.329672 0.370626
-0.200611 0.496449 0.042668
-0.002186 -0.454116 -0.205700
0.144540 0.465921 0.175490
-0.008112 -0.496639 0.026520
-0.274101 -0.258911 -0.427197
0.060703 -0.493446 0.061473
0.164478 -0.433653 0.242022
0.182478 -0.484925 0.108781
-0.123056 0.426520 -0.259979
-0.220791 0.399430 0.295838
-0.141813 0.269171 -0.421476
0.240298 0.408839 -0.287154
-0.021954 0.412636 -0.281724
0.244777 -0.495932 -0.040748
-0.218743 -0.129394 0.478525
0.165726 -0.497198 -0.019299
-0.050276 0.378409 -0.326691
0.054275 0.008812 0.495890
0.114264 0.221630 0.444142
-0.052520 0.249056 0.429476
-0.114294 0.482216 0.124099
-0.250535 0.470131 -0.167994
0.154170 -0.044392 -0.498161
0.082271 0.465337 0.176890
-0.131518 0.221151 -0.448564
0.048553 0.497628 -0.031664
-0.226302 -0.254010 0.425869
0.167804 0.496398 0.043300
-0.081022 0.342111 0.360247
0.053317 -0.496330 0.033417
0.286729 -0.391927 0.304351
0.068594 -0.175619 0.463797
-0.185870 -0.492089 -0.074898
0.073254 -0.043763 -0.498229
-0.215888 -0.026721 -0.499394
0.198413 0.387218 0.311805
0.121757 -0.228307 -0.444440
0.268228 -0.474452 0.147391
-0.223499 0.171666 -0.469868
-0.224731 -0.492250 0.070435
-0.125790 0.353756 0.348803
-0.270354 -0.217211 -0.450250
-0.227813 -0.481500 0.123191
-0.210598 0.463474 0.181360
0.119692 0.047073 0.493629
0.037349 -0.002478 0.495788
0.065114 0.011937 0.495750
0.247417 0.481960 0.125028
0.249557 -0.290277 -0.406439
0.158338 -0.425991 -0.259388
0.204027 -0.068464 -0.495560
0.196471 -0.455685 0.197443
-0.211850 -0.423920 -0.262999
-0.221977 -0.147135 -0.477728
-0.032464 0.495356 -0.057640
-0.199247 -0.000289 0.495828
0.247117 -0.424675 -0.261683
-0.079340 -0.167151 0.466719
-0.255714 0.469048 0.166528
-0.079762 0.357650 0.344803
0.175331 -0.438740 -0.237154
-0.268560 0.437585 0.236602
-0.123754 -0.408706 0.281525
-0.192413 0.409896 -0.285643
-0.138312 0.498492 0.000012
0.189264 0.212682 0.448389
0.012734 -0.388335 -0.313539
-0.108457 -0.383825 -0.318918
-0.180788 -0.259099 -0.427082
-0.015476 0.476374 0.145263
0.208055 -0.422650 0.260293
-0.055551 -0.286401 0.405071
0.243252 -0.496811 0.022694
0.227695 0.494800 -0.062780
-0.093312 0.494744 -0.063304
0.061842 0.098774 0.486170
-0.238533 0.495808 0.050571
0.063651 -0.482768 0.117858
-0.002261 0.478507 0.137536
-0.126058 0.025503 -0.499722
0.179107 0.496255 0.045061
-0.106320 -0.321366 -0.382375
0.280145 -0.472897 -0.156753
-0.023301 0.445207 0.221897
-0.040696 -0.382682 0.315944
-0.088589 0.380040 0.320170
0.158176 0.277837 0.411502
-0.220505 -0.490492 0.080650
-0.046543 -0.438109 -0.238256
0.029593 0.384065 -0.319848
-0.254721 0.498600 -0.005979
0.205982 0.397004 -0.303621
0.080958 0.498060 -0.022042
0.058381 0.214377 -0.451901
-0.228777 -0.497497 -0.002695
0.275746 0.062371 0.491976
-0.004450 0.289237 0.403529
-0.222592 -0.483822 0.113421
-0.080158 -0.444626 -0.225350
0.121684 0.297019 -0.402232
0.253218 -0.488169 -0.097958
-0.130692 0.139704 -0.480315
-0.097184 -0.399958 0.294034
-0.139125 -0.301368 -0.398321
0.285811 0.498465 -0.013009
0.042398 0.390977 0.307042
-0.264117 0.276150 0.412682
-0.279047 -0.340164 -0.365435
0.157473 0.138990 -0.480512
-0.100955 0.421137 0.264473
-0.252393 -0.272858 -0.418621
0.163371 -0.257120 0.424085
-0.260548 0.498111 0.021145
-0.236710 0.473870 0.152551
0.279835 -0.342379 0.358942
0.147590 0.474295 0.151317
-0.122354 -0.446240 0.218117
0.016472 -0.449019 0.212296
-0.251025 -0.350920 0.350626
0.051079 -0.072880 -0.494805
-0.242186 0.336530 -0.369974
-0.113280 -0.473075 0.151904
0.151789 -0.025156 0.495313
-0.087160 0.402504 -0.296211
0.218032 -0.144849 -0.478425
-0.240151 0.217622 0.446172
0.265716 -0.126175 0.479413
0.256111 0.485003 0.113614
0.157138 -0.177924 -0.467060
-0.231185 0.474314 -0.155555
-0.290169 0.033129 0.494799
-0.132717 0.477004 -0.146742
-0.271987 -0.340743 0.360534
-0.009935 0.414748 -0.278704
0.230732 0.380421 0.319727
0.005178 -0.368398 -0.336897
-0.197411 0.011523 0.495768
0.179718 -0.112805 0.482832
-0.276325 0.299934 0.395928
-0.239742 0.046618 -0.498011
-0.096112 0.459958 0.189793
-0.058587 0.467409 0.171279
0.226956 0.483926 -0.121649
-0.263250 -0.491800 0.073049
-0.262431 -0.414649 -0.277102
0.079612 0.317452 0.381959
0.228441 0.400958 -0.298422
0.262894 -0.100877 0.485330
0.247933 -0.232941 -0.442000
0.155841 -0.296836 -0.401851
-0.242945 -0.162176 0.468435
-0.124234 -0.432247 0.244551
0.010526 -0.285645 0.405569
0.168504 -0.369409 -0.335719
0.262422 0.326902 0.374022
0.178574 0.043001 -0.498304
-0.238632 0.037513 0.494602
0.019994 -0.406764 0.284302
0.207525 0.044216 -0.498206
0.049435 -0.389648 0.307208
0.088424 0.451893 -0.212529
-0.209783 0.223271 -0.447519
-0.059726 0.179439 0.462523
0.066491 0.062369 -0.496350
0.215793 0.469174 -0.170544
0.075862 0.124891 0.480071
0.220710 0.376600 0.324179
0.234149 -0.324246 -0.379852
0.164352 -0.111438 0.483118
-0.261474 -0.055821 -0.496926
-0.162830 0.270645 -0.420502
-0.179205 -0.491039 0.077469
-0.174586 -0.021062 0.495454
0.173167 -0.379028 0.320523
0.043568 0.460092 0.189471
-0.030341 0.498395 0.005414
-0.129558 -0.433842 -0.245696
0.242651 0.065460 -0.495903
-0.189454 0.323191 0.377383
-0.033534 0.457290 -0.200503
0.080331 -0.494948 0.047581
0.181615 -0.491985 -0.075615
-0.240937 -0.118747 -0.485641
0.148599 -0.313253 -0.388844
-0.275105 0.022363 0.495282
-0.139829 -0.469193 0.163410
0.235782 -0.438809 0.232230
0.217552 -0.259492 0.422724
-0.153915 0.324223 -0.380534
-0.037363 -0.427261 0.252730
-0.137303 0.427728 -0.257998
0.053631 0.486178 0.108004
-0.056557 -0.401441 0.291914
-0.262176 -0.432188 0.244648
0.275576 -0.466894 0.169536
-0.029653 0.482271 -0.128612
0.131214 0.367243 0.334950
-0.072956 -0.034665 -0.499038
-0.286078 0.493055 0.070947
-0.117328 0.265793 -0.423705
0.038222 0.308122 -0.393856
0.217812 0.124099 -0.484623
0.023945 0.236070 0.436539
0.229551 -0.441155 -0.232392
0.110465 -0.496560 -0.033001
0.282223 0.471271 0.160084
0.133855 -0.365794 -0.339739
0.209665 -0.484171 0.111952
0.030014 0.400948 0.293826
-0.137980 0.080011 -0.493797
0.131531 -0.476581 0.140414
-0.210298 -0.496449 -0.034375
-0.155703 0.489092 -0.099086
-0.194108 -0.485912 -0.108734
-0.210757 -0.302510 -0.397411
-0.010211 0.496043 -0.051282
0.004240 -0.484666 0.109868
0.056175 0.297431 -0.401921
0.003010 -0.018158 -0.499778
-0.244855 -0.220988 0.443786
-0.132719 -0.047477 0.493505
0.171503 -0.414589 -0.277193
0.286208 0.495839 -0.053168
-0.109645 -0.026690 0.495189
0.226804 0.285724 -0.410547
-0.224691 -0.332880 -0.372033
-0.118644 -0.033667 0.494624
-0.258265 -0.402293 -0.295038
-0.222726 0.011075 0.495788
-0.256103 -0.464581 -0.180599
-0.028830 -0.267925 0.417268
0.037810 0.273767 -0.418441
-0.110449 -0.467952 0.166716
-0.258487 -0.485767 -0.109424
0.218781 -0.274434 0.412971
-0.086765 0.272633 -0.419190
-0.124391 0.333220 0.368299
-0.158163 -0.121307 0.480757
-0.157335 0.161126 0.469395
-0.045681 -0.488782 0.090583
0.035271 -0.464960 0.174690
-0.080251 0.473665 -0.157683
0.012066 0.479754 -0.137728
-0.227262 0.423117 -0.265562
0.263823 -0.178130 0.462825
-0.072791 0.279694 -0.414528
-0.217881 -0.495743 -0.043081
0.082914 0.443117 0.226138
-0.008757 0.408235 -0.288018
0.285629 -0.487635 -0.100507
0.121822 -0.117340 -0.485975
-0.197524 0.497648 0.027861
0.033340 0.151005 0.472506
0.030914 -0.132241 -0.482272
0.240746 0.205662 -0.456127
0.060822 0.493833 0.065571
0.100952 0.491905 -0.082749
0.095794 0.155903 -0.475305
-0.201537 0.028622 -0.499469
-0.059096 0.491537 -0.084884
0.006036 0.339729 0.362404
-0.240198 0.340732 0.361496
-0.230710 -0.323710 -0.380338
0.138341 -0.462588 -0.185380
0.271944 -0.322074 -0.381810
-0.176081 0.339422 -0.367172
0.058846 -0.333817 0.367069
0.036939 -0.321958 -0.381903
0.027297 0.498201 0.016157
-0.152316 0.440881 0.230675
-0.008168 -0.160550 0.468996
-0.202917 -0.417641 -0.272570
-0.095110 -0.418483 0.267129
0.020820 -0.129743 -0.483028
-0.286734 0.495932 -0.052305
0.267949 -0.118106 -0.485793
-0.234480 -0.150699 0.472393
0.132901 0.073946 -0.494675
-0.089341 -0.313030 0.384906
-0.290214 -0.102457 0.484999
-0.086271 -0.131324 0.477992
-0.107082 0.362424 -0.344340
0.101955 -0.177565 0.463061
0.261450 0.098480 -0.490400
-0.157070 -0.251103 -0.431957
0.255041 0.302162 0.394152
0.166139 -0.306234 0.390153
0.284962 -0.152550 0.471755
-0.158737 -0.164648 -0.472042
-0.250889 0.325023 0.375724
0.272711 0.362705 0.339612
0.217008 -0.008128 -0.500228
0.143472 0.495588 0.053296
-0.077183 -0.140362 0.475497
0.245757 -0.163896 0.467841
-0.103304 0.208878 0.450096
0.252196 -0.225973 0.441329
-0.251954 0.437222 -0.241544
0.202122 0.370913 -0.334968
0.084037 0.477456 -0.145259
0.142788 0.309704 -0.392662
0.002814 -0.081446 0.489088
0.089260 0.394357 -0.306941
0.262658 0.493914 -0.070984
-0.200877 0.266359 -0.423332
-0.064834 -0.483953 0.112870
0.285835 -0.495942 -0.040627
-0.097650 -0.494571 -0.057550
0.096313 -0.354683 0.346964
-0.225887 -0.038169 0.494259
-0.034803 0.150662 -0.477113
0.025192 0.463878 -0.184658
0.221640 -0.313844 -0.388373
-0.071047 -0.490801 -0.083803
0.282131 0.356490 0.345995
0.054486 0.132317 0.478208
0.281797 0.219226 0.445408
0.189884 -0.348800 -0.357195
-0.078183 0.387923 0.310984
-0.130789 0.002883 -0.500153
0.214546 -0.358722 -0.347004
0.105428 -0.486406 -0.106376
0.034096 0.214928 0.447381
-0.217744 0.021193 0.495334
-0.048715 0.331268 0.370068
-0.081078 0.310530 -0.392039
-0.077377 -0.391469 0.304925
0.272905 -0.218946 -0.449369
-0.220999 0.348099 -0.358724
0.085816 -0.306896 -0.393913
0.153035 -0.364229 0.336862
0.029967 -0.496463 0.030455
0.007474 -0.091532 0.487288
-0.099992 0.394755 0.302034
-0.245766 0.268537 0.417600
-0.247608 0.494580 -0.064820
-0.208115 0.407092 -0.289652
-0.247069 0.348678 0.354019
0.057724 0.405378 -0.292103
0.206474 -0.401895 -0.295565
-0.176646 -0.444792 -0.225013
-0.091147 -0.128963 -0.483213
0.007894 0.004004 0.495905
-0.273098 0.359393 0.343013
-0.249059 0.491228 0.083579
0.247674 0.384995 -0.318682
0.130234 -0.394583 0.301019
-0.062036 -0.360224 0.341284
-0.014375 0.082790 0.488922
-0.286110 0.390960 -0.311201
0.272427 -0.153899 0.471290
0.105580 -0.151558 -0.476378
-0.203379 0.495774 -0.053770
0.181635 0.462870 -0.187344
0.214740 0.180852 0.461993
0.144293 0.073328 -0.494764
-0.245765 0.452722 0.206645
0.057242 -0.050929 0.493225
-0.281576 -0.456686 -0.199535
-0.013834 0.294409 -0.404201
-0.205508 0.265833 0.419248
-0.044100 -0.426102 -0.259195
0.019548 -0.073465 -0.494704
0.228723 0.259383 0.423180
-0.265116 -0.304129 0.391741
0.044213 0.428334 0.252734
0.217735 -0.096099 -0.490808
-0.223684 -0.441077 -0.232551
-0.217604 0.491591 0.081071
0.173373 -0.249148 0.428656
-0.020731 0.105876 0.484590
0.150227 0.148120 -0.477990
0.174044 -0.149692 -0.476947
-0.165416 -0.493105 0.064631
0.250273 -0.097669 0.486002
-0.009680 -0.409761 0.280016
0.048711 -0.258575 0.423251
0.079752 0.094563 -0.491221
0.274088 0.479198 0.135034
-0.190525 -0.355723 0.345951
0.088131 -0.011988 0.495617
-0.103126 -0.105338 0.484396
-0.082845 -0.075145 -0.494415
0.193916 -0.481330 0.123909
-0.101791 -0.457175 0.194122
-0.084728 -0.446511 0.217602
0.141084 -0.480001 -0.132765
0.131984 0.058319 0.492413
0.069539 0.338827 -0.367751
0.124873 -0.487247 -0.102360
-0.035317 0.031690 0.494864
-0.053666 -0.414425 -0.277442
0.049334 0.427515 -0.258348
-0.098272 0.428274 -0.257103
0.033469 0.232437 -0.443002
0.149605 0.430886 -0.252818
0.051203 0.288367 0.404138
0.172265 0.449829 0.212517
0.029724 -0.410226 0.279352
-0.239666 0.107419 0.484223
0.263187 0.375484 0.325480
-0.013547 0.433592 -0.248379
-0.089257 0.424396 -0.263464
-0.035696 -0.487704 0.096842
0.084996 -0.486524 -0.105813
-0.266788 0.383088 -0.321074
-0.271751 0.419217 0.267381
0.130967 0.002269 -0.500164
-0.020654 0.466780 0.173104
-0.064585 -0.463320 0.179060
0.006733 0.459539 -0.195492
-0.112295 -0.242386 0.432534
-0.141779 0.464507 0.178881
-0.270319 0.253350 -0.431188
-0.251257 -0.045329 0.493679
-0.181294 0.002715 -0.500156
-0.150220 0.494022 -0.069985
-0.109831 0.498605 -0.006274
0.126497 -0.326172 -0.378108
0.033521 0.454616 -0.206462
0.053446 0.421932 0.263268
-0.061849 -0.477802 -0.140729
0.152174 -0.200902 -0.457569
0.182842 0.484759 0.114777
-0.000332 0.439745 0.232836
0.266035 0.057116 0.492544
-0.252838 0.136275 0.477000
0.033050 0.163510 -0.472681
0.085088 0.182734 0.461287
-0.279283 0.444500 0.223331
0.191069 -0.474965 -0.150759
0.252819 -0.491626 0.074058
0.235702 0.438865 0.234371
-0.000545 0.465324 -0.180806
-0.143336 -0.441693 0.226752
-0.133634 -0.442186 -0.230301
0.023798 0.161446 0.469275
0.161885 0.315294 0.383681
0.071835 0.484245 -0.120308
-0.194763 -0.485308 0.107167
-0.123137 0.053132 0.492974
-0.229953 0.221518 -0.448383
0.024722 0.187155 -0.463843
-0.001111 -0.322156 -0.381745
0.138172 -0.275531 -0.416751
-0.246222 0.094416 0.486920
-0.011490 0.457265 0.196253
0.023814 0.212573 -0.452791
0.172009 0.105936 -0.488839
-0.200035 -0.093566 -0.491244
0.121781 0.403041 -0.295445
-0.233935 0.063556 -0.496178
-0.194134 0.415977 -0.276947
0.085749 0.498505 -0.012111
0.020250 0.037765 -0.498728
-0.182184 -0.287721 -0.408226
-0.288913 -0.217169 -0.450269
0.285831 0.128552 -0.483393
0.052792 -0.393546 -0.306632
-0.285889 0.039412 -0.498595
-0.102779 -0.346434 0.354994
0.156492 0.394989 -0.306149
0.229446 0.136254 -0.481267
-0.137814 0.493110 0.070568
-0.279150 -0.486135 -0.107668
-0.240782 -0.288326 0.403663
-0.045140 0.443133 -0.230317
0.084727 -0.492575 0.068545
0.023744 -0.351888 -0.354023
-0.032862 -0.422033 0.261305
-0.248499 0.162984 -0.472863
-0.275808 0.022675 -0.499796
0.182250 0.038504 0.494555
0.204041 -0.460575 0.186378
0.237523 0.444820 -0.227113
0.133335 0.495597 -0.055407
0.146278 -0.019957 -0.499697
0.200960 -0.451315 0.207182
0.248907 -0.271420 -0.419571
0.074053 0.422646 -0.266335
-0.077899 0.365504 -0.340940
-0.180142 -0.419432 -0.269857
-0.070954 -0.492479 -0.072204
-0.028966 0.328372 -0.376974
0.122120 -0.272575 -0.418818
-0.260585 -0.165813 -0.471605
-0.276846 -0.393965 0.301794
-0.236695 0.019592 -0.499852
0.183656 -0.178595 -0.466809
0.248575 -0.387040 0.310479
-0.129837 0.441291 0.229843
0.163195 0.341276 0.361003
-0.166157 -0.366664 -0.338845
0.189958 0.143088 0.474922
-0.021174 -0.276638 0.411516
-0.071315 -0.239983 -0.438292
-0.183792 0.292092 -0.405949
-0.143774 0.302142 -0.398367
0.043883 -0.217225 -0.450244
0.264284 -0.433039 0.243188
-0.290123 0.490733 0.086261
0.196733 0.047480 -0.497941
0.141975 -0.371400 -0.333399
0.218692 0.483109 0.120865
-0.165340 -0.487341 0.098612
0.015057 -0.248662 -0.433445
-0.128938 0.449941 -0.216880
0.073160 -0.486468 -0.106080
-0.234575 -0.496768 0.023658
0.272550 -0.484562 -0.115179
0.228117 -0.256650 0.424354
0.043845 0.108353 -0.488332
-0.151551 -0.412228 -0.280769
0.097471 -0.112739 0.482845
0.181993 0.388061 -0.314837
-0.022505 -0.179907 -0.466316
0.135421 0.014885 -0.499937
-0.077611 -0.120490 -0.485227
-0.209213 -0.463417 -0.183392
0.223742 -0.389127 -0.312490
-0.287307 -0.460880 0.185564
0.141360 -0.018412 0.495501
-0.135967 0.244528 -0.436247
0.192927 0.490719 0.086328
0.111872 0.424467 -0.263347
-0.044582 0.363319 -0.343351
0.109056 0.053251 0.492961
0.209013 0.145287 0.474251
-0.105499 0.492234 0.076625
-0.045544 -0.291063 -0.405889
0.067276 0.493219 -0.075113
0.094078 -0.211677 -0.452734
-0.197822 -0.185387 -0.464260
0.146001 -0.481163 0.124611
-0.030674 0.315428 -0.388081
0.241917 0.303316 0.393232
-0.137533 -0.497376 -0.009407
0.160451 -0.336197 0.364960
0.230032 0.124895 0.480070
0.161612 0.291092 -0.406703
0.245017 0.041306 -0.498441
-0.045927 -0.179925 0.462077
-0.224644 0.093209 -0.491505
0.110434 -0.089469 0.487720
-0.067866 -0.481831 -0.126134
0.223993 -0.239918 -0.438326
0.145513 -0.148365 -0.477352
-0.037135 0.412935 0.276896
-0.195974 0.142641 -0.479504
-0.209177 0.272511 -0.419270
-0.118800 0.208372 0.450323
0.284828 0.430816 -0.252934
-0.096342 -0.196619 0.455117
0.071367 -0.460717 -0.189866
0.190060 0.398683 -0.301516
0.027140 0.146612 -0.478408
0.088628 0.469202 0.166082
0.213025 0.034767 0.494726
0.284261 0.156619 0.470793
0.160127 0.386346 -0.316988
0.129598 0.151063 -0.476975
0.166518 0.486416 0.106868
-0.186479 0.363312 0.338988
-0.107095 -0.156938 0.470241
-0.267747 -0.497475 0.007876
-0.176229 0.497422 -0.036274
-0.075743 0.396209 -0.304618
-0.023365 0.121977 0.480763
0.076923 -0.274315 0.413049
-0.208059 -0.008966 0.495671
-0.112513 -0.433297 0.242699
0.225911 -0.322698 0.376610
-0.144703 -0.218514 -0.449596
0.133142 -0.471417 0.157339
0.059234 0.359862 0.342532
0.009282 0.438638 -0.238855
-0.214455 0.208515 -0.454790
0.006677 -0.264861 -0.423569
0.053462 0.494540 -0.065193
-0.107204 0.259357 -0.427743
-0.273099 -0.263864 0.419949
0.240278 -0.408989 0.281121
0.113144 0.146945 -0.478316
0.010012 0.382074 0.317799
0.235828 0.421341 0.264164
0.109187 0.002127 0.495871
-0.180317 -0.238571 -0.439036
-0.286607 0.107866 0.484117
0.014324 -0.118406 0.481558
0.038751 -0.239259 0.434327
-0.113938 0.497448 -0.035682
-0.112419 0.336871 0.364992
0.063880 -0.388081 -0.313876
-0.151288 -0.262041 0.421152
-0.279823 -0.154607 0.471046
0.091822 0.475413 -0.151956
0.281745 0.011208 0.495782
-0.113314 -0.204142 -0.456115
0.131131 0.258765 -0.428083
-0.080171 -0.193730 0.456321
-0.137466 -0.496779 0.023407
0.002169 0.209343 -0.454382
0.052443 -0.038245 -0.498826
-0.086065 -0.293820 0.399519
0.014503 -0.397769 0.297023
0.239561 -0.487167 0.099344
-0.181603 0.222936 0.443454
-0.246902 -0.356132 -0.349664
0.022603 -0.129675 0.478447
-0.261531 -0.118199 -0.485771
0.272532 -0.446797 -0.220943
-0.242832 -0.237479 -0.439611
0.241347 -0.466299 0.171122
-0.053543 0.387393 -0.315675
0.237920 -0.497485 -0.003360
0.048302 -0.441061 0.227953
0.278626 -0.215321 0.446578
-0.016685 -0.372341 0.327906
0.062535 0.460476 -0.193403
0.102144 0.200613 -0.458232
-0.289517 0.164595 0.468093
-0.256355 -0.312436 -0.389495
0.011181 -0.147016 -0.477764
0.256036 -0.308202 -0.392872
-0.228706 0.150363 0.472702
-0.181540 0.456612 0.197819
0.196262 -0.394910 -0.304825
0.024311 0.358293 -0.348799
-0.282305 0.247034 -0.434810
-0.289387 0.018981 -0.499863
0.116057 -0.393897 -0.306167
0.228375 -0.382893 0.315679
-0.276149 0.089370 -0.492309
-0.173864 -0.359403 0.342191
-0.131681 -0.293796 -0.403977
-0.050062 0.170009 0.466061
0.229179 0.407083 -0.289665
0.170281 -0.433662 -0.246011
-0.107795 -0.476462 0.140804
0.048247 0.443558 -0.229511
-0.175490 0.260887 0.422264
0.087577 0.133835 -0.481935
-0.036152 -0.466255 -0.176009
0.050541 0.324414 -0.380370
-0.188533 -0.229409 0.439636
-0.282779 -0.496770 0.023609
-0.231851 -0.308609 -0.392548
-0.149226 0.120864 0.481028
0.194861 -0.445246 -0.224091
0.269197 0.314919 -0.388518
-0.241240 -0.236533 0.435890
0.268916 0.013061 -0.499970
-0.184818 0.016141 0.495561
-0.264620 0.133242 -0.482099
0.019979 -0.460087 0.187634
0.228151 -0.098855 -0.490333
0.234472 0.392924 0.304462
-0.088918 -0.467367 -0.172785
0.011782 -0.338859 -0.366617
0.167299 0.088111 0.488006
0.261538 -0.139310 -0.480115
-0.154675 -0.497448 -0.005411
0.121439 -0.448701 0.213006
0.088063 0.231321 0.439039
0.124777 -0.435636 -0.242568
-0.288379 -0.378670 -0.324926
-0.204428 -0.279823 0.409413
0.220304 0.324028 0.376625
0.286186 -0.400643 0.293054
0.123107 0.486901 -0.109129
0.066292 0.409454 0.282171
-0.188807 0.237104 -0.440504
-0.135383 -0.478084 0.135487
-0.179824 0.143396 0.474827
-0.049704 -0.247020 0.429877
-0.180615 -0.456302 0.196068
0.037015 -0.101210 -0.489808
-0.233718 0.369513 -0.336513
-0.143266 0.206256 -0.455880
-0.117175 0.436867 0.237855
-0.017419 0.496969 0.036249
-0.061481 0.012242 0.495736
0.156272 0.054992 -0.497332
0.158447 0.440781 -0.234784
0.240260 0.008186 0.495918
0.216384 -0.440951 -0.232807
-0.072523 -0.497420 -0.006979
0.116882 -0.156175 0.470505
-0.163587 0.335492 -0.370864
-0.079204 -0.424084 0.257941
-0.182153 -0.437632 0.234465
-0.060554 0.332460 -0.373466
-0.138192 -0.464447 -0.180920
0.086399 -0.075475 0.489952
-0.135617 -0.370253 0.330211
-0.190627 -0.468103 0.166315
-0.288539 -0.494187 0.054620
0.276053 0.101284 0.485681
-0.260883 -0.289303 -0.407119
0.120213 -0.464855 0.174970
-0.058882 0.491987 0.078332
-0.200805 -0.049843 0.493313
0.263354 0.368868 0.333190
0.170152 -0.266193 0.418411
-0.237129 -0.060789 0.492077
-0.166751 -0.280180 0.409177
0.211919 -0.455694 -0.201914
0.141144 0.494302 -0.067394
0.247488 0.250389 0.428663
-0.151805 0.315266 -0.388220
-0.015632 0.098026 -0.490496
-0.063811 0.444100 -0.228481
0.218678 0.489751 0.090949
0.053287 -0.180735 0.461739
0.232649 -0.496626 -0.032180
0.103143 0.466698 -0.177142
0.192814 -0.484686 -0.114588
-0.019487 0.495494 -0.056365
-0.077273 -0.358040 -0.347704
0.242440 0.212993 0.448250
-0.224987 -0.359585 0.341990
0.091847 0.486986 0.104144
0.098157 0.350699 0.351944
-0.166279 -0.490670 0.079611
0.260674 -0.476248 -0.146361
-0.075035 0.489047 0.094307
0.124682 0.459371 0.191200
0.217792 0.451311 -0.213827
0.242203 0.428366 0.252680
0.049651 0.246922 0.430777
0.171475 -0.101712 0.485155
-0.215549 0.496920 -0.043171
-0.277721 0.174779 0.464272
-0.194490 0.295662 -0.403256
0.144189 -0.395074 -0.304607
-0.100506 -0.485291 0.107237
0.019017 0.492964 0.071582
-0.221508 -0.264247 -0.423944
0.077889 -0.352931 -0.352951
-0.213493 0.326985 -0.378164
-0.060104 -0.183879 -0.464826
0.094349 0.474089 0.151915
-0.247510 0.360899 0.341466
0.008805 -0.307506 -0.393427
-0.108809 -0.353686 0.347934
0.177737 0.206996 -0.455538
-0.126357 0.473102 -0.159530
-0.020273 -0.324075 -0.380007
0.258300 -0.276970 -0.415745
0.138221 -0.307919 -0.393097
0.000263 0.469276 -0.170273
0.021408 0.109688 0.483684
0.126716 -0.492385 -0.072854
0.166627 -0.480082 -0.132472
0.142995 0.024872 -0.499757
0.041716 0.140592 0.475683
0.090055 0.412319 0.277831
0.120021 0.200308 -0.458359
-0.047207 -0.002640 -0.500252
-0.185115 -0.399943 -0.298153
-0.243237 -0.442742 0.224761
0.131840 0.491310 -0.086201
0.182506 -0.386871 -0.315368
0.268852 0.438731 0.234605
0.030710 0.490214 -0.092566
-0.099604 -0.478314 0.134735
0.008981 0.405852 0.287325
-0.237374 -0.497417 0.009173
-0.029889 -0.211378 0.448521
-0.199510 -0.366206 0.334680
0.122556 0.216672 -0.450771
0.182046 -0.386204 0.311528
-0.043348 0.230781 0.439324
0.117408 -0.337833 0.363367
0.025014 0.115849 -0.486762
-0.171764 -0.379904 0.319429
0.167782 0.267324 -0.422695
0.268526 -0.490933 -0.082891
-0.244831 0.223962 -0.447179
0.103317 0.496510 0.041918
0.031072 0.174992 -0.468721
0.065710 0.182210 -0.465905
-0.156988 -0.425642 -0.259996
-0.172951 0.328726 -0.376670
-0.001811 0.403884 0.289933
-0.067177 0.105620 0.484650
-0.097014 0.283009 -0.412340
-0.054618 -0.495663 0.040958
-0.289640 0.479097 0.135398
0.085603 0.484827 -0.117859
-0.272486 0.232397 -0.443022
-0.129154 0.433310 -0.248843
0.021174 0.332599 -0.373347
-0.063284 -0.401963 -0.295476
0.258346 -0.209650 0.449372
0.244870 0.487417 0.102087
-0.025629 0.469843 0.164225
-0.202227 0.057543 0.492497
0.190064 0.475798 -0.150692
-0.246025 -0.403109 -0.293957
0.175482 0.323612 0.377002
0.245407 -0.478022 0.135694
0.074543 -0.383410 0.315031
-0.136483 -0.172307 0.464940
0.005038 0.053483 0.492936
0.184800 0.221805 -0.448241
0.193250 -0.492111 0.071243
-0.134589 -0.351934 0.349639
-0.215799 0.489037 -0.099404
-0.275370 0.128058 -0.483530
-0.275005 0.498256 0.013112
-0.164093 0.390720 -0.311503
0.007615 0.400254 -0.299428
0.259079 0.123181 -0.484876
-0.202712 -0.374565 0.325450
0.262292 0.264047 -0.424858
-0.164656 -0.337829 -0.367550
0.036760 0.326091 0.374756
0.121193 -0.140040 0.475586
-0.002950 -0.270567 -0.420091
-0.253766 -0.177717 0.462997
0.073941 -0.151103 -0.476517
0.015960 0.490950 0.085222
0.222158 0.481462 -0.132018
-0.198125 0.496713 -0.045083
0.019745 -0.154794 -0.475390
-0.031840 0.295711 -0.403219
0.283389 -0.460708 0.186022
-0.001171 -0.141706 0.475126
-0.204327 -0.380756 -0.322495
-0.283375 -0.466597 0.170329
0.162852 -0.035264 -0.499011
0.249392 -0.247585 -0.434101
-0.177030 0.176969 -0.468038
0.236683 -0.483851 0.113301
-0.134485 0.464918 -0.181888
-0.049235 0.184174 0.460746
0.249059 0.491823 0.079466
-0.001481 0.483264 -0.124434
-0.013019 -0.443989 0.222393
0.019663 0.156698 -0.475031
-0.149908 0.094641 -0.491205
0.281603 -0.431381 -0.249988
0.135599 -0.060064 -0.496468
0.044145 -0.007827 -0.500241
0.150171 -0.071941 0.490463
-0.123893 -0.206425 -0.455090
0.257770 0.363113 -0.343579
-0.265963 -0.472890 0.152511
-0.023508 -0.431515 -0.249754
-0.007093 0.347472 -0.359335
0.198882 -0.344301 -0.361688
0.004020 -0.248918 0.428788
0.151177 0.370598 -0.335316
0.265666 -0.184261 -0.464683
0.236003 0.252068 -0.431923
0.059809 0.483912 -0.121708
0.209056 -0.336645 -0.368622
-0.065053 -0.102358 0.485020
0.030642 0.477924 0.139648
-0.137106 0.438469 -0.239176
0.011852 -0.495067 -0.051432
-0.164225 -0.443713 0.222917
0.259478 0.347081 0.355660
-0.220074 0.406416 -0.290619
-0.164976 0.454257 0.203467
0.050252 -0.207833 -0.454458
0.072488 -0.431312 0.246085
-0.277087 0.488136 0.098656
-0.121297 -0.466461 0.170691
0.246450 -0.477808 -0.140710
-0.031900 0.113751 -0.487201
-0.265978 -0.489528 0.086245
0.257645 -0.343238 -0.362651
0.106777 -0.119456 0.481268
-0.097883 -0.159239 -0.474034
-0.082036 -0.350474 0.351061
-0.130714 0.452979 0.206124
-0.002102 0.493839 0.065530
-0.239943 0.442204 0.227992
0.226708 0.441899 0.228610
-0.143152 0.497401 -0.036741
-0.201623 -0.389931 -0.311424
0.164480 -0.440720 -0.233276
0.165684 -0.478049 0.135602
-0.282742 -0.470676 -0.163193
0.045571 -0.019592 -0.499714
-0.198310 0.492254 -0.080718
-0.193783 -0.494822 -0.054452
0.187749 0.260396 0.422563
0.182378 0.307136 -0.394599
0.209736 0.353944 -0.353034
-0.108216 -0.127044 0.479174
0.157108 -0.413856 0.274162
-0.099916 -0.335142 -0.369984
-0.221406 0.152014 -0.476647
-0.041498 -0.263506 0.420185
-0.187254 0.469859 0.164178
0.202947 0.476998 -0.146759
-0.063718 -0.307201 0.389424
-0.243988 0.125869 -0.484134
0.204748 0.401873 0.292599
0.199304 0.136727 0.476863
-0.108668 0.433371 -0.248742
0.014736 0.466946 0.172623
0.172530 0.409375 -0.286387
-0.274712 0.304600 -0.396512
0.115718 0.492073 -0.081769
0.280909 0.401000 0.293757
0.074888 -0.483106 0.116435
-0.072466 -0.131981 -0.482351
-0.231693 -0.345185 -0.360887
0.040576 -0.077967 -0.493929
0.197464 0.311760 -0.391111
-0.272387 0.168006 -0.471131
0.202274 0.498159 0.018482
0.018137 -0.162705 0.468252
0.095430 0.201263 0.453513
-0.105713 -0.054771 0.492914
-0.266830 0.186758 0.459777
-0.288107 -0.346268 -0.359796
-0.057997 0.496174 0.046054
0.234377 -0.430331 0.247695
-0.236076 -0.494494 -0.058275
0.244296 -0.494517 -0.058112
-0.043653 -0.288327 0.403663
0.164572 0.497424 -0.036226
-0.006773 -0.454268 0.200601
-0.104617 -0.446222 0.218151
0.263280 -0.194693 -0.460355
0.211790 0.330658 0.370619
0.047574 0.410625 -0.284600
0.105731 0.264292 -0.424696
-0.119684 0.392437 0.305107
0.100054 -0.238857 0.434558
-0.113481 -0.101076 0.485289
-0.119100 0.440606 -0.235117
0.070194 -0.489178 0.088283
0.208152 0.189094 0.458900
-0.163638 0.494637 -0.064288
-0.095655 -0.475050 0.145433
0.284382 0.402360 -0.296417
0.134946 0.063792 -0.496144
0.105746 0.497421 -0.036293
-0.012204 0.347639 0.355087
0.174547 -0.473302 0.151160
0.173368 -0.459349 -0.193149
0.136337 0.088261 -0.492541
0.003940 -0.389993 0.306775
0.118173 0.382339 -0.322013
-0.136552 0.480996 0.128518
-0.004940 -0.469416 -0.166845
0.016865 0.322577 0.377873
0.172157 -0.134274 -0.481652
0.067621 0.334520 0.367122
-0.185911 -0.016238 0.495540
0.280724 0.420129 0.266000
-0.036738 0.497995 -0.023501
0.050495 0.259348 0.423202
-0.054205 0.314355 -0.389001
0.040694 -0.368759 0.331861
-0.013522 -0.251646 0.427224
-0.249902 0.102087 -0.489645
0.142919 0.202087 0.453143
-0.212343 -0.137981 -0.480521
0.213816 -0.386067 -0.316306
0.132132 0.044369 0.493921
-0.209428 -0.401291 -0.296366
-0.258766 0.472382 -0.161887
-0.047598 0.473211 -0.159170
-0.173930 0.103193 0.485227
-0.149695 0.345178 0.357469
0.129016 0.497643 -0.031345
-0.183612 -0.328116 0.371961
-0.098864 -0.321286 0.377822
-0.173029 -0.069949 -0.495310
-0.212875 0.460328 -0.193732
-0.043963 -0.325948 -0.378310
-0.006132 -0.075850 0.489898
0.094743 0.208868 -0.454616
0.141701 -0.489497 0.086427
-0.131516 0.493569 -0.073082
-0.208821 -0.105522 0.484357
0.095376 0.184044 -0.465140
0.263637 0.235515 0.436831
-0.021860 -0.352305 0.349278
-0.151016 -0.175397 -0.468009
-0.102297 0.025723 0.495131
0.228155 -0.127398 -0.483585
-0.050646 0.022861 0.495260
0.144007 0.174535 0.464363
0.223330 0.254616 -0.430462
0.109763 0.495565 0.053580
-0.289951 -0.136738 -0.480900
0.025728 -0.465774 -0.177403
-0.252096 -0.451411 0.206968
0.286725 0.310136 -0.392336
-0.219270 0.498134 0.019902
-0.167369 0.201066 -0.458043
-0.122134 0.007634 0.495943
-0.001327 0.139248 -0.480441
-0.224476 0.109425 0.483746
0.276010 0.351321 -0.355587
0.181653 0.497283 -0.039372
-0.087640 -0.430104 -0.252215
0.030610 0.025329 -0.499736
0.026002 0.309153 -0.393077
-0.222950 0.358317 0.344119
-0.036768 0.385997 0.313228
-0.115544 0.253208 0.426945
0.016592 0.194351 -0.460843
0.017822 0.489630 -0.095960
-0.193043 0.257145 -0.429012
-0.163595 -0.344806 0.356579
0.172373 0.247674 -0.434443
0.152821 -0.451800 0.206101
-0.239936 0.427386 0.254388
-0.230569 -0.474639 0.146780
0.213091 -0.466325 0.171053
0.016013 0.273201 -0.418815
-0.228510 -0.352813 -0.353072
0.268653 -0.365549 -0.339990
0.049804 -0.243581 -0.436398
0.253751 0.140511 -0.480092
0.137148 -0.145442 0.474095
0.076233 0.095163 0.486792
0.214070 0.092428 0.487263
0.155623 -0.012547 0.495607
0.056766 0.351067 0.351566
0.284927 -0.063202 -0.496128
-0.054645 0.464874 -0.182004
0.255557 0.040787 0.494308
0.068794 0.494770 -0.063063
-0.271826 -0.391028 -0.309970
-0.018275 0.490216 0.088729
-0.029207 0.416578 0.271379
-0.251975 0.489391 -0.097351
0.038062 -0.213191 0.447628
-0.208177 -0.484072 0.112367
0.018626 -0.085954 0.488436
0.230944 -0.405382 -0.290944
-0.005048 -0.496497 -0.033774
0.273060 -0.422622 0.260339
0.140058 0.005499 0.495932
0.046146 -0.489450 0.086698
-0.069542 0.395604 0.300909
0.267061 -0.397323 -0.301626
0.033029 0.268281 0.417756
-0.084331 -0.482897 -0.122274
-0.086514 -0.402643 0.290194
-0.138435 -0.139366 0.475772
0.214826 0.399631 0.295572
0.066171 0.042187 0.494157
-0.041248 -0.482114 0.120609
0.184465 0.052376 -0.497544
0.236190 0.229686 0.439900
0.113282 -0.440040 -0.234656
-0.128935 0.477291 0.141940
0.216184 0.345429 -0.361323
-0.126277 0.493069 0.070854
-0.202670 -0.359474 0.342112
0.137266 -0.265325 -0.423286
-0.167601 0.003342 -0.500145
-0.153641 -0.460723 -0.189853
0.266400 0.045096 0.493843
0.195883 -0.313946 0.384120
0.089394 0.330667 -0.375005
-0.065084 -0.211820 0.448303
0.093025 -0.471292 0.157750
0.136969 0.420694 -0.269537
0.211820 -0.125456 -0.484047
-0.256547 -0.381492 0.317436
-0.046714 0.047826 -0.497913
-0.256496 -0.376814 -0.327089
0.004343 -0.413908 -0.278224
0.203229 0.378027 -0.327113
0.221406 -0.106874 -0.488462
-0.167976 0.067970 -0.495539
-0.019175 0.427872 -0.257762
-0.137715 -0.409307 0.280666
0.100293 0.112900 -0.487380
-0.042034 0.315786 0.383288
0.210185 -0.041572 0.493983
0.164646 0.203500 0.452509
-0.064941 0.220888 -0.448693
0.103068 -0.484201 -0.116901
-0.257736 0.419180 -0.272020
0.171643 -0.356561 -0.349223
-0.013403 0.266549 -0.423206
-0.171351 -0.420973 0.263045
0.253505 -0.055429 -0.496969
-0.244114 -0.087677 -0.492258
0.113632 -0.404132 -0.292601
0.064837 0.485247 0.112448
0.174751 0.233867 0.437699
0.106063 -0.255107 0.425239
-0.252050 0.333611 0.367945
0.206570 0.466882 -0.176654
-0.168939 0.221758 -0.448265
0.127645 -0.227268 0.440691
-0.043734 -0.271059 -0.419791
-0.249270 -0.483987 0.112725
-0.219478 0.296739 0.398282
-0.167185 0.313530 0.385087
-0.176714 -0.150261 -0.476774
0.156194 -0.122852 0.480331
0.252436 -0.406159 0.285168
0.212796 0.200702 0.453765
0.149999 0.255446 -0.429986
0.131753 0.152732 0.471979
-0.192094 0.475853 -0.150514
0.069962 0.455702 -0.204042
-0.195644 -0.496111 -0.038545
-0.059502 0.362564 0.339757
-0.239876 -0.197351 0.454812
0.229048 0.092860 -0.491578
0.271707 0.464659 0.178518
-0.202783 -0.408401 0.281962
-0.108429 -0.418825 0.266568
0.116535 0.478607 -0.141488
0.228321 -0.489997 -0.089236
0.065393 0.195027 -0.460561
-0.016901 0.027657 -0.499547
-0.231582 0.490137 -0.093018
-0.029968 -0.159216 0.469456
0.023909 -0.143078 -0.478965
-0.261599 -0.479940 -0.132985
-0.274306 0.269036 0.417295
-0.066471 0.498248 0.013559
0.214438 -0.378740 0.320841
0.023578 -0.497066 0.017004
0.286103 -0.095642 -0.490886
-0.033972 0.220857 -0.448709
0.268672 0.424166 0.259885
-0.233926 -0.474171 -0.153060
-0.214659 0.164764 -0.472249
0.046178 -0.054387 0.492945
0.059180 0.331432 -0.374348
-0.065722 -0.325839 -0.378409
-0.229556 -0.398461 -0.300117
-0.098616 -0.413263 -0.279201
-0.003421 0.353366 0.349204
0.125774 0.224547 0.442606
0.243623 0.050956 0.493209
0.053716 -0.310288 -0.391209
-0.128331 -0.269040 0.416532
0.173675 -0.471756 -0.160060
-0.062129 -0.091543 0.487286
0.061747 -0.323354 -0.380660
-0.166606 0.111474 0.483259
-0.205896 -0.455174 0.198582
-0.172199 0.493537 -0.073269
-0.115513 -0.259484 -0.426847
-0.021762 0.026077 0.495115
-0.053303 0.263492 -0.425224
0.250875 -0.468379 -0.169850
-0.289091 0.488302 0.097865
-0.235247 0.420970 0.264727
-0.122289 -0.492364 0.069774
0.266799 -0.366402 0.334463
0.198510 0.474808 0.149830
-0.285767 -0.005003 0.495743
-0.011083 -0.493816 -0.062958
-0.052306 0.035554 0.494690
0.118389 0.171633 0.465452
-0.018704 0.492219 0.076729
0.079366 -0.163108 0.468113
-0.199451 0.235824 0.436668
0.263099 0.150774 -0.477075
0.072174 -0.229114 -0.444015
-0.106589 -0.003914 -0.500275
0.160058 -0.105694 -0.488743
0.073832 -0.404120 0.288082
-0.268797 -0.196355 -0.459609
0.117346 -0.484182 -0.116994
-0.064083 0.329454 0.371710
-0.046373 0.459971 0.189761
-0.023129 -0.311622 0.386088
0.216684 -0.210623 0.448893
0.120184 -0.496088 -0.038831
0.089612 -0.407204 -0.288379
0.057258 0.394552 0.302303
0.248126 0.437500 -0.241017
0.280518 0.358422 -0.348674
0.161350 0.497269 0.032546
0.138502 0.374382 -0.331137
0.253097 0.362289 0.340038
-0.209718 0.085905 0.488386
0.040346 -0.225987 -0.445662
0.113768 -0.270891 0.415310
0.025556 -0.297195 0.396972
-0.119322 -0.110303 -0.487648
0.066325 0.225852 -0.446247
0.182691 -0.352868 0.348731
-0.017056 0.278508 -0.415311
-0.245433 0.413411 -0.280616
0.127123 -0.441439 -0.231817
-0.224161 -0.463554 -0.183064
-0.184868 0.310933 -0.391735
0.284209 -0.046753 -0.497906
0.036299 0.494467 -0.065867
0.161274 -0.497363 0.010382
0.091241 -0.457934 -0.196543
-0.137781 -0.102552 0.484979
0.166318 -0.018047 -0.499783
0.048330 0.067310 -0.495635
0.262551 -0.094298 -0.491118
0.124055 -0.429600 -0.253094
-0.150211 0.494785 0.058991
0.273863 0.495669 0.052289
0.158484 0.498340 0.008448
0.167076 -0.169319 -0.470289
-0.278915 0.249169 0.429407
-0.204856 -0.246831 0.429985
0.107320 -0.278355 0.410382
0.118789 -0.162334 -0.472910
-0.263192 -0.475012 -0.150622
-0.278738 0.126462 0.479698
0.277944 0.496913 -0.043235
-0.290032 0.181893 0.461602
-0.137196 -0.129052 0.478619
-0.198105 0.122731 0.480584
-0.082253 0.484638 -0.118653
-0.175681 -0.323620 -0.380420
-0.141977 0.482010 -0.129711
0.273133 -0.358612 -0.347116
-0.224632 -0.104723 -0.488974
-0.235836 -0.492699 -0.070683
-0.231380 0.340765 -0.365864
0.138469 0.387414 0.311577
0.181631 -0.268221 -0.421521
0.231912 0.306617 0.390599
0.120512 0.074214 -0.494636
-0.137088 0.370105 -0.335860
-0.260445 0.143341 -0.479311
0.171494 0.479364 -0.139006
0.061589 0.153247 -0.476222
0.002616 -0.194235 -0.460561
-0.169622 -0.497441 -0.005835
-0.047869 0.477479 0.141260
-0.080721 0.491038 0.084802
0.150633 0.470594 -0.166760
0.181127 0.221234 0.444351
0.266250 0.144033 0.474633
-0.232543 -0.026914 0.495171
-0.033772 0.452236 0.207631
0.075238 0.174268 -0.468970
-0.178537 0.479901 -0.137246
-0.068330 0.433641 0.243481
-0.106953 0.163865 0.468367
-0.101083 0.200013 -0.458482
-0.283959 0.484265 -0.120223
-0.022452 0.107884 -0.488430
0.164566 0.025588 0.495137
-0.072329 0.274301 0.413975
0.240010 -0.317456 -0.385493
0.204887 -0.201910 -0.457116
-0.081833 0.222350 -0.447973
0.188840 0.347073 -0.359723
-0.232191 -0.408668 0.281580
0.280043 0.475400 0.148116
-0.103562 -0.108932 -0.487973
0.272196 0.468207 0.168967
-0.052401 0.034776 -0.498970
0.134479 -0.425463 -0.260308
0.212260 -0.494290 0.053665
-0.093030 -0.114751 -0.486591
-0.074454 -0.206993 0.450682
-0.236070 0.414016 0.275260
0.006796 -0.103415 0.484799
-0.199527 -0.120906 0.480868
-0.068467 0.084918 0.488555
0.114862 -0.165599 0.467254
-0.015056 0.192236 -0.461725
0.010286 -0.361920 0.339411
-0.039378 -0.317429 -0.385514
-0.100407 -0.289686 -0.406852
-0.226204 -0.497260 -0.015883
0.126714 -0.494086 0.055557
-0.205876 0.491282 0.083206
-0.036627 -0.336662 -0.368607
0.209464 -0.429682 -0.252951
-0.134942 0.146690 0.473822
-0.260484 0.186467 -0.464130
0.115823 -0.151870 -0.476283
0.207278 0.308300 0.389258
0.024584 0.195989 0.455880
-0.153613 -0.288220 -0.407877
0.113738 0.475128 -0.152888
0.263196 -0.492019 0.071780
-0.133334 0.491506 -0.085065
0.112353 0.442657 -0.231222
0.262847 -0.420638 0.263594
-0.268297 -0.279568 0.409581
-0.173051 0.085625 -0.492985
-0.155548 -0.204831 -0.455806
0.161670 -0.286314 0.405128
0.194853 -0.064123 0.491594
-0.058098 -0.333548 0.367300
0.255762 0.470509 -0.166988
-0.071347 0.366319 0.335899
0.157041 -0.305530 -0.395002
0.032519 -0.360743 -0.344928
-0.136107 0.410065 0.281244
0.115412 0.022256 0.495287
0.088667 -0.038680 -0.498779
0.105303 0.452737 0.206616
0.076613 -0.372021 0.328259
-0.222400 0.472281 0.157156
-0.254342 -0.464501 0.175913
-0.105957 -0.052803 -0.497252
-0.271824 0.012020 -0.499988
0.087456 -0.492914 -0.069194
