0.017912 0.213983 0.447805
0.286953 0.030261 0.494928
0.049952 0.058426 -0.496920
0.192315 0.329914 0.371294
0.127959 -0.437757 -0.238869
0.023470 0.027805 -0.499535
-0.047618 0.403391 -0.294943
0.069445 -0.209102 -0.453889
-0.026808 0.480686 -0.134674
-0.030036 0.448008 0.216213
-0.085285 -0.458259 0.191706
0.235458 0.097379 0.486410
0.079511 -0.490855 -0.083424
-0.142520 -0.214665 0.446901
-0.093555 -0.443856 0.222644
0.114836 0.494591 -0.064715
-0.178370 -0.058129 0.492461
-0.019922 -0.496739 0.024287
0.257752 0.053973 0.492883
-0.100385 0.106315 -0.488759
-0.029756 -0.481446 -0.127531
0.001017 0.498623 -0.009481
-0.149075 0.015938 0.495570
-0.249600 -0.410846 0.278466
0.194606 0.305084 0.391822
0.094567 -0.496415 0.031519
-0.097776 -0.450047 0.210006
-0.082114 0.449363 -0.218169
0.109106 -0.487327 0.098674
0.216658 -0.300584 -0.398946
-0.053814 0.238054 -0.439959
0.272409 0.145981 -0.478582
0.003765 0.498076 -0.021697
-0.122291 -0.006745 0.495711
-0.061981 0.175476 0.464010
0.103525 0.443166 -0.230254
-0.020371 0.081464 0.489150
0.081645 -0.004982 0.495743
-0.117165 0.226133 0.441771
-0.011808 -0.440677 -0.233362
0.225740 -0.145530 -0.478217
0.071005 0.389584 -0.312927
0.265505 0.495666 0.052334
0.243954 -0.246967 -0.434478
-0.059766 -0.394614 0.300980
-0.116363 0.027395 0.495056
-0.156005 -0.016976 0.495527
-0.259391 -0.432834 0.243579
-0.089047 -0.497375 -0.009480
0.059450 0.406820 0.286043
0.084905 0.317284 -0.386488
-0.015294 -0.427840 0.251781
0.281709 0.192818 0.457303
0.186486 0.400914 -0.298485
-0.215403 0.414993 -0.278354
0.034824 0.416334 -0.276437
-0.098187 -0.269001 0.416558
-0.126769 0.043535 -0.498261
-0.279114 0.087085 -0.492774
0.202856 0.443818 0.224716
-0.267904 -0.447327 0.216052
-0.248979 -0.497615 0.003830
-0.015595 -0.494987 -0.052418
-0.241240 0.108598 -0.488281
-0.132477 0.478378 -0.142239
-0.275011 0.497230 0.033024
0.109070 0.498502 -0.000564
0.266558 0.046094 -0.498053
-0.190830 0.009031 0.495880
0.262547 0.491570 0.081213
0.285130 -0.153905 0.471288
0.101818 -0.471019 -0.162199
-0.257458 -0.060177 0.492165
-0.110982 0.106244 0.484502
0.284746 -0.422979 -0.264484
-0.287869 0.423132 0.261451
0.033481 0.489721 -0.095431
0.035906 0.183332 -0.465437
0.250521 -0.027791 0.495100
0.032587 -0.072833 0.490334
-0.028419 -0.264671 0.419416
-0.072479 -0.176761 -0.467497
-0.126870 0.154087 -0.475932
-0.242239 0.283305 0.407678
0.078465 -0.240248 -0.438153
-0.162413 0.456880 0.197175
0.025330 0.082907 -0.493378
-0.024848 0.331629 -0.374179
-0.196397 0.367286 -0.338972
0.095270 0.181516 0.461744
-0.267180 0.463767 -0.184956
-0.007813 0.492918 0.071899
-0.048030 0.103756 -0.489295
-0.236376 -0.063858 0.491633
0.265712 0.480077 -0.136670
-0.069457 0.496518 0.041814
-0.042399 0.472750 -0.160681
0.140511 0.453460 -0.209038
0.280374 -0.488131 -0.098139
-0.063965 -0.479569 0.130622
-0.172999 0.094445 -0.491246
0.041190 -0.003897 0.495763
-0.245302 0.280286 -0.414137
-0.145503 0.479147 -0.139717
0.036774 -0.475530 -0.148963
0.243142 0.494461 -0.065916
-0.119088 0.309021 -0.393177
0.042973 -0.060981 -0.496369
0.261770 -0.377747 0.321938
-0.262265 0.481893 -0.130203
0.213696 0.293943 0.400238
0.033878 0.355227 -0.351785
-0.062742 0.011882 -0.499991
0.059015 0.345855 -0.360909
0.203523 0.486228 0.107763
-0.273812 0.375976 -0.329378
-0.014151 0.346240 0.356507
-0.088665 0.474598 -0.154625
0.076216 0.270631 0.416323
-0.262377 -0.441947 -0.230786
0.037168 -0.341644 -0.364095
0.168737 0.009138 -0.500040
-0.048144 0.329616 0.371563
-0.166704 0.009107 0.495877
-0.147390 -0.422178 0.261068
-0.244068 -0.491449 -0.079319
0.040023 -0.492703 0.067807
-0.135074 0.166793 -0.471549
0.151470 0.301780 0.394456
0.180712 0.498486 0.000331
0.204799 -0.369138 0.331442
0.033692 0.213826 -0.452173
0.250163 -0.376301 0.323533
-0.108902 0.167584 -0.471276
0.033167 0.477617 0.140759
0.034937 0.320650 0.379410
-0.019944 -0.497222 -0.017952
0.259834 0.491227 -0.086683
0.104031 0.306918 0.390359
-0.277604 -0.068712 0.490930
0.011752 0.213233 -0.452465
0.018535 0.263673 -0.425105
0.002106 -0.289283 0.402942
0.278580 0.087261 -0.492748
0.268292 0.037990 0.494581
-0.189626 -0.219533 0.444503
0.171897 0.486168 0.108050
-0.080604 0.224391 -0.446967
0.039556 0.455699 0.200008
0.212049 0.480851 0.129045
-0.021890 0.239898 -0.438902
-0.004208 -0.451561 0.206632
0.159302 0.289261 -0.408085
0.167887 -0.434359 -0.244795
0.170447 -0.362685 -0.342932
0.175685 -0.242933 0.432220
0.040284 0.498296 0.010874
0.250144 -0.476695 -0.144742
0.006549 -0.496454 0.030653
0.042002 0.269492 -0.421263
0.220035 0.475280 -0.152391
-0.095763 -0.149608 -0.476973
0.250935 -0.488907 0.089855
0.169849 0.113065 -0.487345
-0.146040 -0.467323 -0.172912
-0.055183 0.466518 -0.177623
-0.093566 0.087949 0.488034
0.051818 -0.488600 0.091640
-0.111493 -0.197195 0.454877
0.098154 0.416344 -0.276422
0.247456 -0.031454 -0.499182
-0.266441 -0.164085 -0.472253
0.046597 0.101854 0.485545
0.240376 0.446342 -0.224222
0.078704 -0.482051 0.120874
-0.182976 0.103443 -0.489361
-0.103493 -0.182899 0.460837
0.063059 0.498566 -0.010765
-0.104975 -0.427595 -0.256590
0.251376 0.473675 -0.157652
0.186047 -0.375575 0.324335
-0.142943 0.498254 0.013189
-0.178192 0.186145 -0.464264
0.252671 0.143925 0.474666
-0.005594 0.023762 -0.499777
0.212190 -0.485814 -0.109199
0.195609 0.383193 0.316496
-0.032808 0.398536 0.297022
-0.092078 0.496775 0.038644
-0.287286 -0.106696 -0.488505
0.251761 0.368467 -0.337668
0.262626 0.126288 -0.484019
-0.000948 0.497401 -0.036728
0.142788 0.043300 -0.498280
0.243487 0.386461 -0.316844
-0.139542 0.239921 0.434511
-0.151132 0.115453 0.482314
-0.243209 -0.447735 0.215159
-0.195871 -0.194801 0.455875
-0.191421 0.413373 -0.280671
0.218849 0.063330 0.491872
-0.156416 -0.141094 0.475295
-0.271514 0.328004 0.373024
-0.116665 0.489515 -0.096627
0.003217 -0.226803 0.440920
0.129906 -0.142077 -0.479271
0.047481 -0.264773 -0.423623
-0.158869 -0.107695 0.483902
0.015045 0.395183 0.301467
-0.213977 -0.440699 -0.233319
-0.003478 0.481415 -0.132215
-0.172527 -0.293832 -0.403952
-0.168864 0.492566 0.074330
-0.257895 -0.415108 -0.276407
-0.264485 0.073571 -0.494729
0.199718 -0.191842 -0.461634
-0.126873 -0.040371 -0.498596
0.225686 -0.379799 0.319560
-0.240001 0.368348 -0.337799
-0.263735 -0.308942 -0.392282
-0.109677 -0.390854 -0.310200
-0.043272 0.274553 0.413798
-0.063421 -0.116349 0.482089
-0.148639 0.222261 -0.448017
0.063284 0.487183 -0.107943
0.128363 0.497366 0.031351
0.053149 0.267069 -0.422863
-0.034884 0.048980 -0.497820
0.240861 0.396262 -0.304552
-0.257323 0.228006 0.440784
-0.033788 -0.452828 0.203808
-0.150341 0.007355 -0.500072
-0.266322 -0.410783 0.278555
0.255258 -0.143691 0.474578
-0.209975 0.124357 -0.484551
0.277481 0.218491 0.445782
0.122066 -0.119931 0.481137
-0.089435 0.066661 -0.495729
-0.130141 0.494990 -0.061028
-0.062873 -0.377006 -0.326865
-0.197641 0.488771 0.095626
-0.268698 0.318077 0.381461
-0.271016 -0.475657 0.143444
-0.289932 -0.369048 -0.336140
0.147115 -0.262302 0.420980
0.260334 -0.496365 -0.035409
-0.271575 -0.472544 0.153646
-0.253017 0.368550 -0.337577
-0.057420 -0.428236 -0.255473
-0.102109 -0.400506 -0.297407
0.208201 -0.348860 0.352632
0.259672 -0.477993 -0.140038
0.021506 -0.265591 0.418809
0.152168 -0.493715 0.058989
-0.182677 -0.491897 -0.076222
-0.226915 -0.496979 -0.027829
0.176717 0.420569 0.265333
-0.148422 -0.041440 0.493994
0.231049 0.493734 -0.072123
-0.089939 -0.364351 -0.341222
-0.211382 -0.114973 0.482377
0.086125 0.430132 -0.254055
-0.270732 -0.488606 0.091605
0.098640 -0.167340 0.466653
-0.099410 -0.410433 -0.283489
-0.184828 0.350798 -0.356096
-0.243452 0.214608 0.447525
-0.104672 -0.010830 -0.500107
-0.061598 -0.494739 -0.055478
-0.110500 -0.471305 -0.161368
0.099174 -0.491671 -0.077784
0.021736 0.478502 0.137554
0.158910 0.110739 -0.487832
-0.177680 0.398787 -0.301385
0.272643 -0.495563 -0.045307
-0.138280 -0.265640 0.418776
-0.101290 -0.486489 -0.105978
-0.273731 -0.199416 0.453951
-0.071952 -0.009548 -0.500164
0.255485 -0.494273 -0.059803
-0.201270 -0.469782 -0.165784
-0.025215 -0.289914 -0.406692
-0.266917 0.348540 -0.358294
-0.281753 -0.207494 0.450435
0.161710 0.195170 -0.460502
0.281584 -0.497113 0.015957
0.015651 -0.497358 -0.010437
-0.003227 0.486721 -0.109888
-0.192274 -0.497431 -0.006358
-0.275082 -0.025074 -0.499468
0.105262 0.011245 -0.500002
0.196839 0.088630 -0.492464
0.258980 0.408825 -0.287173
-0.273997 -0.099826 0.485551
-0.117158 0.494386 0.061751
0.168195 0.468430 -0.172527
0.226399 -0.030740 -0.499214
-0.109680 0.492921 0.071880
-0.248340 -0.250568 -0.432283
0.286918 0.435383 -0.245037
0.163164 -0.476689 -0.144764
0.010584 0.325917 0.374914
-0.222214 0.347575 0.355152
0.258660 -0.045599 0.493657
-0.267391 -0.495252 0.044769
0.068133 0.404379 -0.293530
-0.209863 -0.472082 -0.159116
-0.157907 0.368801 0.333269
0.179985 0.343542 -0.363160
0.098411 0.092514 0.487248
-0.289881 0.374189 0.326989
0.001794 0.123927 -0.484670
-0.014255 -0.493617 0.059897
-0.135669 -0.264640 -0.423704
0.055089 0.373176 0.328169
0.012596 -0.381477 -0.321655
0.168153 0.086679 -0.492833
0.235375 -0.482111 -0.125121
-0.111484 -0.365031 0.335976
-0.235191 -0.113841 0.482614
-0.053798 0.167824 0.466881
0.231953 0.217844 -0.450193
0.124952 0.277808 0.411522
-0.191666 0.498016 0.023327
0.065808 0.094233 -0.491290
0.153879 -0.374674 0.325330
0.116820 0.012582 0.495721
0.262088 0.335481 0.366252
-0.210194 -0.486631 -0.105300
-0.021584 -0.431692 -0.249446
0.230897 -0.235209 -0.440806
-0.134692 -0.071532 -0.495037
0.028148 0.451592 0.208938
-0.222925 -0.430548 0.247339
-0.176778 0.434737 -0.246264
0.099566 0.094124 -0.491313
0.016046 0.202775 0.452834
-0.100410 0.389517 -0.313012
-0.069994 0.498069 -0.021835
0.109490 0.492849 0.072376
-0.098079 0.192067 -0.461795
0.152967 0.280751 -0.413830
-0.139015 -0.061693 0.491946
0.099982 0.428376 0.252662
0.221790 -0.018881 -0.499746
-0.276711 0.324574 -0.380233
0.116919 -0.145458 0.474090
-0.123848 -0.448707 -0.217068
-0.221566 0.226523 0.441566
-0.147538 -0.258384 0.423360
0.040431 0.376424 0.324384
-0.254845 0.421359 0.264138
-0.072313 -0.333807 0.367078
0.255206 -0.450304 -0.213825
-0.088205 -0.297474 -0.401405
0.021395 0.434556 0.241884
-0.147693 -0.358003 0.343731
0.040234 0.427670 0.253894
0.139334 0.425162 0.258266
-0.030330 -0.394919 -0.304812
-0.001562 0.381517 0.318449
0.004011 0.231726 -0.443353
0.199167 -0.063773 0.491645
-0.281487 0.333172 0.368343
-0.256686 -0.170284 0.465638
0.185561 0.014416 -0.499945
-0.153575 -0.266061 0.418498
-0.231279 0.447872 -0.221317
-0.091943 -0.388599 0.308524
-0.212298 0.242239 -0.437559
-0.170683 0.289538 0.403319
0.174904 0.288227 0.404235
-0.089470 -0.412874 -0.279791
-0.117782 0.483108 0.120869
0.139886 0.452375 0.207350
-0.086897 0.393754 0.303362
-0.121004 0.107316 0.484248
-0.217031 -0.044777 0.493724
0.094717 -0.156036 -0.475011
-0.053492 0.260142 -0.427293
0.142030 -0.420037 0.264580
-0.187727 0.384704 -0.319048
-0.176803 0.235596 0.436789
-0.167609 -0.496641 0.026480
-0.058232 -0.162639 -0.472796
-0.006403 0.164177 0.468250
-0.261173 -0.472977 0.152227
-0.144996 0.030431 -0.499322
-0.270264 0.452019 0.208072
0.274723 -0.449822 -0.214805
0.030059 -0.228599 -0.444287
-0.183085 0.420173 0.265934
-0.229543 -0.179535 -0.466456
-0.059084 0.444760 0.222804
0.218363 -0.431851 0.245201
0.151356 -0.496833 -0.029637
0.086484 0.440154 -0.235975
0.054789 0.415222 -0.278028
0.082225 -0.251344 0.427397
-0.220489 0.239231 0.434874
0.224919 0.212930 0.448278
0.129543 0.083775 0.488752
0.080932 0.481151 0.127958
-0.259404 0.384106 -0.319798
0.031262 0.310432 0.387557
0.118448 -0.399029 -0.299365
0.161513 -0.481832 -0.126133
0.226516 0.276350 -0.416736
-0.274109 0.254157 0.426366
0.044885 -0.398849 0.295619
0.176037 -0.004535 0.495751
0.024061 0.389539 -0.312983
-0.131827 0.250141 -0.433028
0.000166 -0.167941 0.466446
0.204579 0.402665 0.291549
-0.145592 -0.318365 -0.384768
-0.209675 0.112772 -0.487407
-0.031323 -0.318352 0.380339
-0.048502 -0.338309 -0.367115
-0.012691 -0.214082 -0.451654
-0.070077 0.474165 -0.156045
0.261221 0.467481 -0.175057
-0.032013 -0.166463 -0.471361
-0.134390 0.498137 0.019718
-0.006953 -0.149158 -0.477110
-0.068808 0.114059 0.482645
-0.230595 0.002426 0.495877
0.265782 -0.385895 0.311915
-0.286258 0.343221 0.359241
-0.252250 -0.451144 -0.212122
0.065606 -0.230069 0.439311
-0.278088 -0.495712 -0.043464
-0.073256 0.410413 0.280717
0.069454 -0.420838 0.263265
0.058366 -0.308076 0.388763
-0.266743 0.233573 -0.442443
-0.020302 -0.299006 0.395606
-0.249541 -0.264152 0.419759
0.003047 0.033537 -0.499071
-0.133752 -0.369915 -0.335129
-0.259900 0.362156 -0.344636
0.230804 0.477364 0.141674
0.134094 -0.356517 0.345178
0.079526 0.496783 -0.044437
-0.255755 -0.449224 0.211840
0.082536 0.498304 0.010454
-0.032216 0.205043 -0.456386
0.145680 0.400175 -0.299542
-0.008234 0.035355 -0.498923
0.248773 0.036312 -0.498846
-0.087548 0.198266 0.454858
0.031736 0.100056 0.485949
-0.059635 0.297464 -0.401896
-0.067095 0.471401 0.159708
0.060561 -0.374816 -0.329417
0.122234 0.319075 -0.384952
-0.190505 -0.494086 0.055554
0.141371 -0.493017 0.065445
0.194939 -0.195934 0.455403
-0.036568 0.035865 -0.498882
0.154231 0.249235 0.429367
-0.085256 -0.320917 -0.382733
-0.173271 0.479555 0.133738
-0.221279 -0.497245 -0.016685
-0.217250 -0.278280 -0.414829
-0.100672 -0.435276 -0.243196
0.187065 0.459411 0.191105
0.238578 -0.492916 0.066384
-0.078146 0.316475 0.382739
0.286433 -0.237863 0.435128
0.215495 -0.448371 -0.217750
0.139029 0.067258 0.491448
-0.155011 0.153891 -0.476000
-0.239050 0.403560 0.290363
-0.209823 -0.065429 -0.495888
0.088701 0.464554 -0.182857
0.169892 -0.234157 0.437253
-0.117380 0.399721 -0.300191
0.137068 0.498145 0.019251
-0.169980 0.335238 -0.371082
0.094687 -0.152759 0.471683
0.157235 -0.266070 0.418492
0.246602 0.055614 -0.497282
0.228432 -0.067249 -0.495691
0.147722 0.458141 -0.198606
0.113348 -0.439264 0.231366
0.281893 0.105598 0.484656
-0.153022 0.004990 0.495923
-0.131152 0.255193 0.425734
-0.131670 0.017613 -0.499888
0.266501 0.082866 0.488909
0.098604 -0.318772 -0.384444
-0.227445 -0.490296 0.081786
-0.269053 0.138706 -0.480590
-0.063185 0.127075 0.479552
0.008360 0.487043 -0.108532
-0.017027 0.230516 -0.443949
-0.186794 -0.028046 -0.499335
-0.064640 0.144767 0.474409
0.048860 0.486916 -0.109067
0.061629 -0.145632 -0.478186
0.242042 -0.224492 -0.446449
-0.115610 0.189544 0.458731
-0.218811 -0.314898 -0.387532
-0.182639 -0.362952 0.338272
-0.221988 0.289459 0.403374
-0.224931 -0.247051 0.429859
-0.081274 0.380525 -0.324289
-0.255158 -0.316226 0.382163
-0.116873 0.074876 0.490284
-0.199760 0.163061 -0.472836
-0.048127 0.023710 -0.499778
0.106432 0.496352 0.043868
0.034648 0.261007 0.422190
-0.258728 -0.494623 -0.056908
0.080056 0.268170 -0.422136
-0.176659 -0.477813 0.136377
-0.160613 -0.027511 0.495123
-0.231318 0.297108 0.398024
-0.096296 -0.301220 0.393936
0.066533 -0.363185 -0.342419
-0.057554 0.387763 -0.315211
-0.015350 -0.477737 -0.140967
-0.115626 -0.160554 0.468994
0.258542 0.325726 -0.379244
0.090907 -0.487656 -0.100408
-0.083935 0.291562 0.401903
0.221489 -0.248401 0.429085
-0.015709 0.411968 0.278362
-0.064569 0.016603 0.495540
-0.213230 -0.446368 -0.221814
0.284787 -0.213598 -0.451871
0.215076 0.241848 0.433497
-0.278841 -0.169008 0.466078
-0.242251 0.447432 -0.222153
0.180796 -0.470667 0.159481
0.263346 -0.129207 0.478577
-0.081951 0.039873 0.494407
-0.013614 0.491134 -0.087223
0.155532 0.462272 0.184242
-0.085185 0.497272 -0.039623
0.106077 0.498107 0.021355
0.085608 -0.411052 0.278171
-0.277956 0.132870 -0.482202
-0.168404 0.477489 -0.145153
0.265450 -0.145868 -0.478114
0.008906 -0.470684 0.159435
0.103708 -0.223737 -0.446846
0.002360 0.370034 0.331831
0.023185 -0.079556 0.489362
0.101715 -0.047504 0.493503
0.240586 -0.404351 0.287753
0.068265 0.352914 -0.354037
-0.071744 0.332394 -0.373523
-0.290224 0.457174 -0.200762
0.155251 0.019181 -0.499859
0.180753 0.096451 -0.490826
0.193245 0.426517 -0.259984
0.186036 0.476777 -0.147485
-0.161070 0.370151 -0.335809
0.260659 0.440469 -0.235377
-0.042046 -0.197557 -0.459070
-0.004844 -0.359280 0.342327
0.166340 0.434075 -0.247521
0.187808 -0.064599 -0.495977
0.038157 -0.432043 -0.248834
-0.195566 0.252147 -0.431878
0.006813 -0.100957 -0.489869
0.027970 -0.239496 -0.438549
-0.102793 -0.026175 -0.499418
0.021092 -0.102777 -0.489436
0.192145 0.495094 -0.060061
-0.151214 -0.471127 -0.161884
-0.186612 -0.409576 0.280281
0.178645 -0.355183 0.346476
0.039197 -0.466599 0.170323
-0.055159 -0.260080 -0.426484
0.112692 -0.075939 0.489885
0.266056 -0.017426 -0.499811
-0.145687 -0.108063 0.483825
-0.018624 -0.316828 0.381647
-0.246399 0.492194 0.076901
0.178410 0.466838 0.172935
-0.263668 0.018526 -0.499871
-0.288010 0.442480 0.227431
0.000252 0.496225 -0.049602
-0.107757 0.280403 0.409707
-0.110776 -0.453498 -0.207184
-0.244776 0.497696 -0.030154
-0.220937 0.495577 0.053429
0.131924 0.386430 0.312723
-0.095845 0.274871 0.413576
-0.035066 0.070046 -0.495239
0.221213 -0.427938 -0.255991
0.134337 -0.074424 0.490104
0.091111 0.270390 -0.420671
-0.053405 -0.473019 0.152090
-0.247153 0.094346 0.486932
0.227814 -0.491035 -0.082185
0.204487 -0.150777 -0.476616
-0.161159 0.443196 0.225978
-0.106071 0.406243 0.286808
0.112752 0.498005 -0.023259
-0.222592 0.245036 -0.435956
0.232539 -0.448930 0.212495
-0.082098 -0.353455 -0.352413
0.050648 0.194998 -0.460573
0.047708 -0.372676 -0.331911
-0.034310 0.418976 -0.272355
0.234303 0.452882 -0.210326
-0.203469 -0.423384 -0.263871
0.146032 0.138270 -0.480711
0.264119 0.368297 0.333855
-0.166795 -0.270196 -0.420317
-0.101357 0.435565 0.240126
-0.102192 -0.279271 0.409777
0.038711 0.196847 -0.459802
-0.183293 -0.437485 -0.239343
-0.009486 -0.457722 -0.197050
-0.147112 -0.381319 -0.321838
-0.285462 0.317106 0.382236
0.054496 -0.043986 0.493788
0.281393 0.478088 0.139054
-0.288211 -0.465336 -0.178672
0.154774 0.379550 -0.325431
0.202019 0.496770 0.038706
0.207686 -0.497112 -0.024052
0.150359 0.486528 0.106332
0.132580 0.168007 0.466813
0.180592 0.410196 -0.285214
-0.116564 -0.277283 0.411090
-0.241059 0.138359 -0.480686
0.243849 -0.226338 0.441149
-0.203390 -0.201580 0.453049
-0.035373 0.445442 -0.225932
-0.151158 -0.309601 -0.391756
-0.141712 0.014444 -0.499945
-0.218528 -0.488652 -0.095655
-0.247027 0.210928 -0.453601
0.114031 0.241731 0.433558
-0.083413 -0.490464 -0.086126
-0.254047 -0.046500 0.493584
-0.242287 -0.108494 -0.488078
0.130915 0.419570 -0.271380
-0.086796 -0.451567 -0.211264
-0.081723 0.074183 -0.494641
0.123383 -0.359334 0.342266
0.231344 0.498296 0.010887
-0.193510 0.307122 -0.394610
-0.240588 -0.464478 0.175975
0.097473 -0.054688 -0.497049
-0.203151 -0.458370 0.191460
-0.097833 0.044153 -0.498211
0.056979 0.248793 -0.433801
-0.163742 -0.495540 -0.045587
0.241118 0.138763 -0.480575
0.200930 0.267790 0.418055
-0.098423 -0.441062 -0.232582
-0.234037 0.495097 0.056836
-0.187821 0.372817 0.328588
0.222129 -0.399132 -0.299227
0.109833 0.466817 0.172996
0.091893 0.114891 0.482447
0.267192 0.381074 -0.323599
-0.052221 0.208466 0.450281
0.162899 -0.497113 0.015965
-0.106705 0.494600 0.060273
-0.229919 0.382422 -0.321909
-0.052995 0.347885 -0.358932
-0.253506 0.326369 -0.378692
-0.148271 -0.028497 0.495043
-0.150974 0.060467 -0.496625
-0.289485 0.466802 -0.176866
0.161667 0.341421 -0.365225
-0.094886 -0.251240 -0.431873
0.114494 -0.464241 0.176606
0.032093 0.061038 -0.496542
-0.190455 -0.461498 0.183915
-0.027504 -0.458293 0.191630
0.101897 -0.043524 -0.498255
0.061653 -0.290975 0.401665
-0.185214 0.053544 0.492930
-0.239466 0.013566 -0.499960
0.025432 -0.229964 0.439363
0.106266 -0.458032 0.192212
-0.216206 -0.215964 0.446261
0.185692 -0.325546 0.374166
0.172063 0.496987 -0.042545
0.286395 -0.376080 -0.327944
-0.161984 -0.049894 0.493309
0.256435 -0.237255 -0.439729
0.196258 0.248370 -0.434043
0.105217 -0.240484 0.433625
-0.068196 0.345089 0.357549
0.046899 0.005771 0.495937
0.037534 -0.259187 -0.427028
0.126207 -0.472044 -0.159227
-0.188102 0.227576 0.441011
0.239519 0.455285 0.201002
-0.093079 0.252199 -0.431848
-0.000213 -0.348041 -0.357974
0.018448 0.486051 -0.112707
0.180109 -0.127685 -0.483517
0.185521 0.421247 -0.268629
0.286533 0.078698 -0.493987
-0.144977 -0.366005 0.334902
-0.173255 -0.455213 -0.203069
-0.012670 0.174912 0.464222
0.047636 0.395986 -0.304899
-0.188636 -0.427900 0.251682
-0.168211 0.383594 0.316028
-0.263682 -0.096447 -0.490748
-0.022831 0.418044 -0.273883
0.094640 -0.396822 -0.302290
-0.131378 -0.296017 0.397861
-0.043430 0.490248 -0.092369
-0.194895 -0.377625 -0.326143
-0.051387 0.232386 0.438478
0.257737 0.216676 -0.450769
0.019261 -0.295101 -0.403064
-0.198418 -0.477970 0.135861
0.272112 0.115085 -0.486922
-0.193204 0.039063 -0.498623
0.138840 -0.482056 -0.125321
0.106349 -0.396954 -0.302115
-0.216163 -0.484614 -0.114929
-0.266758 0.498093 0.022179
-0.233704 -0.491173 -0.081231
0.227670 0.419870 -0.270888
0.148867 -0.171752 0.465131
0.171600 -0.134370 0.477151
-0.017855 -0.448876 -0.216725
-0.287421 0.371063 -0.334802
0.201353 -0.333392 0.367434
-0.097111 0.105744 0.484621
0.144164 -0.232064 0.438328
0.210218 0.397091 0.298938
0.163808 0.309446 0.388344
-0.237927 0.446835 0.218593
0.071300 -0.296303 0.397645
0.172728 -0.052920 0.493064
-0.120871 -0.477616 -0.141403
-0.172882 0.485207 0.112638
0.240718 -0.411558 -0.281783
0.148535 -0.462020 -0.186742
-0.014633 -0.366716 0.334116
0.156631 -0.494405 -0.058886
0.276779 -0.477161 -0.143054
0.253841 0.361550 -0.345305
0.027724 0.496904 -0.043314
-0.134487 -0.139247 -0.480134
-0.260641 -0.011064 -0.500096
-0.245091 0.495402 -0.057215
0.056526 0.390532 0.307632
-0.273951 -0.290098 0.402327
-0.268053 0.420527 0.265398
0.083263 -0.448605 -0.217273
-0.261198 0.032039 -0.499192
-0.054693 -0.449648 -0.215157
-0.067664 -0.208125 -0.454327
0.117212 -0.497531 -0.000816
0.233451 0.079970 -0.493803
-0.078164 0.242385 -0.437476
0.257032 0.468462 0.168229
-0.162622 0.130332 -0.482902
0.256541 0.353969 0.348585
-0.178701 0.496758 0.038855
0.248724 0.362064 0.340270
0.283908 -0.490292 0.081810
0.230236 0.496616 -0.045983
0.064441 0.483752 -0.122382
-0.252459 -0.456225 -0.200642
0.083912 0.300604 -0.399527
0.141344 0.249614 -0.433330
-0.021627 0.470176 -0.167875
0.186017 0.278963 0.410714
-0.122509 0.493460 -0.073716
0.158843 -0.484389 0.111033
0.096613 0.206673 -0.455698
-0.151399 0.495068 -0.060307
-0.134531 -0.469005 -0.168036
0.258525 -0.331431 -0.373345
-0.076647 -0.265161 -0.423386
-0.138513 -0.205196 0.451541
-0.065416 -0.497117 -0.023794
-0.145897 0.144626 -0.478956
-0.180780 -0.496218 0.035830
-0.289238 -0.322881 -0.381089
-0.274483 -0.430275 -0.251917
-0.170358 -0.006852 -0.500285
0.276424 -0.455072 0.198808
-0.052807 -0.497294 0.011922
-0.109533 -0.431741 0.245381
0.052620 0.428756 0.251999
-0.053495 -0.362002 0.339321
0.104164 -0.347975 -0.358042
0.113511 0.497281 -0.039404
-0.068004 0.400244 0.294759
0.176377 -0.497154 -0.021730
-0.192227 0.195702 0.456009
-0.057773 -0.298099 -0.400928
0.138760 -0.413847 0.274175
0.265093 0.225964 0.441860
-0.271489 -0.280518 0.408954
-0.086779 -0.331612 0.368961
-0.179335 -0.400383 -0.297570
-0.284565 -0.196463 0.455182
-0.153745 -0.176330 0.463552
-0.017179 -0.391584 0.304780
-0.147727 0.469393 0.165530
-0.223704 0.352637 -0.354306
-0.178399 0.009300 0.495868
0.182010 -0.169454 0.465924
0.283345 0.437903 0.236049
-0.197339 0.236123 0.436511
0.043146 -0.362980 -0.342630
-0.006126 0.388795 0.309935
0.264992 0.498263 -0.017518
0.086315 0.163512 -0.472680
-0.252505 0.225321 -0.446509
0.215364 0.444481 -0.227758
0.035557 0.170139 0.466013
0.276295 -0.404430 0.287640
-0.139454 -0.142866 0.474806
0.262853 0.314387 0.384404
0.082876 -0.455163 0.198607
0.081348 -0.429306 0.249375
-0.243825 0.151602 -0.476789
0.038534 -0.393069 -0.307264
0.047943 0.497092 0.034729
-0.099893 0.201621 0.453352
0.119495 -0.496749 0.024063
-0.242599 -0.356813 0.344889
-0.138163 0.116047 0.482173
-0.167378 -0.194146 0.456148
-0.124222 -0.335140 -0.369985
-0.104434 0.220067 -0.449098
0.001563 -0.474882 0.145984
0.089329 0.101185 0.485705
0.171522 0.390634 -0.311610
0.148964 0.001709 0.495864
-0.231477 0.053788 0.492903
-0.232347 -0.310246 -0.391242
-0.155913 0.057086 0.492547
0.125004 -0.206381 0.450983
-0.163585 -0.303146 0.392483
0.095839 -0.476974 0.139127
0.117191 0.138830 0.476221
-0.053667 -0.265615 0.418793
0.190619 -0.384057 -0.318648
-0.108522 0.295161 -0.403634
0.021885 -0.468302 -0.170074
0.171495 -0.491790 -0.076967
0.270241 -0.323867 0.375606
0.066304 -0.263643 0.420095
0.008612 0.497642 -0.031372
-0.005032 0.408462 -0.287693
0.091503 0.037342 -0.498763
0.203416 -0.347618 -0.358409
-0.075106 0.202440 0.452985
0.225568 0.427158 0.254786
-0.157420 0.478385 -0.142213
0.047293 -0.201548 -0.457279
-0.153448 -0.436767 0.236108
-0.199913 0.375098 -0.330347
-0.236785 -0.121253 -0.485045
-0.179198 -0.268797 -0.421170
0.217554 -0.368103 0.332586
0.132945 0.123966 0.480291
-0.233287 0.496993 0.035946
0.075179 0.465961 -0.179109
-0.147597 0.295317 0.399277
0.114203 -0.047757 0.493482
-0.024488 0.408827 -0.287170
0.277156 -0.243365 0.431973
0.059480 0.289517 0.403333
0.280928 0.457240 -0.200615
0.029556 0.180112 0.462271
-0.116164 0.236665 0.436225
0.096616 0.224486 0.442638
-0.137413 -0.029564 -0.499267
0.234155 -0.114859 -0.486565
-0.115582 0.446836 0.218590
0.062170 0.318745 0.380929
-0.189082 -0.286902 0.404738
-0.020150 0.496244 -0.049421
-0.014716 0.286450 -0.410068
0.163290 -0.212210 0.448111
-0.100458 -0.202935 0.452484
0.124242 0.212532 -0.452811
-0.088416 -0.462044 -0.186686
0.205186 0.361345 0.341008
-0.250618 -0.265224 -0.423348
-0.057363 -0.140446 0.475474
-0.290122 -0.070977 0.490603
-0.150195 0.317288 -0.386484
0.067643 0.198389 0.454803
0.230370 -0.404191 -0.292522
-0.094293 0.183833 0.460874
-0.109366 -0.158958 -0.474120
0.278847 -0.162892 -0.472701
0.232856 0.385541 0.313759
-0.025672 -0.123925 -0.484410
-0.156909 -0.482197 0.120260
-0.225907 0.421360 0.264135
-0.252305 -0.292991 -0.404540
0.196451 -0.231984 -0.442504
0.154972 0.416707 0.271183
-0.009647 -0.312931 0.384990
-0.103414 0.460801 0.187772
-0.049485 0.182085 -0.465957
0.035310 0.021169 -0.499823
0.275900 0.271769 -0.419760
-0.226130 -0.467251 -0.173120
-0.104016 0.412370 0.277753
-0.149245 0.048949 0.493426
0.004101 -0.044268 -0.498175
0.212518 -0.221271 0.443646
0.268851 -0.021607 0.495444
0.099203 0.357172 0.345295
-0.281853 0.428672 0.252145
-0.197897 0.467576 0.170796
0.273834 -0.497433 -0.006242
-0.208871 -0.497265 0.012569
0.130445 -0.422545 -0.265142
0.204088 0.310803 0.387262
-0.264025 -0.382393 0.316307
0.277240 -0.338061 0.363145
0.077787 0.479808 -0.137552
0.139204 -0.426069 0.254685
0.272316 -0.232739 0.437995
-0.225276 -0.049202 -0.497641
-0.128129 0.068094 -0.495522
0.243212 0.463787 0.180608
-0.014876 0.466454 -0.177793
0.111859 -0.491146 -0.081417
-0.210909 0.062063 0.492009
0.178105 0.117848 0.481745
-0.065730 -0.402469 0.290443
0.157877 -0.281587 0.408248
0.080968 0.339711 -0.366890
-0.131051 -0.478487 -0.138250
-0.144086 -0.478572 -0.137941
0.077759 0.324153 -0.380594
0.133216 -0.484495 -0.115498
-0.114571 -0.222657 -0.447415
0.148342 -0.240755 0.433469
-0.272730 -0.199579 -0.458162
-0.072680 -0.496468 -0.034135
0.226800 0.495376 -0.057457
0.002438 -0.454162 -0.205591
-0.102734 0.401900 -0.297075
-0.232945 -0.029730 -0.499259
0.021333 -0.328802 0.371372
0.080702 0.497444 0.030380
0.280412 0.411687 -0.283081
-0.260967 -0.027216 0.495146
-0.159495 0.320280 0.379705
-0.257090 0.495205 -0.059033
0.222004 -0.056703 -0.496831
0.157973 -0.228773 -0.444195
0.079112 0.487480 0.101788
0.132025 0.260490 0.422506
-0.195382 -0.044119 0.493777
-0.201975 0.400619 0.294262
0.088378 0.357077 0.345392
-0.199007 0.374419 0.326721
0.247563 0.491509 -0.085045
0.204206 0.211918 -0.453114
-0.219111 0.491356 0.082692
-0.193560 0.437822 0.236190
-0.252904 -0.233171 -0.441879
-0.277655 -0.277912 -0.415086
-0.088566 -0.346029 -0.360041
-0.026130 -0.495922 -0.040878
0.217028 -0.386702 0.310903
0.073716 0.163704 0.468427
0.245360 0.013107 0.495697
-0.263213 0.176633 -0.468154
-0.233414 -0.481009 -0.129114
-0.241672 -0.465877 -0.177104
-0.023290 -0.431825 0.245244
-0.186930 -0.064118 0.491595
-0.289921 -0.226907 0.440869
-0.136604 0.494079 -0.069459
0.200120 0.226163 0.441755
0.005646 0.498399 0.005186
0.268336 -0.483868 0.113229
0.207451 0.248027 -0.434240
-0.198008 -0.147966 0.473336
-0.010611 0.273092 -0.418887
0.032514 -0.406694 0.284402
0.161582 0.436637 0.238256
-0.117775 -0.262640 -0.424923
-0.250142 -0.427561 0.252237
0.011796 -0.085025 -0.492714
0.018762 -0.445567 -0.223440
0.102531 -0.377980 0.321680
-0.276621 -0.490845 0.078599
0.001069 0.228172 0.440698
-0.042203 0.334787 -0.371469
0.205767 0.498303 0.010477
0.142208 -0.043329 -0.498276
-0.073179 0.380040 0.320170
-0.095307 0.469136 0.166272
-0.075587 0.070098 0.491107
0.207835 0.278458 -0.415344
0.037555 0.446261 -0.224376
0.196851 -0.008561 -0.500208
0.164556 0.493286 0.069353
0.199415 0.497446 -0.035725
0.053039 -0.491941 0.072232
-0.035530 -0.327401 0.372574
0.069978 -0.127955 0.478922
-0.160781 0.497748 -0.028997
0.203944 -0.126635 0.479286
0.101539 0.453598 -0.208731
0.001919 0.281007 0.409285
-0.032062 0.431649 0.246955
0.160755 0.440822 -0.234706
-0.250187 0.493966 -0.070504
-0.276106 -0.187090 0.459090
-0.034125 -0.420969 0.263052
-0.112017 0.451929 0.208255
-0.186484 -0.480225 0.128472
-0.086797 -0.439165 -0.236415
-0.101264 0.095262 0.486775
-0.139797 0.495659 -0.054831
0.036685 -0.161396 0.468704
0.024642 -0.251743 -0.431566
-0.204958 -0.339191 0.362045
-0.062256 0.324829 0.375900
-0.031317 0.257249 -0.428952
-0.268828 -0.258648 0.423209
0.286083 0.162366 -0.473076
0.082182 -0.336416 -0.368830
0.195768 -0.479657 -0.134011
0.206406 0.489104 0.094035
-0.233339 -0.475282 -0.149840
-0.013801 -0.329838 -0.374788
-0.008631 -0.153233 0.471520
-0.181654 -0.176261 0.463576
-0.127543 0.358995 0.343422
-0.160009 0.192196 0.457582
-0.097965 -0.049899 -0.497566
0.110456 -0.302468 0.392994
-0.187338 0.090614 -0.492048
0.068702 0.058727 -0.496877
0.282125 0.050897 -0.497664
-0.138416 0.124271 -0.484575
-0.268472 -0.388816 0.308252
-0.058784 -0.311100 0.386482
-0.071042 0.462854 0.182846
0.128940 -0.485636 0.105787
-0.196408 -0.493593 -0.064499
-0.098064 -0.496285 0.034420
0.084807 0.476083 -0.149758
0.259473 -0.030659 -0.499217
-0.111051 -0.457392 -0.197842
-0.215126 0.059454 -0.496772
0.132397 -0.495258 -0.049068
-0.259137 -0.045793 -0.498010
0.255411 -0.228197 0.440234
-0.216633 -0.026700 0.495188
0.095374 0.497743 0.026695
0.053670 -0.414606 0.273089
0.092558 -0.493749 -0.063424
0.071175 0.060438 0.492184
-0.288163 0.450142 -0.216433
-0.235045 0.469817 0.164301
-0.194728 0.139364 0.476058
0.247516 0.469593 -0.169427
-0.207475 -0.442765 0.224717
-0.155183 -0.463413 0.178813
-0.266476 -0.464054 -0.181863
-0.126043 0.187762 -0.463590
0.001057 -0.081369 0.489099
-0.044814 -0.237168 0.435526
0.047916 0.305584 -0.395770
0.159814 -0.487650 -0.100437
0.275036 0.391563 0.306265
0.105017 0.085529 -0.492999
-0.161979 0.276178 0.412662
0.203536 -0.497020 0.018028
-0.286987 0.480950 -0.133808
0.075904 -0.200766 -0.457630
0.185758 0.086438 -0.492868
-0.125332 -0.129831 -0.483007
-0.145571 0.191794 -0.461909
0.035217 -0.421597 0.262020
-0.191518 -0.249858 0.428249
-0.139169 0.155758 -0.475355
-0.126520 0.001909 -0.500170
0.238458 0.033913 -0.499040
-0.036770 0.409192 -0.286649
0.057194 0.489114 -0.098960
-0.173525 -0.233664 0.437535
0.196038 0.430348 0.249224
0.127659 -0.255876 0.424799
-0.016389 -0.031512 -0.499179
-0.158499 -0.488439 0.092570
0.016860 0.456047 0.199173
-0.014506 -0.226451 -0.445417
-0.066043 -0.495707 0.040559
0.245177 -0.428687 -0.254686
-0.093768 -0.495261 0.044678
0.010516 0.385231 -0.318387
0.131677 0.498601 -0.006056
0.097458 0.353766 -0.353207
0.233454 0.195704 -0.460279
0.233404 -0.218928 0.444801
0.280662 -0.098377 -0.490415
-0.255349 -0.488565 -0.096071
0.116058 0.088797 -0.492429
-0.227231 -0.383379 0.315070
0.159108 0.277469 0.411760
-0.137886 -0.193538 0.456401
-0.068867 0.497997 0.023559
-0.044532 0.260895 0.422258
-0.034194 0.491268 -0.086447
0.270938 0.173523 0.464743
-0.074803 0.339706 -0.366895
0.073060 0.478911 0.136072
-0.143962 0.342136 0.360223
0.010090 0.104876 -0.489061
0.131637 0.410864 0.280034
0.269791 0.262532 -0.425858
-0.104669 0.259205 -0.427831
-0.284532 -0.455738 -0.201809
-0.003056 0.057786 0.492471
0.001320 -0.064003 -0.496042
0.233311 -0.247998 -0.433850
-0.248615 -0.161944 0.468515
-0.058515 -0.035164 -0.499015
0.231992 0.377706 0.322890
0.101631 -0.069783 0.490776
0.027954 -0.308192 0.388676
-0.283368 0.354785 -0.352215
-0.041746 0.211438 0.448947
-0.271288 0.242576 -0.437366
0.190052 -0.433799 -0.245772
-0.288027 0.245212 0.431725
0.142965 0.084184 0.488682
0.016514 -0.457926 0.192449
0.023259 0.358123 -0.348965
-0.156622 -0.233183 -0.441873
-0.161470 0.494542 -0.065169
0.134685 -0.279584 0.409571
-0.271528 0.273069 -0.418902
0.122197 -0.169097 0.466047
0.276565 0.449705 0.212768
0.126449 0.117130 -0.486494
0.235803 -0.017903 -0.499790
-0.115318 0.494984 -0.061081
0.083731 -0.288870 0.403253
-0.008713 0.439977 0.232432
-0.192951 0.381534 0.318429
0.271897 -0.303676 -0.396480
-0.097713 -0.264811 -0.423600
0.254770 0.344624 0.357971
0.133009 -0.301196 -0.398458
0.237566 0.120860 0.481029
0.212806 -0.309649 0.387577
-0.107850 0.465010 0.177676
0.169755 -0.325450 -0.378762
0.173006 -0.285645 0.405569
0.080555 0.444829 -0.227097
-0.168833 -0.102346 -0.489539
0.285775 -0.464363 0.176282
0.122485 -0.488741 0.090819
-0.151091 0.397184 0.298815
-0.069404 0.388674 0.310095
0.108540 -0.211756 -0.452698
0.041153 -0.411006 0.278237
0.150982 0.054541 -0.497369
-0.088914 -0.481490 0.123235
-0.228362 -0.492573 0.068559
-0.113779 -0.486174 -0.107481
-0.219592 0.496579 0.041057
0.102479 -0.390579 -0.310565
-0.055838 0.494733 0.059354
0.144837 0.117918 0.481728
-0.184836 -0.440583 0.228860
-0.112318 -0.090257 0.487555
0.034430 0.069283 0.491229
0.108276 -0.383895 0.314424
-0.027151 -0.353077 -0.352802
0.206624 -0.272940 0.413957
0.223710 -0.421188 0.262691
0.174737 -0.109598 0.483503
0.079385 -0.475934 0.142536
0.251133 -0.301807 0.393493
0.019160 0.174953 -0.468734
-0.200416 -0.431131 -0.250425
0.208984 0.498111 0.021157
-0.106746 0.244591 -0.436211
0.137415 -0.252289 0.426855
0.150274 0.177397 -0.467891
0.093840 0.254091 0.426406
-0.038676 -0.130286 0.478279
-0.119494 -0.493196 0.063791
-0.148004 0.285609 0.406066
-0.247867 -0.213296 0.447576
0.065565 0.306047 0.391054
0.056620 -0.257192 -0.428245
0.163695 -0.184959 -0.464420
0.185291 0.200629 -0.458226
0.198804 0.047347 -0.497952
0.258403 -0.090276 -0.491810
0.264845 -0.485936 -0.108619
-0.172244 -0.335798 -0.369390
0.056898 -0.361376 0.340012
-0.044770 0.354492 -0.352500
0.265715 -0.375216 -0.328951
-0.184204 -0.462987 -0.184423
-0.260347 -0.149201 -0.477097
-0.252144 -0.437282 0.235131
-0.085251 -0.497599 0.002942
-0.243665 -0.298019 0.396351
0.071194 0.476341 -0.148913
-0.071714 0.026933 0.495077
-0.209505 -0.480247 0.128399
0.139039 -0.029099 0.494994
-0.070987 -0.198816 -0.458505
-0.003092 -0.268781 0.416703
0.122431 0.434101 0.242679
-0.033023 0.476168 0.145888
-0.196481 -0.113591 -0.486866
0.124031 0.496173 0.046071
0.181551 0.242658 0.433070
0.100648 0.340301 -0.366316
0.246812 -0.465427 -0.178408
-0.289896 -0.496014 -0.039741
0.200923 -0.447604 0.215451
0.284913 0.470566 -0.166835
-0.137249 0.394247 0.302708
0.093080 -0.246319 0.430279
0.084776 0.375741 -0.329637
0.115964 0.497205 0.033333
0.144418 0.493185 0.070055
0.213256 -0.483445 0.115008
0.201913 -0.217772 0.445370
-0.006541 0.098549 0.486209
0.240219 0.459167 -0.196321
-0.175476 -0.449721 0.210733
0.158397 0.454183 0.203644
-0.005760 0.281531 -0.413315
-0.123136 0.493133 0.070413
-0.205873 -0.159411 -0.473982
0.232306 -0.150706 0.472391
0.020512 0.038537 0.494551
0.057333 0.416027 0.272213
0.148048 0.394613 0.302223
-0.260412 0.406898 -0.289929
0.097641 0.253720 -0.430975
-0.182170 -0.493399 0.061910
-0.136157 0.484817 0.114497
-0.228998 -0.052755 0.493077
0.064424 0.448246 0.215729
0.168281 0.459444 0.191025
-0.114927 0.320660 0.379401
0.263247 0.332793 -0.373180
0.286838 -0.495500 -0.046079
0.110261 0.336623 -0.369894
-0.011773 0.335805 -0.370596
0.178637 0.266866 -0.422997
0.129311 -0.235536 -0.440634
0.002116 0.314178 0.384571
0.042070 0.178672 0.462811
-0.141805 0.413881 -0.279945
0.127424 -0.483140 0.116290
-0.283847 -0.255596 -0.429217
0.094412 0.240435 0.434241
0.174556 0.493776 0.065968
-0.184967 -0.238970 0.434493
-0.093704 0.147285 -0.478222
-0.203824 -0.366366 -0.339151
-0.171553 -0.429502 -0.253265
0.246449 0.498569 -0.004271
-0.187523 0.498605 -0.006263
-0.005106 0.381775 -0.322720
-0.029889 -0.497326 -0.012197
-0.164789 -0.254327 -0.429991
-0.271303 -0.234514 0.437048
0.007382 -0.446353 -0.221845
0.217284 0.307366 -0.394426
0.255974 -0.420366 -0.268442
-0.179843 -0.209662 0.449366
-0.284605 0.420170 -0.270396
0.027530 -0.455530 -0.202310
0.014566 0.287320 0.404870
-0.220226 -0.497453 0.008383
0.217587 -0.223189 -0.447135
0.064893 0.454488 0.202914
0.052831 0.143216 -0.479345
0.055580 -0.273778 0.413404
-0.223804 0.182014 0.461557
0.178509 0.355654 0.346854
-0.204611 -0.342124 -0.363660
-0.122016 -0.301649 0.393612
0.285952 -0.369127 0.331454
-0.164690 -0.479723 0.130116
0.125854 0.251136 0.428208
0.273349 0.060344 0.492195
-0.164200 0.128790 0.479144
-0.020918 -0.412110 -0.280948
0.249605 -0.043201 -0.498290
-0.234382 -0.434016 -0.245393
-0.117430 0.214640 -0.451772
0.112729 -0.482588 0.118614
0.045412 -0.405660 0.285881
-0.031938 -0.053203 -0.497209
-0.276121 0.497797 -0.027905
-0.187720 0.066446 -0.495760
-0.175918 -0.497081 -0.025809
-0.162266 -0.491554 -0.078595
-0.069323 0.095032 -0.491123
0.154384 -0.218493 -0.449607
0.090590 0.066851 0.491491
-0.006455 -0.219224 0.444655
-0.251316 -0.202741 -0.456743
-0.017166 -0.491959 -0.075797
-0.151074 0.479815 0.132796
0.197205 -0.083197 0.488835
-0.235419 0.468920 -0.171221
0.230843 -0.223642 -0.446897
0.029379 -0.196907 0.454997
-0.107204 0.234595 -0.441939
0.065315 0.259532 -0.427643
0.057467 0.276444 -0.416674
0.140270 -0.356666 -0.349116
-0.134469 0.332362 -0.373550
0.051428 0.434666 0.241694
0.253192 -0.373378 -0.331093
-0.280432 0.462066 0.184737
0.056092 -0.368772 0.331847
-0.035889 0.438893 0.234321
-0.118588 -0.440932 -0.232847
0.173818 -0.004852 -0.500292
0.003180 -0.260287 -0.426358
-0.077814 -0.112520 0.482891
-0.160772 0.299295 0.396438
-0.046408 -0.003017 -0.500259
-0.226685 0.489685 -0.095640
-0.001930 0.474974 0.149351
-0.140304 0.304195 -0.396818
-0.203041 -0.474405 0.147545
0.221357 0.414118 -0.279606
-0.229066 0.496137 0.046519
0.225892 -0.290081 0.402340
0.033379 0.010089 -0.500023
-0.066540 0.211743 -0.453200
-0.051413 -0.484217 -0.116823
0.091221 -0.216288 0.446102
-0.121451 0.384522 -0.319276
-0.068183 0.483796 -0.122197
0.148274 0.166058 -0.471802
-0.122235 0.158728 0.470150
-0.211593 -0.130484 -0.482808
0.014518 -0.480814 -0.129818
0.050265 0.318968 0.380751
0.171583 0.203359 -0.457088
0.070911 -0.467543 0.167806
-0.064131 0.276726 -0.416487
-0.279171 0.097231 -0.490662
-0.255858 -0.007504 0.495698
0.286455 -0.476177 0.141740
0.274647 -0.428817 -0.254459
0.057374 -0.205578 -0.455470
-0.064681 -0.145265 -0.478298
-0.036318 0.292772 -0.405436
0.142296 -0.378962 -0.324586
-0.060836 -0.491882 -0.076331
0.218210 0.402038 0.292381
-0.078046 -0.468895 -0.168354
0.281159 0.416505 0.271489
-0.260652 -0.497325 -0.012235
0.109665 0.433544 0.243650
-0.033439 -0.275105 0.412528
-0.031197 -0.497145 -0.022251
-0.223680 -0.482516 -0.123653
-0.144988 -0.382333 0.316382
-0.260630 0.387923 0.310983
-0.178890 0.231200 -0.443612
-0.034058 -0.439449 0.231015
-0.279061 -0.425700 -0.259895
0.041010 -0.496711 -0.031133
0.269811 -0.098503 -0.490394
-0.262560 -0.026592 -0.499400
0.153058 0.487414 -0.106972
0.139922 -0.497229 -0.017596
0.180445 -0.459547 -0.192673
-0.006414 -0.472938 0.152353
0.256724 -0.106878 -0.488462
-0.129321 0.457555 -0.199913
-0.116216 -0.205429 0.451444
0.165150 -0.349737 -0.356232
-0.283873 -0.269962 0.415923
-0.203619 -0.131364 0.477981
0.006915 -0.197513 0.454744
0.213352 -0.488044 -0.098556
-0.074108 0.048802 0.493442
0.138870 -0.343827 -0.362117
-0.286593 0.497871 -0.026255
-0.263984 -0.138272 -0.480432
0.217551 0.359444 0.342961
-0.140429 0.438507 -0.239104
-0.087231 -0.042950 0.493872
0.111881 0.299738 -0.400181
-0.191193 -0.165795 -0.471612
-0.039288 0.216874 -0.450671
0.054274 0.456461 0.198181
-0.132016 0.274600 0.413766
-0.210501 -0.175365 0.463885
0.011744 -0.309703 0.387536
-0.012052 -0.274761 -0.417290
0.164049 0.153367 0.471785
0.148723 0.062861 0.491923
-0.184937 -0.496365 -0.035412
0.079982 0.173641 -0.469187
0.121949 0.346829 0.355919
-0.174521 0.223661 0.443072
-0.005878 0.339099 0.362974
0.059564 0.497452 0.030282
-0.130938 0.031473 -0.499238
0.256780 0.194974 0.456335
0.103901 -0.199944 0.453731
-0.064940 -0.287619 0.404197
0.141429 -0.445076 -0.224437
-0.045860 -0.166050 -0.471516
-0.266361 0.187902 0.459347
0.148382 -0.328722 0.371441
-0.224256 -0.478227 0.135019
0.225108 0.089637 0.487743
-0.011811 -0.350201 -0.355756
-0.249120 0.381750 0.318178
-0.022620 0.294062 0.400155
-0.105999 -0.493113 0.064562
-0.150689 0.154270 0.471510
0.141602 0.267959 0.417952
0.001916 -0.316661 0.381790
-0.182406 0.331582 0.369783
-0.030947 -0.332042 -0.372791
0.047663 -0.480566 0.127123
-0.079796 0.204284 -0.456702
0.122656 0.354993 0.347532
-0.018696 0.493566 -0.073098
0.164342 -0.097750 -0.490523
0.048653 -0.141477 -0.479454
0.115965 -0.031639 0.494788
-0.231088 -0.300611 -0.398924
0.205095 0.366765 -0.339547
0.103300 0.004917 0.495922
-0.248892 0.473280 -0.158946
-0.041664 -0.289793 0.402557
-0.027732 0.054671 0.492808
0.217430 0.492163 0.077119
-0.230474 0.429219 -0.255553
-0.075032 -0.483215 -0.121121
-0.268362 -0.442000 0.226170
0.275020 0.481427 -0.132166
-0.186441 0.326138 -0.378890
-0.250138 -0.015986 -0.499875
-0.258547 -0.103024 0.484881
-0.171846 0.331619 0.369749
-0.276767 0.151092 0.472479
-0.230138 -0.360225 0.341283
-0.211524 0.338521 -0.368048
0.282711 -0.496505 -0.033683
-0.099254 -0.347116 0.354330
-0.098539 -0.401430 0.291929
0.037895 0.440534 -0.235255
-0.040048 0.072372 0.490715
0.064981 0.482037 0.124747
0.110702 0.377874 0.322695
-0.064407 -0.487892 -0.099284
-0.106411 0.457967 -0.198995
-0.149463 0.497125 0.034318
-0.141208 0.023835 0.495216
-0.145235 -0.440688 0.228661
-0.215223 -0.497505 -0.002253
0.057552 0.493401 -0.074054
-0.202649 0.485718 -0.114108
0.008349 0.183411 0.461033
-0.184703 -0.454707 -0.204282
-0.266533 -0.466667 0.170141
-0.260854 -0.479927 0.129449
0.214584 0.361682 -0.345160
-0.119603 -0.273893 -0.417897
0.047173 0.025120 0.495158
0.144495 0.066009 -0.495823
-0.017998 0.241359 0.433754
-0.041668 0.059192 -0.496809
-0.266782 -0.489739 -0.090464
0.112650 0.226802 0.441418
-0.209315 0.493922 0.064955
0.184347 0.351736 -0.355183
0.007306 0.007252 -0.500074
0.030494 -0.327604 -0.376811
-0.160212 -0.081383 0.489097
0.200368 -0.470766 0.159219
0.257244 -0.179039 -0.466642
0.191943 -0.130383 0.478252
-0.186885 0.122501 0.480639
0.185582 0.308217 -0.393784
0.197224 -0.269908 -0.420492
0.234872 0.380231 -0.324657
-0.012626 0.299800 0.396035
0.101985 -0.424533 0.257206
-0.221814 -0.024826 -0.499479
-0.281491 0.405193 0.288199
-0.047399 0.048768 -0.497837
-0.181928 0.495240 0.055847
0.083157 0.389384 -0.313178
0.137608 0.319281 -0.384775
0.120756 -0.358539 -0.347191
-0.245360 0.361764 -0.345068
-0.147850 0.212938 -0.452611
-0.207106 -0.413842 -0.278324
-0.268147 0.153435 -0.476157
0.160080 -0.092573 0.487070
0.275705 -0.496688 0.025439
-0.001339 -0.469883 -0.165492
-0.276103 -0.177000 -0.467407
-0.107217 0.469479 -0.169732
0.049243 0.161554 -0.473356
0.117446 -0.055404 -0.496971
0.278024 0.130304 0.478785
-0.086507 -0.497063 0.017076
0.278718 -0.047027 -0.497877
-0.051280 -0.166639 0.466895
0.124742 0.361955 -0.344858
-0.014592 0.037740 0.494592
-0.047885 0.476265 -0.149164
0.200894 0.065066 -0.495960
-0.205720 0.467620 -0.174686
0.123068 0.235004 0.437100
-0.254608 -0.389277 -0.312291
0.183381 -0.301736 0.393547
0.283358 -0.125252 0.479668
0.178164 0.316974 0.382341
-0.071732 -0.493936 -0.062128
0.180579 -0.017583 -0.499804
-0.224826 -0.461242 -0.188608
0.126059 -0.038031 0.494270
0.008380 0.183575 -0.465336
0.194348 -0.397523 0.297331
-0.274358 0.399265 -0.300786
0.105938 -0.439613 -0.235523
0.176729 0.361717 -0.345121
-0.094937 -0.487852 0.095982
0.078026 -0.450749 0.208442
-0.195161 -0.226607 -0.445335
-0.213441 0.154889 0.471321
0.261108 -0.306804 0.389724
0.069583 -0.382225 -0.320783
-0.242857 0.495749 0.051307
0.131690 -0.350500 -0.355449
-0.123054 -0.330918 0.369556
-0.094116 0.212201 0.448605
0.021842 0.411314 0.279353
-0.044178 0.303417 0.393151
-0.249178 -0.029866 0.494932
0.126275 0.420653 0.265207
-0.231825 0.485782 -0.113838
0.209493 -0.240160 0.433811
0.123059 -0.132643 0.477628
-0.258205 0.498218 0.015218
-0.243924 -0.497417 -0.007142
-0.241500 0.498419 0.004067
-0.143952 0.493888 0.065195
0.007675 -0.492879 0.066720
0.262548 0.498211 0.015598
0.014291 0.496079 0.047237
-0.184822 0.313234 0.385323
0.107945 0.189983 -0.462664
0.285068 -0.437189 0.235307
-0.192314 -0.496070 0.037193
-0.212363 0.090305 0.487628
-0.003930 -0.253598 -0.430436
-0.060374 -0.486585 0.101795
-0.050069 0.498566 -0.004079
0.029642 -0.460402 0.186837
0.054313 -0.468184 -0.170417
0.087637 -0.404055 -0.292703
-0.236815 0.418078 0.269107
0.250426 -0.496098 0.036935
-0.170150 0.194846 -0.460637
-0.021362 0.498321 0.009485
-0.007320 -0.052817 -0.497251
0.241465 0.345627 -0.361130
-0.190616 0.490084 -0.093321
0.182890 0.141870 -0.479717
0.102626 0.471608 -0.164057
-0.145353 0.453825 -0.208224
-0.110775 -0.182945 -0.465176
0.127020 0.486437 0.106766
-0.257814 0.301607 -0.398771
0.155886 -0.345854 0.355559
-0.028867 -0.025862 -0.499433
0.039201 -0.251742 0.427169
-0.039219 -0.496282 0.034483
0.006276 -0.292630 -0.404793
-0.289811 0.063737 0.491828
0.205948 0.433498 0.243730
-0.272727 -0.210454 -0.453282
0.134440 -0.383664 0.314713
-0.138496 -0.408152 -0.286943
-0.227728 0.200100 0.454035
-0.040823 0.056937 0.492563
0.105716 0.184201 0.460736
-0.272459 0.169647 0.466197
-0.223414 0.374978 -0.330480
0.007806 0.334951 0.366732
0.084418 0.209114 -0.454495
0.128634 -0.436782 0.236080
-0.095551 -0.231552 0.438580
-0.085494 0.055281 -0.497309
-0.114605 0.225657 -0.446343
-0.083709 0.088727 -0.492444
0.073276 0.489339 -0.097649
-0.196355 -0.099274 -0.490261
-0.153704 -0.237864 0.435127
-0.158090 0.323347 -0.381286
-0.218153 0.310920 -0.391744
-0.194838 0.264038 0.420342
-0.254984 -0.401119 -0.296594
0.051510 0.328987 0.372133
0.189978 -0.245400 0.430806
0.147951 -0.454281 0.200572
-0.005178 -0.204670 -0.455878
-0.033075 -0.423135 -0.264248
0.020812 0.148046 0.473409
0.123158 0.297598 0.397682
-0.167003 -0.051293 -0.497416
0.060807 0.151858 -0.476701
0.148363 -0.034752 0.494536
-0.168959 -0.494793 0.049011
-0.006064 0.495691 0.052024
-0.092495 0.279951 -0.414359
0.070664 0.443436 0.225491
0.198295 -0.390762 0.305811
-0.169778 0.243138 0.432817
-0.071666 0.233432 -0.442512
-0.056011 -0.357775 -0.347976
0.241411 -0.270582 0.415514
-0.040026 0.471793 0.158571
-0.131100 -0.495884 -0.041344
-0.237492 -0.266520 -0.422558
-0.277852 -0.411994 0.276824
-0.180390 -0.291320 0.401405
-0.227427 -0.492656 -0.070979
-0.080631 0.254652 -0.430441
-0.136327 -0.436354 0.236893
-0.131318 -0.444113 -0.226390
-0.045252 0.416456 -0.276263
0.224738 0.426557 -0.259920
-0.019764 -0.097739 0.485988
-0.229206 -0.352040 0.349536
0.063061 -0.323473 -0.380552
-0.138231 -0.299371 -0.399913
-0.015402 -0.471538 -0.160692
0.035061 -0.034946 -0.499025
-0.001610 -0.403945 0.288333
0.252733 -0.428202 0.251186
-0.070328 -0.056088 -0.496897
-0.056554 -0.445047 0.220383
-0.218403 0.432083 -0.250855
0.149303 -0.442459 0.225297
-0.256708 0.496430 -0.047703
0.130422 0.257473 -0.428823
0.218156 -0.074826 0.490046
0.105612 0.112287 -0.487508
0.055023 -0.458165 -0.195988
-0.081225 0.476210 0.145766
-0.215463 -0.301294 -0.398380
0.166042 0.231109 0.439151
-0.188643 -0.451567 0.206620
0.256995 0.117267 -0.486465
-0.065026 0.433549 0.243642
0.222165 -0.335042 -0.370074
0.285628 -0.446065 0.218450
0.243959 -0.495032 0.046800
