-0.149569 -0.432374 -0.106487
-0.206396 0.441633 0.058715
0.136808 -0.191373 -0.404083
0.137524 -0.307994 -0.323299
-0.136733 0.105310 -0.434954
-0.263258 -0.433035 0.099176
0.187823 0.190731 -0.404932
0.113748 0.422343 -0.144834
0.275624 0.231603 0.378402
-0.053562 0.376589 0.236524
0.051639 -0.425731 -0.130842
-0.076188 -0.396492 -0.203682
-0.238404 0.051999 0.440156
0.103323 -0.029050 0.442229
-0.095837 -0.038361 0.441349
-0.267893 0.444557 -0.035554
-0.232223 0.280274 -0.348624
0.246739 -0.406048 0.179350
-0.180085 -0.334199 0.291398
0.051658 -0.386429 -0.222509
-0.029539 -0.234148 0.376291
0.072768 0.158338 -0.418546
0.110885 0.441429 -0.064359
-0.211902 0.438262 -0.084352
-0.042576 0.203641 -0.398354
-0.061173 0.400819 -0.197202
0.218774 0.429185 -0.122480
-0.229753 0.398988 -0.200795
-0.115265 0.064685 0.438424
-0.129345 -0.373511 0.239545
-0.048600 -0.442037 0.047016
0.275130 -0.428554 -0.121124
0.195951 0.085639 -0.439351
-0.023279 -0.239922 -0.377075
-0.266458 -0.040462 0.441150
0.238876 -0.017652 -0.447041
-0.158172 0.331072 0.296107
-0.012577 0.256583 -0.366449
0.040568 0.445848 -0.005348
0.229798 0.413780 0.163850
-0.002911 0.028804 -0.446702
-0.227171 0.246460 -0.373328
0.154159 0.365539 0.252784
-0.077880 -0.411374 -0.171395
-0.092150 -0.146260 0.418172
-0.064102 0.006954 0.443056
-0.046652 -0.033363 0.441821
-0.185751 -0.438770 0.070323
-0.048124 0.227635 0.380749
-0.114557 0.376720 0.236305
0.145929 0.403962 0.186538
0.052928 -0.207666 0.391428
0.284080 0.192844 0.399502
-0.114761 -0.291345 -0.338402
0.170403 0.303243 -0.328816
0.250692 0.425555 -0.134974
-0.279102 -0.332276 0.293579
0.092435 0.443067 0.046970
-0.269640 0.147506 -0.422446
-0.245669 -0.441169 -0.059529
0.190606 0.169102 0.409982
0.266018 -0.157186 0.414238
0.276121 -0.432205 -0.107242
-0.260568 -0.358250 0.261709
0.220979 -0.260036 0.359052
-0.172168 0.105944 0.430459
-0.198454 -0.440677 -0.062633
-0.236375 -0.241623 0.371566
-0.073103 -0.346792 -0.280834
-0.178776 -0.116676 -0.431754
-0.173018 0.393008 0.208179
-0.161273 0.384820 -0.226963
0.268850 0.324719 -0.307600
-0.044706 0.438636 -0.081990
0.280554 -0.088105 0.434217
0.256035 -0.381598 0.226324
-0.237496 -0.082291 0.435473
-0.262221 0.390510 -0.217342
0.277849 0.445081 -0.029735
-0.133092 -0.382665 -0.228874
-0.129416 -0.435045 0.090183
-0.079369 -0.292959 -0.336979
-0.013153 -0.346798 0.276472
0.283441 -0.374152 -0.242956
-0.096613 0.356394 -0.269776
0.001330 -0.096110 -0.436781
-0.181233 -0.436762 0.082503
0.039832 -0.442408 0.043093
0.206884 -0.391468 -0.213543
-0.089553 0.242492 0.371671
0.113644 -0.278585 -0.349140
0.157960 0.409172 -0.178851
0.054815 0.422391 -0.144699
-0.251479 0.445216 0.021106
0.113756 0.410706 0.170954
-0.112334 0.340419 0.285505
-0.263570 -0.442462 -0.046882
0.036343 -0.091398 0.433481
-0.205098 0.405567 -0.187183
0.077599 0.336655 -0.294129
-0.123702 0.329372 -0.302389
0.237374 -0.168420 0.409833
-0.186897 -0.342628 -0.286191
-0.158474 0.102244 0.431286
0.226094 -0.188388 0.401192
-0.157859 -0.228522 -0.383972
-0.255122 -0.141071 0.420040
-0.167595 0.140743 0.420527
0.244172 0.329028 -0.302779
0.152655 -0.068606 0.437641
-0.122229 0.417376 0.154275
0.015796 -0.413861 -0.165546
-0.146974 -0.382573 0.224676
-0.041861 0.372474 -0.246933
-0.272015 0.338733 0.287417
-0.129538 0.302623 -0.329363
0.277518 -0.007199 0.443016
-0.045564 0.387343 -0.222697
0.170508 -0.029011 -0.446586
-0.076824 -0.257991 0.360442
0.138250 -0.145777 -0.422699
-0.253152 0.068871 -0.442115
-0.170387 0.252867 0.364620
0.276415 -0.444267 -0.023043
-0.092213 0.213270 0.389094
0.039047 0.405484 -0.187375
-0.014206 -0.376368 -0.239522
0.039184 0.440551 -0.069900
-0.100833 0.094741 -0.437316
-0.248772 -0.444917 -0.002002
-0.140986 -0.109995 0.429324
0.151958 0.392138 -0.214239
-0.157815 0.013561 -0.447202
-0.219790 0.378841 0.232720
0.263459 -0.146436 -0.422462
-0.141472 -0.171988 0.408289
-0.009454 -0.374721 0.237764
-0.179841 0.434303 0.098087
0.228662 0.412241 -0.171759
0.168508 -0.318026 -0.313268
-0.153401 0.438386 -0.083572
-0.179281 0.445662 -0.011268
0.003317 -0.070699 -0.441663
0.120682 0.401842 0.190840
-0.120005 0.150350 0.417068
-0.014756 -0.145750 0.418355
-0.118297 0.445533 0.011017
-0.218230 0.262578 -0.362351
0.179515 0.375347 -0.242705
0.126221 0.217135 0.386959
0.151017 -0.104605 0.430529
-0.116555 -0.251255 0.365020
0.071593 0.237605 -0.379206
-0.069885 0.350387 -0.277520
0.243234 0.439115 -0.078967
-0.166625 0.359161 -0.266209
-0.148924 -0.063537 0.438444
-0.202671 -0.322587 0.304353
0.119797 0.048907 0.440449
-0.079487 -0.406583 0.178112
-0.070477 0.257540 -0.365798
0.278819 -0.333048 0.292704
-0.093622 0.113748 -0.432903
0.112978 -0.440104 -0.066251
0.107590 0.399822 0.194804
0.206677 0.355074 -0.271478
0.216704 -0.321681 0.305259
0.208350 -0.441855 -0.053300
-0.215088 -0.368059 -0.251921
-0.065413 -0.365922 0.250711
-0.149565 -0.394074 -0.208428
-0.061521 0.320095 -0.312223
0.118594 0.389705 -0.218702
0.127361 0.239326 0.373823
0.143028 -0.102539 -0.435344
0.009347 0.396319 -0.206033
-0.123485 0.428206 -0.125851
-0.207242 -0.418980 0.146975
-0.128488 0.445577 0.009615
-0.126462 -0.398341 -0.200054
-0.001394 0.346989 -0.281901
-0.211583 0.367904 0.249304
-0.283228 -0.425732 -0.130838
-0.096196 0.044934 -0.445178
-0.057012 -0.401298 -0.194250
-0.056472 -0.297034 -0.333387
0.045916 -0.340129 -0.289025
0.200846 -0.393818 0.204577
-0.048818 -0.428518 -0.121249
0.237185 0.365539 -0.257137
0.129171 0.349922 -0.278119
0.184850 -0.171520 -0.412845
-0.227597 -0.411732 0.166214
-0.095039 -0.360645 -0.262830
-0.078143 0.438609 0.077808
-0.145971 0.429270 -0.122187
-0.271895 -0.282781 0.341531
-0.216119 0.264172 0.356761
0.196279 -0.242715 -0.375177
-0.196167 -0.383013 -0.228285
-0.192255 0.332927 0.294003
-0.067748 0.042688 0.441036
0.173384 0.120476 -0.430948
0.077096 0.274224 -0.353317
-0.152024 -0.006589 0.443035
-0.209515 0.369183 -0.251775
-0.003073 0.442340 0.054252
0.199055 0.031459 0.442098
0.209545 -0.366538 -0.254159
-0.201094 0.187913 0.401841
-0.016258 0.088309 -0.438754
0.282447 -0.412970 0.163353
0.241767 0.042070 -0.445448
0.269095 0.413925 -0.167868
0.043101 -0.269145 -0.356462
-0.053330 -0.354882 0.266051
0.220554 -0.382031 0.225592
0.022975 -0.246644 -0.372507
0.093475 -0.303082 0.323701
0.056225 -0.438259 -0.077902
-0.082771 0.333970 0.292820
0.252694 0.181011 0.404828
0.143273 -0.340908 -0.288141
0.130095 0.367259 -0.254606
0.002392 -0.176749 -0.410582
0.157865 0.110341 -0.433829
0.176927 0.343401 0.282123
-0.119454 0.356025 0.265898
-0.276762 -0.371040 0.243181
0.011139 0.405799 -0.186645
0.106168 0.443371 -0.048105
-0.040434 -0.409821 0.170631
0.189105 -0.430185 0.111159
0.180094 0.003685 0.443159
0.137175 -0.133811 -0.426776
-0.229554 -0.118713 0.426809
0.256978 0.328707 -0.303143
0.103863 -0.292870 -0.337057
0.128384 0.155132 -0.419700
-0.135644 0.368841 0.247925
0.258782 0.442212 0.055059
-0.133524 -0.346595 0.276735
-0.027934 0.091594 -0.438020
-0.185508 0.034930 0.441770
-0.157046 0.132843 0.423002
-0.267072 0.348475 -0.279986
0.098261 0.440257 0.067400
0.157199 -0.155574 0.414819
-0.161224 0.445034 -0.030506
0.040276 -0.410785 -0.172757
-0.182259 -0.230612 -0.382736
-0.004954 0.375433 -0.242578
-0.225795 0.424671 0.133664
-0.058146 -0.071117 0.437243
0.215285 -0.444751 -0.007634
-0.173885 -0.332116 -0.298114
-0.104989 0.445082 0.025365
-0.267219 -0.440802 0.057489
-0.182062 -0.162131 -0.416811
-0.182850 -0.441846 0.049045
-0.046831 0.442328 -0.058681
-0.190746 -0.422045 0.138460
-0.214041 0.322977 -0.309341
0.068979 0.441653 0.058586
0.267435 0.445877 0.000064
-0.288400 -0.338196 -0.291218
-0.204966 0.081760 0.435720
0.115112 -0.311091 0.315849
-0.027856 -0.356864 -0.267849
-0.261366 -0.227965 0.379948
0.082481 0.413361 0.164819
0.230723 0.324295 -0.308023
-0.146692 0.432922 0.104266
0.280830 0.421607 -0.146876
-0.289350 0.166069 -0.415648
0.088528 0.445918 -0.001240
0.052540 -0.123988 0.425277
0.022005 0.165763 -0.415780
0.263636 -0.120776 -0.430563
0.223294 0.266474 -0.359329
0.064734 -0.432356 0.102212
0.184269 0.291279 0.335010
0.267392 0.421790 -0.146368
0.266191 0.351291 -0.276354
0.086383 0.436679 0.087455
-0.124823 0.434047 -0.103586
-0.087316 -0.203344 -0.397983
0.022649 0.241680 -0.376577
-0.041399 0.083698 0.435413
-0.064408 0.438128 -0.085197
-0.158984 -0.442074 -0.050985
0.226216 0.072816 -0.441490
-0.000193 -0.427335 0.120966
0.017845 0.004577 -0.447484
0.281225 -0.041863 -0.445371
0.129351 -0.392063 -0.212375
-0.162805 -0.413793 -0.165735
0.132853 0.445924 -0.002921
0.139520 0.275269 -0.352507
-0.201193 0.296130 -0.335087
0.181872 -0.425935 0.125787
0.177251 0.309955 -0.322364
-0.222527 0.370921 0.244863
-0.013941 -0.012417 0.442852
0.258773 -0.027472 -0.446731
-0.080592 -0.042672 -0.445295
-0.184492 -0.047948 -0.444796
-0.288992 -0.092255 -0.437643
0.061557 -0.225221 0.381571
-0.024038 -0.418194 0.149156
-0.209082 -0.443373 0.032892
-0.105132 -0.287624 -0.341682
-0.059614 0.301063 0.326384
-0.224873 -0.241778 0.371460
0.145334 0.134971 -0.426737
-0.123751 -0.429736 0.112702
-0.143734 -0.205417 0.392574
-0.005994 -0.003684 0.443126
-0.273020 0.082653 -0.439932
0.118783 -0.442275 0.044504
-0.179354 0.120093 -0.431059
-0.220577 0.370087 -0.250445
-0.261709 -0.433647 -0.100790
-0.123351 -0.325161 0.301649
-0.136154 0.393933 0.206363
0.179365 -0.355842 0.264813
0.234070 -0.056553 0.439550
0.122368 -0.421535 0.139878
-0.088975 0.443250 0.045028
-0.125934 -0.177934 -0.410070
-0.274589 0.355018 0.267197
0.184358 0.442666 0.051210
-0.086451 -0.388371 -0.219226
-0.190988 -0.292531 -0.337356
0.100121 -0.413408 -0.166694
0.285296 0.384393 0.223332
-0.122401 -0.425539 0.127148
0.193505 0.441496 -0.063931
0.130692 0.390873 0.212368
0.220300 0.311430 0.316535
0.013787 -0.407896 -0.179432
-0.090133 -0.397475 0.197399
0.286604 -0.299283 0.327051
-0.253092 0.353043 0.269743
0.198353 0.307649 0.320316
0.210045 0.443027 0.047391
0.162516 -0.352658 0.268918
0.006382 0.171922 -0.413115
-0.096567 0.293121 -0.337740
0.267920 0.293392 -0.337501
0.007647 -0.228244 0.379783
0.037657 0.434360 0.097831
0.156151 0.335749 0.290803
0.243436 -0.444367 -0.019851
0.140121 -0.216848 -0.390876
-0.144253 -0.303007 0.323768
-0.113487 -0.368940 0.246270
-0.240555 -0.349997 0.272349
-0.190147 0.395096 -0.208434
0.028777 -0.383918 -0.226756
0.155093 -0.251023 -0.369530
0.014971 0.445146 0.023329
0.116474 0.365769 0.252444
-0.259564 -0.118434 -0.431244
-0.222763 0.009398 -0.447333
-0.085325 -0.139542 -0.424944
-0.093216 0.277967 -0.350414
0.052137 0.200443 0.395630
-0.288079 0.417610 0.153624
0.233288 0.350326 -0.277599
-0.218036 0.181680 -0.408892
0.163514 -0.221810 -0.387942
0.210410 -0.423904 0.132776
-0.110511 0.252392 0.364943
0.165974 -0.135677 0.421881
0.103162 0.263275 -0.361810
0.072700 0.368104 0.249009
-0.080014 0.307429 0.320536
0.127080 0.009196 -0.447339
0.047477 0.405848 0.182179
0.151907 -0.074126 -0.441120
0.060151 0.437812 -0.086740
0.206239 0.155853 -0.419440
0.215137 0.065948 -0.442578
0.177084 -0.333779 0.291875
-0.085822 0.050521 0.440296
-0.041512 0.360358 -0.264666
-0.055986 0.445711 0.005360
-0.126043 0.336934 -0.293811
-0.281469 -0.279182 0.344323
0.082391 -0.203078 -0.398119
0.255447 -0.172304 0.408152
0.158419 0.413191 -0.169565
0.164455 -0.442400 -0.047530
0.206564 0.181109 -0.409139
0.143077 -0.411442 -0.171238
0.154182 -0.373066 0.240199
0.215302 -0.190805 0.400019
-0.141323 0.399586 0.195267
-0.020490 0.413870 0.163641
0.123435 -0.305498 0.321443
-0.048953 -0.444907 -0.001690
-0.117814 0.050573 -0.444644
0.040681 -0.424089 -0.136495
0.260478 0.392657 -0.213221
-0.151974 -0.441526 0.052423
-0.101073 -0.213934 0.388234
0.262724 0.382971 -0.230090
-0.203689 -0.244532 0.369589
-0.154731 0.403652 -0.191607
0.150502 -0.014802 -0.447131
0.131476 0.327685 -0.304302
0.212257 -0.419038 -0.151167
0.124458 0.059729 -0.443563
-0.035482 -0.438521 -0.076245
-0.093653 0.119054 0.427008
-0.081412 -0.431532 -0.110253
-0.244406 -0.208191 -0.395514
0.105027 -0.040168 0.441178
-0.261251 0.178281 -0.410363
-0.170211 0.249834 -0.371036
0.097983 -0.252717 -0.368380
-0.111088 -0.371058 -0.247508
-0.195207 0.380330 -0.234555
0.065307 -0.247190 0.367783
0.025739 -0.054985 -0.444130
0.005981 -0.380720 -0.232164
0.196925 -0.196950 -0.401241
0.161477 0.050492 0.440299
-0.094610 -0.006966 -0.447377
0.274856 0.021794 0.442590
-0.053250 0.426174 0.128492
-0.144968 0.278776 0.345433
-0.194421 0.392063 0.210033
0.014970 0.300858 0.326565
0.059427 -0.427897 -0.123386
-0.031762 0.346666 0.277964
-0.184993 -0.318547 0.308394
0.145908 -0.437011 -0.085740
-0.145905 0.138893 -0.425547
-0.116840 -0.316588 -0.314706
-0.213587 -0.257104 0.361045
0.049336 -0.269535 0.351806
0.228645 0.444280 0.034136
0.094120 0.373553 -0.245344
-0.095771 0.434385 0.097719
0.063763 0.152007 -0.420825
0.007520 0.333567 -0.297631
0.108214 0.108839 0.429812
-0.147333 0.338737 0.287413
0.081672 -0.437090 -0.085280
0.044341 0.226727 -0.385640
0.109186 0.044378 -0.445230
0.034256 -0.273665 -0.352956
-0.136830 0.427071 0.125403
-0.121665 0.439826 0.070123
-0.029584 -0.443853 0.027812
0.260341 -0.381058 -0.231591
0.183562 0.013529 0.442849
-0.192358 0.259996 -0.364129
-0.222500 0.122492 0.426009
-0.267670 -0.235529 0.375475
0.071616 0.305051 0.322869
0.180103 0.144697 -0.423457
0.042232 0.442871 -0.053397
-0.167491 -0.444319 0.017016
0.171413 0.385803 -0.225301
-0.013510 -0.098402 0.431915
0.272410 -0.090838 -0.437959
-0.255245 -0.299062 -0.331599
-0.289850 -0.002093 0.443176
0.101223 0.076519 -0.440903
0.234614 -0.406189 0.179024
0.207145 0.348672 -0.279731
0.283129 0.032389 -0.446363
0.122038 0.134744 -0.426803
-0.201028 -0.163092 0.412112
-0.183151 0.233159 -0.381836
0.119676 -0.154650 0.415151
0.130249 -0.148961 0.417199
0.103058 -0.268070 -0.357296
-0.154202 -0.264707 -0.359905
-0.289253 -0.030063 0.442133
-0.210779 0.445121 0.024134
-0.058044 0.445231 -0.024971
0.160552 0.159713 -0.418051
0.228392 0.071400 0.437361
0.237714 -0.390172 0.211732
-0.256882 0.444599 0.030758
0.180128 0.427177 0.125039
-0.204781 0.327340 -0.304694
-0.248795 -0.272581 0.349443
-0.151057 -0.402291 0.187948
-0.152470 0.444311 -0.038154
-0.037081 -0.178192 0.405604
0.069653 -0.443773 0.028660
0.075497 -0.427619 -0.124344
-0.137827 -0.142461 -0.423893
0.226086 -0.378574 -0.235792
0.184399 -0.135398 0.421962
0.052059 -0.302651 -0.328434
0.258636 -0.300451 0.326021
0.072835 -0.219045 -0.389577
0.022662 -0.236272 -0.379388
0.088437 -0.318951 0.307989
0.073595 0.394110 -0.210369
-0.266135 -0.416167 -0.159141
-0.115746 -0.245678 -0.373163
0.181520 0.440227 0.067590
0.207373 -0.242422 -0.375376
0.264379 0.438851 -0.080632
-0.115744 0.445345 -0.021335
0.177406 0.185986 -0.407029
0.180383 -0.024225 0.442481
0.075323 -0.442801 -0.043287
-0.232396 0.078138 -0.440647
-0.202308 -0.166391 -0.415065
0.201403 0.445847 -0.005387
-0.016563 -0.098330 -0.436285
-0.113551 0.414783 0.161478
-0.048190 0.314019 0.313946
0.114337 0.084597 0.435230
-0.176603 -0.417197 -0.156278
-0.139723 -0.416366 -0.158589
0.020609 0.031973 0.442049
-0.063016 -0.367237 -0.253130
0.176017 0.295597 0.331203
-0.269425 0.409543 0.173640
-0.265654 -0.231571 -0.382169
-0.053936 -0.444574 -0.013275
-0.075433 -0.391670 -0.213146
0.046772 -0.313422 -0.317872
0.027344 0.359728 -0.265477
-0.157185 -0.126514 -0.428896
0.263937 -0.389534 0.212905
0.069673 0.199971 -0.400224
0.182013 -0.300520 0.325960
0.114405 -0.243196 0.370496
0.283127 0.277041 0.346779
-0.136300 -0.313795 0.313145
0.244932 -0.201892 0.394370
0.162313 -0.422135 0.138210
-0.169696 0.261532 0.358732
0.029599 -0.218800 0.385368
0.077604 0.445902 -0.000740
0.227956 -0.400378 -0.196055
0.229167 -0.362633 0.255551
-0.189402 0.431520 -0.114443
-0.157808 -0.032701 0.441884
0.112403 -0.440915 0.056776
-0.122934 0.369675 0.246698
0.019133 -0.233853 0.376466
0.006389 -0.431824 -0.108943
-0.191782 -0.439205 -0.071930
-0.250969 0.323575 0.304390
0.178119 -0.365762 0.250947
0.155595 -0.063536 -0.442797
-0.169528 0.333677 -0.297506
-0.004799 -0.263864 -0.360559
-0.009294 0.430270 -0.118746
-0.273362 0.232618 0.377802
0.104934 0.270896 -0.355898
0.164679 -0.170391 -0.413334
-0.100470 -0.402063 0.188396
-0.036615 -0.430383 -0.114830
0.150719 -0.266413 -0.358581
0.187020 0.332275 0.294743
-0.085366 -0.024825 0.442462
-0.063477 -0.409655 -0.175367
-0.028149 0.338677 0.287482
0.032027 -0.162143 -0.416807
-0.039765 0.249556 -0.371224
0.129424 -0.434085 0.094476
0.047867 0.433754 0.100542
0.099543 -0.426913 0.122419
0.237596 -0.342069 0.282471
0.203289 -0.434225 0.093852
0.272295 0.388618 -0.220542
0.267749 -0.355154 0.265700
0.158287 0.425808 0.129752
0.191093 -0.234703 0.375963
-0.069577 -0.156727 -0.418757
0.149494 -0.211484 0.389483
-0.001774 -0.418890 0.147222
0.058522 0.104008 -0.435245
0.183884 -0.237155 -0.378866
-0.135799 -0.305016 -0.326278
-0.063081 0.074516 -0.441221
0.012020 0.416112 0.157788
0.209646 0.093061 0.433338
-0.135066 0.151606 -0.420969
0.030184 0.161735 0.412969
-0.119233 0.398449 0.197499
-0.141396 -0.255246 0.362308
0.166641 -0.055892 -0.444008
-0.039455 0.313053 -0.319266
-0.123371 0.184930 -0.407485
-0.153997 0.285394 0.340199
0.203860 0.401951 -0.194980
-0.080901 -0.433166 0.098587
0.031528 0.110010 0.429550
-0.207502 0.094066 0.433114
0.247130 0.445205 -0.025810
0.195745 -0.444884 -0.000956
-0.241666 0.401308 -0.196241
0.167291 0.430742 -0.117122
0.000067 0.426126 0.128656
0.226125 -0.016884 0.442712
0.014602 -0.397457 -0.201789
0.240065 0.428036 -0.126435
-0.275192 0.445541 -0.015104
0.128362 0.147729 0.418012
-0.021098 -0.419533 -0.149790
-0.064892 0.179810 0.405348
0.156835 -0.425785 0.126302
0.019036 -0.422249 -0.142247
-0.000672 0.424683 -0.137977
-0.242398 0.437088 0.085629
0.285032 -0.235931 -0.379590
0.229094 0.248053 -0.372246
0.229610 0.052392 0.440119
-0.124286 -0.027772 0.442350
0.227842 0.355002 0.267218
0.119067 0.017539 -0.447077
0.278916 -0.116579 -0.431783
-0.247701 -0.376108 0.235609
-0.223010 -0.201974 0.394328
-0.042460 0.017840 0.442714
-0.017893 -0.402005 0.188509
-0.142228 0.444970 0.026836
0.074336 0.436295 0.089175
-0.015772 0.213797 0.388826
0.005518 -0.399333 0.193752
0.107701 -0.437571 0.077894
0.085425 -0.237268 -0.378800
0.003206 -0.126460 0.424558
-0.205155 -0.378160 -0.236491
-0.272919 0.374243 0.239976
0.247539 -0.393768 0.204675
-0.274291 0.120621 -0.430906
-0.012127 0.109763 0.429605
-0.003203 0.418016 -0.156852
0.029860 -0.081872 0.435540
-0.143618 0.381757 -0.232142
-0.192017 -0.287182 0.337719
-0.276162 0.260559 0.359393
0.110674 -0.331539 -0.298768
-0.147698 -0.208372 -0.395421
-0.068804 -0.428527 -0.121216
-0.090846 0.343423 -0.286451
0.107890 -0.369930 0.244815
0.182185 0.440720 -0.068836
0.175001 0.237287 -0.379394
-0.104370 0.025613 0.442469
-0.247123 -0.329948 0.296220
0.262631 -0.038682 0.441318
-0.162941 -0.314044 0.312897
-0.268174 -0.215706 -0.391552
-0.128217 -0.061210 -0.443166
0.244886 -0.286787 -0.342420
0.121369 0.421237 0.143550
-0.206883 0.272424 -0.354713
-0.258525 -0.384354 0.221664
-0.121024 0.443582 -0.045866
-0.203064 0.320001 -0.312318
-0.020634 0.406618 -0.184754
0.237075 0.398306 -0.202134
0.061700 -0.441934 0.048106
-0.203499 0.313478 0.314487
-0.259481 -0.437646 -0.081774
0.285924 0.418044 -0.156774
-0.076043 -0.124226 -0.429561
0.191743 0.439485 0.072279
0.251859 0.247769 -0.372438
0.106681 -0.429960 0.111934
0.118687 -0.006929 0.443024
-0.171614 -0.375648 -0.240740
0.190523 0.338793 0.287350
-0.258255 -0.365143 0.251858
0.042937 -0.428294 0.117666
0.153603 0.410150 0.172237
0.171599 -0.173209 0.407761
-0.200866 0.440199 -0.072124
-0.121254 -0.381573 -0.230721
-0.085445 -0.084043 0.435125
0.085965 0.142645 -0.424196
0.065058 -0.442714 -0.044208
-0.213393 0.006980 -0.447409
0.192785 -0.363324 0.254535
0.176360 0.415601 -0.163558
0.097725 0.368104 -0.253363
-0.172179 -0.422179 0.138088
-0.214379 -0.367066 0.249029
0.188261 -0.310276 0.316664
-0.179997 -0.241552 0.371614
-0.282069 -0.041295 0.441071
-0.052102 0.155103 -0.419710
0.121997 0.378163 -0.238219
-0.037144 -0.304194 -0.327075
-0.040654 0.420711 -0.149365
0.167722 0.411363 -0.173788
0.227901 -0.439603 0.065062
0.090704 0.325806 -0.306434
-0.051184 -0.170279 -0.413382
0.269398 0.072923 -0.441473
0.038562 0.438560 -0.082468
0.270621 -0.219060 -0.389568
-0.175352 0.096822 0.432498
0.041668 0.417482 -0.158334
-0.016392 0.062693 -0.443093
0.239095 0.197140 0.397313
-0.044818 -0.060952 0.438853
-0.000391 0.155755 0.415123
0.036508 -0.267936 0.353046
0.181619 0.158081 0.414285
0.202168 0.366583 0.251247
0.173379 0.445194 0.021809
0.279973 0.328691 -0.303162
-0.218801 0.436077 -0.094503
-0.289857 0.373469 0.241115
-0.049873 -0.433081 -0.103320
-0.144037 -0.432817 0.100148
-0.238705 0.265957 0.355376
0.067196 -0.272544 -0.353826
0.241563 0.050030 0.440343
-0.267278 -0.324811 -0.306400
0.268753 -0.026106 -0.446775
0.214850 0.284535 0.340956
0.107807 0.367918 -0.253636
0.186308 0.418082 -0.156667
0.213566 -0.405749 0.180041
0.151921 -0.092793 0.433169
-0.285540 0.015047 -0.447155
0.042150 0.122325 -0.430411
0.178902 0.435289 -0.098031
-0.116675 0.138064 -0.425838
0.278721 0.445775 0.003303
-0.199703 0.373600 -0.245275
0.279332 -0.068079 0.437724
-0.000075 -0.207847 -0.395689
-0.259469 -0.401005 -0.194825
-0.039446 -0.386779 0.217563
-0.067946 0.216292 0.387458
-0.010446 0.073548 -0.441374
-0.052779 -0.382390 0.224986
0.146091 -0.139403 -0.424994
0.284676 0.294556 -0.336475
-0.079671 -0.034947 0.441671
0.036793 -0.041431 0.441058
-0.276571 -0.337272 -0.292266
-0.088427 0.071638 0.437323
0.237952 0.031834 -0.446416
-0.217725 -0.303855 0.323020
0.278307 0.235801 -0.380273
-0.275048 0.155296 0.415288
-0.248514 -0.426408 0.124158
0.264377 -0.424826 -0.133958
0.215401 -0.026123 -0.446775
0.113427 0.442902 0.048715
-0.085251 0.427979 -0.126632
-0.259835 -0.430282 -0.115177
0.019579 0.079312 0.436108
0.065467 0.046548 0.440672
0.256246 0.345914 0.278934
-0.254276 0.175325 0.407289
0.051229 0.438917 0.075863
0.013739 -0.389755 -0.216886
0.268424 0.237303 0.375032
0.011153 0.329352 0.298058
-0.103063 -0.076779 -0.440700
0.137106 -0.226945 -0.384905
0.093628 -0.295073 -0.335115
0.135201 -0.319484 0.307456
-0.254383 0.441512 -0.063834
0.041075 -0.218730 0.385409
0.135663 0.331678 0.295420
0.269798 -0.426037 0.125436
-0.069178 -0.427720 0.119644
-0.013684 0.432741 -0.109427
-0.008544 -0.049002 0.440343
0.205455 0.139407 -0.425361
-0.121684 0.248816 0.367374
-0.107700 -0.418124 0.149350
0.202915 0.294804 0.331902
-0.039580 0.422488 0.140075
0.008874 -0.293306 0.332320
0.122517 -0.428683 0.116327
-0.285817 0.186020 0.402660
0.265786 -0.168814 0.409663
0.204089 0.367643 -0.254040
-0.041591 -0.444260 -0.023258
-0.206948 -0.372891 -0.244811
-0.146906 -0.439242 0.067340
-0.185375 0.312468 -0.319850
0.240001 -0.335351 0.290092
0.268196 -0.330768 0.295289
0.059658 -0.376478 -0.239336
-0.217219 -0.167649 0.410167
0.262644 -0.263467 -0.360866
-0.090610 -0.235858 0.375280
0.271776 -0.437750 -0.081115
-0.275241 -0.204873 0.392851
-0.193727 -0.441555 0.052115
0.143029 0.445209 0.021318
0.045238 0.343804 -0.286007
0.096783 0.355225 0.266930
0.132998 -0.168804 0.409667
-0.218378 -0.148254 0.417454
0.038615 0.194281 0.398770
0.128704 0.163771 0.412237
-0.125553 0.141687 0.420187
0.103841 -0.417076 0.152263
0.285872 0.440945 -0.067414
0.130037 -0.439366 0.066556
-0.159155 -0.423839 0.133001
0.262334 -0.122165 0.425806
0.095334 -0.343885 0.280228
0.077369 0.403690 0.187165
-0.178907 0.416116 0.157777
0.106579 0.263293 0.357443
-0.002581 0.227903 -0.384944
0.274888 -0.204495 0.393044
-0.090030 -0.443028 -0.040895
-0.155511 0.068539 0.437814
-0.140309 -0.099537 0.431662
-0.088952 -0.307722 -0.323571
-0.240267 0.352669 -0.274578
0.045997 0.305146 0.322785
0.209548 -0.217824 -0.390299
0.006046 0.116486 0.427754
-0.038842 0.354056 -0.272790
0.052751 0.380401 -0.234435
0.133513 -0.444901 -0.001504
0.171743 -0.298485 -0.332108
-0.255815 -0.206041 -0.396610
-0.205914 0.004713 0.443126
-0.152680 -0.161605 0.412647
0.196723 -0.419415 -0.150120
-0.250478 -0.353496 -0.272191
0.014224 0.327961 -0.303989
-0.169750 0.445268 -0.023798
0.268645 -0.432619 0.101038
0.226548 -0.057479 -0.443757
-0.203550 -0.399687 -0.197412
-0.039556 -0.385488 -0.224101
0.131623 0.144802 -0.423419
0.052598 -0.439488 0.065789
-0.051161 -0.252537 0.364148
-0.141708 0.260874 0.359179
0.221245 0.123396 -0.430100
-0.276955 0.185322 -0.407316
0.237765 0.440623 -0.069448
0.179047 0.277399 -0.350854
0.177763 -0.019585 -0.446980
0.016966 0.363757 -0.259759
-0.070664 0.017007 -0.447093
0.143236 0.267226 -0.358745
-0.170868 0.238158 0.374526
0.008490 -0.027999 -0.446682
-0.063548 -0.163707 0.411873
0.011882 0.225607 -0.386302
0.281413 0.409081 0.174707
0.181439 -0.431412 -0.110791
0.133146 0.412372 0.167103
-0.075037 0.361224 0.259133
-0.289834 0.196394 -0.402047
0.235746 0.270381 0.351945
0.195131 0.020099 -0.446996
0.234053 -0.028606 0.442271
0.042853 -0.260835 0.358509
0.088656 0.399660 0.195122
-0.029827 0.359735 -0.265469
-0.095922 -0.255867 0.361885
-0.179480 -0.341807 0.282768
0.275918 -0.189560 0.400654
0.000621 -0.438272 -0.077819
-0.139948 0.006035 0.443085
-0.142452 0.439168 -0.078633
0.075116 -0.361810 -0.261116
-0.082069 -0.437910 0.075753
-0.000446 -0.417435 -0.155618
-0.122843 -0.442214 0.045149
0.191912 -0.232024 -0.381901
0.187182 -0.282904 -0.345789
-0.219621 0.154218 -0.420029
-0.185163 0.022690 -0.446915
-0.033744 0.381210 0.228714
-0.288453 0.046871 0.440641
0.191904 -0.180594 -0.408919
-0.243361 0.445838 -0.005671
-0.162239 -0.377567 -0.237494
-0.275636 0.434925 0.095305
-0.243231 0.031174 -0.446478
0.197106 0.099587 -0.436233
-0.194035 -0.405590 0.180408
-0.178444 0.407637 -0.182398
-0.169087 0.215268 0.388063
0.008383 0.421776 0.142053
-0.142528 0.443574 -0.045951
-0.178296 0.083137 -0.439855
0.223014 0.369771 -0.250910
-0.059727 0.431339 0.110712
0.044758 0.317025 -0.315293
0.155739 0.430091 -0.119361
-0.270310 0.222350 -0.388228
-0.184982 -0.184825 0.402734
0.110868 0.374948 -0.243292
-0.264223 -0.366402 -0.254359
0.151491 -0.110582 -0.433525
0.188469 0.122277 0.426072
-0.140878 -0.265192 -0.359528
0.284628 0.029633 0.442271
-0.221066 0.093567 0.433225
-0.055698 -0.395992 0.200311
-0.119561 -0.272912 -0.353540
-0.269892 0.376310 -0.241287
-0.056400 0.058326 -0.443785
0.004859 0.349539 0.274260
-0.145884 0.179992 -0.409622
0.106894 -0.008549 0.442974
0.141957 0.313427 0.314538
-0.258034 -0.414325 0.159903
-0.038380 -0.014541 0.442785
-0.185747 -0.390514 0.211061
0.107359 0.284676 -0.345185
-0.194084 0.095259 -0.437200
-0.052597 0.022429 0.442570
-0.201316 -0.263658 0.356365
0.254613 -0.317565 0.309376
-0.196466 -0.443306 0.033596
0.099472 -0.433235 0.098278
0.001500 -0.428720 -0.120553
-0.224668 0.414240 -0.167141
-0.089117 0.370242 0.245863
0.120039 -0.396363 0.199582
0.007689 0.357746 0.263680
0.048920 -0.347255 0.275883
0.163940 -0.444233 0.019761
0.048494 0.367323 0.250159
-0.081167 0.086724 -0.439108
0.167904 0.439221 -0.078297
0.225417 0.012449 0.442883
-0.145079 0.445644 -0.011836
-0.082344 0.013809 -0.447194
-0.021115 -0.259421 0.359470
-0.030284 0.380522 -0.234231
-0.223565 -0.028107 -0.446671
0.232568 0.372148 -0.247412
0.227901 0.134027 -0.427011
-0.177638 -0.444360 0.015726
0.276218 -0.443119 -0.039923
-0.289115 -0.395853 -0.204937
0.009655 0.252078 -0.369510
-0.188941 0.066394 0.438154
-0.048393 -0.348090 -0.279161
0.191525 -0.437199 -0.084591
0.239643 0.418091 -0.156642
-0.091462 -0.444520 -0.015001
0.264462 -0.007240 0.443015
-0.096330 0.265677 0.355594
0.236372 0.300296 -0.331414
0.262335 -0.285201 0.339466
-0.112352 -0.334516 0.291038
0.002336 0.370879 -0.249280
-0.006832 -0.180686 0.404525
0.187542 -0.129828 -0.427933
0.021793 0.230423 0.379100
-0.068044 -0.371891 0.241929
0.154179 -0.276269 0.346583
0.258700 -0.066914 0.437909
-0.095502 -0.429473 0.113609
-0.161166 0.441985 -0.060849
-0.262505 -0.403087 0.186191
-0.238242 0.406374 -0.185318
-0.209329 -0.434250 -0.098093
0.037066 0.149383 -0.421770
-0.031640 -0.427035 0.122000
-0.039142 0.318475 0.309490
0.275098 0.424451 -0.138776
0.269013 0.129193 -0.428415
0.156385 -0.444602 0.008026
-0.196776 0.426589 -0.131417
-0.277041 0.416279 -0.161677
-0.284397 0.359104 0.261930
0.156514 -0.038826 -0.445658
-0.198691 -0.152558 0.415904
0.212388 0.430517 0.113541
-0.139998 -0.441578 -0.056232
0.186308 0.211277 -0.394464
-0.285576 0.445362 0.016443
-0.196442 -0.432308 0.102427
0.000091 0.282247 0.342741
0.091831 -0.031843 0.441965
0.224888 0.423838 0.136325
-0.032780 0.015856 -0.447130
0.155190 -0.170940 0.408743
-0.227084 -0.374287 -0.242757
0.229819 -0.420189 0.143617
-0.014228 0.245590 0.369566
-0.232808 0.379064 -0.236696
-0.053542 -0.444224 0.020067
0.175288 0.181531 0.404603
-0.080224 -0.093181 -0.437436
-0.107713 0.179939 0.405292
0.203813 0.276933 0.346863
0.195778 -0.007318 0.443012
-0.259254 -0.265859 -0.359011
0.150848 -0.215369 -0.391751
-0.138659 0.090224 -0.438326
-0.172558 0.286018 0.339648
0.181271 -0.032570 -0.446249
-0.048828 -0.185635 0.402384
-0.244419 -0.304048 0.322849
-0.257522 0.080175 0.435971
0.027908 -0.193215 -0.403145
-0.254296 0.411368 -0.173776
0.206997 0.397172 0.200006
-0.189091 0.415159 0.160434
-0.283422 0.401848 0.190829
0.009068 0.350741 -0.277064
0.237160 0.286711 0.339038
0.051488 0.431124 0.111451
0.214617 -0.133121 -0.426977
-0.185285 -0.222074 -0.387786
-0.005432 -0.388153 0.215241
0.121413 0.200953 -0.399724
0.167444 -0.414972 -0.162461
-0.013094 0.445360 0.016523
-0.261259 -0.249533 0.366190
-0.017458 0.059435 0.439256
0.109163 -0.442101 0.046349
0.214267 -0.439952 -0.067209
0.073459 0.422553 -0.144250
-0.203492 0.433487 -0.106091
0.129857 0.336985 0.289401
-0.236589 0.321154 -0.311164
-0.126483 -0.375430 -0.241075
0.036424 -0.437668 0.077276
-0.026086 0.149686 0.417307
0.163571 0.444992 -0.030953
-0.027038 0.444372 0.033163
-0.189506 -0.356475 0.263998
-0.069791 0.236905 -0.379621
0.099509 -0.062970 0.438534
-0.046280 -0.170805 0.408801
0.016519 -0.202817 0.393898
-0.199823 0.143066 -0.424044
0.270748 -0.363519 -0.258602
0.219123 -0.424510 -0.135044
-0.117064 -0.078823 0.436023
-0.066931 0.413855 0.163676
-0.245402 0.239802 -0.377853
0.103716 0.423274 -0.142246
0.260436 -0.442113 -0.050573
-0.209949 0.409074 -0.179078
-0.106092 0.442620 0.051692
-0.017578 -0.444604 0.007953
0.089308 -0.369667 -0.249554
-0.287272 -0.107059 -0.434334
-0.227623 -0.320988 -0.310306
0.220740 -0.408876 0.172815
0.040424 0.014465 -0.447173
0.070460 -0.406018 -0.183771
-0.183821 0.279270 0.345050
-0.012915 -0.432564 0.101281
0.197548 0.333967 0.292824
0.094503 0.238992 -0.378386
0.093712 0.415154 -0.164800
-0.176342 0.431773 -0.113572
-0.086119 0.106419 -0.434706
0.041687 -0.231614 0.377790
-0.204991 0.335174 0.291455
0.090967 -0.035082 -0.446012
0.125973 -0.414901 0.158304
0.072738 0.417809 0.153073
-0.103135 -0.437723 -0.081286
-0.084036 -0.444904 -0.002774
0.014265 -0.435442 -0.092760
-0.042249 0.443887 -0.042649
0.268588 -0.405527 0.180553
-0.109834 0.428642 0.119997
-0.138891 0.058347 -0.443781
-0.021453 0.439941 -0.073752
-0.110662 -0.278689 0.344706
-0.086137 0.077948 -0.440677
0.112744 -0.322434 -0.308860
-0.253196 0.264519 0.356492
0.241428 -0.387359 -0.220938
0.228051 -0.197280 -0.401073
0.061437 -0.443751 -0.033243
-0.172295 -0.321789 -0.309504
-0.074501 0.095011 0.432902
-0.029052 0.116311 -0.432158
-0.094421 -0.423159 -0.139695
-0.174234 0.028145 -0.446743
-0.199645 -0.437345 -0.083672
0.091420 0.360605 -0.264347
0.201115 -0.367990 0.247669
-0.117338 -0.184436 0.402902
-0.199385 -0.355598 -0.269481
0.258571 0.377179 0.235530
-0.026569 -0.091141 -0.437892
-0.136659 -0.082511 -0.439792
-0.088006 -0.422306 0.137735
0.081576 -0.366328 -0.254469
0.145169 -0.233842 0.376472
-0.161084 0.290685 0.335534
0.003749 0.310389 0.317576
0.127152 -0.351366 0.270584
-0.040501 0.445145 -0.027720
-0.018050 -0.241253 0.371817
0.130448 -0.177807 0.405771
0.282779 -0.161095 -0.417184
0.092164 0.390939 0.212239
-0.017563 0.289504 0.336575
0.218750 0.433530 0.101542
0.104727 -0.111110 -0.433371
-0.070392 -0.419395 -0.150175
-0.022613 -0.442070 0.046677
-0.105822 -0.395270 -0.206081
-0.128843 0.006133 0.443082
-0.187660 -0.440974 -0.060757
0.130089 0.228714 -0.384465
0.011561 0.231969 0.378186
0.014468 0.185575 0.402853
0.242461 -0.109305 0.429478
0.154312 -0.296881 -0.333521
-0.190414 -0.427865 0.119143
-0.172113 -0.005471 0.443070
-0.281983 -0.407446 0.176118
0.091826 0.440039 -0.073133
0.214954 -0.153670 -0.419857
-0.212103 0.020963 0.442616
0.096699 0.310642 -0.321676
0.149883 0.416909 0.155572
0.023540 0.432453 0.106363
0.166022 0.294755 -0.336299
0.217576 -0.241171 -0.376226
0.056936 0.366392 -0.255882
-0.170925 0.150389 0.417054
0.159349 0.438027 -0.085778
0.057677 0.445650 -0.011640
-0.265041 -0.241526 -0.375985
0.085456 0.377236 -0.239786
0.114153 0.439742 -0.075007
0.021798 -0.364051 0.253465
0.257045 -0.370634 0.243779
0.151935 -0.288992 -0.340477
0.038972 -0.367516 -0.252719
0.246198 0.445434 0.014148
0.204468 -0.417428 0.151285
-0.227593 -0.433411 0.097493
-0.287646 0.275199 0.348208
0.056506 0.445566 0.009968
0.238702 -0.304339 0.322593
0.121852 0.036578 -0.445967
-0.211773 -0.282465 -0.346130
0.039241 -0.336189 0.289141
0.094954 -0.090123 0.433766
0.240127 -0.121152 -0.430454
-0.092851 0.176569 -0.411104
-0.138400 -0.355235 -0.269949
-0.030103 0.429692 -0.120735
-0.277512 -0.070275 -0.441730
-0.074322 -0.208952 -0.395126
-0.005334 0.144691 -0.423459
0.015271 -0.439957 0.062825
-0.072184 0.371572 -0.248260
0.191108 0.353543 0.269098
-0.076659 -0.426352 -0.128705
0.225383 -0.375384 0.236790
0.261713 0.246894 0.368680
0.125298 -0.084027 -0.439482
-0.166361 -0.064620 0.438272
-0.267422 -0.175731 -0.411023
-0.235609 -0.226510 -0.385162
0.285110 -0.364208 0.253234
-0.089170 -0.240826 -0.376460
0.286147 0.401561 0.191391
0.273242 0.438001 -0.085897
0.286627 -0.337150 -0.292404
0.015295 0.438593 -0.082264
-0.230631 0.137031 -0.426139
0.017081 0.420064 -0.151162
0.207424 -0.383875 0.222475
-0.233171 -0.363554 -0.258550
0.105433 -0.108263 0.429711
0.089953 0.445087 0.025192
-0.146356 0.416723 -0.160442
-0.188241 -0.023932 0.442490
0.152148 -0.444233 -0.024137
0.242169 0.443190 -0.050022
-0.074481 0.128997 -0.428473
-0.146414 -0.385608 -0.223897
-0.263347 0.427866 0.122667
-0.197063 0.419548 0.148244
0.045352 0.173195 0.408210
-0.107169 -0.000988 0.443211
0.267258 -0.443359 0.033032
0.134990 -0.444432 0.013441
0.036740 0.133338 -0.427212
0.140701 -0.121883 0.425888
0.175848 -0.032897 0.441865
-0.259739 0.121512 -0.430647
-0.240417 -0.062393 -0.442978
-0.187000 0.418989 0.149795
-0.256554 0.274005 0.349134
0.285221 0.277556 -0.350733
0.215682 0.248013 -0.372272
-0.195838 0.445676 0.006467
0.014219 -0.441720 -0.054724
-0.088845 -0.419779 -0.149108
-0.163773 -0.139243 0.420698
-0.218801 -0.136471 -0.426003
-0.096248 0.441011 0.062645
-0.108789 -0.088253 0.434184
0.127568 0.433729 0.100655
0.263928 0.418137 0.152163
-0.257196 -0.215325 0.387423
-0.077995 -0.444601 -0.012423
0.123368 0.179474 0.405493
0.152815 -0.050366 0.440214
-0.218041 -0.326391 0.300254
0.169333 0.287138 -0.343015
-0.122179 0.002093 -0.447562
0.138828 0.151482 0.416661
-0.148643 -0.152913 -0.420130
-0.000371 -0.357520 -0.267004
-0.043314 -0.444279 0.018308
0.231816 -0.262011 0.357643
-0.265597 -0.444132 0.022979
-0.040075 -0.336899 0.288335
-0.000899 0.127839 0.424456
0.204564 -0.342771 0.281664
-0.254096 0.130314 0.423736
-0.004133 0.112181 -0.433358
-0.289867 -0.052954 0.439969
0.259344 -0.039654 -0.445580
0.125241 -0.321125 -0.310168
0.086962 0.432367 0.106747
-0.090014 0.425952 0.129254
-0.097669 -0.129085 -0.428149
0.059627 -0.138474 -0.425328
0.089339 -0.202720 0.393948
-0.179574 -0.431319 -0.111204
-0.047541 -0.367717 0.248070
0.156429 -0.438222 -0.078134
0.236352 0.207962 -0.396153
0.112972 0.382004 -0.231724
-0.157900 0.435981 -0.094931
0.102951 -0.248976 0.366568
0.088245 -0.423443 -0.138719
-0.137139 0.239507 0.373700
-0.155188 0.352037 0.271039
0.059938 -0.158554 0.413746
-0.077799 0.435685 0.091902
0.278236 -0.071567 -0.441525
-0.067816 0.435679 -0.096284
-0.244831 -0.406995 -0.181515
-0.206191 -0.383702 -0.227121
-0.288764 -0.011544 -0.447233
-0.267342 0.436920 0.086379
0.095118 -0.274319 -0.352449
0.229689 0.110487 0.429443
-0.286244 0.445700 -0.010057
0.222121 0.445092 0.025046
-0.145048 -0.320956 -0.310338
-0.250703 -0.145470 -0.422810
-0.081249 0.116515 -0.432099
0.072700 0.021702 -0.446946
0.134718 0.053544 -0.444364
0.062921 -0.148551 -0.421701
-0.180771 0.331303 0.295846
-0.092051 -0.273320 0.348870
0.085035 -0.434871 -0.095315
-0.048483 0.445359 -0.020912
-0.084661 -0.399005 -0.198751
-0.063760 0.148055 -0.422248
-0.178810 0.436847 -0.091057
-0.063361 -0.001469 -0.447550
0.087323 -0.130347 0.423429
0.138093 0.439772 -0.074821
-0.043462 0.216346 -0.391779
-0.146949 0.308036 -0.324283
0.097643 0.046712 0.440656
0.023542 0.442924 0.048482
0.199743 0.248829 -0.371718
0.217950 0.416699 0.156157
0.018154 0.434794 0.095890
-0.009185 -0.312588 -0.318706
-0.157196 -0.103337 0.430812
-0.003834 0.254517 0.363499
0.263218 0.182500 0.404184
0.190317 -0.437346 0.079309
-0.256540 0.433160 0.103198
-0.205307 -0.007236 -0.447368
0.013887 0.436215 -0.093886
0.191329 0.079135 0.436136
-0.229722 0.208278 0.391638
0.185225 0.082351 -0.439980
0.195006 0.120906 -0.430823
-0.236789 -0.090334 -0.438072
0.215766 0.133769 -0.427086
0.233462 0.223295 -0.387669
-0.148344 0.437050 0.085797
-0.149232 -0.094957 0.432685
-0.259304 0.290373 0.335809
-0.170103 0.445908 -0.000925
-0.140832 0.322765 -0.309554
0.214548 -0.038990 -0.445643
-0.250183 0.370266 0.245827
0.132607 0.431181 -0.115609
-0.001272 -0.021898 0.442554
-0.153999 0.269382 -0.357073
0.045807 -0.419030 0.146834
0.051578 0.379318 0.231914
-0.127801 -0.284533 -0.344408
0.141809 0.370497 -0.249842
-0.047198 -0.277474 0.345648
0.076899 0.376085 0.237265
0.105124 0.254202 -0.368067
-0.022961 -0.138749 0.420876
0.178986 0.200463 -0.399973
-0.156335 0.250153 0.366465
0.167899 0.157959 0.414329
-0.023917 0.410215 0.172087
-0.038066 -0.400079 -0.196643
-0.032416 0.060053 -0.443511
-0.102111 0.223279 -0.387679
0.081127 -0.230622 0.378376
-0.043184 0.238345 -0.378769
0.087386 0.382318 -0.231194
-0.169052 -0.334640 0.290898
0.230142 0.225369 0.382089
-0.251717 0.421552 0.142676
-0.080757 -0.429228 0.114453
-0.116554 -0.020531 0.442597
-0.161966 0.156574 -0.419181
0.257212 -0.419047 0.146788
0.260464 -0.181390 -0.408574
-0.025137 0.089703 0.434089
-0.208234 -0.299642 0.326734
-0.086079 0.445364 -0.020732
-0.069697 -0.037304 -0.445802
0.016685 -0.348210 0.274653
0.286838 0.445324 -0.022005
-0.238866 0.136039 0.422073
0.042311 0.229024 0.379928
0.138965 -0.028925 0.442241
0.213636 -0.085480 -0.439157
-0.045947 -0.200781 -0.399289
-0.173168 0.205789 0.392907
-0.119820 0.269096 0.352941
-0.053737 -0.109367 0.429464
-0.104644 -0.165371 0.411153
-0.024887 -0.206157 -0.396550
-0.164107 0.445705 -0.009905
-0.274251 0.445923 -0.002938
0.124060 0.416309 0.157239
0.116084 0.287879 -0.342362
-0.257546 0.306814 -0.325505
0.208607 0.419534 0.148282
-0.274028 0.424428 -0.138854
-0.008455 0.331647 0.295455
0.206874 -0.307936 0.319004
-0.096052 0.148176 -0.422204
-0.243001 0.220290 -0.389446
-0.162396 0.428425 0.120744
-0.063281 0.358738 0.262401
0.252139 -0.411048 -0.172148
0.145322 -0.443327 -0.037726
-0.106008 -0.444396 -0.018939
-0.143277 0.017816 -0.447068
0.079065 -0.016659 -0.447072
0.096404 0.437894 0.082021
0.109007 0.224019 -0.387241
0.151143 0.396662 -0.205360
0.103509 0.063949 -0.442894
0.272179 -0.415052 -0.162238
-0.236355 -0.317511 -0.313783
-0.040802 -0.124794 -0.429396
0.112338 -0.158256 -0.418206
0.235050 -0.086498 -0.438930
0.122690 0.205353 0.393128
-0.020893 -0.114901 -0.432270
-0.127232 0.163155 -0.416812
-0.031855 0.231553 -0.382786
-0.153366 0.215821 0.387736
-0.264890 0.442568 -0.056595
-0.199176 0.245768 -0.373799
0.209607 0.013909 -0.447191
0.258384 -0.048737 0.440368
-0.194831 0.208122 0.391717
-0.165306 0.389072 0.215419
0.075740 0.374986 -0.243237
-0.128972 -0.038833 -0.445657
-0.197469 0.197346 0.397208
-0.264300 0.324307 0.303658
0.047506 -0.419307 -0.150420
0.203725 -0.179368 -0.409449
-0.253230 -0.409235 -0.176339
-0.060475 -0.193288 -0.403107
0.213670 0.378951 -0.236887
0.105571 -0.363328 -0.258882
-0.148954 0.327892 -0.304068
-0.189190 0.440566 -0.069806
-0.049830 -0.441536 -0.056675
0.098053 -0.379802 0.229362
-0.266778 0.415186 -0.164712
-0.140277 -0.049883 -0.444613
-0.093631 -0.315901 -0.315393
-0.218904 0.390103 -0.218030
-0.134829 0.280709 0.343933
-0.016830 0.036589 0.441613
0.245979 -0.298202 0.328003
0.182168 -0.340150 0.284648
0.254397 -0.053704 -0.444252
-0.094407 0.430789 -0.116961
0.172637 -0.399603 -0.197576
0.286719 0.437573 -0.087809
-0.035714 0.414019 -0.167651
0.091529 -0.223296 0.382709
0.238845 0.129461 -0.428338
0.200898 0.440074 0.068557
-0.156653 -0.354999 -0.270254
-0.208974 -0.392810 -0.210909
-0.123707 0.285031 0.340519
-0.288214 -0.409384 -0.175992
0.251970 -0.434644 -0.096329
-0.092509 0.297391 0.329622
-0.264724 -0.141564 -0.424216
-0.208665 0.196586 0.397596
0.201227 0.005431 -0.447457
0.258150 -0.392356 -0.211801
0.252445 0.360299 -0.264742
-0.104197 0.217338 0.386839
0.032773 0.292368 -0.338404
-0.098939 -0.388668 0.214371
-0.083242 0.345203 0.279851
0.081839 0.059585 0.439232
-0.116657 -0.444456 -0.017014
0.284441 0.423878 0.136216
0.090133 -0.310966 0.315974
-0.046911 -0.443603 0.030452
0.009368 0.433971 -0.103924
0.124801 -0.178698 -0.409739
-0.015040 0.021354 -0.446957
0.048231 -0.183610 -0.407614
-0.180686 0.267999 0.353793
0.270965 -0.158075 -0.418272
0.071615 0.325223 0.302742
0.118467 -0.307697 -0.323597
0.027911 0.073567 0.437018
0.285945 -0.211028 0.389715
0.216370 -0.001703 -0.447542
-0.167797 0.431481 0.110223
0.160982 -0.435862 0.086527
-0.182161 0.411552 0.168998
0.014760 0.064009 -0.442885
0.018546 0.441408 -0.064492
0.182601 -0.379197 -0.234738
0.226858 0.340252 -0.290048
0.228475 0.355573 -0.270835
-0.223348 -0.397916 0.196534
0.212133 -0.144534 -0.423147
-0.205683 -0.130447 0.423400
-0.187938 -0.234753 0.375934
0.072277 0.339752 0.286262
-0.108912 -0.066027 0.438049
0.055522 0.260853 0.359193
0.215413 -0.435541 0.087964
0.222005 -0.274104 -0.352615
-0.149337 -0.092230 -0.437648
-0.073490 0.173978 -0.412225
0.094948 0.173119 0.408243
0.089088 0.226012 0.381709
0.273657 0.092345 0.433498
0.217184 0.445120 -0.028501
-0.006756 0.084693 0.435209
0.276865 -0.120259 0.426360
0.173564 -0.089481 -0.438263
0.177866 -0.046945 0.440537
0.056933 0.343354 -0.286529
0.021780 0.429434 -0.121623
0.242162 0.176307 0.406864
-0.203590 0.340003 -0.290331
0.172376 -0.251441 0.364893
0.071146 0.395720 0.202856
0.086728 0.139346 0.421030
0.067951 0.351678 -0.275856
-0.258441 -0.444600 0.008095
0.156165 0.069781 0.437617
-0.157859 0.255185 -0.367399
-0.115773 0.435948 0.090726
-0.134917 0.073060 0.437098
-0.019183 -0.427264 0.121211
0.161348 -0.265614 0.354848
-0.261661 -0.392376 -0.211760
0.192540 -0.291890 0.333568
-0.054259 -0.016823 0.442714
0.146226 -0.206144 -0.396557
0.152239 -0.409527 0.171309
0.058656 -0.107868 -0.434153
0.224776 0.444388 -0.037345
0.044948 0.262884 -0.362114
0.022654 0.085885 -0.439296
0.027194 0.172386 0.408561
-0.079091 -0.243107 -0.374911
-0.023364 0.421051 -0.148420
0.092777 -0.341640 -0.287311
-0.125932 -0.409578 -0.175544
-0.204295 -0.315016 0.311924
0.280609 -0.021359 0.442571
0.144284 0.335840 -0.295053
0.152863 0.035552 -0.446064
0.080831 0.404200 -0.190341
-0.150144 -0.059695 -0.443406
-0.240930 -0.034555 0.441708
0.057715 0.336382 0.290084
0.273284 -0.041106 0.441089
0.239015 0.061515 0.438926
-0.258083 -0.317820 -0.313474
0.102962 0.385332 -0.226097
0.226006 -0.285077 -0.343928
0.074466 0.191513 -0.404534
0.275333 0.404839 0.184512
-0.219859 -0.112763 0.428538
0.039198 0.000021 0.443243
0.012061 -0.317595 -0.313699
0.112331 -0.427227 0.121340
-0.028872 -0.200962 0.394844
-0.072420 -0.437476 0.078492
0.186643 0.093679 -0.437554
0.174482 -0.282289 0.341913
0.261660 0.290510 0.335689
-0.087962 0.135401 -0.426612
-0.268162 -0.082297 0.435472
0.249912 0.204117 0.393758
0.264609 0.100357 0.431707
-0.109851 -0.227013 -0.384864
0.028498 -0.443674 0.029699
0.078789 0.276867 0.346914
0.060905 0.425005 -0.136868
0.035965 -0.444879 -0.000787
0.029971 -0.191496 0.399667
0.156647 0.400655 -0.197524
-0.266595 -0.441357 -0.058341
-0.039571 0.425362 -0.135638
0.217908 0.078581 -0.440577
0.117042 0.257337 0.361583
0.078193 0.205702 -0.397304
0.183500 -0.154384 0.415247
-0.187190 -0.410620 0.168785
0.233562 -0.444236 -0.024038
0.184966 -0.419017 -0.151225
-0.113617 -0.263577 -0.360781
-0.102556 -0.153789 -0.419815
0.252556 -0.237691 -0.378550
-0.288260 -0.360669 0.258441
0.120383 -0.335686 -0.294064
-0.237449 0.103831 0.430931
-0.132388 0.069289 -0.442048
0.217844 0.193279 0.399281
0.253565 -0.135500 -0.426286
0.162151 -0.444343 -0.020637
0.264749 -0.111761 0.428829
-0.150649 0.440627 -0.069419
-0.167441 -0.171355 -0.412916
0.029081 0.383998 -0.228353
-0.174957 0.017005 -0.447094
-0.054565 0.252614 0.364793
0.277175 -0.347918 -0.279383
-0.132246 -0.422954 -0.140289
0.068729 -0.430562 -0.114213
-0.156695 -0.172344 0.408135
-0.148856 -0.347537 -0.279874
-0.044355 0.211953 0.389766
-0.133225 -0.272060 -0.354201
0.073274 -0.439753 -0.068471
-0.212115 -0.222625 0.383106
-0.248486 0.279890 -0.348922
-0.272790 -0.021154 0.442577
-0.281032 -0.388798 -0.218504
-0.133932 0.372480 -0.246924
-0.112634 0.330936 -0.300615
-0.247533 0.420283 -0.150554
-0.142666 0.435072 0.094646
-0.260940 0.182119 0.404349
-0.010887 0.416511 0.156679
-0.284802 0.296636 -0.334641
-0.010747 -0.386923 -0.221674
0.053753 -0.444475 0.012067
-0.176990 0.176401 0.406823
-0.038573 0.106976 0.430228
-0.058506 -0.031049 0.442040
0.157631 -0.358217 0.261752
0.213063 -0.372491 -0.245399
-0.067593 0.117695 0.427403
0.280179 -0.357286 -0.267304
-0.019043 -0.422575 0.136988
-0.196886 -0.443559 -0.035276
0.208004 0.334190 0.292570
0.017224 -0.155913 0.414697
0.040826 0.430217 0.114574
0.142249 0.065300 0.438327
0.038570 0.271917 -0.355107
0.116830 -0.019191 0.442639
-0.238455 0.287310 -0.342863
0.247083 -0.099083 0.431763
-0.228214 0.049403 0.440402
0.102450 0.429162 0.118205
0.062521 0.102071 0.431324
-0.240645 0.248532 -0.371920
0.176982 -0.403526 -0.189531
0.251731 0.217975 0.386462
0.045833 -0.444282 0.018205
-0.247371 -0.006667 -0.447386
0.148592 -0.127539 -0.428598
-0.078267 -0.423418 -0.138804
-0.239660 -0.184038 -0.407428
0.129431 0.444588 0.030872
-0.116419 -0.056339 -0.443937
-0.272647 0.445539 0.010835
-0.276642 -0.417368 -0.155804
0.197039 -0.013470 -0.447172
0.078270 -0.372410 -0.245518
0.193968 0.400779 -0.197280
-0.110592 0.445869 0.000322
0.222067 0.376570 0.236551
0.210575 -0.114377 -0.432422
-0.264525 0.405786 0.182323
-0.272194 -0.290417 0.334867
0.231672 -0.400216 0.192020
0.099476 0.385980 0.220648
0.215682 -0.037425 0.441437
0.176700 0.216325 -0.391791
-0.252175 -0.040187 -0.445529
-0.003561 -0.374563 -0.242350
0.122622 -0.405825 0.179864
-0.029378 0.221941 -0.388470
0.154499 0.174162 0.407792
0.031554 0.173951 -0.412237
-0.125922 0.196085 -0.402204
0.064745 -0.444329 -0.021074
-0.008168 0.424610 0.133874
0.247183 -0.366836 0.249368
-0.070633 -0.382197 0.225312
-0.244170 0.100445 -0.436041
-0.216035 0.134671 -0.426824
0.068814 0.364256 -0.259025
0.142303 0.124137 -0.429884
0.271157 -0.135841 0.421833
-0.021501 0.123469 -0.430079
0.012507 0.388450 0.216471
-0.031155 0.443774 -0.043836
0.175596 0.427838 -0.127115
-0.266333 -0.050445 0.440206
0.053074 -0.241503 -0.376001
0.265663 0.396572 -0.205536
-0.269788 0.363475 -0.260173
0.038444 0.385541 -0.225744
0.251642 -0.258305 -0.364582
0.116508 0.445074 0.025609
-0.034444 -0.056207 0.439605
-0.037770 -0.365499 0.251334
-0.267380 0.149624 0.417330
-0.014796 0.299789 0.327508
-0.025563 0.231118 0.378689
-0.251652 0.116073 0.427874
-0.058421 0.311326 0.316639
0.175917 -0.388736 0.214255
0.202130 0.411856 -0.172649
-0.168644 0.325470 0.302462
0.025948 -0.282565 0.341699
-0.102211 0.405445 0.183112
0.076888 0.148681 0.417669
-0.152369 -0.268234 0.352815
-0.205082 0.442651 -0.055716
-0.038998 0.397694 -0.203335
-0.107146 0.198092 0.396828
0.025995 0.314563 -0.317756
0.224628 0.270160 0.352116
0.261829 0.335362 -0.295595
0.181937 0.316541 -0.315777
