-0.094508 0.268431 -0.357811
0.073899 0.399880 0.194691
0.210026 -0.305399 -0.325895
0.039879 -0.002884 0.443152
0.128683 -0.419152 -0.150848
-0.119152 0.445142 0.023462
-0.017957 0.410076 0.172410
0.120122 -0.027699 0.442356
-0.271761 0.186711 -0.406715
-0.280947 -0.257858 0.360532
-0.047631 -0.443398 -0.036978
-0.024303 -0.008904 -0.447316
-0.127810 -0.405556 0.180485
-0.140865 -0.137619 -0.425636
-0.260125 0.226038 -0.386047
-0.145871 0.445351 0.016814
-0.137381 0.095196 0.432861
-0.282171 -0.083432 -0.439615
0.256847 0.061967 0.438855
0.261888 0.402474 0.189600
0.022442 0.178606 0.405869
0.175505 0.353494 -0.273515
0.102450 0.142780 0.419794
0.056874 -0.332514 0.293309
-0.100354 0.340531 -0.289732
-0.122651 -0.345228 0.278497
0.081604 0.444770 -0.033307
0.111734 0.124012 -0.429921
-0.136214 0.213889 0.388779
0.093505 0.423237 -0.142348
-0.154995 -0.336458 -0.293189
0.167637 -0.205232 0.392668
-0.080393 -0.000296 -0.447586
0.223687 0.442642 -0.055814
0.283595 -0.255129 -0.366740
-0.040848 -0.151768 0.416189
-0.168023 0.445004 -0.030824
0.223202 -0.426583 -0.127908
0.185147 0.101975 -0.435699
-0.066688 0.204897 0.393361
-0.069068 0.442850 0.049258
-0.235277 -0.380622 -0.232328
0.007003 0.267691 0.354032
0.153043 0.029933 0.442242
0.055697 0.276860 0.346919
0.049994 0.182081 -0.408718
-0.099153 -0.415177 -0.161891
-0.274425 0.222328 -0.388241
0.011565 -0.430009 0.111763
0.207065 -0.313207 -0.318086
-0.164872 -0.372113 -0.245956
-0.022455 -0.390593 -0.215260
0.105847 -0.424394 -0.135443
-0.059796 -0.287632 -0.341676
0.215065 -0.044116 0.440805
0.219074 0.088819 0.434286
0.016881 0.208676 0.391435
-0.046165 -0.126900 -0.428784
0.032673 -0.431574 0.105711
0.124874 -0.422661 -0.141102
-0.033161 0.350449 -0.277440
-0.218026 0.416409 -0.161315
-0.127551 0.057915 0.439497
0.144383 -0.335743 -0.294000
-0.094090 -0.430209 -0.115429
-0.047117 0.428260 -0.125663
-0.089435 -0.185282 -0.406890
-0.232895 -0.189042 -0.405263
0.211411 0.218643 -0.390421
-0.184235 0.422428 0.140244
0.165068 -0.198221 -0.400594
-0.234066 -0.083841 0.435170
-0.103421 0.445540 0.010791
0.214857 -0.221634 -0.388045
-0.241790 0.426136 -0.132974
-0.113698 -0.419582 0.145302
0.263009 -0.382457 0.224873
-0.260949 -0.316534 0.310406
-0.073538 -0.433103 0.098872
0.116822 0.151691 -0.420939
0.001968 -0.362087 -0.260708
0.252989 -0.399955 -0.196886
0.222712 0.406278 -0.185538
-0.155840 0.362666 -0.261364
-0.128805 -0.227557 -0.384542
-0.124092 -0.105176 0.430401
-0.228483 0.250042 0.366541
-0.044193 -0.438449 -0.076704
0.106885 0.343787 0.281676
-0.135458 -0.268999 0.352222
0.007239 -0.317839 0.309101
-0.256578 0.405073 0.183970
0.245938 -0.238589 -0.377981
0.083025 -0.023037 0.442518
0.223752 0.377046 -0.240108
0.236769 -0.298169 -0.332386
0.154087 0.158230 0.414231
-0.016035 -0.220754 -0.388566
0.195674 -0.090164 -0.438110
0.086968 0.387858 0.217473
-0.181269 0.224753 0.382454
-0.189484 0.216401 0.387393
0.270935 -0.304054 0.322844
-0.027051 -0.172449 -0.412443
0.109835 0.440690 -0.069023
0.054502 -0.359778 0.259739
-0.022537 0.302991 -0.329039
0.089712 -0.421802 -0.143490
0.268963 0.391399 0.211336
-0.285071 -0.051946 -0.444418
0.001723 -0.394816 0.202618
0.083740 -0.292120 -0.337719
-0.146048 0.298522 0.328625
-0.026024 0.445606 -0.013047
-0.102209 -0.246899 -0.372333
-0.273269 -0.195811 -0.401822
-0.011906 -0.336999 0.288222
-0.259021 -0.308194 0.318746
-0.065029 -0.378147 -0.236513
0.171976 0.370754 -0.249463
0.166299 0.392551 -0.213428
-0.253204 -0.403604 -0.189351
0.133710 0.432535 0.105998
0.064423 0.433816 -0.104618
-0.005195 0.419996 0.146998
0.238057 0.439304 -0.077771
0.067302 0.087335 -0.438972
0.101244 0.444115 0.035879
-0.053948 -0.397798 0.196766
0.222826 -0.421712 -0.143738
-0.092030 -0.354775 0.266189
-0.138839 -0.007229 -0.447369
0.048364 -0.188081 0.401325
0.168329 0.399303 0.195824
-0.096117 0.439199 0.074080
0.184893 -0.006181 0.443048
0.286570 0.093538 0.433232
0.173513 -0.444527 0.010428
0.100067 0.437356 0.084430
0.245286 0.387318 0.218385
-0.066705 0.089808 0.434065
0.240641 -0.070046 0.437413
0.179790 -0.321123 0.305817
0.144457 -0.309841 0.317099
-0.145403 -0.011076 0.442894
0.067872 -0.410353 -0.173753
0.110237 0.342408 -0.287603
0.030259 0.444765 -0.033359
-0.164002 -0.258709 -0.364307
-0.218297 -0.443137 0.035383
0.135334 -0.379201 0.230378
-0.093125 -0.371242 -0.247238
0.219383 -0.385325 0.220023
0.249321 0.416019 -0.162399
-0.246852 -0.315533 -0.315761
0.120105 -0.426254 0.124688
-0.202089 0.339581 -0.290809
-0.221587 0.066572 -0.442479
0.127746 -0.345050 0.278727
-0.001998 0.068906 0.437756
-0.003193 -0.042801 -0.445282
0.252972 -0.276931 0.346069
0.076952 0.432566 -0.110209
-0.163559 -0.273388 -0.353171
-0.132230 -0.040753 0.441123
0.171437 0.427213 0.124916
-0.265616 -0.086122 -0.439014
0.207704 0.216434 0.387374
0.246829 -0.253301 -0.367983
0.216697 -0.436426 0.084005
0.115623 -0.336632 0.288638
-0.266884 0.372252 -0.247258
0.125307 -0.355511 -0.269593
0.077918 -0.162074 0.412478
0.120589 -0.444359 -0.020112
-0.285458 0.145809 -0.423057
0.189190 0.066179 -0.442541
-0.262885 0.166230 0.411224
-0.241815 -0.402050 -0.192775
-0.223021 0.093902 0.433150
0.276635 0.002502 -0.447549
0.046428 -0.334076 0.291538
0.081425 0.241410 -0.376760
0.286199 -0.298902 0.327386
-0.154574 0.425630 -0.134717
0.127881 -0.190969 -0.404289
-0.197740 0.333575 -0.297621
-0.099101 -0.148814 0.417252
0.059287 0.173383 0.408129
-0.033976 0.409153 0.174541
0.236740 -0.392202 0.207748
-0.290101 -0.264214 0.355934
0.017082 0.253380 0.364272
0.124621 0.010299 -0.447304
-0.215170 -0.111298 0.428963
0.185761 0.395005 -0.208612
-0.048055 0.148406 0.417768
-0.155156 0.438709 -0.081529
0.090969 -0.102725 0.430949
0.172702 -0.439103 -0.072573
-0.268441 -0.441833 0.049180
-0.149044 -0.442409 -0.047439
0.060969 0.117605 0.427429
-0.109884 -0.325178 0.301630
-0.099827 0.096620 -0.436896
0.074195 0.099472 -0.436259
0.104222 0.436619 -0.092079
-0.233910 -0.407515 0.175958
-0.140225 0.147879 0.417958
-0.086926 0.012465 0.442883
-0.278472 -0.102031 -0.435458
-0.150424 0.225978 -0.386082
0.159479 -0.249724 0.366060
0.179754 -0.107266 0.429934
-0.079195 -0.110879 0.429085
0.011991 0.379189 -0.236485
0.022957 0.373163 0.241565
-0.057130 0.432964 -0.108429
-0.257222 -0.352687 -0.273234
-0.031733 0.110281 0.429489
-0.066529 -0.035545 -0.445968
-0.058441 0.297045 -0.334281
0.009994 -0.167614 0.410182
-0.219936 -0.316326 0.310615
0.193620 -0.247493 -0.371930
-0.203333 0.415302 0.160036
0.169070 -0.175870 -0.410963
-0.020213 0.047201 0.440610
-0.018902 -0.068262 -0.442049
-0.069754 -0.300532 0.325949
0.159650 -0.103750 -0.435073
0.133923 -0.423869 -0.137252
0.247035 -0.404290 -0.187765
0.238850 -0.375563 0.236526
-0.005177 0.442875 0.048993
-0.287154 -0.227167 0.380420
-0.164530 0.231038 -0.383090
0.178621 0.408462 -0.180493
-0.041698 -0.366975 -0.253516
-0.141090 -0.153270 -0.420001
0.229229 -0.427066 0.121894
-0.076248 0.178616 -0.410218
-0.056268 -0.187722 -0.405834
-0.120377 0.195931 0.397929
-0.139466 -0.427653 -0.124228
0.262918 0.328106 -0.303825
-0.140900 -0.422399 -0.141831
-0.180429 0.427052 -0.129823
-0.190169 -0.205281 -0.396997
0.112989 -0.285860 0.338885
0.199198 0.125179 0.425228
0.276760 0.386716 -0.223757
-0.194928 -0.441652 -0.055450
0.213544 -0.357591 -0.266912
0.072829 0.320110 0.307855
0.143430 -0.244051 -0.374269
-0.262704 0.409088 0.174693
-0.006261 -0.138956 -0.425155
-0.010289 0.377442 0.235085
0.011321 -0.385928 0.219003
0.200889 0.325288 0.302668
0.145598 0.280097 -0.348762
-0.198561 -0.128406 -0.428347
0.035000 -0.360983 -0.262332
0.037044 0.379727 -0.235575
0.215902 -0.420808 0.141895
-0.101791 0.252723 -0.369072
-0.261403 -0.436904 -0.086217
-0.215363 -0.341008 -0.288028
0.078584 -0.227721 -0.384446
-0.160877 -0.120320 -0.430696
-0.283063 0.329519 -0.302223
0.261619 -0.016404 -0.447080
0.266836 -0.437307 -0.083913
-0.054283 -0.442219 -0.049453
0.286286 0.427439 0.124138
0.184977 0.356707 0.265020
-0.093521 -0.327480 0.299019
0.145992 -0.444761 -0.007333
-0.077820 -0.410252 -0.173989
-0.013902 0.402787 -0.193340
-0.211735 -0.377298 0.233596
-0.089263 -0.435049 0.090164
0.233263 -0.441175 0.055138
0.037037 0.429911 -0.119983
0.209167 -0.283559 0.340913
0.242721 -0.062047 -0.443033
-0.177999 -0.006295 0.443044
0.126816 -0.322992 -0.308301
0.170842 0.445158 -0.027295
0.118153 0.277678 -0.350638
-0.248261 0.417501 0.153929
-0.181700 0.269719 0.352458
-0.072168 0.434182 0.098627
0.017872 0.445087 0.025186
0.280363 0.375353 -0.242696
-0.000677 -0.192414 0.399199
-0.276347 -0.430474 -0.114515
-0.256907 -0.294599 -0.335533
-0.106976 -0.315669 0.311271
0.015167 -0.360623 -0.262862
-0.248864 0.445267 0.019474
-0.282789 0.136137 -0.426398
0.044060 -0.418260 -0.153327
-0.143504 -0.036417 0.441532
-0.267145 -0.376598 -0.239133
0.190317 -0.431911 -0.108556
0.023594 0.168761 0.410129
0.043045 -0.326664 0.299945
-0.190433 -0.304541 -0.326752
0.122373 -0.296408 0.329585
0.205531 -0.198547 -0.400428
-0.061739 0.215770 0.387766
0.017611 -0.177571 0.405873
0.122972 0.371865 -0.247828
-0.144210 -0.360026 0.259387
-0.118150 -0.125911 0.424718
0.149753 -0.052236 -0.444390
-0.002004 -0.375607 0.236455
0.042176 0.122566 0.425987
-0.274165 -0.437147 0.080568
-0.008242 0.209144 0.391197
0.137549 -0.393403 -0.209745
0.237011 0.445811 0.002148
-0.094385 0.399470 -0.199848
0.147447 0.445540 -0.015154
0.175081 0.306816 0.321149
0.073392 -0.290269 -0.339351
-0.201185 0.373974 -0.244725
0.153443 -0.359956 -0.263844
0.209929 0.444860 0.028001
0.091669 0.094021 -0.437477
0.143033 0.103674 0.430966
0.083985 0.425304 -0.135838
-0.160718 -0.168426 0.409831
0.171725 0.056252 0.439754
-0.082154 -0.287905 0.337082
0.212520 -0.403034 -0.190667
0.228664 0.445199 -0.026002
-0.266902 0.232317 -0.382334
-0.260990 -0.444449 -0.017258
-0.013664 -0.251664 -0.369095
-0.248723 0.214618 -0.392761
0.096970 0.412910 0.165860
-0.240271 -0.163274 0.412047
-0.171326 0.436648 0.087596
0.058010 -0.182764 0.403626
0.031274 -0.383986 0.222287
0.201241 0.332474 -0.298870
-0.255086 0.345859 0.279004
0.086515 0.423963 0.135978
-0.069178 0.222494 0.383790
-0.158444 0.053422 0.440022
-0.031090 0.253990 0.363857
0.123110 0.405783 0.182328
-0.178643 0.261287 0.358898
0.109952 -0.130550 0.423370
0.061602 0.369521 -0.251277
-0.189267 0.293949 0.332657
-0.287217 0.027105 -0.446776
0.123582 -0.370510 -0.248315
-0.103432 0.352337 -0.275006
-0.179613 -0.422761 0.136472
0.217604 0.077280 0.436430
-0.068716 -0.362458 0.255809
0.031386 0.426861 -0.130481
0.137102 -0.385135 0.220344
-0.193675 -0.435355 0.088796
-0.187257 -0.301257 0.325310
0.168732 0.385234 -0.226263
-0.289668 -0.425697 0.126606
-0.276143 -0.064499 -0.442645
-0.127243 -0.338053 0.287027
0.164118 0.401831 -0.195215
0.085291 0.058394 -0.443774
0.151687 0.134145 -0.426977
0.179991 -0.289359 -0.340153
0.118688 0.097718 0.432297
-0.279215 0.393243 -0.212070
0.113027 -0.370928 0.243345
-0.035139 0.414267 -0.167076
-0.212573 -0.306559 0.320381
0.200130 0.417327 -0.158764
0.260730 0.304994 0.322919
0.273617 -0.260260 -0.363253
-0.226786 0.091515 -0.438037
-0.140671 -0.095271 -0.436969
0.049822 -0.442958 -0.041631
0.228928 0.144432 -0.423552
0.267448 0.184224 -0.407791
0.025401 0.408215 0.176710
0.161489 0.130682 0.423630
-0.153523 -0.234777 0.375919
-0.130579 0.361034 0.259412
0.233611 -0.421944 -0.143093
-0.198306 0.340158 0.285802
0.004606 0.117306 0.427516
-0.281917 0.432086 -0.112356
0.008213 -0.330710 -0.299709
-0.215068 0.300284 0.327071
0.265520 0.343078 -0.286843
-0.009378 0.128562 0.424246
-0.197161 -0.198002 -0.400706
-0.029633 -0.031712 -0.446331
-0.134763 -0.396233 -0.204191
0.071831 0.435288 -0.098032
-0.284619 -0.093760 -0.437306
0.229984 0.271133 0.351362
-0.051483 0.440237 0.067531
0.229356 -0.444493 -0.015846
-0.205379 -0.314666 0.312274
0.220592 0.430377 0.114022
-0.287764 -0.437567 -0.082269
-0.028345 -0.435663 0.087415
0.285651 0.418506 -0.155489
-0.082407 0.070669 -0.441830
-0.088581 0.186441 -0.406832
0.271153 -0.441608 -0.055909
-0.137720 0.315735 0.312230
-0.288060 0.445787 0.002916
-0.027842 -0.151107 0.416427
-0.187017 -0.291856 0.333598
0.043605 -0.363700 -0.258335
0.247531 0.159785 -0.418025
0.012938 0.392558 -0.213415
-0.183721 -0.176145 -0.410844
-0.138789 -0.000099 0.443239
-0.057709 0.443362 0.043840
-0.264680 -0.149552 -0.421340
-0.014856 -0.431343 0.106746
-0.238905 -0.097095 -0.436561
0.036835 -0.434247 0.093754
0.166778 0.012023 0.442897
-0.028953 0.396129 -0.206406
-0.128537 0.285519 0.340089
-0.139527 -0.439979 0.062688
-0.007917 -0.235123 -0.380068
0.285526 0.423338 0.137716
-0.168035 0.439053 0.075004
-0.249166 0.395533 0.203223
-0.207289 0.361439 0.258817
-0.010367 -0.006534 0.443037
0.205196 0.445109 -0.028848
0.274744 0.137865 0.421543
0.216707 0.236617 -0.379790
-0.107229 0.084709 -0.439559
-0.040314 -0.333037 -0.297070
-0.222378 0.231308 -0.382931
-0.050626 0.004296 0.443139
0.029389 0.262573 -0.362355
0.076016 0.445429 -0.018666
-0.263373 -0.438801 -0.074479
0.062891 0.206566 -0.396864
-0.152816 0.100418 0.431694
-0.100983 0.445170 0.022555
-0.160395 0.366828 0.250886
-0.113183 -0.113363 -0.432717
-0.060926 0.004367 0.443137
-0.144138 0.301734 -0.330146
0.005433 -0.146785 0.417983
0.063785 0.419332 -0.153195
0.115153 -0.198471 0.396113
-0.119521 -0.366859 0.249333
-0.053224 -0.441468 0.053043
-0.284946 0.352843 0.270001
0.192884 0.189078 0.401337
0.213690 -0.201071 0.394788
0.217969 0.199210 0.396259
-0.053975 0.398852 0.196709
0.003217 -0.442342 0.043799
0.136785 -0.431425 0.106377
-0.148229 0.442508 -0.057237
0.202380 -0.145031 0.418614
-0.257609 -0.140179 -0.424715
-0.026062 0.247588 -0.372562
-0.104575 0.138761 -0.425594
0.268051 -0.275420 0.347241
0.250777 -0.142188 -0.423991
0.208257 -0.444686 -0.009702
0.044966 -0.000365 -0.447584
0.078941 0.326449 0.301351
0.108818 0.442733 -0.054852
0.088430 0.084509 -0.439603
0.170057 -0.256738 0.361293
-0.261359 0.196947 -0.401765
0.173648 -0.041187 0.441081
-0.253625 -0.421461 -0.144436
0.008848 -0.185823 0.402302
0.156737 0.262809 -0.362171
-0.276157 0.093227 -0.437655
0.168250 -0.005218 -0.447432
0.256569 0.280944 -0.348105
-0.271796 -0.185464 0.402458
0.233621 -0.359207 -0.264828
0.200476 -0.303954 -0.327286
0.244466 -0.444357 -0.020178
-0.271136 0.054296 0.439939
-0.174792 -0.440048 -0.066604
-0.072984 0.379629 0.231387
-0.211952 0.341458 0.284327
0.136287 0.440288 0.067210
0.096586 -0.244026 -0.374286
0.047944 0.442545 -0.056836
0.207523 -0.075719 0.436514
-0.261407 0.266181 0.355202
-0.002398 -0.093104 -0.437453
0.159956 -0.421661 0.139527
0.005471 -0.438357 -0.077280
0.250468 0.419812 -0.151863
-0.263225 0.109109 0.429751
0.019370 -0.356769 0.263618
0.158600 -0.430758 0.109186
0.263124 0.026629 0.442438
0.275004 -0.250512 -0.369878
0.121625 0.224919 0.382355
-0.072637 0.348234 0.275943
0.241113 -0.410413 0.169261
0.076649 0.438070 -0.085564
0.076221 0.253185 -0.368758
0.181594 -0.444731 -0.008262
0.110565 0.223125 0.383416
-0.111144 0.437029 -0.090246
0.181417 -0.186647 -0.406299
-0.216078 0.120387 0.426620
0.270310 -0.255423 0.362187
-0.151764 -0.200410 0.395125
0.274146 0.354300 -0.272475
-0.157189 0.284860 -0.345023
0.056630 -0.231683 0.377749
-0.155045 0.208267 0.391644
0.003285 0.409775 0.173104
-0.016950 -0.205178 -0.397049
-0.289172 0.444838 0.028234
0.114725 -0.039014 0.441287
-0.005617 0.163197 -0.416797
-0.187270 -0.355918 -0.269069
-0.280786 0.413140 -0.169681
-0.160572 0.174027 -0.412204
-0.188955 0.050797 -0.444623
0.137240 0.258279 0.360943
-0.242772 0.125169 -0.429585
0.168297 0.339245 -0.291190
0.133804 0.059526 0.439241
-0.101898 -0.260543 -0.363061
-0.120263 0.233191 0.377463
-0.199164 0.313591 -0.318728
0.133019 -0.437623 0.077565
-0.093114 0.292369 0.334049
0.075859 -0.071095 0.437247
-0.277948 0.280474 -0.348469
-0.178714 0.165920 0.411359
-0.141746 0.025627 0.442469
-0.161244 -0.307911 0.319029
0.230899 0.382290 -0.231241
-0.228495 -0.412182 0.165175
0.162863 0.406498 -0.185031
-0.288764 -0.408054 0.174713
-0.148092 -0.296104 0.329853
0.259962 0.395796 0.202707
0.074280 0.416473 -0.161138
0.276122 -0.365267 0.251676
-0.173900 0.034514 -0.446163
-0.123581 0.419512 -0.152697
0.232909 0.109527 0.429658
0.086197 0.442968 0.048011
-0.116749 -0.428438 0.117170
0.269727 0.237849 -0.379062
-0.040489 -0.412493 -0.168808
-0.276805 -0.295820 -0.334457
0.266229 -0.295441 0.330437
-0.035137 0.445766 -0.007952
0.056099 -0.409312 0.171805
-0.186536 -0.018144 0.442672
0.172940 0.157914 -0.418698
-0.276494 -0.444655 0.006335
-0.228824 -0.286500 -0.342674
-0.210715 0.261991 0.358420
-0.204377 -0.395787 -0.205067
0.173580 0.091944 0.433588
0.274721 0.205798 -0.397255
-0.252151 -0.158800 0.413657
0.044915 0.165264 0.411643
0.035233 -0.284889 0.339740
0.029122 0.444879 0.027802
-0.149628 -0.061366 -0.443141
0.243313 -0.438035 -0.079317
-0.103554 0.438026 0.081431
0.090050 0.441735 0.058071
-0.019936 0.108516 0.429884
-0.255142 -0.346429 -0.281302
0.264396 -0.153235 -0.420014
0.051233 0.220014 -0.389610
0.270353 -0.094531 0.432781
0.236687 0.382206 0.227030
-0.075897 -0.346611 0.276713
0.075830 0.443759 0.039644
0.271300 -0.313068 0.313872
-0.024019 0.099435 0.431913
-0.177907 0.070440 -0.441866
0.034074 0.423356 -0.142019
-0.040572 -0.443742 0.028984
-0.133829 -0.082196 0.435488
0.230343 0.435485 -0.097152
0.161168 0.190314 -0.405145
0.254620 -0.436146 -0.089610
0.269476 0.214980 -0.392577
-0.071494 0.327521 -0.304488
0.012798 0.140253 -0.425057
0.240225 0.103821 -0.435287
0.154311 0.220845 -0.389118
0.250359 -0.355159 -0.270047
0.242248 0.408049 0.177094
0.206039 0.354317 0.268100
0.213793 -0.154830 -0.419440
-0.045910 -0.400869 0.190739
-0.127345 -0.441177 0.055125
-0.118680 -0.437883 -0.080275
-0.111765 -0.233060 -0.381288
-0.118877 0.395979 0.202347
-0.124534 0.314922 0.313043
-0.276560 -0.396265 -0.204129
-0.175247 0.094650 0.432983
0.036581 0.048963 -0.444797
-0.132330 -0.223666 0.382491
0.103417 0.185922 0.402703
0.147481 -0.405709 0.180131
0.206544 0.432582 0.105786
0.176306 -0.394857 -0.206892
-0.206689 -0.299413 -0.331289
0.217693 0.353383 0.269305
-0.176005 -0.351423 -0.274863
-0.149744 -0.129813 -0.427938
-0.123364 -0.374693 -0.242158
0.135689 0.201332 0.395178
-0.094344 -0.364151 -0.257671
-0.252178 0.152608 -0.420609
0.128531 0.429307 0.117708
0.069925 0.223414 -0.387599
0.045616 -0.149927 -0.421205
-0.168617 -0.444501 -0.015605
-0.286057 -0.436407 0.084087
0.128677 -0.419082 0.146692
-0.078186 0.443676 0.040520
0.183515 0.426402 -0.132061
0.023820 0.220234 -0.389480
-0.025514 0.365367 0.253036
0.198826 0.408840 0.175265
-0.079616 0.298668 -0.332850
-0.115770 0.434711 0.096260
-0.251714 0.203833 -0.398256
-0.180510 0.024139 0.442516
0.169988 -0.112544 0.428601
-0.044953 0.412436 0.166956
-0.146463 0.442562 0.052310
0.025133 0.362098 -0.262200
-0.037388 -0.444694 0.005113
-0.034467 -0.381387 0.226682
-0.195039 0.197503 0.397128
-0.287332 0.390248 0.213431
-0.003267 0.396470 -0.205736
-0.197028 0.389094 -0.219735
-0.099806 0.077121 -0.440808
-0.154864 0.325277 -0.307034
-0.178500 -0.159101 0.413549
-0.101801 0.408736 0.175505
0.099966 -0.218524 0.385531
-0.128088 -0.354676 0.266316
0.150339 -0.444427 -0.017961
-0.040025 -0.305106 0.321834
-0.261564 0.316613 -0.315706
0.143755 -0.022077 -0.446902
-0.216327 -0.269961 -0.355829
-0.034747 0.028853 0.442344
0.099251 0.203976 -0.398183
0.013606 -0.392736 -0.211054
0.162901 0.351143 -0.276546
-0.071239 0.445855 -0.005109
-0.057161 0.133937 -0.427037
-0.127279 0.314286 -0.318033
-0.130277 0.343674 -0.286167
-0.236105 -0.261077 -0.362698
-0.111012 -0.370752 0.243604
0.072013 -0.331675 0.294261
0.160286 0.323278 -0.309040
0.087972 -0.141547 0.419869
0.073478 -0.444898 -0.002947
0.254933 0.012300 0.442888
-0.287373 0.348050 -0.280533
-0.197241 0.014761 -0.447164
0.186136 -0.373263 0.239910
0.013374 0.150181 0.417129
-0.067993 -0.440560 -0.063373
-0.212533 0.296681 -0.334601
0.041671 0.200890 0.395403
-0.273642 0.158995 -0.418309
0.004375 -0.237083 0.374556
0.066837 -0.342948 -0.285790
-0.103472 -0.196936 -0.401248
-0.032998 -0.202577 0.394021
0.113815 -0.431982 0.103886
0.238548 0.376042 -0.241683
0.194367 0.339231 -0.291206
-0.130534 0.404594 0.185077
0.056734 -0.330586 -0.299849
0.094300 -0.206000 -0.396630
0.109378 -0.235461 0.375515
-0.093248 0.278661 -0.349876
-0.204395 0.347575 0.276793
0.241334 0.445040 -0.030445
0.226943 -0.439771 0.063999
-0.118503 -0.281306 -0.347029
-0.097012 -0.392294 0.207569
0.191907 0.320102 0.307864
0.193525 0.170340 0.409446
0.037215 0.442554 -0.056751
0.036116 0.262876 0.357766
0.121102 0.397063 0.200220
-0.029449 -0.219877 -0.389084
0.213205 0.152579 0.416266
-0.136418 -0.424896 -0.133716
0.236077 -0.179133 -0.409551
0.216331 -0.289747 -0.339811
0.050459 -0.136906 -0.425877
0.262466 -0.308628 0.318312
-0.251850 0.407532 -0.182640
0.156250 -0.168357 -0.414214
0.048806 0.063523 0.438608
-0.075029 0.442219 -0.059372
0.215585 0.341215 0.284603
-0.111699 0.063253 0.438651
-0.243162 -0.440041 0.062295
-0.228674 0.350135 -0.277845
-0.058991 -0.420243 0.143465
0.036520 -0.223514 0.382580
0.138049 0.312548 0.315417
0.212777 0.375714 -0.242165
-0.258496 0.006421 0.443073
-0.259328 0.176623 0.406727
-0.084522 -0.259982 0.359089
0.053918 -0.263071 -0.361173
-0.112004 -0.273977 -0.352714
-0.278294 -0.095307 0.432607
0.132656 0.157847 0.414369
0.272346 0.445708 0.005431
-0.253801 0.116276 -0.432168
-0.095967 0.106448 -0.434699
0.148556 -0.437302 -0.083944
-0.278522 -0.332784 0.293003
-0.112205 0.424720 0.133496
0.080176 0.352842 0.270002
0.248941 -0.163268 0.412049
-0.204364 0.305535 -0.326783
0.038866 -0.288050 -0.341307
0.131084 0.168233 0.410358
0.115444 -0.343580 0.280622
0.045075 -0.056992 -0.443834
-0.218468 0.224599 0.382545
0.270474 -0.364874 -0.256607
-0.003278 0.110083 0.429533
-0.135738 0.061660 -0.443257
0.192143 0.398729 -0.201303
-0.225445 -0.110323 0.429247
-0.011328 -0.087954 0.434251
0.075416 -0.070958 -0.441622
0.235260 0.089987 -0.438379
0.121981 0.069632 -0.441994
-0.232298 0.306341 0.321624
0.261669 -0.424918 0.129288
0.191751 -0.399401 0.193620
0.101499 0.139261 -0.425414
-0.219825 -0.441082 0.055723
-0.075324 0.319394 -0.312924
0.213729 -0.239923 0.372721
0.099838 -0.397431 -0.201839
-0.258314 0.124126 0.425534
0.083390 -0.348632 0.274108
-0.285632 0.371608 0.243853
0.175737 0.186400 0.402496
-0.029727 -0.100749 -0.435744
0.015013 -0.310365 0.316576
0.253403 0.356417 -0.269747
-0.125805 -0.114917 -0.432266
0.090785 -0.421251 0.140667
-0.284210 0.395543 0.203204
-0.107657 0.433489 0.101727
-0.261805 0.416200 -0.161896
-0.129424 -0.089915 -0.438166
-0.056107 0.414040 0.163248
-0.278203 -0.433968 0.095001
0.211037 0.443440 0.043022
-0.237335 0.173831 0.407935
0.131291 -0.111561 0.428887
0.144432 0.022990 0.442552
0.073305 -0.017385 0.442696
-0.188349 0.445790 0.002847
-0.106586 -0.021466 0.442568
0.193347 -0.275056 0.347524
-0.185651 -0.313256 -0.318038
0.183788 0.387362 -0.222664
0.143046 0.353395 0.269290
0.179622 0.289789 0.336324
0.236860 0.236236 0.375663
0.231276 0.051759 -0.444532
0.189348 0.427774 0.122983
0.156224 0.386895 0.219101
0.263768 0.356429 -0.269731
-0.060445 -0.377874 0.232621
-0.015744 0.196893 -0.401793
-0.274381 0.033175 -0.446289
0.164602 0.024218 -0.446867
-0.012982 0.444976 0.026775
-0.270164 0.147478 0.418102
0.222671 0.327733 -0.304248
0.224970 0.264711 -0.360696
-0.063377 0.381590 0.228071
0.087525 -0.298911 -0.331732
-0.023626 0.273165 -0.354138
-0.196750 -0.060929 -0.443210
-0.020506 -0.058134 -0.443653
-0.209236 0.375469 0.238172
-0.051716 0.228594 0.380182
0.008513 -0.372652 0.240808
-0.207907 0.074252 0.436909
0.093981 0.121500 0.426297
0.063506 0.400363 0.193744
-0.081068 -0.189562 -0.405006
0.074310 0.177539 0.406331
-0.107995 0.445420 -0.018967
-0.190387 -0.419250 0.146223
0.099206 -0.080644 -0.440088
0.138487 -0.167932 -0.414398
-0.122603 -0.444268 0.018659
0.003673 0.031042 0.442137
-0.030765 0.104100 -0.435224
-0.169188 0.165463 -0.415910
0.182308 0.002838 -0.447539
0.184556 -0.304016 0.322878
0.283874 -0.190400 -0.404579
0.021163 -0.431608 0.105557
-0.174237 -0.099288 0.431717
-0.179470 0.132113 -0.427567
-0.146080 0.306429 0.321536
-0.286070 -0.431639 -0.109773
-0.235643 -0.022025 -0.446904
0.012309 0.433406 0.102101
-0.230866 0.153470 0.415945
-0.077976 0.088814 0.434288
-0.047978 -0.408974 -0.176940
0.059288 -0.149851 -0.421232
-0.225400 0.079753 -0.440391
-0.060247 -0.342362 -0.286492
-0.123201 -0.029888 -0.446503
0.155239 0.342340 0.283326
0.054016 0.441279 -0.065303
0.204271 0.171910 0.408766
0.042652 -0.042677 -0.445294
0.033439 0.375614 0.237958
0.268008 -0.026739 -0.446755
-0.140539 0.256044 0.362461
-0.038598 -0.439929 -0.067359
-0.050349 -0.327083 0.299470
0.263925 0.264176 0.356758
-0.242493 -0.371588 -0.246728
0.284321 0.403871 0.186748
-0.071064 -0.426904 0.122452
-0.021764 -0.435994 -0.090291
0.189884 0.404119 0.186175
-0.289798 0.283389 -0.346208
-0.051108 0.377340 0.235258
0.220489 -0.302561 0.324161
-0.222127 0.369512 0.246938
0.273997 0.024183 -0.446868
-0.183095 0.125605 0.425105
0.089724 -0.334855 -0.295008
-0.193514 0.009518 0.442975
0.225420 0.246991 -0.372967
0.181435 0.149905 0.417228
-0.058142 -0.102152 0.431077
0.237094 0.260678 -0.363666
-0.059667 -0.310664 -0.320630
0.255338 0.405813 -0.186614
-0.203435 0.442536 -0.056941
0.112107 0.295384 -0.335745
0.114727 0.307120 0.320845
0.066802 0.238450 -0.378707
-0.239794 -0.393063 -0.210413
-0.134389 -0.375364 -0.241172
-0.126845 0.065825 -0.442597
-0.097808 -0.433267 0.098137
0.140250 -0.420227 -0.147864
0.271500 0.293185 -0.337683
-0.087072 0.325604 -0.306663
0.102196 0.114744 0.428260
0.285643 -0.277136 -0.350264
0.257369 -0.437595 0.077741
-0.237961 -0.335591 0.289819
0.009468 -0.104538 -0.434897
0.245701 -0.303743 0.323119
0.088845 -0.267784 -0.357518
-0.272219 0.214356 0.388541
-0.078390 0.310570 -0.321749
0.086025 0.250266 0.366388
0.276201 -0.122571 0.425688
-0.162382 -0.143931 -0.423364
-0.034542 -0.441056 0.055886
0.105018 -0.071478 -0.441539
-0.035558 -0.337886 0.287217
0.156364 0.395856 -0.206942
0.081304 -0.061383 0.438785
-0.271570 -0.396846 0.198635
-0.009485 0.329597 -0.302134
0.220201 0.200858 -0.399772
-0.107081 0.432229 -0.111716
-0.125842 0.369015 0.247668
0.055121 -0.237497 -0.378664
-0.081823 -0.251095 -0.369482
-0.272586 0.370127 0.246033
0.004516 0.445147 0.023303
-0.001612 -0.289386 0.335776
-0.217175 -0.178492 0.405475
0.016782 -0.434013 -0.099152
0.091450 -0.441714 -0.054790
-0.140946 0.433492 0.101716
-0.041420 0.438699 0.077242
0.056993 0.048258 -0.444863
0.043630 -0.343758 0.280391
0.099963 0.444406 -0.037155
0.149917 0.445081 0.025395
0.128314 0.426986 -0.130049
0.054493 0.200993 -0.399703
-0.091529 -0.072785 0.436979
-0.264243 0.383843 0.224261
-0.129115 0.444829 0.028324
0.219281 0.260787 0.359238
-0.064715 -0.218871 -0.389680
0.284954 -0.122200 -0.430149
-0.114137 0.178730 0.405815
0.183770 0.309082 -0.323237
-0.196320 0.352759 0.270109
0.284547 0.107059 -0.434563
-0.269250 -0.022581 -0.446886
-0.027570 0.364588 -0.258536
0.063495 0.422769 0.139296
-0.264558 -0.025935 0.442427
0.015969 0.167493 -0.415031
-0.047867 0.123575 0.425694
-0.157395 -0.192080 0.399369
-0.129834 -0.167633 0.410174
0.029322 0.091271 -0.438092
0.152597 -0.355614 0.265108
0.199872 -0.034267 0.441736
0.220155 -0.340406 -0.288711
0.182788 -0.207827 -0.395699
-0.132465 -0.409343 0.171736
-0.186669 0.363736 0.255436
0.252059 -0.435521 0.088054
0.241090 -0.414179 0.160308
0.111607 0.432140 -0.112116
0.154212 -0.432426 -0.106253
-0.035950 -0.057855 -0.443697
-0.123572 0.034522 -0.446162
0.227576 0.168664 -0.414525
0.068217 -0.134225 0.422302
-0.186452 0.063227 -0.443009
-0.008795 0.172954 -0.412668
-0.236905 0.292178 -0.338571
-0.197232 -0.229336 -0.383491
-0.233317 0.208663 -0.395795
-0.119580 -0.062608 -0.442944
-0.175550 -0.389858 -0.216702
0.075807 0.409655 0.173382
0.219711 0.295385 -0.335744
0.251293 -0.175111 0.406938
-0.092382 -0.309068 0.317872
0.109418 -0.209690 0.390397
-0.241686 -0.418895 -0.151562
-0.012534 -0.390358 -0.215721
0.259175 -0.252150 -0.368765
0.257471 -0.165063 -0.415639
0.080064 0.352785 -0.274428
-0.012535 -0.439818 0.063705
-0.202151 0.173844 -0.412283
-0.000653 0.444519 0.031609
-0.045530 0.238940 -0.378417
-0.273868 -0.439801 -0.068166
-0.190471 -0.161337 0.412744
0.016691 0.241545 -0.376669
-0.057672 0.370977 0.244781
-0.112166 -0.339090 -0.290204
-0.031621 -0.416519 0.153811
-0.025044 -0.426802 -0.127154
-0.023778 -0.303982 0.322908
0.253663 0.434179 -0.102996
-0.130355 0.335867 -0.295022
0.178880 0.100969 0.431571
0.153889 0.393220 0.207763
0.022848 -0.439755 0.064100
0.129291 0.221347 -0.388821
0.237114 -0.044007 -0.445168
0.143719 0.280581 0.344033
0.134181 -0.308082 -0.323211
0.233645 -0.025660 -0.446789
-0.138953 0.136234 0.422017
-0.018082 -0.293902 0.331795
0.212070 0.445846 -0.005394
0.082272 0.280183 0.344342
-0.277636 -0.406149 -0.183468
0.073991 -0.247728 -0.371770
0.093940 -0.440254 0.060953
0.061516 -0.254039 -0.367481
0.102653 0.409159 0.174529
-0.285591 0.379101 0.232279
0.192088 -0.444506 -0.015446
-0.119759 -0.443067 -0.040475
-0.102159 0.017884 0.442712
0.081766 -0.205453 -0.396909
0.139900 -0.144524 -0.423150
0.112478 -0.394246 0.203738
0.148344 -0.368633 0.246722
-0.245377 0.378800 0.232790
0.125826 -0.443537 0.031149
-0.195950 -0.357029 0.263283
0.283357 0.366297 0.251669
-0.051237 0.123995 -0.429926
-0.127888 -0.246582 -0.372549
0.285274 0.040839 0.441211
-0.053133 0.347485 -0.281262
0.135789 0.128693 -0.428561
-0.052728 -0.343100 0.281240
-0.166825 0.207663 0.391951
0.057533 0.020875 0.442618
0.222301 0.189877 0.400991
0.197575 -0.326203 0.300468
0.023960 -0.314183 0.312757
0.257570 -0.230831 0.378253
0.022630 -0.081666 0.435572
-0.270469 -0.341981 0.282571
-0.230726 -0.019609 0.442626
-0.000065 -0.335848 0.289528
0.282153 -0.075069 0.436617
-0.020489 0.424468 0.134361
0.191634 0.387250 0.218500
0.227486 -0.420262 0.143412
-0.194506 -0.427299 0.121092
-0.229411 0.387919 -0.221723
-0.001195 0.445343 -0.021419
-0.216604 -0.438212 -0.078195
-0.064108 -0.444300 0.017623
-0.288486 0.373627 -0.245236
-0.185323 0.445167 -0.027002
0.056390 0.335584 0.290989
-0.141276 0.335436 -0.295510
0.090698 0.445591 0.009159
0.073521 0.112604 0.428882
-0.076618 -0.173825 -0.411848
-0.094549 -0.291245 -0.338490
0.211686 -0.087837 -0.438630
0.238720 -0.167040 0.410431
-0.176215 0.219339 -0.390009
-0.287521 -0.195181 0.397789
-0.049300 0.247084 0.368551
0.081185 -0.424521 -0.135005
-0.034256 0.224364 0.382684
-0.016360 -0.309653 0.317287
-0.283277 -0.438436 0.072430
0.164337 0.394939 0.204388
-0.131269 -0.101317 -0.435617
-0.144936 -0.377862 -0.236996
-0.147414 -0.433176 -0.102896
-0.098799 0.214334 0.388552
0.169465 -0.420477 0.142816
0.153567 0.404438 -0.189791
0.168465 0.336283 0.290197
-0.033708 0.231782 -0.382650
-0.059654 0.392468 -0.213592
0.028945 -0.081128 -0.440011
-0.252081 -0.229199 0.379218
-0.151415 0.390703 -0.217015
-0.160520 0.285767 0.339870
-0.054892 -0.015677 -0.447103
0.238494 -0.098045 -0.436349
0.208699 0.009592 -0.447326
0.190123 0.192128 -0.404220
-0.278840 0.178357 -0.410330
0.252146 0.222744 -0.387995
0.100504 0.433620 -0.105493
0.065575 0.284018 -0.345720
0.175389 0.028367 -0.446736
0.143364 0.144265 -0.423612
-0.222367 0.123943 -0.429941
0.047865 0.316297 -0.316022
-0.257504 -0.216035 0.387003
0.266474 -0.286043 -0.343077
-0.056525 0.393868 0.206489
0.091842 0.411972 -0.172382
0.062735 -0.144982 0.418632
-0.157657 -0.281024 -0.347248
0.108485 -0.037099 -0.445821
-0.278937 0.443914 0.038006
-0.043240 0.372038 0.243221
-0.237225 0.406991 0.179538
-0.247075 0.178985 -0.410058
0.269210 -0.442505 -0.046419
-0.023748 0.258053 -0.365449
-0.133870 0.299377 0.327871
-0.117388 -0.011651 -0.447230
-0.255888 0.294981 -0.336100
0.063463 -0.443818 -0.032534
-0.089359 -0.033553 -0.446157
-0.023703 -0.212283 -0.393429
0.236413 0.193312 0.399264
0.044216 0.144145 -0.423656
0.286756 -0.403798 0.184548
0.038192 0.069206 0.437708
-0.039926 0.341454 0.284331
0.077837 0.436286 0.089215
-0.277353 0.178775 0.405796
0.024551 0.392035 0.210087
-0.010668 0.212566 -0.393807
0.143968 0.160478 0.413422
0.139903 0.304794 0.323095
-0.283666 -0.169889 0.409198
0.100266 -0.282716 -0.345935
0.151435 0.424152 0.135452
-0.004029 -0.444635 -0.011319
-0.190951 0.428569 -0.124600
-0.140489 -0.444175 -0.025961
0.246374 0.338423 -0.292123
-0.190720 0.445740 -0.008790
0.094415 -0.334792 0.290725
0.056960 -0.417265 0.151736
0.212734 0.236461 0.375530
0.114271 0.063177 0.438663
0.160324 -0.379530 0.229821
-0.289452 0.281180 0.343568
-0.235919 -0.441416 0.053589
0.159436 -0.418101 -0.153768
0.076324 0.266841 -0.359044
-0.185566 -0.052771 0.439986
-0.121423 0.346972 -0.281923
-0.212211 -0.366529 0.249818
-0.094908 -0.099846 -0.435946
-0.029065 -0.308807 -0.322487
-0.012146 -0.443901 -0.031657
0.170284 0.175480 0.407222
-0.111198 0.155756 0.415122
0.019205 -0.333200 0.292531
0.218950 0.384309 0.223473
-0.242482 -0.063965 -0.442729
0.144896 0.365126 0.253391
0.089748 -0.058025 -0.443670
-0.009710 -0.442129 -0.050400
-0.050132 -0.377594 -0.237448
-0.135693 -0.344914 -0.283255
-0.145623 0.003878 -0.447506
-0.067384 0.320594 0.307371
0.119541 -0.275032 0.347542
0.009853 -0.076273 0.436427
-0.063595 -0.323975 0.302965
-0.009138 0.389605 -0.218872
0.063990 -0.084217 0.435086
0.057118 -0.383628 -0.227246
0.047339 0.440501 0.065860
0.056752 0.107634 -0.434434
-0.079296 0.445288 -0.023173
-0.228322 -0.137284 -0.425757
-0.096467 -0.387370 0.216565
-0.113544 0.288729 0.337258
0.243940 0.438976 0.075490
-0.116491 -0.394593 -0.207409
-0.095833 0.369898 -0.250722
-0.080088 0.442733 0.050503
0.238897 -0.033990 -0.446115
-0.239780 -0.225173 -0.385953
-0.201516 0.116549 0.427736
0.240127 0.392741 0.208703
0.270092 0.262807 -0.362173
-0.242651 0.233515 -0.381625
0.204469 0.445461 0.013311
0.140787 0.428831 -0.123699
-0.149142 -0.425670 -0.131051
-0.150769 -0.225061 0.381665
0.164244 0.418567 0.150968
0.241856 -0.428252 0.117811
-0.059175 0.151559 0.416633
0.087333 -0.125543 -0.429178
-0.139290 0.391585 -0.215324
0.074853 0.413781 0.163848
-0.015883 0.381917 0.227518
0.079965 -0.297970 0.328208
0.064898 -0.391646 -0.213193
-0.258215 0.177106 -0.410871
0.031721 0.396378 -0.205917
-0.199658 0.188290 0.401678
0.183319 0.445287 0.018847
0.119746 -0.416668 0.153396
0.117730 -0.444748 -0.007741
-0.250896 -0.044366 0.440781
-0.097965 -0.270799 0.350825
0.156899 0.178136 0.406072
0.075741 -0.440617 -0.063014
-0.004124 0.002626 -0.447545
0.236394 -0.176746 0.406230
0.044385 0.094992 0.432907
0.125625 -0.400517 0.191430
0.245689 0.110952 0.429339
-0.275269 -0.071015 0.437259
-0.139251 0.232636 -0.382145
0.279630 0.152370 0.416341
-0.272871 -0.444711 -0.008926
0.281733 -0.250072 0.365824
-0.290077 0.297287 0.329713
0.020661 0.231735 -0.382678
0.141842 -0.061887 -0.443058
-0.289107 -0.134632 0.422184
-0.270432 -0.434794 -0.095661
-0.075857 0.395674 0.202946
0.132069 -0.438067 -0.079116
0.157852 -0.444582 0.008669
0.040102 0.024624 0.442501
-0.111867 0.348056 0.276172
0.078475 0.390773 -0.216897
0.123839 -0.339735 -0.289472
0.244309 -0.016581 0.442721
0.032186 0.078998 0.436157
0.150556 -0.227095 -0.384816
-0.075426 -0.444101 -0.028311
0.058335 0.069405 0.437677
-0.126838 0.294119 0.332506
0.244108 -0.319497 -0.311797
-0.067219 0.073517 -0.441379
-0.111190 -0.252567 -0.368482
-0.140551 0.116725 0.427684
-0.169136 -0.400748 -0.195330
0.271174 -0.041012 -0.445451
0.038429 -0.380059 0.228927
-0.195996 -0.444882 -0.000871
-0.053802 -0.079694 0.435885
0.054265 0.361422 -0.263195
-0.183942 -0.060180 -0.443329
-0.005999 -0.304941 -0.326353
-0.261923 -0.369853 -0.249281
-0.271136 0.224759 0.382450
-0.038271 0.110478 -0.433798
-0.125719 -0.156132 0.414618
-0.263107 -0.326393 -0.304606
0.062120 0.431169 -0.115652
-0.116373 0.274511 -0.353095
-0.103344 0.390241 -0.217796
0.275001 -0.333133 0.292607
-0.180529 -0.372674 0.240777
0.162325 -0.415852 0.155662
-0.181515 0.099145 -0.436332
0.034746 -0.177210 -0.410383
-0.058268 0.345552 0.279401
0.201022 -0.100159 0.431523
-0.129981 -0.416412 0.154108
-0.201871 0.083592 -0.439783
0.254273 0.208339 -0.395960
0.244280 -0.444590 0.008396
0.067191 0.012144 -0.447246
0.141178 -0.390509 0.211072
-0.112407 0.413234 -0.169465
0.126628 -0.410354 -0.173752
-0.126211 -0.434540 0.092442
0.218515 0.329936 0.297396
-0.284735 0.361377 0.258908
-0.289509 0.291824 -0.338883
-0.122174 0.401478 -0.195909
0.017755 -0.351890 -0.274261
-0.176203 -0.343331 -0.285295
0.222804 0.322032 0.305933
-0.235781 -0.313341 -0.317953
0.096452 -0.431251 -0.111508
-0.126772 0.092307 0.433507
-0.193765 0.375266 0.238470
0.176738 0.445550 -0.014833
0.203495 -0.439265 0.067197
0.234780 0.388089 0.217082
-0.057001 -0.303311 -0.327853
0.223312 0.417607 -0.157988
-0.168484 0.237283 0.375043
-0.168349 0.443413 -0.047656
0.040080 -0.196544 -0.401448
0.181543 -0.328466 -0.302255
-0.178242 -0.359347 0.260295
0.246704 0.111654 -0.433511
-0.181467 0.311118 -0.321201
-0.130696 -0.370942 0.243325
0.169873 0.258468 0.360814
-0.142932 -0.292383 -0.337487
0.237036 0.370329 -0.250089
0.151070 0.405345 0.183342
-0.213018 -0.231588 0.377806
-0.102239 -0.444352 -0.020348
0.058419 -0.197089 -0.401170
0.210112 -0.431130 -0.112048
-0.104573 -0.223017 0.382875
0.025802 0.399495 0.195447
-0.206390 0.444416 -0.037048
0.154286 -0.441418 0.053573
0.273618 -0.184045 -0.407425
0.228549 -0.216514 -0.391074
0.068306 0.146960 0.418289
0.014737 -0.240654 0.372224
0.279746 0.052431 0.440116
0.075370 0.317884 -0.314435
0.137074 -0.371770 -0.246460
-0.137544 0.343082 0.282485
0.156808 -0.250926 -0.369596
0.140894 -0.319799 0.307142
-0.244743 0.319633 0.308332
0.188345 -0.263128 0.356776
0.231217 -0.345515 -0.282481
-0.255542 -0.230525 -0.382787
-0.111183 -0.255483 0.362146
-0.158440 -0.295336 -0.334884
-0.028717 0.443512 -0.046611
0.023635 -0.122990 -0.429920
0.112449 0.375479 0.238158
-0.053293 0.194671 0.398571
-0.219775 -0.335085 0.290393
-0.210482 -0.356795 0.263585
0.079883 -0.437599 0.077713
0.019111 0.322998 -0.309321
-0.160254 0.355657 -0.270726
0.023367 0.438595 0.077894
-0.169680 -0.141588 0.419854
0.133348 0.142810 -0.424136
-0.106444 0.273800 -0.353646
-0.174464 0.445084 0.025303
0.111185 -0.319322 0.307618
0.180821 0.333187 0.293708
-0.161281 0.445568 0.009896
0.125339 0.444865 0.027944
0.164357 0.049176 0.440423
-0.006556 0.029036 -0.446680
-0.268704 0.004718 0.443126
-0.273892 0.338685 -0.291826
-0.289056 0.077064 -0.440817
0.119945 -0.438753 0.070428
-0.252963 -0.297158 0.328924
-0.009759 -0.338399 -0.290987
0.210199 -0.444842 0.000374
0.045483 0.438785 0.076697
-0.103824 0.387553 0.217988
-0.129897 0.434684 0.096383
-0.157049 -0.337012 0.288208
0.157836 -0.282045 -0.346455
-0.253500 -0.016043 0.442738
0.042375 -0.353093 -0.272710
-0.131156 -0.440187 -0.065729
0.106942 -0.361707 -0.261267
-0.157311 -0.388475 0.214696
-0.278697 -0.041228 0.441078
0.182234 -0.137983 0.421152
-0.027166 0.174496 0.407648
0.268811 0.445776 -0.007632
0.034324 0.172669 0.408438
0.261250 0.442395 -0.058260
0.067157 -0.382549 -0.229070
-0.240861 0.298560 0.328591
0.267591 -0.397798 0.196766
-0.248221 -0.432608 0.101083
0.006007 -0.418231 -0.153407
-0.179735 0.329753 0.297603
0.001084 -0.286043 -0.343077
0.013801 -0.133137 0.422619
0.281258 -0.410513 -0.173385
-0.277361 0.421029 0.144129
-0.028993 -0.424555 0.130535
-0.143605 0.241528 0.372326
0.248399 0.286017 -0.344003
-0.266291 -0.423535 0.134048
-0.174305 -0.420047 0.144009
-0.161759 0.344490 0.280769
-0.086276 -0.249855 0.365971
0.187791 -0.236015 -0.379541
0.024726 0.112376 0.428948
-0.100154 0.066427 -0.442502
-0.266145 -0.432457 -0.106114
-0.127443 0.008165 0.443018
0.094250 -0.426765 -0.127282
0.174952 -0.178650 0.405407
0.046587 -0.437106 -0.085182
0.172405 0.310951 -0.321367
-0.131367 -0.368349 -0.251494
-0.170219 0.224474 0.382619
-0.166595 -0.339122 -0.290167
-0.099413 0.180997 -0.409188
0.277241 0.440238 -0.071876
-0.015758 -0.433480 -0.101537
-0.133520 -0.408131 -0.178888
-0.084639 -0.390392 -0.215654
0.197647 0.217252 0.386890
-0.173661 0.365921 0.252222
0.150980 -0.377117 0.233901
-0.155169 -0.237758 -0.378510
-0.066603 0.236999 0.375211
0.177305 -0.352604 -0.273341
0.118903 -0.003639 -0.447481
-0.278823 -0.356367 -0.268490
0.092496 -0.049495 0.440296
-0.138127 0.412547 0.166699
-0.269954 0.321777 0.306188
-0.288494 0.415126 0.160525
-0.145897 0.091548 -0.438030
-0.017375 -0.151056 0.416445
-0.217652 -0.090906 -0.437944
0.126133 -0.189101 0.400884
-0.109914 0.062365 -0.443145
0.091054 0.234360 0.376772
-0.013216 0.418240 -0.156228
-0.055448 -0.238822 -0.377823
-0.077083 -0.354277 0.266831
0.276470 -0.438338 0.073050
-0.143186 0.436558 0.087999
-0.137963 -0.233062 -0.381287
-0.023936 -0.269514 0.351822
0.091434 -0.318815 0.308126
0.066773 0.103997 0.430894
0.137496 -0.384534 -0.225714
-0.144463 0.438982 -0.079808
0.273546 0.430566 -0.117725
-0.021170 0.045368 -0.445137
-0.062357 0.181042 -0.409168
-0.187707 0.188459 -0.405958
0.021196 0.316170 0.311795
-0.109431 0.234831 0.376493
-0.137420 -0.435238 0.089320
0.120455 0.420955 0.144334
0.148338 -0.159687 -0.417691
-0.114211 -0.442290 -0.048698
0.199927 0.157814 0.414381
-0.251294 -0.436910 0.081837
-0.205420 -0.307576 -0.323718
-0.166517 0.408680 0.175635
0.243908 0.209751 -0.395241
-0.138447 -0.251011 -0.369539
-0.242846 0.410266 0.171969
0.037981 -0.421538 0.139867
-0.158541 -0.002205 0.443173
-0.082300 0.320569 0.307396
0.067108 0.394281 0.205680
-0.111070 -0.443805 -0.032673
-0.185625 -0.405714 0.180121
-0.044215 -0.201852 -0.398744
0.192584 0.428446 -0.125023
0.081011 0.379649 -0.235707
-0.037999 -0.288105 -0.341258
0.084621 -0.007514 -0.447360
0.027104 0.435567 -0.096784
-0.251523 -0.193971 0.398406
0.230965 0.096879 0.432485
0.099038 0.194543 -0.402990
-0.200724 -0.251976 -0.368883
0.114127 0.314955 0.313010
0.093790 -0.406576 0.178129
-0.046454 -0.351388 -0.274909
-0.086189 0.252842 -0.368991
0.220071 0.442269 0.054702
-0.186790 0.440870 0.063530
-0.222145 0.290566 0.335639
0.064529 -0.234927 -0.380184
0.083289 -0.078248 0.436114
0.167375 0.232764 -0.382069
-0.102398 -0.442972 -0.041478
-0.241938 -0.383291 0.223461
-0.227226 -0.053200 0.439946
0.178560 -0.089963 0.433802
-0.005446 -0.429376 -0.118296
0.093535 0.173505 -0.412430
0.080919 -0.051215 -0.444487
0.067051 0.075259 -0.441103
-0.265438 0.421849 0.141851
-0.048334 -0.338817 -0.290514
0.247828 -0.438238 0.073677
-0.221788 -0.075608 0.436532
-0.007491 0.408877 0.175180
0.202396 -0.380888 -0.231879
0.126383 0.008044 0.443022
-0.266989 0.441851 -0.061692
-0.152003 -0.349692 0.272741
0.286748 0.418824 0.150252
-0.174425 -0.325231 0.301570
0.004318 0.360933 0.259561
0.189110 0.206721 -0.396785
-0.251751 -0.170160 0.409080
-0.083139 -0.369087 -0.250407
-0.109560 0.049212 -0.444773
0.037360 -0.260674 -0.362972
-0.006988 0.322577 -0.309741
0.161163 0.198130 0.396809
-0.212298 -0.064631 0.438270
0.199422 0.088066 -0.438808
0.166481 0.207601 -0.396336
0.240801 -0.124486 -0.429485
0.162330 0.061466 0.438934
0.129067 -0.409726 0.170849
0.283430 -0.443009 0.036739
-0.250600 0.270578 0.351792
-0.020229 0.440703 0.064586
0.068996 0.008941 0.442993
0.086550 -0.380709 -0.232182
0.009590 0.006723 0.443063
-0.190111 0.316756 -0.315562
0.019728 -0.401843 -0.193181
0.149939 0.357546 -0.268290
0.048693 -0.316082 -0.315212
-0.254564 -0.411993 0.165611
0.232276 0.444904 0.027535
0.233081 -0.190947 0.399947
0.063775 -0.039086 -0.445634
-0.153336 -0.175300 0.406856
-0.145460 0.107806 -0.434396
0.032200 0.374174 -0.244430
-0.032533 0.328305 -0.303599
0.039473 -0.236441 -0.379289
0.040182 0.382420 0.226668
-0.023270 0.177501 -0.410700
0.080812 -0.105993 0.430218
0.197998 0.436162 0.089768
0.197178 -0.042210 -0.445338
-0.054923 -0.330839 -0.299562
-0.127278 -0.001991 0.443180
-0.184218 -0.348461 -0.278682
-0.143419 0.342063 -0.287994
0.111081 -0.267728 -0.357561
-0.279302 -0.203045 -0.398136
0.118494 -0.277848 -0.349711
-0.102650 0.270683 0.351711
0.069275 -0.422145 -0.142537
-0.086988 0.151585 -0.420977
-0.074577 0.382037 -0.231669
0.064424 0.255619 -0.367104
-0.030270 0.437930 0.081860
0.157453 -0.130355 0.423427
0.079154 0.007110 -0.447404
-0.218442 -0.099300 0.431715
-0.109704 0.444956 0.026982
0.166352 0.445227 0.020747
0.149550 -0.421278 0.140591
-0.227524 -0.113262 -0.432746
-0.260055 -0.214484 -0.392274
-0.010851 0.028294 0.442385
-0.027166 -0.328754 0.297574
0.093263 -0.386680 -0.222085
0.088628 -0.019884 -0.446971
-0.245687 0.444102 -0.040373
0.096173 -0.208550 0.390978
-0.201890 -0.342254 -0.286615
-0.243578 0.298944 -0.332607
-0.055766 0.362558 -0.261524
0.195806 -0.413421 0.162311
-0.087031 -0.442790 -0.043406
0.181633 -0.217350 -0.390579
-0.122905 -0.294007 -0.336056
-0.014341 0.056481 -0.444077
0.131083 0.442669 0.051180
-0.073326 -0.405161 0.181398
0.016533 0.219159 0.385762
0.282092 -0.313731 0.313210
0.012389 -0.288076 -0.341284
-0.146609 0.015122 -0.447153
-0.068290 -0.405706 -0.184492
-0.089187 0.282270 0.342723
-0.214991 0.433519 0.101595
-0.034823 -0.412874 0.163576
0.111398 -0.286075 -0.343049
-0.148067 0.430142 0.114833
0.245924 -0.422016 -0.142894
-0.192171 -0.407825 -0.179596
0.153554 -0.270014 -0.355788
0.008896 -0.061886 -0.443059
0.132373 0.423865 -0.140606
-0.163815 0.143295 -0.423962
0.256926 -0.378403 -0.236081
0.164842 0.355197 0.266966
-0.084381 0.362123 0.257810
0.130202 -0.283591 -0.345238
-0.124912 -0.168597 -0.414110
0.036939 0.247496 -0.372624
0.172488 0.378044 0.234068
-0.021163 -0.220086 0.384608
-0.030368 0.439217 -0.078325
-0.007908 -0.213017 -0.393055
-0.275245 -0.402269 -0.192345
0.124430 -0.396152 0.199996
-0.275262 0.128981 -0.428477
0.251641 0.440668 -0.069159
-0.260634 0.416763 0.155978
0.116347 -0.310940 -0.320354
0.152548 -0.426813 -0.127116
0.181142 0.438301 0.079755
-0.118822 0.396767 -0.205155
0.185290 0.315839 -0.316480
0.043887 0.199250 -0.400592
-0.199521 -0.436317 -0.088845
-0.150212 -0.045005 0.440721
-0.051997 0.376582 -0.240887
-0.187187 -0.433509 0.097056
-0.125637 -0.088343 0.434164
0.208778 0.076054 -0.440977
-0.245968 -0.114867 0.427927
-0.119951 -0.146129 0.418219
-0.053384 0.207354 0.392109
0.032741 -0.014423 0.442789
-0.104366 0.418813 0.150284
-0.180290 -0.168984 0.409589
-0.254751 -0.352462 0.269171
0.284842 -0.427661 -0.124200
-0.126113 0.437209 0.085085
-0.097101 -0.329277 -0.301334
-0.169369 0.335228 -0.295746
0.202231 0.320555 -0.311764
-0.178521 -0.336464 -0.293182
-0.211680 -0.240064 0.372625
0.285808 0.282441 0.342590
-0.027003 0.018233 -0.447055
0.277909 -0.429622 0.113097
0.163607 0.315748 -0.316570
-0.230764 -0.263413 0.356554
-0.031227 0.423862 0.136261
0.025818 0.130711 0.423621
-0.272592 0.443200 0.045558
-0.225344 -0.040714 0.441126
-0.225410 -0.017845 -0.447035
0.022462 0.157150 0.414620
-0.215460 0.110043 -0.433896
-0.182777 -0.406366 -0.182967
-0.157412 0.351548 0.271671
-0.042924 -0.421881 0.138915
-0.237726 -0.236277 0.375033
-0.002882 0.199014 0.396358
-0.200475 -0.184539 -0.407211
-0.215481 0.003684 0.443159
0.216707 -0.141316 0.419952
-0.289749 -0.407941 -0.179329
0.108335 0.395793 -0.207066
-0.006566 0.377781 -0.238866
0.005371 0.322439 0.305526
0.284330 0.328054 0.299531
-0.120412 0.296010 -0.335193
-0.186390 -0.279413 0.344144
-0.190664 0.404117 -0.190532
0.249975 -0.444840 0.000467
0.174277 0.326955 -0.305130
0.132344 0.100561 0.431662
0.184179 0.433020 0.103827
0.118845 0.019255 -0.447023
-0.095736 0.443144 0.046154
-0.109135 0.336724 -0.294050
-0.036797 0.098002 0.432234
0.117309 -0.293763 -0.336271
0.261794 -0.444382 -0.019387
0.234207 -0.001195 -0.447558
0.219578 0.421287 0.143414
-0.118442 0.425572 -0.134915
0.069154 0.302935 -0.329087
0.042470 -0.255201 0.362338
-0.181020 0.321342 0.306623
-0.086245 0.387791 0.217586
-0.267979 -0.441898 -0.052844
-0.219273 -0.159707 -0.417684
0.016313 -0.219690 -0.389195
-0.096632 0.444267 0.034271
0.028418 -0.220428 -0.388759
-0.183105 -0.042313 0.440975
0.040937 -0.270003 -0.355797
0.131869 -0.274624 0.347858
-0.211297 0.057651 -0.443892
0.188565 0.079518 -0.440428
-0.029126 -0.310117 0.316823
0.013208 -0.290939 0.334406
-0.229637 0.394361 -0.209875
0.181008 -0.298398 -0.332184
0.153822 -0.442794 0.039010
-0.182853 -0.105645 0.430296
-0.244820 0.221466 0.384398
-0.084003 0.354157 0.268306
-0.217834 -0.288377 0.336665
0.265291 0.443377 -0.048044
-0.026010 -0.418530 -0.152577
