-0.232466 -0.227913 -0.384332
0.172966 -0.083110 0.435334
-0.201076 0.428390 -0.125218
-0.259641 -0.327665 0.298809
-0.289431 0.360149 0.260581
-0.107892 -0.107421 0.429899
-0.165184 0.215750 -0.392132
-0.066562 -0.290406 -0.339230
0.196585 0.223705 0.383073
0.088837 -0.397406 -0.201889
-0.159838 0.190379 0.400758
0.171420 -0.042317 -0.445328
0.135119 -0.431551 -0.110167
-0.037125 0.293114 0.333393
-0.288466 0.380120 0.230557
0.155130 0.294531 0.332143
-0.082413 0.260993 0.359098
0.232169 -0.412809 0.163725
-0.145836 -0.169102 -0.413892
0.200218 0.384975 0.222348
-0.048606 0.241048 -0.377006
0.020195 0.256317 -0.366629
0.189955 0.434906 -0.099743
0.070480 0.414871 -0.165587
0.173955 0.384304 0.223482
0.192029 0.037018 -0.445926
0.243059 -0.444883 -0.000909
0.093944 0.048352 -0.444854
-0.069191 0.034245 -0.446188
-0.062139 -0.400835 -0.195158
-0.106069 -0.223634 0.382509
0.262925 0.424058 -0.140070
0.155594 0.392966 -0.212613
-0.107359 -0.121011 0.426142
-0.136624 0.109831 -0.433943
0.280538 -0.431175 -0.111847
-0.043143 -0.243600 0.370222
0.087986 0.336002 0.290516
-0.075032 -0.441457 0.053159
0.111768 0.399166 0.196093
-0.139219 -0.425830 0.126148
-0.139263 0.400883 -0.197075
0.097772 0.199424 -0.400503
0.095606 -0.293449 -0.336547
0.083213 0.362645 -0.261396
0.177206 0.445082 0.025358
0.279661 0.306844 -0.325475
-0.185891 -0.425337 0.127846
0.183554 -0.232156 -0.381823
0.136025 -0.394100 0.204023
-0.054912 0.444685 -0.034199
0.001119 0.369161 0.247453
-0.164123 0.401551 0.191412
0.093369 0.277305 0.346574
-0.023796 -0.166445 -0.415041
-0.046167 -0.132157 0.422903
0.225172 0.280948 -0.348101
-0.118165 -0.380803 0.227669
-0.038632 0.407859 0.177531
0.282204 0.278350 0.345763
0.103352 -0.386545 0.217959
-0.214147 0.255110 -0.367450
0.075916 -0.156095 -0.418984
-0.173299 -0.338478 0.286544
0.003089 0.061314 -0.443311
-0.086312 -0.444284 0.018132
-0.142473 0.075381 0.436730
0.100116 -0.442824 -0.043044
-0.289210 -0.347557 0.275495
-0.249125 0.034051 -0.446206
0.131135 -0.116922 -0.431683
0.016404 0.304257 -0.327922
-0.274262 -0.121225 -0.430433
-0.143305 0.188070 -0.406127
0.044324 -0.405424 -0.185145
-0.265927 -0.192202 -0.403661
-0.094328 -0.028874 0.442245
0.167155 0.173945 0.407886
-0.160036 0.283364 0.341874
0.097219 -0.419680 -0.149384
-0.248000 -0.328922 0.297383
0.067588 -0.329060 0.297227
0.227565 -0.378876 0.230928
-0.236138 0.326626 0.301150
-0.124376 0.380734 -0.233873
0.135561 0.090867 0.433829
0.113458 0.238133 -0.378894
-0.216352 0.445504 0.011919
-0.287271 -0.406376 -0.182945
-0.004839 0.409194 -0.178801
0.255281 0.422605 0.139753
-0.211849 0.095907 0.432702
-0.094557 0.432142 -0.112107
0.207076 -0.281587 -0.346811
0.194472 0.392611 -0.213311
0.165206 0.045632 0.440758
0.230371 0.433923 -0.104138
0.039973 -0.134306 0.422279
-0.287439 0.330077 -0.301589
-0.290045 0.380646 -0.234021
-0.058232 -0.422165 -0.142480
-0.083668 -0.100497 -0.435801
0.030135 -0.088611 0.434104
0.172989 -0.234388 0.376149
-0.262534 0.287675 -0.342541
-0.046600 0.391456 -0.215577
0.012736 0.444075 0.036303
-0.275746 0.207019 -0.396633
0.284352 -0.120622 0.426254
0.172826 -0.398482 0.195423
0.086565 0.297263 -0.334088
0.232078 0.027597 0.442407
-0.031025 -0.192657 0.399076
-0.261768 0.007186 0.443049
-0.216613 -0.317395 0.309545
-0.220853 0.006010 -0.447439
0.050542 0.424565 0.134028
0.131557 0.160910 0.413267
-0.240021 0.337933 -0.292679
-0.187458 0.241561 0.372304
-0.248811 -0.382870 0.224175
-0.001762 -0.429152 -0.119065
-0.289714 -0.312757 0.314184
-0.044295 0.054920 0.439880
-0.114626 -0.099184 -0.436094
0.144315 0.146221 -0.422908
-0.160377 -0.143660 -0.423462
-0.250195 0.335753 -0.295152
0.012557 -0.275906 0.346865
-0.068141 0.279581 0.344809
0.090039 0.134136 -0.426980
0.062077 0.350892 -0.276869
-0.111938 0.260336 -0.363898
-0.140076 -0.297015 -0.333404
-0.016109 -0.238383 0.373767
-0.082715 -0.422533 -0.141458
0.286752 0.312472 0.315493
0.262432 0.001806 -0.447571
-0.277949 -0.235622 -0.379773
-0.200562 0.299116 -0.332455
0.038245 -0.388535 0.214595
0.116124 -0.078761 0.436033
-0.286117 0.433282 0.102655
-0.120038 0.417295 0.154502
-0.287489 0.153015 0.416109
0.230873 -0.088442 -0.438495
-0.110151 -0.005784 0.443060
0.040388 -0.419965 0.144237
-0.096267 0.434001 0.099436
0.174737 -0.308497 0.318443
0.218546 -0.333563 -0.296473
0.007359 -0.130859 0.423281
0.141193 -0.427269 0.121195
0.085026 -0.414647 0.159008
-0.038086 -0.432381 0.102102
-0.015535 -0.070555 -0.441686
-0.153692 -0.281871 -0.346591
-0.259232 0.266294 0.355115
-0.131425 0.276514 0.347187
-0.224364 -0.274731 -0.352129
-0.071296 -0.072812 0.436975
0.103483 -0.439773 -0.068344
0.025078 0.297420 -0.333950
0.013035 0.392671 -0.213194
0.157058 -0.252543 0.364145
-0.003665 0.361177 -0.263555
0.253572 -0.372339 -0.245622
-0.119928 0.445855 -0.005115
-0.288668 -0.166479 -0.415027
0.100168 0.103257 0.431059
0.103665 0.110137 -0.433875
0.000515 -0.114430 -0.432407
-0.135826 -0.139872 0.420472
-0.203467 -0.353294 0.268098
0.187040 -0.399601 -0.197581
-0.260879 0.394962 -0.208696
0.227638 -0.313433 0.313507
0.200480 -0.438906 0.069461
0.147806 0.028429 0.442381
-0.248969 -0.141701 -0.424167
0.120313 -0.239312 -0.377489
0.138686 -0.230787 -0.382632
-0.095618 0.429005 0.118746
0.114379 0.086976 -0.439052
-0.168520 0.280720 -0.348279
-0.158171 0.378617 -0.237452
0.077546 0.115870 0.427933
-0.103407 0.077136 0.436452
0.158564 -0.275754 0.346982
-0.147945 0.006631 0.443066
-0.088753 -0.108139 0.429739
0.244973 -0.344479 -0.283816
0.215496 0.315115 0.312850
0.168037 -0.151940 0.416127
0.170665 -0.390372 -0.215693
0.029333 -0.180433 -0.408988
0.280863 -0.437420 -0.083200
0.285378 -0.066272 0.438011
-0.173255 -0.178227 -0.409943
0.229301 -0.321231 0.305709
-0.063388 0.441787 -0.062094
-0.283013 0.194470 -0.403027
0.079716 0.025420 0.442476
0.286787 0.436170 0.089732
0.008483 -0.013094 -0.447184
0.286009 -0.215162 -0.391873
-0.210496 -0.396449 0.199414
-0.288994 -0.332070 -0.298166
0.265773 0.185721 -0.407143
0.171471 0.234032 0.376966
0.248867 0.433994 -0.103822
-0.287062 -0.370979 0.243270
0.102242 0.437526 0.083666
-0.210369 -0.091063 -0.437909
-0.102550 -0.069835 0.437446
-0.079282 0.054253 -0.444297
-0.210110 -0.377950 0.232493
-0.068310 0.240901 0.372752
-0.062992 0.426686 -0.131080
0.157872 -0.444497 0.011370
-0.108609 -0.444883 -0.000927
-0.252583 0.373529 0.241027
0.260954 0.214254 -0.392947
-0.224026 0.425465 0.130931
0.175964 0.073552 -0.441373
-0.103165 -0.251307 0.364985
0.182727 0.440772 0.064153
0.257264 -0.224001 0.382292
-0.064062 -0.055812 0.439667
0.256287 0.197102 0.397332
-0.261303 0.294703 0.331992
-0.175828 0.436152 -0.094166
-0.051487 0.090253 0.433966
-0.067033 -0.342690 -0.286120
-0.093805 -0.442755 -0.043782
0.004482 0.357597 -0.268226
-0.229242 0.438130 0.080830
0.041128 -0.007280 0.443013
0.251227 -0.441699 -0.054954
-0.207811 -0.214138 0.388125
-0.055752 0.294259 0.332384
0.120794 0.436223 0.089499
-0.077403 0.018022 0.442708
-0.184055 0.119590 -0.431206
0.219977 -0.361346 0.257445
-0.146818 0.443078 -0.051204
0.255871 -0.430248 -0.115294
-0.048389 0.258789 -0.364949
0.122742 -0.440209 0.061238
-0.084325 0.407535 0.178281
0.062096 0.392114 -0.214287
-0.152885 -0.205162 0.392704
-0.092706 -0.414987 -0.162418
-0.182728 -0.367794 0.247958
0.024345 0.442166 -0.059702
0.041319 0.102532 -0.435575
0.261947 -0.292310 0.333198
-0.276489 0.193155 0.399344
0.145624 -0.419740 -0.149216
-0.035690 0.223945 -0.387285
-0.091606 0.345116 0.279962
0.155124 -0.213517 0.388446
-0.116744 -0.059627 0.439063
0.044469 -0.195661 -0.401898
0.272932 0.060320 0.439116
-0.025555 -0.006483 -0.447392
-0.120972 -0.372047 0.241699
-0.223260 -0.440155 0.061576
-0.041118 0.439258 0.073711
-0.018530 0.395822 -0.207008
-0.279861 -0.442294 0.044297
-0.150524 -0.036728 -0.445856
-0.156033 0.125434 0.425154
-0.118497 -0.047307 0.440503
-0.179637 0.346090 0.278707
-0.273008 -0.366959 -0.253540
0.270914 0.427386 0.124318
-0.146718 0.445910 -0.000982
-0.133592 0.411201 -0.174163
0.128560 0.387474 -0.222476
0.280041 -0.075802 0.436501
0.129809 0.439634 0.071334
-0.025752 0.083710 0.435411
0.109086 0.145827 -0.423050
-0.056494 -0.308277 -0.323017
-0.141537 -0.249594 0.366149
-0.274070 -0.444882 -0.003458
-0.115273 -0.444506 0.011093
0.058496 -0.221940 0.383511
0.048577 0.428796 0.119467
0.090535 -0.389417 -0.217457
0.052217 0.017937 -0.447064
0.057068 -0.070141 0.437398
-0.249005 0.438141 0.080762
0.154194 -0.193729 0.398529
-0.150194 -0.089022 -0.438365
0.207523 -0.345105 -0.283009
0.123595 -0.373474 -0.243953
-0.270651 -0.439773 -0.068344
0.281450 -0.175690 0.406687
0.275686 -0.269336 0.351961
-0.150298 0.303262 -0.328799
0.085889 0.444217 0.034796
-0.135001 -0.299666 0.326713
-0.150537 -0.357839 -0.266591
0.227320 0.245479 0.369641
0.144758 0.368144 -0.253303
0.014626 0.433579 0.101325
-0.088791 -0.365715 0.251017
0.001836 0.415456 0.159608
0.127801 0.442824 0.049539
-0.267709 0.127373 -0.428944
0.065569 0.399160 -0.200457
-0.019136 0.392118 0.209925
0.246539 0.219359 0.385643
0.082870 -0.047135 0.440519
0.219810 0.445589 0.009227
-0.125314 0.415439 -0.164010
-0.017643 -0.137402 0.421361
-0.069847 -0.438814 0.070041
-0.099444 0.341401 -0.288745
-0.124932 0.349331 0.274528
-0.251176 0.228366 -0.384670
-0.147338 -0.339926 -0.289256
-0.104669 0.370620 0.245307
0.241263 0.357328 0.264218
-0.155138 -0.433388 -0.101948
0.030503 0.442633 0.051552
0.157073 -0.218903 -0.389660
-0.150756 -0.396134 -0.204385
-0.105987 -0.136281 -0.426059
-0.043935 0.256900 0.361879
-0.202108 -0.425354 -0.132139
-0.158627 0.444992 0.026596
0.211127 -0.039448 -0.445599
-0.254222 0.238095 -0.378917
-0.090408 0.210309 0.390603
0.198333 -0.331785 0.294137
0.020371 -0.363543 0.254212
0.025197 -0.304648 -0.326646
-0.123823 0.082249 -0.439996
0.154800 0.382251 0.226954
0.222428 0.063988 0.438535
0.286449 0.370131 -0.250380
-0.092081 0.374610 -0.243789
0.171578 -0.061830 0.438714
0.035188 0.137306 0.421705
0.245033 0.419528 -0.152652
0.232564 -0.428105 -0.122669
0.000126 0.325081 -0.307238
0.238742 0.298094 -0.333356
0.047729 0.194396 -0.403065
0.087893 0.123581 -0.430046
-0.276710 0.406966 -0.183949
-0.163354 0.441572 0.059101
0.123662 0.295077 -0.336016
0.176691 -0.088665 -0.438445
-0.167374 0.385735 -0.225416
-0.113959 -0.442370 0.043503
0.083311 0.180680 -0.409325
0.066216 -0.392177 0.207798
-0.112198 0.097941 0.432248
-0.185721 0.405245 -0.187926
0.001150 0.405305 0.183435
-0.161651 -0.372698 -0.245094
-0.133342 -0.430884 -0.113106
-0.257094 0.067751 -0.442292
0.240943 0.444965 0.026886
0.092927 -0.108643 -0.433980
-0.196642 0.165193 -0.416027
-0.131874 0.445754 0.003992
-0.222282 -0.444155 -0.026600
-0.188237 -0.422282 0.137803
-0.093188 -0.228411 -0.384038
-0.233125 -0.414983 0.158076
0.016415 0.418977 0.149830
0.175596 -0.441841 0.049093
-0.187749 -0.099624 0.431642
0.267959 -0.052982 -0.444320
0.282882 -0.382842 0.224221
-0.235272 0.352251 0.270764
-0.095107 -0.347779 0.275208
-0.004273 -0.033185 -0.446191
0.077163 0.439663 -0.075503
0.188366 0.442375 0.054031
0.205371 -0.106369 0.430134
0.057939 -0.430273 -0.115207
-0.242484 0.439973 -0.073547
-0.187834 -0.437546 -0.082400
-0.268651 -0.410941 -0.172396
0.265073 0.410011 0.172559
0.228968 0.444941 0.027136
-0.058085 -0.385681 -0.223775
0.246630 0.007884 0.443027
-0.146663 0.433824 -0.104583
0.224852 -0.241015 -0.376332
0.247274 -0.421087 0.141122
0.195032 0.440454 -0.070513
0.121115 -0.444276 -0.022755
0.160879 -0.349251 0.273310
-0.029770 0.437847 -0.086585
0.010134 0.052059 0.440151
0.237267 0.423055 -0.142855
-0.234756 0.442187 -0.059571
-0.169990 -0.150512 -0.420995
-0.262444 -0.372139 0.241564
-0.274000 0.391523 0.211093
-0.002929 -0.444723 -0.008532
0.140029 -0.362805 0.255299
-0.037086 -0.434795 0.091302
0.164033 0.185520 0.402877
0.114496 0.107904 -0.434374
-0.169023 -0.390434 0.211219
0.086278 -0.363843 -0.258124
0.124654 -0.419018 0.146868
0.174230 0.444157 0.035435
-0.168206 0.444795 -0.033043
0.269024 0.394251 -0.210092
-0.157641 0.410028 0.172521
0.026359 -0.405467 -0.185045
0.195774 -0.200839 -0.399260
0.160881 -0.041389 -0.445416
0.222204 -0.217947 -0.390226
0.128154 0.108142 -0.434321
-0.263345 0.305724 -0.326595
0.201505 0.443427 0.043157
0.110893 -0.181788 0.404048
0.035664 -0.299680 -0.331054
-0.217562 0.169846 -0.414013
-0.288681 -0.411535 -0.171023
-0.124384 -0.243316 0.370415
0.067069 -0.443481 0.031745
-0.003241 0.064690 0.438424
0.078239 0.091534 -0.438033
-0.162580 -0.441531 -0.056729
0.017668 -0.444491 0.011550
0.113635 0.264895 -0.360553
0.148507 0.227352 0.380916
0.183204 -0.438595 0.071426
0.273153 -0.270358 -0.355521
0.135869 0.138339 0.421393
-0.260563 -0.345244 -0.282829
0.027949 0.445597 -0.013320
-0.192915 -0.350970 0.271094
-0.002713 0.445815 0.002034
0.209440 0.042851 -0.445374
0.285196 -0.405262 0.181165
0.239806 -0.417754 0.150379
-0.115476 0.441938 0.056787
0.191851 -0.373948 0.238901
-0.148605 -0.444616 0.007592
-0.259368 0.410432 0.171586
-0.216647 -0.190554 0.400147
0.044366 -0.437917 -0.080060
0.285593 -0.322443 -0.308851
-0.054177 -0.411104 0.167665
0.206946 0.297845 0.329222
-0.012570 -0.114438 -0.432405
0.077384 0.202136 0.394768
-0.048653 0.020586 -0.446981
-0.037958 -0.424266 -0.135883
-0.103447 -0.233959 0.376403
0.218504 -0.351466 0.270455
0.273362 -0.192957 -0.403276
-0.031718 0.146183 -0.422922
0.065463 -0.385521 -0.224044
-0.068667 -0.439782 -0.068282
-0.035838 0.044293 0.440885
-0.028096 -0.157223 -0.418578
-0.290197 0.259680 0.359990
0.149878 -0.017011 -0.447061
0.085350 -0.338773 0.286210
0.065100 -0.367098 0.248982
-0.164950 -0.350882 0.271208
0.030025 0.333325 0.293552
0.004317 0.269532 0.352603
0.241920 -0.369855 -0.249278
-0.039615 -0.420932 0.141553
-0.028126 0.445919 -0.001281
0.151528 0.172818 -0.412727
-0.195983 0.251637 -0.369810
-0.071842 -0.023088 -0.446870
-0.121589 -0.441967 -0.052111
0.048907 0.310972 -0.321346
0.010871 0.226499 0.381421
-0.288612 0.367264 0.250245
0.081067 -0.187011 -0.406142
-0.118322 0.408178 0.176796
0.070899 0.113920 -0.432853
0.113898 -0.441417 0.053583
0.189448 0.306993 0.320972
0.166695 0.442505 -0.057261
-0.202053 0.397045 0.200256
-0.134795 -0.417115 -0.156506
0.101630 -0.441507 0.052631
-0.159654 0.433673 -0.105257
-0.165236 0.035638 0.441703
0.158812 -0.426184 -0.129283
0.026973 -0.433766 0.095905
-0.035861 0.087312 0.434623
-0.112124 -0.117946 -0.431385
-0.249737 0.416306 0.157247
0.039197 0.199348 0.396188
0.151701 -0.440877 0.057018
-0.001835 0.084003 0.435363
-0.248494 -0.196962 0.396882
-0.228433 0.286340 -0.343718
0.118510 0.444687 0.029827
0.031471 0.281893 0.343015
0.281933 0.012089 0.442895
-0.214877 -0.407487 -0.180377
0.233695 0.064423 0.438466
-0.121050 -0.444352 -0.020336
0.012702 0.445923 -0.002950
-0.106960 -0.255352 -0.366589
-0.101517 -0.444351 0.016008
0.016708 -0.284105 0.340432
-0.015454 -0.422511 0.137165
0.231882 -0.406947 -0.181624
0.075987 -0.362985 0.255033
-0.061241 0.386602 0.219596
-0.078724 -0.436882 0.081966
0.218482 0.103515 0.431002
-0.242329 0.315235 -0.317083
0.038385 0.431575 -0.114255
0.115800 0.176241 0.406893
0.253632 -0.415283 -0.161596
0.134102 0.294222 -0.336769
0.039350 0.443743 -0.044169
0.271032 -0.419949 0.144283
-0.257025 -0.420515 -0.147063
0.258336 -0.434094 -0.098792
0.219948 0.001137 0.443239
0.119250 0.339088 -0.291368
0.229946 -0.110465 0.429205
0.099021 -0.205653 -0.396807
-0.122338 0.238199 -0.378855
0.125760 0.410372 0.171726
-0.110565 0.432191 -0.111887
-0.119098 -0.260373 -0.363176
0.171298 -0.360103 0.259274
0.282729 -0.320174 0.306766
-0.137325 0.415749 -0.163147
0.272957 -0.221282 0.383900
-0.020229 -0.186015 0.402219
-0.245020 0.130801 0.423595
0.172572 0.436788 0.086969
-0.219617 0.444112 -0.040266
0.260075 0.414876 -0.165572
0.004443 0.311638 0.316327
0.103793 0.383038 -0.229976
0.266416 0.415029 0.160794
-0.254103 0.311423 -0.320896
-0.107394 0.075885 -0.441004
-0.089270 -0.399117 0.194178
-0.005860 0.158885 -0.418349
-0.255974 0.423796 -0.140796
-0.179468 0.444450 -0.036689
0.147643 -0.189897 -0.404835
0.224790 0.398184 0.198019
0.232184 0.290377 -0.340159
-0.177175 0.417959 -0.157010
-0.198039 0.440137 0.068163
0.201584 0.030369 -0.446554
-0.005535 -0.389598 -0.217151
-0.010149 0.379946 -0.235205
-0.239501 -0.444816 -0.005581
-0.069761 0.426640 0.126887
0.227278 0.417570 -0.158090
0.208871 -0.039458 0.441245
0.195623 0.440785 0.064071
0.141194 -0.441227 -0.059161
0.286411 0.425039 -0.136751
0.189028 0.185296 -0.407327
0.114644 -0.347228 -0.280271
-0.062329 -0.041845 0.441019
0.058436 -0.293779 0.331903
-0.153829 -0.420248 -0.147805
-0.033466 -0.386197 -0.222902
-0.236297 0.022383 -0.446925
-0.080781 0.079575 -0.440419
-0.267959 0.280394 -0.348531
-0.072129 0.062696 -0.443093
0.183401 0.091998 0.433576
0.008128 -0.400485 -0.195847
-0.065644 0.414533 -0.166463
0.159741 -0.002276 -0.447524
-0.276871 0.178243 0.406026
-0.059350 -0.059713 -0.443403
0.142894 0.117590 0.427433
-0.059513 -0.439331 0.066779
0.149735 -0.173767 0.407519
-0.105181 -0.206517 0.392013
0.050039 0.341032 0.284810
0.129482 -0.444845 0.000308
-0.146523 0.280310 -0.348596
0.282397 -0.414324 -0.164260
0.165349 0.365978 0.252137
0.226219 0.009083 -0.447342
-0.098724 -0.368509 -0.251258
-0.215438 -0.330878 0.295165
0.020550 0.283533 0.341743
0.085660 -0.318926 -0.312368
0.227266 -0.443057 0.036231
0.127441 0.437274 -0.089150
-0.066946 0.323694 0.304271
0.010536 0.290645 -0.339923
0.245138 0.421874 0.141781
-0.205540 -0.432448 0.101799
0.077771 0.243613 0.370909
-0.104689 0.096458 -0.436933
-0.038114 -0.370402 0.244119
0.139919 0.393906 0.206415
-0.011218 -0.103372 -0.435158
0.129133 -0.295770 0.330148
0.169684 -0.444448 0.012932
0.009348 0.138372 0.421381
0.185072 0.398431 0.197534
-0.238218 -0.015875 -0.447097
0.161968 0.088357 0.434390
-0.154114 -0.296665 -0.333712
-0.226556 0.438687 -0.081671
-0.122721 -0.294701 0.331090
-0.150566 -0.412057 0.165462
0.057802 0.438592 0.077912
0.115964 0.443089 -0.051082
0.148307 0.404168 0.186061
0.242014 0.199503 -0.400463
0.046109 0.090157 0.433987
-0.020903 -0.444715 -0.008779
0.134113 -0.157196 -0.418588
0.013160 -0.254028 0.363135
0.203984 0.444074 -0.040665
-0.233856 -0.300679 -0.330174
0.212009 -0.299674 -0.331059
0.134614 -0.200178 0.395243
-0.090872 -0.148036 -0.421886
0.178941 0.221308 0.384491
-0.252481 0.438953 -0.079987
-0.005401 0.442105 0.055737
0.101101 -0.408297 -0.178504
0.259131 0.100699 0.431631
0.004166 0.413251 -0.169425
0.247203 -0.434973 -0.094859
0.275535 0.204476 -0.397929
0.155238 0.440073 -0.072918
-0.133070 0.426202 -0.132747
-0.186567 0.161100 -0.417551
-0.264838 0.426032 0.128980
-0.133410 -0.120003 0.426434
-0.166945 0.387928 0.217354
-0.258018 -0.136825 -0.425901
0.012523 -0.360419 -0.263163
0.127713 0.443170 -0.050233
0.088433 0.207924 -0.396172
0.073097 -0.372825 0.240555
-0.137416 -0.333811 -0.296192
0.105944 -0.336190 -0.293494
0.116769 -0.428506 -0.121289
-0.176417 -0.418380 0.148641
0.068025 0.433929 0.099759
-0.254550 0.405690 -0.186899
-0.286428 -0.225641 0.381322
0.221708 0.396965 -0.204766
0.039735 -0.040850 -0.445467
0.240025 0.438387 0.079210
0.141126 0.445867 -0.004745
-0.178231 -0.433927 0.095182
-0.290158 -0.126179 0.424640
-0.113861 -0.034447 0.441719
-0.179099 -0.293188 -0.336777
-0.237243 0.444465 -0.036529
0.258629 -0.022413 0.442538
0.231174 0.437164 -0.089640
0.194586 -0.278195 0.345089
-0.059297 0.150909 0.416867
0.035494 0.031448 0.442099
-0.259366 0.420193 -0.150803
-0.019520 0.414527 0.162124
-0.224935 0.076401 0.436569
0.118680 -0.145372 0.418491
-0.146885 -0.310421 -0.320873
0.024795 0.083550 -0.439790
-0.137235 -0.413505 -0.166470
0.064138 -0.405938 0.179604
0.248751 -0.342315 0.282192
-0.008898 -0.359588 0.259984
0.248591 -0.290217 0.335044
0.217842 -0.312140 0.314800
-0.062643 0.023859 0.442525
-0.013559 0.195644 -0.402429
0.219189 0.410396 -0.176023
-0.071304 0.161726 0.412973
0.108100 -0.420014 -0.148454
0.079823 0.414578 0.162005
-0.286787 0.223617 0.383125
0.082878 -0.112707 0.428554
0.105459 -0.181202 -0.408655
-0.250307 0.435688 0.091889
0.020550 -0.110633 -0.433510
-0.078371 -0.291168 -0.338558
0.229307 -0.267250 0.353578
0.134343 -0.287075 -0.342167
-0.111740 0.343951 0.281465
0.144053 -0.371985 0.241790
0.286080 -0.351118 0.270904
-0.252346 -0.393117 -0.210307
0.145039 0.294744 0.331955
-0.050837 0.013379 0.442854
0.110892 0.428143 -0.126067
0.018466 -0.349542 -0.277288
0.084930 0.052002 0.440156
-0.274181 -0.395914 -0.204817
-0.065933 0.094591 0.432996
0.221807 -0.436309 0.084529
-0.052458 -0.381683 -0.230534
-0.184807 -0.143320 0.419230
0.111422 -0.314309 -0.316984
0.208968 -0.065878 -0.442426
-0.173473 0.441521 0.059419
0.182773 0.120400 0.426617
0.019414 -0.391789 0.208559
0.125575 -0.186206 0.402137
-0.266720 0.233934 0.377024
-0.148274 -0.235894 0.375259
-0.255984 0.074991 0.436792
-0.041992 0.376392 -0.241166
-0.226295 0.443082 0.046808
-0.056303 0.443326 -0.048574
-0.154819 -0.444169 -0.026171
0.234683 0.393335 0.207536
0.015418 0.398459 -0.201834
-0.237818 -0.356772 0.263614
0.097705 -0.444191 0.021095
0.254372 0.018408 0.442696
-0.103081 0.132868 0.422995
0.077806 0.201841 -0.399271
-0.006178 0.256674 0.362034
0.284491 -0.401473 -0.193906
0.269923 0.404912 0.184343
-0.093484 -0.380620 0.227978
0.173304 -0.423184 0.135254
0.244350 0.236152 -0.380066
-0.110877 0.435216 0.094002
-0.187816 0.414740 -0.165950
-0.101381 0.229389 0.379712
0.058451 0.435919 0.090859
0.000831 0.434627 0.096635
-0.257475 0.443789 -0.043683
-0.229895 0.397710 -0.203303
-0.196733 -0.051926 -0.444420
0.043354 -0.373341 0.239795
-0.023358 0.033514 -0.446257
-0.074707 0.409245 0.174330
0.020085 -0.103732 0.430724
-0.172774 -0.229798 -0.383217
0.143561 -0.345927 0.277596
-0.284470 0.011125 0.442925
0.064684 0.003565 0.443162
-0.079993 0.352219 0.270805
-0.171276 0.433587 -0.105642
0.080651 0.304772 -0.327468
-0.191284 0.185798 -0.407110
0.063725 -0.230258 0.378592
-0.214913 0.323645 0.304320
0.219189 -0.409659 0.171004
0.045960 -0.331275 0.294715
0.142882 0.089727 -0.438437
-0.023315 -0.396808 0.198709
-0.056350 0.379115 0.232256
-0.138020 0.439261 -0.078042
-0.122212 -0.158881 0.413628
0.133951 -0.415325 -0.161479
0.270399 0.445260 0.019684
0.070222 -0.046987 0.440533
0.279639 0.445743 0.004327
-0.198797 -0.001440 0.443197
0.138863 0.437427 0.084110
0.262785 0.161552 -0.417389
-0.168420 0.102026 0.431334
0.132061 -0.359479 0.260125
0.187270 0.414506 -0.166526
0.089796 -0.068005 0.437736
0.167113 -0.105367 0.430359
-0.190731 -0.411704 0.166278
-0.237001 -0.403946 -0.188560
0.061662 -0.056531 -0.443907
0.107096 0.249345 0.367014
0.037332 -0.395215 0.201835
-0.146429 0.051927 0.440163
0.096196 0.398724 -0.201314
0.044274 -0.389868 -0.216683
0.166171 -0.444177 -0.025899
0.148165 -0.383395 0.223286
-0.069833 -0.444045 0.025739
-0.114365 -0.444176 0.021569
-0.278968 -0.277164 -0.350242
0.032519 0.403053 -0.192817
0.212622 -0.393505 0.205191
-0.030794 0.047050 -0.444978
-0.000236 -0.420423 -0.147319
0.112080 0.394676 0.204905
0.156986 -0.412652 -0.168442
0.097571 0.288696 -0.341641
-0.020700 0.205824 0.392889
0.215621 0.154833 -0.419808
0.161998 0.400800 -0.197238
0.033159 0.125712 -0.429427
0.058395 0.208676 -0.395789
0.017393 -0.391026 -0.214410
-0.266047 -0.317811 -0.313483
-0.037852 0.444173 0.035269
-0.017803 -0.080538 -0.440105
0.039914 -0.100013 -0.435909
-0.213487 0.287702 0.338164
0.089691 -0.399839 0.192761
-0.048020 0.161234 0.413150
0.248409 -0.437963 -0.079772
-0.058276 0.118446 0.427185
0.136992 -0.444263 -0.023172
-0.002509 -0.216236 -0.391238
0.141382 0.375432 0.238226
-0.142530 -0.279779 -0.348214
0.174899 0.374972 -0.243257
0.049059 -0.310084 0.316856
0.049082 -0.050916 -0.444515
-0.178740 0.444847 0.028140
0.088936 0.247024 0.368592
0.217110 -0.019458 0.442631
-0.080730 -0.098800 0.431826
-0.109071 -0.436377 0.084225
-0.289475 -0.297914 -0.332611
-0.020027 0.443577 -0.045927
0.165555 0.445419 -0.018976
-0.221188 0.021259 -0.446960
-0.050784 0.036861 -0.445941
0.067488 -0.001067 -0.447562
-0.185907 -0.162063 -0.416836
0.226348 0.279161 0.345134
0.071951 0.302328 0.325269
0.130101 0.324362 0.303603
0.012169 -0.374372 -0.242631
-0.141797 -0.158436 -0.418141
0.053871 -0.417680 0.150585
0.249014 0.442236 -0.059263
0.148676 -0.403879 0.184361
0.062745 0.081465 0.435767
-0.151734 0.442265 0.054728
0.076228 0.425672 -0.134572
-0.152225 -0.322222 -0.309072
0.020448 0.230564 0.379017
-0.192806 -0.129763 -0.427952
0.059958 0.388552 0.216299
-0.223105 0.440666 -0.069173
-0.186217 0.441118 0.061963
-0.201805 -0.443647 -0.034344
0.201690 -0.408537 0.173598
0.153463 -0.444693 -0.009481
-0.179423 -0.377031 -0.238400
0.063435 -0.413208 -0.167157
-0.134527 -0.243463 0.370315
0.093398 -0.429337 -0.118430
0.248420 0.407563 -0.182570
-0.149567 0.397128 -0.204445
0.042302 0.406078 0.181649
0.177508 -0.265431 0.354990
0.043174 -0.416177 0.154759
-0.227486 -0.335015 0.290473
0.167293 -0.247009 0.367905
-0.118375 -0.339502 0.285383
0.139187 -0.086827 0.434503
0.065324 0.436937 -0.090654
0.215367 -0.444134 -0.027258
0.173598 0.036081 -0.446014
-0.251941 0.276087 0.347519
-0.179496 0.445431 0.014250
-0.045243 0.216521 -0.391676
-0.044510 -0.441856 0.048934
-0.140154 -0.010879 0.442900
0.071081 0.225606 -0.386303
-0.270693 0.315856 -0.316463
-0.005828 -0.221388 0.383838
-0.023408 0.439734 0.070703
0.161049 0.102489 -0.435584
-0.059217 -0.319383 0.307557
0.080332 -0.237996 -0.378369
0.019239 0.076242 0.436594
-0.227679 -0.411454 -0.171210
-0.088089 0.441871 0.057211
0.019642 -0.408553 -0.177915
-0.004661 -0.367857 -0.252219
-0.203136 -0.194606 0.398082
0.112711 -0.025585 -0.446792
-0.069199 0.154888 -0.419788
0.105019 0.220918 0.384722
0.108247 0.208203 -0.396030
-0.227134 0.146124 0.418590
-0.130109 0.247350 0.368370
0.197742 -0.312206 0.314734
0.194386 -0.256384 -0.365887
0.186544 -0.421438 -0.144500
-0.077997 -0.444048 -0.030010
-0.001370 0.299811 -0.331842
-0.054197 -0.304678 0.322263
-0.113406 0.430947 0.112061
-0.040714 -0.274291 -0.352471
0.143568 -0.412511 0.164413
0.131018 -0.444015 0.026095
0.048753 0.322711 -0.309608
-0.031090 0.119969 0.426742
0.033936 -0.014565 -0.447138
0.146615 -0.139243 -0.425052
-0.136949 0.276504 -0.351548
-0.101661 0.429520 -0.121327
0.255828 0.240067 -0.377673
0.158352 0.443353 -0.048295
0.093164 0.404385 0.185559
-0.214682 -0.201388 0.394626
-0.216833 0.442874 0.049009
-0.019958 0.441483 0.059660
0.086392 -0.126438 0.424565
-0.105549 0.289934 0.336196
-0.109689 -0.301850 -0.329141
0.033589 -0.413126 0.162993
0.020739 -0.337863 -0.291595
-0.060858 -0.146536 0.418072
0.235991 0.443958 -0.041896
-0.210047 0.117524 0.427452
0.241138 -0.139676 -0.424896
-0.025962 0.431716 0.109416
0.221887 -0.129486 0.423679
-0.095137 -0.206766 0.391886
0.239614 0.377269 0.235378
0.185740 0.432851 -0.108937
-0.134446 0.103117 0.431090
0.277249 0.240860 0.372780
-0.094954 0.385771 -0.225356
0.171422 0.391312 0.211508
0.005481 -0.000196 0.443236
-0.120842 0.303222 0.324482
-0.157583 -0.403778 -0.188949
0.153543 0.306238 0.321727
-0.288629 -0.116838 -0.431707
0.207581 -0.420118 -0.148167
0.057662 -0.211317 -0.393921
0.132349 -0.024762 0.442464
0.223910 -0.183238 0.403421
0.093007 -0.144467 -0.423171
-0.140568 -0.268487 0.352619
-0.278559 0.106105 0.430422
-0.202926 -0.339870 -0.289319
0.153292 -0.407537 0.175908
-0.222203 -0.161894 -0.416897
-0.126447 0.216877 -0.391465
-0.204735 -0.410986 -0.172291
-0.203185 -0.180141 -0.409115
-0.077280 0.134540 -0.426862
0.075202 -0.406748 0.177732
-0.044251 0.315133 0.312832
-0.223141 -0.435130 -0.094154
-0.024065 -0.219871 -0.389088
0.224715 -0.021098 -0.446933
-0.143215 0.294874 -0.336194
-0.057846 -0.428600 0.116613
0.078082 0.428420 0.120760
0.122067 0.232814 -0.382040
-0.149608 -0.032261 0.441925
0.007186 0.445642 -0.011898
0.072261 0.234972 -0.380763
-0.246970 0.352386 0.270590
-0.129970 -0.293296 -0.336682
0.272317 0.315690 0.312275
0.024015 -0.370458 -0.248391
0.052984 -0.086389 -0.438954
-0.089563 -0.029697 -0.446521
-0.024592 -0.438174 -0.078438
0.079837 -0.268151 0.352879
-0.253781 0.362953 0.256589
-0.102843 -0.007279 -0.447367
0.269961 0.222110 -0.388370
-0.113168 -0.399096 0.194219
-0.133458 -0.426620 -0.127780
0.017356 -0.265348 0.355054
-0.279218 -0.124599 0.425099
0.089967 -0.443674 0.029703
0.230354 -0.161436 -0.417061
0.112978 0.386337 0.220045
0.268364 -0.150560 -0.420977
0.130028 -0.011259 -0.447242
-0.198114 -0.362459 -0.260161
0.000319 -0.237082 -0.378910
0.245208 -0.313041 0.313900
0.271198 0.249713 -0.371117
0.065556 -0.304709 0.322232
-0.260918 0.358978 -0.266444
0.090601 0.343732 0.281746
-0.157223 -0.423676 -0.137914
0.014094 0.272668 -0.354524
0.119972 -0.116729 -0.431739
0.080990 0.051492 -0.444558
0.161071 0.211976 0.389754
0.057086 -0.441481 0.052899
0.180759 -0.409400 -0.175957
-0.071730 0.143557 0.419514
-0.135589 0.061014 -0.443359
0.097184 0.300180 0.327163
0.043969 0.223582 0.383146
0.052560 0.411244 -0.174063
-0.142507 0.299044 0.328164
-0.098316 0.288190 -0.342088
0.262197 -0.444072 -0.029241
-0.080276 -0.136282 0.421705
-0.016754 -0.101535 0.431215
0.204340 0.445709 0.005421
-0.261519 -0.310803 0.316137
-0.052938 -0.003528 0.443131
-0.002676 0.129242 -0.428401
-0.265312 -0.083627 0.435218
-0.084825 -0.383780 0.222636
-0.021300 -0.309298 0.317642
0.046598 -0.444564 0.009235
-0.249959 -0.108483 -0.434015
-0.274245 -0.337812 -0.291654
-0.232213 0.417251 -0.158977
-0.157261 -0.014546 0.442785
0.249008 0.416445 -0.161215
0.037411 -0.240353 0.372429
-0.232920 -0.393984 0.204252
0.132296 0.407664 -0.182337
-0.203537 0.257112 0.361735
-0.103684 0.416839 0.155767
-0.207158 0.212901 -0.393636
-0.185741 0.039942 -0.445649
-0.085869 -0.325045 -0.306135
-0.147439 -0.369096 0.246041
-0.119747 -0.076841 -0.440690
-0.113326 0.214335 -0.392905
-0.221019 0.207339 -0.396470
-0.094651 -0.253117 -0.368108
-0.252572 0.190818 0.400534
-0.141279 -0.207555 0.391485
0.062656 0.255588 0.362771
0.073169 0.383190 -0.229719
-0.008374 -0.111836 0.428807
-0.003401 -0.139714 0.420528
0.261475 0.431925 -0.113049
0.235579 -0.336750 0.288505
-0.236665 -0.444549 0.009708
-0.274188 0.445435 -0.018483
-0.208658 0.368772 0.248026
0.095954 0.363240 -0.260520
0.051513 0.190900 0.400493
-0.231271 0.241073 -0.376989
0.052049 -0.437186 0.080322
0.105640 0.373400 -0.245570
0.034666 -0.219923 0.384704
-0.068350 -0.224567 0.381957
-0.155237 -0.228178 0.379822
-0.165120 -0.269368 -0.356289
-0.205684 0.230541 0.379031
0.254331 0.442589 0.052019
-0.115972 0.422126 0.141082
0.240224 0.201490 0.395097
0.166661 -0.371950 0.241842
-0.231627 0.162339 -0.417105
0.207549 0.184697 -0.407586
-0.136743 -0.358202 -0.266124
-0.153323 0.354047 0.268449
-0.135844 0.081282 -0.440149
-0.203321 -0.444450 -0.017205
0.243967 -0.034882 -0.446031
-0.216647 -0.161949 0.412523
0.180446 0.417453 0.154061
0.074486 -0.301510 0.325087
0.169806 -0.444901 -0.001493
-0.287150 -0.100098 0.431536
-0.284310 -0.263815 -0.360597
0.070116 -0.427647 -0.124245
0.275201 0.425642 -0.134677
-0.008694 -0.086823 -0.438857
0.021961 -0.220213 0.384533
-0.184615 0.354568 0.267776
0.008732 -0.375284 0.236935
0.168280 0.252798 -0.369021
-0.035475 0.033707 0.441885
-0.262240 0.122023 0.426145
0.101309 0.089428 -0.438504
-0.223187 -0.017114 0.442704
0.076792 0.440757 0.064247
-0.260534 -0.353170 0.268258
0.270911 0.042929 -0.445367
0.114575 0.310981 0.316984
0.208864 -0.318081 -0.313213
0.074885 0.133874 0.422702
-0.288166 -0.024999 0.442457
-0.138008 -0.402094 -0.192688
-0.272906 -0.052230 -0.444391
-0.142951 0.408514 0.176018
-0.223382 0.222688 0.383675
-0.248800 0.411047 0.170165
-0.276772 0.443366 -0.048154
0.252437 0.246534 0.368924
-0.085441 -0.155255 0.414934
-0.279571 -0.358549 -0.265677
0.164577 -0.228306 -0.384100
-0.248659 -0.253601 -0.367779
-0.069987 -0.423906 -0.137125
-0.067253 -0.392612 0.206944
0.225540 0.445404 -0.019459
0.013494 -0.101242 -0.435634
0.276575 -0.442018 0.047218
0.037626 0.324179 -0.308140
0.228093 0.435290 0.093670
-0.057255 0.193801 0.399015
-0.133572 -0.209658 -0.394766
0.220865 -0.084574 -0.439360
-0.146255 0.445287 0.018834
0.165430 -0.322136 0.304804
0.064195 0.431483 -0.114569
0.115996 0.285997 -0.344021
-0.126037 -0.228237 -0.384141
0.257723 0.403787 -0.191296
-0.072079 0.266078 -0.359636
0.080220 -0.193184 0.398807
-0.287414 0.310576 0.317389
-0.066448 -0.089994 -0.438148
-0.193385 0.001316 -0.447587
0.239138 0.440449 0.066191
0.247032 0.435871 0.091073
-0.239659 0.330546 -0.301058
0.145074 0.067079 -0.442399
-0.009422 0.366452 0.251439
-0.047853 -0.444379 0.015119
-0.042233 0.409704 -0.177621
0.111985 0.444245 -0.038852
0.226025 0.192038 0.399913
0.182568 0.346143 -0.282992
0.031791 -0.390550 -0.215345
0.001018 -0.350358 0.271884
-0.060951 0.160325 0.413477
0.244114 0.182805 0.404052
0.171015 -0.438107 0.074505
-0.126888 0.179734 -0.409734
-0.202966 -0.442019 0.047216
-0.237684 -0.382478 -0.229190
0.175329 0.359760 -0.265437
-0.234529 -0.129750 -0.427956
-0.029122 0.384602 0.222978
0.105342 0.179010 0.405694
-0.072327 -0.420071 -0.148298
0.283193 -0.267050 -0.358087
0.099455 0.331502 0.295620
-0.066919 -0.237912 0.374065
0.079097 0.382097 0.227215
0.151547 -0.377653 0.232995
0.108050 -0.444096 0.024141
-0.208621 0.056520 0.439717
0.229065 0.054354 0.439934
0.285873 -0.441092 0.055662
0.230623 0.164406 -0.416361
-0.096583 -0.317918 -0.313375
-0.088891 -0.067021 0.437892
-0.168081 -0.358964 -0.265142
0.048629 0.281726 0.343145
-0.288447 0.439164 -0.078654
-0.066675 -0.364890 -0.256584
0.120526 -0.032382 -0.446267
-0.092816 0.147910 -0.422300
-0.223822 0.231055 0.378727
0.120337 0.406812 -0.184304
0.251110 0.378274 0.233678
0.272635 0.344273 0.281049
0.229924 0.394052 -0.210483
-0.260138 0.428585 -0.124544
0.169482 0.318674 -0.313645
0.068256 -0.087694 -0.438662
0.214516 0.444964 -0.031253
0.245894 -0.214612 0.387845
-0.108071 0.439806 -0.074605
-0.000257 0.368334 -0.253024
-0.121401 -0.147311 0.417793
0.224745 -0.405533 0.180540
0.105776 -0.168136 0.409956
-0.138745 -0.316366 0.310575
-0.169880 -0.254650 0.362712
0.007415 -0.036688 0.441507
-0.111815 0.437854 0.082200
0.023354 -0.257136 0.361023
-0.020785 -0.070856 0.437285
-0.039886 0.438515 -0.082756
-0.238466 -0.365602 0.251182
-0.178815 0.320002 -0.312317
-0.010764 0.445505 0.011896
0.267130 -0.404412 -0.187483
-0.086483 0.444850 0.028101
0.135011 0.049077 -0.444786
-0.253868 -0.083002 -0.439711
0.181071 -0.370670 -0.248079
0.080035 0.170056 -0.413922
0.086676 -0.393894 0.204428
-0.274521 -0.103964 0.430672
-0.273967 -0.005826 0.443059
0.005459 -0.356652 0.263769
0.009983 0.297836 -0.333583
-0.104679 0.206875 -0.396707
-0.286591 -0.427531 -0.124646
0.000969 -0.373078 -0.244535
-0.188725 -0.042436 0.440963
-0.001522 0.363337 0.256024
0.115249 -0.051569 -0.444453
-0.191690 0.127943 0.424425
0.240703 -0.073446 -0.441228
-0.066752 0.351171 -0.276509
0.009327 0.154887 0.415435
0.110086 0.268907 0.353088
0.068481 -0.134919 0.422101
-0.173111 0.246383 -0.373380
0.116803 -0.435185 -0.093908
-0.250284 -0.224156 0.382201
0.183119 0.062970 0.438696
-0.216527 -0.304000 0.322892
0.154919 -0.092593 0.433214
-0.129225 0.125982 0.424995
-0.031394 0.063972 0.438537
0.035670 -0.147591 -0.422046
0.221214 0.421521 -0.147116
-0.269608 -0.356709 -0.268049
-0.167440 -0.061839 0.438713
-0.117223 0.394219 -0.210156
0.202306 -0.343449 0.280790
0.084083 0.362296 0.257556
0.110859 0.441621 -0.063143
0.281888 -0.021571 0.442564
0.266513 0.334455 -0.296624
-0.228481 0.404412 0.185497
-0.187374 -0.166515 0.410658
0.103824 0.244654 -0.374555
0.232606 -0.133703 0.422454
-0.195637 0.091458 -0.438050
-0.234730 -0.298970 0.327327
-0.035590 0.442778 0.050027
0.017339 -0.278596 -0.349131
-0.045385 0.357170 0.264422
0.055277 -0.141772 0.419788
0.154610 -0.392760 0.206654
-0.091867 0.403901 0.186678
-0.101249 0.279169 -0.349482
0.041214 0.401662 0.191193
0.032416 0.208370 -0.395945
0.081462 0.150910 0.416867
0.051237 0.445467 0.013114
0.120636 0.214621 0.388406
0.068429 -0.314869 0.312071
-0.154476 0.077025 0.436470
0.065318 0.152080 -0.420799
0.005236 0.417801 -0.157447
-0.168425 0.315755 0.312211
0.124978 0.223289 0.383320
0.216617 0.240253 0.373193
-0.252318 -0.293514 -0.336490
-0.270133 0.398966 0.196485
-0.191278 0.403298 0.187983
0.072586 -0.267089 -0.358057
0.003619 0.402766 -0.193380
-0.211470 -0.112996 0.428470
0.285602 0.444106 -0.040332
0.023458 -0.321221 0.305719
0.057913 0.064654 0.438429
-0.001241 0.025374 -0.446830
-0.096536 -0.284688 -0.344271
0.171626 -0.387866 0.215726
-0.013743 0.391581 -0.215332
-0.085504 0.379035 -0.236745
-0.175202 0.272823 0.350051
0.067364 0.327014 0.300710
-0.211955 0.443032 -0.051694
0.228194 0.325627 -0.306637
-0.153007 0.428404 -0.125167
0.091750 -0.256246 0.361628
0.012634 -0.369967 0.244760
-0.260503 0.419190 0.149238
0.041734 0.256014 0.362482
-0.013779 -0.410797 -0.172727
-0.029411 0.386615 -0.223928
-0.234657 0.422236 0.140775
0.250216 -0.028903 0.442243
0.050885 0.036561 0.441616
0.203104 0.444991 -0.030964
-0.256180 0.241577 0.372293
0.141353 -0.412162 -0.169573
0.045150 0.223364 -0.387628
0.240774 0.160040 -0.417933
-0.105610 0.440757 0.064246
-0.258261 0.219610 -0.389849
-0.136554 0.029033 -0.446681
0.127748 -0.432019 0.103721
0.183478 0.425147 -0.136379
0.061006 -0.188481 0.401152
0.037718 0.334396 -0.296690
0.068932 0.130404 -0.428064
0.242772 0.443175 -0.050178
-0.208348 0.444936 0.027190
-0.055911 -0.419260 0.146196
-0.262029 -0.226443 -0.385202
-0.259990 0.350922 0.272477
0.274986 -0.278808 -0.348966
0.153749 0.316268 -0.316051
-0.001270 0.391039 -0.216397
0.065044 -0.022354 0.442540
-0.133251 0.324883 0.303082
0.187720 -0.075300 -0.440934
-0.253972 -0.365780 0.250921
-0.015285 0.231953 0.378196
-0.063421 -0.417904 -0.154315
-0.084434 -0.442377 0.043422
-0.279679 -0.422545 0.137072
0.167059 -0.354306 0.266793
0.196004 -0.183007 -0.407874
-0.020296 0.251336 -0.370014
0.074223 -0.401584 -0.193690
0.177314 -0.244519 0.369598
-0.284597 -0.228024 -0.384266
-0.231810 -0.144769 0.418709
-0.147674 -0.218766 0.385388
0.181534 0.413099 0.165423
-0.222654 -0.398077 -0.200571
-0.153641 -0.273355 -0.353196
-0.220096 0.005814 0.443092
0.133074 -0.441670 0.050903
-0.187157 0.365823 0.252366
-0.080651 0.396718 -0.205250
-0.166395 0.445777 0.003249
0.182778 0.075352 0.436735
-0.203543 -0.236606 0.374838
-0.038298 -0.007158 -0.447371
-0.000268 -0.103456 -0.435139
-0.104324 -0.294756 -0.335395
0.043906 0.321571 0.306394
0.220751 0.129909 0.423854
-0.052485 -0.056526 0.439554
-0.251756 0.147432 -0.422472
0.120297 -0.164110 -0.416052
-0.022086 0.053727 0.439993
0.020248 -0.330880 -0.299516
-0.149087 0.154527 -0.419918
0.073106 0.353407 0.269274
0.149700 0.143329 0.419596
0.204946 0.022395 0.442571
0.043837 0.263167 -0.361894
0.048088 0.418571 -0.155309
0.234861 0.002512 -0.447549
-0.096673 -0.129687 -0.427974
-0.013927 -0.168205 -0.414280
0.166856 -0.348711 -0.278359
0.224555 -0.258520 0.360083
-0.260366 -0.122596 0.425681
-0.142843 0.420759 -0.149231
0.149684 0.438745 -0.081304
-0.133974 0.333720 0.293104
0.070384 -0.345441 -0.282576
-0.113372 -0.251117 0.365114
0.034785 -0.368829 0.246434
-0.147432 0.111219 -0.433633
-0.163703 -0.439772 -0.068351
-0.072313 -0.100078 -0.435894
-0.157552 -0.143959 0.419000
-0.176077 0.369452 -0.251380
-0.248622 0.355084 -0.271465
0.154443 0.044476 0.440867
0.047035 -0.293734 -0.336296
-0.144523 -0.441917 -0.052643
0.114663 -0.207911 -0.395656
0.061630 0.180255 -0.409509
-0.136409 0.339641 -0.290741
0.144408 0.411488 0.169147
-0.051656 0.051007 -0.444603
0.061715 0.444258 -0.038722
-0.054321 0.445527 0.011198
-0.178464 -0.437570 0.077896
-0.223503 0.197934 0.396909
-0.170525 -0.405532 -0.184894
0.051791 0.150229 -0.421465
-0.236102 0.187329 -0.406448
-0.033971 -0.206076 0.392238
-0.273572 -0.002698 -0.447511
0.012926 0.238095 0.374563
-0.191823 -0.201475 0.394582
0.038765 -0.318248 0.308693
-0.127014 -0.443765 0.028744
0.228635 -0.431380 -0.110934
0.132202 0.223353 -0.387635
-0.107461 -0.235462 -0.379868
-0.073173 0.310407 -0.321912
0.092376 0.042627 0.441042
0.171895 0.083889 -0.439736
-0.076481 -0.322379 -0.308915
0.257713 -0.090384 0.433708
-0.210733 0.418435 -0.155686
-0.131155 -0.306959 0.319981
0.171415 -0.380738 0.227780
0.137302 0.126870 0.424737
0.010139 0.194060 -0.403236
-0.126585 -0.384063 0.222156
0.049996 -0.155354 -0.419251
0.057358 -0.421778 0.139201
0.260043 -0.444429 -0.017872
0.069107 -0.426068 0.125328
0.026676 0.306097 -0.326221
0.261655 0.268295 0.353563
-0.168239 0.055553 0.439820
0.258434 -0.069981 -0.441776
0.187238 -0.154280 0.415285
-0.268742 0.253845 -0.368310
0.221611 -0.441103 0.055592
-0.258771 0.160338 0.413472
-0.085936 -0.284070 -0.344816
0.263800 -0.439606 -0.069398
0.134864 0.307312 -0.325006
0.258834 -0.385703 0.219384
0.258094 0.009414 0.442979
0.087915 -0.385902 0.219048
0.025834 0.111083 0.429310
0.043205 -0.038212 0.441363
-0.000827 0.343935 0.281484
-0.072958 0.311655 0.316310
0.077317 0.164471 0.411984
0.199897 0.000310 0.443252
-0.078534 0.214838 -0.392649
-0.215732 -0.438024 -0.079383
0.275491 -0.409507 0.171356
-0.124134 0.287561 0.338289
-0.127083 -0.395562 -0.205508
0.119760 0.359331 0.261636
-0.133945 -0.409972 0.170280
-0.200883 -0.083425 0.435263
0.059786 0.292367 -0.338405
0.270715 -0.440167 0.061498
-0.215965 0.364030 0.255004
0.187107 -0.232460 0.377289
-0.134712 -0.271900 -0.354325
-0.054621 -0.380531 0.228129
-0.070797 0.221261 -0.388872
0.035178 0.374412 0.239727
0.183334 0.010789 -0.447289
-0.178637 0.393870 0.206487
-0.121276 0.279427 0.344928
0.094731 0.392794 -0.212952
-0.290156 -0.438979 -0.073354
-0.064777 -0.030965 0.442048
-0.115476 0.020499 -0.446984
0.213200 -0.124602 0.425098
0.127110 0.350251 -0.277696
-0.174994 0.179930 0.405296
0.145679 -0.442392 0.043269
-0.044680 0.275786 0.347752
-0.225750 -0.442966 -0.041548
-0.239228 -0.429336 -0.118432
0.047588 -0.118754 -0.431151
0.132208 -0.437070 -0.085408
0.170514 -0.397766 -0.201182
0.208184 -0.154254 0.415294
-0.147382 0.228762 0.380082
-0.175766 0.402426 -0.194049
-0.016614 0.072567 -0.441529
0.277366 0.383907 -0.228507
-0.261329 -0.442699 0.040018
-0.188376 -0.326483 -0.304504
0.233646 -0.178975 0.405266
0.078300 -0.081618 -0.439933
0.098087 0.440467 0.066079
0.104327 0.434271 -0.102585
0.099208 0.445643 0.007494
0.070643 -0.088721 0.434079
-0.137961 -0.444217 0.020283
-0.103478 0.327700 0.299932
-0.228158 -0.385115 0.220378
-0.025011 0.040005 0.441290
0.096259 -0.184534 -0.407214
-0.100807 -0.192494 -0.403512
-0.213421 -0.228520 -0.383973
0.020229 -0.438888 0.069579
0.087329 -0.078867 0.436016
-0.060364 0.235233 0.376256
0.043820 0.046896 -0.444992
-0.233658 0.443547 -0.046244
-0.182967 0.347317 -0.281478
0.073479 -0.415640 0.156252
-0.283637 0.119236 0.426955
-0.073727 0.105360 -0.434943
-0.109927 0.419449 0.148517
-0.149141 0.420459 0.145712
-0.241326 0.402256 -0.194381
0.120322 -0.444623 -0.011696
-0.183962 0.159204 0.413881
0.241181 0.261161 -0.363337
0.017637 0.433958 -0.103981
-0.156195 0.092497 -0.437818
0.191082 -0.301149 -0.329758
-0.204540 -0.247854 0.367331
-0.196862 -0.218003 -0.390193
0.018420 -0.421935 0.138765
0.259981 0.444828 -0.032694
-0.146447 -0.023236 -0.446865
0.018143 0.362021 0.257960
-0.118614 -0.332139 0.293735
0.030770 0.316592 -0.315727
0.127112 0.432032 -0.112600
0.145195 0.193357 -0.403594
0.113354 0.432113 -0.112238
-0.229400 0.445470 -0.017356
-0.264805 -0.443711 0.029317
-0.004061 -0.063198 -0.442851
-0.239427 0.248857 0.367345
-0.229585 -0.182468 -0.408108
0.107625 -0.444564 -0.013587
-0.093590 -0.330760 -0.299652
-0.049935 -0.418966 -0.151367
-0.089751 -0.386448 -0.222477
-0.094472 -0.297472 -0.333001
-0.105603 0.133286 -0.427226
0.173134 0.046825 -0.444999
-0.220758 -0.065802 0.438085
-0.232292 0.134758 0.422445
0.010554 -0.074886 0.436646
-0.190165 0.050893 0.440261
-0.023823 -0.205407 0.392579
-0.024969 0.157971 0.414325
-0.192316 -0.208473 -0.395370
0.012912 -0.435021 0.090289
0.099397 -0.219576 0.384909
0.115619 -0.331619 -0.298678
-0.188129 -0.133646 0.422471
-0.090394 0.443441 0.043008
-0.231458 -0.203567 -0.397870
-0.248070 -0.444541 0.009978
0.123344 0.188162 0.401734
-0.266231 -0.093715 -0.437316
0.176201 -0.175255 -0.411229
-0.134677 0.022869 0.442556
-0.015445 -0.303372 0.323445
-0.148327 -0.429428 -0.118115
0.275232 -0.443065 0.036141
-0.103708 0.269405 -0.357055
0.271918 -0.313084 -0.318210
0.053509 -0.026741 0.442402
-0.279108 -0.424196 -0.136125
0.034410 0.235446 -0.380483
0.047902 0.113637 0.428582
-0.041685 0.430025 0.115236
0.198879 -0.145793 -0.422694
0.108046 -0.139897 0.420463
-0.056898 -0.395834 0.200621
-0.289305 0.423956 -0.140352
-0.144440 0.270645 0.351740
-0.287899 -0.424583 0.130440
0.282796 -0.287302 0.337613
0.172594 -0.393534 0.205135
0.151257 -0.432095 -0.107735
0.022933 -0.149154 0.417130
-0.155122 -0.264124 0.356003
0.285449 -0.433751 0.095970
0.179644 -0.443070 0.036088
0.132477 -0.028723 -0.446613
-0.177188 0.361070 -0.263713
-0.117272 -0.419869 -0.148857
-0.069399 0.397652 -0.203418
-0.289293 0.429964 0.115444
0.005759 -0.206221 0.392164
-0.102215 -0.434121 -0.098669
0.273785 -0.259404 0.359482
0.138029 -0.443148 0.035267
0.285043 0.445823 -0.006134
0.074949 -0.129607 -0.427998
0.210287 -0.309761 -0.321533
-0.249790 0.380872 -0.233639
-0.275942 0.436146 0.089843
0.228004 0.360137 0.260597
-0.063680 -0.403885 0.184347
0.170939 -0.404368 -0.187585
-0.139134 -0.432107 0.103326
0.018530 0.431367 -0.114969
-0.228628 -0.247296 -0.372063
0.122679 -0.354955 0.265956
0.285561 0.396092 -0.206480
-0.210242 -0.444734 0.003831
-0.176922 0.131971 0.423255
0.189298 -0.032979 0.441857
0.002416 -0.393824 -0.208918
-0.252500 -0.306524 -0.324770
-0.015691 0.240416 0.373083
-0.142397 0.402709 0.189139
-0.032842 -0.183767 -0.407545
0.082381 -0.436052 0.085677
-0.219107 -0.425788 0.126294
-0.182569 0.339152 0.286943
-0.038790 -0.253826 0.363272
-0.020301 0.099274 -0.436303
-0.168728 -0.165244 0.411208
0.246710 0.396623 0.201083
0.057805 -0.131460 -0.427459
0.126799 0.437964 0.081707
0.229437 -0.051675 0.440090
-0.271786 0.090167 0.433985
0.144970 -0.057439 0.439410
-0.263189 -0.097270 0.432168
0.009327 0.396230 0.201854
0.136418 -0.277558 -0.349936
0.283571 -0.416948 0.152617
-0.010523 -0.428808 0.115897
-0.132717 -0.376759 -0.238860
0.233173 0.388570 -0.220623
0.269646 0.085657 0.434993
-0.035600 -0.171612 -0.412805
0.171709 -0.287728 0.337238
-0.089534 -0.375473 0.236658
0.062804 0.119627 -0.431195
0.063968 -0.401942 0.188633
-0.233965 0.078966 -0.440516
-0.028885 0.227197 0.381008
0.075594 0.332660 -0.298660
0.213516 -0.208954 0.390772
-0.202780 -0.332618 0.293192
-0.258136 0.110379 0.429467
-0.043503 0.236616 0.375438
-0.278524 -0.051262 0.440129
-0.048860 0.138409 -0.425721
0.162972 0.103177 0.431077
0.252558 -0.093648 -0.437331
-0.227499 -0.337460 -0.292053
-0.066466 -0.268673 -0.356828
-0.035988 0.434482 0.097286
0.254325 -0.426636 -0.127727
-0.013678 -0.422258 -0.142223
0.091727 -0.028696 0.442262
-0.225769 -0.306913 -0.324381
0.263845 -0.193626 0.398582
-0.250060 0.445088 -0.029530
-0.126705 0.435561 -0.096811
0.141091 0.335726 -0.295182
-0.276225 0.039423 0.441345
-0.216198 -0.219321 -0.389413
-0.081697 0.400666 0.193148
-0.189147 -0.395299 -0.206023
0.030403 -0.168647 -0.414088
0.175931 -0.116845 0.427352
-0.176540 0.397287 -0.204134
-0.175212 0.022157 -0.446932
0.183820 0.368503 0.248422
0.080064 0.014321 0.442824
-0.098911 0.395749 -0.207153
-0.240760 0.264871 0.356219
-0.171484 -0.384154 0.222002
0.161115 -0.335209 0.290253
-0.053756 -0.347855 -0.279463
0.130399 -0.216255 0.386873
-0.162334 -0.332010 0.293881
0.164808 0.445678 0.006398
0.173632 0.295637 0.331169
0.264091 0.361194 -0.263530
-0.081627 0.427005 -0.129983
-0.268663 -0.338167 0.286898
0.262559 0.140506 -0.424966
-0.179480 -0.439723 0.064302
-0.258535 0.255715 0.362685
0.140212 0.330312 0.296970
0.152756 -0.049639 0.440283
-0.289463 -0.275700 0.347024
-0.244473 -0.334890 0.290615
-0.086522 0.440321 0.066997
0.231086 0.404812 0.184574
-0.135729 0.445395 -0.019767
0.009823 -0.195979 0.397383
-0.217516 -0.337465 -0.292047
-0.019227 -0.413732 0.161550
-0.216492 0.411325 -0.173876
0.090354 -0.270476 -0.355430
0.054207 0.441592 0.058973
0.047308 -0.373852 -0.243396
-0.138199 -0.000385 0.443230
0.211682 0.208457 0.391547
-0.179832 -0.346016 -0.281834
-0.177073 0.195748 0.398023
-0.072996 -0.269040 0.352190
0.188667 0.189223 0.401274
0.071818 -0.274677 -0.352171
