34.754402 6.693502 -50.317334 25.00000000
34.539908 10.107596 -6.479486 25.00000000
34.524445 10.353719 -40.279714 25.00000000
34.676150 7.939040 -6.146061 25.00000000
34.657416 8.237233 -7.633052 25.00000000
34.792641 6.084862 -5.684337 25.00000000
34.770814 6.432276 -57.218920 25.00000000
34.780966 6.270689 -32.499211 25.00000000
34.562166 9.753308 -2.810270 25.00000000
34.554104 9.881634 -37.473688 25.00000000
34.756322 6.662945 -54.883449 25.00000000
34.492317 10.865107 -58.212335 25.00000000
34.720476 7.233509 3.348639 25.00000000
34.650669 8.344617 -28.518496 25.00000000
34.690497 7.710668 -47.972651 25.00000000
34.705803 7.467057 -58.855111 25.00000000
34.671858 8.007350 -14.195028 25.00000000
34.663584 8.139048 -57.511932 25.00000000
34.591793 9.281739 -14.267690 25.00000000
34.574764 9.552792 -22.412406 25.00000000
34.601249 9.131232 -50.991840 25.00000000
34.889792 4.538505 -23.385379 25.00000000
34.778540 6.309295 -45.276846 25.00000000
34.786046 6.189822 -12.010176 25.00000000
34.869281 4.864972 -4.166959 25.00000000
34.846692 5.224529 -44.077754 25.00000000
34.462331 11.342390 -51.641023 25.00000000
34.665255 8.112460 -44.052326 25.00000000
34.532141 10.231229 -34.618385 25.00000000
34.716002 7.304709 -20.287977 25.00000000
34.814443 5.737840 -13.852989 25.00000000
34.667339 8.079274 -1.700300 25.00000000
34.549401 9.956497 -9.723894 25.00000000
34.557904 9.821154 -10.842949 25.00000000
34.524181 10.357918 -29.840612 25.00000000
34.492438 10.863170 2.728630 25.00000000
34.711606 7.374684 -38.046097 25.00000000
34.589541 9.317595 -12.259849 25.00000000
34.716934 7.289881 -41.397408 25.00000000
34.707028 7.447560 -19.999939 25.00000000
34.851753 5.143970 -19.025184 25.00000000
34.879816 4.697298 -48.093621 25.00000000
34.874024 4.789478 -5.295741 25.00000000
34.898746 4.395981 -18.144183 25.00000000
34.736847 6.972924 -33.197471 25.00000000
34.863517 4.956731 -10.298210 25.00000000
34.908132 4.246585 1.755033 25.00000000
34.632929 8.626979 -37.218137 25.00000000
34.781370 6.264253 -42.196548 25.00000000
34.855091 5.090844 -18.483445 25.00000000
34.631835 8.644404 -10.985903 25.00000000
34.732316 7.045052 -56.136565 25.00000000
34.594348 9.241069 -31.220860 25.00000000
34.536469 10.162336 -27.191409 25.00000000
34.893870 4.473597 -35.743055 25.00000000
34.613394 8.937914 -16.201889 25.00000000
34.796026 6.030973 -39.660013 25.00000000
34.820724 5.637865 -9.515250 25.00000000
34.531323 10.244237 -0.886820 25.00000000
34.454463 11.467626 -44.122683 25.00000000
34.554215 9.879867 -11.457083 25.00000000
34.574587 9.555618 -51.326875 25.00000000
34.854614 5.098440 -2.665587 25.00000000
34.670012 8.036733 -35.368530 25.00000000
34.662472 8.156743 -17.370215 25.00000000
34.640587 8.505097 -56.271223 25.00000000
34.597696 9.187791 -14.952052 25.00000000
34.866423 4.910472 -38.707020 25.00000000
34.647940 8.388056 -59.804203 25.00000000
34.604383 9.081356 -25.900145 25.00000000
34.570836 9.615323 -57.153446 25.00000000
34.745455 6.835909 -28.172168 25.00000000
34.754116 6.698060 -25.930321 25.00000000
34.835364 5.404837 0.934743 25.00000000
34.559056 9.802825 -6.469259 25.00000000
34.773155 6.395014 -43.024333 25.00000000
34.631132 8.655584 -40.711899 25.00000000
34.633765 8.613676 -14.244218 25.00000000
34.652337 8.318073 -57.755506 25.00000000
34.853960 5.108838 -37.219591 25.00000000
34.775516 6.357429 -39.166534 25.00000000
34.835138 5.408431 -28.574679 25.00000000
34.784382 6.216309 -4.044666 25.00000000
34.579498 9.477436 -18.478075 25.00000000
34.576493 9.525279 -59.691503 25.00000000
34.652986 8.307734 -13.951325 25.00000000
34.860396 5.006400 -0.837304 25.00000000
34.820673 5.638674 -41.472029 25.00000000
34.866416 4.910580 -59.368271 25.00000000
34.833035 5.441897 -57.084744 25.00000000
34.456323 11.438007 -10.583692 25.00000000
34.589350 9.320631 -9.907430 25.00000000
34.903439 4.321292 -30.184938 25.00000000
34.561003 9.771835 -17.148253 25.00000000
34.538687 10.127035 -46.544831 25.00000000
34.887617 4.573118 -40.970811 25.00000000
34.596332 9.209503 -42.380670 25.00000000
34.546211 10.007276 -57.518858 25.00000000
34.605504 9.063504 -38.626620 25.00000000
34.796062 6.030399 -58.156426 25.00000000
34.571710 9.601409 -3.230847 25.00000000
34.661592 8.170749 -7.007571 25.00000000
34.749738 6.767746 -40.073976 25.00000000
34.676543 7.932788 -41.970658 25.00000000
34.606043 9.054927 -48.281324 25.00000000
34.906858 4.266860 -38.058321 25.00000000
34.622591 8.791532 -54.268131 25.00000000
34.902967 4.328801 -4.524421 25.00000000
34.655162 8.273108 -56.942278 25.00000000
34.668776 8.056410 -47.012545 25.00000000
34.454151 11.472588 -27.535796 25.00000000
34.778124 6.315919 -34.763704 25.00000000
34.471234 11.200683 1.270533 25.00000000
34.630050 8.672804 -35.738791 25.00000000
34.616914 8.881898 -6.381320 25.00000000
34.835095 5.409116 -25.252348 25.00000000
34.561812 9.758953 -2.024313 25.00000000
34.808320 5.835292 -32.523147 25.00000000
34.821635 5.623352 -36.632794 25.00000000
34.657601 8.234277 -49.530460 25.00000000
34.885071 4.613656 -47.314634 25.00000000
34.587331 9.352772 -34.013289 25.00000000
34.587205 9.354767 -40.992453 25.00000000
34.522573 10.383520 -38.498724 25.00000000
34.820227 5.645777 -30.652234 25.00000000
34.629622 8.679616 2.415895 25.00000000
34.579201 9.482166 -0.041958 25.00000000
34.501299 10.722129 -60.524008 25.00000000
34.459746 11.383523 -0.988226 25.00000000
34.653881 8.293485 -33.144270 25.00000000
34.591165 9.291733 -8.437816 25.00000000
34.606328 9.050392 -9.803459 25.00000000
34.900588 4.366662 -37.699909 25.00000000
34.813687 5.749871 -8.448635 25.00000000
34.729589 7.088456 3.061865 25.00000000
34.500089 10.741387 -40.755029 25.00000000
34.778090 6.316458 -26.696985 25.00000000
34.577824 9.504092 -12.731593 25.00000000
34.711314 7.379335 -42.774772 25.00000000
34.623454 8.777803 -41.738347 25.00000000
34.499693 10.747701 -51.627610 25.00000000
34.862140 4.978649 -14.339326 25.00000000
34.518098 10.454739 -7.744010 25.00000000
34.591107 9.292657 -37.118346 25.00000000
34.634445 8.602861 -11.246207 25.00000000
34.582682 9.426767 -49.611864 25.00000000
34.623136 8.782854 -47.700833 25.00000000
34.566455 9.685049 -15.597383 25.00000000
34.527594 10.303594 -58.299979 25.00000000
34.888509 4.558923 -15.655160 25.00000000
34.797781 6.003047 -35.572294 25.00000000
34.841475 5.307563 -56.472389 25.00000000
34.854144 5.105913 -55.327693 25.00000000
34.707870 7.434149 -24.868338 25.00000000
34.832990 5.442619 -50.649157 25.00000000
34.726584 7.136281 -40.039279 25.00000000
34.715389 7.314467 0.799682 25.00000000
34.567900 9.662047 -56.815039 25.00000000
34.905609 4.286751 -27.669666 25.00000000
34.455169 11.456384 -40.044819 25.00000000
34.648714 8.375732 -9.883079 25.00000000
34.774925 6.366839 -27.037956 25.00000000
34.536182 10.166906 -61.042943 25.00000000
34.848735 5.192006 -28.088513 25.00000000
34.906531 4.272069 -42.451903 25.00000000
34.807347 5.850776 -17.312814 25.00000000
34.866147 4.914856 -33.931814 25.00000000
34.555703 9.856183 -48.362762 25.00000000
34.532036 10.232893 -28.451572 25.00000000
34.674274 7.968905 -45.461418 25.00000000
34.875240 4.770132 -25.439326 25.00000000
34.631895 8.643441 2.059635 25.00000000
34.847170 5.216919 -27.668056 25.00000000
34.772017 6.413121 -3.612211 25.00000000
34.869405 4.863010 -55.528821 25.00000000
34.503301 10.690272 -59.655530 25.00000000
34.862165 4.978238 -46.320155 25.00000000
34.828341 5.516626 -2.346529 25.00000000
34.488761 10.921699 -23.547151 25.00000000
34.874584 4.780576 -18.986986 25.00000000
34.559589 9.794329 -18.828129 25.00000000
34.492672 10.859444 -14.616152 25.00000000
34.753423 6.709079 -53.212570 25.00000000
34.555041 9.866728 -13.732426 25.00000000
34.728760 7.101639 -13.699504 25.00000000
34.702515 7.519393 -55.555360 25.00000000
34.587920 9.343391 -6.768420 25.00000000
34.785994 6.190654 2.124764 25.00000000
34.841499 5.307189 -36.726614 25.00000000
34.594135 9.244459 -9.148343 25.00000000
34.811032 5.792131 3.237281 25.00000000
34.724684 7.166524 -19.204471 25.00000000
34.516512 10.479990 -54.084402 25.00000000
34.756263 6.663879 -30.265932 25.00000000
34.662979 8.148681 -13.005921 25.00000000
34.820742 5.637564 -31.173488 25.00000000
34.622596 8.791451 -18.276364 25.00000000
34.760485 6.596683 -26.698105 25.00000000
34.624869 8.755277 -56.749711 25.00000000
34.532556 10.224613 -28.875918 25.00000000
34.592984 9.262787 -39.068054 25.00000000
34.500821 10.729749 0.468447 25.00000000
34.558494 9.811757 -29.811162 25.00000000
34.745996 6.827300 -58.009683 25.00000000
34.708648 7.421763 2.199457 25.00000000
34.455261 11.454912 -22.123912 25.00000000
34.550342 9.941515 -33.271196 25.00000000
34.833090 5.441030 -53.735678 25.00000000
34.570277 9.624211 -53.029170 25.00000000
34.866418 4.910547 -50.399783 25.00000000
34.565343 9.702746 -59.276784 25.00000000
34.475655 11.130310 -36.989188 25.00000000
34.884775 4.618362 -50.654608 25.00000000
34.591200 9.291178 2.834422 25.00000000
34.773084 6.396136 -60.414730 25.00000000
34.821095 5.631955 -43.245642 25.00000000
34.800596 5.958231 -52.761283 25.00000000
34.585011 9.389691 -13.575509 25.00000000
34.470970 11.204874 -8.639823 25.00000000
34.660819 8.183057 -7.317123 25.00000000
34.458221 11.407799 -15.165227 25.00000000
34.857661 5.049927 -9.863566 25.00000000
34.563479 9.732422 -18.182092 25.00000000
34.805414 5.881543 -56.657648 25.00000000
34.727072 7.128507 -28.448216 25.00000000
34.686504 7.774235 -57.242591 25.00000000
34.702613 7.517830 -16.439552 25.00000000
34.882537 4.653989 -17.946981 25.00000000
34.455722 11.447573 -39.443263 25.00000000
34.865582 4.923859 -36.731745 25.00000000
34.487882 10.935696 -31.674798 25.00000000
34.884367 4.624852 -31.554566 25.00000000
34.828368 5.516197 -49.341629 25.00000000
34.585824 9.376753 -8.885188 25.00000000
34.620779 8.820380 -6.702386 25.00000000
34.910147 4.214515 -60.678795 25.00000000
34.581826 9.440396 -33.006405 25.00000000
34.589818 9.313185 -2.319920 25.00000000
34.820348 5.643847 -29.096118 25.00000000
34.907260 4.260474 -26.719864 25.00000000
34.524533 10.352312 -11.669588 25.00000000
34.910085 4.215499 -38.638891 25.00000000
34.487547 10.941024 2.114426 25.00000000
34.626572 8.728173 -24.216480 25.00000000
34.699095 7.573819 2.860815 25.00000000
34.905810 4.283545 -35.248309 25.00000000
34.719226 7.253392 -33.906195 25.00000000
34.858237 5.040764 -39.403225 25.00000000
34.875776 4.761590 -29.228613 25.00000000
34.880626 4.684394 -14.954577 25.00000000
34.556357 9.845772 -57.818386 25.00000000
34.910160 4.214315 -55.534771 25.00000000
34.456109 11.441420 -28.541819 25.00000000
34.453981 11.475294 -13.630311 25.00000000
34.626900 8.722945 -46.236108 25.00000000
34.813217 5.757342 -47.192633 25.00000000
34.664766 8.120236 -32.524692 25.00000000
34.516823 10.475034 -60.609317 25.00000000
34.581704 9.442337 -40.615823 25.00000000
34.721069 7.224068 3.665659 25.00000000
34.537172 10.151150 -3.107746 25.00000000
34.604131 9.085353 -36.154612 25.00000000
34.593566 9.253528 -35.192229 25.00000000
34.571075 9.611505 -34.957734 25.00000000
34.909895 4.218530 -3.167367 25.00000000
34.861700 4.985646 -40.249449 25.00000000
34.886710 4.587563 -0.264213 25.00000000
34.821305 5.628610 1.546095 25.00000000
34.581917 9.438941 -21.859185 25.00000000
34.728301 7.108956 -1.664432 25.00000000
34.757309 6.647231 -15.828237 25.00000000
34.569690 9.633564 -11.570548 25.00000000
34.805733 5.876468 -9.313397 25.00000000
34.499618 10.748887 -18.537657 25.00000000
34.881232 4.674751 -10.127861 25.00000000
34.517230 10.468557 -57.763988 25.00000000
34.695493 7.631151 -14.754950 25.00000000
34.868376 4.879387 -41.707203 25.00000000
34.766695 6.497838 -43.374568 25.00000000
34.778217 6.314437 -10.819006 25.00000000
34.567843 9.662949 -8.946492 25.00000000
34.820658 5.638914 -19.946083 25.00000000
34.776534 6.341230 -24.671389 25.00000000
34.498612 10.764897 -9.621204 25.00000000
34.524748 10.348895 -12.706517 25.00000000
34.740867 6.908943 -23.079262 25.00000000
34.700141 7.557168 -46.732871 25.00000000
34.579681 9.474538 2.543495 25.00000000
34.741317 6.901781 -37.833998 25.00000000
34.531444 10.242322 -31.936138 25.00000000
34.724651 7.167044 -25.423623 25.00000000
34.547757 9.982656 -37.139868 25.00000000
34.674437 7.966298 -36.880255 25.00000000
34.761680 6.577652 -28.607457 25.00000000
34.482521 11.021016 1.069810 25.00000000
34.895390 4.449398 -51.838167 25.00000000
34.624065 8.768080 -4.788142 25.00000000
34.594023 9.246255 -34.889342 25.00000000
34.592575 9.269298 -27.813219 25.00000000
34.908758 4.236624 -55.115278 25.00000000
34.689235 7.730765 -32.115762 25.00000000
34.795166 6.044671 -53.843700 25.00000000
34.721904 7.210775 -56.846931 25.00000000
34.582200 9.434438 -24.052413 25.00000000
34.573139 9.578666 -47.183629 25.00000000
34.850635 5.161760 -57.660129 25.00000000
34.458974 11.395818 -13.352905 25.00000000
34.797192 6.012421 -43.669103 25.00000000
34.726019 7.145272 -11.286993 25.00000000
34.613232 8.940496 1.919276 25.00000000
34.562637 9.745818 -26.423557 25.00000000
34.743606 6.865348 -15.325114 25.00000000
34.571460 9.605390 -34.686010 25.00000000
34.909485 4.225054 -0.030652 25.00000000
34.896268 4.435430 -16.582566 25.00000000
34.883199 4.643444 -18.254017 25.00000000
34.792188 6.092060 -54.688889 25.00000000
34.866561 4.908266 -7.074922 25.00000000
34.534942 10.186638 -17.101337 25.00000000
34.511920 10.553087 -39.345877 25.00000000
34.819506 5.657249 -11.051200 25.00000000
34.602591 9.109869 -33.554878 25.00000000
34.645583 8.425566 -9.519815 25.00000000
34.461718 11.352137 -0.237488 25.00000000
34.885369 4.608908 -45.487581 25.00000000
34.704524 7.487408 -34.158454 25.00000000
34.533439 10.210561 -49.118553 25.00000000
34.568428 9.653646 -37.675823 25.00000000
34.623742 8.773212 -23.103894 25.00000000
34.686347 7.776724 -11.561760 25.00000000
34.890179 4.532341 -43.444094 25.00000000
34.796757 6.019343 -29.696918 25.00000000
34.667385 8.078550 -15.924789 25.00000000
34.818444 5.674150 -4.824080 25.00000000
34.769248 6.457201 -15.636699 25.00000000
34.490651 10.891611 -8.209305 25.00000000
34.770552 6.436449 -3.096655 25.00000000
34.674665 7.962666 -35.876139 25.00000000
34.675858 7.943683 -22.795039 25.00000000
34.690336 7.713240 -51.693224 25.00000000
34.555409 9.860871 -3.882903 25.00000000
34.501964 10.711543 1.915497 25.00000000
34.758662 6.625689 2.792683 25.00000000
34.777796 6.321141 -12.736863 25.00000000
34.750084 6.762233 -22.187974 25.00000000
34.879652 4.699906 -49.300256 25.00000000
34.485934 10.966696 -58.855570 25.00000000
34.605851 9.057985 -57.349713 25.00000000
34.853778 5.111744 -37.564540 25.00000000
34.694465 7.647522 -6.324532 25.00000000
34.642706 8.471363 -34.419396 25.00000000
34.541949 10.075107 -13.500175 25.00000000
34.653439 8.300528 -11.534648 25.00000000
34.706274 7.459551 -26.642723 25.00000000
34.543315 10.053372 -26.278260 25.00000000
34.907878 4.250626 -44.806671 25.00000000
34.525795 10.332232 -2.013724 25.00000000
34.664893 8.118216 -38.668613 25.00000000
34.905175 4.293660 -54.807375 25.00000000
34.727132 7.127559 -43.929506 25.00000000
34.706627 7.453928 -49.086213 25.00000000
34.755901 6.669641 -16.713241 25.00000000
34.479902 11.062715 -53.118709 25.00000000
34.536935 10.154909 -30.617290 25.00000000
34.719609 7.247306 -54.164283 25.00000000
34.480380 11.055100 -33.307864 25.00000000
34.631400 8.651324 -30.301659 25.00000000
34.900217 4.372577 1.390798 25.00000000
34.486962 10.950329 -28.597289 25.00000000
34.745830 6.829949 0.724499 25.00000000
34.713207 7.349208 0.461629 25.00000000
34.810738 5.796808 -60.415379 25.00000000
34.498391 10.768427 -4.895760 25.00000000
34.514514 10.511787 -51.055355 25.00000000
34.837773 5.366493 -24.121319 25.00000000
34.868320 4.880279 -26.728867 25.00000000
34.606172 9.052867 -48.992967 25.00000000
34.579631 9.475325 -59.974888 25.00000000
34.743246 6.871072 -25.007850 25.00000000
34.774337 6.376194 -36.228706 25.00000000
34.867998 4.885407 -59.770870 25.00000000
34.703874 7.497754 -5.718503 25.00000000
34.745878 6.829183 -18.759932 25.00000000
34.770241 6.441400 -17.388129 25.00000000
34.761214 6.585081 -20.392596 25.00000000
34.577656 9.506758 -17.290140 25.00000000
34.535034 10.185176 3.642473 25.00000000
34.614401 8.921889 -23.877180 25.00000000
34.644890 8.436595 -24.003539 25.00000000
34.796934 6.016516 -46.373682 25.00000000
34.879540 4.701689 -33.627923 25.00000000
34.624600 8.759563 -40.083396 25.00000000
34.680076 7.876540 -15.466560 25.00000000
34.505047 10.662472 -45.386214 25.00000000
34.728141 7.111500 -26.434084 25.00000000
34.696581 7.613839 -20.832479 25.00000000
34.572538 9.588219 -33.503553 25.00000000
34.857248 5.056511 2.675426 25.00000000
34.488753 10.921823 -39.682068 25.00000000
34.713521 7.344211 -60.994615 25.00000000
34.772278 6.408967 2.588607 25.00000000
34.698888 7.577113 -15.588620 25.00000000
34.677803 7.912723 -13.165674 25.00000000
34.776740 6.337945 -0.234385 25.00000000
34.605648 9.061216 -35.649151 25.00000000
34.689809 7.721635 -49.344222 25.00000000
34.537060 10.152921 -10.994478 25.00000000
34.622164 8.798325 -42.987968 25.00000000
34.759948 6.605229 -9.752840 25.00000000
34.901797 4.347424 3.767540 25.00000000
34.613425 8.937421 -58.995705 25.00000000
34.516864 10.474383 -29.278396 25.00000000
34.512402 10.545415 -28.332839 25.00000000
34.595825 9.217571 -59.132253 25.00000000
34.836206 5.391428 -36.068945 25.00000000
34.554737 9.871566 -40.514662 25.00000000
34.722780 7.196836 -29.250146 25.00000000
34.599214 9.163629 -28.280543 25.00000000
34.892016 4.503101 -57.731185 25.00000000
34.652057 8.322521 -12.703739 25.00000000
34.802831 5.922658 0.862437 25.00000000
34.639034 8.529813 -37.905221 25.00000000
34.611514 8.967844 -9.009514 25.00000000
34.709125 7.414175 -28.437155 25.00000000
34.508847 10.601998 -43.846208 25.00000000
34.607874 9.025787 -37.903867 25.00000000
34.782558 6.245337 -31.801999 25.00000000
34.465594 11.290451 -19.075489 25.00000000
34.830615 5.480430 -46.411832 25.00000000
34.641725 8.486978 -22.345350 25.00000000
34.743697 6.863891 -4.645563 25.00000000
34.784113 6.220594 -47.522544 25.00000000
34.896879 4.425697 -40.523341 25.00000000
34.621966 8.801474 -20.310294 25.00000000
34.598578 9.173746 -42.798992 25.00000000
34.699689 7.564368 -10.675346 25.00000000
34.581686 9.442622 -26.427757 25.00000000
34.549006 9.962775 -24.930518 25.00000000
34.810659 5.798069 -42.603925 25.00000000
34.466920 11.269341 -9.344567 25.00000000
34.533025 10.217154 3.366480 25.00000000
34.759990 6.604564 -4.800948 25.00000000
34.818812 5.668294 -33.501669 25.00000000
34.910000 4.216851 -23.275264 25.00000000
34.785574 6.197339 -57.008066 25.00000000
34.890695 4.524137 -24.815827 25.00000000
34.798330 5.994300 -27.820317 25.00000000
34.633135 8.623705 -41.042992 25.00000000
34.767365 6.487167 -53.462399 25.00000000
34.632061 8.640793 -20.039032 25.00000000
34.662139 8.162047 -44.430554 25.00000000
34.679843 7.880248 -1.402687 25.00000000
34.759670 6.609648 1.605865 25.00000000
34.773888 6.383345 -28.879714 25.00000000
34.586768 9.361721 -53.681261 25.00000000
34.474545 11.147983 -15.843278 25.00000000
34.801269 5.947522 -39.399666 25.00000000
34.527414 10.306457 -49.686649 25.00000000
34.494187 10.835341 -35.328356 25.00000000
34.902576 4.335030 -20.507441 25.00000000
34.507012 10.631205 -25.372532 25.00000000
34.825310 5.564867 -12.057882 25.00000000
34.654921 8.276939 -11.823595 25.00000000
34.551931 9.916224 -9.320384 25.00000000
34.521987 10.392838 -44.480728 25.00000000
34.540769 10.093887 -25.948510 25.00000000
34.778493 6.310045 -38.771069 25.00000000
34.486484 10.957946 -44.450366 25.00000000
34.749641 6.769289 -33.421111 25.00000000
34.632548 8.633045 -50.371795 25.00000000
34.479784 11.064581 -30.109660 25.00000000
34.480109 11.059412 -47.762570 25.00000000
34.901160 4.357555 -36.772047 25.00000000
34.810867 5.794744 -2.066197 25.00000000
34.588494 9.334253 -15.235913 25.00000000
34.908644 4.238440 -6.231403 25.00000000
34.887931 4.568129 -38.985901 25.00000000
34.455270 11.454778 -59.440174 25.00000000
34.599787 9.154503 1.211955 25.00000000
34.605944 9.056503 0.920195 25.00000000
34.908646 4.238412 -7.730752 25.00000000
34.498620 10.764774 -39.096523 25.00000000
34.523979 10.361143 -2.762087 25.00000000
34.716205 7.301488 -16.291478 25.00000000
34.659497 8.204105 -42.802181 25.00000000
34.487153 10.947287 -42.190694 25.00000000
34.481064 11.044217 -11.258521 25.00000000
34.552159 9.912599 -32.447283 25.00000000
34.908450 4.241533 -26.160135 25.00000000
34.478721 11.081503 -11.587071 25.00000000
34.526435 10.322048 1.246233 25.00000000
34.598054 9.182091 -13.281325 25.00000000
34.765182 6.521913 -11.117147 25.00000000
34.792000 6.095059 1.766278 25.00000000
34.705434 7.472920 1.572559 25.00000000
34.795884 6.033229 -7.709524 25.00000000
34.861792 4.984182 -35.131531 25.00000000
34.502117 10.709109 -31.446310 25.00000000
34.523578 10.367516 -13.542682 25.00000000
34.636131 8.576017 -41.987204 25.00000000
34.527054 10.312198 -11.275200 25.00000000
34.495474 10.814852 -11.534072 25.00000000
34.479211 11.073707 -55.590907 25.00000000
34.810465 5.801148 -40.825969 25.00000000
34.833414 5.435874 -55.299207 25.00000000
34.832908 5.443930 -5.022938 25.00000000
34.548204 9.975555 -8.933259 25.00000000
34.806279 5.867781 -34.592882 25.00000000
34.626895 8.723020 -52.438391 25.00000000
34.867195 4.898183 -14.631890 25.00000000
34.691645 7.692410 -28.218099 25.00000000
34.891766 4.507084 -41.882792 25.00000000
34.802912 5.921366 -6.827655 25.00000000
34.590914 9.295743 -56.168114 25.00000000
34.743710 6.863689 -44.919672 25.00000000
34.698785 7.578757 -7.353340 25.00000000
34.908972 4.233222 -58.387896 25.00000000
34.897757 4.411727 -2.813667 25.00000000
34.768875 6.463138 -7.054349 25.00000000
34.666086 8.099228 -54.562598 25.00000000
34.828341 5.516623 -38.990812 25.00000000
34.477824 11.095780 -34.852828 25.00000000
34.627971 8.705893 -47.244861 25.00000000
34.550778 9.934581 -16.132116 25.00000000
34.493354 10.848589 -17.064491 25.00000000
34.894782 4.459077 -23.022772 25.00000000
34.907422 4.257891 -35.540719 25.00000000
34.647694 8.391965 -29.728858 25.00000000
34.514069 10.518877 -30.661038 25.00000000
34.794535 6.054701 -38.615597 25.00000000
34.529155 10.278750 -15.662207 25.00000000
34.791181 6.108088 -23.184997 25.00000000
34.862361 4.975126 -45.256811 25.00000000
34.515844 10.490621 3.531698 25.00000000
34.905975 4.280929 -57.355702 25.00000000
34.553392 9.892969 -55.415601 25.00000000
34.566567 9.683267 -1.423689 25.00000000
34.503319 10.689976 -38.078139 25.00000000
34.480721 11.049667 -1.695030 25.00000000
34.764338 6.535354 -42.241112 25.00000000
34.492821 10.857076 -32.749297 25.00000000
34.754130 6.697831 -36.407570 25.00000000
34.614676 8.917511 -3.742975 25.00000000
34.510327 10.578441 -35.459565 25.00000000
34.494187 10.835335 -53.309041 25.00000000
34.886818 4.585849 -14.506460 25.00000000
34.788971 6.143269 0.371108 25.00000000
34.871984 4.821955 -25.166136 25.00000000
34.839106 5.345272 -42.067987 25.00000000
34.508775 10.603144 -19.543283 25.00000000
34.515051 10.503240 3.134167 25.00000000
34.474769 11.144412 -46.960712 25.00000000
34.866869 4.903365 -32.723087 25.00000000
34.519124 10.438417 -20.407998 25.00000000
34.728251 7.109754 -46.534502 25.00000000
34.486552 10.956869 -55.839089 25.00000000
34.754581 6.690648 -33.866875 25.00000000
34.559343 9.798250 -58.805789 25.00000000
34.797133 6.013361 -57.796134 25.00000000
34.809121 5.822535 -38.406589 25.00000000
34.597453 9.191661 -61.094934 25.00000000
34.755226 6.680394 -10.866202 25.00000000
34.576474 9.525573 -59.003608 25.00000000
34.889914 4.536568 -46.681136 25.00000000
34.659358 8.206313 -23.644917 25.00000000
34.901435 4.353180 -23.667309 25.00000000
34.461229 11.359921 -42.024095 25.00000000
34.889627 4.541131 -1.187044 25.00000000
34.832478 5.450774 -54.071891 25.00000000
34.758074 6.635056 -5.984874 25.00000000
34.566191 9.689249 -24.500797 25.00000000
34.865300 4.928336 -30.351055 25.00000000
34.458556 11.402476 -32.955719 25.00000000
34.459482 11.387740 -47.653780 25.00000000
34.907351 4.259021 -24.981332 25.00000000
34.797904 6.001080 -28.429262 25.00000000
34.544941 10.027481 -19.494491 25.00000000
34.560913 9.773266 -13.469907 25.00000000
34.650997 8.339396 -32.221024 25.00000000
34.519654 10.429970 -39.077891 25.00000000
34.744981 6.843451 -46.580783 25.00000000
34.785682 6.195623 -16.078013 25.00000000
34.786192 6.187502 -0.477655 25.00000000
34.787045 6.173921 -45.720936 25.00000000
34.722656 7.198801 -9.929336 25.00000000
34.855783 5.079829 -36.500672 25.00000000
34.857785 5.047955 -56.257557 25.00000000
34.490268 10.897711 -2.063452 25.00000000
34.554815 9.870324 -47.101569 25.00000000
34.673298 7.984427 -46.019673 25.00000000
34.563543 9.731402 -41.137196 25.00000000
34.610091 8.990492 -28.926993 25.00000000
34.843449 5.276139 -50.426926 25.00000000
34.775200 6.362455 -6.789534 25.00000000
34.658387 8.221763 -38.316906 25.00000000
34.560826 9.774651 -32.119686 25.00000000
34.731205 7.062721 -17.183928 25.00000000
34.454994 11.459165 -3.748969 25.00000000
34.713237 7.348724 -8.348332 25.00000000
34.697121 7.605245 -52.013069 25.00000000
34.695606 7.629350 -4.810842 25.00000000
34.477287 11.104339 -5.212207 25.00000000
34.658437 8.220975 -41.493283 25.00000000
34.618152 8.862184 -9.585304 25.00000000
34.539257 10.117961 -41.265230 25.00000000
34.597634 9.188773 -30.601878 25.00000000
34.548387 9.972638 -16.635091 25.00000000
34.695049 7.638225 -11.334386 25.00000000
34.660501 8.188122 -12.442782 25.00000000
34.785690 6.195489 -56.083361 25.00000000
34.842368 5.293359 3.436342 25.00000000
34.730818 7.068882 0.898520 25.00000000
34.721824 7.212045 -8.053506 25.00000000
34.906273 4.276173 -21.777168 25.00000000
34.725430 7.154649 -3.677792 25.00000000
34.713316 7.347472 -9.065594 25.00000000
34.501754 10.714884 -3.551709 25.00000000
34.764517 6.532500 -45.097846 25.00000000
34.568509 9.652347 -36.801969 25.00000000
34.632612 8.632022 -2.316180 25.00000000
34.908706 4.237449 -14.282138 25.00000000
34.462326 11.342469 -51.314952 25.00000000
34.716854 7.291151 -47.217266 25.00000000
34.671208 8.017705 -36.147795 25.00000000
34.530516 10.257088 -43.187554 25.00000000
34.547358 9.989018 1.308417 25.00000000
34.887261 4.578799 -34.117749 25.00000000
34.606237 9.051838 -56.284677 25.00000000
34.869087 4.868067 -58.462260 25.00000000
34.908966 4.233309 -44.344857 25.00000000
34.575571 9.539949 -10.882642 25.00000000
34.569193 9.641475 0.768285 25.00000000
34.677085 7.924150 -11.913496 25.00000000
34.548588 9.969441 2.505377 25.00000000
34.742161 6.888345 -43.762698 25.00000000
34.605847 9.058049 -30.270991 25.00000000
34.530638 10.255151 -29.517787 25.00000000
34.809251 5.820468 -57.145137 25.00000000
34.656211 8.256406 -16.159279 25.00000000
34.722356 7.203581 -5.468033 25.00000000
34.497424 10.783804 -38.785572 25.00000000
34.585794 9.377234 -2.643526 25.00000000
34.884076 4.629480 -21.498216 25.00000000
34.563870 9.726199 -30.462410 25.00000000
34.880309 4.689439 -33.097964 25.00000000
34.716122 7.302804 -25.947397 25.00000000
34.885606 4.605138 -57.285516 25.00000000
34.550563 9.938008 -27.438711 25.00000000
34.828440 5.515046 -61.044300 25.00000000
34.808863 5.826645 -40.257086 25.00000000
34.628646 8.695157 -10.681557 25.00000000
34.747378 6.805298 -44.234529 25.00000000
34.766883 6.494841 -16.185277 25.00000000
34.514554 10.511152 -50.245867 25.00000000
34.600468 9.143669 3.283120 25.00000000
34.456415 11.436553 -25.017673 25.00000000
34.909418 4.226112 -30.739988 25.00000000
34.869766 4.857263 -34.306577 25.00000000
34.801327 5.946604 -54.149181 25.00000000
34.457039 11.426624 -23.069041 25.00000000
34.875571 4.764862 -29.614430 25.00000000
34.519810 10.427497 -48.086325 25.00000000
34.606311 9.050657 -6.908399 25.00000000
34.854260 5.104064 -21.465257 25.00000000
34.859092 5.027161 -46.799660 25.00000000
34.632269 8.637483 -55.648918 25.00000000
34.542777 10.061934 -43.563442 25.00000000
34.824543 5.577079 -27.929875 25.00000000
34.697150 7.604781 -12.910108 25.00000000
34.743877 6.861032 -12.234726 25.00000000
34.740560 6.913819 -23.810877 25.00000000
34.909685 4.221864 3.345595 25.00000000
34.906563 4.271568 -0.766630 25.00000000
34.493605 10.844595 -20.835613 25.00000000
34.471311 11.199459 -0.497602 25.00000000
34.641448 8.491393 -34.875272 25.00000000
34.454149 11.472621 -20.965158 25.00000000
34.806651 5.861851 -20.344799 25.00000000
34.646413 8.412366 -43.657432 25.00000000
34.772585 6.404078 -25.365923 25.00000000
34.493127 10.852211 -40.510664 25.00000000
34.880160 4.691823 -6.871348 25.00000000
34.783655 6.227890 -28.601875 25.00000000
34.783638 6.228155 -16.405386 25.00000000
34.545770 10.014284 -21.366304 25.00000000
34.585683 9.378990 -34.427688 25.00000000
34.531322 10.244263 -7.527977 25.00000000
34.908180 4.245822 -19.061045 25.00000000
34.661333 8.174879 -30.258055 25.00000000
34.789727 6.131239 -22.701978 25.00000000
34.455539 11.450487 -11.744714 25.00000000
34.855893 5.078081 -31.982299 25.00000000
34.819956 5.650088 -11.778282 25.00000000
34.879213 4.706896 -12.898234 25.00000000
34.680088 7.876355 -32.675606 25.00000000
34.907839 4.251247 -41.661025 25.00000000
34.539848 10.108546 -59.698523 25.00000000
34.562451 9.748787 -52.733202 25.00000000
34.489301 10.913112 -5.432062 25.00000000
34.902256 4.340113 -10.339933 25.00000000
34.549232 9.959182 -21.873950 25.00000000
34.481165 11.042613 -39.963794 25.00000000
34.836677 5.383932 -0.669116 25.00000000
34.459774 11.383080 -34.013457 25.00000000
34.680927 7.862997 -1.967463 25.00000000
34.512099 10.550234 -13.310182 25.00000000
34.777589 6.324439 -53.893620 25.00000000
34.454920 11.460347 -29.383256 25.00000000
34.900955 4.360827 0.221860 25.00000000
34.490107 10.900283 -48.009997 25.00000000
34.780850 6.272523 -59.303322 25.00000000
34.648009 8.386963 -16.865910 25.00000000
34.483641 11.003190 -38.480991 25.00000000
34.814069 5.743784 -33.755434 25.00000000
34.832729 5.446769 -23.849996 25.00000000
34.697492 7.599336 -37.587065 25.00000000
34.838671 5.352200 -4.609845 25.00000000
34.516420 10.481447 -12.996949 25.00000000
34.795615 6.037512 -42.366870 25.00000000
34.887796 4.570274 -41.562688 25.00000000
34.596006 9.214688 3.870596 25.00000000
34.461569 11.354514 -31.615694 25.00000000
34.463981 11.316118 -21.296220 25.00000000
34.462072 11.346511 -43.267160 25.00000000
34.884020 4.630376 -30.026767 25.00000000
34.682639 7.835754 -18.129346 25.00000000
34.783226 6.234707 -24.234699 25.00000000
34.690033 7.718062 -14.402635 25.00000000
34.764041 6.540085 -34.578895 25.00000000
34.487238 10.945943 -49.781095 25.00000000
34.553021 9.898874 -26.940956 25.00000000
34.889712 4.539771 -53.018038 25.00000000
34.699224 7.571762 -48.326506 25.00000000
34.638005 8.546187 -6.396299 25.00000000
34.744218 6.855609 -8.048009 25.00000000
34.835274 5.406263 -2.622016 25.00000000
34.594960 9.231335 -0.711422 25.00000000
34.626029 8.736809 -29.198224 25.00000000
34.502000 10.710981 -25.051003 25.00000000
34.715932 7.305821 1.892601 25.00000000
34.468392 11.245908 -55.109042 25.00000000
34.726713 7.134227 -24.019264 25.00000000
34.460658 11.369010 -13.884574 25.00000000
34.635381 8.587953 -33.481021 25.00000000
34.904270 4.308057 -22.409394 25.00000000
34.603937 9.088448 -16.679239 25.00000000
34.881928 4.663682 -30.463208 25.00000000
34.807636 5.846186 -16.019807 25.00000000
34.706923 7.449232 -1.559971 25.00000000
34.499856 10.745107 -53.023861 25.00000000
34.515925 10.489333 -16.113812 25.00000000
34.824631 5.575677 -58.032441 25.00000000
34.641839 8.485158 -60.750318 25.00000000
34.657739 8.232089 -31.003353 25.00000000
34.775051 6.364837 -8.935427 25.00000000
34.508873 10.601576 -33.885625 25.00000000
34.725968 7.146078 -19.800627 25.00000000
34.496431 10.799618 -49.336695 25.00000000
34.635900 8.579689 -6.061656 25.00000000
34.686977 7.766704 -30.025891 25.00000000
34.554425 9.876536 -3.142571 25.00000000
34.611502 8.968037 -55.073642 25.00000000
34.673994 7.973349 -20.255536 25.00000000
34.780642 6.275840 -23.531697 25.00000000
34.805782 5.875692 -28.940411 25.00000000
34.857031 5.059956 -0.228170 25.00000000
34.557746 9.823674 -8.377692 25.00000000
34.729437 7.090877 -7.439621 25.00000000
34.804254 5.900018 -13.183014 25.00000000
34.897230 4.420117 -9.450128 25.00000000
34.558355 9.813973 -28.414000 25.00000000
34.906125 4.278539 -55.891211 25.00000000
34.641582 8.489248 -20.333902 25.00000000
34.511336 10.562374 -51.343847 25.00000000
34.737271 6.966177 -23.513765 25.00000000
34.600997 9.135244 -16.941308 25.00000000
34.763532 6.548181 3.777029 25.00000000
34.748272 6.791071 -13.100819 25.00000000
34.842389 5.293012 -56.075404 25.00000000
34.476077 11.123589 -51.131859 25.00000000
34.780953 6.270887 -58.460780 25.00000000
34.825328 5.564578 -60.221629 25.00000000
34.809095 5.822957 -22.958229 25.00000000
34.769468 6.453691 -32.014110 25.00000000
34.862817 4.967864 -13.889614 25.00000000
34.857825 5.047328 -56.783934 25.00000000
34.617836 8.867222 1.530969 25.00000000
34.610922 8.977272 -37.071610 25.00000000
34.615720 8.900906 -50.127350 25.00000000
34.621664 8.806291 -46.832030 25.00000000
34.770564 6.436251 -51.550353 25.00000000
34.528952 10.281974 -17.685611 25.00000000
34.517282 10.467733 -0.265980 25.00000000
34.906339 4.275127 -0.347991 25.00000000
34.478326 11.087796 -26.265380 25.00000000
34.670610 8.027213 -43.412252 25.00000000
34.550890 9.932792 -33.898577 25.00000000
34.691416 7.696052 -41.003110 25.00000000
34.473749 11.160641 -5.815026 25.00000000
34.865156 4.930636 -47.921020 25.00000000
34.748598 6.785886 -19.751501 25.00000000
34.701501 7.535532 -13.374232 25.00000000
34.573848 9.567368 -9.812825 25.00000000
34.860830 4.999496 -12.284808 25.00000000
34.629815 8.676555 -59.248242 25.00000000
34.794394 6.056948 -24.522415 25.00000000
34.900184 4.373094 -54.500846 25.00000000
34.574968 9.549540 -0.600327 25.00000000
34.882123 4.660569 -32.824187 25.00000000
34.801853 5.938219 -49.712475 25.00000000
34.568545 9.651779 -26.828043 25.00000000
34.669328 8.047616 -50.136312 25.00000000
34.833955 5.427253 -33.725080 25.00000000
34.758690 6.625258 -1.321242 25.00000000
34.455148 11.456714 -54.239127 25.00000000
34.529873 10.267327 -46.791645 25.00000000
34.473840 11.159196 -37.299482 25.00000000
34.782235 6.250493 -2.883779 25.00000000
34.684330 7.808837 -27.384105 25.00000000
34.668178 8.065925 -37.206053 25.00000000
34.648473 8.379567 -26.658944 25.00000000
34.804013 5.903850 -16.406192 25.00000000
34.744267 6.854829 -18.049955 25.00000000
34.518281 10.451826 -14.986839 25.00000000
34.590611 9.300557 -33.740679 25.00000000
34.688591 7.741019 -18.608652 25.00000000
34.836809 5.381831 -26.874375 25.00000000
34.675903 7.942969 -21.162993 25.00000000
34.840257 5.326945 -30.556280 25.00000000
34.771417 6.422675 -12.226725 25.00000000
34.482133 11.027203 -59.988492 25.00000000
34.515555 10.495213 -14.710914 25.00000000
34.512028 10.551363 -5.381492 25.00000000
34.479688 11.066117 -54.776936 25.00000000
34.485350 10.975991 -37.830337 25.00000000
34.496911 10.791976 -15.695050 25.00000000
34.501860 10.713196 -17.294160 25.00000000
34.657686 8.232920 -25.398824 25.00000000
34.908699 4.237571 -15.902093 25.00000000
34.782556 6.245379 -51.918731 25.00000000
34.771377 6.423309 -40.041151 25.00000000
34.555732 9.855722 -50.125047 25.00000000
34.507206 10.628112 -3.980148 25.00000000
34.583581 9.412452 -45.569184 25.00000000
34.620276 8.828388 -49.297356 25.00000000
34.487619 10.939882 -22.667157 25.00000000
34.700829 7.546224 -38.282350 25.00000000
34.489007 10.917789 -8.722744 25.00000000
34.485180 10.978705 -13.480555 25.00000000
34.692679 7.675947 -30.674048 25.00000000
34.631028 8.657235 -29.873168 25.00000000
34.793558 6.070255 -57.253635 25.00000000
34.520935 10.409581 -10.840507 25.00000000
34.723656 7.182891 0.149196 25.00000000
34.866657 4.906749 -16.895744 25.00000000
34.552831 9.901896 -4.439455 25.00000000
34.527248 10.309110 -39.932440 25.00000000
34.880374 4.688411 3.702964 25.00000000
34.712692 7.357404 -52.582599 25.00000000
34.630498 8.665672 -0.993290 25.00000000
34.528863 10.283399 -53.804438 25.00000000
34.638493 8.538417 -30.763887 25.00000000
34.495182 10.819494 -28.198849 25.00000000
34.795545 6.038629 -41.962210 25.00000000
34.636016 8.577852 -27.551256 25.00000000
34.569443 9.637486 -20.289580 25.00000000
34.485532 10.973093 -16.433396 25.00000000
34.871415 4.831008 -43.680366 25.00000000
34.583577 9.412511 -54.889800 25.00000000
34.487561 10.940805 -60.245007 25.00000000
34.563581 9.730788 2.758084 25.00000000
34.467412 11.261511 -17.486851 25.00000000
34.891795 4.506625 -7.525999 25.00000000
34.810669 5.797909 -46.904613 25.00000000
34.622439 8.793957 -60.093387 25.00000000
34.454665 11.464405 -31.909394 25.00000000
34.893526 4.479064 -60.903031 25.00000000
34.735436 6.995385 -50.818867 25.00000000
34.867915 4.886726 -42.518112 25.00000000
34.558853 9.806049 -51.854371 25.00000000
34.770776 6.432881 -41.929179 25.00000000
34.659846 8.198548 -45.858850 25.00000000
34.454363 11.469216 -55.293414 25.00000000
34.513331 10.530621 -19.228441 25.00000000
34.852431 5.133185 -39.993202 25.00000000
34.834864 5.412796 0.339428 25.00000000
34.750169 6.760887 -52.895010 25.00000000
34.553258 9.895105 -5.225807 25.00000000
34.910575 4.207701 -8.040384 25.00000000
34.867421 4.894587 -39.722340 25.00000000
34.456877 11.429204 -26.105666 25.00000000
34.906056 4.279637 -48.414434 25.00000000
34.831853 5.460715 -8.613027 25.00000000
34.519253 10.436362 -56.762758 25.00000000
34.586337 9.368592 -15.790098 25.00000000
34.680937 7.862845 2.678487 25.00000000
34.637983 8.546546 -45.464426 25.00000000
34.550422 9.940248 -53.497675 25.00000000
34.776018 6.349444 -33.926302 25.00000000
34.845433 5.244558 -54.668664 25.00000000
34.467264 11.263863 -4.590088 25.00000000
34.877070 4.741002 -34.897793 25.00000000
34.784525 6.214039 -1.302893 25.00000000
34.520073 10.423301 -3.621369 25.00000000
34.680478 7.870143 -1.126438 25.00000000
34.497263 10.786377 -34.536691 25.00000000
34.532285 10.228932 -22.694214 25.00000000
34.794992 6.047426 -61.099410 25.00000000
34.477891 11.094717 -32.954878 25.00000000
34.796459 6.024078 -34.824832 25.00000000
34.908352 4.243086 -20.784918 25.00000000
34.712138 7.366217 -40.964036 25.00000000
34.563106 9.738354 -19.883314 25.00000000
34.740751 6.910786 -57.168473 25.00000000
34.673892 7.974977 -38.913759 25.00000000
34.628035 8.704887 -13.758200 25.00000000
34.720636 7.230956 -48.298859 25.00000000
34.523092 10.375260 -52.069094 25.00000000
34.479038 11.076462 -40.756032 25.00000000
34.705434 7.472931 -45.634722 25.00000000
34.773441 6.390455 -58.748713 25.00000000
34.823803 5.588847 -34.936446 25.00000000
34.643587 8.457338 -16.373344 25.00000000
34.823870 5.587788 -14.586454 25.00000000
34.469033 11.235709 3.605454 25.00000000
34.828597 5.512552 -46.753854 25.00000000
34.535670 10.175057 -15.260010 25.00000000
34.704887 7.481627 -2.126844 25.00000000
34.463223 11.328183 -38.623874 25.00000000
34.559576 9.794546 -51.551093 25.00000000
34.802939 5.920946 -0.298457 25.00000000
34.758790 6.623662 -12.406456 25.00000000
34.560309 9.782869 -22.080205 25.00000000
34.719261 7.252841 -40.301447 25.00000000
34.625870 8.739346 -43.701824 25.00000000
34.882396 4.656225 -36.509699 25.00000000
34.479107 11.075369 -4.036416 25.00000000
34.477569 11.099846 -27.825170 25.00000000
34.842811 5.286304 -52.898907 25.00000000
34.815479 5.721338 -17.037787 25.00000000
34.561763 9.759724 -39.763233 25.00000000
34.814128 5.742846 -2.550230 25.00000000
34.477798 11.096194 -26.704621 25.00000000
34.629547 8.680809 -36.486639 25.00000000
34.811846 5.779167 -9.786429 25.00000000
34.682628 7.835932 -33.193884 25.00000000
34.572750 9.584856 -8.235944 25.00000000
34.589076 9.324993 -57.022393 25.00000000
34.642903 8.468229 -35.962485 25.00000000
34.791259 6.106859 -18.918160 25.00000000
34.861272 4.992454 -30.684674 25.00000000
34.621770 8.804606 -14.552289 25.00000000
34.453635 11.480807 -5.562480 25.00000000
34.865906 4.918692 -43.275040 25.00000000
34.696654 7.612681 -25.959262 25.00000000
34.714218 7.333117 -6.812148 25.00000000
34.853354 5.118489 -26.480605 25.00000000
34.552570 9.906055 -47.909993 25.00000000
34.459044 11.394701 -35.320466 25.00000000
34.831719 5.462858 -32.544250 25.00000000
34.566819 9.679254 -34.426772 25.00000000
34.534493 10.193787 -3.996999 25.00000000
34.609146 9.005540 -60.816520 25.00000000
34.760907 6.589961 -0.552798 25.00000000
34.680294 7.873070 -57.553577 25.00000000
34.836895 5.380472 -59.796337 25.00000000
34.679550 7.884923 -50.987847 25.00000000
34.504902 10.664781 -23.287351 25.00000000
34.488551 10.925035 -27.449504 25.00000000
34.646265 8.414723 -8.308641 25.00000000
34.872383 4.815603 -41.215594 25.00000000
34.847722 5.208139 -33.375431 25.00000000
34.720149 7.238712 -59.690315 25.00000000
34.712821 7.355342 -11.578161 25.00000000
34.691326 7.697484 -17.106144 25.00000000
34.565184 9.705274 -14.274844 25.00000000
34.654101 8.289996 -41.903236 25.00000000
34.720224 7.237520 -35.040173 25.00000000
34.538907 10.123535 -46.127045 25.00000000
34.694511 7.646787 -43.307468 25.00000000
34.790892 6.112689 -31.372787 25.00000000
34.643292 8.462042 -42.883678 25.00000000
34.902399 4.337835 0.523275 25.00000000
34.907872 4.250727 -36.005525 25.00000000
34.757685 6.641241 -12.031180 25.00000000
34.784667 6.211773 -6.508469 25.00000000
34.489507 10.909834 -33.851370 25.00000000
34.711121 7.382410 -26.965735 25.00000000
34.642587 8.473264 -32.535834 25.00000000
34.905849 4.282934 -36.351646 25.00000000
34.475564 11.131749 -15.536737 25.00000000
34.895610 4.445900 -35.023429 25.00000000
34.591647 9.284071 -51.426689 25.00000000
34.496433 10.799581 -46.968115 25.00000000
34.744295 6.854370 -53.550198 25.00000000
34.770255 6.441170 -20.128868 25.00000000
34.455022 11.458726 -36.836852 25.00000000
34.836562 5.385764 -13.137741 25.00000000
34.677255 7.921454 -45.053020 25.00000000
34.529030 10.280739 -8.493238 25.00000000
34.530355 10.259653 -50.403635 25.00000000
34.728395 7.107459 -53.115853 25.00000000
34.790169 6.124199 -9.969435 25.00000000
34.738891 6.940390 -15.845226 25.00000000
34.799174 5.980873 -15.778159 25.00000000
34.693299 7.666078 -2.401016 25.00000000
34.846266 5.231313 -49.804601 25.00000000
34.495907 10.807958 -12.038494 25.00000000
34.783955 6.223114 -29.488184 25.00000000
34.785769 6.194230 -9.191956 25.00000000
34.614250 8.924295 -3.061339 25.00000000
34.857141 5.058216 -29.740731 25.00000000
34.548352 9.973186 -34.299842 25.00000000
34.792712 6.083718 -13.656772 25.00000000
34.820658 5.638915 -58.844153 25.00000000
34.748770 6.783144 -26.368330 25.00000000
34.471693 11.193378 -54.541002 25.00000000
34.703691 7.500672 -0.052758 25.00000000
34.703079 7.510411 -1.031279 25.00000000
34.561923 9.757185 -0.320877 25.00000000
34.817801 5.684390 -31.985129 25.00000000
34.859406 5.022161 -6.314572 25.00000000
34.456197 11.440015 -41.463380 25.00000000
34.454181 11.472110 -40.321958 25.00000000
34.860245 5.008799 0.502553 25.00000000
34.687584 7.757048 -42.744011 25.00000000
34.812695 5.765662 -25.657086 25.00000000
34.863197 4.961812 -23.392560 25.00000000
34.585076 9.388657 1.040355 25.00000000
34.669386 8.046702 -49.852067 25.00000000
34.532181 10.230593 -53.517095 25.00000000
34.478279 11.088543 -21.558435 25.00000000
34.516026 10.487727 -42.408532 25.00000000
34.650044 8.354572 -55.172555 25.00000000
34.708524 7.423738 -56.039286 25.00000000
34.454783 11.462524 -30.667227 25.00000000
34.831091 5.472853 -0.129579 25.00000000
34.562718 9.744523 -22.624211 25.00000000
34.831447 5.467188 -59.264086 25.00000000
34.466035 11.283426 2.222211 25.00000000
34.890205 4.531931 -53.821437 25.00000000
34.479728 11.065470 -18.342199 25.00000000
34.479457 11.069784 -29.510074 25.00000000
34.860573 5.003586 -11.096566 25.00000000
34.605124 9.069553 2.180293 25.00000000
34.842180 5.296337 -49.059688 25.00000000
34.811035 5.792075 -48.376231 25.00000000
34.808452 5.833189 -7.484493 25.00000000
34.488374 10.927852 -21.884031 25.00000000
34.543087 10.057001 -19.198614 25.00000000
34.645242 8.430993 -7.114665 25.00000000
34.906070 4.279404 -39.078809 25.00000000
34.778250 6.313911 0.622124 25.00000000
34.755028 6.683533 -41.806198 25.00000000
34.545136 10.024375 -4.953921 25.00000000
34.589859 9.312533 -3.973383 25.00000000
34.720905 7.226678 -42.061829 25.00000000
34.906120 4.278613 -19.497970 25.00000000
34.483425 11.006628 -19.627351 25.00000000
34.907778 4.252228 -13.369685 25.00000000
34.700086 7.558043 -20.410560 25.00000000
34.572824 9.583670 -58.214626 25.00000000
34.767808 6.480118 -41.380300 25.00000000
34.698328 7.586028 -24.164531 25.00000000
34.548396 9.972489 -49.565310 25.00000000
34.658533 8.219439 -29.440035 25.00000000
34.807800 5.843566 2.155541 25.00000000
34.627987 8.705643 -16.829738 25.00000000
34.686199 7.779090 -9.838376 25.00000000
34.593377 9.256535 -38.148394 25.00000000
34.521186 10.405597 -20.027479 25.00000000
34.539841 10.108659 -44.255370 25.00000000
34.751813 6.734712 -52.246511 25.00000000
34.777014 6.333593 -25.019021 25.00000000
34.490507 10.893913 -31.962080 25.00000000
34.858962 5.029218 -26.965242 25.00000000
34.785371 6.200575 -53.578114 25.00000000
34.707517 7.439776 -57.284291 25.00000000
34.847724 5.208103 -19.357878 25.00000000
34.503368 10.689207 -38.443730 25.00000000
34.549692 9.951870 -30.964676 25.00000000
34.577896 9.502938 -22.850599 25.00000000
34.695791 7.626416 -59.846629 25.00000000
34.479977 11.061517 -22.322513 25.00000000
34.671618 8.011178 -58.585434 25.00000000
34.720337 7.235719 -21.941602 25.00000000
34.741803 6.894034 -34.133086 25.00000000
34.573670 9.570199 -4.150255 25.00000000
34.507689 10.620422 -21.991906 25.00000000
34.605440 9.064519 -25.614334 25.00000000
34.539718 10.110622 -3.664446 25.00000000
34.515356 10.498383 -3.302214 25.00000000
34.564870 9.710275 -46.642561 25.00000000
34.662569 8.155199 -24.215839 25.00000000
34.805959 5.872874 -37.665176 25.00000000
34.695794 7.626359 -58.627609 25.00000000
34.556629 9.841443 -42.240694 25.00000000
34.709822 7.403087 -51.388459 25.00000000
34.744772 6.846785 -57.673253 25.00000000
34.710906 7.385832 -2.470294 25.00000000
34.613243 8.940332 -24.737886 25.00000000
34.456459 11.435852 -1.695532 25.00000000
34.679004 7.893605 -23.867706 25.00000000
34.809063 5.823467 -30.847188 25.00000000
34.559996 9.787852 -55.140493 25.00000000
34.584255 9.401725 1.416797 25.00000000
34.644559 8.441869 -18.668368 25.00000000
34.700625 7.549468 -22.118651 25.00000000
34.498058 10.773723 -30.324920 25.00000000
34.904511 4.304220 -33.774344 25.00000000
34.789554 6.133988 2.435777 25.00000000
34.802508 5.927805 -43.203791 25.00000000
34.671711 8.009690 -5.347684 25.00000000
34.628501 8.697456 -21.162923 25.00000000
34.830346 5.484703 -5.640502 25.00000000
34.782244 6.250346 -41.673613 25.00000000
34.864312 4.944067 -9.452090 25.00000000
34.638046 8.545541 -53.703382 25.00000000
34.904622 4.302457 -51.318420 25.00000000
34.629170 8.686820 -35.111661 25.00000000
34.862154 4.978411 -31.487933 25.00000000
34.604332 9.082156 -20.578509 25.00000000
34.831128 5.472257 -24.374511 25.00000000
34.565870 9.694354 -31.824389 25.00000000
34.504586 10.669812 -52.367642 25.00000000
34.838557 5.354003 -37.073259 25.00000000
34.796806 6.018566 -32.060930 25.00000000
34.568317 9.655408 -24.947185 25.00000000
34.738459 6.947273 -30.943895 25.00000000
34.661369 8.174307 -23.319304 25.00000000
34.899515 4.383737 -46.277992 25.00000000
34.676326 7.936235 -8.523195 25.00000000
34.814056 5.743990 -53.884934 25.00000000
34.817038 5.696529 -42.903973 25.00000000
34.517322 10.467090 -26.472842 25.00000000
34.571202 9.609498 -5.115516 25.00000000
34.684204 7.810843 -24.339418 25.00000000
34.577033 9.516670 -16.449326 25.00000000
34.772000 6.413401 -35.884541 25.00000000
34.809838 5.811127 -22.361877 25.00000000
34.904023 4.311989 -2.036677 25.00000000
34.721069 7.224068 -4.070690 25.00000000
34.883814 4.633650 -17.681793 25.00000000
34.828231 5.518363 -10.364651 25.00000000
