-30.786536 -1.822896 -47.091275 18.00000000
-47.471808 -44.384516 -1.854571 18.00000000
-29.396447 -1.229093 -3.598622 18.00000000
-30.672351 -1.766700 -2.730491 18.00000000
-41.512825 -9.709188 -34.914165 18.00000000
-49.874568 -29.450584 -37.498673 18.00000000
-46.822627 -17.742988 -41.553571 18.00000000
-49.549757 -26.611651 1.347432 18.00000000
-23.589445 -0.303264 -22.506020 18.00000000
-49.379786 -37.909067 1.015265 18.00000000
-32.272479 -2.554200 -0.838475 18.00000000
-49.575385 -26.761630 -2.832064 18.00000000
-33.892495 -3.471488 -31.546430 18.00000000
-34.292433 -3.712963 -3.204492 18.00000000
-49.763187 -35.376887 -58.200117 18.00000000
-49.493464 -37.262777 -20.497018 18.00000000
-48.562114 -41.310363 -51.273675 18.00000000
-49.956853 -30.445974 -31.112588 18.00000000
-49.847638 -29.128397 -19.800803 18.00000000
-46.928269 -45.564592 -35.722024 18.00000000
-46.680083 -17.429484 -7.017516 18.00000000
-48.352168 -41.971627 -45.532448 18.00000000
-49.836668 -34.546601 -60.920478 18.00000000
-46.414895 -46.679188 -47.431652 18.00000000
-45.824899 -15.796485 -54.760879 18.00000000
-49.774753 -28.256439 -43.824826 18.00000000
-49.246050 -24.834308 -27.639579 18.00000000
-48.177920 -21.092021 -22.456816 18.00000000
-47.245820 -18.673734 -1.682281 18.00000000
-40.799893 -8.974090 -57.982330 18.00000000
-44.076085 -12.982838 2.822015 18.00000000
-39.462000 -7.628207 -19.968215 18.00000000
-49.953495 -31.824149 -50.173999 18.00000000
-46.133826 -16.345432 -35.364145 18.00000000
-24.971946 -0.385646 -53.699254 18.00000000
-49.506763 -26.360045 -34.316126 18.00000000
-49.951778 -32.529092 -47.809708 18.00000000
-49.514460 -37.143410 -47.995223 18.00000000
-48.428591 -41.759486 -41.422703 18.00000000
-48.675971 -40.882268 -14.519509 18.00000000
-48.722476 -40.707412 -13.254472 18.00000000
-49.952682 -32.157731 -1.710816 18.00000000
-22.820474 -0.257441 -7.907324 18.00000000
-48.469949 -21.915193 -58.565669 18.00000000
-36.808756 -5.426442 -12.013531 18.00000000
-33.310525 -3.120106 -13.248619 18.00000000
-39.065620 -7.284148 -13.492299 18.00000000
-49.262781 -24.932222 -23.265437 18.00000000
-21.054922 -0.152233 -43.619743 18.00000000
-34.055561 -3.569944 2.983658 18.00000000
-49.948066 -33.287879 0.452034 18.00000000
-43.201507 -11.754765 -1.759706 18.00000000
-48.903357 -40.027312 -1.357396 18.00000000
-49.924721 -33.551661 -45.136416 18.00000000
-35.613891 -4.557014 -8.406232 18.00000000
-47.132954 -45.120200 -48.969011 18.00000000
-28.113158 -0.729086 -56.288728 18.00000000
-38.908348 -7.147634 -0.419108 18.00000000
-40.968502 -9.147942 -43.641553 18.00000000
-47.707412 -43.761384 -7.911246 18.00000000
-37.918101 -6.288096 -9.377452 18.00000000
-49.878213 -34.077169 -44.414398 18.00000000
-48.455126 -41.685829 -39.113788 18.00000000
-49.815109 -28.739245 -11.679145 18.00000000
-41.566914 -9.764959 -36.216133 18.00000000
-47.416198 -44.505251 -2.964814 18.00000000
-37.004788 -5.569082 -22.036897 18.00000000
-31.552598 -2.199912 -22.525627 18.00000000
-49.809965 -28.677701 -50.748145 18.00000000
-43.744053 -12.495860 -11.359950 18.00000000
-39.444043 -7.612620 -14.730038 18.00000000
-49.873825 -29.441692 -40.900359 18.00000000
-48.329895 -42.033453 1.336777 18.00000000
-33.094492 -2.989670 -5.016257 18.00000000
-39.314510 -7.500185 -21.871441 18.00000000
-46.929226 -45.562525 -18.033931 18.00000000
-48.639133 -22.503064 -7.663778 18.00000000
-48.289883 -21.407621 -57.853787 18.00000000
-49.461599 -26.095737 -58.965657 18.00000000
-27.332730 -0.526324 -36.121024 18.00000000
-32.906564 -2.876202 -18.054567 18.00000000
-37.725918 -6.121281 -27.272408 18.00000000
-49.069580 -24.153865 -54.276652 18.00000000
-49.630518 -27.084277 -2.088814 18.00000000
-32.067908 -2.453521 -35.449069 18.00000000
-46.127587 -16.334344 -10.807525 18.00000000
-30.631627 -1.746657 -45.585223 18.00000000
-46.988970 -18.108833 -12.606702 18.00000000
-30.178846 -1.533939 -22.523072 18.00000000
-38.264733 -6.588975 -19.456401 18.00000000
-33.208033 -3.058223 3.778748 18.00000000
-49.569860 -26.729298 -60.701216 18.00000000
-37.934327 -6.302181 -50.937155 18.00000000
-24.038774 -0.330039 -17.155607 18.00000000
-43.324047 -11.904988 -54.033314 18.00000000
-48.883985 -23.442091 1.298635 18.00000000
-35.416946 -4.413710 -9.233909 18.00000000
-30.372193 -1.618978 -5.536078 18.00000000
-49.952800 -32.109370 -33.226637 18.00000000
-33.222731 -3.067098 -50.265590 18.00000000
-47.302552 -44.751987 -37.087282 18.00000000
-49.312499 -38.291606 -60.172396 18.00000000
-30.598500 -1.730354 -59.146012 18.00000000
-46.521551 -17.080818 -59.527020 18.00000000
-48.376018 -21.650421 -8.360916 18.00000000
-45.055489 -14.429289 -13.137934 18.00000000
-29.787938 -1.381630 1.686224 18.00000000
-46.724119 -17.526335 -16.520238 18.00000000
-48.425795 -21.790731 -18.547210 18.00000000
-35.622213 -4.563070 -12.112170 18.00000000
-44.964623 -14.286017 -30.880341 18.00000000
-48.367700 -21.626975 -29.731251 18.00000000
-49.307862 -38.317970 -10.834667 18.00000000
-42.604697 -11.023135 -3.003641 18.00000000
-46.233912 -16.523278 -51.769609 18.00000000
-27.686121 -0.562700 -38.419089 18.00000000
-49.177175 -38.997779 -11.292097 18.00000000
-48.269870 -21.351209 -25.138069 18.00000000
-31.924957 -2.383168 2.806791 18.00000000
-22.155356 -0.217807 -30.294411 18.00000000
-49.749490 -35.531663 -49.708019 18.00000000
-45.080485 -14.473706 -56.922497 18.00000000
-49.617406 -36.558138 -50.828021 18.00000000
-48.361464 -41.945823 -24.102779 18.00000000
-24.503222 -0.357715 -36.359070 18.00000000
-49.129431 -39.177292 -38.031262 18.00000000
-49.033950 -24.017221 -60.052810 18.00000000
-49.937728 -30.206192 -59.664833 18.00000000
-43.629810 -12.328305 -40.089647 18.00000000
-35.305054 -4.332293 -34.900079 18.00000000
-36.103568 -4.913321 -31.617874 18.00000000
-35.821765 -4.708271 -5.232146 18.00000000
-49.950511 -33.049146 -25.463189 18.00000000
-49.433854 -25.933368 -27.700099 18.00000000
-49.028092 -23.994754 -9.025265 18.00000000
-30.250415 -1.561824 -55.277116 18.00000000
-25.296086 -0.404962 -32.857178 18.00000000
-46.716276 -46.024849 -43.960388 18.00000000
-39.460868 -7.627224 -48.106175 18.00000000
-46.541977 -46.403270 -51.155549 18.00000000
-42.844404 -11.316993 -25.564330 18.00000000
-43.123951 -11.659689 -41.905545 18.00000000
-38.152813 -6.491827 -11.460966 18.00000000
-46.511254 -17.058170 -36.173656 18.00000000
-29.754136 -1.368459 -33.560439 18.00000000
-48.074035 -42.743687 -27.846289 18.00000000
-49.342101 -38.123315 -20.701424 18.00000000
-28.077574 -0.715221 -39.687521 18.00000000
-23.566531 -0.301898 -30.625318 18.00000000
-47.666323 -19.649929 -15.361140 18.00000000
-48.084769 -20.829446 -23.516284 18.00000000
-39.765015 -7.907037 -20.811734 18.00000000
-41.566230 -9.764255 -43.789167 18.00000000
-47.068578 -45.259969 -43.637849 18.00000000
-48.787175 -23.070817 -28.957623 18.00000000
-49.173835 -39.010335 -5.059805 18.00000000
-47.994288 -42.965055 -20.906649 18.00000000
-49.566858 -26.711727 -33.401559 18.00000000
-48.993258 -39.689293 -45.559350 18.00000000
-40.385660 -8.546978 -7.846843 18.00000000
-48.871468 -23.394086 -41.843792 18.00000000
-49.416201 -25.830057 -3.163954 18.00000000
-49.446948 -37.527230 -35.514668 18.00000000
-49.279197 -38.480941 -28.693547 18.00000000
-48.657889 -40.950258 -6.977139 18.00000000
-49.829239 -28.908287 -28.194240 18.00000000
-48.064132 -42.771176 -6.707629 18.00000000
-45.894928 -15.920924 -48.970849 18.00000000
-35.437503 -4.428668 -54.682469 18.00000000
-21.099793 -0.154907 -36.587411 18.00000000
-38.512141 -6.803725 -41.851363 18.00000000
-31.046766 -1.950967 3.758616 18.00000000
-38.001551 -6.360532 -18.189915 18.00000000
-46.860342 -17.825935 3.592578 18.00000000
-21.008935 -0.149493 -10.702737 18.00000000
-43.528471 -12.179675 -37.558040 18.00000000
-30.583682 -1.723061 -24.001582 18.00000000
-43.510094 -12.152723 -55.659239 18.00000000
-32.561749 -2.696564 -49.487670 18.00000000
-49.138781 -39.142137 -10.481365 18.00000000
-47.486969 -19.204103 -13.919640 18.00000000
-47.812471 -43.469754 -43.720143 18.00000000
-49.925072 -30.054781 -45.144848 18.00000000
-40.758748 -8.931667 -37.429782 18.00000000
-34.429006 -3.795423 -44.017040 18.00000000
-49.613174 -26.982776 -57.000381 18.00000000
-46.491456 -46.512975 -32.134584 18.00000000
-47.612905 -44.023722 -47.112584 18.00000000
-32.071502 -2.455290 -24.250145 18.00000000
-33.109804 -2.998915 -8.631568 18.00000000
-46.547472 -46.391374 -13.845884 18.00000000
-49.804555 -34.909461 2.838714 18.00000000
-49.132051 -39.167440 -34.520136 18.00000000
-24.463473 -0.355347 -55.735150 18.00000000
-49.707106 -36.010565 -7.065438 18.00000000
-48.729960 -22.851391 -12.590288 18.00000000
-24.997272 -0.387155 1.364733 18.00000000
-46.439073 -16.899421 -39.827992 18.00000000
-47.325094 -44.703045 -40.113621 18.00000000
-46.921360 -45.579593 -58.159073 18.00000000
-39.203472 -7.403804 -11.193642 18.00000000
-45.445669 -15.122615 -51.931430 18.00000000
-43.484591 -12.115319 -4.456958 18.00000000
-47.396099 -19.004249 -27.808520 18.00000000
-49.078881 -24.189535 -13.528022 18.00000000
-34.040518 -3.560862 -41.487098 18.00000000
-49.956119 -30.747067 -12.603214 18.00000000
-49.435437 -37.592673 -52.226414 18.00000000
-47.523276 -44.272519 -52.907694 18.00000000
-34.471750 -3.821231 -38.870973 18.00000000
-36.435244 -5.154661 -33.623754 18.00000000
-48.507734 -41.514828 -5.167997 18.00000000
-46.881779 -45.665526 -39.600904 18.00000000
-23.551482 -0.301002 -54.165020 18.00000000
-42.170336 -10.490651 2.880252 18.00000000
-49.729057 -27.709754 -47.151576 18.00000000
-37.684130 -6.085009 -20.907107 18.00000000
-24.521475 -0.358803 2.186490 18.00000000
-49.679786 -27.372600 -1.122220 18.00000000
-24.348978 -0.348524 -54.393699 18.00000000
-48.914809 -39.984253 -30.942431 18.00000000
-47.288885 -18.768449 -22.262007 18.00000000
-30.931346 -1.894164 2.796964 18.00000000
-49.091231 -24.236897 -9.864441 18.00000000
-39.375807 -7.553391 -7.222374 18.00000000
-44.694352 -13.889622 -55.753189 18.00000000
-48.588864 -41.209784 -44.931091 18.00000000
-47.043220 -45.315033 -12.017297 18.00000000
-49.006244 -39.640467 -25.393390 18.00000000
-48.610644 -41.127894 -18.004585 18.00000000
-36.917269 -5.505399 -43.666670 18.00000000
-45.618151 -15.429106 -45.250877 18.00000000
-47.081852 -18.313112 -14.260723 18.00000000
-36.237553 -5.010813 -59.841417 18.00000000
-49.953116 -31.979888 0.485670 18.00000000
-44.866153 -14.141595 -36.776312 18.00000000
-49.956039 -30.779973 -22.477026 18.00000000
-44.324516 -13.347200 -36.678917 18.00000000
-48.567655 -41.289530 -20.824955 18.00000000
-49.793387 -35.035649 -41.400521 18.00000000
-47.109830 -18.374646 -18.999192 18.00000000
-49.592799 -36.698034 -13.303151 18.00000000
-38.596904 -6.877300 -45.258129 18.00000000
-49.393683 -37.830056 -51.067833 18.00000000
-43.548152 -12.208541 1.276182 18.00000000
-35.388327 -4.392886 -16.838032 18.00000000
-42.572348 -10.983479 -12.950988 18.00000000
-36.203787 -4.986244 -55.781982 18.00000000
-44.241114 -13.224877 -39.048558 18.00000000
-36.082447 -4.897953 -46.026168 18.00000000
-48.854249 -40.211957 -6.586364 18.00000000
-48.780377 -40.489709 -18.585941 18.00000000
-48.713918 -22.789868 -6.824461 18.00000000
-48.754028 -22.943694 -14.894593 18.00000000
-40.300216 -8.458879 -52.778174 18.00000000
-40.243941 -8.400854 -13.872215 18.00000000
-49.870790 -34.161049 1.820726 18.00000000
-42.102033 -10.406918 -46.522898 18.00000000
-37.695116 -6.094545 0.455752 18.00000000
-49.524030 -26.461089 -38.164747 18.00000000
-49.950594 -33.014920 1.269301 18.00000000
-39.838258 -7.982557 -9.043831 18.00000000
-43.609701 -12.298811 -32.694705 18.00000000
-21.816609 -0.197622 -20.380509 18.00000000
-24.020020 -0.328921 -8.912395 18.00000000
-47.144372 -18.450614 -23.326580 18.00000000
-31.010140 -1.932942 -30.496055 18.00000000
-34.336970 -3.739854 -35.150969 18.00000000
-49.952468 -32.245891 -29.228631 18.00000000
-27.863485 -0.631806 -21.207349 18.00000000
-47.671988 -43.859715 -9.450756 18.00000000
-47.259466 -18.703746 -51.992325 18.00000000
-26.278014 -0.463474 -37.629538 18.00000000
-49.956517 -30.583546 -24.676116 18.00000000
-30.119185 -1.510693 -4.520013 18.00000000
-49.709534 -35.983141 -52.951043 18.00000000
-48.932255 -23.627211 -1.514159 18.00000000
-21.775183 -0.195153 -3.064655 18.00000000
-33.231054 -3.072123 -11.378454 18.00000000
-47.552143 -44.192390 -49.063847 18.00000000
-31.356546 -2.103425 -49.303686 18.00000000
-49.743769 -27.885768 -59.115563 18.00000000
-22.169451 -0.218647 -12.984920 18.00000000
-49.908880 -29.861071 3.826200 18.00000000
-42.913593 -11.401811 -55.081522 18.00000000
-47.542008 -19.325155 -40.504170 18.00000000
-47.081656 -18.312682 -51.324074 18.00000000
-24.705335 -0.369759 -14.890827 18.00000000
-47.059766 -45.279107 -13.372893 18.00000000
-21.486349 -0.177942 -42.507198 18.00000000
-49.955028 -31.194934 -0.861038 18.00000000
-46.015731 -16.135583 -38.174945 18.00000000
-31.799911 -2.321627 -20.304866 18.00000000
-36.739124 -5.375774 -17.338886 18.00000000
-43.540084 -12.196708 -41.376689 18.00000000
-49.441103 -37.560465 -59.888895 18.00000000
-47.958946 -43.063158 -46.993958 18.00000000
-25.108705 -0.393796 -46.628172 18.00000000
-34.958773 -4.115286 -32.685599 18.00000000
-49.660235 -36.314641 -45.326076 18.00000000
-47.067929 -45.261377 -31.461430 18.00000000
-24.192964 -0.339227 -58.676394 18.00000000
-48.971611 -23.778144 -56.186854 18.00000000
-37.840229 -6.220503 -51.764335 18.00000000
-49.366165 -25.537238 -18.200337 18.00000000
-46.426438 -46.654171 0.420729 18.00000000
-38.470032 -6.767175 -34.589883 18.00000000
-39.323406 -7.507907 -30.630070 18.00000000
-44.925839 -14.229135 -40.473331 18.00000000
-29.030981 -1.086697 -29.279039 18.00000000
-42.520095 -10.919421 -40.780385 18.00000000
-40.135754 -8.289303 -55.218740 18.00000000
-33.748480 -3.384534 -27.598313 18.00000000
-40.098460 -8.250849 -6.807140 18.00000000
-49.254593 -24.884300 -25.283945 18.00000000
-39.623053 -7.768001 -44.993166 18.00000000
-41.963666 -10.237294 -52.601833 18.00000000
-27.594521 -0.541924 -18.750706 18.00000000
-25.191944 -0.398756 -41.538246 18.00000000
-49.942662 -33.348938 -60.384013 18.00000000
-49.955998 -30.796640 -49.983514 18.00000000
-49.025865 -23.986212 -24.112383 18.00000000
-47.748787 -43.646531 -21.791655 18.00000000
-22.694377 -0.249927 -33.046123 18.00000000
-34.426382 -3.793838 -27.085667 18.00000000
-48.373158 -21.642358 -59.737229 18.00000000
-26.529362 -0.478452 -15.767279 18.00000000
-48.127864 -20.950922 -11.192240 18.00000000
-38.005073 -6.363589 -35.224845 18.00000000
-21.919184 -0.203734 -25.111142 18.00000000
-47.779074 -19.967752 -13.197335 18.00000000
-48.848811 -40.232402 -46.299482 18.00000000
-49.406431 -37.757581 -15.548142 18.00000000
-47.353254 -18.910019 -15.984392 18.00000000
-34.409095 -3.783401 -26.084953 18.00000000
-49.194720 -38.931810 -40.461406 18.00000000
-39.300787 -7.488273 -16.639645 18.00000000
-46.085754 -16.260010 -44.786029 18.00000000
-27.758326 -0.590833 -22.017661 18.00000000
-35.132731 -4.220318 -27.585998 18.00000000
-49.711362 -35.962476 0.646780 18.00000000
-49.788388 -28.419562 -15.852620 18.00000000
-48.288987 -21.405096 -31.050338 18.00000000
-49.956722 -30.499585 -39.422510 18.00000000
-35.263709 -4.302209 -21.692358 18.00000000
-49.661356 -27.264748 -38.260092 18.00000000
-28.837967 -1.011493 3.380927 18.00000000
-28.970308 -1.063057 -57.492940 18.00000000
-27.601424 -0.542335 -44.221987 18.00000000
-44.248825 -13.236188 -52.219815 18.00000000
-49.010073 -39.626070 -47.086028 18.00000000
-45.165046 -14.623964 -1.107612 18.00000000
-39.987703 -8.136649 -4.282795 18.00000000
-49.815697 -34.783563 -45.121948 18.00000000
-49.092049 -39.317846 -27.822729 18.00000000
-39.324836 -7.509148 -8.467966 18.00000000
-34.644388 -3.925466 -44.759479 18.00000000
-33.245206 -3.080668 -32.593727 18.00000000
-47.217156 -44.937389 -19.814697 18.00000000
-34.397274 -3.776264 -49.491103 18.00000000
-46.126668 -16.332711 3.279878 18.00000000
-45.852930 -15.846295 -40.385961 18.00000000
-49.950018 -33.251335 -40.400957 18.00000000
-44.604222 -13.757433 -13.370107 18.00000000
-49.922345 -30.022163 -34.253754 18.00000000
-49.766774 -28.160984 -47.980904 18.00000000
-35.891977 -4.759360 -10.920593 18.00000000
-40.984355 -9.164288 -35.389731 18.00000000
-48.457567 -41.679055 -33.919339 18.00000000
-49.933607 -30.156895 -47.251195 18.00000000
-49.548701 -26.605468 -39.589964 18.00000000
-49.422760 -25.868443 -38.738670 18.00000000
-38.823224 -7.073747 -54.525500 18.00000000
-39.060124 -7.279377 3.829661 18.00000000
-32.660780 -2.745302 -44.991826 18.00000000
-30.662036 -1.761623 -25.026200 18.00000000
-45.128197 -14.558486 -51.405288 18.00000000
-39.939966 -8.087428 -58.754334 18.00000000
-49.954805 -31.286648 -60.944179 18.00000000
-33.672408 -3.338604 -53.763212 18.00000000
-49.851292 -29.172120 -1.130266 18.00000000
-25.748317 -0.431910 -45.424786 18.00000000
-39.719107 -7.859702 -54.647973 18.00000000
-46.801212 -17.695888 -28.593621 18.00000000
-33.089703 -2.986778 -4.120967 18.00000000
-35.218033 -4.271822 -22.717558 18.00000000
-31.964172 -2.402467 -9.852177 18.00000000
-25.807422 -0.435432 -59.239824 18.00000000
-26.692633 -0.488181 -4.345914 18.00000000
-41.528554 -9.725407 -49.539494 18.00000000
-48.508380 -41.512399 -18.905656 18.00000000
-34.533887 -3.858748 -24.908605 18.00000000
-46.350743 -46.818506 -8.338488 18.00000000
-43.944174 -12.789369 -53.919444 18.00000000
-49.264635 -38.563728 -19.196734 18.00000000
-22.647743 -0.247148 -28.864259 18.00000000
-48.768580 -40.534065 -26.926544 18.00000000
-46.591668 -46.295407 -25.196849 18.00000000
-30.585685 -1.724047 -43.181454 18.00000000
-49.514079 -37.145576 -4.239413 18.00000000
-49.783767 -28.364277 -37.130439 18.00000000
-31.637678 -2.241784 -39.619558 18.00000000
-49.143732 -39.123519 -57.992116 18.00000000
-28.242138 -0.779340 -2.094297 18.00000000
-28.735808 -0.971689 -18.411303 18.00000000
-47.266873 -18.720037 -8.012887 18.00000000
-49.429446 -25.907571 -42.234018 18.00000000
-41.970314 -10.245444 -35.528346 18.00000000
-38.119139 -6.462599 -4.528407 18.00000000
-42.352717 -10.714232 -0.330888 18.00000000
-48.794207 -23.097784 -2.399945 18.00000000
-44.240626 -13.224162 -8.239578 18.00000000
-24.706067 -0.369803 -61.025869 18.00000000
-40.159914 -8.314214 -3.275192 18.00000000
-48.849497 -40.229823 -23.273929 18.00000000
-49.809783 -28.675528 2.634694 18.00000000
-49.950830 -32.918066 -11.379078 18.00000000
-31.329742 -2.090234 -5.430745 18.00000000
-46.902542 -17.918747 -2.648434 18.00000000
-48.380839 -21.664011 -45.955041 18.00000000
-22.559307 -0.241878 -12.114233 18.00000000
-40.800670 -8.974892 -54.898286 18.00000000
-46.860775 -17.826889 -3.671581 18.00000000
-22.095435 -0.214237 -35.014341 18.00000000
-39.844752 -7.989253 -57.973506 18.00000000
-31.802966 -2.323130 -42.851930 18.00000000
-41.056825 -9.239011 -41.404837 18.00000000
-37.207998 -5.716944 -46.695251 18.00000000
-37.840852 -6.221044 -24.582052 18.00000000
-32.883987 -2.862571 -17.247735 18.00000000
-40.898467 -9.075730 1.149939 18.00000000
-49.779900 -35.188049 -22.732725 18.00000000
-48.337665 -42.011885 -14.991959 18.00000000
-31.045119 -1.950157 -27.713966 18.00000000
-21.043154 -0.151532 -53.117663 18.00000000
-49.955920 -30.828658 -19.200815 18.00000000
-45.655436 -15.495360 -44.419905 18.00000000
-34.897720 -4.078423 -47.027378 18.00000000
-48.271327 -21.355318 -2.865019 18.00000000
-39.711493 -7.851851 -28.892709 18.00000000
-42.508466 -10.905165 -27.293151 18.00000000
-49.909816 -29.872268 -28.302425 18.00000000
-48.168573 -21.065674 -26.173705 18.00000000
-49.845127 -29.098359 -21.332597 18.00000000
-31.088742 -1.971626 -56.519618 18.00000000
-49.569179 -26.725310 -20.492210 18.00000000
-27.689283 -0.563932 -16.398084 18.00000000
-42.101375 -10.406111 -23.113651 18.00000000
-48.827983 -40.310714 -17.660002 18.00000000
-46.695902 -46.069115 -8.417350 18.00000000
-36.757876 -5.389420 -1.166780 18.00000000
-25.960384 -0.444547 -60.285047 18.00000000
-47.670305 -43.864387 -6.001800 18.00000000
-49.370282 -25.561331 -37.650458 18.00000000
-49.828820 -34.635286 -25.394026 18.00000000
-26.059673 -0.450463 -3.851114 18.00000000
-38.928331 -7.164980 -19.560170 18.00000000
-46.912205 -17.940001 -36.870078 18.00000000
-45.898804 -15.927811 -37.433309 18.00000000
-49.844128 -34.462314 -14.932746 18.00000000
-39.451999 -7.619526 1.962354 18.00000000
-47.590564 -44.085737 -56.875995 18.00000000
-24.155851 -0.337016 -4.520903 18.00000000
-46.300323 -16.641287 -50.002417 18.00000000
-43.182749 -11.731770 -31.752369 18.00000000
-44.780650 -14.016192 -24.658051 18.00000000
-49.834174 -28.967330 -22.873518 18.00000000
-49.866768 -34.206498 -29.512424 18.00000000
-48.428739 -21.799029 -49.451745 18.00000000
-24.418343 -0.352657 -41.071913 18.00000000
-47.587274 -19.427105 -55.854871 18.00000000
-43.257058 -11.822866 -1.007147 18.00000000
-48.446639 -21.849486 -33.198786 18.00000000
-38.326203 -6.642331 -23.711263 18.00000000
-30.483581 -1.673797 -60.083123 18.00000000
-49.930201 -33.489742 -57.324701 18.00000000
-46.869312 -17.845664 -52.296446 18.00000000
-49.453565 -37.489610 -23.669363 18.00000000
-40.103489 -8.256035 -40.574290 18.00000000
-48.092495 -42.692445 -53.861906 18.00000000
-40.650039 -8.819577 -13.038891 18.00000000
-47.946324 -43.098196 -38.803279 18.00000000
-21.852018 -0.199732 -10.094496 18.00000000
-29.369317 -1.218522 -22.729777 18.00000000
-47.582157 -44.109074 -3.621604 18.00000000
-30.325351 -1.595924 -31.127149 18.00000000
-49.445246 -37.536906 -33.880244 18.00000000
-48.411587 -21.750682 -56.224943 18.00000000
-45.024967 -14.375053 -21.755837 18.00000000
-43.292718 -11.866581 -8.433489 18.00000000
-49.329814 -25.324508 -39.391607 18.00000000
-35.227502 -4.277539 -19.685884 18.00000000
-38.793151 -7.047643 -12.644647 18.00000000
-49.713912 -27.572313 -52.064092 18.00000000
-49.850588 -34.389315 -20.454298 18.00000000
-35.405631 -4.405477 -36.333903 18.00000000
-44.134714 -13.068826 -21.609770 18.00000000
-41.595398 -9.794329 -33.462392 18.00000000
-34.629323 -3.916370 -33.459051 18.00000000
-49.350490 -38.075620 -4.346844 18.00000000
-49.226139 -38.782589 -43.664872 18.00000000
-36.982081 -5.552559 -14.905253 18.00000000
-49.927646 -30.085575 1.548717 18.00000000
-49.638765 -36.436702 -46.510404 18.00000000
-31.869692 -2.355969 -44.947263 18.00000000
-46.964965 -18.056037 -6.280396 18.00000000
-44.583879 -13.727597 2.106697 18.00000000
-48.211976 -42.360781 -39.519893 18.00000000
-47.271593 -44.819213 2.972352 18.00000000
-49.825457 -28.863036 -1.954482 18.00000000
-38.267454 -6.591336 -47.945228 18.00000000
-49.866127 -29.349600 -7.117862 18.00000000
-49.344894 -25.412759 -49.399983 18.00000000
-28.128420 -0.735033 -37.559885 18.00000000
-36.714028 -5.357514 -35.244088 18.00000000
-39.891739 -8.037701 -37.719864 18.00000000
-49.545885 -26.588988 -7.937892 18.00000000
-39.143506 -7.351753 -27.111248 18.00000000
-49.950782 -32.937860 -9.688011 18.00000000
-48.860441 -23.351796 -13.281070 18.00000000
-44.926584 -14.230227 -35.183494 18.00000000
-47.208086 -18.590743 -43.209973 18.00000000
-42.415790 -10.791554 0.478085 18.00000000
-30.936986 -1.896940 -36.750318 18.00000000
-30.744605 -1.802259 -12.519650 18.00000000
-47.839568 -20.138274 -26.168123 18.00000000
-49.006469 -23.911828 -2.416303 18.00000000
-21.952587 -0.205724 -24.210348 18.00000000
-41.673278 -9.881307 -26.694051 18.00000000
-34.398188 -3.776815 -21.837355 18.00000000
-39.490900 -7.653292 -32.004587 18.00000000
-31.909724 -2.375671 -30.041259 18.00000000
-33.614136 -3.303420 -52.289711 18.00000000
-49.953518 -31.814812 -22.648920 18.00000000
-48.839298 -23.270712 -24.909134 18.00000000
-49.955762 -30.893532 -25.640476 18.00000000
-49.805385 -34.900086 -14.226435 18.00000000
-47.055743 -18.255690 -5.374910 18.00000000
-36.960474 -5.536837 -50.282132 18.00000000
-33.230251 -3.071638 -45.608941 18.00000000
-41.005585 -9.186178 -7.393965 18.00000000
-49.484115 -37.315926 -14.781743 18.00000000
-31.289519 -2.070438 -43.851439 18.00000000
-48.727132 -40.689906 1.890909 18.00000000
-40.643764 -8.813108 -3.974472 18.00000000
-48.245400 -21.282234 -33.722596 18.00000000
-49.038620 -24.035128 -31.621538 18.00000000
-48.970904 -39.773342 -42.334089 18.00000000
-40.645594 -8.814995 -40.571005 18.00000000
-44.818834 -14.072194 -45.990170 18.00000000
-49.826898 -34.656997 -17.963476 18.00000000
-34.732837 -3.978870 -18.516420 18.00000000
-48.679326 -40.869654 -57.011243 18.00000000
-49.653403 -36.353482 -14.484970 18.00000000
-47.612932 -19.499430 -43.769181 18.00000000
-31.537840 -2.192649 -8.959191 18.00000000
-36.054391 -4.877538 -60.797676 18.00000000
-48.616112 -22.414776 -0.526229 18.00000000
-45.440550 -15.113519 3.820058 18.00000000
-22.903599 -0.262395 -42.536282 18.00000000
-39.748233 -7.889734 -43.878010 18.00000000
-40.164459 -8.318901 -25.189555 18.00000000
-48.722091 -22.821214 -58.756683 18.00000000
-49.952446 -32.254928 -25.381427 18.00000000
-38.653463 -6.926394 -57.502677 18.00000000
-48.665097 -40.923154 -38.601932 18.00000000
-49.378584 -25.609919 -43.144382 18.00000000
-47.147673 -45.088245 -59.978841 18.00000000
-44.804142 -14.050646 -2.586279 18.00000000
-44.912687 -14.209845 -17.655411 18.00000000
-48.575108 -22.257521 -43.821399 18.00000000
-48.710200 -22.775609 -1.394416 18.00000000
-49.433912 -25.933705 -29.254162 18.00000000
-35.007607 -4.144771 2.970691 18.00000000
-45.566072 -15.336565 -58.244674 18.00000000
-45.892861 -15.917250 -31.317716 18.00000000
-36.812526 -5.429185 -58.991240 18.00000000
-48.853200 -23.324028 -50.286452 18.00000000
-43.333698 -11.916819 -44.219176 18.00000000
-37.880661 -6.255599 -57.395791 18.00000000
-43.421948 -12.025005 -17.157291 18.00000000
-48.090512 -42.697949 3.604709 18.00000000
-21.156813 -0.158305 -44.704764 18.00000000
-23.530690 -0.299763 -8.253910 18.00000000
-49.576372 -36.791422 3.239296 18.00000000
-29.739901 -1.362913 -29.108944 18.00000000
-27.966162 -0.671812 -46.487985 18.00000000
-48.880269 -23.427841 -3.769764 18.00000000
-46.784274 -45.877227 -29.367994 18.00000000
-34.042747 -3.562207 -36.179865 18.00000000
-29.787065 -1.381289 -9.770244 18.00000000
-49.112148 -39.242276 -3.967238 18.00000000
-45.448942 -15.128432 -50.840186 18.00000000
-49.941827 -30.255234 -29.225503 18.00000000
-41.332312 -9.523063 -11.096356 18.00000000
-48.475626 -21.931196 -57.123547 18.00000000
-47.575240 -19.398241 -36.557517 18.00000000
-49.952787 -32.114812 -28.142029 18.00000000
-42.680342 -11.115868 -26.458752 18.00000000
-48.049451 -20.729892 1.206827 18.00000000
-46.410821 -46.688043 -36.291251 18.00000000
-48.792682 -40.443442 -51.058920 18.00000000
-43.925552 -12.762057 -25.941270 18.00000000
-49.675939 -27.350088 -14.982213 18.00000000
-47.444004 -44.444882 -0.013385 18.00000000
-48.571572 -41.274802 -56.091388 18.00000000
-36.484315 -5.190367 -29.456219 18.00000000
-21.831315 -0.198498 -18.408963 18.00000000
-49.632191 -27.094065 -58.725325 18.00000000
-26.503944 -0.476937 -6.088866 18.00000000
-46.482503 -46.532413 -34.264657 18.00000000
-49.952705 -32.148292 -15.926662 18.00000000
-44.912147 -14.209052 -18.594497 18.00000000
-49.169905 -24.538620 -4.039138 18.00000000
-40.055176 -8.206219 -27.386505 18.00000000
-46.026235 -16.154248 -46.556755 18.00000000
-45.435277 -15.104150 -42.954956 18.00000000
-29.564096 -1.294414 -14.177695 18.00000000
-45.458834 -15.146009 -57.400151 18.00000000
-38.931746 -7.167944 -2.313260 18.00000000
-37.239177 -5.739632 -52.236754 18.00000000
-44.505526 -13.612679 -41.700559 18.00000000
-49.952101 -32.396450 -43.593555 18.00000000
-49.951826 -32.509016 -0.211424 18.00000000
-46.785684 -45.874158 -52.359411 18.00000000
-48.402671 -21.725548 -3.577548 18.00000000
-43.120889 -11.655936 -36.862563 18.00000000
-39.847301 -7.991881 -13.205642 18.00000000
-41.728332 -9.948798 -20.616945 18.00000000
-49.869703 -29.392372 -59.339319 18.00000000
-47.461523 -19.148139 -56.817162 18.00000000
-22.928416 -0.263873 1.094271 18.00000000
-27.322949 -0.525741 -32.664721 18.00000000
-33.615413 -3.304191 -25.652190 18.00000000
-41.591895 -9.790717 -58.567774 18.00000000
-48.378174 -41.899437 -59.363181 18.00000000
-37.094005 -5.633999 -48.729834 18.00000000
-40.052493 -8.203453 -39.558405 18.00000000
-49.853956 -29.203983 -17.041467 18.00000000
-29.685486 -1.341711 -49.742287 18.00000000
-45.953234 -16.024530 -7.320843 18.00000000
-49.950228 -33.165178 -2.332049 18.00000000
-31.351304 -2.100846 -23.988056 18.00000000
-44.097586 -13.014372 -13.496709 18.00000000
-49.951139 -32.791055 -52.805073 18.00000000
-25.868123 -0.439049 -50.372364 18.00000000
-39.584865 -7.734854 -24.678539 18.00000000
-48.866150 -40.167211 -40.397958 18.00000000
-44.130575 -13.062755 -31.404610 18.00000000
-47.051936 -18.247317 -44.048669 18.00000000
-48.433474 -21.812376 -6.980708 18.00000000
-26.576491 -0.481260 -34.295322 18.00000000
-49.812650 -34.817989 -5.184185 18.00000000
-49.253964 -38.624397 -26.104142 18.00000000
-49.777838 -28.293344 -23.816276 18.00000000
-46.614824 -17.285958 -31.412093 18.00000000
-35.253641 -4.294883 -38.445989 18.00000000
-26.332986 -0.466750 -60.997895 18.00000000
-47.935300 -43.128797 -19.961315 18.00000000
-49.646530 -27.177983 -55.710306 18.00000000
-46.659286 -46.148580 -57.414471 18.00000000
-34.344442 -3.744365 -23.810028 18.00000000
-49.953214 -31.939635 -11.866818 18.00000000
-30.292213 -1.579616 -3.598047 18.00000000
-47.750673 -19.887696 -41.372519 18.00000000
-46.616420 -46.241694 3.158253 18.00000000
-49.951640 -32.585769 -12.691307 18.00000000
-48.344576 -21.561791 1.346397 18.00000000
-49.791997 -35.051356 -21.734834 18.00000000
-46.352062 -46.815639 -12.827106 18.00000000
-48.880813 -23.429925 -21.070962 18.00000000
-27.686078 -0.562683 -17.614264 18.00000000
-37.003635 -5.568242 -9.743436 18.00000000
-22.221719 -0.221762 -0.609278 18.00000000
-42.231984 -10.566225 1.994881 18.00000000
-49.956090 -30.758894 -33.531828 18.00000000
-28.430197 -0.852614 -31.284755 18.00000000
-47.392589 -18.996530 -18.291620 18.00000000
-29.742381 -1.363879 -39.812369 18.00000000
-49.186932 -24.603918 -2.958986 18.00000000
-49.298189 -25.139432 -15.448898 18.00000000
-49.888088 -33.965597 -42.424743 18.00000000
-48.409924 -21.745995 -21.379065 18.00000000
-47.639161 -19.573364 -50.415557 18.00000000
-49.883222 -34.020577 -48.791512 18.00000000
-49.665468 -36.284890 -40.372723 18.00000000
-29.302645 -1.192545 -35.818907 18.00000000
-47.702081 -19.750724 -39.589122 18.00000000
-49.342346 -25.397848 -4.061075 18.00000000
-48.535556 -41.410218 -23.219445 18.00000000
-30.977124 -1.916693 -4.692281 18.00000000
-20.995290 -0.148680 -22.143872 18.00000000
-48.812941 -40.367272 -20.454055 18.00000000
-45.736431 -15.639283 -32.176762 18.00000000
-45.648089 -15.482305 -5.216105 18.00000000
-48.715175 -22.794689 -59.606193 18.00000000
-43.596770 -12.279847 -16.246585 18.00000000
-21.826822 -0.198230 -56.341583 18.00000000
-25.796137 -0.434759 -5.530435 18.00000000
-47.738650 -19.853805 -2.808962 18.00000000
-47.676641 -43.846799 -24.099663 18.00000000
-41.032922 -9.214365 -25.357526 18.00000000
-32.582061 -2.706560 -34.864412 18.00000000
-47.469354 -44.389844 -22.201046 18.00000000
-44.594663 -13.743413 -61.105881 18.00000000
-42.299592 -10.649107 -23.929517 18.00000000
-33.214284 -3.061998 1.331935 18.00000000
-48.987140 -39.712297 -11.848474 18.00000000
-49.231340 -38.753020 -30.589983 18.00000000
-38.857619 -7.103601 -47.736641 18.00000000
-45.830045 -15.805630 -42.583043 18.00000000
-35.137522 -4.223211 -3.673652 18.00000000
-49.873728 -34.127855 -41.364764 18.00000000
-49.807949 -34.871112 -51.005742 18.00000000
-30.222606 -1.550989 -6.504740 18.00000000
-47.334694 -18.869198 -60.972598 18.00000000
-42.373428 -10.739622 -39.917300 18.00000000
-46.359774 -16.746927 -17.045066 18.00000000
-49.499216 -37.230075 -9.090977 18.00000000
-49.954699 -31.329781 -8.877046 18.00000000
-47.604238 -19.474926 -19.012045 18.00000000
-21.983830 -0.207586 -55.159721 18.00000000
-36.716124 -5.359039 -40.628837 18.00000000
-31.219803 -2.036127 -51.724110 18.00000000
-49.204091 -24.669723 -45.566727 18.00000000
-38.134793 -6.476187 3.845642 18.00000000
-47.765026 -43.601455 -58.281906 18.00000000
-48.024883 -42.880128 -59.898949 18.00000000
-49.952850 -32.088866 -36.228925 18.00000000
-49.933687 -33.450357 -13.117203 18.00000000
-47.212664 -44.947143 -26.070323 18.00000000
-37.530584 -5.951731 -20.093718 18.00000000
-39.389149 -7.564972 2.911986 18.00000000
-47.689513 -43.811068 -33.055499 18.00000000
-38.127694 -6.470024 -54.627504 18.00000000
-48.980110 -39.738729 -54.905163 18.00000000
-29.740353 -1.363089 0.236307 18.00000000
-49.802903 -28.593216 -31.146447 18.00000000
-42.149985 -10.465702 -60.065417 18.00000000
-48.533613 -22.098384 -22.603431 18.00000000
-49.956322 -30.663866 -55.814173 18.00000000
-46.367604 -46.781885 -24.592230 18.00000000
-34.320070 -3.729650 -37.947727 18.00000000
-35.259500 -4.299147 -25.559831 18.00000000
-49.510655 -26.382818 0.116058 18.00000000
-45.532172 -15.276327 -13.260165 18.00000000
-49.652929 -36.356180 -36.000831 18.00000000
-47.305107 -18.804126 -45.505673 18.00000000
-32.219264 -2.528011 -54.981057 18.00000000
-27.622922 -0.543616 -40.769993 18.00000000
-46.478520 -16.986178 -6.022891 18.00000000
-36.492300 -5.196177 -4.645529 18.00000000
-49.898926 -33.843125 -39.922572 18.00000000
-37.950915 -6.316580 -2.123459 18.00000000
-47.295600 -44.767081 -41.016613 18.00000000
-38.199058 -6.531968 -29.968336 18.00000000
-33.217179 -3.063746 -1.869296 18.00000000
-49.307964 -25.196637 -21.255600 18.00000000
-47.362683 -18.930756 -53.843007 18.00000000
-34.663831 -3.937205 -9.343535 18.00000000
-40.025787 -8.175916 -17.546447 18.00000000
-49.956159 -30.730865 -14.991192 18.00000000
-38.075753 -6.424939 -0.160392 18.00000000
-47.894905 -43.240928 -10.257982 18.00000000
-38.864609 -7.109669 -58.564819 18.00000000
-49.061637 -24.123400 -40.144598 18.00000000
-49.273068 -24.992420 -14.600202 18.00000000
-27.208332 -0.518911 -46.170355 18.00000000
-45.384820 -15.014491 -4.461507 18.00000000
-49.284815 -25.061166 -8.751710 18.00000000
-36.899444 -5.492430 -42.783565 18.00000000
-30.774123 -1.816787 -54.677381 18.00000000
-38.252511 -6.578366 -13.522805 18.00000000
-41.950311 -10.220923 -38.245818 18.00000000
-47.789210 -19.996322 -35.558854 18.00000000
-45.603017 -15.402215 -28.969414 18.00000000
-49.889708 -29.631709 -23.502237 18.00000000
-49.649811 -27.197184 -21.423026 18.00000000
-40.806619 -8.981025 -42.340588 18.00000000
-48.725665 -40.695422 -31.723845 18.00000000
-39.917987 -8.064765 -11.546197 18.00000000
-49.421139 -37.673963 -28.140374 18.00000000
-37.357777 -5.825929 -4.609707 18.00000000
-46.751788 -45.947778 -9.258630 18.00000000
-49.747999 -35.548505 -39.925173 18.00000000
-24.013262 -0.328519 -43.260261 18.00000000
-44.019439 -12.899756 -48.352027 18.00000000
-31.956699 -2.398789 3.833444 18.00000000
-49.459941 -26.086029 -26.504620 18.00000000
-44.834424 -14.095061 -4.934419 18.00000000
-28.640552 -0.934574 -46.037420 18.00000000
-34.846384 -4.047427 -37.278825 18.00000000
-49.825650 -28.865353 -36.473935 18.00000000
-22.281989 -0.225353 -37.341394 18.00000000
-47.835383 -20.126477 -56.021593 18.00000000
-46.901235 -17.915874 -45.512853 18.00000000
-44.101267 -13.019770 -23.188732 18.00000000
-49.673068 -27.333287 1.960487 18.00000000
-48.300682 -21.438062 2.968093 18.00000000
-47.199643 -18.572175 -36.336456 18.00000000
-40.221239 -8.377446 -24.005813 18.00000000
-29.946654 -1.443470 -56.692478 18.00000000
-42.692624 -11.130925 -49.824815 18.00000000
-47.023807 -18.185452 -34.714655 18.00000000
-48.004650 -20.603607 -59.369153 18.00000000
-49.787919 -35.097435 0.822313 18.00000000
-36.299464 -5.055862 -18.458994 18.00000000
-49.888061 -29.612006 -31.513777 18.00000000
-41.394409 -9.587091 -38.341667 18.00000000
-47.262442 -18.710291 -37.418559 18.00000000
-25.766952 -0.433020 -16.473264 18.00000000
-49.821866 -34.713857 -56.540945 18.00000000
-48.172576 -42.470151 -32.295405 18.00000000
-38.924451 -7.161612 -7.836862 18.00000000
-47.623904 -19.530358 3.690158 18.00000000
-49.710868 -35.968060 -26.343053 18.00000000
-31.829101 -2.335992 -34.626294 18.00000000
-21.424854 -0.174277 -51.509934 18.00000000
-49.740099 -35.637768 -42.138373 18.00000000
-49.740748 -27.849623 -30.655684 18.00000000
-47.541400 -44.222211 -55.582940 18.00000000
-47.790288 -43.531332 -59.462412 18.00000000
-47.631571 -43.971907 -14.410802 18.00000000
-25.099421 -0.393242 -50.956092 18.00000000
-49.237689 -24.798574 -22.477787 18.00000000
-49.728566 -27.703886 -42.209751 18.00000000
-49.418848 -37.686987 -18.381921 18.00000000
-41.315630 -9.505863 -53.367249 18.00000000
-26.572407 -0.481017 -57.437279 18.00000000
-49.246993 -38.664028 -47.116682 18.00000000
-31.547951 -2.197625 -6.569365 18.00000000
-31.327364 -2.089063 -21.181632 18.00000000
-46.919084 -17.955129 -15.447456 18.00000000
-49.651444 -27.206740 -35.007268 18.00000000
-42.188088 -10.512413 -50.531661 18.00000000
-49.918072 -33.626799 -37.253597 18.00000000
-49.684003 -36.179513 -23.059888 18.00000000
-25.532163 -0.419029 -38.484046 18.00000000
-41.411938 -9.605165 -28.043859 18.00000000
-46.443189 -16.908474 -45.391631 18.00000000
-47.951214 -43.084622 -18.020220 18.00000000
-49.288831 -25.084670 -13.163428 18.00000000
-37.132137 -5.661746 -7.456568 18.00000000
-46.856540 -45.720334 -19.795576 18.00000000
-29.635582 -1.322267 -10.815844 18.00000000
-21.049990 -0.151939 -48.783529 18.00000000
-39.643846 -7.786050 -10.020205 18.00000000
-35.699861 -4.619570 -47.044167 18.00000000
-48.589255 -22.311775 -35.357020 18.00000000
-45.092726 -14.495457 -15.247946 18.00000000
-48.264172 -21.335147 -4.571261 18.00000000
-46.955255 -18.034681 -31.977105 18.00000000
-39.515177 -7.674364 -0.547386 18.00000000
-48.317568 -21.485662 -5.969000 18.00000000
-39.629338 -7.773457 -5.915417 18.00000000
-49.421307 -25.859942 -14.691500 18.00000000
-49.610107 -26.964829 -22.783434 18.00000000
-46.921759 -45.578745 -10.274660 18.00000000
-31.664444 -2.254957 -27.015089 18.00000000
-49.950005 -33.256579 -13.964311 18.00000000
-48.201756 -42.389150 -34.507494 18.00000000
-48.768799 -23.000342 -8.595663 18.00000000
-28.957260 -1.057973 -39.581053 18.00000000
-49.768064 -35.321785 -12.271602 18.00000000
-49.953704 -31.738425 -18.764807 18.00000000
-43.343328 -11.928625 -5.589138 18.00000000
-49.952527 -32.221465 -13.511730 18.00000000
-30.471329 -1.667767 -39.539195 18.00000000
-45.251569 -14.777711 -36.022571 18.00000000
-33.287841 -3.106410 -12.205183 18.00000000
-48.283237 -42.162972 -26.552362 18.00000000
-49.722081 -35.841360 -54.160451 18.00000000
-38.297004 -6.616986 -2.929484 18.00000000
-46.125385 -16.330433 -2.687429 18.00000000
-44.754051 -13.977180 -16.487221 18.00000000
-49.726230 -35.794482 -35.270957 18.00000000
-30.946802 -1.901770 1.729205 18.00000000
-49.239337 -24.804895 -51.443072 18.00000000
-40.111269 -8.264057 -21.457491 18.00000000
-47.271834 -44.818684 -3.936827 18.00000000
-48.107116 -20.892439 -49.256855 18.00000000
-49.116016 -39.227731 -44.624022 18.00000000
-30.737278 -1.798654 -16.894669 18.00000000
-49.004395 -23.903875 -14.629105 18.00000000
-49.923065 -30.030768 -13.190500 18.00000000
-49.396290 -37.815234 -55.885374 18.00000000
-44.312358 -13.329368 -30.624050 18.00000000
-35.275476 -4.310771 -51.229548 18.00000000
-47.283970 -18.757638 -47.601526 18.00000000
-47.136486 -45.112548 -0.400551 18.00000000
-48.960846 -23.736860 -18.123635 18.00000000
-30.687751 -1.774279 -20.800994 18.00000000
-30.399730 -1.632530 -49.200174 18.00000000
-21.208233 -0.161369 -13.340862 18.00000000
-40.610674 -8.778989 -60.473287 18.00000000
-42.480204 -10.870519 -59.041293 18.00000000
-47.931137 -43.140354 -50.212150 18.00000000
-49.850200 -29.159054 -45.760149 18.00000000
-25.184005 -0.398283 -20.920388 18.00000000
-48.861621 -23.356323 -15.684154 18.00000000
-30.962435 -1.909464 -0.261872 18.00000000
-49.907720 -29.847194 -40.178994 18.00000000
-47.897095 -43.234848 -57.359666 18.00000000
-49.050600 -39.473689 -31.590378 18.00000000
-43.873131 -12.685173 -23.920065 18.00000000
-32.639358 -2.734759 -14.978107 18.00000000
-25.280580 -0.404038 -8.727878 18.00000000
-44.237256 -13.219219 0.679210 18.00000000
-49.794150 -35.027029 -60.124695 18.00000000
-49.793888 -28.485361 -7.460369 18.00000000
-49.947091 -33.298894 -29.089034 18.00000000
-47.917878 -43.177157 -5.217516 18.00000000
-36.441741 -5.159388 -38.656556 18.00000000
-26.787168 -0.493814 -60.265734 18.00000000
-43.141728 -11.681483 -6.830236 18.00000000
-49.887059 -33.977223 -45.861714 18.00000000
-48.366494 -41.931861 -9.826968 18.00000000
-22.382057 -0.231316 -10.719538 18.00000000
-40.544381 -8.710634 0.023404 18.00000000
-49.950200 -33.176594 -20.415728 18.00000000
-48.524882 -22.070038 -4.486709 18.00000000
-49.937499 -30.203450 -44.379977 18.00000000
-48.539333 -41.396019 -54.387992 18.00000000
-36.912547 -5.501964 -16.105631 18.00000000
-49.956594 -30.552158 -2.224994 18.00000000
-25.827264 -0.436614 -17.960945 18.00000000
-49.909503 -29.868523 -41.656083 18.00000000
-49.078208 -39.369885 1.792066 18.00000000
-30.611474 -1.736739 -29.881643 18.00000000
-35.697965 -4.618190 -39.244467 18.00000000
-46.517096 -17.071019 -43.172063 18.00000000
-34.379396 -3.765469 -10.088571 18.00000000
-31.621433 -2.233789 -12.894367 18.00000000
-46.881173 -45.666842 -54.798053 18.00000000
-31.778951 -2.311311 -3.190771 18.00000000
-23.635723 -0.306021 1.534078 18.00000000
-29.724848 -1.357048 2.554244 18.00000000
-36.104033 -4.913660 -57.323695 18.00000000
-35.455816 -4.441993 -50.148980 18.00000000
-44.244167 -13.229356 -42.515528 18.00000000
-47.684075 -43.826163 -40.571797 18.00000000
-45.642343 -15.472093 -36.610049 18.00000000
-42.799293 -11.261690 -17.578533 18.00000000
-48.395025 -41.852661 -33.072073 18.00000000
-42.435674 -10.815930 -24.877330 18.00000000
-34.152479 -3.628461 -43.226946 18.00000000
-49.577908 -36.782691 -41.847688 18.00000000
-46.154501 -16.382170 -5.480389 18.00000000
-46.466236 -16.959161 -20.612052 18.00000000
-35.539580 -4.502943 -45.171568 18.00000000
-41.821697 -10.063254 -41.000313 18.00000000
-24.004791 -0.328014 -46.980752 18.00000000
-44.557720 -13.689230 -14.234212 18.00000000
-39.657391 -7.797807 -26.465794 18.00000000
-42.428092 -10.806635 -5.007357 18.00000000
-49.728485 -27.702909 -14.073087 18.00000000
-46.956120 -45.504125 -61.028460 18.00000000
-37.324998 -5.802078 -38.525047 18.00000000
-49.577135 -36.787088 -44.013246 18.00000000
-44.380502 -13.429313 -6.190047 18.00000000
-49.560508 -36.881616 -48.989867 18.00000000
-35.013921 -4.148583 -49.096866 18.00000000
-27.888010 -0.641362 -59.777537 18.00000000
-34.848999 -4.049006 -56.218302 18.00000000
-49.393473 -25.697050 0.626884 18.00000000
-49.258236 -38.600106 -54.054997 18.00000000
-43.409158 -12.009325 3.482752 18.00000000
-38.041085 -6.394847 -39.922157 18.00000000
-45.327544 -14.912714 -32.490603 18.00000000
-44.695358 -13.891098 -42.567722 18.00000000
-46.019614 -16.142483 -11.739250 18.00000000
-48.900542 -23.505588 -7.804062 18.00000000
-49.539783 -36.999442 0.233593 18.00000000
-39.459588 -7.626113 -49.280826 18.00000000
-48.926975 -39.938513 -36.106380 18.00000000
-46.369468 -16.764153 -29.763436 18.00000000
-33.624294 -3.309554 2.157931 18.00000000
-48.027694 -42.872324 -38.010896 18.00000000
-41.558433 -9.756215 2.098640 18.00000000
-31.629623 -2.237820 -32.643917 18.00000000
-48.763921 -40.551583 -54.507121 18.00000000
-45.427876 -15.090998 -17.491075 18.00000000
-48.403204 -41.829957 -42.402111 18.00000000
-45.667516 -15.516825 1.646449 18.00000000
-49.953556 -31.799014 -17.903168 18.00000000
-48.063101 -20.768370 -34.905163 18.00000000
-41.819723 -10.060834 -31.406951 18.00000000
-41.397097 -9.589863 -30.768845 18.00000000
-49.890900 -33.933816 3.031047 18.00000000
-37.132823 -5.662244 -14.118720 18.00000000
-42.240846 -10.577089 -10.935077 18.00000000
-47.815891 -20.071533 -57.105519 18.00000000
-48.934519 -23.635894 -53.465532 18.00000000
-49.158522 -39.067913 -32.443019 18.00000000
-47.369416 -18.945565 -29.577998 18.00000000
-46.900011 -45.625950 -24.304476 18.00000000
-49.931948 -33.470007 -21.926144 18.00000000
-46.507033 -46.479180 -5.626528 18.00000000
-49.755562 -28.026856 -11.304443 18.00000000
-27.191493 -0.517908 1.111064 18.00000000
-45.286673 -14.840089 -25.530305 18.00000000
-38.842359 -7.090356 -30.145283 18.00000000
-40.190845 -8.346107 -36.930000 18.00000000
-49.949396 -30.345783 -19.978011 18.00000000
-48.911145 -39.998030 -32.461389 18.00000000
-33.619190 -3.306472 -23.858907 18.00000000
-49.742147 -27.866358 -44.744199 18.00000000
-48.433950 -21.813718 -61.001052 18.00000000
-48.573135 -41.268927 -34.766414 18.00000000
-29.109198 -1.117173 -27.302562 18.00000000
-21.902034 -0.202712 -49.198284 18.00000000
-47.290287 -44.778615 -39.145282 18.00000000
-28.129364 -0.735401 -13.085009 18.00000000
-43.992316 -12.859976 -34.699609 18.00000000
-47.242550 -44.882258 -46.983767 18.00000000
-46.331246 -16.696235 -52.729202 18.00000000
-48.175493 -21.085180 -45.116900 18.00000000
-45.447893 -15.126568 -6.034220 18.00000000
-49.050949 -24.082412 -41.215285 18.00000000
-40.818258 -8.993026 -24.555737 18.00000000
-25.116207 -0.394243 -27.290674 18.00000000
-46.996821 -45.415759 -32.965240 18.00000000
-46.352372 -16.733774 -12.599760 18.00000000
-38.146302 -6.486176 -14.317539 18.00000000
-23.063094 -0.271899 -60.072121 18.00000000
-37.136221 -5.664717 -58.186111 18.00000000
-22.277933 -0.225112 -6.763178 18.00000000
-41.812875 -10.052439 -40.069878 18.00000000
-40.088706 -8.240793 1.755442 18.00000000
-47.981137 -43.001561 -22.370713 18.00000000
-49.952950 -32.047795 -41.753817 18.00000000
-48.787234 -23.071042 -14.052810 18.00000000
-49.507569 -26.364761 -47.420279 18.00000000
-36.054119 -4.877340 -27.764103 18.00000000
-39.892194 -8.038170 -16.192027 18.00000000
-49.839657 -34.512829 -37.609922 18.00000000
-47.006645 -18.147705 -7.418970 18.00000000
-27.068926 -0.510604 -6.795074 18.00000000
-34.981493 -4.129003 -24.258465 18.00000000
-45.029779 -14.383604 3.425953 18.00000000
-26.255906 -0.462157 -52.629404 18.00000000
-49.325748 -38.216282 -61.050248 18.00000000
-25.102153 -0.393405 -28.107954 18.00000000
-47.982189 -20.540294 -2.428826 18.00000000
-48.417457 -41.790394 -8.706666 18.00000000
-22.423521 -0.233787 -51.943509 18.00000000
-48.062812 -42.774840 -1.322880 18.00000000
-33.029796 -2.950607 -58.369483 18.00000000
-49.404449 -37.768852 -57.312551 18.00000000
-29.714874 -1.353162 -18.141327 18.00000000
-49.462251 -26.099551 -19.710140 18.00000000
-49.148544 -24.456697 2.691239 18.00000000
-49.112771 -24.319504 -29.883933 18.00000000
-26.652369 -0.485782 -23.841978 18.00000000
-43.886478 -12.704749 -0.108538 18.00000000
-49.261515 -24.924814 -57.021714 18.00000000
-49.766197 -35.342876 -28.260832 18.00000000
-22.357707 -0.229865 -51.115305 18.00000000
-47.846406 -20.157548 -11.064277 18.00000000
-49.449853 -26.026997 -31.963974 18.00000000
-22.603966 -0.244540 -2.799387 18.00000000
-31.212323 -2.032446 -58.492430 18.00000000
-40.501724 -8.666651 -10.662409 18.00000000
-39.480596 -7.644348 -47.037527 18.00000000
-27.121688 -0.513748 -2.565718 18.00000000
-49.951388 -32.688830 -59.253576 18.00000000
-46.857585 -45.718055 -30.498554 18.00000000
-25.968135 -0.445009 2.940566 18.00000000
-37.003925 -5.568454 -19.483122 18.00000000
-49.921683 -30.014243 -4.627432 18.00000000
-35.570067 -4.525127 -15.333934 18.00000000
-43.260191 -11.826707 -39.293771 18.00000000
-35.179265 -4.248414 -4.787945 18.00000000
-46.519615 -46.451862 -7.528531 18.00000000
-48.745766 -40.619844 -16.551088 18.00000000
-48.043112 -20.712024 -41.561452 18.00000000
-49.005524 -23.908203 -23.002012 18.00000000
-33.089793 -2.986832 -33.570025 18.00000000
-46.764110 -45.920999 -42.450914 18.00000000
-43.041744 -11.558913 -20.172675 18.00000000
-49.390701 -37.847012 -45.294273 18.00000000
-35.777969 -4.676403 -30.824496 18.00000000
