5.217341 -23.769456 -41.636334 17.00000000
38.333946 -56.715007 -7.898703 17.00000000
37.680197 -56.622834 -29.404041 17.00000000
5.759598 -25.863273 -43.458214 17.00000000
41.331990 -57.077213 -42.091650 17.00000000
6.043632 -26.960012 -51.071958 17.00000000
37.012196 -56.491128 -10.330905 17.00000000
25.531884 -52.362450 -14.092892 17.00000000
7.434932 -31.502852 -15.299706 17.00000000
8.447196 -33.913720 -49.061460 17.00000000
17.980601 -47.005761 -7.917603 17.00000000
17.668813 -46.701815 -52.573979 17.00000000
30.070792 -54.458091 -52.983180 17.00000000
19.373291 -48.169267 -34.374565 17.00000000
35.262214 -56.101366 -13.753612 17.00000000
45.362623 -57.192071 -0.078047 17.00000000
20.233168 -48.884154 -27.860410 17.00000000
5.841663 -26.180149 -24.061780 17.00000000
26.201933 -52.707312 -26.708632 17.00000000
44.242846 -57.212308 -15.921186 17.00000000
39.827778 -56.925623 -57.187464 17.00000000
9.424658 -35.900997 -25.815723 17.00000000
10.010363 -37.021045 -55.307656 17.00000000
11.722680 -39.798292 -57.705590 17.00000000
22.755047 -50.688560 -38.482663 17.00000000
31.416426 -54.991229 -9.298505 17.00000000
34.593015 -55.952320 -39.551946 17.00000000
37.907102 -56.654826 -45.943301 17.00000000
6.725254 -29.387502 -58.925523 17.00000000
9.455010 -35.959038 -54.005062 17.00000000
7.504506 -31.701091 -55.648113 17.00000000
46.717018 -57.167594 -1.212182 17.00000000
5.875973 -26.312632 -7.440031 17.00000000
16.861158 -45.914475 -1.747603 17.00000000
7.759987 -32.300744 -29.394106 17.00000000
27.601338 -53.394334 -46.469848 17.00000000
31.484260 -55.012080 -1.943235 17.00000000
6.276972 -27.861007 -46.357647 17.00000000
5.996979 -26.779869 -37.374617 17.00000000
20.139665 -48.806417 -0.829616 17.00000000
28.052182 -53.615670 -57.946988 17.00000000
22.019373 -50.169416 -37.946323 17.00000000
9.244879 -35.557204 -13.896066 17.00000000
42.054286 -57.121315 -59.623598 17.00000000
26.340475 -52.775327 -47.910795 17.00000000
29.570496 -54.259840 -14.239890 17.00000000
13.300236 -41.946114 3.151568 17.00000000
37.834170 -56.644543 -51.570455 17.00000000
9.827948 -36.672211 -28.261665 17.00000000
32.146640 -55.215688 -59.676268 17.00000000
35.454403 -56.144171 -25.082483 17.00000000
24.891776 -51.982718 -19.870083 17.00000000
20.421943 -49.041099 -26.780738 17.00000000
44.545224 -57.206844 -58.360349 17.00000000
12.611698 -41.021276 -15.339325 17.00000000
22.804809 -50.723675 -45.198767 17.00000000
6.307390 -27.978460 -4.421005 17.00000000
6.368880 -28.215890 -60.207067 17.00000000
32.795402 -55.415110 -56.608010 17.00000000
10.788098 -38.310623 -40.950917 17.00000000
5.018044 -22.999912 -15.562803 17.00000000
26.234170 -52.723138 -51.703837 17.00000000
17.503085 -46.540256 -32.467595 17.00000000
33.753303 -55.709558 -39.338452 17.00000000
17.020757 -46.070059 -7.747058 17.00000000
19.481917 -48.259577 -13.897719 17.00000000
12.073795 -40.298769 -42.037283 17.00000000
20.559424 -49.139173 -47.456851 17.00000000
7.715497 -32.196318 -4.696315 17.00000000
17.532753 -46.569177 -20.012107 17.00000000
13.560403 -42.295568 -28.484203 17.00000000
38.396794 -56.723868 -4.767104 17.00000000
35.269270 -56.102938 -36.374201 17.00000000
34.055033 -55.802306 -8.586218 17.00000000
8.178936 -33.284077 -41.586352 17.00000000
9.769475 -36.560394 -16.249985 17.00000000
17.812699 -46.842082 -11.076208 17.00000000
6.488383 -28.677328 -33.798648 17.00000000
15.313417 -44.328288 -22.173885 17.00000000
18.833022 -47.720096 -2.445693 17.00000000
43.338595 -57.199732 -25.696070 17.00000000
30.574105 -54.657538 -16.025168 17.00000000
6.283307 -27.885467 -5.580617 17.00000000
9.630091 -36.293848 -44.326942 17.00000000
36.638238 -56.407839 -43.419142 17.00000000
41.135966 -57.065244 -43.499586 17.00000000
14.929305 -43.889503 -58.341246 17.00000000
39.700714 -56.907708 2.779589 17.00000000
14.936632 -43.897873 -55.947018 17.00000000
16.157780 -45.228790 -29.637204 17.00000000
15.901986 -44.979429 -52.745554 17.00000000
5.336751 -24.230532 -56.716657 17.00000000
46.692070 -57.168045 -10.881989 17.00000000
20.958697 -49.420928 -38.852953 17.00000000
41.557986 -57.091012 -41.114306 17.00000000
7.687823 -32.131364 -21.831695 17.00000000
18.157502 -47.158480 -32.216522 17.00000000
40.418427 -57.008899 -18.268492 17.00000000
6.894445 -29.891811 -48.618571 17.00000000
5.180187 -23.625995 -45.021127 17.00000000
41.550328 -57.090544 -1.192775 17.00000000
28.370034 -53.771716 -11.142359 17.00000000
9.594171 -36.225158 -55.496825 17.00000000
31.084575 -54.859821 -60.094713 17.00000000
24.526848 -51.766232 -43.881724 17.00000000
23.586521 -51.208401 -35.697723 17.00000000
43.924108 -57.218069 -30.475624 17.00000000
40.446841 -57.012905 -50.566904 17.00000000
30.336297 -54.563302 -43.187861 17.00000000
12.171976 -40.430645 -49.068830 17.00000000
22.006746 -50.160506 -30.481247 17.00000000
45.398871 -57.191416 -44.143603 17.00000000
22.815848 -50.731465 -55.185913 17.00000000
46.448061 -57.172455 -28.363702 17.00000000
25.119170 -52.117615 -23.022582 17.00000000
44.783636 -57.202535 -8.198097 17.00000000
41.354631 -57.078595 -3.273296 17.00000000
17.162180 -46.207925 -52.265103 17.00000000
18.799153 -47.691938 -14.063481 17.00000000
22.240704 -50.325603 -14.611464 17.00000000
18.089202 -47.101697 -53.619911 17.00000000
5.277273 -24.000873 -9.350706 17.00000000
37.756721 -56.633624 -59.255873 17.00000000
42.537675 -57.150830 -60.267336 17.00000000
26.475315 -52.841526 -29.683512 17.00000000
15.106938 -44.092419 -6.191689 17.00000000
31.794595 -55.107474 -40.126200 17.00000000
36.494754 -56.375881 -4.368828 17.00000000
44.144298 -57.214089 -13.331808 17.00000000
14.219975 -43.079209 -1.427819 17.00000000
40.583455 -57.031508 -34.306058 17.00000000
27.434663 -53.312506 -8.769156 17.00000000
17.775197 -46.805523 -0.728690 17.00000000
11.663420 -39.703961 -13.513839 17.00000000
16.643354 -45.702150 -23.036891 17.00000000
34.508981 -55.933604 -34.385274 17.00000000
46.788110 -57.166309 -12.263474 17.00000000
29.202310 -54.113940 -16.170596 17.00000000
5.190434 -23.665560 -4.186901 17.00000000
9.494459 -36.034477 -32.518204 17.00000000
15.610430 -44.667577 -6.772831 17.00000000
9.328975 -35.718021 -24.242750 17.00000000
34.244887 -55.860665 1.851846 17.00000000
9.832763 -36.681418 -39.308215 17.00000000
38.698116 -56.766351 -49.936944 17.00000000
36.895499 -56.465137 -48.459295 17.00000000
15.823656 -44.903070 -26.437069 17.00000000
21.452096 -49.769106 -51.264961 17.00000000
42.234634 -57.132326 -38.499351 17.00000000
32.192136 -55.229673 -19.570422 17.00000000
45.884022 -57.182648 -41.338060 17.00000000
6.725103 -29.387050 -10.023438 17.00000000
5.456510 -24.692959 -49.169605 17.00000000
19.333935 -48.136547 -45.864605 17.00000000
27.777073 -53.480609 -2.011770 17.00000000
40.027009 -56.953712 -16.691658 17.00000000
16.602838 -45.662652 1.167832 17.00000000
7.601773 -31.929392 -23.417983 17.00000000
5.711146 -25.676183 -19.152071 17.00000000
24.612257 -51.816899 -16.384619 17.00000000
7.907634 -32.647292 3.857123 17.00000000
16.907721 -45.959867 -44.986899 17.00000000
41.998721 -57.117922 1.596128 17.00000000
13.014744 -41.562644 -57.557961 17.00000000
36.970723 -56.481891 -27.340999 17.00000000
6.660088 -29.193260 -40.956520 17.00000000
5.409763 -24.512454 -42.810229 17.00000000
8.133585 -33.177631 -42.826242 17.00000000
13.949472 -42.770202 -22.473860 17.00000000
8.319500 -33.614000 3.539090 17.00000000
5.057119 -23.150790 2.484090 17.00000000
10.219387 -37.405349 -17.318189 17.00000000
21.332197 -49.684497 -18.217014 17.00000000
11.605334 -39.611500 -32.026889 17.00000000
13.249857 -41.878445 0.016990 17.00000000
41.462490 -57.085181 -17.778864 17.00000000
46.706254 -57.167789 -24.080262 17.00000000
9.850714 -36.715748 -13.822366 17.00000000
17.753072 -46.783955 -58.027853 17.00000000
32.876219 -55.439952 -20.350986 17.00000000
17.424188 -46.463343 -59.248864 17.00000000
8.113489 -33.130462 -46.995601 17.00000000
25.701396 -52.461579 -59.240583 17.00000000
30.759503 -54.731005 -44.871151 17.00000000
21.362176 -49.705652 -3.478001 17.00000000
6.899420 -29.906642 -12.547776 17.00000000
32.565342 -55.344392 -12.085129 17.00000000
46.615528 -57.169428 -22.879221 17.00000000
7.500131 -31.690823 -40.714839 17.00000000
5.289681 -24.048782 1.067939 17.00000000
28.480801 -53.826096 -46.434311 17.00000000
25.240057 -52.189329 -34.308099 17.00000000
7.991437 -32.843988 -48.197333 17.00000000
20.296989 -48.937215 -56.190902 17.00000000
5.646119 -25.425094 -32.688721 17.00000000
8.872575 -34.845244 0.343915 17.00000000
35.987813 -56.262974 -14.176833 17.00000000
6.608346 -29.039032 -18.662589 17.00000000
11.642905 -39.671306 -12.519658 17.00000000
13.384733 -42.059609 -30.344869 17.00000000
44.781093 -57.202581 -31.656307 17.00000000
30.034745 -54.443807 -19.160649 17.00000000
13.830628 -42.634443 -55.678321 17.00000000
40.407711 -57.007388 -9.993414 17.00000000
8.339452 -33.660831 -2.596155 17.00000000
7.165295 -30.699138 -42.311293 17.00000000
33.816270 -55.728913 -41.763514 17.00000000
8.679095 -34.458020 -8.141522 17.00000000
35.213176 -56.090444 -38.061458 17.00000000
9.628805 -36.291388 -40.182173 17.00000000
23.658530 -51.251119 -59.824489 17.00000000
7.832195 -32.470226 -16.143134 17.00000000
26.981420 -53.089992 -14.965895 17.00000000
5.713674 -25.685947 -52.085846 17.00000000
43.861617 -57.219198 -59.158259 17.00000000
16.405853 -45.470623 -26.211910 17.00000000
41.881392 -57.110758 -55.509887 17.00000000
33.242168 -55.552441 -26.659662 17.00000000
32.110872 -55.204694 -23.443374 17.00000000
9.115458 -35.309711 -9.016843 17.00000000
9.345099 -35.748855 -19.924398 17.00000000
12.570922 -40.966506 -52.021041 17.00000000
28.857136 -53.977158 3.472393 17.00000000
34.738004 -55.984613 -53.484208 17.00000000
5.874347 -26.306350 -47.435327 17.00000000
7.770768 -32.326048 -14.848405 17.00000000
15.402629 -44.430198 -46.123736 17.00000000
37.885164 -56.651733 -40.073947 17.00000000
24.489614 -51.744144 -21.962567 17.00000000
25.147447 -52.134390 -49.145567 17.00000000
27.071140 -53.134039 -53.117533 17.00000000
19.019135 -47.874827 -21.533085 17.00000000
20.934420 -49.403797 -10.982216 17.00000000
46.443507 -57.172537 -38.697441 17.00000000
25.965347 -52.591163 -53.611281 17.00000000
38.705007 -56.767323 -24.521774 17.00000000
37.120305 -56.515206 -35.809146 17.00000000
15.011359 -43.983236 -31.268252 17.00000000
46.734162 -57.167284 -55.286463 17.00000000
17.365163 -46.405803 -26.543801 17.00000000
11.329401 -39.172270 -36.399076 17.00000000
10.796044 -38.323273 0.728518 17.00000000
9.673830 -36.377490 -42.751488 17.00000000
17.227528 -46.271630 -43.464102 17.00000000
32.039579 -55.182779 -13.240554 17.00000000
15.378010 -44.402075 1.609257 17.00000000
22.462180 -50.481892 -58.771270 17.00000000
21.919935 -50.099246 -51.968231 17.00000000
44.492652 -57.207794 -4.662772 17.00000000
26.978028 -53.088327 -38.960237 17.00000000
35.714130 -56.202018 -50.270848 17.00000000
22.113633 -50.235933 -4.301495 17.00000000
19.852214 -48.567436 -56.747194 17.00000000
21.853113 -50.052092 -21.053898 17.00000000
28.625768 -53.885475 -7.816945 17.00000000
8.054148 -32.991181 -39.908354 17.00000000
8.061532 -33.008513 -7.685277 17.00000000
6.365473 -28.202737 1.865283 17.00000000
21.631790 -49.895910 -25.113416 17.00000000
9.301850 -35.666149 -14.894060 17.00000000
7.935531 -32.712769 -37.403925 17.00000000
25.513169 -52.351347 -38.347739 17.00000000
6.294704 -27.929477 0.496932 17.00000000
7.789774 -32.370658 -52.411833 17.00000000
5.967157 -26.664720 -0.099627 17.00000000
18.600658 -47.526913 -47.308524 17.00000000
4.820919 -22.238753 -31.303044 17.00000000
11.452414 -39.368083 -43.143927 17.00000000
13.071011 -41.638221 -23.559168 17.00000000
7.709847 -32.183058 -25.748019 17.00000000
36.761464 -56.435284 -52.126301 17.00000000
42.396424 -57.142205 -5.772979 17.00000000
45.764202 -57.184814 -60.869926 17.00000000
10.380889 -37.662428 -0.957599 17.00000000
9.675111 -36.379941 -3.209802 17.00000000
24.446550 -51.718596 -39.766374 17.00000000
6.936221 -30.016336 -36.146090 17.00000000
9.780460 -36.581399 -50.682054 17.00000000
34.695054 -55.975046 2.963798 17.00000000
23.386159 -51.089540 -50.115488 17.00000000
12.121445 -40.362772 -32.148762 17.00000000
27.218571 -53.206418 -50.433869 17.00000000
16.001342 -45.076286 -59.335062 17.00000000
5.086722 -23.265096 -19.968113 17.00000000
23.552397 -51.188157 -57.725520 17.00000000
32.432785 -55.303646 -24.266516 17.00000000
33.638245 -55.674190 3.273944 17.00000000
43.390338 -57.202892 -14.636997 17.00000000
8.812814 -34.730964 -6.988515 17.00000000
17.030687 -46.079740 -58.525424 17.00000000
13.564085 -42.300513 -36.898695 17.00000000
8.473408 -33.975243 -5.050601 17.00000000
10.509593 -37.867299 -26.092014 17.00000000
6.380247 -28.259782 -36.738333 17.00000000
27.995943 -53.588060 -38.803283 17.00000000
17.706068 -46.738133 -1.533924 17.00000000
41.709603 -57.100269 -16.538729 17.00000000
45.799817 -57.184170 -18.840711 17.00000000
45.335827 -57.192556 -5.338630 17.00000000
31.360045 -54.968980 -10.076042 17.00000000
23.956142 -51.427672 -17.931981 17.00000000
30.653161 -54.688865 -41.778373 17.00000000
40.981692 -57.055824 -32.732000 17.00000000
6.625324 -29.089640 -60.211422 17.00000000
43.342233 -57.199955 -44.089642 17.00000000
19.784483 -48.511126 -52.708527 17.00000000
34.317482 -55.882980 -49.432216 17.00000000
11.232168 -39.017494 -21.559460 17.00000000
7.894555 -32.616593 -59.267430 17.00000000
34.531440 -55.938606 -47.614670 17.00000000
16.941609 -45.992903 -37.901325 17.00000000
46.494002 -57.171625 -36.330551 17.00000000
44.059696 -57.215618 1.761979 17.00000000
33.284398 -55.565422 -8.435824 17.00000000
27.238030 -53.215972 -20.915186 17.00000000
5.994144 -26.768922 -34.901472 17.00000000
38.365858 -56.719506 -2.167403 17.00000000
25.985002 -52.600812 -10.339977 17.00000000
6.432754 -28.462528 -28.766378 17.00000000
30.744862 -54.725203 -53.507817 17.00000000
37.958708 -56.662102 -23.344477 17.00000000
26.720198 -52.961748 1.894047 17.00000000
13.135931 -41.725421 -22.208678 17.00000000
12.038934 -40.251944 -22.920666 17.00000000
36.236426 -56.318346 1.122170 17.00000000
8.518033 -34.079985 -27.066597 17.00000000
43.152957 -57.188398 -10.775054 17.00000000
35.297655 -56.109260 -27.534676 17.00000000
26.106390 -52.660406 -3.162126 17.00000000
15.639881 -44.701220 -21.496087 17.00000000
18.502493 -47.445300 -27.283289 17.00000000
39.941794 -56.941698 -31.444035 17.00000000
39.686946 -56.905767 -5.092717 17.00000000
36.080799 -56.283684 -25.745238 17.00000000
26.228115 -52.720166 -12.954034 17.00000000
35.794156 -56.219842 -26.642132 17.00000000
5.188862 -23.659490 -50.409925 17.00000000
6.172794 -27.458743 -36.308301 17.00000000
7.367681 -31.302394 -42.901242 17.00000000
45.122656 -57.196408 -52.768229 17.00000000
37.663579 -56.620491 -19.493426 17.00000000
7.136039 -30.611936 -20.105945 17.00000000
11.704764 -39.769773 -56.177236 17.00000000
18.962159 -47.827458 -53.425257 17.00000000
39.038682 -56.814368 3.270896 17.00000000
7.108378 -30.529484 -4.527345 17.00000000
11.358736 -39.218966 -19.507686 17.00000000
22.697870 -50.648212 -7.104530 17.00000000
7.477119 -31.628598 -30.847715 17.00000000
30.990426 -54.822512 -3.960991 17.00000000
4.915381 -22.603498 -49.183600 17.00000000
17.154932 -46.200860 -10.307658 17.00000000
7.722067 -32.211739 -56.866995 17.00000000
28.899870 -53.994093 -6.318076 17.00000000
21.798478 -50.013537 -39.060634 17.00000000
7.920915 -32.678464 -38.464235 17.00000000
8.804516 -34.715095 -24.795480 17.00000000
31.903390 -55.140916 -13.993350 17.00000000
28.471478 -53.821519 -26.762858 17.00000000
37.911044 -56.655382 1.713184 17.00000000
18.448007 -47.400001 -15.564463 17.00000000
31.898288 -55.139348 -53.838585 17.00000000
10.088167 -37.169831 3.801594 17.00000000
11.596711 -39.597775 -38.300367 17.00000000
15.629300 -44.689133 -10.166886 17.00000000
9.387986 -35.830869 -61.080170 17.00000000
5.500698 -24.863584 -55.801870 17.00000000
37.979927 -56.665093 -50.273920 17.00000000
6.936203 -30.016279 -38.777599 17.00000000
8.372471 -33.738331 -52.522858 17.00000000
5.193127 -23.675960 3.788466 17.00000000
35.317785 -56.113743 -55.451419 17.00000000
7.618488 -31.968625 1.841684 17.00000000
9.661168 -36.353277 -59.448481 17.00000000
35.077839 -56.060302 -49.163229 17.00000000
8.545890 -34.145369 -15.280477 17.00000000
39.825829 -56.925348 -26.163428 17.00000000
15.031011 -44.005685 -22.957031 17.00000000
45.741217 -57.185229 -56.920305 17.00000000
17.337240 -46.378582 1.084927 17.00000000
18.290881 -47.269369 -47.988914 17.00000000
30.458488 -54.611722 -27.685000 17.00000000
30.104213 -54.471335 -1.000649 17.00000000
29.696426 -54.309742 -11.778416 17.00000000
44.584599 -57.206132 -35.856284 17.00000000
34.950542 -56.031950 -1.440875 17.00000000
10.626186 -38.052892 -12.901112 17.00000000
5.912241 -26.452672 -38.233760 17.00000000
46.662377 -57.168582 -47.609335 17.00000000
7.293066 -31.079988 -9.821687 17.00000000
14.377959 -43.259679 -37.941755 17.00000000
19.783585 -48.510378 -20.260848 17.00000000
6.414958 -28.393812 3.389927 17.00000000
40.563804 -57.029395 -52.486251 17.00000000
23.642268 -51.241472 -15.118097 17.00000000
27.665173 -53.425672 -35.035724 17.00000000
40.796617 -57.044524 -58.561804 17.00000000
41.897006 -57.111711 -36.812988 17.00000000
7.816255 -32.432812 -46.687722 17.00000000
44.419568 -57.209115 -3.796796 17.00000000
33.620469 -55.668726 -43.007327 17.00000000
9.041738 -35.168736 -42.439057 17.00000000
46.802971 -57.166041 -31.289289 17.00000000
31.227545 -54.916475 -8.396954 17.00000000
33.729448 -55.702225 -26.109408 17.00000000
22.772234 -50.700688 -25.341647 17.00000000
37.251137 -56.544345 -49.972514 17.00000000
7.125500 -30.580523 -16.026383 17.00000000
37.909078 -56.655104 -38.459636 17.00000000
38.461695 -56.733018 -12.742992 17.00000000
38.357554 -56.718335 -42.473287 17.00000000
7.575694 -31.868181 -35.992624 17.00000000
37.125449 -56.516352 -0.320059 17.00000000
24.498430 -51.749373 -56.333435 17.00000000
8.638425 -34.362562 -48.245775 17.00000000
41.346362 -57.078090 -53.645914 17.00000000
35.113283 -56.068196 -5.565276 17.00000000
13.109655 -41.690127 -26.358620 17.00000000
40.352975 -56.999671 -3.300051 17.00000000
9.024905 -35.136546 -36.837264 17.00000000
16.767185 -45.822866 -48.830794 17.00000000
15.348556 -44.368428 -24.048309 17.00000000
38.099908 -56.682010 -44.846999 17.00000000
28.697371 -53.913849 -13.443832 17.00000000
32.573676 -55.346954 -8.640507 17.00000000
35.203751 -56.088345 -31.200271 17.00000000
44.493503 -57.207778 -20.758588 17.00000000
32.703607 -55.386893 0.021684 17.00000000
10.945273 -38.560815 -36.807896 17.00000000
20.343417 -48.975813 -42.429441 17.00000000
14.628319 -43.545675 -15.879258 17.00000000
9.490868 -36.027610 -15.643750 17.00000000
22.245698 -50.329127 -8.978443 17.00000000
26.054195 -52.634781 -30.567793 17.00000000
13.237771 -41.862211 -50.046809 17.00000000
28.254780 -53.715134 -42.105213 17.00000000
32.925419 -55.455076 -34.859892 17.00000000
23.155228 -50.952545 -47.400793 17.00000000
5.683284 -25.568599 -37.536472 17.00000000
18.890653 -47.768009 -35.152163 17.00000000
5.927442 -26.511369 -2.175990 17.00000000
25.832098 -52.525745 3.465796 17.00000000
16.397279 -45.462264 -18.650567 17.00000000
8.706632 -34.522653 -35.143643 17.00000000
36.036648 -56.273851 -5.512477 17.00000000
26.710282 -52.956880 -41.482582 17.00000000
6.365211 -28.201724 -40.060461 17.00000000
8.927415 -34.950115 -56.470290 17.00000000
37.289701 -56.552934 -15.491168 17.00000000
5.818316 -26.089999 -29.632825 17.00000000
18.629738 -47.551089 -25.472976 17.00000000
16.104015 -45.176377 -44.439793 17.00000000
5.922679 -26.492978 2.911366 17.00000000
39.199428 -56.837032 -36.837380 17.00000000
11.622755 -39.639232 3.274667 17.00000000
8.031424 -32.937845 -18.241801 17.00000000
33.665798 -55.682660 -14.180902 17.00000000
12.851131 -41.342880 -47.876457 17.00000000
24.546959 -51.778162 -20.800494 17.00000000
26.874731 -53.037614 -26.438892 17.00000000
4.839303 -22.309740 -48.174644 17.00000000
5.535510 -24.998001 -39.216725 17.00000000
15.966499 -45.042319 -3.410443 17.00000000
35.108184 -56.067060 -21.804128 17.00000000
11.314885 -39.149163 -3.288894 17.00000000
21.056013 -49.489601 -33.595468 17.00000000
35.556231 -56.166851 -18.378866 17.00000000
42.817190 -57.167896 -53.717605 17.00000000
10.291754 -37.520543 -28.659917 17.00000000
5.368852 -24.354484 -39.813449 17.00000000
31.282019 -54.938061 -28.391673 17.00000000
8.528604 -34.104797 -54.308943 17.00000000
38.996078 -56.808361 -46.081213 17.00000000
15.517047 -44.560902 -46.973417 17.00000000
6.870870 -29.821541 -37.436545 17.00000000
9.034379 -35.154663 -60.383188 17.00000000
33.833805 -55.734303 -7.608230 17.00000000
37.068081 -56.503575 -45.913820 17.00000000
6.858749 -29.785412 -25.009916 17.00000000
10.728682 -38.216045 -60.676126 17.00000000
5.892102 -26.374907 -34.205689 17.00000000
6.299330 -27.947338 -33.128953 17.00000000
4.887196 -22.494669 -11.220287 17.00000000
10.930807 -38.537787 -53.366594 17.00000000
6.774716 -29.534932 -41.721108 17.00000000
7.913343 -32.660691 -6.801417 17.00000000
12.119651 -40.360363 -36.214728 17.00000000
16.223054 -45.292421 -23.683247 17.00000000
11.620266 -39.635269 2.313050 17.00000000
32.089110 -55.198004 -52.594754 17.00000000
5.682779 -25.566650 -25.565628 17.00000000
7.622149 -31.977217 -9.810406 17.00000000
10.842170 -38.396695 -6.125735 17.00000000
39.586336 -56.891582 -50.600799 17.00000000
41.139865 -57.065482 -60.352369 17.00000000
21.367102 -49.709128 -38.264984 17.00000000
45.218787 -57.194671 -14.508080 17.00000000
45.238176 -57.194320 -32.607986 17.00000000
26.296664 -52.753819 0.060092 17.00000000
9.818023 -36.653232 -0.030627 17.00000000
30.384046 -54.582223 -7.259114 17.00000000
12.958856 -41.487575 -8.357259 17.00000000
7.103402 -30.514654 -47.920350 17.00000000
13.197322 -41.807881 -25.415796 17.00000000
37.873125 -56.650035 -58.110219 17.00000000
33.817945 -55.729428 -10.847926 17.00000000
6.208675 -27.597290 -28.799381 17.00000000
5.101734 -23.323064 -34.247992 17.00000000
22.572357 -50.559641 -59.992463 17.00000000
26.249964 -52.730892 -49.159556 17.00000000
5.510514 -24.901485 -41.558009 17.00000000
6.804713 -29.624347 -57.848332 17.00000000
29.373674 -54.181846 -38.462506 17.00000000
14.739696 -43.672905 -37.247385 17.00000000
31.611905 -55.051317 -33.939728 17.00000000
43.827477 -57.219815 0.706952 17.00000000
20.902981 -49.381611 -27.881270 17.00000000
27.998326 -53.589230 2.428883 17.00000000
6.508873 -28.742530 -59.356851 17.00000000
5.376785 -24.385118 -52.718093 17.00000000
11.277700 -39.089972 -47.624518 17.00000000
22.222849 -50.313004 -5.061596 17.00000000
19.420037 -48.208131 -7.646458 17.00000000
5.212313 -23.750042 -51.418437 17.00000000
11.433659 -39.338228 -53.427601 17.00000000
10.755897 -38.259366 -18.155360 17.00000000
18.619299 -47.542410 -23.057171 17.00000000
29.380010 -54.184357 -10.736422 17.00000000
45.931580 -57.181789 -47.273237 17.00000000
11.600205 -39.603336 -42.152088 17.00000000
31.094750 -54.863852 -42.562392 17.00000000
21.557054 -49.843172 -57.271625 17.00000000
16.241062 -45.309976 -48.347901 17.00000000
39.695942 -56.907035 -54.993230 17.00000000
42.535216 -57.150679 -41.413247 17.00000000
40.260698 -56.986660 -15.905963 17.00000000
22.775572 -50.703044 -40.261260 17.00000000
8.206184 -33.348030 -20.033933 17.00000000
33.375291 -55.593361 -27.624375 17.00000000
30.795253 -54.745172 -57.799193 17.00000000
21.335809 -49.687045 0.965558 17.00000000
37.567218 -56.606905 -41.943844 17.00000000
22.136063 -50.251761 -24.481323 17.00000000
34.597549 -55.953330 -41.517601 17.00000000
25.207758 -52.170168 -7.296121 17.00000000
39.278990 -56.848249 -2.414674 17.00000000
15.676900 -44.743509 -47.814593 17.00000000
12.161142 -40.416093 -28.172347 17.00000000
6.533848 -28.816974 2.371833 17.00000000
38.109342 -56.683340 -39.282724 17.00000000
29.863882 -54.376099 -36.270999 17.00000000
40.626956 -57.034164 -11.681880 17.00000000
16.047173 -45.120965 -27.490174 17.00000000
20.080543 -48.757265 -16.854145 17.00000000
30.234168 -54.522832 -8.035484 17.00000000
5.465426 -24.727387 -0.913860 17.00000000
5.615371 -25.306369 1.278621 17.00000000
7.606805 -31.941203 -3.376810 17.00000000
12.605822 -41.013383 -35.956595 17.00000000
41.878281 -57.110568 -27.539913 17.00000000
6.371397 -28.225610 -37.787970 17.00000000
20.325964 -48.961303 -21.157459 17.00000000
9.923524 -36.854982 -21.509677 17.00000000
33.642570 -55.675520 -51.980194 17.00000000
27.871157 -53.526798 -21.298446 17.00000000
17.102468 -46.149715 -57.374344 17.00000000
33.904145 -55.755925 -56.033114 17.00000000
38.486469 -56.736511 -54.106840 17.00000000
46.552899 -57.170560 -9.827655 17.00000000
12.606714 -41.014581 2.874737 17.00000000
18.173551 -47.171823 -41.180717 17.00000000
34.370692 -55.899336 -38.679450 17.00000000
35.126734 -56.071192 -3.217880 17.00000000
5.235797 -23.840721 -25.300902 17.00000000
10.760681 -38.266982 1.636223 17.00000000
17.686273 -46.718836 -23.489715 17.00000000
45.712578 -57.185747 -60.007632 17.00000000
5.837393 -26.163662 -58.502424 17.00000000
5.289905 -24.049648 -20.349627 17.00000000
46.579282 -57.170083 -34.091256 17.00000000
24.256371 -51.605776 -12.851786 17.00000000
38.606540 -56.753440 -11.742676 17.00000000
14.864757 -43.815767 -13.332198 17.00000000
12.058714 -40.278512 -7.988655 17.00000000
7.380898 -31.341790 2.872410 17.00000000
13.714018 -42.501235 -12.199663 17.00000000
45.256622 -57.193987 -42.920613 17.00000000
18.881001 -47.759985 -4.018865 17.00000000
28.537461 -53.850482 -1.281145 17.00000000
6.774380 -29.533933 -19.829609 17.00000000
41.377121 -57.079968 -15.069149 17.00000000
10.278582 -37.499576 -20.443827 17.00000000
11.471818 -39.398970 -4.201062 17.00000000
34.780963 -55.994180 -23.505793 17.00000000
30.965667 -54.812701 -59.325443 17.00000000
45.442749 -57.190623 -28.434011 17.00000000
35.324446 -56.115227 -38.868229 17.00000000
7.205859 -30.820050 -29.982947 17.00000000
35.898477 -56.243077 -43.513304 17.00000000
12.255093 -40.542287 -39.931115 17.00000000
7.057551 -30.377985 -27.668106 17.00000000
32.271493 -55.254067 -1.718541 17.00000000
32.083862 -55.196391 -57.121489 17.00000000
43.930836 -57.217947 -27.295226 17.00000000
7.938219 -32.719080 -58.298708 17.00000000
5.635047 -25.382345 -20.134978 17.00000000
21.961543 -50.128608 -60.986541 17.00000000
13.461084 -42.162163 -17.284216 17.00000000
5.816906 -26.084554 -6.700347 17.00000000
31.860775 -55.127817 -6.139857 17.00000000
13.188344 -41.795822 -24.350074 17.00000000
20.463518 -49.071495 -58.237788 17.00000000
36.696759 -56.420873 -8.562317 17.00000000
7.369980 -31.309247 -61.084578 17.00000000
40.897740 -57.050698 1.928281 17.00000000
10.576502 -37.973806 -12.026047 17.00000000
5.866719 -26.276896 -31.760849 17.00000000
45.079831 -57.197182 -13.163155 17.00000000
22.721246 -50.664707 -16.313480 17.00000000
34.344233 -55.891202 -56.937939 17.00000000
21.684223 -49.932911 2.830043 17.00000000
46.791897 -57.166241 -0.423300 17.00000000
35.824725 -56.226650 -15.318042 17.00000000
25.681362 -52.451125 -6.658209 17.00000000
17.102784 -46.150024 -27.925194 17.00000000
10.153254 -37.294296 -52.107372 17.00000000
11.505845 -39.453134 -20.827923 17.00000000
25.918628 -52.568227 1.821834 17.00000000
28.751476 -53.935289 -54.419231 17.00000000
5.948767 -26.593709 -39.891637 17.00000000
42.229714 -57.132026 -3.355380 17.00000000
25.843338 -52.531264 -33.612373 17.00000000
23.126197 -50.935323 -6.268398 17.00000000
7.773568 -32.332620 -42.042167 17.00000000
44.792531 -57.202374 -27.128821 17.00000000
4.814077 -22.212333 -24.097625 17.00000000
35.265299 -56.102053 -8.675675 17.00000000
5.032870 -23.057158 -59.823481 17.00000000
7.635665 -32.008941 -49.438470 17.00000000
30.328318 -54.560140 -49.571574 17.00000000
10.658486 -38.104308 2.880297 17.00000000
30.310531 -54.553092 0.909746 17.00000000
9.354445 -35.766727 -28.051909 17.00000000
9.755533 -36.533731 -47.443025 17.00000000
20.761130 -49.281511 -35.938881 17.00000000
42.411302 -57.143114 -13.799827 17.00000000
35.859556 -56.234408 -6.747394 17.00000000
20.722089 -49.253961 -16.007932 17.00000000
23.288699 -51.031724 -17.870141 17.00000000
39.940505 -56.941516 -46.335039 17.00000000
5.323820 -24.180603 -7.419270 17.00000000
32.827134 -55.424864 -10.169490 17.00000000
6.655594 -29.179865 -26.056369 17.00000000
12.447738 -40.801046 -24.877950 17.00000000
21.567433 -49.850496 -54.570748 17.00000000
27.686433 -53.436110 -31.349246 17.00000000
25.675273 -52.447513 -26.126347 17.00000000
43.246803 -57.194128 -30.061497 17.00000000
10.905831 -38.498031 -31.291061 17.00000000
10.623364 -38.048400 -37.503995 17.00000000
19.902114 -48.608922 -12.038748 17.00000000
11.095033 -38.799203 -41.962217 17.00000000
28.147044 -53.662242 -48.108001 17.00000000
34.734182 -55.983761 -50.624009 17.00000000
13.619100 -42.374410 -26.587811 17.00000000
38.315287 -56.712376 -17.467543 17.00000000
29.885696 -54.384743 -47.500779 17.00000000
11.350706 -39.206184 -6.975196 17.00000000
41.813675 -57.106623 -39.600258 17.00000000
26.126096 -52.670080 -25.351652 17.00000000
10.390598 -37.677884 -21.402959 17.00000000
39.000215 -56.808944 -0.216578 17.00000000
16.600233 -45.660113 -16.932881 17.00000000
46.473266 -57.171999 3.501012 17.00000000
41.545479 -57.090248 -50.332843 17.00000000
17.375980 -46.416347 -44.401291 17.00000000
16.841460 -45.895272 -27.155683 17.00000000
43.458673 -57.207064 -37.141369 17.00000000
11.255166 -39.054103 -30.417364 17.00000000
30.321793 -54.557555 -30.915286 17.00000000
6.094124 -27.154975 -31.654137 17.00000000
24.474959 -51.735449 -32.924014 17.00000000
43.490014 -57.208978 -15.484991 17.00000000
8.354133 -33.695288 -49.858534 17.00000000
14.201901 -43.058561 0.793338 17.00000000
17.103933 -46.151144 -53.661536 17.00000000
9.747590 -36.518543 -9.849024 17.00000000
9.226905 -35.522832 -16.901096 17.00000000
6.223470 -27.654419 -48.167461 17.00000000
16.392586 -45.457689 -38.348947 17.00000000
46.498606 -57.171541 -43.813698 17.00000000
12.470141 -40.831137 -45.370041 17.00000000
17.413342 -46.452770 -49.428566 17.00000000
35.404289 -56.133010 -52.928153 17.00000000
6.354671 -28.161026 -16.207991 17.00000000
31.126603 -54.876475 -31.179678 17.00000000
16.983552 -46.033791 -55.924158 17.00000000
20.355735 -48.986054 -34.424619 17.00000000
12.450840 -40.805212 -6.026740 17.00000000
14.447647 -43.339286 -27.105201 17.00000000
31.622993 -55.054725 -1.074136 17.00000000
15.296984 -44.309516 -12.818589 17.00000000
7.974274 -32.803705 -57.442147 17.00000000
45.055396 -57.197624 -47.559037 17.00000000
15.363768 -44.385806 -51.007179 17.00000000
25.394645 -52.281035 -5.678211 17.00000000
40.473715 -57.016694 -53.338226 17.00000000
8.168621 -33.259865 -56.734369 17.00000000
11.021271 -38.681789 -14.809775 17.00000000
21.860228 -50.057112 -32.315216 17.00000000
5.463818 -24.721178 -14.605193 17.00000000
28.340641 -53.757286 -9.078411 17.00000000
11.910148 -40.078960 -24.254813 17.00000000
5.974116 -26.691591 -48.289213 17.00000000
7.367309 -31.301284 -22.641331 17.00000000
32.525979 -55.332293 2.965088 17.00000000
8.225519 -33.393414 -18.898308 17.00000000
17.195725 -46.240627 -6.286298 17.00000000
37.647487 -56.618223 -1.128780 17.00000000
32.755121 -55.402728 -37.409405 17.00000000
30.238601 -54.524588 -54.990795 17.00000000
5.420513 -24.553965 -49.913687 17.00000000
18.741607 -47.644095 -56.310909 17.00000000
11.688339 -39.743627 -32.913978 17.00000000
16.714267 -45.771279 -14.140988 17.00000000
6.709589 -29.340808 -45.108462 17.00000000
44.351509 -57.210345 -15.093463 17.00000000
46.339621 -57.174415 -21.498650 17.00000000
18.871536 -47.752116 -50.397548 17.00000000
12.629200 -41.044784 -50.929650 17.00000000
6.273396 -27.847198 -52.313034 17.00000000
25.322967 -52.238514 -44.218472 17.00000000
11.051700 -38.730226 -9.317107 17.00000000
34.910498 -56.023031 -17.183352 17.00000000
43.041042 -57.181564 -32.051109 17.00000000
5.227913 -23.810276 -49.382377 17.00000000
36.920932 -56.470801 -55.358221 17.00000000
21.324235 -49.678878 -5.930804 17.00000000
41.560845 -57.091186 -30.962843 17.00000000
25.546930 -52.371376 -31.745319 17.00000000
7.518144 -31.733102 -24.596651 17.00000000
15.306655 -44.320564 -41.533361 17.00000000
6.162533 -27.419123 -8.639969 17.00000000
20.065189 -48.744500 -40.292388 17.00000000
24.972161 -52.030405 -32.153070 17.00000000
45.523538 -57.189163 -59.044257 17.00000000
46.197589 -57.176981 -30.659060 17.00000000
7.818771 -32.438718 -43.540884 17.00000000
6.026482 -26.893789 -25.661217 17.00000000
15.000838 -43.971217 -44.679391 17.00000000
44.193123 -57.213207 -7.357529 17.00000000
17.832145 -46.861039 -57.250076 17.00000000
32.086042 -55.197061 -60.551413 17.00000000
37.846182 -56.646237 -48.236269 17.00000000
11.684459 -39.737452 0.223382 17.00000000
41.449762 -57.084404 3.457661 17.00000000
10.566121 -37.957280 -14.131566 17.00000000
6.366288 -28.205883 -32.209505 17.00000000
27.185749 -53.190305 -4.025056 17.00000000
8.115298 -33.134708 -8.828517 17.00000000
17.858091 -46.886333 1.541229 17.00000000
13.337012 -41.995512 -56.078306 17.00000000
12.901316 -41.410288 -5.814550 17.00000000
38.400834 -56.724437 -55.997205 17.00000000
46.017239 -57.180241 -32.532266 17.00000000
20.917564 -49.391902 -19.047718 17.00000000
10.687196 -38.150007 -7.523239 17.00000000
33.095016 -55.507208 -51.184211 17.00000000
46.779897 -57.166458 -19.720509 17.00000000
7.959627 -32.769328 -49.164705 17.00000000
7.404452 -31.411999 -44.427082 17.00000000
21.948588 -50.119465 -53.664826 17.00000000
5.738001 -25.779881 -0.164198 17.00000000
36.260073 -56.323613 -16.761394 17.00000000
38.453470 -56.731858 -37.358305 17.00000000
5.036578 -23.071479 -24.000935 17.00000000
5.804299 -26.035877 -4.154789 17.00000000
40.849242 -57.047737 -5.911439 17.00000000
22.888675 -50.782857 -36.191475 17.00000000
28.935361 -54.008156 -51.209655 17.00000000
29.858581 -54.373999 -41.145278 17.00000000
6.045439 -26.966990 -29.260008 17.00000000
46.526894 -57.171030 -7.988833 17.00000000
7.178143 -30.737435 3.793151 17.00000000
7.205037 -30.817599 -38.552862 17.00000000
23.557243 -51.191032 1.850880 17.00000000
33.818746 -55.729674 -3.881515 17.00000000
13.396912 -42.075968 -11.346320 17.00000000
12.807855 -41.284752 -30.651396 17.00000000
44.304641 -57.211192 2.679639 17.00000000
34.420176 -55.913825 -14.608811 17.00000000
28.423108 -53.797772 -16.398356 17.00000000
4.837383 -22.302328 -6.522277 17.00000000
46.794650 -57.166191 -35.612442 17.00000000
37.533565 -56.602161 -43.554968 17.00000000
5.020824 -23.010644 -50.094147 17.00000000
30.390507 -54.584784 -29.968642 17.00000000
11.694346 -39.753191 -21.717456 17.00000000
45.028236 -57.198115 -19.284129 17.00000000
17.944236 -46.970311 -44.068482 17.00000000
16.227053 -45.296320 -32.323613 17.00000000
6.145123 -27.351899 -3.869908 17.00000000
7.283043 -31.050114 1.244841 17.00000000
22.210434 -50.304243 -25.773153 17.00000000
32.734999 -55.396543 -25.096327 17.00000000
42.578743 -57.153337 -4.909327 17.00000000
22.278882 -50.352545 -44.415106 17.00000000
46.361896 -57.174012 -17.436135 17.00000000
31.672840 -55.070048 -4.540246 17.00000000
28.654804 -53.896981 -25.653200 17.00000000
34.515428 -55.935040 -32.094988 17.00000000
5.635081 -25.382474 2.702284 17.00000000
8.514216 -34.071026 -43.586498 17.00000000
18.133061 -47.138160 -44.830577 17.00000000
25.677745 -52.448979 -52.913163 17.00000000
38.163422 -56.690965 3.802185 17.00000000
7.268515 -31.006807 -54.091921 17.00000000
6.299756 -27.948980 -24.424967 17.00000000
29.379346 -54.184093 -30.771451 17.00000000
5.679961 -25.555768 -38.353573 17.00000000
9.425687 -35.902965 -23.013577 17.00000000
7.917574 -32.670621 -13.947570 17.00000000
21.424680 -49.749759 -7.149861 17.00000000
15.049410 -44.026703 -10.458868 17.00000000
5.599494 -25.245063 -47.115349 17.00000000
17.271414 -46.314412 -48.498918 17.00000000
9.941628 -36.889603 -34.084144 17.00000000
18.306887 -47.282676 -55.730725 17.00000000
16.677336 -45.735277 -24.467631 17.00000000
34.129830 -55.825298 -6.924168 17.00000000
25.949826 -52.583543 -41.991627 17.00000000
16.633589 -45.692630 -59.358045 17.00000000
20.744689 -49.269909 -59.881605 17.00000000
13.245401 -41.872460 -18.046284 17.00000000
10.902269 -38.492361 -1.717890 17.00000000
23.190847 -50.973675 -33.637387 17.00000000
31.941732 -55.152702 -47.953437 17.00000000
11.043526 -38.717213 -32.255204 17.00000000
25.644158 -52.429054 -47.485116 17.00000000
20.137831 -48.804892 -6.954767 17.00000000
8.333034 -33.645766 -44.737440 17.00000000
5.297510 -24.079011 -19.523784 17.00000000
8.085918 -33.065751 -34.909264 17.00000000
8.236960 -33.420267 -22.373199 17.00000000
7.311244 -31.134171 -51.059349 17.00000000
5.210790 -23.744163 -31.123783 17.00000000
5.892748 -26.377404 -24.974157 17.00000000
26.201930 -52.707310 -38.851974 17.00000000
20.920835 -49.394210 -4.926841 17.00000000
30.066431 -54.456363 -45.354405 17.00000000
19.975597 -48.670014 -31.579267 17.00000000
8.297768 -33.562991 -48.107348 17.00000000
40.264317 -56.987171 -28.308356 17.00000000
14.230139 -43.090819 -18.074814 17.00000000
13.036423 -41.591763 -46.986987 17.00000000
30.727626 -54.718373 -1.702320 17.00000000
22.053049 -50.193181 -46.268217 17.00000000
31.099507 -54.865738 -44.131019 17.00000000
15.266080 -44.274213 -20.762817 17.00000000
46.724735 -57.167455 -2.049048 17.00000000
6.136931 -27.320265 -19.561479 17.00000000
7.480833 -31.639667 -38.548604 17.00000000
36.663074 -56.413370 -56.199575 17.00000000
18.217828 -47.208634 -3.382976 17.00000000
26.144240 -52.678988 -4.129521 17.00000000
11.432821 -39.336894 -25.718878 17.00000000
30.984521 -54.820172 0.240793 17.00000000
23.096558 -50.917740 -59.240755 17.00000000
19.240209 -48.058625 -16.854068 17.00000000
17.385385 -46.425516 -42.631947 17.00000000
45.078846 -57.197200 -2.120934 17.00000000
40.162264 -56.972782 -13.360121 17.00000000
19.743127 -48.476743 -41.184200 17.00000000
14.367111 -43.247287 -19.833291 17.00000000
6.022502 -26.878423 -22.085296 17.00000000
14.128906 -42.975177 -23.395368 17.00000000
7.310714 -31.132593 -19.215028 17.00000000
34.607588 -55.955566 -45.482528 17.00000000
36.123560 -56.293208 -12.333834 17.00000000
7.959261 -32.768468 0.179901 17.00000000
33.333160 -55.580410 2.160045 17.00000000
17.510435 -46.547421 -61.105543 17.00000000
11.886775 -40.047566 -56.897965 17.00000000
18.672311 -47.586483 -46.511493 17.00000000
28.625253 -53.885270 -41.295454 17.00000000
27.257540 -53.225550 -7.942879 17.00000000
12.476576 -40.839782 -37.866742 17.00000000
27.656286 -53.421310 -42.499419 17.00000000
18.569234 -47.500787 -8.095513 17.00000000
18.980210 -47.842465 -32.884282 17.00000000
12.982994 -41.519997 -29.387973 17.00000000
28.935955 -54.008392 -29.150136 17.00000000
23.245070 -51.005842 -19.334981 17.00000000
15.542557 -44.590044 -28.407295 17.00000000
26.172742 -52.692981 2.774059 17.00000000
5.208132 -23.733897 -42.495605 17.00000000
39.982698 -56.947465 -36.187760 17.00000000
8.713802 -34.539484 -40.825272 17.00000000
20.281680 -48.924487 -33.585277 17.00000000
40.035712 -56.954940 -25.239311 17.00000000
14.607571 -43.521974 -4.675192 17.00000000
32.695153 -55.384295 -47.467425 17.00000000
6.932909 -30.006462 -6.619690 17.00000000
6.908144 -29.932644 -49.704835 17.00000000
33.444117 -55.614518 -4.969649 17.00000000
22.542389 -50.538494 -34.108741 17.00000000
43.941735 -57.217750 -25.159200 17.00000000
28.484216 -53.827772 -48.890674 17.00000000
35.438332 -56.140592 -2.345543 17.00000000
7.156944 -30.674248 -35.517032 17.00000000
6.068235 -27.055009 -46.287383 17.00000000
34.676576 -55.970931 -24.616885 17.00000000
32.992885 -55.475814 -45.636814 17.00000000
15.804113 -44.884018 -57.731242 17.00000000
10.700144 -38.170618 -35.804150 17.00000000
33.189884 -55.536369 -24.238766 17.00000000
44.681568 -57.204380 -59.972299 17.00000000
7.333332 -31.200010 -57.263919 17.00000000
21.201935 -49.592574 -26.416458 17.00000000
39.613740 -56.895445 -60.889809 17.00000000
42.545110 -57.151284 -26.772483 17.00000000
32.791645 -55.413955 -13.061988 17.00000000
26.337067 -52.773654 -22.404077 17.00000000
10.944405 -38.559433 -38.799504 17.00000000
46.568738 -57.170274 -60.221904 17.00000000
20.722366 -49.254157 -22.962728 17.00000000
5.142647 -23.481040 1.670665 17.00000000
18.069966 -47.085704 -24.643157 17.00000000
44.404372 -57.209389 -36.698576 17.00000000
38.004475 -56.668554 -24.170494 17.00000000
30.843142 -54.764148 -55.950800 17.00000000
6.298637 -27.944661 -17.948016 17.00000000
35.015978 -56.046524 -48.271726 17.00000000
36.942915 -56.475697 -5.104587 17.00000000
35.911203 -56.245911 -3.625269 17.00000000
21.844487 -50.046004 -8.003661 17.00000000
8.069323 -33.026798 -3.202434 17.00000000
14.040253 -42.873905 -11.276044 17.00000000
15.963406 -45.039304 -0.028237 17.00000000
25.701472 -52.461616 -58.112771 17.00000000
29.638923 -54.286955 -56.652429 17.00000000
9.609770 -36.254987 -37.849332 17.00000000
8.889915 -34.878403 -44.892511 17.00000000
4.803205 -22.170355 -35.759021 17.00000000
9.360649 -35.778591 -58.298380 17.00000000
11.111190 -38.824922 -13.213361 17.00000000
8.233202 -33.411445 -58.979511 17.00000000
27.809182 -53.496372 -12.214438 17.00000000
33.457847 -55.618738 -25.208093 17.00000000
15.707601 -44.778580 -5.719620 17.00000000
18.784459 -47.679722 -24.743612 17.00000000
26.876930 -53.038694 -51.110691 17.00000000
18.808776 -47.699938 -39.066679 17.00000000
43.102146 -57.185295 -34.830889 17.00000000
14.850295 -43.799247 -38.379854 17.00000000
13.728391 -42.517653 -0.428926 17.00000000
6.620918 -29.076507 -0.021422 17.00000000
12.468654 -40.829141 0.218585 17.00000000
7.100000 -30.504513 -44.038005 17.00000000
9.757499 -36.537490 -58.560984 17.00000000
12.768666 -41.232113 -21.602726 17.00000000
17.630653 -46.664615 -5.476483 17.00000000
17.648496 -46.682010 -15.405066 17.00000000
32.140734 -55.213873 -55.958755 17.00000000
9.309204 -35.680213 -1.847666 17.00000000
44.365184 -57.210097 -22.584932 17.00000000
10.845302 -38.401682 -15.778469 17.00000000
42.849774 -57.169886 -17.642839 17.00000000
9.254691 -35.575968 -5.862482 17.00000000
8.511500 -34.064651 -47.393018 17.00000000
10.831500 -38.379711 -24.462700 17.00000000
24.074274 -51.497751 -46.998001 17.00000000
19.947876 -48.646967 -59.821303 17.00000000
21.172852 -49.572052 -49.832845 17.00000000
46.836295 -57.165439 -61.110178 17.00000000
46.241663 -57.176185 -4.308209 17.00000000
24.280174 -51.619897 -45.677129 17.00000000
36.092280 -56.286241 -55.177754 17.00000000
26.488379 -52.847939 -2.236542 17.00000000
22.890267 -50.783981 0.009994 17.00000000
17.854373 -46.882708 -46.043761 17.00000000
8.371765 -33.736674 -35.214738 17.00000000
16.661181 -45.719528 -56.821038 17.00000000
6.268479 -27.828212 -1.194355 17.00000000
26.935266 -53.067333 -52.008461 17.00000000
42.953153 -57.176198 -50.917332 17.00000000
6.626860 -29.094218 -29.436757 17.00000000
29.360708 -54.176708 -25.339776 17.00000000
26.928197 -53.063863 2.656514 17.00000000
46.295532 -57.175211 -7.216947 17.00000000
8.450860 -33.922322 -12.061420 17.00000000
6.844179 -29.741984 -55.476656 17.00000000
46.790891 -57.166259 -48.785009 17.00000000
29.304916 -54.154599 -60.458475 17.00000000
16.060387 -45.133846 -20.910120 17.00000000
14.354728 -43.233141 -58.776221 17.00000000
21.078217 -49.505270 -52.093818 17.00000000
5.676546 -25.542582 -7.565662 17.00000000
7.559081 -31.829188 -54.636254 17.00000000
5.961239 -26.641867 -43.876359 17.00000000
39.808410 -56.922892 -20.160200 17.00000000
45.514112 -57.189334 -9.199202 17.00000000
6.511403 -28.750071 -25.143157 17.00000000
10.170479 -37.327236 -11.127664 17.00000000
24.171326 -51.555325 -48.594246 17.00000000
19.832250 -48.550838 -12.828622 17.00000000
28.040871 -53.610117 -3.403539 17.00000000
11.735707 -39.819028 1.414138 17.00000000
36.140477 -56.296976 -19.996118 17.00000000
42.704681 -57.161027 -21.212709 17.00000000
43.403460 -57.203693 -3.318948 17.00000000
17.973102 -46.998451 2.815921 17.00000000
6.123474 -27.268305 -55.663081 17.00000000
10.261658 -37.472635 -38.405958 17.00000000
33.506967 -55.633837 -31.373006 17.00000000
14.660191 -43.582084 -45.993930 17.00000000
38.698710 -56.766435 -47.653981 17.00000000
26.376267 -52.792899 -6.814973 17.00000000
18.371721 -47.336578 -59.950436 17.00000000
43.650301 -57.218765 -45.712414 17.00000000
41.062823 -57.060778 -17.028059 17.00000000
20.605295 -49.171543 -46.589841 17.00000000
31.979429 -55.164289 -37.656796 17.00000000
9.708949 -36.444648 -48.408796 17.00000000
45.870332 -57.182896 -2.013521 17.00000000
44.200166 -57.213080 -48.264590 17.00000000
21.801451 -50.015635 -48.245572 17.00000000
14.683746 -43.608991 -41.515342 17.00000000
15.392800 -44.418971 -59.072415 17.00000000
6.967859 -30.110637 -1.397265 17.00000000
13.702513 -42.486449 -58.595501 17.00000000
37.438210 -56.586011 -6.745112 17.00000000
6.331791 -28.072679 -50.654752 17.00000000
5.450155 -24.668422 -31.404779 17.00000000
6.675930 -29.240482 -44.105899 17.00000000
6.680836 -29.255103 -20.914820 17.00000000
40.645066 -57.035270 -40.786701 17.00000000
9.206518 -35.483847 -6.838456 17.00000000
7.160329 -30.684335 -37.752671 17.00000000
24.410498 -51.697209 -50.497378 17.00000000
6.174269 -27.464441 -38.734128 17.00000000
8.318229 -33.611017 -32.973883 17.00000000
23.778505 -51.322292 -47.906412 17.00000000
5.107974 -23.347157 -13.845236 17.00000000
38.662375 -56.761312 -6.511272 17.00000000
28.578189 -53.866621 -45.403900 17.00000000
33.543729 -55.645137 -11.960091 17.00000000
39.366029 -56.860521 -16.083106 17.00000000
29.534842 -54.245711 -8.131994 17.00000000
46.784491 -57.166375 -52.015897 17.00000000
9.450955 -35.951286 -29.007412 17.00000000
37.255130 -56.545235 -52.908293 17.00000000
46.437415 -57.172647 -59.322316 17.00000000
37.033224 -56.495811 -33.369807 17.00000000
8.606941 -34.288666 -10.472110 17.00000000
8.227887 -33.398970 1.625966 17.00000000
6.296679 -27.937102 -25.255307 17.00000000
39.293062 -56.850233 -34.944371 17.00000000
6.503309 -28.725948 -24.387735 17.00000000
12.853644 -41.346255 -14.455755 17.00000000
8.128634 -33.166010 -30.342372 17.00000000
37.836495 -56.644871 -26.132917 17.00000000
5.562705 -25.103008 -48.045403 17.00000000
10.794812 -38.321311 -33.002742 17.00000000
26.399632 -52.804370 -60.422609 17.00000000
13.300560 -41.946549 -16.241074 17.00000000
11.922560 -40.095631 -39.073845 17.00000000
11.431149 -39.334233 -46.383339 17.00000000
29.412284 -54.197146 -23.099200 17.00000000
26.154850 -52.684197 -14.452742 17.00000000
41.981512 -57.116871 -30.018760 17.00000000
43.224587 -57.192771 -2.228295 17.00000000
11.231107 -39.015806 -35.458954 17.00000000
5.080553 -23.241278 -5.094506 17.00000000
4.815600 -22.218213 -58.399420 17.00000000
16.925869 -45.977558 -22.104887 17.00000000
25.045351 -52.073824 -33.521405 17.00000000
24.102965 -51.514772 -60.609553 17.00000000
38.277440 -56.707040 -46.852953 17.00000000
20.663778 -49.212812 -37.176653 17.00000000
26.913480 -53.056638 -28.975728 17.00000000
29.719641 -54.318941 3.305434 17.00000000
15.597190 -44.652453 -49.464618 17.00000000
6.599630 -29.013052 -13.352507 17.00000000
18.605064 -47.530576 -12.536223 17.00000000
27.982206 -53.581316 -4.418455 17.00000000
5.261591 -23.940320 0.133059 17.00000000
15.646774 -44.709094 -52.048728 17.00000000
11.393704 -39.274628 -50.815660 17.00000000
20.537729 -49.123864 0.230664 17.00000000
26.914921 -53.057345 -13.917918 17.00000000
11.026142 -38.689543 -59.152439 17.00000000
10.111842 -37.215104 -37.442186 17.00000000
41.731675 -57.101617 -51.731627 17.00000000
43.478938 -57.208302 -58.241795 17.00000000
11.306756 -39.136223 1.323756 17.00000000
31.157260 -54.888623 -54.419684 17.00000000
19.967313 -48.663127 -37.780052 17.00000000
45.783826 -57.184459 -20.485652 17.00000000
46.750994 -57.166980 -56.855298 17.00000000
43.466418 -57.207537 -21.457017 17.00000000
36.566181 -56.391790 -24.513501 17.00000000
4.809855 -22.196032 -33.515893 17.00000000
30.113437 -54.474990 -23.657587 17.00000000
