-21.219721 3.807526 -14.957868 23.00000000
-21.452589 6.852091 -4.514725 23.00000000
-21.027848 1.298933 -1.354565 23.00000000
-21.337025 5.341183 -54.118529 23.00000000
-21.198210 3.526280 -28.076143 23.00000000
-21.041729 1.480409 -35.404033 23.00000000
-21.010755 1.075446 -8.859101 23.00000000
-21.124117 2.557578 -59.725041 23.00000000
-21.060831 1.730157 -50.877008 23.00000000
-21.204388 3.607050 3.006472 23.00000000
-21.423714 6.474577 -17.838107 23.00000000
-20.956059 0.360347 -46.323151 23.00000000
-21.275758 4.540169 -54.522362 23.00000000
-21.266664 4.421271 -26.921661 23.00000000
-21.072258 1.879553 -6.149711 23.00000000
-21.008673 1.048226 -51.090183 23.00000000
-21.173889 3.208305 -17.910403 23.00000000
-21.502302 7.502059 -13.946790 23.00000000
-21.535133 7.931302 -2.445794 23.00000000
-21.369890 5.770865 -46.331891 23.00000000
-21.336951 5.340223 1.042237 23.00000000
-21.257787 4.305213 -6.018708 23.00000000
-21.008740 1.049112 -50.805296 23.00000000
-21.121299 2.520727 -22.747875 23.00000000
-21.434309 6.613098 -40.302330 23.00000000
-21.326486 5.203395 -50.244967 23.00000000
-21.357961 5.614910 -30.522615 23.00000000
-21.516767 7.691174 -34.624561 23.00000000
-21.064432 1.777231 -41.130330 23.00000000
-21.373895 5.823238 -10.471529 23.00000000
-21.296877 4.816277 -44.233307 23.00000000
-21.361471 5.660794 -29.880452 23.00000000
-21.199919 3.548623 -55.426902 23.00000000
-21.068437 1.829595 -4.793333 23.00000000
-21.364266 5.697342 -58.551713 23.00000000
-21.162399 3.058077 -14.479004 23.00000000
-21.082941 2.019235 -26.945305 23.00000000
-21.399516 6.158206 -32.710696 23.00000000
-21.190048 3.419568 -59.981118 23.00000000
-20.923749 -0.062081 -19.856388 23.00000000
-21.527416 7.830400 -53.535204 23.00000000
-21.536636 7.950951 -60.477475 23.00000000
-21.386764 5.991491 -47.520303 23.00000000
-21.462138 6.976945 -43.722825 23.00000000
-21.188319 3.396971 -36.495998 23.00000000
-21.434331 6.613387 -1.519491 23.00000000
-21.285943 4.673326 -58.102279 23.00000000
-21.391818 6.057556 -14.442445 23.00000000
-21.139158 2.754229 -56.421457 23.00000000
-21.259866 4.332389 -27.248478 23.00000000
-20.946196 0.231393 -39.597880 23.00000000
-21.046199 1.538855 -40.969194 23.00000000
-21.301388 4.875261 -11.206861 23.00000000
-21.376972 5.863457 -0.659032 23.00000000
-20.964940 0.476452 -58.665973 23.00000000
-21.539578 7.989410 -59.166038 23.00000000
-21.158854 3.011732 -28.144339 23.00000000
-21.477937 7.183501 -8.249309 23.00000000
-21.096519 2.196749 -5.214267 23.00000000
-21.165971 3.104778 -51.948403 23.00000000
-20.917565 -0.142932 -27.703762 23.00000000
-21.000858 0.946058 -1.355871 23.00000000
-21.140033 2.765664 -6.133337 23.00000000
-21.206229 3.631130 -36.128735 23.00000000
-21.256459 4.287851 -12.584534 23.00000000
-21.179697 3.284240 -39.551184 23.00000000
-20.943004 0.189652 -7.338979 23.00000000
-21.517208 7.696939 -6.486912 23.00000000
-21.142549 2.798555 -30.648812 23.00000000
-21.011635 1.086961 -37.294537 23.00000000
-21.506565 7.557797 0.309489 23.00000000
-21.290173 4.728625 -37.012511 23.00000000
-21.395797 6.109586 -36.534343 23.00000000
-20.956907 0.371432 -8.131788 23.00000000
-21.532263 7.893779 -33.861149 23.00000000
-21.427148 6.519474 0.598261 23.00000000
-20.957279 0.376293 -60.751833 23.00000000
-21.176791 3.246248 -9.384199 23.00000000
-21.188243 3.395979 -35.931655 23.00000000
-21.165756 3.101975 -30.773005 23.00000000
-21.148932 2.882015 0.496743 23.00000000
-21.143591 2.812176 -26.741748 23.00000000
-21.421474 6.445288 -43.314725 23.00000000
-21.376922 5.862802 -23.665309 23.00000000
-21.465179 7.016704 -30.619285 23.00000000
-21.272904 4.502850 -9.396137 23.00000000
-21.071690 1.872124 -25.715075 23.00000000
-21.493553 7.387675 -14.874880 23.00000000
-21.535047 7.930171 -7.200427 23.00000000
-21.537969 7.968375 -15.600533 23.00000000
-21.485397 7.281039 -48.707725 23.00000000
-21.404152 6.218814 -28.661132 23.00000000
-21.456625 6.904864 -8.019132 23.00000000
-21.317961 5.091941 -47.001838 23.00000000
-21.485782 7.286065 -59.163281 23.00000000
-21.255326 4.273026 -59.113121 23.00000000
-21.480916 7.222452 -50.345668 23.00000000
-21.238994 4.059501 -47.517257 23.00000000
-21.208635 3.662579 -49.141964 23.00000000
-20.973422 0.587345 -18.210186 23.00000000
-21.484096 7.264023 -3.456923 23.00000000
-21.397322 6.129520 -6.796380 23.00000000
-21.250737 4.213040 -33.809956 23.00000000
-21.079382 1.972696 -4.086300 23.00000000
-21.018951 1.182603 -43.899672 23.00000000
-20.929204 0.009232 -33.362483 23.00000000
-21.263274 4.376948 -4.782410 23.00000000
-21.395440 6.104923 -60.975650 23.00000000
-20.949959 0.280592 -30.200215 23.00000000
-20.979968 0.672929 -29.927229 23.00000000
-21.326733 5.206621 -4.392843 23.00000000
-21.476085 7.159287 -10.218507 23.00000000
-21.424464 6.484379 -7.366868 23.00000000
-21.151800 2.919514 -58.370372 23.00000000
-21.489519 7.334932 -2.076544 23.00000000
-20.930902 0.031437 -41.577375 23.00000000
-21.460401 6.954231 -26.188177 23.00000000
-21.200564 3.557056 -15.426936 23.00000000
-21.516073 7.682099 -55.574869 23.00000000
-21.171312 3.174618 -35.659485 23.00000000
-21.393964 6.085621 -27.079910 23.00000000
-21.065055 1.785382 -43.983567 23.00000000
-21.227669 3.911444 -9.795236 23.00000000
-21.440284 6.691220 3.580253 23.00000000
-20.966412 0.495702 -46.987655 23.00000000
-21.193519 3.464948 -47.827680 23.00000000
-20.918607 -0.129310 -30.998171 23.00000000
-21.098111 2.217563 -9.933131 23.00000000
-21.051403 1.606888 -34.612180 23.00000000
-21.316886 5.077878 -22.945837 23.00000000
-20.951707 0.303440 -53.642873 23.00000000
-21.349905 5.509579 -24.502583 23.00000000
-21.341841 5.404155 -17.351853 23.00000000
-21.534288 7.920253 -49.024643 23.00000000
-21.441796 6.710989 -59.208389 23.00000000
-21.122257 2.533253 -30.361684 23.00000000
-21.252412 4.234931 -22.866187 23.00000000
-21.019247 1.186476 -1.073719 23.00000000
-21.533684 7.912350 -18.457013 23.00000000
-21.318122 5.094042 -17.010335 23.00000000
-21.054487 1.647220 -59.903144 23.00000000
-21.017396 1.162273 -51.710592 23.00000000
-21.356932 5.601452 -48.956878 23.00000000
-21.458218 6.925689 -47.050980 23.00000000
-21.463453 6.994141 -58.666359 23.00000000
-21.365595 5.714714 -25.858028 23.00000000
-21.019879 1.194736 -3.202365 23.00000000
-21.282500 4.628317 -5.015205 23.00000000
-21.214016 3.732936 -8.450044 23.00000000
-21.420883 6.437563 -26.119847 23.00000000
-21.530517 7.870952 -40.944960 23.00000000
-20.987133 0.766617 -56.061061 23.00000000
-21.463858 6.999426 -19.325783 23.00000000
-21.195200 3.486925 -22.277864 23.00000000
-21.056789 1.677312 -54.468911 23.00000000
-21.462934 6.987344 -44.717249 23.00000000
-21.264894 4.398132 -7.349371 23.00000000
-21.090985 2.124401 -41.194243 23.00000000
-21.222859 3.848556 -57.411561 23.00000000
-20.992030 0.830637 -20.749984 23.00000000
-21.232659 3.976676 -48.045481 23.00000000
-20.995036 0.869943 -57.884589 23.00000000
-21.018193 1.172698 -14.178616 23.00000000
-21.329891 5.247907 -16.394666 23.00000000
-21.515889 7.679701 -10.045599 23.00000000
-21.163206 3.068634 -54.973237 23.00000000
-21.164712 3.088325 -36.654369 23.00000000
-21.079849 1.978799 -39.643570 23.00000000
-21.521978 7.759303 -21.223962 23.00000000
-21.342824 5.417005 -15.586139 23.00000000
-21.349062 5.498560 -12.640771 23.00000000
-21.283134 4.636601 -15.619633 23.00000000
-21.372293 5.802281 -46.922451 23.00000000
-21.412562 6.328774 -20.742599 23.00000000
-21.531690 7.886279 -38.372770 23.00000000
-21.150730 2.905520 -38.732688 23.00000000
-21.453337 6.861870 -47.819468 23.00000000
-21.144520 2.824327 -27.667939 23.00000000
-21.538766 7.978800 -35.021399 23.00000000
-21.292920 4.764551 -56.855799 23.00000000
-21.513141 7.643772 -10.668503 23.00000000
-21.448005 6.792161 -36.442526 23.00000000
-21.086104 2.060580 -24.116665 23.00000000
-20.942974 0.189260 -2.192385 23.00000000
-21.051280 1.605282 -16.748756 23.00000000
-21.355725 5.585678 -31.140569 23.00000000
-20.977062 0.634944 -17.705792 23.00000000
-21.396053 6.112936 -16.482099 23.00000000
-21.118666 2.486307 -51.431682 23.00000000
-21.102587 2.276088 -29.057464 23.00000000
-21.232867 3.979395 -44.553844 23.00000000
-21.403062 6.204567 -9.150297 23.00000000
-21.281747 4.618472 -49.923679 23.00000000
-21.513483 7.648246 -53.848862 23.00000000
-21.007865 1.037665 -36.246964 23.00000000
-21.348448 5.490532 -32.003859 23.00000000
-21.025389 1.266783 -6.264297 23.00000000
-21.343985 5.432187 -59.987146 23.00000000
-20.985882 0.750260 -41.261595 23.00000000
-21.258933 4.320186 2.907013 23.00000000
-21.366875 5.731447 -20.303084 23.00000000
-21.387934 6.006783 -39.096899 23.00000000
-21.463269 6.991732 -13.270421 23.00000000
-21.436773 6.645309 -8.311472 23.00000000
-21.403321 6.207959 -21.213964 23.00000000
-21.423174 6.467524 -9.790218 23.00000000
-21.489954 7.340620 -15.986222 23.00000000
-21.341131 5.394868 -16.093317 23.00000000
-21.015088 1.132097 -48.961857 23.00000000
-21.216518 3.765644 -10.114880 23.00000000
-20.976784 0.631305 -34.136095 23.00000000
-20.981035 0.686884 -46.402825 23.00000000
-21.157924 2.999575 -6.418737 23.00000000
-21.507115 7.564980 -9.285212 23.00000000
-20.955093 0.347706 -26.663570 23.00000000
-21.169182 3.146761 -17.147524 23.00000000
-21.365291 5.710741 -11.658254 23.00000000
-21.454024 6.870860 -50.965362 23.00000000
-21.432748 6.592685 -19.493623 23.00000000
-21.312226 5.016962 -54.384769 23.00000000
-21.006854 1.024454 -8.511081 23.00000000
-21.125129 2.570805 -23.049000 23.00000000
-21.352533 5.543941 -41.480356 23.00000000
-21.350547 5.517972 -25.155992 23.00000000
-21.209253 3.670657 -47.190358 23.00000000
-21.415817 6.371335 -14.188842 23.00000000
-21.316454 5.072232 -33.438707 23.00000000
-21.042545 1.491078 -37.295243 23.00000000
-21.231426 3.960560 -59.572877 23.00000000
-21.172434 3.189281 -40.028917 23.00000000
-21.373642 5.819923 -52.295604 23.00000000
-21.056864 1.678293 -28.230377 23.00000000
-21.482097 7.237889 -11.937585 23.00000000
-21.344634 5.440667 1.329790 23.00000000
-21.141997 2.791340 -10.116701 23.00000000
-21.538465 7.974857 -46.195843 23.00000000
-21.512092 7.630048 -57.024442 23.00000000
-21.026356 1.279421 -34.514699 23.00000000
-21.069527 1.843855 0.673175 23.00000000
-21.537727 7.965214 -49.641855 23.00000000
-21.095429 2.182496 -10.797511 23.00000000
-21.511554 7.623017 -30.380345 23.00000000
-21.238566 4.053911 -52.148313 23.00000000
-21.473959 7.131494 -57.907445 23.00000000
-21.107740 2.343456 -54.777785 23.00000000
-21.258866 4.319320 -56.932215 23.00000000
-21.073541 1.896334 -54.068708 23.00000000
-21.339035 5.367466 -56.298773 23.00000000
-21.430904 6.568586 -59.901399 23.00000000
-21.002917 0.972980 -47.601378 23.00000000
-21.410479 6.301545 3.187221 23.00000000
-21.154622 2.956406 -39.037335 23.00000000
-21.043796 1.507440 -31.356836 23.00000000
-21.018861 1.181425 -49.259311 23.00000000
-20.947394 0.247057 -39.148111 23.00000000
-21.431992 6.582806 -47.192503 23.00000000
-20.952366 0.312055 -19.235649 23.00000000
-21.459158 6.937979 -51.273011 23.00000000
-21.282430 4.627398 -1.157066 23.00000000
-20.919542 -0.117085 -47.319436 23.00000000
-21.152168 2.924320 -18.741710 23.00000000
-21.190419 3.424419 -38.427072 23.00000000
-21.203305 3.592893 -57.984906 23.00000000
-21.501609 7.492994 -30.672668 23.00000000
-21.042079 1.484995 -14.396489 23.00000000
-21.487827 7.312805 -48.216574 23.00000000
-21.123200 2.545589 -53.388379 23.00000000
-20.923148 -0.069943 -20.931130 23.00000000
-21.531619 7.885361 -39.114063 23.00000000
-21.489273 7.331718 -32.578746 23.00000000
-21.052718 1.624085 -57.087954 23.00000000
-21.286907 4.685929 -8.526793 23.00000000
-21.409501 6.288756 -4.132537 23.00000000
-21.510231 7.605723 -54.596616 23.00000000
-21.364352 5.698460 -55.449050 23.00000000
-21.126146 2.584099 -2.316399 23.00000000
-21.098650 2.224613 -14.501890 23.00000000
-21.332684 5.284430 -35.255895 23.00000000
-21.245393 4.143166 -20.174908 23.00000000
-21.496112 7.421122 -42.862791 23.00000000
-21.033616 1.374348 -27.588359 23.00000000
-21.373435 5.817222 2.101290 23.00000000
-20.949699 0.277190 2.497901 23.00000000
-21.163866 3.077260 -51.492120 23.00000000
-21.345326 5.449719 -19.462796 23.00000000
-21.460070 6.949906 2.228411 23.00000000
-21.232129 3.969754 -35.606307 23.00000000
-21.355374 5.581083 -7.353511 23.00000000
-21.128607 2.616277 -40.074537 23.00000000
-21.209038 3.667849 -11.943679 23.00000000
-21.055925 1.666015 -38.909647 23.00000000
-21.002979 0.973787 -2.941442 23.00000000
-21.483520 7.256496 -0.573375 23.00000000
-21.266262 4.416017 -3.810245 23.00000000
-21.127134 2.597017 -47.998927 23.00000000
-21.184574 3.348001 2.403765 23.00000000
-21.068813 1.834518 -21.671889 23.00000000
-20.926212 -0.029888 -20.606632 23.00000000
-21.233701 3.990301 -12.084283 23.00000000
-21.534525 7.923353 -10.389097 23.00000000
-21.081803 2.004354 -45.087150 23.00000000
-21.530490 7.870592 -43.336771 23.00000000
-21.135961 2.712421 -10.790492 23.00000000
-21.124221 2.558937 -38.031850 23.00000000
-21.108379 2.351809 -51.817029 23.00000000
-21.334813 5.312261 -19.781983 23.00000000
-21.064276 1.775194 -22.257336 23.00000000
-21.001205 0.950591 -19.046512 23.00000000
-21.347325 5.475843 -32.926598 23.00000000
-21.432623 6.591057 -60.685675 23.00000000
-21.353420 5.555534 -27.569131 23.00000000
-21.377482 5.870131 -32.317886 23.00000000
-21.318646 5.100899 -46.374647 23.00000000
-21.262358 4.364971 -29.839778 23.00000000
-21.065362 1.789400 -52.012021 23.00000000
-21.235164 4.009434 -21.928824 23.00000000
-21.471132 7.094533 -17.703140 23.00000000
-21.359327 5.632767 -52.052257 23.00000000
-21.471904 7.104627 -52.753480 23.00000000
-20.972696 0.577858 -43.000670 23.00000000
-21.133846 2.684773 -31.766658 23.00000000
-21.434790 6.619394 -35.886679 23.00000000
-21.186159 3.368721 3.495794 23.00000000
-21.089997 2.111476 -59.067108 23.00000000
-21.387104 5.995925 -11.590186 23.00000000
-21.395839 6.110128 -24.629672 23.00000000
-21.237641 4.041814 -15.170005 23.00000000
-21.161924 3.051877 -6.101753 23.00000000
-21.513435 7.647607 -2.824714 23.00000000
-21.041926 1.482984 -48.083464 23.00000000
-21.198398 3.528737 3.782849 23.00000000
-21.047539 1.556375 -5.039690 23.00000000
-20.922411 -0.079574 -21.246126 23.00000000
-20.970652 0.551133 -51.788302 23.00000000
-20.940195 0.152930 -24.141013 23.00000000
-21.241274 4.089315 3.216960 23.00000000
-21.227185 3.905111 -8.718574 23.00000000
-20.966265 0.493776 -30.776506 23.00000000
-21.331766 5.272421 -20.074534 23.00000000
-21.200587 3.557364 -18.980118 23.00000000
-20.969124 0.531163 -32.755987 23.00000000
-20.920513 -0.104396 -48.034568 23.00000000
-20.939947 0.149692 -58.123904 23.00000000
-21.299550 4.851224 -35.927209 23.00000000
-20.920723 -0.101655 -36.718139 23.00000000
-20.973802 0.592322 -51.336033 23.00000000
-21.088070 2.086293 -47.519402 23.00000000
-21.335795 5.325110 -51.489142 23.00000000
-21.274714 4.526515 -33.805933 23.00000000
-21.357712 5.611646 -45.991511 23.00000000
-21.473440 7.124707 -15.459371 23.00000000
-21.381372 5.920987 -29.479437 23.00000000
-21.349334 5.502110 3.070773 23.00000000
-21.308094 4.962935 -43.731601 23.00000000
-21.053703 1.636965 -33.130728 23.00000000
-21.300916 4.869092 -19.797692 23.00000000
-20.937811 0.121758 -56.478458 23.00000000
-21.048138 1.564210 -44.507702 23.00000000
-21.438296 6.665221 -10.677453 23.00000000
-21.320547 5.125754 -52.790785 23.00000000
-21.405996 6.242931 -18.382664 23.00000000
-21.505274 7.540916 -1.128983 23.00000000
-20.967150 0.505350 -37.592354 23.00000000
-21.165692 3.101136 -37.305800 23.00000000
-21.186852 3.377781 -46.932632 23.00000000
-21.245973 4.150747 -42.413322 23.00000000
-21.512050 7.629502 -26.456977 23.00000000
-20.934749 0.081728 -1.466125 23.00000000
-21.491731 7.363849 -20.714010 23.00000000
-21.275558 4.537548 -23.240034 23.00000000
-21.373990 5.824474 -11.265759 23.00000000
-21.396838 6.123198 -33.716515 23.00000000
-21.379987 5.902875 -55.738506 23.00000000
-21.336693 5.336841 -55.526855 23.00000000
-21.313753 5.036915 -41.838596 23.00000000
-20.943891 0.201255 -60.038440 23.00000000
-21.415553 6.367874 -39.980717 23.00000000
-21.328824 5.233957 -18.807422 23.00000000
-21.255930 4.280931 -32.641623 23.00000000
-21.384361 5.960065 -31.914111 23.00000000
-20.919507 -0.117549 0.631629 23.00000000
-21.172427 3.189188 0.755389 23.00000000
-21.445015 6.753071 -38.665246 23.00000000
-21.123916 2.554939 -50.771699 23.00000000
-21.101048 2.255966 -50.456877 23.00000000
-21.434986 6.621956 -7.949124 23.00000000
-21.246904 4.162915 -12.911101 23.00000000
-21.037638 1.426930 -40.118918 23.00000000
-20.917794 -0.139942 -35.178151 23.00000000
-21.312032 5.014420 -28.708384 23.00000000
-21.395279 6.102807 -39.718575 23.00000000
-21.537525 7.962566 -18.792705 23.00000000
-21.223702 3.859575 -20.686257 23.00000000
-21.203877 3.600376 -13.690112 23.00000000
-21.254993 4.268680 -38.999963 23.00000000
-21.387087 5.995706 -39.977619 23.00000000
-21.091547 2.131743 3.216397 23.00000000
-21.359698 5.637622 -31.502066 23.00000000
-21.064765 1.781585 -16.111958 23.00000000
-21.138157 2.741138 -28.532083 23.00000000
-21.353391 5.555155 -36.309795 23.00000000
-20.980747 0.683116 -0.213629 23.00000000
-21.044896 1.521823 -42.130623 23.00000000
-21.218911 3.796937 -21.523653 23.00000000
-21.387569 6.002005 -16.786957 23.00000000
-21.468724 7.063053 -20.925486 23.00000000
-20.919336 -0.119789 -19.509440 23.00000000
-21.231537 3.962008 -10.913970 23.00000000
-21.309635 4.983075 -0.583281 23.00000000
-21.428404 6.535900 -21.156686 23.00000000
-21.285466 4.667089 1.875353 23.00000000
-21.358251 5.618704 -47.639957 23.00000000
-21.465516 7.021104 -59.299005 23.00000000
-21.321691 5.140710 -19.435300 23.00000000
-21.528053 7.838729 -31.628015 23.00000000
-21.392053 6.060633 -55.420967 23.00000000
-21.168397 3.136503 -5.610986 23.00000000
-21.104939 2.306831 -38.270624 23.00000000
-20.919491 -0.117754 -23.492947 23.00000000
-21.427119 6.519091 -33.093814 23.00000000
-21.210623 3.688574 -34.508263 23.00000000
-20.917833 -0.139433 -48.980237 23.00000000
-20.919957 -0.111664 -44.581546 23.00000000
-21.482533 7.243590 -60.207020 23.00000000
-21.295704 4.800947 -59.206430 23.00000000
-21.495382 7.411582 -17.285839 23.00000000
-21.382596 5.936996 -59.961906 23.00000000
-21.467852 7.051644 -8.979577 23.00000000
-21.026812 1.285380 -5.547337 23.00000000
-21.427784 6.527792 -46.667905 23.00000000
-21.458070 6.923761 -60.160685 23.00000000
-21.402459 6.196691 -28.953137 23.00000000
-21.311597 5.008739 -36.610841 23.00000000
-20.956503 0.366149 -1.193241 23.00000000
-21.075798 1.925837 -34.319477 23.00000000
-21.069144 1.838845 -23.070673 23.00000000
-21.252785 4.239808 -21.665520 23.00000000
-21.095330 2.181205 -42.597356 23.00000000
-21.405150 6.231872 -59.941249 23.00000000
-21.535739 7.939223 -30.433303 23.00000000
-21.208039 3.654786 -31.821044 23.00000000
-21.269924 4.463893 -20.735727 23.00000000
-21.173090 3.197860 -44.186264 23.00000000
-21.313444 5.032877 -37.417144 23.00000000
-20.993944 0.855662 -46.744304 23.00000000
-21.109272 2.363491 -11.099486 23.00000000
-21.020315 1.200444 -26.297053 23.00000000
-21.471555 7.100069 -33.819521 23.00000000
-21.281025 4.609026 -7.121182 23.00000000
-21.192788 3.455391 -16.002897 23.00000000
-21.312402 5.019260 -23.622690 23.00000000
-20.932485 0.052127 2.758307 23.00000000
-21.320172 5.120842 -8.694916 23.00000000
-21.384901 5.967131 -42.828129 23.00000000
-21.211844 3.704538 -22.601776 23.00000000
-21.256829 4.292687 -37.382543 23.00000000
-21.163385 3.070975 -15.634893 23.00000000
-21.105944 2.319973 -26.829995 23.00000000
-21.180023 3.288497 -27.506719 23.00000000
-21.038929 1.443809 -22.146799 23.00000000
-20.981366 0.691210 -33.807907 23.00000000
-21.369607 5.767172 1.807123 23.00000000
-21.288044 4.700796 -1.761504 23.00000000
-20.965846 0.488296 -28.257255 23.00000000
-21.192097 3.446359 -32.112077 23.00000000
-20.963561 0.458425 -0.900276 23.00000000
-21.333974 5.301294 -53.387882 23.00000000
-21.538696 7.977876 -53.228983 23.00000000
-21.517495 7.700700 -51.092750 23.00000000
-21.485803 7.286350 3.334972 23.00000000
-21.378044 5.877475 -34.807253 23.00000000
-21.526283 7.815590 3.178362 23.00000000
-21.390427 6.039380 1.015042 23.00000000
-21.357291 5.606146 -47.319056 23.00000000
-21.406448 6.248839 -1.706350 23.00000000
-21.355509 5.582849 -0.059841 23.00000000
-21.220059 3.811945 -54.720516 23.00000000
-21.227696 3.911793 2.950983 23.00000000
-21.419857 6.424150 -33.397383 23.00000000
-21.504970 7.536937 -20.281402 23.00000000
-21.324203 5.173543 -41.557027 23.00000000
-21.094445 2.169632 0.679692 23.00000000
-21.108501 2.353405 -52.897492 23.00000000
-21.374712 5.833920 -32.774641 23.00000000
-21.022086 1.223596 -21.056005 23.00000000
-21.483583 7.257319 -26.217493 23.00000000
-21.409886 6.293791 -36.788881 23.00000000
-21.040201 1.460432 -55.165654 23.00000000
-21.018273 1.173740 -31.334455 23.00000000
-21.006372 1.018144 -15.109138 23.00000000
-21.014660 1.126511 -24.897482 23.00000000
-21.309319 4.978955 -58.270109 23.00000000
-21.208822 3.665032 -51.377404 23.00000000
-21.009933 1.064705 -43.332158 23.00000000
-21.053935 1.639994 -0.313212 23.00000000
-21.251102 4.217809 2.407017 23.00000000
-21.219319 3.802262 -58.710972 23.00000000
-21.352285 5.540700 -20.936891 23.00000000
-21.307762 4.958594 -49.937709 23.00000000
-21.154136 2.950047 -2.248439 23.00000000
-21.464489 7.007684 -34.554051 23.00000000
-21.132644 2.669053 -53.705350 23.00000000
-21.031882 1.351671 -50.016511 23.00000000
-21.054150 1.642805 -34.908470 23.00000000
-21.447049 6.779664 -43.017482 23.00000000
-21.424313 6.482414 -47.875577 23.00000000
-21.187911 3.391637 -24.929620 23.00000000
-21.000382 0.939827 -50.532946 23.00000000
-21.421137 6.440885 -10.992689 23.00000000
-20.954282 0.337104 -21.288986 23.00000000
-21.202923 3.587906 -3.748916 23.00000000
-21.523371 7.777522 -47.965007 23.00000000
-20.929966 0.019192 2.401172 23.00000000
-21.205873 3.626471 -59.101029 23.00000000
-21.021105 1.210769 -21.880084 23.00000000
-21.151275 2.912642 -19.646999 23.00000000
-20.970276 0.546223 -42.305389 23.00000000
-21.164637 3.087346 -49.095056 23.00000000
-21.474769 7.142088 -59.570501 23.00000000
-21.509661 7.598274 -44.150786 23.00000000
-21.091959 2.137128 -32.908045 23.00000000
-21.232514 3.974787 -15.910013 23.00000000
-21.130469 2.640615 -11.840827 23.00000000
-21.530561 7.871516 -37.060159 23.00000000
-21.206989 3.641060 -44.711647 23.00000000
-21.086851 2.070352 -19.906392 23.00000000
-21.274152 4.519167 -34.725166 23.00000000
-21.197661 3.519104 -9.196569 23.00000000
-20.994193 0.858919 -24.647985 23.00000000
-21.344459 5.438382 -29.410195 23.00000000
-21.177850 3.260090 -60.241226 23.00000000
-21.400873 6.175947 -9.734625 23.00000000
-21.250518 4.210172 -35.100556 23.00000000
-20.965470 0.483381 -54.069608 23.00000000
-21.438024 6.661668 -19.147569 23.00000000
-21.001017 0.948136 -36.927316 23.00000000
-20.949197 0.270630 -1.807807 23.00000000
-21.474590 7.139741 -49.674048 23.00000000
-20.942992 0.189503 -34.727647 23.00000000
-21.335455 5.320660 -22.790631 23.00000000
-21.438902 6.673149 -41.723240 23.00000000
-21.462003 6.975180 -20.598018 23.00000000
-21.057725 1.689552 -25.972212 23.00000000
-21.503448 7.517045 -45.925540 23.00000000
-21.302225 4.886198 -9.291102 23.00000000
-21.358847 5.626497 -16.660803 23.00000000
-21.157921 2.999533 -22.590268 23.00000000
-21.380754 5.912905 -27.299175 23.00000000
-21.492303 7.371329 -50.780564 23.00000000
-21.456947 6.909078 -14.107672 23.00000000
-21.240053 4.073348 -58.877001 23.00000000
-20.998518 0.915465 -23.210528 23.00000000
-20.937231 0.114182 -52.238678 23.00000000
-21.410898 6.307015 -42.338622 23.00000000
-20.965784 0.487485 -7.509520 23.00000000
-21.129297 2.625296 -31.112297 23.00000000
-21.442922 6.725704 -13.125372 23.00000000
-20.999409 0.927108 -9.915183 23.00000000
-21.389323 6.024938 -5.869129 23.00000000
-21.188033 3.393229 -30.251780 23.00000000
-21.419016 6.413151 -41.148247 23.00000000
-21.082923 2.018991 -42.879039 23.00000000
-21.025636 1.270004 2.045349 23.00000000
-21.247551 4.171383 -54.044703 23.00000000
-21.246909 4.162981 -2.512462 23.00000000
-20.988381 0.782922 -16.628682 23.00000000
-20.971975 0.568435 -39.075300 23.00000000
-21.330770 5.259405 -8.269021 23.00000000
-21.316129 5.067990 -50.516022 23.00000000
-21.104365 2.299331 -61.034724 23.00000000
-21.036815 1.416162 0.041394 23.00000000
-21.100738 2.251906 -2.791998 23.00000000
-21.048611 1.570390 -21.890281 23.00000000
-21.368865 5.757471 -30.818545 23.00000000
-21.022320 1.226651 -48.282241 23.00000000
-21.287709 4.696411 -54.796967 23.00000000
-21.481232 7.226578 -53.348644 23.00000000
-21.172543 3.190704 -1.666276 23.00000000
-21.534857 7.927683 -59.559134 23.00000000
-21.197371 3.515320 -29.090850 23.00000000
-21.143443 2.810253 -8.765182 23.00000000
-21.452880 6.855901 -9.212685 23.00000000
-21.032952 1.365666 -28.675128 23.00000000
-21.338881 5.365449 -31.686469 23.00000000
-21.366973 5.732730 -19.739507 23.00000000
-21.007693 1.035424 -13.912952 23.00000000
-21.482085 7.237729 -1.763387 23.00000000
-21.275774 4.540379 -55.991915 23.00000000
-21.463824 6.998988 -0.047098 23.00000000
-21.337357 5.345523 -44.376099 23.00000000
-21.034229 1.382354 -45.590128 23.00000000
-20.923700 -0.062727 -30.702428 23.00000000
-20.949235 0.271118 -7.698011 23.00000000
-21.335454 5.320640 -28.276847 23.00000000
-21.114395 2.430470 -57.529608 23.00000000
-21.011380 1.083626 -27.920834 23.00000000
-21.484178 7.265099 -42.375238 23.00000000
-21.498252 7.449102 -16.422797 23.00000000
-21.139033 2.752594 -4.380880 23.00000000
-21.488017 7.315291 -9.557175 23.00000000
-21.532712 7.899641 -26.799114 23.00000000
-20.918684 -0.128302 -40.256640 23.00000000
-21.093260 2.154137 -24.708055 23.00000000
-21.263057 4.374105 0.527662 23.00000000
-21.200794 3.560072 -61.015974 23.00000000
-21.238585 4.054154 -25.072319 23.00000000
-20.996011 0.882680 -6.561951 23.00000000
-21.123755 2.552844 -44.082654 23.00000000
-21.527306 7.828971 -29.033168 23.00000000
-20.994525 0.863254 -25.322753 23.00000000
-21.346625 5.466701 -36.659430 23.00000000
-21.012174 1.093998 -2.358019 23.00000000
-21.521816 7.757182 -42.231063 23.00000000
-21.232481 3.974352 -55.093602 23.00000000
-21.127724 2.604728 -3.813573 23.00000000
-21.277432 4.562053 -5.574871 23.00000000
-21.064023 1.771896 -43.308751 23.00000000
-20.991314 0.821279 -60.148553 23.00000000
-21.244563 4.132313 -16.587716 23.00000000
-21.035606 1.400363 -43.623613 23.00000000
-21.510029 7.603080 -50.114125 23.00000000
-21.200281 3.553364 -5.597930 23.00000000
-21.438573 6.668849 -48.800154 23.00000000
-21.001918 0.959911 1.527809 23.00000000
-21.073940 1.901544 -9.701599 23.00000000
-21.260804 4.344658 -50.191886 23.00000000
-21.104338 2.298979 -43.496573 23.00000000
-21.232809 3.978645 -30.580881 23.00000000
-21.404671 6.225601 -32.117539 23.00000000
-21.007958 1.038882 -40.718620 23.00000000
-21.012050 1.092380 -42.355660 23.00000000
-21.495005 7.406651 3.877771 23.00000000
-20.923024 -0.071563 -12.570722 23.00000000
-21.327611 5.218110 -55.015660 23.00000000
-21.259332 4.325402 -24.907939 23.00000000
-21.011883 1.090194 -41.162598 23.00000000
-21.065946 1.797026 -48.727798 23.00000000
-20.948338 0.259400 -9.705243 23.00000000
-21.480288 7.214235 -35.726776 23.00000000
-20.943159 0.191679 -53.998008 23.00000000
-21.218571 3.792488 -28.763291 23.00000000
-21.404096 6.218089 -15.149799 23.00000000
-21.215774 3.755915 3.590511 23.00000000
-21.124465 2.562130 -25.408271 23.00000000
-21.059665 1.714907 -47.694431 23.00000000
-20.982784 0.709746 -15.498237 23.00000000
-21.172507 3.190233 -20.968639 23.00000000
-21.174811 3.220356 -38.846787 23.00000000
-21.034870 1.390734 -30.424297 23.00000000
-21.333871 5.299954 -38.013428 23.00000000
-21.428275 6.534214 -44.234542 23.00000000
-20.947294 0.245749 -19.977012 23.00000000
-21.170096 3.158715 -22.077070 23.00000000
-21.063874 1.769937 -19.463250 23.00000000
-21.462848 6.986220 -25.069342 23.00000000
-20.920372 -0.106232 -39.109317 23.00000000
-21.380867 5.914392 -22.594993 23.00000000
-21.105942 2.319953 -30.647155 23.00000000
-21.244640 4.133319 -24.588731 23.00000000
-21.070770 1.860108 -26.455950 23.00000000
-21.207352 3.645809 -1.531215 23.00000000
-21.056833 1.677884 -11.292373 23.00000000
-21.295270 4.795276 -52.152492 23.00000000
-21.537601 7.963569 -4.525652 23.00000000
-21.223058 3.851159 -19.901733 23.00000000
-21.425053 6.492088 -37.422090 23.00000000
-21.093394 2.155891 -57.395445 23.00000000
-20.998147 0.910615 -51.341025 23.00000000
-21.417956 6.399299 -24.182853 23.00000000
-21.086872 2.070625 -17.030461 23.00000000
-21.171235 3.173612 -25.161883 23.00000000
-20.943236 0.192694 -45.833849 23.00000000
-21.494375 7.398413 -51.060828 23.00000000
-21.153293 2.939023 -48.018370 23.00000000
-21.136301 2.716875 -37.499930 23.00000000
-21.251966 4.229105 -36.004116 23.00000000
-21.053469 1.633907 1.961198 23.00000000
-21.265557 4.406798 -0.534650 23.00000000
-21.371196 5.787939 -21.917002 23.00000000
-20.964169 0.466369 -52.156553 23.00000000
-21.375564 5.845053 -23.275634 23.00000000
-20.969624 0.537700 -34.615781 23.00000000
-21.051587 1.609297 -13.139835 23.00000000
-21.485674 7.284653 -21.595386 23.00000000
-20.940813 0.161015 -9.102899 23.00000000
-20.977651 0.642646 -27.636622 23.00000000
-21.076702 1.937652 -51.068047 23.00000000
-21.334857 5.312838 -11.826843 23.00000000
-21.245536 4.145039 -18.807917 23.00000000
-21.146556 2.850947 -35.150632 23.00000000
-21.107223 2.336694 -34.583262 23.00000000
-21.085694 2.055222 -15.847718 23.00000000
-21.438113 6.662834 -54.778145 23.00000000
-21.532086 7.891457 -3.873617 23.00000000
-20.966322 0.494517 -57.707390 23.00000000
-21.224850 3.874579 -30.240895 23.00000000
-21.073281 1.892929 -50.323225 23.00000000
-21.220712 3.820478 -3.130979 23.00000000
-21.023620 1.243647 -23.406141 23.00000000
-21.212058 3.707334 -52.177729 23.00000000
-21.122122 2.531491 -30.018229 23.00000000
-21.010508 1.072222 -37.637795 23.00000000
-21.175663 3.231505 -59.099808 23.00000000
-21.429420 6.549175 -52.370332 23.00000000
-21.333436 5.294260 2.755385 23.00000000
-21.534784 7.926737 -57.300407 23.00000000
-21.120524 2.510597 -14.508784 23.00000000
-21.253915 4.254581 -1.635450 23.00000000
-21.508209 7.579288 -38.967605 23.00000000
-21.253027 4.242971 -59.502058 23.00000000
-21.509069 7.590532 -20.962987 23.00000000
-21.026224 1.277702 -42.980143 23.00000000
-21.291218 4.742291 -18.513509 23.00000000
-21.446159 6.768031 -33.551539 23.00000000
-21.534267 7.919973 -51.754071 23.00000000
-21.410199 6.297879 -40.404863 23.00000000
-21.484573 7.270268 -1.431000 23.00000000
-21.431046 6.570444 -9.484154 23.00000000
-21.116876 2.462899 -13.288933 23.00000000
-20.949512 0.274746 -0.632759 23.00000000
-21.427768 6.527582 3.003468 23.00000000
-20.925484 -0.039408 -32.443863 23.00000000
-21.159155 3.015671 -34.867412 23.00000000
-21.419133 6.414689 -45.264648 23.00000000
-21.144273 2.821104 -50.470080 23.00000000
-21.485759 7.285773 -29.498459 23.00000000
-21.414419 6.353047 -17.223253 23.00000000
-21.080855 1.991952 -55.455511 23.00000000
-21.156067 2.975293 -57.514966 23.00000000
-21.373904 5.823347 -33.852854 23.00000000
-21.258244 4.311189 -36.561396 23.00000000
-21.099398 2.234394 -1.169422 23.00000000
-21.089801 2.108918 -53.360624 23.00000000
-21.408076 6.270129 -27.313436 23.00000000
-21.089219 2.101310 1.757805 23.00000000
-21.009516 1.059246 -33.624114 23.00000000
-20.995222 0.872369 -26.579026 23.00000000
-21.537437 7.961420 -15.956219 23.00000000
-20.927789 -0.009266 -49.481110 23.00000000
-21.535703 7.938749 -24.475053 23.00000000
-21.536103 7.943986 -13.399330 23.00000000
-21.192469 3.451231 -33.349156 23.00000000
-21.107396 2.338964 -15.659486 23.00000000
-21.453554 6.864715 -2.356282 23.00000000
-21.536208 7.945346 -8.775873 23.00000000
-20.953314 0.324459 -9.379338 23.00000000
-21.056329 1.671299 -6.391237 23.00000000
-21.171765 3.180538 -34.246519 23.00000000
-21.187074 3.380691 -32.721364 23.00000000
-21.298640 4.839328 -38.827942 23.00000000
-21.320128 5.120265 -15.470065 23.00000000
-21.126763 2.592170 -34.153584 23.00000000
-20.962824 0.448795 -47.739926 23.00000000
-21.076143 1.930347 -6.564991 23.00000000
-20.979190 0.662769 -26.193566 23.00000000
-20.931983 0.045572 -26.734521 23.00000000
-21.438924 6.673435 -0.952864 23.00000000
-21.095350 2.181468 -3.434784 23.00000000
-21.075478 1.921659 -10.602405 23.00000000
-20.923558 -0.064582 -9.563309 23.00000000
-21.044603 1.517994 -42.449729 23.00000000
-21.477001 7.171267 -43.216277 23.00000000
-21.393404 6.078295 -54.177705 23.00000000
-21.239627 4.067781 -54.367590 23.00000000
-21.077543 1.948649 -13.226687 23.00000000
-21.377445 5.869644 -33.536859 23.00000000
-20.918713 -0.127931 -8.779141 23.00000000
-21.277887 4.568004 -21.882275 23.00000000
-21.441597 6.708390 -35.250482 23.00000000
-21.237293 4.037260 -25.639418 23.00000000
-21.027926 1.299950 1.431181 23.00000000
-21.224305 3.867451 -45.016292 23.00000000
-21.246842 4.162117 -13.213605 23.00000000
-21.079208 1.970426 -3.726120 23.00000000
-21.132688 2.669639 -46.489633 23.00000000
-21.128200 2.610950 -61.023416 23.00000000
-21.539565 7.989240 -61.071392 23.00000000
-21.159356 3.018298 -40.580725 23.00000000
-21.353526 5.556925 0.594539 23.00000000
-21.475929 7.157246 -16.395644 23.00000000
-21.496874 7.431091 -57.250423 23.00000000
-21.006019 1.013534 -14.439302 23.00000000
-21.401372 6.182469 -27.639044 23.00000000
-21.432889 6.594539 -37.994232 23.00000000
-21.371124 5.787009 3.545633 23.00000000
-20.983919 0.724591 -61.081688 23.00000000
-21.431903 6.581639 -51.314024 23.00000000
-21.119274 2.494256 -58.383661 23.00000000
-21.288830 4.711077 -33.455996 23.00000000
-21.183748 3.337208 -16.383180 23.00000000
-21.496788 7.429969 -49.821428 23.00000000
-21.487690 7.311013 -6.392933 23.00000000
-21.005635 1.008509 -41.427001 23.00000000
-21.327426 5.215689 -45.696767 23.00000000
-21.527201 7.827587 -14.807930 23.00000000
-21.308410 4.967067 -55.627450 23.00000000
-21.060647 1.727753 -9.950469 23.00000000
-21.514422 7.660519 -22.203830 23.00000000
-21.440195 6.690056 -34.661700 23.00000000
-20.976865 0.632361 -31.676208 23.00000000
-21.255031 4.269171 -19.761669 23.00000000
-21.536442 7.948406 -37.969598 23.00000000
-21.375169 5.839888 -6.980238 23.00000000
-21.016389 1.149110 -16.244220 23.00000000
-21.302765 4.893268 -31.406507 23.00000000
-20.971820 0.566408 -45.436963 23.00000000
-21.158054 3.001275 -8.466782 23.00000000
-21.141766 2.788316 -31.504470 23.00000000
-21.034757 1.389265 -25.958837 23.00000000
-21.039367 1.449525 -45.896982 23.00000000
-21.454295 6.874408 -11.018028 23.00000000
-21.401648 6.186077 -12.657097 23.00000000
-21.176476 3.242130 -26.214286 23.00000000
-21.517232 7.697250 -17.468612 23.00000000
-21.041282 1.474570 -47.141027 23.00000000
-21.531343 7.881748 -19.116696 23.00000000
-21.495925 7.418681 -58.289186 23.00000000
-21.111642 2.394475 -57.815971 23.00000000
-21.387386 5.999621 -25.644488 23.00000000
-20.955562 0.353851 -31.888512 23.00000000
-21.059332 1.710554 -33.765232 23.00000000
-21.350057 5.511572 -10.771131 23.00000000
-21.197866 3.521787 -9.517841 23.00000000
-20.957793 0.383018 -33.569958 23.00000000
-21.264967 4.399082 -17.203585 23.00000000
-21.321768 5.141711 -14.950613 23.00000000
-20.985411 0.744100 -13.614885 23.00000000
-20.984766 0.735664 -47.454785 23.00000000
-21.356337 5.593674 -52.509147 23.00000000
-21.318379 5.097406 -16.114553 23.00000000
-21.439432 6.680079 -58.484742 23.00000000
-21.049378 1.580424 -15.137081 23.00000000
-21.046062 1.537066 1.203318 23.00000000
-21.529994 7.864113 2.577303 23.00000000
-21.362514 5.674441 -59.804466 23.00000000
-21.196546 3.504524 -4.208369 23.00000000
-21.051323 1.605848 -56.357742 23.00000000
-21.019231 1.186262 -36.705003 23.00000000
-21.377643 5.872233 -24.119422 23.00000000
-21.462989 6.988067 -56.554695 23.00000000
-21.023026 1.235879 -37.048396 23.00000000
-21.287567 4.694559 -36.299656 23.00000000
-21.150368 2.900784 -11.602224 23.00000000
-21.129037 2.621900 -7.480631 23.00000000
-21.011967 1.091301 -7.755623 23.00000000
-21.306808 4.946120 -39.584590 23.00000000
-21.039567 1.452140 -36.139985 23.00000000
-21.209312 3.671438 -25.877256 23.00000000
-21.203204 3.591582 -37.612791 23.00000000
-20.985797 0.749139 -22.726909 23.00000000
-21.011873 1.090069 -25.849701 23.00000000
-21.314616 5.048202 -20.579336 23.00000000
-21.342274 5.409808 -38.436425 23.00000000
-21.231023 3.955283 -21.042750 23.00000000
-21.421079 6.440129 -50.105347 23.00000000
-21.397909 6.137201 -57.516722 23.00000000
-21.036799 1.415951 -15.887920 23.00000000
-21.154912 2.960196 -27.318471 23.00000000
-21.055051 1.654590 -51.750710 23.00000000
-21.406929 6.255128 -53.354512 23.00000000
-21.502228 7.501088 -4.596101 23.00000000
-21.434075 6.610045 -31.659672 23.00000000
-20.971027 0.556043 -19.399148 23.00000000
-21.480411 7.215845 -40.634776 23.00000000
-21.094196 2.166382 -49.758915 23.00000000
-21.534959 7.929018 -33.191472 23.00000000
-21.539702 7.991035 -29.348166 23.00000000
-21.283986 4.647735 -14.606421 23.00000000
-21.491620 7.362393 -24.356412 23.00000000
-21.468735 7.063190 -32.397081 23.00000000
-21.096335 2.194340 -22.303830 23.00000000
-21.518432 7.712942 -46.366011 23.00000000
-21.539380 7.986828 -42.065193 23.00000000
-20.917771 -0.140247 -51.486716 23.00000000
-21.187588 3.387414 -22.790549 23.00000000
-20.943130 0.191300 -21.859439 23.00000000
-21.323608 5.165772 -30.497649 23.00000000
-21.129139 2.623237 -37.147833 23.00000000
-21.420866 6.437345 -53.592864 23.00000000
-21.391872 6.058270 -22.924777 23.00000000
-20.971570 0.563143 -42.690300 23.00000000
-21.295989 4.804669 -14.899561 23.00000000
-21.081647 2.002315 0.940817 23.00000000
-21.103544 2.288596 -37.914615 23.00000000
-21.533224 7.906336 -0.804661 23.00000000
-21.353797 5.560467 -23.740235 23.00000000
-21.308009 4.961823 -51.658172 23.00000000
-21.435926 6.634247 -20.060320 23.00000000
-21.182212 3.317123 -45.418966 23.00000000
-21.476167 7.160367 -55.523237 23.00000000
-21.322495 5.151222 -43.022213 23.00000000
-21.310361 4.992578 -31.698610 23.00000000
-21.279392 4.587679 -29.243644 23.00000000
-21.429836 6.554618 -32.042287 23.00000000
-21.129097 2.622678 1.686751 23.00000000
-21.496866 7.430988 -16.700205 23.00000000
-21.002094 0.962216 -19.384542 23.00000000
-20.974929 0.607049 -54.368404 23.00000000
-21.195783 3.494555 -44.118076 23.00000000
-21.345743 5.455170 -38.736632 23.00000000
-21.087721 2.081718 -18.026628 23.00000000
-20.996241 0.885686 -5.226585 23.00000000
-20.942850 0.187647 -55.878230 23.00000000
-21.489840 7.339123 -59.821937 23.00000000
-21.080758 1.990692 -56.603028 23.00000000
-21.478392 7.189449 -34.246015 23.00000000
-21.112334 2.403526 -44.578131 23.00000000
-21.119322 2.494883 -55.302358 23.00000000
-21.445942 6.765197 -44.986121 23.00000000
-21.277527 4.563297 -49.502814 23.00000000
-21.299523 4.850869 -27.793260 23.00000000
-21.301144 4.872072 -11.937981 23.00000000
-21.301674 4.878995 -34.709312 23.00000000
-21.220256 3.814523 -24.443475 23.00000000
-21.172575 3.191124 -46.090814 23.00000000
-21.091947 2.136976 -10.370246 23.00000000
-21.202787 3.586119 -29.949648 23.00000000
-21.009183 1.054892 -38.300148 23.00000000
-21.292809 4.763088 -32.113466 23.00000000
-20.926363 -0.027912 -59.645025 23.00000000
-20.945342 0.220228 3.726324 23.00000000
-20.944210 0.205430 -16.541381 23.00000000
-21.311381 5.005903 -60.607546 23.00000000
-21.233411 3.986510 -16.218085 23.00000000
-20.954152 0.335411 -12.809117 23.00000000
-21.018061 1.170971 -53.069034 23.00000000
-20.919492 -0.117749 -13.189978 23.00000000
-21.025636 1.270004 -19.289763 23.00000000
-21.450103 6.819596 3.268142 23.00000000
-21.385900 5.980184 -20.903584 23.00000000
-21.165812 3.102708 -50.790550 23.00000000
-21.510183 7.605091 -12.905936 23.00000000
-21.166138 3.106963 -16.101683 23.00000000
-21.247592 4.171919 -22.193309 23.00000000
-21.139760 2.762091 0.787958 23.00000000
-20.917592 -0.142584 -36.324920 23.00000000
-20.921379 -0.093073 -15.981413 23.00000000
-21.484022 7.263066 -14.366276 23.00000000
-21.261714 4.356556 -14.305896 23.00000000
-21.498562 7.453161 -3.124201 23.00000000
-21.474515 7.138766 -7.442417 23.00000000
-21.269803 4.462308 -52.153976 23.00000000
-21.324908 5.182765 -35.627259 23.00000000
-21.073437 1.894975 -30.695733 23.00000000
-21.269942 4.464128 -3.468381 23.00000000
-21.211576 3.701039 -11.134648 23.00000000
-21.460143 6.950864 -29.444235 23.00000000
-21.206635 3.636437 -0.155018 23.00000000
-20.987970 0.777555 -27.192559 23.00000000
-21.293613 4.773606 -24.351573 23.00000000
-21.012490 1.098130 -20.414169 23.00000000
-21.351886 5.535487 -33.635093 23.00000000
-21.202368 3.580648 -38.127330 23.00000000
-21.307823 4.959396 -26.925302 23.00000000
-21.370728 5.781822 -6.079698 23.00000000
-21.411590 6.316068 -41.660695 23.00000000
-21.535420 7.935050 -23.789740 23.00000000
-21.374500 5.831148 -24.481014 23.00000000
-21.045131 1.524892 1.677135 23.00000000
-21.402188 6.193148 -50.414970 23.00000000
-21.211862 3.704771 -32.774447 23.00000000
-21.514743 7.664709 -39.669996 23.00000000
-21.392103 6.061289 -56.403432 23.00000000
-21.513815 7.652584 -9.005527 23.00000000
-21.316307 5.070318 -6.942455 23.00000000
-21.455687 6.892595 -17.012467 23.00000000
-21.513069 7.642831 -5.532996 23.00000000
-21.283962 4.647431 -40.329515 23.00000000
-21.092551 2.144876 -14.193320 23.00000000
-20.957813 0.383271 -38.850792 23.00000000
-21.066134 1.799486 -24.796717 23.00000000
-21.474550 7.139226 -37.649580 23.00000000
-20.928529 0.000402 2.069685 23.00000000
-21.111431 2.391717 -8.045132 23.00000000
-21.425306 6.495398 -4.533269 23.00000000
-21.033674 1.375095 2.785122 23.00000000
-21.064371 1.776444 -0.046899 23.00000000
-21.241298 4.089631 -57.140610 23.00000000
-21.327192 5.212627 -53.795875 23.00000000
-21.191551 3.439225 0.513079 23.00000000
-21.447048 6.779650 -58.902430 23.00000000
-21.037747 1.428355 -54.202296 23.00000000
-21.404789 6.227148 -58.112120 23.00000000
-21.078815 1.965285 2.736510 23.00000000
-21.082161 2.009037 -37.757974 23.00000000
-21.339809 5.377579 -43.720945 23.00000000
-21.456303 6.900651 -3.377889 23.00000000
-20.991358 0.821856 -51.916565 23.00000000
-21.096150 2.191921 -45.935258 23.00000000
-21.186853 3.377801 -51.487875 23.00000000
-21.378870 5.888272 -54.832034 23.00000000
-21.103008 2.281585 -34.048516 23.00000000
-21.169288 3.148147 -9.712655 23.00000000
-21.237225 4.036370 -21.371789 23.00000000
-21.506535 7.557398 -19.898518 23.00000000
-21.295124 4.793362 -10.928415 23.00000000
-21.252423 4.235077 0.121724 23.00000000
-21.081908 2.005719 -48.907871 23.00000000
-21.495979 7.419393 -10.917131 23.00000000
-20.962716 0.447376 -14.957443 23.00000000
-21.163049 3.066578 -47.361380 23.00000000
-21.047185 1.551747 -27.341938 23.00000000
-21.507484 7.569801 -36.006807 23.00000000
-21.177798 3.259415 2.022381 23.00000000
-21.014717 1.127255 -57.612699 23.00000000
-20.995803 0.879966 -43.897576 23.00000000
-21.112948 2.411542 -37.629017 23.00000000
-21.262237 4.363391 -13.746739 23.00000000
-21.242509 4.105455 -57.971118 23.00000000
-21.176861 3.247156 -24.586526 23.00000000
-21.204189 3.604454 -21.931337 23.00000000
-21.284641 4.656300 -55.714503 23.00000000
-21.341723 5.402608 -45.060542 23.00000000
-21.345668 5.454182 -18.573743 23.00000000
-21.374193 5.827131 -16.329686 23.00000000
-21.187673 3.388516 -52.444248 23.00000000
-21.057216 1.682893 -58.436450 23.00000000
-21.530944 7.876530 -16.661862 23.00000000
-21.190412 3.424337 -23.135398 23.00000000
-21.115998 2.451424 -13.880204 23.00000000
-21.382467 5.935303 -58.847392 23.00000000
-21.138992 2.752052 -17.599445 23.00000000
-21.439968 6.687091 -13.488185 23.00000000
-21.128388 2.613418 -21.020588 23.00000000
-21.314518 5.046920 -30.184417 23.00000000
-21.134902 2.698575 -54.907184 23.00000000
-21.114164 2.427442 1.023837 23.00000000
-21.340553 5.387316 -20.425649 23.00000000
-21.250697 4.212513 -34.808671 23.00000000
-21.215386 3.750844 -20.351467 23.00000000
-21.083127 2.021659 -13.706534 23.00000000
-21.214335 3.737102 -22.955241 23.00000000
-21.177954 3.261457 -31.420198 23.00000000
-20.924212 -0.056031 1.597163 23.00000000
-21.237678 4.042303 -0.955182 23.00000000
-21.039252 1.448028 -20.742233 23.00000000
-20.987046 0.765470 -45.706958 23.00000000
-21.420795 6.436409 -61.044654 23.00000000
-21.506804 7.560913 2.314947 23.00000000
-21.251010 4.216607 -31.135578 23.00000000
-21.215210 3.748545 -58.395704 23.00000000
-21.269420 4.457299 -27.548637 23.00000000
-21.276360 4.548039 -19.885750 23.00000000
-21.156439 2.980165 -41.181346 23.00000000
-20.964241 0.467319 -8.465090 23.00000000
-21.235582 4.014897 -4.612537 23.00000000
-21.039760 1.454665 -40.695721 23.00000000
-21.507573 7.570968 -51.403907 23.00000000
-20.918472 -0.131078 0.346160 23.00000000
-21.430824 6.567536 -57.239233 23.00000000
-21.470863 7.091018 -48.390366 23.00000000
-21.142374 2.796272 -23.243250 23.00000000
-21.265043 4.400074 -43.833421 23.00000000
-20.976300 0.624973 -12.361478 23.00000000
-21.456276 6.900303 -31.535450 23.00000000
-21.223868 3.861742 -46.287525 23.00000000
-21.107573 2.341270 -7.367175 23.00000000
-21.380251 5.906336 -40.421513 23.00000000
-21.412803 6.331925 -48.311610 23.00000000
-21.343009 5.419423 -59.121361 23.00000000
-21.038271 1.435201 -58.689110 23.00000000
-21.425640 6.499762 -7.677042 23.00000000
-20.920630 -0.102869 -11.977647 23.00000000
-21.130589 2.642189 -39.692189 23.00000000
-21.502516 7.504849 -55.339637 23.00000000
-21.442476 6.719883 -42.321177 23.00000000
-21.293228 4.768567 -3.570262 23.00000000
-20.979528 0.667181 -12.817698 23.00000000
-21.509830 7.600479 -4.892834 23.00000000
-21.217370 3.776783 -37.848724 23.00000000
-20.961989 0.437870 -25.961235 23.00000000
-21.269897 4.463538 -2.592399 23.00000000
-21.180557 3.295487 -3.853648 23.00000000
-21.157980 3.000302 -57.808717 23.00000000
-21.238886 4.058087 -31.402807 23.00000000
-21.035276 1.396040 -55.746926 23.00000000
-21.148221 2.872719 -15.348822 23.00000000
-21.250832 4.214281 -42.729077 23.00000000
-21.121419 2.522297 -1.769828 23.00000000
-21.201817 3.573447 -6.543587 23.00000000
-21.169139 3.146206 -20.020444 23.00000000
-21.336038 5.328278 -50.652396 23.00000000
-20.920134 -0.109344 -14.448504 23.00000000
-21.119944 2.503013 -42.412943 23.00000000
-21.372494 5.804917 -41.338265 23.00000000
-20.972908 0.580626 -0.622780 23.00000000
-21.143424 2.809995 -57.091179 23.00000000
-21.371231 5.788405 -15.042995 23.00000000
-21.087122 2.073893 -35.681214 23.00000000
-21.005166 1.002373 -11.790057 23.00000000
-21.215975 3.758551 -23.666160 23.00000000
-20.924712 -0.049493 -46.989521 23.00000000
-21.248478 4.183505 -46.622884 23.00000000
-21.171127 3.172199 -5.249929 23.00000000
-21.058736 1.702768 -2.218061 23.00000000
-21.184327 3.344770 -26.828327 23.00000000
-21.497222 7.435636 -39.448240 23.00000000
-21.151400 2.914276 -39.387357 23.00000000
-21.434369 6.613885 -18.143935 23.00000000
-21.468687 7.062562 -5.112570 23.00000000
-21.380270 5.906582 -30.111703 23.00000000
-21.052432 1.620347 3.379623 23.00000000
-21.143987 2.817358 -60.425292 23.00000000
-21.118806 2.488137 -21.472604 23.00000000
-21.455459 6.889623 -32.041390 23.00000000
-21.082454 2.012862 2.092803 23.00000000
-21.094823 2.174571 -12.432946 23.00000000
-21.059035 1.706669 -50.551839 23.00000000
-21.334757 5.311528 -58.617891 23.00000000
-21.208851 3.665400 -50.573909 23.00000000
-21.156296 2.978286 -55.615267 23.00000000
-21.454260 6.873939 -57.555884 23.00000000
-20.931115 0.034218 -11.464012 23.00000000
-21.223175 3.852677 -53.567634 23.00000000
-21.016627 1.152227 -12.121649 23.00000000
-21.159465 3.019720 3.154565 23.00000000
-21.125296 2.572985 -5.387182 23.00000000
-21.442750 6.723453 0.805325 23.00000000
-21.468392 7.058703 -42.875000 23.00000000
-21.431509 6.576486 -38.902831 23.00000000
-20.971722 0.565122 -48.128775 23.00000000
-21.053431 1.633404 -17.397247 23.00000000
