-52.214938 -13.610036 -11.609782 19.00000000
-54.387116 -18.588255 -38.248829 19.00000000
-53.071067 -15.353879 -14.419806 19.00000000
-46.151874 -4.922435 -47.707967 19.00000000
-36.006451 2.997516 -33.530688 19.00000000
-48.966372 -8.361916 -23.035184 19.00000000
-24.269976 7.285195 -56.512053 19.00000000
-34.467378 3.802384 -4.774706 19.00000000
-55.311453 -21.582896 1.419852 19.00000000
-23.916070 7.376848 -18.266309 19.00000000
-54.628035 -19.359590 -55.287615 19.00000000
-30.897836 5.355397 -11.798134 19.00000000
-36.478173 2.750826 -20.061386 19.00000000
-54.681600 -19.533850 -15.281462 19.00000000
-55.983192 -24.582070 -7.604602 19.00000000
-43.304551 -2.146737 -54.273322 19.00000000
-54.453705 -18.792457 -2.162316 19.00000000
-56.338423 -27.040726 -27.589617 19.00000000
-33.909968 4.088624 -7.815813 19.00000000
-44.272304 -2.994368 -0.514469 19.00000000
-54.800358 -19.920193 -11.427975 19.00000000
-35.520579 3.251606 -42.107877 19.00000000
-42.862207 -1.759510 -52.375111 19.00000000
-52.134709 -13.446618 2.728677 19.00000000
-45.640444 -4.397809 -21.725971 19.00000000
-56.187194 -25.968103 -11.973979 19.00000000
-53.525317 -16.413441 -44.313332 19.00000000
-56.308789 -26.830545 -46.515042 19.00000000
-56.062314 -25.082354 -56.324830 19.00000000
-56.310648 -26.843725 -60.040216 19.00000000
-34.486438 3.792416 -6.878023 19.00000000
-46.629236 -5.442542 -10.877811 19.00000000
-37.970246 1.841258 -42.340196 19.00000000
-56.387864 -27.391404 -48.619804 19.00000000
-27.823891 6.364813 -51.219978 19.00000000
-48.934690 -8.317019 -13.505943 19.00000000
-47.692094 -6.720963 -13.839169 19.00000000
-55.578697 -22.765872 2.968479 19.00000000
-47.816044 -6.870052 -52.451194 19.00000000
-51.272472 -11.899489 -28.478645 19.00000000
-55.717820 -23.390539 -49.501582 19.00000000
-55.417645 -22.042742 -16.798620 19.00000000
-51.845375 -12.865205 -60.123444 19.00000000
-41.418765 -0.560313 -37.439336 19.00000000
-45.453127 -4.205659 -49.588338 19.00000000
-38.509515 1.502482 -13.119783 19.00000000
-50.920268 -11.305796 -41.107426 19.00000000
-25.462858 6.976266 -59.942101 19.00000000
-55.369320 -21.825762 2.772169 19.00000000
-45.486055 -4.239436 -9.884639 19.00000000
-36.287506 2.850537 -1.037461 19.00000000
-41.757467 -0.812474 -41.479337 19.00000000
-48.201946 -7.334220 -55.329836 19.00000000
-47.463025 -6.445435 -30.708494 19.00000000
-54.279925 -18.317748 1.206605 19.00000000
-56.375429 -27.303206 -29.741937 19.00000000
-45.571041 -4.326615 -39.686506 19.00000000
-41.322640 -0.488749 -48.689618 19.00000000
-56.386624 -27.382606 -58.534339 19.00000000
-56.389208 -27.400935 -25.385040 19.00000000
-28.819109 6.052732 -40.038583 19.00000000
-49.355473 -8.913314 -33.957275 19.00000000
-32.983699 4.483260 -6.028073 19.00000000
-51.373534 -12.069844 -19.918041 19.00000000
-56.192857 -26.008262 -42.789510 19.00000000
-55.667563 -23.164882 -46.312470 19.00000000
-56.624950 -31.491332 -11.662472 19.00000000
-24.494138 7.227142 -51.795461 19.00000000
-39.174500 1.084731 -18.412519 19.00000000
-48.600636 -7.843629 -45.796420 19.00000000
-26.085432 6.815034 -27.898735 19.00000000
-24.227621 7.296164 -58.078486 19.00000000
-56.601917 -32.764242 -58.933296 19.00000000
-46.757431 -5.596737 -30.676776 19.00000000
-25.936638 6.853568 -48.326628 19.00000000
-55.715649 -23.380791 -41.529550 19.00000000
-31.409594 5.153907 -4.758802 19.00000000
-28.252616 6.242769 -60.627621 19.00000000
-22.595379 7.718877 -54.594831 19.00000000
-51.127898 -11.655788 -51.744945 19.00000000
-49.604624 -9.266389 -47.158782 19.00000000
-35.335706 3.348287 -49.723881 19.00000000
-52.664710 -14.526174 -13.163969 19.00000000
-27.468118 6.456950 -25.638399 19.00000000
-42.252435 -1.225716 -3.397971 19.00000000
-38.034953 1.800608 -49.963802 19.00000000
-56.034382 -24.884245 -58.812566 19.00000000
-23.213324 7.558843 -39.966448 19.00000000
-56.427632 -27.673467 -46.327502 19.00000000
-55.968607 -24.516582 -1.333987 19.00000000
-55.387286 -21.906431 -53.030326 19.00000000
-34.871810 3.590884 -5.790249 19.00000000
-56.289623 -26.694600 -52.886542 19.00000000
-54.186554 -18.082121 -15.943907 19.00000000
-28.988427 5.995932 -35.208494 19.00000000
-29.877066 5.697827 -35.392623 19.00000000
-53.704875 -16.866568 1.846039 19.00000000
-31.583343 5.079882 -19.964738 19.00000000
-26.567100 6.690293 -13.458649 19.00000000
-53.492581 -16.330829 -50.137090 19.00000000
-54.597594 -19.260558 -17.507697 19.00000000
-48.399718 -7.572103 -10.617461 19.00000000
-32.011287 4.897556 -48.019489 19.00000000
-54.286331 -18.333914 -39.944727 19.00000000
-39.752415 0.680272 0.596563 19.00000000
-34.857950 3.598132 -49.170848 19.00000000
-56.458987 -28.032982 -55.917847 19.00000000
-39.993119 0.501070 -56.380926 19.00000000
-45.205443 -3.951584 -46.706156 19.00000000
-55.300576 -21.547511 -38.775397 19.00000000
-55.761350 -23.585987 -55.128972 19.00000000
-56.145109 -25.669603 -45.366037 19.00000000
-27.283550 6.504749 -13.146731 19.00000000
-55.543262 -22.606767 -16.191803 19.00000000
-56.099798 -25.348224 -8.333037 19.00000000
-24.538683 7.215606 -23.098930 19.00000000
-42.960084 -1.845190 -18.423138 19.00000000
-47.652833 -6.673739 -32.159115 19.00000000
-50.414369 -10.453026 -40.304279 19.00000000
-46.629522 -5.442886 -1.763210 19.00000000
-50.111424 -9.984579 -44.483436 19.00000000
-45.155034 -3.899875 -6.952536 19.00000000
-40.643592 0.016798 -3.882923 19.00000000
-44.597013 -3.327456 -15.823402 19.00000000
-39.425698 0.923511 -44.284808 19.00000000
-51.630049 -12.502240 -9.842729 19.00000000
-49.744902 -9.465178 -14.254326 19.00000000
-47.408831 -6.380250 -59.382959 19.00000000
-48.898365 -8.265542 -1.392910 19.00000000
-34.736956 3.661407 -35.309921 19.00000000
-32.856002 4.537666 -28.735404 19.00000000
-55.094260 -20.876320 -27.823391 19.00000000
-56.258706 -26.475319 -55.732756 19.00000000
-42.231322 -1.207234 -46.678576 19.00000000
-40.640116 0.019385 -55.116959 19.00000000
-56.233258 -26.294820 -41.150883 19.00000000
-56.624703 -31.505019 -13.840333 19.00000000
-36.368474 2.808194 -5.562083 19.00000000
-44.848489 -3.585420 -47.916693 19.00000000
-51.024824 -11.482042 -5.854618 19.00000000
-56.579654 -33.995920 -9.882492 19.00000000
-53.180759 -15.577311 -1.310639 19.00000000
-56.598484 -30.317247 -55.561271 19.00000000
-24.932846 7.113527 -26.713909 19.00000000
-51.181207 -11.745648 -32.403927 19.00000000
-29.195762 5.926379 -5.937251 19.00000000
-56.313433 -26.863481 -3.450603 19.00000000
-56.631714 -31.117311 -17.607702 19.00000000
-52.469786 -14.129133 -48.019189 19.00000000
-22.468789 7.751660 -15.632462 19.00000000
-48.670110 -7.942080 -3.729029 19.00000000
-32.590474 4.650794 -9.982507 19.00000000
-41.135664 -0.349546 -32.335645 19.00000000
-39.847169 0.609729 -36.386453 19.00000000
-29.761468 5.736606 -5.071186 19.00000000
-46.247032 -5.020048 -29.026864 19.00000000
-30.597170 5.456259 -6.393051 19.00000000
-54.654749 -19.446497 -32.185928 19.00000000
-52.681044 -14.559445 -44.115157 19.00000000
-21.835656 7.915627 -52.533568 19.00000000
-49.545215 -9.182199 -13.149037 19.00000000
-44.032791 -2.784236 -35.418023 19.00000000
-56.581237 -33.908653 0.101681 19.00000000
-46.249574 -5.022656 -5.623428 19.00000000
-47.397774 -6.366951 -38.186819 19.00000000
-54.273846 -18.302408 -10.143270 19.00000000
-56.068881 -25.128936 -51.542141 19.00000000
-29.609185 5.787691 0.496011 19.00000000
-37.285410 2.271480 -31.441071 19.00000000
-22.867596 7.648379 -49.988427 19.00000000
-54.289972 -18.343105 -4.695594 19.00000000
-40.596576 0.051800 -24.458387 19.00000000
-40.117364 0.408570 -42.154427 19.00000000
-56.109515 -25.417141 -2.051173 19.00000000
-56.602977 -32.705989 -43.709847 19.00000000
-27.877067 6.351042 -42.214036 19.00000000
-56.526844 -29.144144 3.606734 19.00000000
-52.591557 -14.377168 -50.567242 19.00000000
-33.440097 4.288812 -31.283550 19.00000000
-52.013164 -13.199044 -26.110537 19.00000000
-42.424479 -1.376323 -41.018883 19.00000000
-22.358553 7.780209 -41.086569 19.00000000
-52.819312 -14.841081 -11.183200 19.00000000
-56.621059 -31.706536 -38.817935 19.00000000
-55.463528 -22.248758 -54.343594 19.00000000
-56.619765 -31.778099 0.143910 19.00000000
-33.847108 4.115405 0.966622 19.00000000
-43.976945 -2.735348 -15.841593 19.00000000
-40.028818 0.474493 -58.179574 19.00000000
-53.137330 -15.488849 -23.701540 19.00000000
-56.221995 -26.214937 -18.302658 19.00000000
-55.840032 -23.939275 -20.794741 19.00000000
-56.588991 -30.161799 -50.415420 19.00000000
-45.868543 -4.631794 -38.081812 19.00000000
-28.369661 6.203505 -23.188138 19.00000000
-55.908315 -24.245868 -41.330630 19.00000000
-56.126221 -25.535635 -22.809626 19.00000000
-25.902135 6.862503 -2.509416 19.00000000
-49.075617 -8.516728 -44.894672 19.00000000
-21.857705 7.909917 -11.972822 19.00000000
-56.549187 -29.510017 -6.377570 19.00000000
-51.651463 -12.538337 -33.531934 19.00000000
-46.298358 -5.072698 -42.843730 19.00000000
-52.162952 -13.504146 -5.563773 19.00000000
-40.600474 0.048899 -8.354594 19.00000000
-56.509727 -28.863859 -41.862904 19.00000000
-48.055001 -7.157472 -42.862199 19.00000000
-37.834481 1.926547 -2.622363 19.00000000
-48.283690 -7.432543 -17.528573 19.00000000
-47.610210 -6.622472 -29.826002 19.00000000
-33.329268 4.336030 -59.083572 19.00000000
-22.010418 7.870368 -22.438917 19.00000000
-52.375965 -13.938030 -29.809720 19.00000000
-23.106255 7.586572 -10.234751 19.00000000
-23.324544 7.530040 -40.938326 19.00000000
-40.556459 0.081667 -52.335506 19.00000000
-30.405565 5.520535 -15.805069 19.00000000
-54.945248 -20.391552 -34.234481 19.00000000
-50.975578 -11.399029 -6.681326 19.00000000
-25.433047 6.983986 -32.736898 19.00000000
-53.693089 -16.836826 -45.668464 19.00000000
-43.938658 -2.701832 -22.398517 19.00000000
-50.272920 -10.214592 3.809834 19.00000000
-25.315712 7.014373 -44.621120 19.00000000
-40.322816 0.255613 -41.411449 19.00000000
-36.729792 2.619241 -21.605868 19.00000000
-49.615945 -9.282432 -23.395922 19.00000000
-55.885204 -24.142100 -42.690954 19.00000000
-33.691245 4.181810 -2.362967 19.00000000
-42.379384 -1.336847 -37.934930 19.00000000
-35.531219 3.246042 -32.893064 19.00000000
-42.072728 -1.068402 -4.981836 19.00000000
-23.819245 7.401924 -21.508355 19.00000000
-56.582042 -33.863839 -13.777170 19.00000000
-33.540864 4.245880 -46.766183 19.00000000
-56.585834 -33.654326 -10.743025 19.00000000
-27.154844 6.538081 -36.335678 19.00000000
-54.939094 -20.371530 -19.063371 19.00000000
-56.588941 -33.482319 -21.270061 19.00000000
-37.279626 2.275114 2.547727 19.00000000
-30.034508 5.645011 -24.634140 19.00000000
-40.311050 0.264373 1.158058 19.00000000
-50.610680 -10.783939 -42.282832 19.00000000
-38.640292 1.420327 -2.926370 19.00000000
-56.492253 -28.577713 -52.422636 19.00000000
-44.763565 -3.498305 -8.235959 19.00000000
-46.003895 -4.770638 -10.610903 19.00000000
-49.644396 -9.322749 -34.763546 19.00000000
-49.256847 -8.773551 -51.158656 19.00000000
-41.366887 -0.521690 3.861295 19.00000000
-42.184123 -1.165917 -9.768839 19.00000000
-49.291775 -8.823047 -19.636996 19.00000000
-50.661978 -10.870409 -39.439425 19.00000000
-56.622989 -30.718519 -27.195744 19.00000000
-27.314852 6.496642 -15.751712 19.00000000
-45.419300 -4.170959 -14.100082 19.00000000
-51.316290 -11.973351 -5.209836 19.00000000
-46.706274 -5.535204 -40.462697 19.00000000
-56.594921 -30.258912 -33.726401 19.00000000
-55.244749 -21.365892 -31.086507 19.00000000
-27.929087 6.337569 -32.319467 19.00000000
-36.822487 2.562294 -7.408446 19.00000000
-47.601014 -6.611411 -45.451989 19.00000000
-56.627285 -31.362251 -23.847132 19.00000000
-56.613352 -30.560716 -28.812988 19.00000000
-48.629402 -7.884393 -12.930949 19.00000000
-53.459320 -16.246893 -52.362274 19.00000000
-24.724039 7.167603 -19.009619 19.00000000
-53.286468 -15.810688 -12.222666 19.00000000
-33.977509 4.058564 -24.038211 19.00000000
-56.579697 -33.992826 -42.085540 19.00000000
-54.868394 -20.141528 2.704888 19.00000000
-47.251686 -6.191234 -58.236135 19.00000000
-50.332214 -10.314541 -28.117396 19.00000000
-24.867332 7.130493 -17.709424 19.00000000
-40.595623 0.052510 -51.548832 19.00000000
-48.420153 -7.596682 -60.044442 19.00000000
-39.788277 0.653573 -15.523910 19.00000000
-27.434307 6.465706 -43.061572 19.00000000
-56.589505 -30.170225 -30.496046 19.00000000
-47.002640 -5.891678 -9.121395 19.00000000
-56.254482 -26.445355 -5.430244 19.00000000
-27.765094 6.380040 -21.265183 19.00000000
-43.900747 -2.668645 -43.159246 19.00000000
-26.265076 6.768510 -57.164947 19.00000000
-23.591503 7.460904 -60.695028 19.00000000
-56.459055 -28.034103 -29.034843 19.00000000
-22.530028 7.735801 -57.267276 19.00000000
-41.665746 -0.744189 -38.173473 19.00000000
-41.567403 -0.670973 -19.151639 19.00000000
-45.837584 -4.600035 -16.154147 19.00000000
-37.173059 2.342060 -42.169450 19.00000000
-28.143267 6.279451 -30.581715 19.00000000
-27.509663 6.446191 -1.918775 19.00000000
-54.343507 -18.478203 -25.714863 19.00000000
-48.764384 -8.075677 -41.294079 19.00000000
-40.361334 0.226937 -20.319443 19.00000000
-34.918354 3.566544 -32.335752 19.00000000
-49.364897 -8.926669 -18.269945 19.00000000
-49.334661 -8.883821 -38.526684 19.00000000
-38.976861 1.208890 -40.601409 19.00000000
-45.304319 -4.053011 -22.527328 19.00000000
-56.577421 -29.972343 -11.980427 19.00000000
-31.147230 5.265687 -10.296481 19.00000000
-52.160094 -13.498325 0.979018 19.00000000
-42.723631 -1.638200 -30.979189 19.00000000
-37.919085 1.873398 -52.951052 19.00000000
-23.156596 7.573534 -22.002301 19.00000000
-56.578820 -34.041130 -31.355776 19.00000000
-34.205169 3.939508 -51.099837 19.00000000
-34.615616 3.724862 -2.924775 19.00000000
-25.799231 6.889153 0.033874 19.00000000
-48.865127 -8.218440 -38.845563 19.00000000
-38.376480 1.586057 -9.121573 19.00000000
-50.223001 -10.142696 -24.700216 19.00000000
-26.603939 6.680752 -56.234509 19.00000000
-37.729396 1.992563 3.242095 19.00000000
-44.296455 -3.019143 -57.815223 19.00000000
-46.609146 -5.418377 -41.206223 19.00000000
-30.042301 5.642397 -40.208325 19.00000000
-37.342922 2.235350 -44.383453 19.00000000
-54.812219 -19.958779 -7.884692 19.00000000
-49.001098 -8.411126 -43.751918 19.00000000
-51.858600 -12.887498 -17.883789 19.00000000
-53.781450 -17.059812 -26.573796 19.00000000
-56.578914 -34.035833 -52.290429 19.00000000
-56.607262 -30.460990 -26.470594 19.00000000
-39.729861 0.697064 -20.655012 19.00000000
-51.307658 -11.958801 -38.251174 19.00000000
-46.925875 -5.799344 -35.539486 19.00000000
-53.815981 -17.146952 0.245332 19.00000000
-54.762148 -19.795888 -54.498776 19.00000000
-53.440748 -16.200025 -19.940972 19.00000000
-53.748933 -16.977752 -7.914555 19.00000000
-55.902670 -24.220522 -45.012294 19.00000000
-25.276137 7.024622 -45.683492 19.00000000
-47.396913 -6.365915 -41.560175 19.00000000
-29.994974 5.658273 -36.403712 19.00000000
-56.559195 -29.673891 -18.077029 19.00000000
-48.500049 -7.701085 -36.380833 19.00000000
-37.318206 2.250877 -53.987269 19.00000000
-23.762685 7.416571 -52.986048 19.00000000
-51.976601 -13.124570 -29.628981 19.00000000
-26.880613 6.609100 -17.566367 19.00000000
-40.915838 -0.185888 -50.767249 19.00000000
-39.945186 0.536756 -26.273149 19.00000000
-55.179375 -21.153216 -19.611294 19.00000000
-23.934168 7.372161 0.747715 19.00000000
-52.573480 -14.340348 -52.399998 19.00000000
-27.202544 6.525727 -58.299629 19.00000000
-56.420433 -27.622404 -28.253525 19.00000000
-56.185571 -25.956587 -47.230288 19.00000000
-47.962024 -7.045638 -34.667361 19.00000000
-41.165256 -0.371578 -25.876724 19.00000000
-28.801947 6.058489 -33.480288 19.00000000
-56.410968 -27.555273 -7.309646 19.00000000
-56.628026 -31.321063 -59.841061 19.00000000
-39.050011 1.162936 -39.469014 19.00000000
-52.499385 -14.189423 -19.779481 19.00000000
-21.624980 7.970187 -59.847032 19.00000000
-49.863237 -9.632871 -45.835358 19.00000000
-31.554887 5.092005 -32.856975 19.00000000
-53.210259 -15.637398 -32.406606 19.00000000
-54.596217 -19.256080 -2.857975 19.00000000
-37.269146 2.281697 -52.700029 19.00000000
-56.129007 -25.555395 -38.456359 19.00000000
-48.271515 -7.417899 -59.160137 19.00000000
-54.247864 -18.236842 -55.441242 19.00000000
-26.088972 6.814117 3.858118 19.00000000
-44.563073 -3.292640 -32.040838 19.00000000
-49.675575 -9.366934 -60.813309 19.00000000
-31.136067 5.270444 -58.781345 19.00000000
-26.599510 6.681899 -7.331248 19.00000000
-28.312869 6.222556 -1.578768 19.00000000
-56.534047 -29.262102 -10.132313 19.00000000
-28.684581 6.097861 -5.102165 19.00000000
-51.471246 -12.234554 -15.016458 19.00000000
-56.523500 -29.089386 -10.963387 19.00000000
-21.634221 7.967794 -15.703295 19.00000000
-53.754677 -16.992248 -33.880661 19.00000000
-48.183439 -7.311960 -41.894427 19.00000000
-54.251429 -18.245837 -35.919240 19.00000000
-35.183464 3.427902 -41.435139 19.00000000
-22.903495 7.639082 0.321068 19.00000000
-39.808206 0.638736 -32.229338 19.00000000
-50.889873 -11.254560 -40.072308 19.00000000
-38.104602 1.756854 -40.513379 19.00000000
-54.310278 -18.394348 -8.498083 19.00000000
-49.167762 -8.647308 -7.312317 19.00000000
-56.634400 -30.905383 -21.015974 19.00000000
-56.586020 -30.113161 1.339914 19.00000000
-36.959181 2.476421 -49.382668 19.00000000
-53.308416 -15.866075 -45.695733 19.00000000
-56.452702 -27.930063 -0.206202 19.00000000
-26.139098 6.801135 -51.907683 19.00000000
-45.583008 -4.338891 -58.700092 19.00000000
-33.614489 4.214512 -32.928918 19.00000000
-55.339339 -21.691147 -29.167766 19.00000000
-22.717698 7.687199 -53.821305 19.00000000
-53.622213 -16.657966 -37.099369 19.00000000
-40.471157 0.145174 0.278021 19.00000000
-56.095713 -25.319248 -24.246782 19.00000000
-56.530787 -29.208720 -55.586719 19.00000000
-30.084724 5.628165 -27.021686 19.00000000
-56.579393 -34.010100 -2.695642 19.00000000
-46.305013 -5.079525 -26.720045 19.00000000
-22.736302 7.682381 -58.715734 19.00000000
-25.916764 6.858715 -36.160573 19.00000000
-31.312951 5.195082 -47.568240 19.00000000
-36.285818 2.851420 -3.513190 19.00000000
-29.810081 5.720298 -1.094297 19.00000000
-51.066043 -11.551522 -49.045598 19.00000000
-53.176308 -15.568244 -26.054357 19.00000000
-56.630226 -31.199591 1.272320 19.00000000
-53.280717 -15.796174 -24.703835 19.00000000
-55.975559 -24.547795 -46.003398 19.00000000
-52.197376 -13.574265 -32.667156 19.00000000
-24.237653 7.293566 -13.565164 19.00000000
-56.396509 -27.452716 -6.384700 19.00000000
-56.302852 -26.788434 -35.613798 19.00000000
-51.061452 -11.543782 -2.556654 19.00000000
-52.609132 -14.412966 -16.643666 19.00000000
-29.204245 5.923533 -11.987898 19.00000000
-37.083255 2.398476 -32.931108 19.00000000
-36.945355 2.485107 -17.586131 19.00000000
-54.859613 -20.112963 -47.464205 19.00000000
-32.656016 4.622869 -60.792832 19.00000000
-36.499845 2.739493 -8.131535 19.00000000
-51.645543 -12.528357 -49.395809 19.00000000
-23.856647 7.392237 -47.791847 19.00000000
-48.138963 -7.258463 -46.092780 19.00000000
-56.590449 -33.398231 -53.203407 19.00000000
-49.647201 -9.326724 -42.855100 19.00000000
-42.136341 -1.124088 -8.359314 19.00000000
-38.736650 1.359794 0.319125 19.00000000
-44.039028 -2.789696 -8.101964 19.00000000
-42.707084 -1.623715 -9.092147 19.00000000
-26.641200 6.671102 -46.825068 19.00000000
-51.979801 -13.131087 -10.253446 19.00000000
-53.816459 -17.148158 -39.581080 19.00000000
-47.174937 -6.098919 -20.563180 19.00000000
-44.123501 -2.863644 -3.857242 19.00000000
-31.181832 5.250945 -23.058305 19.00000000
-54.247242 -18.235271 -58.786258 19.00000000
-38.087158 1.767812 -7.991810 19.00000000
-56.600663 -32.834456 2.169505 19.00000000
-29.969830 5.666708 2.256448 19.00000000
-31.980490 4.910677 -10.595760 19.00000000
-31.427324 5.146353 -8.786787 19.00000000
-56.598361 -32.961077 -46.813713 19.00000000
-36.412644 2.785095 -30.795711 19.00000000
-46.737278 -5.572497 -57.935080 19.00000000
-40.911906 -0.182960 -1.983709 19.00000000
-56.601388 -32.793675 -50.409940 19.00000000
-56.629086 -31.262628 2.766187 19.00000000
-53.131283 -15.476532 -7.712722 19.00000000
-56.602321 -32.742769 -10.490760 19.00000000
-55.493923 -22.385232 -1.237761 19.00000000
-56.509082 -28.853301 -20.993528 19.00000000
-54.640770 -19.401019 -14.275176 19.00000000
-21.959564 7.883538 -28.311011 19.00000000
-56.458217 -28.020379 -23.234973 19.00000000
-43.793271 -2.574561 1.836781 19.00000000
-40.077974 0.437896 -14.696339 19.00000000
-56.576388 -29.955437 -36.130175 19.00000000
-37.603009 2.071961 -59.190117 19.00000000
-53.388542 -16.068280 2.151926 19.00000000
-56.606570 -32.507802 -15.407264 19.00000000
-32.268889 4.787805 -24.647880 19.00000000
-55.150665 -21.059816 -9.176164 19.00000000
-40.692822 -0.019854 -46.720423 19.00000000
-55.035979 -20.686718 -42.375995 19.00000000
-30.697559 5.422582 -26.165804 19.00000000
-23.134727 7.579198 -35.313228 19.00000000
-55.153590 -21.069333 -30.090102 19.00000000
-32.581641 4.654557 -57.228292 19.00000000
-49.262083 -8.780970 -39.475957 19.00000000
-26.552054 6.694189 -45.028183 19.00000000
-48.956228 -8.347541 -10.943660 19.00000000
-55.721204 -23.405731 -16.552354 19.00000000
-48.269960 -7.416028 -49.992563 19.00000000
-50.351142 -10.346447 -4.209003 19.00000000
-30.498066 5.489505 -4.747332 19.00000000
-31.976868 4.912220 -16.001638 19.00000000
-50.522853 -10.635893 -51.862159 19.00000000
-51.888294 -12.944697 -55.059159 19.00000000
-34.166360 3.959803 -46.167288 19.00000000
-38.326880 1.617216 -35.651726 19.00000000
-23.306653 7.534673 -56.676263 19.00000000
-26.056516 6.822522 -59.185864 19.00000000
-42.713839 -1.629628 -59.202177 19.00000000
-56.502175 -28.740197 -39.826908 19.00000000
-53.922144 -17.414864 -55.525262 19.00000000
-41.893432 -0.913699 -14.165358 19.00000000
-34.446914 3.813086 -22.124913 19.00000000
-56.482467 -28.417476 -26.294851 19.00000000
-29.678172 5.764548 -34.581073 19.00000000
-48.113010 -7.227247 -29.415603 19.00000000
-56.301687 -26.780172 -11.949475 19.00000000
-51.822356 -12.826403 -51.362193 19.00000000
-32.588313 4.651714 -43.394366 19.00000000
-37.584048 2.083872 -37.506071 19.00000000
-38.632979 1.424921 -57.880084 19.00000000
-56.444524 -27.796156 -41.081330 19.00000000
-36.341032 2.822545 -47.648693 19.00000000
-55.364507 -21.804149 -14.543407 19.00000000
-51.186136 -11.753957 -7.337605 19.00000000
-51.825476 -12.831663 -20.319627 19.00000000
-25.391858 6.994653 -34.606955 19.00000000
-56.606167 -30.443068 -38.544812 19.00000000
-46.178540 -4.949789 -20.349110 19.00000000
-55.679533 -23.218629 -54.343894 19.00000000
-30.735962 5.409699 -42.828334 19.00000000
-47.399164 -6.368623 -16.672880 19.00000000
-21.815716 7.920791 -60.717074 19.00000000
-47.743303 -6.782558 -54.513122 19.00000000
-40.418149 0.184638 -0.489147 19.00000000
-56.103024 -25.371103 2.856791 19.00000000
-56.463498 -28.106860 -38.057241 19.00000000
-41.772661 -0.823786 -49.850392 19.00000000
-54.755478 -19.774189 -2.140959 19.00000000
-56.611708 -30.533804 -19.508957 19.00000000
-45.001727 -3.742611 -29.043317 19.00000000
-25.598176 6.941222 -38.054826 19.00000000
-24.626199 7.192941 -32.058694 19.00000000
-47.527785 -6.523329 -35.278377 19.00000000
-24.767144 7.156440 -49.236985 19.00000000
-31.222851 5.233469 -41.076894 19.00000000
-47.720507 -6.755138 -23.069083 19.00000000
-54.680936 -19.531689 -58.056303 19.00000000
-22.642414 7.706696 -3.692817 19.00000000
-48.766283 -8.078368 -19.618946 19.00000000
-56.471470 -28.237396 -15.232683 19.00000000
-56.630734 -31.171485 -44.606532 19.00000000
-33.915235 4.086380 -56.773060 19.00000000
-34.661095 3.701079 -42.204744 19.00000000
-29.022946 5.984352 -31.738913 19.00000000
-42.555556 -1.491068 -59.969059 19.00000000
-54.032269 -17.692772 -25.600564 19.00000000
-55.773036 -23.638458 -27.310161 19.00000000
-56.335826 -27.022307 -37.424947 19.00000000
-32.192664 4.820281 -45.084420 19.00000000
-22.672747 7.698840 -59.596206 19.00000000
-56.616343 -31.967352 -9.316938 19.00000000
-50.146340 -10.034059 -16.398074 19.00000000
-26.882036 6.608732 3.828466 19.00000000
-43.394383 -2.225375 -45.225228 19.00000000
-42.682066 -1.601814 -49.994669 19.00000000
-36.013982 2.993578 -25.388860 19.00000000
-32.374992 4.742600 -18.960241 19.00000000
-56.579976 -33.977262 -48.002180 19.00000000
-32.029243 4.889906 -22.073033 19.00000000
-56.306046 -26.811089 -30.550306 19.00000000
-40.734153 -0.050624 -30.312804 19.00000000
-39.686631 0.729248 -43.203715 19.00000000
-36.245776 2.872360 -60.377220 19.00000000
-41.055252 -0.289680 -0.122880 19.00000000
-36.736353 2.615809 -13.666437 19.00000000
-55.764122 -23.598435 2.233118 19.00000000
-30.889756 5.358107 -44.687295 19.00000000
-32.917976 4.511262 -60.070873 19.00000000
-31.297190 5.201797 -15.673154 19.00000000
-38.782401 1.331053 -50.454138 19.00000000
-53.989305 -17.584350 1.708427 19.00000000
-56.489389 -28.530813 -60.381221 19.00000000
-29.252953 5.907193 -13.632070 19.00000000
-44.564768 -3.294378 -55.033653 19.00000000
-52.175114 -13.528919 -60.548306 19.00000000
-47.722647 -6.757712 -0.185544 19.00000000
-54.746638 -19.745430 -29.352526 19.00000000
-36.421876 2.780267 -38.747427 19.00000000
-44.395535 -3.120779 -45.941616 19.00000000
-37.260915 2.286868 -18.462686 19.00000000
-53.297866 -15.839452 -60.208852 19.00000000
-55.472461 -22.288868 -35.933951 19.00000000
-50.243458 -10.171685 -17.529711 19.00000000
-56.633520 -31.017440 -6.015921 19.00000000
-56.546176 -29.460705 -52.225341 19.00000000
-22.774378 7.672520 -13.498967 19.00000000
-55.556051 -22.664189 -60.334973 19.00000000
-31.321224 5.191557 -6.887892 19.00000000
-56.575178 -29.935624 -22.068621 19.00000000
-53.428033 -16.167937 -39.765205 19.00000000
-39.928613 0.549094 -54.685684 19.00000000
-55.624086 -22.969670 -13.731124 19.00000000
-21.562386 7.986398 -43.572267 19.00000000
-56.357754 -27.177838 -61.047847 19.00000000
-33.954885 4.069487 -41.667818 19.00000000
-56.604814 -32.604168 -55.794057 19.00000000
-56.207769 -26.114032 -16.495640 19.00000000
-24.623921 7.193531 -16.116881 19.00000000
-39.347925 0.975783 -3.702868 19.00000000
-34.409477 3.832664 -11.603003 19.00000000
-49.296438 -8.829655 1.514334 19.00000000
-47.199673 -6.128672 -54.700286 19.00000000
-54.355817 -18.509268 -30.145520 19.00000000
-56.519082 -29.017041 -32.951531 19.00000000
-55.308074 -21.571903 -53.769061 19.00000000
-54.925187 -20.326289 -53.955000 19.00000000
-41.006709 -0.253541 2.471715 19.00000000
-44.545133 -3.274237 -6.170605 19.00000000
-42.270642 -1.241655 2.607919 19.00000000
-56.096862 -25.327401 -15.993959 19.00000000
-21.545966 7.990650 -6.199309 19.00000000
-56.593842 -33.211609 -13.250066 19.00000000
-49.339040 -8.890027 -49.692666 19.00000000
-31.301351 5.200024 3.844631 19.00000000
-23.319865 7.531251 -6.651634 19.00000000
-56.197024 -26.037823 -30.114587 19.00000000
-39.969732 0.518481 -37.320933 19.00000000
-56.411584 -27.559638 -35.063100 19.00000000
-51.862922 -12.894783 -34.958772 19.00000000
-37.632820 2.053233 -35.238192 19.00000000
-37.460953 2.161202 -50.418228 19.00000000
-56.538298 -29.331707 -38.210698 19.00000000
-56.595127 -30.262278 -47.519005 19.00000000
-39.447160 0.907532 -47.199428 19.00000000
-56.030556 -24.857108 -33.220182 19.00000000
-56.580439 -33.952536 -8.397355 19.00000000
-30.076248 5.631009 -43.914293 19.00000000
-56.634619 -30.956667 -37.929283 19.00000000
-41.671028 -0.748121 -9.324997 19.00000000
-38.232810 1.676312 -0.193154 19.00000000
-56.579050 -34.028665 -20.161969 19.00000000
-30.550305 5.471981 -48.462830 19.00000000
-42.506164 -1.447830 -51.244550 19.00000000
-41.864784 -0.892371 -47.959018 19.00000000
-54.521707 -19.013683 -54.497925 19.00000000
-32.870267 4.531588 -38.896224 19.00000000
-54.205180 -18.129124 -7.656699 19.00000000
-43.418394 -2.246395 -55.074633 19.00000000
-55.691556 -23.272612 -32.544072 19.00000000
-55.964102 -24.496352 -48.222263 19.00000000
-43.386305 -2.218304 -41.379642 19.00000000
-38.628474 1.427751 -59.033065 19.00000000
-54.106963 -17.881268 -51.601304 19.00000000
-55.994246 -24.631701 -38.354719 19.00000000
-46.237197 -5.009959 -49.139521 19.00000000
-50.462987 -10.534979 -0.309241 19.00000000
-37.784212 1.958127 -3.424251 19.00000000
-42.353710 -1.314372 -2.608079 19.00000000
-54.964153 -20.453053 -46.511278 19.00000000
-53.778854 -17.053260 -11.206208 19.00000000
-42.873828 -1.769682 -43.684480 19.00000000
-51.456953 -12.210461 -54.223847 19.00000000
-45.675885 -4.434165 -29.192380 19.00000000
-47.187556 -6.114098 -12.207130 19.00000000
-56.545491 -29.449487 -15.814650 19.00000000
-55.656951 -23.117234 -20.758463 19.00000000
-56.626755 -30.780183 -31.376136 19.00000000
-55.867582 -24.062976 -6.954408 19.00000000
-32.297580 4.775581 1.651332 19.00000000
-55.175691 -21.141232 -25.091712 19.00000000
-48.598827 -7.841065 -53.824732 19.00000000
-50.634750 -10.824512 -17.336233 19.00000000
-56.109582 -25.417619 -59.438221 19.00000000
-51.944259 -13.058692 -53.097636 19.00000000
-27.615807 6.418702 -23.653965 19.00000000
-55.039233 -20.697306 -10.006446 19.00000000
-56.606676 -32.501907 -24.847664 19.00000000
-52.027216 -13.227666 -6.879981 19.00000000
-56.454285 -27.955985 -44.090678 19.00000000
-30.636768 5.442975 -27.666093 19.00000000
-56.269612 -26.552668 -12.892248 19.00000000
-56.512877 -28.915438 -18.404641 19.00000000
-56.629268 -31.252581 -52.992884 19.00000000
-53.646555 -16.719395 -49.153143 19.00000000
-35.316632 3.358262 -45.511515 19.00000000
-56.183666 -25.943078 -21.277812 19.00000000
-46.752739 -5.591093 2.739575 19.00000000
-44.727877 -3.461696 -14.953370 19.00000000
-49.151081 -8.623669 -2.252359 19.00000000
-45.269366 -4.017156 -26.329057 19.00000000
-56.605276 -32.579337 -21.350753 19.00000000
-47.274713 -6.218931 2.578402 19.00000000
-37.204039 2.322598 -45.331623 19.00000000
-31.612648 5.067396 -21.061867 19.00000000
-33.759981 4.152525 -19.604486 19.00000000
-31.731056 5.016949 -58.250984 19.00000000
-27.944706 6.333525 -7.392366 19.00000000
-23.350151 7.523408 1.937514 19.00000000
-56.582001 -33.865061 -60.038667 19.00000000
-41.829797 -0.866323 -11.537829 19.00000000
-32.804372 4.559663 -0.553135 19.00000000
-53.763769 -17.015191 -13.856580 19.00000000
-56.622329 -31.636126 -53.812374 19.00000000
-51.687615 -12.599277 -4.401927 19.00000000
-53.251807 -15.723217 -43.138270 19.00000000
-38.686043 1.391586 -18.981803 19.00000000
-53.022224 -15.254391 -53.922074 19.00000000
-56.614524 -32.067941 -16.755745 19.00000000
-56.539474 -29.350964 -59.758067 19.00000000
-53.204117 -15.624888 -31.550242 19.00000000
-23.788722 7.409828 -29.750469 19.00000000
-39.608034 0.787763 -51.170114 19.00000000
-40.943113 -0.206193 -53.587653 19.00000000
-52.466287 -14.122006 -45.763117 19.00000000
-50.582970 -10.737229 -20.556850 19.00000000
-55.302638 -21.554217 -50.413749 19.00000000
-40.735580 -0.051687 -10.527267 19.00000000
-52.251900 -13.685324 -0.469379 19.00000000
-56.320690 -26.914950 -4.615609 19.00000000
-27.542767 6.437617 -18.220537 19.00000000
-32.824785 4.550965 -24.044632 19.00000000
-30.682183 5.427741 -0.858698 19.00000000
-56.580662 -33.940169 -11.689204 19.00000000
-34.077971 4.006027 -34.582240 19.00000000
-27.552808 6.435017 -47.144921 19.00000000
-49.662423 -9.348295 -27.179323 19.00000000
-33.290084 4.352725 -29.365876 19.00000000
-27.186938 6.529769 -37.267338 19.00000000
-39.672689 0.739627 -34.534163 19.00000000
-43.746172 -2.533331 -51.127307 19.00000000
-55.751996 -23.543989 -35.919702 19.00000000
-38.364747 1.593428 -52.355558 19.00000000
-52.595516 -14.385233 -0.320670 19.00000000
-35.518467 3.252711 -47.435066 19.00000000
-41.160824 -0.368278 -51.900649 19.00000000
-56.539793 -29.356191 -40.402609 19.00000000
-55.421554 -22.060292 -29.934241 19.00000000
-51.822539 -12.826711 -14.337244 19.00000000
-54.742345 -19.731464 -43.637163 19.00000000
-23.822085 7.401188 -16.332587 19.00000000
-25.172877 7.051364 3.441958 19.00000000
-55.137046 -21.015512 -10.976508 19.00000000
-56.624202 -31.532736 -42.464788 19.00000000
-29.858981 5.703894 -33.213598 19.00000000
-43.383325 -2.215695 -9.121606 19.00000000
-36.163356 2.915462 1.224086 19.00000000
-53.881740 -17.312900 -51.005602 19.00000000
-54.748055 -19.750042 -1.070271 19.00000000
-38.885421 1.266334 -25.447432 19.00000000
-22.571147 7.725152 -34.750091 19.00000000
-47.659380 -6.681614 -38.818333 19.00000000
-51.363207 -12.052436 -46.484284 19.00000000
-45.519805 -4.274057 -43.433309 19.00000000
-56.477387 -28.334288 -50.984559 19.00000000
-55.813126 -23.818467 -28.634982 19.00000000
-46.720853 -5.552740 -42.053973 19.00000000
-31.135140 5.270838 -28.312822 19.00000000
-40.056008 0.454250 -35.564067 19.00000000
-56.401451 -27.487769 -17.323923 19.00000000
-55.426643 -22.083141 -35.082660 19.00000000
-26.330073 6.751677 -18.293910 19.00000000
-56.506635 -28.813221 -0.444281 19.00000000
-50.991927 -11.426588 -16.809473 19.00000000
-53.893997 -17.343832 -37.287191 19.00000000
-46.328088 -5.103195 -35.412452 19.00000000
-43.326134 -2.165630 -58.562140 19.00000000
-54.220173 -18.166959 -30.904105 19.00000000
-56.600791 -30.355025 -13.102926 19.00000000
-46.549761 -5.346948 -46.631451 19.00000000
-21.937850 7.889162 -33.582217 19.00000000
-56.309083 -26.832628 -47.530838 19.00000000
-54.713102 -19.636333 -46.026361 19.00000000
-39.202845 1.066924 -49.543374 19.00000000
-55.340018 -21.694192 -0.625393 19.00000000
-42.881911 -1.776758 -46.145524 19.00000000
-29.337243 5.878917 -55.600168 19.00000000
-48.460396 -7.645087 -34.443592 19.00000000
-37.112043 2.380391 -12.936093 19.00000000
-56.303570 -26.793527 -20.582519 19.00000000
-56.549256 -29.511140 -4.578628 19.00000000
-49.870429 -9.643062 -49.313040 19.00000000
-55.435902 -22.124715 -48.462658 19.00000000
-51.536930 -12.345273 -12.893363 19.00000000
-31.901698 4.944247 -51.805872 19.00000000
-56.016378 -24.756545 -30.063315 19.00000000
-33.024042 4.466072 -8.122584 19.00000000
-45.878252 -4.641753 -54.024323 19.00000000
-52.700190 -14.598443 -3.554472 19.00000000
-28.399837 6.193382 -35.922783 19.00000000
-55.968842 -24.517635 -17.462482 19.00000000
-51.948834 -13.068010 -43.677532 19.00000000
-55.572236 -22.736861 1.576584 19.00000000
-30.520963 5.481824 -21.430048 19.00000000
-38.006031 1.818777 -58.491536 19.00000000
-56.588688 -30.156851 -1.631213 19.00000000
-31.633648 5.058449 -3.794758 19.00000000
-23.027337 7.607009 -36.150796 19.00000000
-37.364923 2.221529 -43.064457 19.00000000
-56.577109 -29.967242 -8.810886 19.00000000
-56.572862 -29.897695 -49.687769 19.00000000
-44.229194 -2.956167 -32.990220 19.00000000
-45.000129 -3.740973 -37.089461 19.00000000
-52.729814 -14.658784 -25.876823 19.00000000
-21.613390 7.973189 -44.503575 19.00000000
-25.614825 6.936910 -14.834760 19.00000000
-50.683193 -10.906170 -2.817499 19.00000000
-28.566104 6.137605 -14.632376 19.00000000
-56.355529 -27.162057 -26.261077 19.00000000
-53.967754 -17.529962 -40.482065 19.00000000
-55.211241 -21.256884 -59.756132 19.00000000
-51.631038 -12.503907 -56.413604 19.00000000
-37.925697 1.869244 -23.305213 19.00000000
-40.567020 0.073805 -22.068765 19.00000000
-41.679802 -0.754653 -39.034236 19.00000000
-37.854199 1.914160 -7.141771 19.00000000
-55.225282 -21.302561 -44.880637 19.00000000
-55.618627 -22.945157 -23.157114 19.00000000
-51.627704 -12.498288 -48.518034 19.00000000
-56.272777 -26.575119 -9.383886 19.00000000
-46.045510 -4.813327 -36.121725 19.00000000
-40.160076 0.376771 -48.169919 19.00000000
-56.629084 -31.262599 -60.926152 19.00000000
-36.389750 2.797068 -36.373165 19.00000000
-32.660439 4.620985 -47.405078 19.00000000
-29.803465 5.722517 -23.833742 19.00000000
-25.343296 7.007230 -11.828810 19.00000000
-46.390024 -5.166730 -33.000391 19.00000000
-56.622661 -31.617960 -36.873533 19.00000000
-38.315452 1.624395 -34.760014 19.00000000
-31.721066 5.021205 -0.976630 19.00000000
-54.157542 -18.008907 2.348564 19.00000000
-56.487169 -28.494472 -16.221815 19.00000000
-43.507222 -2.324154 -23.458480 19.00000000
-24.676964 7.179794 -9.065289 19.00000000
-54.394713 -18.607425 -35.092481 19.00000000
-56.613251 -32.138314 2.653087 19.00000000
-56.583723 -33.770546 -29.922826 19.00000000
-55.257084 -21.406020 -22.650405 19.00000000
-24.228387 7.295965 -60.188410 19.00000000
-28.417812 6.187352 -34.778817 19.00000000
-27.860246 6.355398 -15.140244 19.00000000
-44.255984 -2.979619 -41.596507 19.00000000
-56.602561 -32.729483 -9.709308 19.00000000
-37.200953 2.324537 -48.013285 19.00000000
-46.442521 -5.220581 -0.396347 19.00000000
-22.208309 7.819119 -56.332663 19.00000000
-27.913816 6.341524 -9.014239 19.00000000
-54.090839 -17.840577 -38.980414 19.00000000
-55.270500 -21.449666 -3.749611 19.00000000
-32.465735 4.703939 -35.235640 19.00000000
-37.855659 1.913243 -12.493151 19.00000000
-31.681469 5.038075 -35.887471 19.00000000
-32.380996 4.740042 0.700351 19.00000000
-54.397294 -18.613937 -21.951135 19.00000000
-56.632289 -31.085511 -58.120118 19.00000000
-25.536471 6.957202 -43.019214 19.00000000
-49.329459 -8.876449 -12.377644 19.00000000
-53.704001 -16.864362 -14.804684 19.00000000
-42.164208 -1.148482 -10.768685 19.00000000
-45.583554 -4.339451 -30.518425 19.00000000
-56.609815 -32.328312 -5.934342 19.00000000
-33.970455 4.062253 -44.770850 19.00000000
-56.016093 -24.754524 -18.361735 19.00000000
-28.177605 6.267932 0.974235 19.00000000
-55.357811 -21.774086 -52.064942 19.00000000
-38.332315 1.613801 -54.915629 19.00000000
-37.837255 1.924804 -9.698546 19.00000000
-34.446798 3.813146 -31.295731 19.00000000
-39.117129 1.120772 -20.974188 19.00000000
-53.948112 -17.480394 -42.914426 19.00000000
-56.609463 -30.497036 -60.265811 19.00000000
-53.090567 -15.393598 -35.825303 19.00000000
-36.484457 2.747540 -32.575184 19.00000000
-47.581509 -6.587950 -51.737484 19.00000000
-30.397932 5.523096 3.849875 19.00000000
-37.481930 2.148024 -1.968151 19.00000000
-30.248372 5.573268 -41.133606 19.00000000
-56.606997 -32.484191 -26.394917 19.00000000
-55.576439 -22.755731 -42.498016 19.00000000
-53.868141 -17.278583 -60.359987 19.00000000
-26.441100 6.722924 -37.915109 19.00000000
-47.949595 -7.030688 -9.914754 19.00000000
-56.236153 -26.315355 -38.820826 19.00000000
-56.578615 -34.052230 -35.804289 19.00000000
-55.657309 -23.118840 -2.735241 19.00000000
-27.038160 6.568299 -21.018981 19.00000000
-28.851048 6.042017 0.455739 19.00000000
-29.587850 5.794848 -19.593719 19.00000000
-32.602203 4.645797 -3.573287 19.00000000
-53.465040 -16.261327 -58.672787 19.00000000
-53.861551 -17.261953 -1.873938 19.00000000
-36.389781 2.797051 -9.554010 19.00000000
-56.439795 -27.759734 -20.871540 19.00000000
-56.632596 -31.068532 -55.069816 19.00000000
-48.803634 -8.131298 0.413923 19.00000000
-55.430707 -22.101389 -34.279129 19.00000000
-37.901795 1.884259 -18.874516 19.00000000
-56.616772 -31.943603 -13.142102 19.00000000
-56.579525 -30.006799 -44.438738 19.00000000
-54.702021 -19.600282 -7.145195 19.00000000
-44.541417 -3.270425 -26.224582 19.00000000
-42.920080 -1.810172 -2.583589 19.00000000
-43.705262 -2.497518 -25.197501 19.00000000
-41.713395 -0.779663 -20.593287 19.00000000
-51.640644 -12.520099 3.632056 19.00000000
-36.026069 2.987257 -13.413350 19.00000000
-56.219900 -26.200076 -26.103584 19.00000000
-55.586915 -22.802770 -34.490308 19.00000000
-47.759927 -6.802554 -58.063086 19.00000000
-49.194312 -8.684931 -23.727252 19.00000000
-56.304292 -26.798646 1.676242 19.00000000
-56.199310 -26.054036 -13.820153 19.00000000
-23.830267 7.399069 -4.616051 19.00000000
-50.420212 -10.462875 -51.107316 19.00000000
-40.145465 0.387650 -29.742208 19.00000000
-54.903623 -20.256136 -57.322933 19.00000000
-44.371418 -3.096039 -5.008109 19.00000000
-55.303908 -21.558351 -57.611898 19.00000000
-26.501947 6.707166 -14.206140 19.00000000
-56.590478 -33.397238 -28.341215 19.00000000
-53.471298 -16.277121 0.351892 19.00000000
-54.990327 -20.538205 -54.819650 19.00000000
-56.603874 -30.405508 -16.156081 19.00000000
-40.564264 0.075857 -18.388829 19.00000000
-39.653179 0.754153 -26.944621 19.00000000
-25.999922 6.837179 -46.236009 19.00000000
-52.737361 -14.674155 -40.039462 19.00000000
-52.354091 -13.893476 -33.606922 19.00000000
-26.417077 6.729145 2.925825 19.00000000
-50.251862 -10.183595 -25.609173 19.00000000
-53.038091 -15.286709 -6.267375 19.00000000
-53.579694 -16.550665 -24.503663 19.00000000
-45.352237 -4.102165 -3.307817 19.00000000
-30.344501 5.541020 -37.098800 19.00000000
-33.259611 4.365708 -5.210750 19.00000000
-42.042639 -1.042061 0.451246 19.00000000
-35.553133 3.234582 2.089860 19.00000000
-49.244724 -8.756370 -0.043342 19.00000000
-47.408191 -6.379480 -28.805143 19.00000000
-27.897288 6.345805 -29.864948 19.00000000
-56.229597 -26.268853 -24.407597 19.00000000
-46.201640 -4.973485 -24.882199 19.00000000
-54.063188 -17.770796 -38.075644 19.00000000
-54.951959 -20.413385 -53.073448 19.00000000
-54.098081 -17.858853 -60.997282 19.00000000
-44.627471 -3.358700 3.153853 19.00000000
-56.609869 -32.325334 -28.513483 19.00000000
-56.056541 -25.041410 -46.723984 19.00000000
-56.582918 -33.814891 -37.075295 19.00000000
-43.791657 -2.573148 -3.013917 19.00000000
-55.609458 -22.903990 -57.419510 19.00000000
-55.436955 -22.129443 -31.872650 19.00000000
-52.335099 -13.854792 3.862284 19.00000000
-56.596022 -33.091110 2.930680 19.00000000
-32.960728 4.493047 -15.502482 19.00000000
-50.190822 -10.097094 -50.331148 19.00000000
-50.314759 -10.285118 -23.577805 19.00000000
-33.047720 4.455984 -45.398838 19.00000000
-51.481738 -12.252238 -23.151791 19.00000000
-50.512281 -10.618072 -41.290667 19.00000000
-49.925555 -9.721182 2.308832 19.00000000
-51.244782 -11.852813 -45.108000 19.00000000
-33.276153 4.358660 0.074145 19.00000000
-43.442126 -2.267169 -53.405198 19.00000000
-56.604338 -32.631226 -18.071124 19.00000000
-49.308812 -8.847190 -60.182755 19.00000000
-56.491743 -28.569365 -25.414315 19.00000000
-53.850103 -17.233062 -42.193660 19.00000000
-49.850228 -9.614436 -1.330850 19.00000000
-55.301454 -21.550365 -47.892008 19.00000000
-56.543221 -29.412314 -47.485418 19.00000000
-52.349470 -13.884064 -55.891513 19.00000000
-37.124031 2.372861 -9.470471 19.00000000
-56.397899 -27.462575 -11.587162 19.00000000
-44.521777 -3.250278 -29.588818 19.00000000
-47.291735 -6.239406 -48.846151 19.00000000
-45.407789 -4.159151 -1.467397 19.00000000
-52.218530 -13.617352 -14.337871 19.00000000
-47.621940 -6.636581 -23.880687 19.00000000
-54.491504 -18.915425 -41.805979 19.00000000
-38.947150 1.227555 -43.432753 19.00000000
-56.367170 -27.244627 -1.587838 19.00000000
-54.278759 -18.314807 -23.210391 19.00000000
-56.596172 -33.081780 -59.728365 19.00000000
-34.024273 4.034109 -53.117914 19.00000000
-21.997385 7.873743 -10.351229 19.00000000
-54.496538 -18.931802 -15.730825 19.00000000
-32.075246 4.870307 -17.016426 19.00000000
-30.058498 5.636963 -58.755479 19.00000000
-52.709150 -14.616692 -56.800387 19.00000000
-48.981907 -8.383930 -17.397641 19.00000000
-33.216074 4.384257 -8.978846 19.00000000
-51.925291 -13.020056 -22.271581 19.00000000
-56.469380 -28.203178 -34.399932 19.00000000
-51.004746 -11.448197 -53.355005 19.00000000
-54.047643 -17.731568 -18.150392 19.00000000
-55.023924 -20.647502 -51.446207 19.00000000
-55.724502 -23.420541 -10.704773 19.00000000
-26.136429 6.801826 -25.057677 19.00000000
-37.405265 2.196186 -1.034880 19.00000000
-48.229979 -7.367939 -39.178254 19.00000000
-21.860277 7.909251 -59.084062 19.00000000
-56.275018 -26.591011 -23.547051 19.00000000
-47.608008 -6.619823 -53.383444 19.00000000
-56.601321 -32.797761 -34.563308 19.00000000
-48.600128 -7.842908 -4.771155 19.00000000
-39.924239 0.552350 -22.274269 19.00000000
-30.484203 5.494155 -17.185170 19.00000000
-56.602485 -32.733316 -39.118389 19.00000000
-52.345644 -13.876269 -43.678153 19.00000000
-53.381035 -16.049335 -51.565362 19.00000000
-49.874361 -9.648635 -11.424661 19.00000000
-27.741755 6.386084 -3.681406 19.00000000
-54.488574 -18.905893 -0.764873 19.00000000
-43.326521 -2.165969 -6.616535 19.00000000
-54.567455 -19.162511 -48.923702 19.00000000
-56.588659 -33.497243 -49.926797 19.00000000
-30.760009 5.401633 -50.041466 19.00000000
-46.813209 -5.663828 -24.875660 19.00000000
-37.839583 1.923342 -4.454696 19.00000000
-23.654084 7.444697 -37.995940 19.00000000
-56.603085 -32.699741 -57.040674 19.00000000
-42.598683 -1.528821 -53.124388 19.00000000
-28.510878 6.156132 -18.168308 19.00000000
-21.913487 7.895471 -26.557526 19.00000000
-28.204694 6.258845 -49.400377 19.00000000
-30.598275 5.455888 -35.937253 19.00000000
-54.218915 -18.163787 -59.814725 19.00000000
-56.258745 -26.475595 -49.061191 19.00000000
-51.304034 -11.952693 -22.468788 19.00000000
-26.678824 6.661359 -30.112560 19.00000000
-45.375448 -4.125975 -38.472370 19.00000000
-37.162080 2.348958 -34.583180 19.00000000
-45.820045 -4.582044 -50.265387 19.00000000
-49.752773 -9.476331 -19.687805 19.00000000
-45.290244 -4.038573 -35.370334 19.00000000
-52.070683 -13.316204 -59.444991 19.00000000
-50.771279 -11.054652 -60.754931 19.00000000
-53.181971 -15.579779 -4.013388 19.00000000
-54.740643 -19.725927 -51.364908 19.00000000
-43.538810 -2.351806 -32.985920 19.00000000
-28.336109 6.214760 -45.125685 19.00000000
-30.107636 5.620479 -52.384085 19.00000000
-43.189241 -2.045794 -12.675274 19.00000000
-56.581110 -30.032751 -34.541677 19.00000000
-51.793721 -12.778135 -57.627456 19.00000000
-24.344344 7.265935 -5.424700 19.00000000
-54.966661 -20.461213 -21.747356 19.00000000
-43.019333 -1.897057 -20.311493 19.00000000
-26.469888 6.715468 -43.492635 19.00000000
-34.469358 3.801349 -16.218246 19.00000000
-56.119739 -25.489658 -32.068657 19.00000000
-55.462837 -22.245657 -2.055264 19.00000000
-30.041636 5.642620 -42.185362 19.00000000
-31.680640 5.038428 -55.338499 19.00000000
-56.494764 -28.618838 -33.754398 19.00000000
-55.214322 -21.266906 -49.403003 19.00000000
-21.831506 7.916702 -41.955658 19.00000000
-27.862975 6.354691 -48.520349 19.00000000
-56.598364 -30.315288 -6.740606 19.00000000
-46.576490 -5.379099 -14.681112 19.00000000
-43.210993 -2.064836 -39.047832 19.00000000
-42.982091 -1.864456 -57.246157 19.00000000
-53.390663 -16.073631 1.140511 19.00000000
-44.944532 -3.683941 -57.587950 19.00000000
-55.172727 -21.131588 -60.542863 19.00000000
-56.056791 -25.043183 -12.268561 19.00000000
-37.463641 2.159513 -21.282840 19.00000000
-56.308131 -26.825873 3.780382 19.00000000
-56.377015 -27.314455 -55.479498 19.00000000
-41.546432 -0.655360 -53.763776 19.00000000
-34.858703 3.597738 -3.735932 19.00000000
-42.740028 -1.652554 -49.033278 19.00000000
-47.679582 -6.705913 -50.942665 19.00000000
-27.307397 6.498573 -41.271912 19.00000000
-33.160502 4.407933 -55.681439 19.00000000
-53.190791 -15.597745 3.141771 19.00000000
-34.395777 3.839828 -32.953991 19.00000000
-55.123909 -20.972775 -20.687926 19.00000000
-56.596467 -33.065896 -41.947981 19.00000000
-25.599614 6.940849 -28.595712 19.00000000
-53.051610 -15.314246 -27.350242 19.00000000
-24.830985 7.139906 2.037482 19.00000000
-51.386340 -12.091431 -47.351806 19.00000000
-53.134723 -15.483539 -44.535517 19.00000000
-40.344545 0.239436 -21.316752 19.00000000
-24.907523 7.120085 -35.426704 19.00000000
-24.812350 7.144732 -58.840932 19.00000000
-53.755325 -16.993883 -20.547399 19.00000000
-38.230005 1.678074 -53.748565 19.00000000
-52.895992 -14.997271 -24.332286 19.00000000
-37.144527 2.359984 -3.996469 19.00000000
-50.429372 -10.478315 2.006709 19.00000000
-46.056064 -4.824153 -23.006513 19.00000000
-56.591357 -30.200555 3.481599 19.00000000
-56.580705 -30.026130 -14.829180 19.00000000
-56.013012 -24.732669 -14.718651 19.00000000
-41.215795 -0.409203 -22.075183 19.00000000
-38.166485 1.717978 -46.577399 19.00000000
-27.556392 6.434089 -19.799360 19.00000000
-41.493058 -0.615624 -16.122256 19.00000000
-45.622555 -4.379458 -55.101356 19.00000000
-39.124873 1.115907 -60.806543 19.00000000
-56.445399 -27.810483 -19.998775 19.00000000
-26.471985 6.714925 -37.000378 19.00000000
-54.060164 -17.763166 -0.407626 19.00000000
-54.263993 -18.277542 -54.268012 19.00000000
-56.630958 -31.159095 -0.413314 19.00000000
-53.579950 -16.551311 -21.361559 19.00000000
-52.709021 -14.616430 -55.458318 19.00000000
-53.220366 -15.657985 -29.590164 19.00000000
-51.125659 -11.652014 -39.374447 19.00000000
