61.109387 55.872624 -34.843692 14.00000000
60.091187 58.213660 1.721368 14.00000000
61.433562 32.964362 -20.919175 14.00000000
48.663948 16.520893 -20.515906 14.00000000
61.371917 55.143876 -50.337143 14.00000000
62.622582 50.835162 -52.985104 14.00000000
63.044353 39.532666 -16.310207 14.00000000
61.310577 32.617680 -59.462657 14.00000000
63.058830 39.617393 -11.768954 14.00000000
55.731823 22.921614 -21.388687 14.00000000
55.155447 22.215045 -42.083887 14.00000000
37.309195 12.030803 -35.991633 14.00000000
55.455898 22.583363 -18.691275 14.00000000
48.722950 16.563825 -55.543834 14.00000000
37.636223 12.093638 -30.706817 14.00000000
63.092409 39.816356 2.705250 14.00000000
61.449649 54.928105 3.133597 14.00000000
45.680645 14.769893 3.702795 14.00000000
62.030779 34.779835 -5.640544 14.00000000
62.043633 53.092015 -60.838950 14.00000000
51.880920 18.999210 3.877590 14.00000000
62.023076 53.169305 -31.991677 14.00000000
53.182956 20.152857 -49.729087 14.00000000
61.644151 54.388191 -17.827529 14.00000000
49.083570 16.826225 2.416703 14.00000000
54.645396 21.660789 -13.319696 14.00000000
63.029471 39.445568 -3.098853 14.00000000
62.761432 37.876865 -35.050322 14.00000000
56.062517 23.327006 -47.933767 14.00000000
37.287988 12.026728 -8.405901 14.00000000
43.476548 13.702779 -14.799847 14.00000000
61.631754 33.523044 -28.596957 14.00000000
62.652682 37.240401 -52.698392 14.00000000
51.871720 18.991225 -53.011654 14.00000000
59.883556 29.258546 -53.090563 14.00000000
63.321199 45.362783 -12.632816 14.00000000
63.283517 45.886682 -53.515334 14.00000000
53.680175 20.665543 -8.025231 14.00000000
38.367785 12.234202 -58.184143 14.00000000
60.166806 58.049480 -19.889577 14.00000000
39.964008 12.540901 -32.479100 14.00000000
61.623586 33.500017 -6.756272 14.00000000
61.511671 33.184541 -58.383932 14.00000000
52.469535 19.510130 -59.644025 14.00000000
62.739489 37.748441 -0.802235 14.00000000
63.268277 41.920075 -21.398290 14.00000000
62.113120 35.095604 -38.739437 14.00000000
46.312429 15.094658 -30.068405 14.00000000
48.159509 16.209888 -52.603690 14.00000000
60.666930 56.963635 -30.024133 14.00000000
62.620685 37.053135 -14.737385 14.00000000
63.260265 46.149408 -27.485044 14.00000000
58.100090 26.138036 -49.436902 14.00000000
49.917762 17.433214 -15.115504 14.00000000
59.755391 58.942725 -21.092067 14.00000000
63.045191 48.432524 -28.965270 14.00000000
55.405097 22.521087 -22.924029 14.00000000
38.854502 12.327720 -3.207981 14.00000000
60.936485 31.574238 -57.853607 14.00000000
63.323057 44.600039 1.196857 14.00000000
40.206999 12.587590 -55.988574 14.00000000
62.682588 50.494015 0.163061 14.00000000
62.486372 36.526995 -22.868511 14.00000000
60.118997 29.776349 -2.202101 14.00000000
62.514515 51.321608 -22.481857 14.00000000
63.326634 43.131828 -56.849593 14.00000000
61.974447 34.563806 -9.632787 14.00000000
48.898741 16.691736 -29.548438 14.00000000
62.718240 37.624078 -56.533475 14.00000000
62.434662 36.328693 -28.194768 14.00000000
63.305818 42.369140 -16.695001 14.00000000
42.350214 13.263931 -45.530018 14.00000000
60.902261 56.447580 -47.980442 14.00000000
47.483527 15.801744 -54.314794 14.00000000
58.340183 26.490177 -57.876205 14.00000000
61.016679 56.129970 -47.089978 14.00000000
38.823317 12.321728 -1.520726 14.00000000
41.083016 12.770200 -56.153880 14.00000000
61.885811 53.685389 -51.637308 14.00000000
56.936261 24.431067 -56.874503 14.00000000
58.821302 27.328341 -13.003500 14.00000000
58.577411 26.894960 -23.427632 14.00000000
60.966501 31.647764 -28.442773 14.00000000
60.909596 56.427218 -21.312693 14.00000000
61.937954 53.489347 3.861709 14.00000000
63.323272 44.512003 -15.364684 14.00000000
57.008446 24.536940 -11.164917 14.00000000
62.002357 34.670836 -45.996817 14.00000000
60.400279 57.542576 -5.935209 14.00000000
48.225896 16.249972 -5.403067 14.00000000
55.854184 23.071614 -39.892467 14.00000000
55.658985 22.832324 -25.389694 14.00000000
63.206265 41.178296 -48.316376 14.00000000
60.189695 57.999784 -58.396557 14.00000000
60.962281 31.635870 3.388216 14.00000000
62.249707 52.317226 -60.803292 14.00000000
60.801256 56.671994 -13.676242 14.00000000
63.324189 44.135509 -58.416216 14.00000000
57.882569 25.819002 -57.923539 14.00000000
62.920411 38.807295 -57.809981 14.00000000
61.499136 54.790735 -24.647655 14.00000000
61.647889 33.568526 -24.185305 14.00000000
61.934218 34.409530 -20.422435 14.00000000
57.514644 25.279373 -60.792244 14.00000000
58.382235 26.551855 1.481333 14.00000000
63.235921 46.424470 -57.113367 14.00000000
52.251003 19.320444 -52.209125 14.00000000
60.030573 58.345262 2.552245 14.00000000
38.741683 12.306043 -16.441624 14.00000000
63.097693 39.879561 -40.982083 14.00000000
37.223952 12.014424 -45.818228 14.00000000
61.701291 54.229580 -46.759460 14.00000000
58.547174 26.841231 -24.632320 14.00000000
59.958625 29.423645 -56.934273 14.00000000
54.317260 21.322446 -49.859843 14.00000000
49.740893 17.304517 -24.552287 14.00000000
63.235702 41.530412 3.740409 14.00000000
63.108143 40.004558 -29.861831 14.00000000
63.271019 41.952871 -22.217890 14.00000000
60.878577 56.504118 -28.840425 14.00000000
54.876943 21.899539 -18.547242 14.00000000
62.640847 37.171137 -5.286785 14.00000000
47.852457 16.024497 -1.604647 14.00000000
37.577732 12.082400 -40.474048 14.00000000
45.673130 14.766194 -30.643811 14.00000000
63.026144 48.540815 -56.363100 14.00000000
58.990301 27.628642 3.676419 14.00000000
54.213492 21.215450 -26.741451 14.00000000
62.474296 36.480687 -16.720585 14.00000000
42.681637 13.393062 -40.005801 14.00000000
35.780262 11.737032 -48.590469 14.00000000
63.228038 46.513544 -50.890126 14.00000000
49.285153 16.972904 1.247830 14.00000000
63.322752 44.725245 -51.411244 14.00000000
60.837373 31.356263 -29.359163 14.00000000
61.788543 33.965013 -46.719772 14.00000000
47.398881 15.750636 -49.049528 14.00000000
51.125065 18.343125 1.584099 14.00000000
63.325196 43.722398 -25.613582 14.00000000
56.496007 23.858413 -60.639251 14.00000000
63.298795 45.714058 1.013217 14.00000000
41.776361 13.040344 -50.923535 14.00000000
45.221998 14.544171 -44.886697 14.00000000
47.989867 16.107462 -44.123648 14.00000000
60.534963 30.691177 -18.525529 14.00000000
38.503097 12.260200 -23.066032 14.00000000
62.607014 36.989649 -48.228610 14.00000000
62.810835 49.764897 -3.840228 14.00000000
39.656933 12.481900 -51.559907 14.00000000
62.039306 53.108286 -39.678279 14.00000000
59.769748 58.911553 -1.274574 14.00000000
56.243535 23.548912 -20.769026 14.00000000
43.167962 13.582546 -6.496725 14.00000000
63.325344 43.661557 1.004854 14.00000000
62.607282 50.922150 -38.772543 14.00000000
35.516708 11.686393 -60.134242 14.00000000
47.075472 15.555368 -20.421616 14.00000000
37.053938 11.981758 -2.795832 14.00000000
49.420069 17.071074 -31.485046 14.00000000
62.659575 50.624850 -3.219281 14.00000000
63.325002 43.801907 -4.893929 14.00000000
52.555635 19.584866 -28.145595 14.00000000
63.230076 46.490519 -58.396057 14.00000000
57.662660 25.496466 -26.648008 14.00000000
50.625703 17.948337 -10.608291 14.00000000
62.732539 37.707766 -60.198067 14.00000000
49.111403 16.846477 -54.594813 14.00000000
41.037415 12.752433 -50.542473 14.00000000
52.731022 19.737102 -48.132421 14.00000000
62.969646 48.862019 -12.938313 14.00000000
62.845697 49.566697 -27.312236 14.00000000
63.176905 47.091301 -26.225932 14.00000000
52.433970 19.479260 -39.678030 14.00000000
53.241450 20.213170 -40.614774 14.00000000
62.154552 52.674985 -17.672748 14.00000000
50.339489 17.740077 -16.093329 14.00000000
36.888788 11.950025 -19.112946 14.00000000
60.253856 30.072942 -51.457088 14.00000000
62.332083 35.935310 -25.729651 14.00000000
61.106173 55.881548 -42.944198 14.00000000
62.856012 49.508058 -45.732611 14.00000000
62.597686 36.953877 -20.924648 14.00000000
47.526084 15.827439 -60.316854 14.00000000
62.250639 35.622981 -1.426577 14.00000000
60.439550 57.457311 -31.833410 14.00000000
63.322230 44.939555 -24.435859 14.00000000
61.416877 32.917328 -48.081000 14.00000000
62.754303 50.086297 -7.082358 14.00000000
62.596583 36.949647 -36.757748 14.00000000
53.005830 19.975636 -30.707233 14.00000000
63.320979 45.453208 -28.840816 14.00000000
61.395112 55.079492 -18.698856 14.00000000
63.212577 41.253799 -56.241601 14.00000000
61.482577 54.836700 -41.912118 14.00000000
59.798526 58.849071 -45.219362 14.00000000
63.095570 39.854164 -19.639765 14.00000000
60.000001 29.514642 -33.221075 14.00000000
49.636253 17.228377 -23.559242 14.00000000
51.960096 19.067935 -36.504748 14.00000000
62.870105 38.512874 -46.651777 14.00000000
48.551474 16.446549 -45.613519 14.00000000
63.279791 42.057812 -54.544401 14.00000000
36.487598 11.872940 -52.401940 14.00000000
62.661281 37.290727 -44.168320 14.00000000
63.192289 46.917475 -31.926594 14.00000000
61.438709 54.958471 -31.618867 14.00000000
63.069233 39.678278 -18.460645 14.00000000
49.316841 16.995961 -51.656334 14.00000000
42.180115 13.197657 -53.608588 14.00000000
44.501211 14.189437 -5.869865 14.00000000
58.930498 27.522376 -41.922351 14.00000000
61.703543 33.725407 -61.064667 14.00000000
61.257033 32.466742 -24.586042 14.00000000
62.796785 38.083769 -52.511055 14.00000000
53.818123 20.807782 -32.522140 14.00000000
61.945238 53.461961 -4.902359 14.00000000
39.849206 12.518843 -40.122339 14.00000000
62.365014 51.883697 -46.501317 14.00000000
55.807950 23.014937 -46.130022 14.00000000
46.320981 15.099822 -12.416952 14.00000000
62.129872 35.159849 -4.796833 14.00000000
41.024200 12.747284 -31.020929 14.00000000
60.175589 29.900811 -42.876674 14.00000000
63.274866 41.998892 -17.468383 14.00000000
51.694711 18.837580 -22.143444 14.00000000
51.952976 19.061755 -9.833186 14.00000000
62.709587 37.573435 -46.511567 14.00000000
54.308679 21.313598 1.185368 14.00000000
61.965961 34.531264 -56.642024 14.00000000
39.910068 12.530537 -29.243609 14.00000000
43.799497 13.844089 -49.061138 14.00000000
63.323314 44.494855 -7.061489 14.00000000
42.876561 13.469009 -23.058747 14.00000000
46.299826 15.087049 -55.028394 14.00000000
54.320122 21.325396 -28.571867 14.00000000
52.860338 19.849349 -34.405470 14.00000000
41.020574 12.745871 -57.162927 14.00000000
63.324814 43.878959 -14.446999 14.00000000
54.798059 21.818201 -7.103579 14.00000000
43.328598 13.645134 -51.843731 14.00000000
47.437454 15.773926 -28.068260 14.00000000
35.961651 11.771884 -43.756064 14.00000000
56.161518 23.448369 -12.451268 14.00000000
59.715716 59.028865 -57.863670 14.00000000
53.078080 20.044719 -11.056448 14.00000000
59.658795 28.816517 -54.420983 14.00000000
57.259350 24.904937 3.816437 14.00000000
43.074396 13.546091 0.888452 14.00000000
51.868496 18.988426 -0.413123 14.00000000
45.826076 14.841467 -18.685546 14.00000000
43.575791 13.741447 -3.380147 14.00000000
51.081023 18.304896 -19.489735 14.00000000
60.764404 56.752004 -4.180717 14.00000000
63.094377 48.023791 -3.111747 14.00000000
63.324377 44.058496 -37.465856 14.00000000
56.786408 24.214411 -0.116293 14.00000000
43.632520 13.763550 -7.090769 14.00000000
60.811185 31.298668 -5.357957 14.00000000
63.324022 44.203985 -28.892360 14.00000000
62.910291 38.748062 -22.079094 14.00000000
41.107485 12.779733 -2.929597 14.00000000
63.324295 44.091912 -53.578097 14.00000000
56.762732 24.185386 -39.152496 14.00000000
51.643544 18.793167 -13.882060 14.00000000
60.640459 30.923193 -33.481283 14.00000000
62.885630 49.339669 -15.868485 14.00000000
46.643566 15.294592 -55.839665 14.00000000
53.945865 20.939497 -17.214547 14.00000000
37.279479 12.025093 -47.503677 14.00000000
63.230844 41.472301 -16.302854 14.00000000
61.962053 34.516275 -4.005491 14.00000000
63.031623 39.458166 -8.093302 14.00000000
57.308759 24.977404 -10.589111 14.00000000
62.962203 39.051880 3.216928 14.00000000
62.655893 50.645783 -16.237584 14.00000000
51.785483 18.916371 -47.318627 14.00000000
56.334277 23.660151 -27.139700 14.00000000
38.835710 12.324109 1.024292 14.00000000
61.904585 53.614804 -25.672565 14.00000000
43.480359 13.704264 -15.890492 14.00000000
60.577395 30.784497 -50.349138 14.00000000
45.041910 14.455540 -12.182293 14.00000000
63.023968 48.553181 -15.305215 14.00000000
54.580260 21.593627 2.842762 14.00000000
62.247461 52.325671 -14.481413 14.00000000
61.555061 33.306852 -44.241727 14.00000000
36.640882 11.902392 -4.046252 14.00000000
63.205585 41.170159 -40.543548 14.00000000
62.583672 36.900136 -0.982519 14.00000000
63.128939 47.633272 -10.607026 14.00000000
52.154232 19.236446 0.292187 14.00000000
59.742226 58.971306 -28.431745 14.00000000
48.104847 16.176885 -7.559600 14.00000000
38.480865 12.255929 3.641654 14.00000000
51.497523 18.666420 -42.240038 14.00000000
38.696068 12.297278 0.133534 14.00000000
51.492764 18.662289 -21.232606 14.00000000
54.443763 21.452883 -4.444065 14.00000000
57.441679 25.172356 -41.120993 14.00000000
43.563449 13.736638 -38.219094 14.00000000
63.112477 47.819281 -24.493050 14.00000000
57.381685 25.084363 -32.866430 14.00000000
42.744186 13.417433 -41.386772 14.00000000
62.142191 52.721462 -5.190027 14.00000000
61.461036 54.896494 -45.788830 14.00000000
59.617040 28.742321 -0.225044 14.00000000
62.851173 38.402074 -56.904257 14.00000000
59.998710 58.414442 -24.596184 14.00000000
61.926206 53.533514 -32.937356 14.00000000
52.756389 19.759121 -54.592478 14.00000000
62.950696 48.969755 -32.580585 14.00000000
52.294776 19.358439 -55.239374 14.00000000
44.060761 13.972669 -20.179286 14.00000000
47.637230 15.894547 -57.845581 14.00000000
60.906344 56.436245 -38.581315 14.00000000
37.552694 12.077589 -29.916580 14.00000000
63.310151 42.420972 -35.020165 14.00000000
62.418226 36.265664 -58.953143 14.00000000
34.744821 11.538081 -48.600223 14.00000000
44.097326 13.990665 -52.123138 14.00000000
44.666892 14.270976 -48.923260 14.00000000
56.370505 23.704563 -18.587569 14.00000000
48.681587 16.533728 -16.041166 14.00000000
38.845203 12.325933 -17.639844 14.00000000
61.795127 53.969104 -15.190899 14.00000000
56.330275 23.655245 -22.843838 14.00000000
62.854629 49.515920 -47.797496 14.00000000
44.085229 13.984712 -42.788991 14.00000000
63.321128 45.392172 -17.682379 14.00000000
63.326992 42.985197 -0.958270 14.00000000
36.339279 11.844442 -30.372734 14.00000000
61.927976 53.526858 -46.314101 14.00000000
42.428917 13.294596 -24.452009 14.00000000
43.932342 13.909469 -28.476033 14.00000000
53.217226 20.188193 -46.290814 14.00000000
61.562956 33.329108 -8.539972 14.00000000
63.300941 45.689807 -24.789967 14.00000000
43.697589 13.793935 -53.859866 14.00000000
56.076426 23.344056 -23.655148 14.00000000
55.484939 22.618964 -38.913307 14.00000000
63.082633 48.156493 -35.523313 14.00000000
45.099700 14.483982 -22.316197 14.00000000
62.788849 38.037320 -32.804814 14.00000000
63.325957 43.409732 -8.337060 14.00000000
63.321887 45.080521 -19.625470 14.00000000
51.273140 18.471654 -13.108947 14.00000000
63.074214 48.251619 -55.157844 14.00000000
60.460465 30.527335 -46.234554 14.00000000
44.861923 14.366960 -25.727375 14.00000000
62.657840 37.270585 -58.764462 14.00000000
35.391014 11.662242 -55.324188 14.00000000
37.910721 12.146381 1.739751 14.00000000
52.704414 19.714005 -12.684489 14.00000000
62.718682 50.288813 -14.815765 14.00000000
58.057553 26.075649 -29.471379 14.00000000
63.167924 40.719662 -2.639947 14.00000000
53.219015 20.190038 -41.576936 14.00000000
63.222664 46.574265 -18.906033 14.00000000
63.327790 42.657374 -50.168511 14.00000000
50.645107 17.962456 -46.164338 14.00000000
41.166159 12.802594 2.090075 14.00000000
41.980998 13.120076 -18.416677 14.00000000
38.558592 12.270863 -4.296362 14.00000000
52.320725 19.380963 -43.102093 14.00000000
52.252181 19.321466 -34.097567 14.00000000
41.085103 12.771013 -48.432387 14.00000000
59.648742 28.798655 -18.002076 14.00000000
59.889237 29.271041 -46.227443 14.00000000
34.574848 11.505423 -27.430122 14.00000000
63.232996 41.498044 -26.223274 14.00000000
59.105854 27.833973 -46.641330 14.00000000
38.960212 12.348031 -33.140623 14.00000000
61.200282 55.620314 -27.733592 14.00000000
60.974346 56.247482 -58.217522 14.00000000
43.972448 13.929206 -13.597114 14.00000000
35.121258 11.610410 -2.529153 14.00000000
63.327087 42.946023 -21.899212 14.00000000
63.326177 43.319573 -59.528466 14.00000000
37.245209 12.018508 -44.247087 14.00000000
37.501687 12.067789 -17.303078 14.00000000
35.520769 11.687173 -8.143028 14.00000000
63.323342 44.483254 -11.202503 14.00000000
53.562007 20.543698 -59.915028 14.00000000
38.175424 12.197241 -11.083696 14.00000000
47.447813 15.780180 -55.190273 14.00000000
62.289443 52.167826 -38.186018 14.00000000
41.727165 13.021176 -7.600436 14.00000000
51.527203 18.692182 -56.221638 14.00000000
59.783193 58.882362 -53.795886 14.00000000
60.598101 30.830035 -60.083906 14.00000000
58.196546 26.279507 -47.931024 14.00000000
62.371973 51.857532 -21.823702 14.00000000
47.214693 15.639427 -12.029849 14.00000000
35.456544 11.674833 -7.322115 14.00000000
50.855010 18.115189 -30.622078 14.00000000
61.132407 32.115437 -49.479637 14.00000000
61.744034 33.839548 -50.322339 14.00000000
61.527537 54.711897 -52.745812 14.00000000
63.110148 40.028547 -24.187756 14.00000000
62.381758 51.820743 -7.163280 14.00000000
49.002001 16.766873 -24.041487 14.00000000
61.990426 34.625083 -28.507893 14.00000000
61.949955 34.469879 -45.094304 14.00000000
58.142349 26.200017 -0.176270 14.00000000
52.281700 19.347089 -38.040689 14.00000000
47.049031 15.539404 -41.150150 14.00000000
44.582987 14.229682 -58.914456 14.00000000
50.193405 17.633781 -37.127024 14.00000000
44.610223 14.243087 -24.985965 14.00000000
62.502581 36.589158 -11.741699 14.00000000
63.156265 40.580190 -38.311385 14.00000000
46.815692 15.398518 -26.767860 14.00000000
62.823327 38.239106 -4.827995 14.00000000
55.295663 22.386934 -29.421161 14.00000000
54.919763 21.943691 -54.349638 14.00000000
52.567492 19.595157 -6.398807 14.00000000
63.307287 45.618104 -18.956749 14.00000000
48.105617 16.177349 -12.733225 14.00000000
48.310300 16.300933 -0.662819 14.00000000
56.273923 23.586165 -40.963082 14.00000000
53.023489 19.990965 3.684403 14.00000000
47.604960 15.875063 -24.712214 14.00000000
63.322219 44.944173 -3.458676 14.00000000
60.673871 56.948566 -40.566465 14.00000000
53.222244 20.193366 -7.186388 14.00000000
57.876251 25.809736 -2.327063 14.00000000
45.158957 14.513145 -5.427649 14.00000000
62.707627 37.561966 -49.543186 14.00000000
57.117470 24.696843 -42.573528 14.00000000
37.424607 12.052978 -39.530230 14.00000000
62.968070 48.870976 -17.043321 14.00000000
62.606451 50.926873 -50.530174 14.00000000
41.255067 12.837235 -12.557335 14.00000000
63.201299 46.815670 -11.758429 14.00000000
49.161087 16.882629 -16.657780 14.00000000
34.605116 11.511238 -9.410696 14.00000000
62.225144 52.409576 -7.698154 14.00000000
58.915777 27.496217 -45.542426 14.00000000
44.683065 14.278935 -47.591296 14.00000000
63.190109 46.942107 -54.899667 14.00000000
59.790347 29.053552 -5.336299 14.00000000
47.959489 16.089120 -40.658729 14.00000000
49.994606 17.489128 -60.267573 14.00000000
62.127133 52.778075 -1.607325 14.00000000
36.665314 11.907087 -26.987510 14.00000000
62.623345 50.830827 -17.612820 14.00000000
36.393038 11.854771 -7.841613 14.00000000
40.084854 12.564121 -18.773562 14.00000000
56.127780 23.407011 -56.945626 14.00000000
59.727930 59.002345 -25.156466 14.00000000
57.720212 25.580875 -7.561385 14.00000000
63.323326 44.489803 -32.118115 14.00000000
61.692143 54.254973 -33.229425 14.00000000
62.116196 52.819197 -8.960539 14.00000000
62.886034 49.337370 -6.810851 14.00000000
61.076201 31.956998 -57.000171 14.00000000
46.855027 15.422268 -49.641031 14.00000000
40.153493 12.577309 -24.540981 14.00000000
58.328496 26.473036 -55.933240 14.00000000
60.832020 56.605200 -6.624660 14.00000000
63.240093 46.377337 -54.192371 14.00000000
63.322314 44.904983 -47.252179 14.00000000
60.339101 57.675401 -46.762589 14.00000000
62.982973 48.786249 -48.713386 14.00000000
60.184542 58.010971 -15.695118 14.00000000
61.307051 55.323937 -41.224152 14.00000000
62.193284 35.403027 -37.404490 14.00000000
63.265059 41.881587 -3.354713 14.00000000
63.040876 48.457057 -23.499187 14.00000000
35.955869 11.770773 -51.790057 14.00000000
52.068266 19.161827 -50.625740 14.00000000
46.506329 15.211731 -28.559185 14.00000000
53.254144 20.226259 -27.241974 14.00000000
38.651475 12.288710 2.000226 14.00000000
57.273498 24.925687 -36.081812 14.00000000
63.323934 44.240256 -49.586577 14.00000000
63.005195 39.303494 -55.237209 14.00000000
57.481810 25.231216 -12.541264 14.00000000
62.712632 37.591261 -19.406949 14.00000000
50.218473 17.652022 -50.726927 14.00000000
61.359616 55.178024 0.776572 14.00000000
61.177969 32.243871 -42.702464 14.00000000
59.718463 28.922544 -37.249735 14.00000000
61.035404 56.077991 -22.000576 14.00000000
54.948653 21.973480 -51.795980 14.00000000
42.962126 13.502348 -4.669886 14.00000000
63.122308 47.708193 -45.385128 14.00000000
57.704130 25.557289 -25.099509 14.00000000
63.031219 48.511958 -25.174240 14.00000000
48.456191 16.389019 -34.741820 14.00000000
52.604239 19.627054 -19.358082 14.00000000
63.324583 43.973972 0.160702 14.00000000
50.435312 17.809801 -19.839341 14.00000000
45.060472 14.464676 -15.943605 14.00000000
63.010136 48.631819 -38.105424 14.00000000
34.588257 11.507999 -25.273491 14.00000000
53.537500 20.518429 -57.053965 14.00000000
49.568749 17.179259 -27.370955 14.00000000
54.364459 21.371113 -37.254224 14.00000000
49.452687 17.094808 -12.777707 14.00000000
59.129731 27.876401 -7.255139 14.00000000
49.133361 16.862455 -14.546005 14.00000000
35.334474 11.651378 0.167688 14.00000000
52.147691 19.230768 -12.341128 14.00000000
62.604291 50.939151 -49.369190 14.00000000
46.245787 15.054421 -20.194225 14.00000000
56.424308 23.770519 -37.198720 14.00000000
45.574008 14.717412 -12.912497 14.00000000
57.912913 25.863507 -25.926468 14.00000000
61.137483 55.794634 -7.108247 14.00000000
43.425053 13.682715 -40.956597 14.00000000
62.373612 36.094570 -21.214476 14.00000000
60.789537 31.251057 2.445155 14.00000000
63.304494 45.649658 -23.735352 14.00000000
57.887814 25.826694 -27.942012 14.00000000
56.140088 23.422099 0.096707 14.00000000
61.134849 55.801946 -8.893713 14.00000000
46.165920 15.008720 -4.640090 14.00000000
48.422158 16.368470 -53.404144 14.00000000
62.333288 35.939932 -6.399174 14.00000000
63.325322 43.670438 -12.947473 14.00000000
62.100790 35.048319 3.695571 14.00000000
63.195398 46.882351 -6.178772 14.00000000
48.603560 16.477998 -17.732153 14.00000000
63.253619 46.224499 -17.427638 14.00000000
62.865553 49.453813 2.194315 14.00000000
41.312118 12.859464 -34.385788 14.00000000
39.279945 12.409465 3.128025 14.00000000
38.378759 12.236310 -39.580699 14.00000000
40.093669 12.565815 -50.866874 14.00000000
57.754471 25.631123 -23.471634 14.00000000
57.487402 25.239417 -51.063979 14.00000000
57.485111 25.236057 -15.231219 14.00000000
60.983517 56.222024 -18.042355 14.00000000
63.242972 46.344808 -42.841202 14.00000000
37.329176 12.034642 -33.679018 14.00000000
63.196177 41.057615 -49.282281 14.00000000
44.818611 14.345644 -28.194170 14.00000000
56.489292 23.850181 -29.409914 14.00000000
54.198564 21.200057 -53.761356 14.00000000
45.448698 14.655741 -53.958355 14.00000000
62.946526 48.993462 -44.840406 14.00000000
53.617066 20.600471 -31.683985 14.00000000
34.541820 11.499077 -10.767775 14.00000000
63.324602 42.593838 -9.605441 14.00000000
63.250835 41.711442 -4.545266 14.00000000
55.875939 23.098283 -5.981499 14.00000000
63.180973 47.045338 -2.924062 14.00000000
63.126979 40.229878 -14.588512 14.00000000
35.347217 11.653826 -10.536693 14.00000000
39.699816 12.490139 -17.349563 14.00000000
53.461570 20.440138 -13.788158 14.00000000
61.656241 54.354633 -8.908926 14.00000000
59.640299 28.783652 -45.000430 14.00000000
60.664320 30.975669 -58.700542 14.00000000
59.713260 59.034196 -47.739975 14.00000000
34.769512 11.542826 -55.817682 14.00000000
63.065709 39.657656 -53.971022 14.00000000
63.042802 48.446107 -40.674103 14.00000000
60.896508 56.463548 -2.334711 14.00000000
59.827540 29.135352 -21.232065 14.00000000
39.169189 12.388184 -18.576439 14.00000000
62.798386 49.835675 -34.761974 14.00000000
62.152333 35.245985 -8.819785 14.00000000
58.682923 27.082448 -46.659353 14.00000000
62.073788 52.978641 -54.382966 14.00000000
57.956689 25.927712 -18.275970 14.00000000
51.373598 18.558852 -16.486397 14.00000000
53.575062 20.557160 -54.252133 14.00000000
62.161617 35.281586 -19.485837 14.00000000
55.942301 23.179635 -44.477853 14.00000000
46.867908 15.430045 -33.876653 14.00000000
56.804412 24.237686 -44.314859 14.00000000
60.417836 30.433581 -55.564090 14.00000000
60.940274 56.342059 -12.766175 14.00000000
35.451585 11.673880 -11.571505 14.00000000
47.399491 15.751005 -53.260307 14.00000000
60.304461 57.750610 -9.536237 14.00000000
46.513180 15.215867 -43.899999 14.00000000
61.956384 34.494536 -11.150489 14.00000000
61.648030 33.568922 -23.363023 14.00000000
34.524299 11.495710 -7.749608 14.00000000
61.779230 54.013232 -13.773708 14.00000000
41.443843 12.910787 -60.915363 14.00000000
61.650127 33.574833 -5.159623 14.00000000
62.152762 52.681715 0.431261 14.00000000
42.084684 13.160474 -19.223827 14.00000000
49.336077 17.009959 -3.189974 14.00000000
62.026102 34.761899 -32.284042 14.00000000
55.456005 22.583494 -48.344897 14.00000000
62.956929 39.021014 -36.649398 14.00000000
51.927529 19.039667 -18.253240 14.00000000
52.240639 19.311448 -3.330475 14.00000000
60.452275 57.429683 -18.840559 14.00000000
62.783040 49.922919 -57.566090 14.00000000
43.219344 13.602566 -47.699390 14.00000000
47.203290 15.632543 -6.105495 14.00000000
52.935256 19.914378 -16.619951 14.00000000
61.232576 32.397802 0.956259 14.00000000
61.540492 33.265785 -47.106507 14.00000000
45.919169 14.887282 -41.501679 14.00000000
34.559842 11.502539 -33.466651 14.00000000
44.798585 14.335789 -56.560763 14.00000000
61.701429 33.719449 -37.860769 14.00000000
49.658251 17.244384 -9.990854 14.00000000
54.116434 21.115373 -60.812284 14.00000000
46.613612 15.276506 -27.719324 14.00000000
35.184335 11.622530 -18.209816 14.00000000
54.020294 21.016242 -30.765567 14.00000000
55.600880 22.761094 -57.588634 14.00000000
62.550666 36.773561 -15.571921 14.00000000
53.258296 20.230541 -57.772797 14.00000000
53.698545 20.684484 -53.391568 14.00000000
47.052749 15.541649 -4.556176 14.00000000
62.057967 34.884098 -0.709779 14.00000000
49.867270 17.396473 -43.459323 14.00000000
37.340571 12.036832 -54.047497 14.00000000
60.435860 30.473221 -40.278725 14.00000000
62.064134 34.907749 -22.445657 14.00000000
60.809786 31.295592 -22.182605 14.00000000
55.639892 22.808918 -41.546964 14.00000000
63.244844 46.323653 -10.501709 14.00000000
62.206424 52.479960 -41.028978 14.00000000
62.972622 48.845098 -3.614993 14.00000000
50.868412 18.124941 -1.369899 14.00000000
62.369359 36.078260 -20.292786 14.00000000
41.703276 13.011868 -31.584676 14.00000000
56.125423 23.404121 -34.609188 14.00000000
63.321230 45.350206 -21.679055 14.00000000
50.459968 17.827743 -49.527399 14.00000000
63.324803 43.883501 -34.202507 14.00000000
35.672131 11.716256 -50.914788 14.00000000
45.543513 14.702403 -20.711501 14.00000000
40.972028 12.734583 -8.590545 14.00000000
51.406626 18.587521 -39.038595 14.00000000
50.429661 17.805690 -6.564910 14.00000000
60.470248 57.390661 -36.486808 14.00000000
43.955950 13.921087 -0.800900 14.00000000
63.076251 39.719350 -52.964287 14.00000000
62.195651 52.520462 -6.732297 14.00000000
46.812180 15.396398 -58.548928 14.00000000
59.703662 28.896243 -19.867393 14.00000000
61.053820 56.026871 -59.211370 14.00000000
59.754289 28.986205 -34.053687 14.00000000
61.262890 55.446523 1.611898 14.00000000
63.167632 40.716167 1.657901 14.00000000
62.063347 34.904730 -55.318678 14.00000000
63.322104 44.991419 -53.614649 14.00000000
42.517162 13.328979 -6.995283 14.00000000
39.219403 12.397832 -48.577105 14.00000000
37.673717 12.100842 -60.530762 14.00000000
62.749384 37.806351 -55.078279 14.00000000
62.193909 35.405424 -31.746498 14.00000000
42.402136 13.284162 -30.016409 14.00000000
45.037266 14.453255 -10.260457 14.00000000
57.901858 25.847293 -33.019623 14.00000000
63.326047 43.372789 -15.522390 14.00000000
54.202241 21.203849 3.796394 14.00000000
63.313193 42.457358 -61.032121 14.00000000
62.894694 38.656781 -11.676693 14.00000000
61.690858 33.689650 -29.603090 14.00000000
36.031034 11.785216 -59.122016 14.00000000
63.283537 42.102618 -33.640664 14.00000000
58.820053 27.326121 -11.085526 14.00000000
58.763378 27.225413 -59.763664 14.00000000
62.667131 37.324961 3.773286 14.00000000
39.182232 12.390690 -14.693856 14.00000000
44.426090 14.152466 -14.539759 14.00000000
37.215596 12.012819 -15.450749 14.00000000
62.016338 34.724454 -12.894203 14.00000000
63.112456 40.056147 -15.693087 14.00000000
40.527526 12.649176 -16.103579 14.00000000
61.422295 32.932601 -30.029639 14.00000000
63.070882 48.286467 -4.449228 14.00000000
62.246396 35.606707 -26.765605 14.00000000
60.194814 29.943091 -12.385760 14.00000000
63.321944 45.057142 -30.207140 14.00000000
58.530265 26.811184 -29.665843 14.00000000
59.763483 29.002541 -31.331646 14.00000000
63.325235 43.706052 -31.878420 14.00000000
58.767754 27.233189 -1.790489 14.00000000
44.380067 14.129816 -36.183956 14.00000000
63.151377 47.379748 -22.457653 14.00000000
63.244369 41.634091 -13.143979 14.00000000
61.396030 32.858562 -56.649611 14.00000000
63.142387 40.414184 -55.490705 14.00000000
51.153292 18.367626 -18.676785 14.00000000
63.231871 41.484585 -24.024569 14.00000000
55.617994 22.782073 -37.334560 14.00000000
43.243169 13.611849 -23.952878 14.00000000
41.992395 13.124516 -41.675567 14.00000000
62.892074 38.641451 -32.145225 14.00000000
60.016619 29.551189 -55.409952 14.00000000
63.324189 44.135442 -43.272279 14.00000000
62.955498 39.012641 -43.880094 14.00000000
56.778475 24.204685 -47.811298 14.00000000
63.199700 46.833733 3.586297 14.00000000
63.004482 48.663965 -7.662801 14.00000000
61.507864 54.766507 -23.876568 14.00000000
62.496826 51.388113 -29.574609 14.00000000
61.599724 54.511517 -30.986033 14.00000000
53.454384 20.432728 2.847867 14.00000000
43.401025 13.673354 -41.930528 14.00000000
47.082399 15.559551 -14.059065 14.00000000
59.877760 29.245798 3.809099 14.00000000
60.801483 56.671502 -18.989379 14.00000000
62.633447 50.773391 -12.227470 14.00000000
63.234693 41.518345 -8.074483 14.00000000
42.562157 13.346510 -21.142932 14.00000000
41.664410 12.996725 -4.425209 14.00000000
62.244550 35.599630 -53.795878 14.00000000
52.086449 19.177610 -41.314987 14.00000000
62.744899 50.139761 -10.185273 14.00000000
49.619809 17.216412 -30.255786 14.00000000
49.980641 17.478967 -18.909776 14.00000000
60.389473 30.371203 -24.957528 14.00000000
63.271337 46.024299 -37.065763 14.00000000
63.094077 48.027180 -17.068413 14.00000000
63.098619 47.975858 -32.012305 14.00000000
50.997481 18.232381 -44.187995 14.00000000
62.532576 36.704186 -35.180997 14.00000000
62.407241 36.223536 -10.054459 14.00000000
52.446359 19.490013 -4.520577 14.00000000
63.122834 47.702249 2.969989 14.00000000
62.379747 51.828304 -32.119896 14.00000000
62.679326 50.512559 -22.924040 14.00000000
63.249030 41.689850 -11.047691 14.00000000
62.037313 53.115776 -2.329201 14.00000000
62.633469 50.773266 -21.519693 14.00000000
59.712797 28.912476 1.691792 14.00000000
45.050259 14.459649 -32.449748 14.00000000
44.446702 14.162610 3.820078 14.00000000
61.002384 56.169651 -49.447459 14.00000000
48.994793 16.761628 -9.841506 14.00000000
62.803921 38.125531 -41.667403 14.00000000
62.685576 37.432910 -2.982296 14.00000000
61.215031 32.348346 -33.506166 14.00000000
57.950018 25.917929 -44.917124 14.00000000
63.038217 39.496755 -21.692226 14.00000000
63.048945 48.411180 -47.524467 14.00000000
54.363212 21.369827 -20.932574 14.00000000
51.322367 18.514384 -57.146468 14.00000000
47.624707 15.886985 -0.240534 14.00000000
61.344288 55.220572 -26.924386 14.00000000
42.751761 13.420384 -33.031762 14.00000000
38.083853 12.179647 -46.502062 14.00000000
63.304441 45.650256 -1.733861 14.00000000
46.373418 15.131482 -9.217599 14.00000000
55.221364 22.295852 -53.439502 14.00000000
62.960432 48.914401 -27.716217 14.00000000
45.228298 14.547271 -60.435344 14.00000000
62.645243 37.196862 -9.834921 14.00000000
50.843726 18.106978 -24.464440 14.00000000
62.886882 38.611063 -8.428312 14.00000000
60.118625 29.775531 -31.376284 14.00000000
63.326260 43.285276 -24.288814 14.00000000
50.111485 17.574173 -55.541585 14.00000000
37.623443 12.091183 -19.519689 14.00000000
60.311318 30.199317 -47.212643 14.00000000
45.422149 14.642675 -50.653182 14.00000000
42.650927 13.381097 -32.108649 14.00000000
55.790285 22.993282 -22.209379 14.00000000
59.427773 28.406004 -38.711417 14.00000000
52.841158 19.832700 -0.375370 14.00000000
36.345711 11.845678 -25.824713 14.00000000
63.257848 41.795324 -28.022848 14.00000000
34.460389 11.483430 -42.308700 14.00000000
54.318868 21.324103 -58.503996 14.00000000
48.522698 16.429175 -37.612874 14.00000000
63.097229 47.991568 -32.873587 14.00000000
62.589041 36.920726 -60.684382 14.00000000
63.160710 47.274292 -31.033129 14.00000000
60.773587 31.215979 -7.220072 14.00000000
44.440933 14.159771 -50.032447 14.00000000
61.939958 34.431542 -14.532367 14.00000000
41.642869 12.988332 -24.116395 14.00000000
52.607899 19.630230 -2.594389 14.00000000
61.266581 55.436275 -11.902287 14.00000000
62.653877 37.247394 0.878357 14.00000000
62.338936 35.961591 -22.303220 14.00000000
50.585771 17.919281 0.087502 14.00000000
55.838555 23.052455 -50.602675 14.00000000
62.614677 50.880103 3.739649 14.00000000
63.235295 46.431547 -25.136275 14.00000000
62.506985 36.606048 -55.803404 14.00000000
62.491242 36.545672 -52.152364 14.00000000
55.101273 22.148634 -9.288519 14.00000000
37.099568 11.990525 -51.706662 14.00000000
62.731757 50.214474 -14.027068 14.00000000
62.583318 51.058391 -5.328223 14.00000000
61.995821 53.271779 -45.450096 14.00000000
38.393456 12.239134 -37.722770 14.00000000
50.342547 17.742302 -48.212336 14.00000000
56.994458 24.516424 -60.979993 14.00000000
62.192580 52.532011 3.102545 14.00000000
62.397035 36.184399 -33.749454 14.00000000
53.751420 20.739004 -36.359030 14.00000000
63.267218 46.070850 -18.188145 14.00000000
43.711769 13.800914 -4.942556 14.00000000
39.879990 12.524758 -49.726239 14.00000000
49.838171 17.375300 -29.159283 14.00000000
43.859183 13.873463 3.060456 14.00000000
63.228227 41.441002 -14.464615 14.00000000
34.642101 11.518345 -45.346101 14.00000000
39.756596 12.501049 -25.636212 14.00000000
60.753203 56.776325 -10.415574 14.00000000
57.269253 24.919461 -17.933639 14.00000000
57.929020 25.887131 -19.237561 14.00000000
60.833761 31.348318 -11.739371 14.00000000
58.505066 26.766407 -48.882200 14.00000000
35.261472 11.637351 -37.227621 14.00000000
62.030028 53.143169 -10.970775 14.00000000
61.255765 32.463169 -26.967975 14.00000000
43.699094 13.794676 -30.327377 14.00000000
60.817021 56.637765 -25.457906 14.00000000
61.353314 55.195516 -33.083212 14.00000000
62.853885 49.520150 -37.929419 14.00000000
62.902611 49.243129 -13.905282 14.00000000
34.580389 11.506487 2.330992 14.00000000
61.002010 56.170689 1.361144 14.00000000
62.091712 52.911249 -44.675399 14.00000000
62.462878 51.515751 1.679234 14.00000000
52.358440 19.413699 2.105413 14.00000000
62.163894 52.639860 -36.454667 14.00000000
60.323212 57.709900 -17.910140 14.00000000
51.517093 18.683407 -2.971427 14.00000000
55.132353 22.186735 -8.048111 14.00000000
38.835189 12.324009 -46.274247 14.00000000
60.720022 56.848365 -12.167201 14.00000000
62.659545 50.625020 -52.200824 14.00000000
62.601851 50.953026 2.663172 14.00000000
63.302089 45.676834 -51.565393 14.00000000
46.584152 15.258719 -18.301779 14.00000000
62.295522 52.144970 1.174914 14.00000000
63.320969 45.457339 -57.864435 14.00000000
38.021172 12.167603 -10.051081 14.00000000
61.060048 56.009583 -33.063587 14.00000000
63.069264 48.295662 -5.536593 14.00000000
41.880375 13.080871 -39.151222 14.00000000
57.171055 24.775435 -49.977287 14.00000000
58.445826 26.661141 -34.806004 14.00000000
62.185494 52.558651 -16.874369 14.00000000
42.157091 13.188686 -58.699617 14.00000000
61.987753 53.302113 -22.710005 14.00000000
53.391228 20.367608 -26.192558 14.00000000
61.292840 55.363386 -49.380828 14.00000000
52.242300 19.312889 -14.303049 14.00000000
63.073440 39.702901 -26.255412 14.00000000
63.270074 46.038570 -2.416175 14.00000000
56.598165 23.983646 -54.936390 14.00000000
60.378211 30.346433 -28.351127 14.00000000
62.422206 51.668668 -25.411919 14.00000000
62.768679 50.004566 -38.690617 14.00000000
43.179145 13.586904 -10.691500 14.00000000
60.866837 31.421063 -2.265815 14.00000000
57.447860 25.181421 -40.182449 14.00000000
41.675649 13.001104 -30.542988 14.00000000
35.917619 11.763424 -17.717342 14.00000000
42.253631 13.226300 1.250229 14.00000000
49.329546 17.005206 -38.801116 14.00000000
53.457528 20.435970 -5.498288 14.00000000
40.824722 12.706280 -44.844215 14.00000000
62.638271 37.156058 -28.478905 14.00000000
60.640667 30.923651 -25.438530 14.00000000
62.001976 53.248639 -19.658917 14.00000000
45.986435 14.920387 -60.938971 14.00000000
61.070690 55.980044 -50.254743 14.00000000
59.350723 28.269091 -26.075810 14.00000000
50.873987 18.128997 -53.833620 14.00000000
60.183406 29.918002 -39.010533 14.00000000
41.178724 12.807490 -35.648299 14.00000000
61.771242 33.916245 -9.105470 14.00000000
60.191852 57.995101 -29.895725 14.00000000
52.482564 19.521440 -7.393229 14.00000000
63.083168 39.759833 -7.369764 14.00000000
47.824051 16.007345 -50.266274 14.00000000
63.325414 43.632643 -22.702359 14.00000000
48.687582 16.538090 -31.540382 14.00000000
63.100080 47.959353 -1.491990 14.00000000
57.734280 25.601510 2.842212 14.00000000
50.373952 17.765154 -33.802482 14.00000000
61.908080 34.309291 -58.461486 14.00000000
42.200221 13.205490 -12.484515 14.00000000
63.322863 44.679776 -4.357064 14.00000000
47.217066 15.640860 -32.954122 14.00000000
39.522898 12.456146 2.301873 14.00000000
60.675280 56.945506 -16.452359 14.00000000
63.140251 47.505456 1.020927 14.00000000
60.466409 30.540406 -29.545420 14.00000000
61.943936 34.446799 -2.309934 14.00000000
49.218332 16.924283 -36.090114 14.00000000
60.944870 31.592679 0.663118 14.00000000
60.250212 57.868394 -38.386782 14.00000000
46.770993 15.371530 -1.871224 14.00000000
63.322326 42.566603 -60.213176 14.00000000
39.844268 12.517894 -4.671729 14.00000000
62.897850 49.270193 -28.489398 14.00000000
58.026501 26.030106 -20.199946 14.00000000
41.788459 13.045058 -33.123410 14.00000000
60.124518 58.141294 -55.490206 14.00000000
63.326480 43.195133 -48.300974 14.00000000
39.097425 12.374395 -57.047371 14.00000000
52.989560 19.961513 -42.505751 14.00000000
61.228415 32.386073 -3.999197 14.00000000
62.287914 35.765925 -14.121251 14.00000000
47.962350 16.090848 -47.557943 14.00000000
63.326348 43.249254 -42.021589 14.00000000
34.895525 11.567038 -57.466636 14.00000000
61.156030 32.182026 -14.659180 14.00000000
59.473501 28.487260 2.444163 14.00000000
62.852095 38.407468 -49.900462 14.00000000
63.155392 47.334379 -29.338101 14.00000000
63.321837 45.101077 -14.880568 14.00000000
62.679198 50.513288 -51.326658 14.00000000
46.753521 15.360981 -29.390964 14.00000000
58.343734 26.495385 -32.345757 14.00000000
63.322567 44.801521 -20.738525 14.00000000
61.172557 55.697275 -56.044432 14.00000000
62.810899 38.166367 -16.305802 14.00000000
37.041501 11.979368 -7.325161 14.00000000
50.160151 17.609585 -54.775158 14.00000000
50.846198 18.108777 -54.746350 14.00000000
62.795165 38.074287 -36.232588 14.00000000
36.175876 11.813046 -31.300658 14.00000000
62.328804 35.922734 -44.034651 14.00000000
63.250648 41.709205 -51.703464 14.00000000
61.436397 32.972351 -41.846081 14.00000000
43.809718 13.849119 -60.838231 14.00000000
39.818264 12.512898 -45.991258 14.00000000
63.196071 41.056356 -7.280536 14.00000000
35.051982 11.597100 -17.169929 14.00000000
51.968517 19.075244 -6.399160 14.00000000
63.221436 41.359761 -45.831793 14.00000000
61.525149 33.222534 -17.530436 14.00000000
62.088332 52.923958 -38.579434 14.00000000
60.500552 57.324867 2.049692 14.00000000
60.071102 58.257268 -4.953845 14.00000000
63.321213 45.357064 -38.268273 14.00000000
61.906542 34.303396 -34.245247 14.00000000
57.245130 24.884080 -31.750553 14.00000000
62.996303 48.710466 -60.201452 14.00000000
63.322929 44.652796 -54.604807 14.00000000
61.056717 31.902074 -19.469254 14.00000000
63.322166 44.965964 -60.275327 14.00000000
61.836683 34.100715 -17.324676 14.00000000
60.081550 29.693991 -41.707260 14.00000000
56.802249 24.234514 -25.687504 14.00000000
39.925108 12.533427 -35.576683 14.00000000
48.955102 16.732747 -30.583501 14.00000000
61.504693 33.164870 -31.151793 14.00000000
42.099351 13.166189 -55.176958 14.00000000
54.540043 21.552159 -21.786574 14.00000000
62.601562 50.954669 1.051783 14.00000000
63.321063 45.418784 -25.919419 14.00000000
60.141437 29.825700 -0.971173 14.00000000
53.355099 20.330355 -19.879477 14.00000000
57.911584 25.861558 -54.144485 14.00000000
61.190880 55.646411 -47.989823 14.00000000
54.252155 21.255315 -55.036800 14.00000000
61.843574 53.834621 -60.007212 14.00000000
53.805296 20.794556 -51.694332 14.00000000
43.669906 13.780311 -9.337322 14.00000000
61.472670 33.074602 -40.940382 14.00000000
40.487059 12.641401 -3.486702 14.00000000
62.622128 50.837743 -23.890777 14.00000000
54.947004 21.971780 -30.454165 14.00000000
43.715546 13.802773 -8.021749 14.00000000
61.717263 54.185242 -42.571440 14.00000000
62.571701 51.106599 -27.666043 14.00000000
63.325986 43.397807 -49.404523 14.00000000
61.843975 53.833507 -37.823846 14.00000000
61.078115 31.962394 -37.917551 14.00000000
55.569377 22.722475 -17.469883 14.00000000
62.405985 51.729655 -36.283901 14.00000000
60.977623 56.238385 -0.861010 14.00000000
61.621308 33.493595 -14.609592 14.00000000
62.828311 49.665540 -36.995351 14.00000000
34.583797 11.507142 -59.842370 14.00000000
59.807524 58.829535 -36.831770 14.00000000
62.228209 52.398054 -29.409585 14.00000000
62.767985 37.915216 -2.247514 14.00000000
42.537476 13.336894 -51.089737 14.00000000
62.740282 50.166008 -60.801992 14.00000000
48.435675 16.376632 -57.213564 14.00000000
60.175207 58.031239 -56.546567 14.00000000
63.177235 47.087573 -49.969097 14.00000000
47.152584 15.601927 -40.218898 14.00000000
59.725964 59.006615 -7.250684 14.00000000
61.127207 32.100777 -12.005131 14.00000000
62.735159 50.195134 -5.784202 14.00000000
57.847621 25.767744 -39.678742 14.00000000
63.189378 46.950369 -51.965191 14.00000000
59.761531 28.999073 -2.187887 14.00000000
63.244708 46.325188 -3.406252 14.00000000
49.096494 16.835629 -60.999318 14.00000000
63.178560 47.072606 -44.574890 14.00000000
62.034920 34.795716 -25.953822 14.00000000
56.366605 23.699781 -59.094878 14.00000000
58.142373 26.200053 -37.775938 14.00000000
59.136689 27.888765 -25.277330 14.00000000
61.077913 55.959992 -16.267814 14.00000000
63.323472 44.429947 -41.044452 14.00000000
63.311631 42.438681 3.641865 14.00000000
57.076414 24.636627 -52.864870 14.00000000
35.852574 11.750926 -46.233501 14.00000000
61.423953 54.999434 -7.800278 14.00000000
56.665349 24.066007 -46.193069 14.00000000
38.077649 12.178454 -1.973613 14.00000000
50.563104 17.902788 -57.054182 14.00000000
59.639949 28.783029 -22.009948 14.00000000
63.132579 47.592140 -47.417178 14.00000000
63.013465 39.351896 -56.926152 14.00000000
61.971029 53.364992 -34.784902 14.00000000
61.998441 53.261926 -26.590789 14.00000000
59.246107 28.083195 -52.864419 14.00000000
38.003170 12.164144 -8.748998 14.00000000
46.329600 15.105026 -50.311607 14.00000000
35.472009 11.677804 -44.410866 14.00000000
63.319600 42.533995 -57.546857 14.00000000
57.006861 24.534616 -50.886571 14.00000000
37.584518 12.083704 -41.638756 14.00000000
46.820458 15.401396 -9.916157 14.00000000
62.519319 51.303545 -11.437030 14.00000000
62.159958 52.654660 -23.373992 14.00000000
40.019861 12.551633 -48.306527 14.00000000
45.204480 14.535549 -51.556764 14.00000000
63.141928 47.486508 -9.118530 14.00000000
57.036653 24.578310 -23.141070 14.00000000
49.217589 16.923742 0.166484 14.00000000
60.571753 57.170279 -48.570563 14.00000000
63.325817 43.467388 3.648344 14.00000000
57.159438 24.758397 1.638886 14.00000000
61.248688 55.485943 -2.172156 14.00000000
44.667062 14.271060 -51.013120 14.00000000
61.864099 53.767024 -39.041231 14.00000000
63.160092 40.625978 -51.273851 14.00000000
59.070194 27.770607 -55.246878 14.00000000
62.415468 51.694000 -52.128797 14.00000000
63.017685 48.588903 2.393173 14.00000000
63.196380 41.060050 -29.941951 14.00000000
62.698919 50.401169 -33.578555 14.00000000
46.416222 15.157326 -45.412297 14.00000000
51.044743 18.273406 -34.010113 14.00000000
56.785508 24.213307 -53.716006 14.00000000
55.084729 22.128354 -55.489815 14.00000000
61.454042 33.022092 -38.363817 14.00000000
58.766158 27.230354 -27.378047 14.00000000
56.740722 24.158405 -16.133031 14.00000000
44.779025 14.326162 -26.880299 14.00000000
43.697898 13.794087 -5.782789 14.00000000
43.372456 13.662222 -1.237336 14.00000000
52.394015 19.444579 -31.995988 14.00000000
61.223702 55.555302 -53.312326 14.00000000
63.170093 47.168268 -35.515225 14.00000000
61.911580 53.588504 -0.776658 14.00000000
59.717367 59.025281 -52.153831 14.00000000
35.142612 11.614513 -35.249543 14.00000000
36.218456 11.821227 -1.274165 14.00000000
61.422565 32.933361 -32.990356 14.00000000
58.178718 26.253360 -54.881100 14.00000000
56.991466 24.512035 -19.593683 14.00000000
42.548956 13.341366 -35.911299 14.00000000
60.650507 30.945292 -32.312706 14.00000000
49.684610 17.263563 -13.698444 14.00000000
57.626293 25.443126 -13.903680 14.00000000
61.042995 31.863393 -31.660527 14.00000000
62.973954 39.120655 -28.658470 14.00000000
63.275541 45.976807 -11.420718 14.00000000
59.960285 58.497869 -46.731336 14.00000000
54.773826 21.793214 -11.901800 14.00000000
60.473185 30.555310 -57.987305 14.00000000
39.023342 12.360161 -5.471342 14.00000000
51.186685 18.396611 -29.014105 14.00000000
62.778888 37.979026 -30.663016 14.00000000
62.933101 49.069786 -42.675414 14.00000000
55.092602 22.138006 -38.177071 14.00000000
60.166652 29.881155 -34.117518 14.00000000
57.208527 24.830395 -21.926610 14.00000000
62.849088 38.389874 -38.953191 14.00000000
62.801732 38.112722 -22.964240 14.00000000
53.077613 20.044237 -9.928933 14.00000000
48.543927 16.441992 -18.667843 14.00000000
63.147171 40.471406 -0.458665 14.00000000
62.290553 35.776047 -55.484176 14.00000000
55.850978 23.067684 -38.302629 14.00000000
58.968801 27.590437 -3.565988 14.00000000
63.326995 42.983616 -47.155763 14.00000000
45.872562 14.864345 -5.642520 14.00000000
57.532746 25.305922 -11.551996 14.00000000
61.575148 54.579735 -56.136739 14.00000000
36.866930 11.945826 -44.956656 14.00000000
61.044555 31.867791 -30.655327 14.00000000
61.432280 54.976318 -15.056175 14.00000000
63.321434 45.266229 -32.377638 14.00000000
61.345090 32.714967 -39.299616 14.00000000
61.159550 55.733379 3.871769 14.00000000
45.739427 14.798823 -31.691872 14.00000000
62.591163 36.928863 3.023092 14.00000000
62.550978 51.184515 -2.465252 14.00000000
61.936189 53.495982 0.599082 14.00000000
63.227951 41.437703 -47.376131 14.00000000
59.843621 58.751164 -33.991342 14.00000000
49.904585 17.423625 -33.099650 14.00000000
56.295689 23.612847 -32.879931 14.00000000
55.319741 22.416450 -50.846381 14.00000000
42.534435 13.335709 -27.381499 14.00000000
63.197674 41.075528 -9.457674 14.00000000
42.544713 13.339713 -56.987359 14.00000000
60.472512 57.385746 -23.424001 14.00000000
60.401584 57.539741 -39.126038 14.00000000
62.000774 34.664766 -18.818610 14.00000000
63.228666 46.506446 -40.506524 14.00000000
50.824415 18.092927 -41.734020 14.00000000
60.686326 31.024068 -37.429599 14.00000000
62.660097 50.621881 -4.027362 14.00000000
63.136419 40.342798 -5.307983 14.00000000
57.472516 25.217583 -44.001264 14.00000000
53.500028 20.479792 -18.569844 14.00000000
62.822134 49.700659 -35.620373 14.00000000
48.152198 16.205474 -54.519837 14.00000000
36.740782 11.921587 -41.059085 14.00000000
63.324902 43.842966 -55.266169 14.00000000
40.137175 12.574174 -13.142937 14.00000000
