59.116399 -47.409999 -31.980223 8.00000000
58.218468 -48.258764 -11.374362 8.00000000
55.889152 -50.385744 2.859882 8.00000000
58.405235 -48.082223 -39.031652 8.00000000
53.235244 -52.607203 -23.096979 8.00000000
47.938441 -56.424014 -5.082298 8.00000000
57.644744 -48.801075 -47.799100 8.00000000
59.305783 -47.230984 -54.739594 8.00000000
57.044411 -49.368538 -57.444300 8.00000000
49.885137 -55.112323 2.619695 8.00000000
52.263963 -53.342056 -6.333777 8.00000000
54.204785 -51.811580 -24.366368 8.00000000
50.281697 -54.841801 -31.272999 8.00000000
55.399677 -50.800090 -42.286572 8.00000000
55.302953 -50.881968 -52.579304 8.00000000
47.853993 -56.480916 -60.330975 8.00000000
49.539493 -55.345219 -0.686934 8.00000000
53.350611 -52.519919 -50.609598 8.00000000
57.217025 -49.205375 2.801278 8.00000000
51.898634 -53.618457 -19.101558 8.00000000
54.260323 -51.764567 -5.606179 8.00000000
53.038439 -52.756102 -45.961367 8.00000000
52.749006 -52.975082 -37.624532 8.00000000
52.957957 -52.816994 -6.987241 8.00000000
53.623496 -52.303649 -45.560140 8.00000000
57.321489 -49.106631 -24.482836 8.00000000
58.530429 -47.963885 -51.874962 8.00000000
55.194985 -50.973364 -31.343372 8.00000000
59.366341 -47.173742 -59.674176 8.00000000
48.411084 -56.105546 -36.012693 8.00000000
56.544812 -49.830719 -49.977985 8.00000000
47.852641 -56.481827 -21.592081 8.00000000
54.551819 -51.517812 0.636094 8.00000000
57.868204 -48.589850 -40.567626 8.00000000
54.368914 -51.672643 -36.440123 8.00000000
56.508549 -49.861416 -2.149853 8.00000000
56.626205 -49.761819 0.784509 8.00000000
49.592727 -55.309350 -32.210454 8.00000000
47.423609 -56.770911 -20.871972 8.00000000
57.964036 -48.499265 -10.635636 8.00000000
54.793138 -51.313532 -42.768360 8.00000000
47.756662 -56.546498 -56.850520 8.00000000
48.066429 -56.337776 -24.981434 8.00000000
50.560228 -54.631069 -44.020804 8.00000000
50.946605 -54.338744 -55.188811 8.00000000
47.851654 -56.482492 -11.160750 8.00000000
49.674736 -55.254092 -41.856393 8.00000000
51.198977 -54.147804 -20.868827 8.00000000
56.292611 -50.044210 -23.328510 8.00000000
51.764968 -53.719586 -25.056709 8.00000000
48.521231 -56.031328 -6.541016 8.00000000
57.362028 -49.068311 -24.930567 8.00000000
58.738261 -47.767432 -40.414391 8.00000000
54.236685 -51.784577 -46.082911 8.00000000
47.669266 -56.605386 -3.808286 8.00000000
49.171450 -55.593208 -37.162162 8.00000000
58.198264 -48.277862 -23.628912 8.00000000
58.542150 -47.952805 -8.180504 8.00000000
50.463518 -54.704238 -52.678548 8.00000000
56.910549 -49.495071 -55.217306 8.00000000
54.898147 -51.224642 -37.603446 8.00000000
59.002070 -47.518068 -38.461663 8.00000000
56.493009 -49.874571 -22.263036 8.00000000
55.593150 -50.636313 -54.934010 8.00000000
51.897051 -53.619654 -42.910945 8.00000000
58.187081 -48.288433 -40.786796 8.00000000
47.178573 -56.936017 -53.775408 8.00000000
59.151259 -47.377047 -24.733914 8.00000000
55.903738 -50.373396 -19.902129 8.00000000
58.968298 -47.549990 -3.151689 8.00000000
47.490001 -56.726175 -26.101522 8.00000000
51.587383 -53.853944 -44.272208 8.00000000
48.670915 -55.930470 -7.493701 8.00000000
50.500661 -54.676137 -57.328765 8.00000000
58.986970 -47.532341 -4.224874 8.00000000
48.535144 -56.021953 -53.906570 8.00000000
54.473882 -51.583787 2.186502 8.00000000
55.872702 -50.399668 -41.322352 8.00000000
57.507593 -48.930717 -39.788847 8.00000000
57.041837 -49.370971 -22.131910 8.00000000
51.800336 -53.692827 -8.647643 8.00000000
57.425352 -49.008454 -53.870176 8.00000000
47.431381 -56.765673 -57.247009 8.00000000
59.609917 -46.943502 -45.348494 8.00000000
49.425811 -55.421818 -42.595449 8.00000000
48.912678 -55.767569 -53.703967 8.00000000
49.054958 -55.671701 -49.720267 8.00000000
46.905096 -57.120287 -12.380178 8.00000000
51.696200 -53.771615 -17.429131 8.00000000
58.984096 -47.535058 -12.941993 8.00000000
55.888830 -50.386016 -57.689584 8.00000000
54.756846 -51.344254 1.905867 8.00000000
48.265118 -56.203898 -3.528562 8.00000000
57.138450 -49.279648 -21.698831 8.00000000
58.060311 -48.408262 -59.426049 8.00000000
56.490202 -49.876948 -16.227375 8.00000000
56.530812 -49.842570 -36.911382 8.00000000
48.475162 -56.062370 -27.496450 8.00000000
59.295964 -47.240265 -41.294770 8.00000000
51.725330 -53.749576 -46.525094 8.00000000
51.269900 -54.094145 -35.569061 8.00000000
51.527287 -53.899411 -21.138505 8.00000000
51.728142 -53.747448 -13.733868 8.00000000
51.980782 -53.556306 -6.110305 8.00000000
48.305415 -56.176746 -49.032798 8.00000000
49.893237 -55.106865 -35.356823 8.00000000
54.084719 -51.913218 -42.972336 8.00000000
53.109664 -52.702215 -31.721704 8.00000000
50.531115 -54.653095 -40.419165 8.00000000
48.541662 -56.017562 0.555640 8.00000000
59.555343 -46.995088 -4.525996 8.00000000
53.046155 -52.750264 -28.129075 8.00000000
59.414518 -47.128203 -36.481433 8.00000000
47.549796 -56.685885 -37.996696 8.00000000
58.491462 -48.000718 -60.105958 8.00000000
52.896814 -52.863253 3.790409 8.00000000
48.468197 -56.067063 -42.244505 8.00000000
49.628205 -55.285444 -41.448242 8.00000000
47.942039 -56.421590 -22.698930 8.00000000
58.360013 -48.124969 -44.720468 8.00000000
55.100820 -51.053076 -54.969967 8.00000000
52.593194 -53.092966 -45.518039 8.00000000
52.796789 -52.938930 -44.616925 8.00000000
49.245159 -55.543542 -51.194110 8.00000000
50.437691 -54.723778 -21.141410 8.00000000
51.334496 -54.045273 -51.707595 8.00000000
59.178905 -47.350914 -28.902126 8.00000000
50.635818 -54.573879 -18.165821 8.00000000
53.539960 -52.374363 -5.669233 8.00000000
56.433907 -49.924601 -5.234032 8.00000000
50.142359 -54.939006 -29.426174 8.00000000
55.225964 -50.947140 -23.223848 8.00000000
49.898750 -55.103150 -55.274256 8.00000000
58.540907 -47.953980 -6.083544 8.00000000
49.028573 -55.689479 -24.907099 8.00000000
55.924079 -50.356177 -17.609109 8.00000000
50.544010 -54.643339 -14.736822 8.00000000
53.900434 -52.069217 -18.741264 8.00000000
59.553047 -46.997258 -23.476392 8.00000000
51.154023 -54.181816 -11.493158 8.00000000
52.187365 -53.400009 -18.506152 8.00000000
52.228643 -53.368779 -19.212164 8.00000000
56.150251 -50.164720 -42.491050 8.00000000
51.428636 -53.974048 -17.184729 8.00000000
53.610779 -52.314414 -34.531624 8.00000000
54.842799 -51.271494 -7.132155 8.00000000
57.108477 -49.307980 -9.813250 8.00000000
54.938652 -51.190353 3.400151 8.00000000
57.697990 -48.750745 -11.499464 8.00000000
50.293137 -54.833145 2.187068 8.00000000
47.009418 -57.049994 -60.068654 8.00000000
57.503746 -48.934353 -25.376103 8.00000000
56.965245 -49.443369 1.074164 8.00000000
53.252557 -52.594105 -9.322843 8.00000000
53.503431 -52.404298 -30.511008 8.00000000
54.898112 -51.224671 -34.172725 8.00000000
56.063219 -50.238394 -30.462213 8.00000000
48.109827 -56.308534 -46.230589 8.00000000
50.511046 -54.668279 -19.038674 8.00000000
51.308783 -54.064727 -25.509502 8.00000000
56.933762 -49.473128 -8.841606 8.00000000
52.164579 -53.417248 -42.609413 8.00000000
53.178807 -52.649903 -49.842595 8.00000000
52.892315 -52.866657 -22.255543 8.00000000
53.982272 -51.999940 -25.961389 8.00000000
55.252191 -50.924939 -26.079435 8.00000000
56.100342 -50.206968 -51.730037 8.00000000
47.764238 -56.541393 -54.736202 8.00000000
48.515106 -56.035455 -37.634333 8.00000000
51.781906 -53.706771 -2.444567 8.00000000
58.830195 -47.680532 -3.571093 8.00000000
59.146154 -47.381872 1.628896 8.00000000
54.152401 -51.855924 -9.539724 8.00000000
48.274887 -56.197316 -49.983252 8.00000000
56.110497 -50.198373 -12.379484 8.00000000
58.424855 -48.063678 1.682027 8.00000000
56.344846 -49.999993 -39.479681 8.00000000
53.793746 -52.159530 -15.076911 8.00000000
51.659209 -53.799601 -12.503860 8.00000000
52.542070 -53.131646 3.845855 8.00000000
56.617093 -49.769533 3.800592 8.00000000
50.133191 -54.945183 -10.246912 8.00000000
49.641680 -55.276365 -53.185770 8.00000000
54.276654 -51.750743 -5.138853 8.00000000
53.253506 -52.593387 -59.304894 8.00000000
59.556677 -46.993827 -21.595648 8.00000000
53.767313 -52.181906 2.931849 8.00000000
53.021793 -52.768696 -33.754914 8.00000000
47.347898 -56.821925 -43.169453 8.00000000
55.113380 -51.042444 -29.019079 8.00000000
58.833365 -47.677535 -44.900692 8.00000000
53.726943 -52.216079 -32.337078 8.00000000
58.575468 -47.921311 -25.519624 8.00000000
55.705134 -50.541517 1.355691 8.00000000
58.763766 -47.743323 -56.149517 8.00000000
47.904161 -56.447113 -47.085506 8.00000000
54.893397 -51.228662 -28.133324 8.00000000
58.819452 -47.690686 -29.376472 8.00000000
49.890903 -55.108437 1.507503 8.00000000
51.010958 -54.290056 -39.647704 8.00000000
48.581780 -55.990530 3.865143 8.00000000
48.480970 -56.058456 -32.898782 8.00000000
48.943271 -55.746956 -52.169525 8.00000000
53.597099 -52.325994 -57.650235 8.00000000
56.321746 -50.019548 -44.346915 8.00000000
56.577070 -49.803413 -7.968829 8.00000000
49.903346 -55.100054 -33.109385 8.00000000
56.137123 -50.175833 -37.086329 8.00000000
53.302289 -52.556478 1.171904 8.00000000
55.947552 -50.336308 -3.112991 8.00000000
56.182090 -50.137768 -0.916976 8.00000000
57.882472 -48.576364 -45.179755 8.00000000
55.768217 -50.488117 -44.812283 8.00000000
53.040898 -52.754242 -48.176529 8.00000000
52.456613 -53.196301 -47.681635 8.00000000
51.058354 -54.254196 -10.581215 8.00000000
55.491215 -50.722602 -20.066833 8.00000000
55.426099 -50.777723 -31.034194 8.00000000
55.576775 -50.650175 -14.587687 8.00000000
58.458466 -48.031907 -41.282607 8.00000000
59.078780 -47.445558 -47.823903 8.00000000
54.967801 -51.165678 -38.001650 8.00000000
56.950769 -49.457052 -31.812762 8.00000000
50.670147 -54.547907 -3.336525 8.00000000
59.182911 -47.347128 -7.717388 8.00000000
59.497338 -47.049917 -56.477606 8.00000000
47.942835 -56.421053 -0.111811 8.00000000
55.814065 -50.449305 -6.083419 8.00000000
51.972496 -53.562574 -48.980123 8.00000000
48.646414 -55.946980 -41.613991 8.00000000
57.162547 -49.256871 3.336613 8.00000000
48.655747 -55.940691 -28.957306 8.00000000
48.587805 -55.986470 -52.118238 8.00000000
54.678118 -51.410899 -10.697689 8.00000000
49.914812 -55.092328 -48.472103 8.00000000
55.917208 -50.361993 -56.332394 8.00000000
53.762215 -52.186221 -30.188036 8.00000000
48.221135 -56.233534 -51.340172 8.00000000
55.850648 -50.418337 -20.671642 8.00000000
52.389339 -53.247199 -24.685380 8.00000000
51.271038 -54.093284 -3.518374 8.00000000
54.431886 -51.619337 -38.457800 8.00000000
52.627217 -53.067225 0.149532 8.00000000
49.513276 -55.362884 -52.809756 8.00000000
59.298523 -47.237846 -42.892490 8.00000000
56.885423 -49.518820 -43.163769 8.00000000
52.594686 -53.091838 -46.052561 8.00000000
49.548025 -55.339470 -9.200644 8.00000000
56.865166 -49.537968 -41.372359 8.00000000
52.505930 -53.158989 -56.805196 8.00000000
58.890951 -47.623103 -20.503850 8.00000000
56.664824 -49.727341 -48.935552 8.00000000
55.879894 -50.393581 -40.070475 8.00000000
57.065746 -49.348371 -40.778251 8.00000000
48.078926 -56.329355 -51.740005 8.00000000
51.694986 -53.772533 -49.752683 8.00000000
48.464670 -56.069439 -26.303750 8.00000000
50.230763 -54.879439 -52.162053 8.00000000
48.219341 -56.234743 0.728063 8.00000000
47.664168 -56.608821 -18.196026 8.00000000
57.447978 -48.987068 -53.213471 8.00000000
56.766544 -49.631191 -25.604439 8.00000000
55.752255 -50.501628 -30.863625 8.00000000
49.226197 -55.556319 2.558947 8.00000000
52.198218 -53.391798 -8.836556 8.00000000
51.193123 -54.152233 0.347444 8.00000000
47.819910 -56.503881 2.684982 8.00000000
47.432368 -56.765009 -25.697430 8.00000000
54.724959 -51.371247 -36.416014 8.00000000
50.423779 -54.734304 -15.792638 8.00000000
59.010922 -47.509700 -15.077429 8.00000000
54.636812 -51.445864 -19.106151 8.00000000
56.966669 -49.442023 -34.421534 8.00000000
47.230067 -56.901320 -2.255924 8.00000000
53.901388 -52.068410 -51.490236 8.00000000
49.533083 -55.349538 -34.578219 8.00000000
58.739952 -47.765834 -32.293722 8.00000000
49.940642 -55.074923 -13.800891 8.00000000
57.706649 -48.742560 -22.748484 8.00000000
48.666409 -55.933507 -12.338574 8.00000000
53.838984 -52.121236 -7.080812 8.00000000
56.307314 -50.031765 -6.718711 8.00000000
52.719223 -52.997615 -45.046532 8.00000000
53.254834 -52.592382 -17.053035 8.00000000
51.652539 -53.804648 -26.758087 8.00000000
57.285020 -49.141103 -27.769011 8.00000000
59.159368 -47.369382 0.916792 8.00000000
50.695180 -54.528967 -45.628032 8.00000000
50.247960 -54.867325 -45.523570 8.00000000
52.177747 -53.407285 -10.230938 8.00000000
55.245888 -50.930274 -14.496977 8.00000000
52.081080 -53.480422 -25.516914 8.00000000
56.261536 -50.070516 -36.493846 8.00000000
52.228928 -53.368563 -13.108497 8.00000000
48.673183 -55.928942 -33.669948 8.00000000
47.667268 -56.606732 -17.241223 8.00000000
57.783537 -48.669882 -60.084080 8.00000000
56.133108 -50.179232 -16.871645 8.00000000
50.572949 -54.621445 -28.123006 8.00000000
59.518457 -47.029955 -8.082664 8.00000000
53.927482 -52.046321 -21.052916 8.00000000
53.139126 -52.679925 -43.788465 8.00000000
53.627153 -52.300553 -56.493494 8.00000000
50.493212 -54.681772 -39.928156 8.00000000
50.331676 -54.803987 -12.841128 8.00000000
54.779598 -51.324994 -52.283114 8.00000000
51.227583 -54.126161 1.877685 8.00000000
56.259311 -50.072399 -59.704976 8.00000000
57.212385 -49.209761 -14.567628 8.00000000
57.240266 -49.183407 -14.024702 8.00000000
58.066612 -48.402306 -5.060240 8.00000000
53.838732 -52.121449 -34.175826 8.00000000
59.090693 -47.434297 -36.551857 8.00000000
49.789348 -55.176866 -40.351612 8.00000000
52.720923 -52.996329 -6.637921 8.00000000
56.740612 -49.655703 -48.375635 8.00000000
59.040677 -47.481575 -1.312302 8.00000000
59.286532 -47.249181 -44.471169 8.00000000
48.696796 -55.913032 -27.889742 8.00000000
55.742739 -50.509684 -59.058574 8.00000000
56.748242 -49.648490 -45.663428 8.00000000
59.258459 -47.275716 -45.277449 8.00000000
48.453337 -56.077075 -16.953377 8.00000000
51.890417 -53.624673 -4.941585 8.00000000
47.474040 -56.736930 -21.945456 8.00000000
46.945046 -57.093368 -47.151180 8.00000000
54.353280 -51.685878 -59.057849 8.00000000
53.609169 -52.315776 -27.417821 8.00000000
48.077440 -56.330357 -15.856626 8.00000000
50.673136 -54.545645 -8.179317 8.00000000
48.606521 -55.973860 -22.298884 8.00000000
57.600850 -48.842566 -47.388665 8.00000000
55.772003 -50.484912 -36.160490 8.00000000
59.138711 -47.388908 -46.808638 8.00000000
53.889791 -52.078227 -28.569745 8.00000000
58.956124 -47.561497 -55.737319 8.00000000
54.299389 -51.731497 -1.677781 8.00000000
57.069324 -49.344989 -58.555330 8.00000000
57.491340 -48.946080 -38.747206 8.00000000
51.261271 -54.100673 -46.581390 8.00000000
58.840301 -47.670979 -51.998895 8.00000000
55.364173 -50.830145 -15.676853 8.00000000
47.465107 -56.742949 -56.272238 8.00000000
53.090740 -52.716533 -54.537953 8.00000000
54.247557 -51.775373 -51.324662 8.00000000
51.196749 -54.149490 -18.216187 8.00000000
57.129027 -49.288554 -55.485605 8.00000000
57.761864 -48.690368 -20.907513 8.00000000
53.395317 -52.486095 -25.708755 8.00000000
50.830461 -54.426616 -32.478326 8.00000000
48.067328 -56.337170 -8.129035 8.00000000
57.067298 -49.346904 -42.620835 8.00000000
47.608774 -56.646146 -45.970291 8.00000000
57.275802 -49.149816 -1.186110 8.00000000
51.467629 -53.944547 -36.113228 8.00000000
59.615769 -46.937970 -10.318523 8.00000000
49.873281 -55.120311 -1.117157 8.00000000
48.475967 -56.061827 -38.602613 8.00000000
49.271602 -55.525725 3.538210 8.00000000
50.244130 -54.870223 -54.978327 8.00000000
54.038462 -51.952375 -50.175119 8.00000000
51.279885 -54.086590 -46.045531 8.00000000
54.628381 -51.453001 -33.081957 8.00000000
55.460121 -50.748923 -41.300814 8.00000000
51.651038 -53.805784 -18.852704 8.00000000
50.829919 -54.427027 -30.207704 8.00000000
48.478365 -56.060211 -48.169767 8.00000000
56.003144 -50.289248 -6.650781 8.00000000
49.628790 -55.285050 -39.012267 8.00000000
49.133962 -55.618468 0.866942 8.00000000
56.321152 -50.020050 -48.173802 8.00000000
50.952666 -54.334158 -44.002272 8.00000000
54.358066 -51.681826 -37.453185 8.00000000
47.677422 -56.599890 -39.002975 8.00000000
55.423516 -50.779910 -51.247931 8.00000000
51.411015 -53.987380 -13.700940 8.00000000
56.064838 -50.237023 -43.809508 8.00000000
53.181092 -52.648174 -26.907971 8.00000000
58.404904 -48.082537 -42.029778 8.00000000
50.350317 -54.789884 -50.956326 8.00000000
49.127772 -55.622638 -6.007368 8.00000000
53.760880 -52.187351 -26.774218 8.00000000
48.089849 -56.321995 -28.693781 8.00000000
54.921927 -51.204511 -50.276351 8.00000000
54.745941 -51.353485 -0.342614 8.00000000
56.446090 -49.914289 -18.122871 8.00000000
52.613139 -53.077876 -59.554885 8.00000000
55.614023 -50.618643 -12.821169 8.00000000
59.264331 -47.270166 -28.174076 8.00000000
49.926100 -55.084722 -17.155627 8.00000000
48.108098 -56.309699 -56.600840 8.00000000
52.644303 -53.054298 -27.561888 8.00000000
54.212272 -51.805242 -45.650785 8.00000000
49.117188 -55.629770 -16.914504 8.00000000
48.798932 -55.844212 -3.932442 8.00000000
51.930926 -53.594025 -40.885240 8.00000000
50.937199 -54.345860 -49.811088 8.00000000
50.152033 -54.932487 -51.503637 8.00000000
55.850751 -50.418250 -17.160875 8.00000000
53.677995 -52.257515 -38.978784 8.00000000
57.281787 -49.144159 -49.985534 8.00000000
47.153517 -56.952899 -3.470245 8.00000000
47.004303 -57.053440 -42.799322 8.00000000
53.509026 -52.400066 -41.688923 8.00000000
51.866052 -53.643108 -23.839797 8.00000000
48.805343 -55.839892 -29.765122 8.00000000
47.173695 -56.939303 -46.780913 8.00000000
58.056191 -48.412156 -1.651936 8.00000000
51.320473 -54.055882 -24.248014 8.00000000
53.971021 -52.009464 -2.607659 8.00000000
55.168120 -50.996106 -54.127489 8.00000000
47.846688 -56.485838 -27.201355 8.00000000
58.254497 -48.224708 -13.710330 8.00000000
47.725746 -56.567329 -42.423586 8.00000000
57.950624 -48.511943 -57.438993 8.00000000
51.017525 -54.285087 1.348423 8.00000000
57.911405 -48.549015 -42.354379 8.00000000
58.867285 -47.645473 -58.068580 8.00000000
55.392195 -50.806424 -13.647861 8.00000000
49.057884 -55.669730 -7.787790 8.00000000
57.540692 -48.899430 -33.776244 8.00000000
57.910089 -48.550259 -14.758570 8.00000000
54.293297 -51.736654 -27.264262 8.00000000
52.533937 -53.137799 -54.988424 8.00000000
55.651341 -50.587054 -45.295893 8.00000000
50.940185 -54.343601 -37.461979 8.00000000
47.451052 -56.752419 -47.405427 8.00000000
58.947423 -47.569722 -8.386716 8.00000000
56.062872 -50.238688 -52.947174 8.00000000
53.522349 -52.389270 -20.587122 8.00000000
55.629039 -50.605932 -35.742183 8.00000000
54.132025 -51.873173 -17.988524 8.00000000
48.356886 -56.142065 -23.480330 8.00000000
57.196886 -49.224411 -42.154028 8.00000000
58.810030 -47.699592 -24.773484 8.00000000
53.391056 -52.489319 1.559257 8.00000000
50.779473 -54.465192 -26.632019 8.00000000
55.745861 -50.507041 -23.991329 8.00000000
49.313024 -55.497815 -58.392659 8.00000000
58.240825 -48.237631 -35.170653 8.00000000
51.387038 -54.005521 -48.560688 8.00000000
47.108573 -56.983183 -14.803114 8.00000000
52.938787 -52.831497 -10.478322 8.00000000
49.766516 -55.192250 -58.222463 8.00000000
55.328743 -50.860136 1.373672 8.00000000
52.579965 -53.102975 -25.101870 8.00000000
54.915564 -51.209898 -18.888192 8.00000000
57.369952 -49.060822 -18.617952 8.00000000
48.660766 -55.937309 -12.764920 8.00000000
58.544020 -47.951038 -33.163454 8.00000000
50.882497 -54.387247 -52.749493 8.00000000
59.347416 -47.191630 -1.213296 8.00000000
47.558260 -56.680182 -23.871109 8.00000000
59.614900 -46.938792 -43.199671 8.00000000
56.430877 -49.927166 -45.826369 8.00000000
58.214565 -48.262454 -60.518261 8.00000000
58.118824 -48.352953 -57.036932 8.00000000
56.881084 -49.522922 -19.047033 8.00000000
51.333641 -54.045920 -53.221702 8.00000000
59.320031 -47.217516 -52.864581 8.00000000
58.159046 -48.314933 -54.715585 8.00000000
47.733250 -56.562273 -16.690817 8.00000000
47.723723 -56.568692 -7.833732 8.00000000
49.067654 -55.663146 -17.638320 8.00000000
54.086995 -51.911291 -49.759405 8.00000000
50.937834 -54.345380 -41.271366 8.00000000
55.778533 -50.479384 -22.633775 8.00000000
51.707939 -53.762733 -6.962528 8.00000000
57.298074 -49.128764 1.823667 8.00000000
58.734206 -47.771264 -37.617339 8.00000000
56.061749 -50.239638 -34.568451 8.00000000
47.568697 -56.673150 -0.012114 8.00000000
50.479912 -54.691835 -8.873676 8.00000000
51.406867 -53.990518 -54.022953 8.00000000
58.905963 -47.608913 -43.292805 8.00000000
53.118900 -52.695227 -30.685268 8.00000000
51.587602 -53.853778 -32.537606 8.00000000
58.499803 -47.992834 -53.900069 8.00000000
58.476893 -48.014489 3.844546 8.00000000
49.955660 -55.064804 -51.083882 8.00000000
58.492458 -47.999776 -22.644123 8.00000000
56.705239 -49.689139 -32.219773 8.00000000
49.702937 -55.235090 -22.963312 8.00000000
54.229376 -51.790764 -15.746904 8.00000000
54.058794 -51.935164 -24.868498 8.00000000
53.405924 -52.478070 -19.087646 8.00000000
49.299070 -55.507217 -37.728815 8.00000000
56.534637 -49.839333 -46.762664 8.00000000
58.987872 -47.531488 -10.686568 8.00000000
55.099657 -51.054061 -29.775364 8.00000000
56.346479 -49.998611 -44.784847 8.00000000
47.699091 -56.585289 -58.960133 8.00000000
49.762691 -55.194828 -43.571391 8.00000000
49.748853 -55.204152 -57.493610 8.00000000
55.488147 -50.725199 -37.165657 8.00000000
53.148842 -52.672573 -5.344215 8.00000000
54.865496 -51.252281 -47.168126 8.00000000
59.074499 -47.449604 -9.270233 8.00000000
56.674781 -49.717929 -38.475235 8.00000000
54.423557 -51.626387 -52.773935 8.00000000
57.955272 -48.507550 -58.795168 8.00000000
55.592018 -50.637271 -11.088443 8.00000000
58.495866 -47.996555 -33.654862 8.00000000
57.543578 -48.896702 -35.708673 8.00000000
59.613545 -46.940072 -54.118876 8.00000000
47.606308 -56.647807 -44.474226 8.00000000
55.106523 -51.048248 -48.298307 8.00000000
59.359231 -47.180462 -48.950765 8.00000000
57.937387 -48.524455 -37.812758 8.00000000
52.345876 -53.280082 -56.391348 8.00000000
58.965821 -47.552332 -2.194094 8.00000000
58.194198 -48.281706 -2.359387 8.00000000
56.418743 -49.937438 -11.175988 8.00000000
52.203666 -53.387675 -54.309077 8.00000000
51.966934 -53.566782 -49.511304 8.00000000
48.462825 -56.070682 -21.833843 8.00000000
53.340352 -52.527681 -52.058320 8.00000000
52.581818 -53.101573 -22.497820 8.00000000
53.352320 -52.518626 -38.194803 8.00000000
49.447814 -55.406992 -8.763164 8.00000000
50.074734 -54.984571 -19.269424 8.00000000
48.749979 -55.877197 -57.773812 8.00000000
48.488246 -56.053554 -52.960914 8.00000000
46.879198 -57.137737 -13.452372 8.00000000
49.763979 -55.193959 -20.352234 8.00000000
52.385638 -53.249999 -32.792095 8.00000000
47.580201 -56.665398 -38.424133 8.00000000
50.355588 -54.785896 -39.052781 8.00000000
47.042242 -57.027877 -37.414608 8.00000000
58.325851 -48.157261 -26.519215 8.00000000
55.800234 -50.461013 -10.623726 8.00000000
55.062238 -51.085736 -38.436370 8.00000000
52.987324 -52.794775 -23.651185 8.00000000
58.316763 -48.165851 2.170968 8.00000000
58.103607 -48.367337 -36.468037 8.00000000
59.205082 -47.326171 -48.433783 8.00000000
57.328077 -49.100404 -11.377752 8.00000000
55.069982 -51.079181 -59.818012 8.00000000
54.441359 -51.611318 -17.673104 8.00000000
53.746556 -52.199477 -42.833468 8.00000000
54.756394 -51.344637 -21.995967 8.00000000
57.361191 -49.069103 -41.819827 8.00000000
56.649225 -49.742086 -2.536105 8.00000000
47.707025 -56.579944 -14.943455 8.00000000
55.593601 -50.635931 -40.865247 8.00000000
57.920934 -48.540008 -43.232486 8.00000000
56.020099 -50.274896 -40.732488 8.00000000
56.837389 -49.564225 -60.434494 8.00000000
58.721762 -47.783027 -3.931469 8.00000000
56.060744 -50.240489 -10.095292 8.00000000
51.421108 -53.979744 -27.415067 8.00000000
56.375673 -49.973897 -28.054097 8.00000000
59.004858 -47.515432 -0.274240 8.00000000
48.464040 -56.069863 -60.762401 8.00000000
48.239037 -56.221472 -47.224270 8.00000000
57.944526 -48.517707 -33.689628 8.00000000
47.043673 -57.026913 -39.810147 8.00000000
55.988548 -50.301603 -44.352618 8.00000000
48.345054 -56.150037 -13.713882 8.00000000
51.111089 -54.214298 -22.738093 8.00000000
48.875613 -55.792544 -17.193895 8.00000000
49.502577 -55.370093 -49.021375 8.00000000
57.503930 -48.934179 -0.563213 8.00000000
57.602862 -48.840664 -16.348393 8.00000000
51.734724 -53.742468 -29.480499 8.00000000
47.646776 -56.620540 -13.050705 8.00000000
48.711020 -55.903448 -13.663782 8.00000000
51.769427 -53.716212 -9.979395 8.00000000
53.169920 -52.656626 -32.447048 8.00000000
56.432698 -49.925625 -0.121202 8.00000000
58.598603 -47.899443 -49.606657 8.00000000
53.350266 -52.520180 -56.073118 8.00000000
47.450860 -56.752548 -39.470922 8.00000000
52.744844 -52.978230 -42.143896 8.00000000
53.482790 -52.419915 -59.857084 8.00000000
51.375088 -54.014562 -38.127047 8.00000000
52.497665 -53.165241 -29.748440 8.00000000
52.956860 -52.817824 -38.784573 8.00000000
55.193387 -50.974717 -32.877366 8.00000000
55.164937 -50.998800 -20.537651 8.00000000
53.568015 -52.350614 3.308159 8.00000000
46.890350 -57.130222 -6.711718 8.00000000
54.903640 -51.219991 -51.546518 8.00000000
58.787098 -47.721269 -15.744847 8.00000000
59.627401 -46.926976 -15.743890 8.00000000
54.125062 -51.879067 -32.952171 8.00000000
54.060939 -51.933348 -8.257224 8.00000000
58.284104 -48.196723 -43.744225 8.00000000
59.515748 -47.032515 -35.138168 8.00000000
51.064378 -54.249639 -0.555226 8.00000000
54.283682 -51.744793 -35.598279 8.00000000
50.476895 -54.694117 -34.300380 8.00000000
59.508565 -47.039305 -2.532778 8.00000000
53.313604 -52.547918 -37.460434 8.00000000
56.912496 -49.493230 -20.781774 8.00000000
47.194103 -56.925552 -58.113210 8.00000000
50.331352 -54.804232 -15.112090 8.00000000
53.050306 -52.747124 -6.513546 8.00000000
59.156597 -47.372001 -14.699130 8.00000000
52.026665 -53.521591 -50.825883 8.00000000
56.370169 -49.978556 -9.294281 8.00000000
53.152824 -52.669561 -16.219690 8.00000000
50.123489 -54.951720 -15.486949 8.00000000
57.946771 -48.515585 -43.625340 8.00000000
57.273858 -49.151654 -56.388941 8.00000000
46.922025 -57.108879 -7.209070 8.00000000
48.070208 -56.335229 -37.234666 8.00000000
47.591345 -56.657889 -36.016084 8.00000000
54.921819 -51.204603 -18.074519 8.00000000
53.533567 -52.379775 -28.345625 8.00000000
48.274980 -56.197253 -6.082230 8.00000000
52.000857 -53.541117 -16.905082 8.00000000
51.395247 -53.999310 -10.487098 8.00000000
50.366646 -54.777530 -49.727499 8.00000000
59.596305 -46.956369 -33.915036 8.00000000
55.081817 -51.069162 -48.724445 8.00000000
50.176647 -54.915902 -19.861266 8.00000000
50.824776 -54.430917 -23.013551 8.00000000
57.226154 -49.196746 -21.278755 8.00000000
51.096844 -54.225076 -58.973192 8.00000000
53.645389 -52.285116 -15.507887 8.00000000
49.688254 -55.244983 -23.644744 8.00000000
57.322009 -49.106139 -30.867327 8.00000000
58.195159 -48.280797 -29.688220 8.00000000
52.433919 -53.213470 -40.972113 8.00000000
51.194684 -54.151052 -15.453892 8.00000000
58.054435 -48.413816 -15.958209 8.00000000
50.744053 -54.491991 -43.074853 8.00000000
52.917635 -52.847500 -46.449110 8.00000000
56.999739 -49.410764 -48.979380 8.00000000
55.579985 -50.647457 -41.948591 8.00000000
52.059655 -53.496631 -24.866382 8.00000000
58.314648 -48.167851 -46.972492 8.00000000
49.092923 -55.646120 -40.176589 8.00000000
48.075777 -56.331477 -38.083738 8.00000000
57.531854 -48.907784 -23.576491 8.00000000
54.434945 -51.616747 -44.887892 8.00000000
54.673784 -51.414567 -25.966990 8.00000000
50.028791 -55.015528 -29.941596 8.00000000
52.639858 -53.057661 -49.989409 8.00000000
47.607922 -56.646719 -53.992303 8.00000000
58.249304 -48.229617 -25.102692 8.00000000
53.110363 -52.701686 -59.845682 8.00000000
51.277013 -54.088763 -56.343189 8.00000000
57.686612 -48.761499 -20.283410 8.00000000
55.664898 -50.575577 -29.619851 8.00000000
58.630260 -47.869520 -25.957302 8.00000000
46.860970 -57.150019 -28.695658 8.00000000
50.512504 -54.667176 -3.944170 8.00000000
54.066612 -51.928545 -59.534978 8.00000000
47.802160 -56.515841 -31.922989 8.00000000
48.864351 -55.800132 -24.324866 8.00000000
51.411469 -53.987037 -15.851106 8.00000000
55.101423 -51.052566 -41.875849 8.00000000
54.463317 -51.592730 -11.262689 8.00000000
55.957039 -50.328276 -14.869767 8.00000000
47.439650 -56.760102 -8.344505 8.00000000
46.969612 -57.076815 -0.582838 8.00000000
56.286122 -50.049704 -34.124945 8.00000000
54.127523 -51.876983 -2.096864 8.00000000
48.017419 -56.370799 -47.851475 8.00000000
46.838274 -57.165311 -40.460575 8.00000000
53.234139 -52.608039 -28.919844 8.00000000
52.565587 -53.113853 -60.825039 8.00000000
59.124176 -47.402647 -2.615911 8.00000000
47.268628 -56.875337 -19.089601 8.00000000
49.387821 -55.447417 -22.837201 8.00000000
59.072381 -47.451607 -33.666861 8.00000000
59.578554 -46.973148 -1.557089 8.00000000
51.722678 -53.751582 -34.470171 8.00000000
58.150221 -48.323275 -22.756991 8.00000000
56.936336 -49.470695 -2.624228 8.00000000
58.803459 -47.705804 -41.054789 8.00000000
52.464456 -53.190367 -14.303282 8.00000000
51.845278 -53.658825 -45.640375 8.00000000
49.090010 -55.648083 -23.091485 8.00000000
48.062722 -56.340273 -6.554634 8.00000000
48.819399 -55.830421 -11.707071 8.00000000
57.469925 -48.966322 -55.891340 8.00000000
54.445735 -51.607614 -4.094763 8.00000000
51.961778 -53.570683 -13.443160 8.00000000
48.891930 -55.781550 -16.083586 8.00000000
52.514853 -53.152238 -57.489587 8.00000000
58.462225 -48.028354 -19.900656 8.00000000
58.367134 -48.118238 -8.877061 8.00000000
54.384631 -51.659338 -48.961744 8.00000000
52.118357 -53.452219 -40.092361 8.00000000
53.404534 -52.479122 -43.474743 8.00000000
54.681077 -51.408393 -51.901322 8.00000000
51.020805 -54.282605 -52.226230 8.00000000
53.270944 -52.580194 -36.720641 8.00000000
52.270810 -53.336875 -53.820383 8.00000000
51.853121 -53.652891 -32.986553 8.00000000
50.612796 -54.591297 -2.056264 8.00000000
49.583311 -55.315694 -3.457992 8.00000000
47.754068 -56.548245 -30.069180 8.00000000
51.247637 -54.110989 -9.489867 8.00000000
55.329404 -50.859577 -13.247303 8.00000000
49.220464 -55.560182 -19.688911 8.00000000
54.407996 -51.639560 -30.034246 8.00000000
53.650670 -52.280645 -4.119307 8.00000000
58.111335 -48.360032 -24.049850 8.00000000
50.876404 -54.391856 -50.322065 8.00000000
56.853861 -49.548655 -50.193826 8.00000000
58.030941 -48.436023 -8.586835 8.00000000
54.058890 -51.935083 1.438751 8.00000000
53.200532 -52.633466 -12.161636 8.00000000
58.273835 -48.206429 -40.161173 8.00000000
53.393809 -52.487236 -36.042244 8.00000000
55.685824 -50.557863 -18.059130 8.00000000
58.327736 -48.155479 -45.792574 8.00000000
53.922834 -52.050256 -8.719642 8.00000000
53.601181 -52.322538 -38.502946 8.00000000
50.985274 -54.309488 -35.094627 8.00000000
57.120259 -49.296843 -10.274045 8.00000000
57.002909 -49.407767 -41.779307 8.00000000
56.059184 -50.241810 -32.380918 8.00000000
52.504429 -53.160124 -14.889394 8.00000000
56.919624 -49.486492 -31.220012 8.00000000
52.979345 -52.800812 -19.567150 8.00000000
55.704160 -50.542342 -38.477772 8.00000000
54.729873 -51.367087 -52.741654 8.00000000
54.860014 -51.256921 -34.929992 8.00000000
52.307750 -53.308928 -13.651515 8.00000000
56.654330 -49.737260 -44.622740 8.00000000
57.095637 -49.320116 0.533424 8.00000000
55.487080 -50.726102 -20.816327 8.00000000
55.723436 -50.526024 -50.283731 8.00000000
57.115746 -49.301109 -5.112057 8.00000000
49.456204 -55.401339 0.014689 8.00000000
48.283807 -56.191306 -41.852408 8.00000000
47.323234 -56.838543 -34.272082 8.00000000
49.675755 -55.253405 -15.422565 8.00000000
53.422797 -52.465304 -18.603847 8.00000000
58.521936 -47.971913 -55.280756 8.00000000
57.039792 -49.372903 -60.755137 8.00000000
58.999130 -47.520846 -38.018065 8.00000000
57.063446 -49.350545 -44.581106 8.00000000
55.425580 -50.778163 -22.905485 8.00000000
51.336052 -54.044096 -12.981301 8.00000000
47.560579 -56.678619 -3.269999 8.00000000
50.900561 -54.373580 -20.284450 8.00000000
56.584318 -49.797277 -9.689534 8.00000000
53.528917 -52.383711 -5.258137 8.00000000
57.675119 -48.772363 -48.276772 8.00000000
49.349522 -55.473222 -5.048904 8.00000000
48.162450 -56.273076 -8.933226 8.00000000
57.800166 -48.654163 3.620298 8.00000000
50.151053 -54.933148 -27.078334 8.00000000
51.888381 -53.626214 -5.388303 8.00000000
56.751810 -49.645118 -6.689797 8.00000000
57.502578 -48.935457 -5.301878 8.00000000
52.961285 -52.814476 -1.319679 8.00000000
48.528237 -56.026607 2.394009 8.00000000
58.575766 -47.921029 -59.575908 8.00000000
56.644767 -49.746106 -17.614134 8.00000000
57.705868 -48.743298 -52.711979 8.00000000
53.291148 -52.564907 -21.429652 8.00000000
52.186655 -53.400546 -7.420658 8.00000000
56.132308 -50.179909 3.714737 8.00000000
53.168158 -52.657959 -50.264655 8.00000000
56.092626 -50.213501 -47.352463 8.00000000
50.235027 -54.876566 -33.166400 8.00000000
56.623770 -49.763880 -6.168082 8.00000000
51.830581 -53.669944 -39.674354 8.00000000
58.242216 -48.236317 -59.072017 8.00000000
57.711003 -48.738444 -49.112095 8.00000000
53.246163 -52.598942 -49.278387 8.00000000
58.639298 -47.860977 -22.275743 8.00000000
57.872895 -48.585417 -28.415506 8.00000000
55.335490 -50.854425 -9.064478 8.00000000
47.527786 -56.700716 3.021595 8.00000000
58.000725 -48.464585 -46.894891 8.00000000
58.205152 -48.271351 -50.204670 8.00000000
56.584544 -49.797086 -0.745706 8.00000000
57.257694 -49.166933 -16.827123 8.00000000
48.672771 -55.929220 -44.224443 8.00000000
55.643826 -50.593415 -38.942507 8.00000000
53.654252 -52.277613 -54.735139 8.00000000
52.875937 -52.879048 -31.413021 8.00000000
51.582763 -53.857439 -56.089010 8.00000000
52.689204 -53.020327 -10.870790 8.00000000
59.158629 -47.370080 -42.259783 8.00000000
48.671295 -55.930214 -59.561093 8.00000000
58.956556 -47.561090 -28.288581 8.00000000
48.149742 -56.281639 -61.000640 8.00000000
58.437510 -48.051716 2.673165 8.00000000
48.757664 -55.872018 -15.416557 8.00000000
57.442634 -48.992119 -23.042917 8.00000000
49.569833 -55.324776 -37.497755 8.00000000
56.148007 -50.166619 -38.029595 8.00000000
53.171574 -52.655375 -56.969658 8.00000000
59.095854 -47.429418 -14.203002 8.00000000
58.716100 -47.788380 2.456393 8.00000000
59.296215 -47.240028 -15.650010 8.00000000
46.995550 -57.059338 -21.168916 8.00000000
59.597373 -46.955359 -5.484326 8.00000000
51.805253 -53.689107 -39.216615 8.00000000
51.372448 -54.016559 -1.518355 8.00000000
56.528360 -49.844646 -13.537167 8.00000000
49.991037 -55.040967 -25.546147 8.00000000
58.960649 -47.557221 -45.658059 8.00000000
49.091652 -55.646976 -27.843933 8.00000000
53.439118 -52.452956 -26.581901 8.00000000
56.929180 -49.477460 -38.767254 8.00000000
50.324475 -54.809435 -43.635985 8.00000000
53.427293 -52.461903 -4.434784 8.00000000
58.310337 -48.171925 -58.573362 8.00000000
47.325915 -56.836737 3.872670 8.00000000
51.290319 -54.078696 -27.923618 8.00000000
54.382256 -51.661349 -18.297080 8.00000000
56.982726 -49.426845 -39.963085 8.00000000
57.968562 -48.494987 -46.433869 8.00000000
56.489639 -49.877424 3.286942 8.00000000
49.948926 -55.069342 -37.396748 8.00000000
55.908095 -50.369708 -5.109720 8.00000000
58.244997 -48.233688 -6.241191 8.00000000
49.032546 -55.686802 -12.659555 8.00000000
55.518200 -50.699759 -2.080275 8.00000000
49.445313 -55.408678 -28.571042 8.00000000
58.842781 -47.668635 -34.869482 8.00000000
56.868006 -49.535284 -17.315232 8.00000000
51.188111 -54.156025 -23.146518 8.00000000
55.166775 -50.997244 -56.773398 8.00000000
51.622445 -53.827416 -52.084530 8.00000000
57.998123 -48.467045 -25.620536 8.00000000
51.652486 -53.804688 -15.434091 8.00000000
59.315584 -47.221719 -24.084524 8.00000000
55.945838 -50.337758 -38.735391 8.00000000
55.469825 -50.740709 -2.656537 8.00000000
52.964590 -52.811975 -17.634401 8.00000000
57.193516 -49.227597 -41.405848 8.00000000
58.864367 -47.648230 -11.096794 8.00000000
52.446647 -53.203841 -4.286470 8.00000000
48.145105 -56.284763 -50.908061 8.00000000
51.794549 -53.697206 2.972780 8.00000000
51.822963 -53.675708 -37.454631 8.00000000
55.003889 -51.135129 -10.011073 8.00000000
49.734226 -55.214007 -9.584561 8.00000000
50.578329 -54.617374 -33.873284 8.00000000
59.535353 -47.013984 -14.595708 8.00000000
58.643203 -47.857285 -1.582735 8.00000000
54.693684 -51.397721 -44.123348 8.00000000
55.163827 -50.999740 -12.766949 8.00000000
55.798692 -50.462319 -48.428612 8.00000000
49.442152 -55.410808 2.998662 8.00000000
55.113896 -51.042007 -39.893170 8.00000000
58.432991 -48.055988 -50.911567 8.00000000
51.441876 -53.964031 -8.010495 8.00000000
54.186696 -51.826893 -34.279942 8.00000000
58.889705 -47.624280 -0.939663 8.00000000
49.645442 -55.273830 -17.989796 8.00000000
51.751333 -53.729902 -11.339585 8.00000000
56.461084 -49.901596 0.343731 8.00000000
56.893396 -49.511284 -58.119611 8.00000000
58.479386 -48.012132 -34.727127 8.00000000
50.980115 -54.313391 -13.067694 8.00000000
58.051413 -48.416673 -52.636840 8.00000000
55.685549 -50.558096 -43.927710 8.00000000
55.699319 -50.546440 -11.961532 8.00000000
46.858241 -57.151858 -60.465586 8.00000000
53.198952 -52.634661 -28.509734 8.00000000
47.225087 -56.904675 -51.291969 8.00000000
58.569173 -47.927262 -12.235301 8.00000000
49.243724 -55.544509 -13.166730 8.00000000
56.878013 -49.525825 -58.930507 8.00000000
59.567794 -46.983319 -47.701802 8.00000000
56.837391 -49.564223 -21.719862 8.00000000
57.750120 -48.701469 -12.584880 8.00000000
54.695842 -51.395895 -49.191309 8.00000000
54.044549 -51.947223 -61.015977 8.00000000
48.422858 -56.097613 -27.102587 8.00000000
50.944986 -54.339969 -6.548014 8.00000000
54.461235 -51.594492 -39.810248 8.00000000
46.852817 -57.155512 -30.014313 8.00000000
47.475402 -56.736012 -2.526094 8.00000000
46.840820 -57.163596 -27.430398 8.00000000
58.650535 -47.850355 -39.503849 8.00000000
48.659564 -55.938119 -18.785486 8.00000000
58.257977 -48.221418 -27.030843 8.00000000
59.309707 -47.227275 -55.152439 8.00000000
50.481773 -54.690427 -47.744903 8.00000000
49.605127 -55.300994 -17.502794 8.00000000
55.114226 -51.041728 -28.478881 8.00000000
52.605288 -53.083816 -5.271421 8.00000000
56.046780 -50.252309 -9.292522 8.00000000
47.379188 -56.800842 1.886694 8.00000000
48.308908 -56.174392 -25.305516 8.00000000
56.177075 -50.142013 -27.346385 8.00000000
56.775212 -49.622997 -13.926975 8.00000000
51.444861 -53.961773 -45.602850 8.00000000
55.434368 -50.770724 -24.246761 8.00000000
52.637603 -53.059367 1.852077 8.00000000
50.497167 -54.678780 -0.310444 8.00000000
49.834908 -55.146167 -42.466608 8.00000000
47.922103 -56.435023 -3.523226 8.00000000
55.606471 -50.625036 -44.421317 8.00000000
59.540937 -47.008705 1.558018 8.00000000
49.362981 -55.464154 -25.733743 8.00000000
47.526752 -56.701412 -29.511941 8.00000000
50.927371 -54.353296 -56.591033 8.00000000
48.236399 -56.223249 -42.639179 8.00000000
56.175095 -50.143689 -54.405352 8.00000000
58.625345 -47.874166 -13.697252 8.00000000
54.003286 -51.982152 -1.526187 8.00000000
50.773882 -54.469423 -20.945046 8.00000000
57.390172 -49.041709 -40.959137 8.00000000
58.835785 -47.675248 -5.283810 8.00000000
49.131572 -55.620078 -14.372042 8.00000000
53.770499 -52.179209 0.195178 8.00000000
46.916852 -57.112365 -17.848673 8.00000000
56.086068 -50.219052 -36.045079 8.00000000
52.671008 -53.034094 -17.484696 8.00000000
57.227730 -49.195256 -14.980428 8.00000000
49.813623 -55.160509 -14.509279 8.00000000
58.070575 -48.398560 1.461747 8.00000000
59.285961 -47.249721 -33.348086 8.00000000
57.961046 -48.502092 -29.156820 8.00000000
59.552272 -46.997991 -3.545185 8.00000000
48.515456 -56.035219 -1.206018 8.00000000
57.746781 -48.704625 -0.253783 8.00000000
50.978518 -54.314599 3.725943 8.00000000
49.247237 -55.542142 -39.020253 8.00000000
50.625856 -54.581416 -25.141026 8.00000000
53.898982 -52.070446 -41.212053 8.00000000
56.272038 -50.061626 -17.718489 8.00000000
52.393234 -53.244252 -34.517187 8.00000000
48.811480 -55.835757 -4.388740 8.00000000
58.916731 -47.598733 -12.500876 8.00000000
57.224014 -49.198768 -5.808650 8.00000000
58.625744 -47.873788 -10.743119 8.00000000
48.096263 -56.317673 -45.024576 8.00000000
51.910360 -53.609586 -54.629694 8.00000000
58.897430 -47.616978 -8.850697 8.00000000
50.716811 -54.512602 -29.482867 8.00000000
56.965668 -49.442970 -53.730951 8.00000000
56.541850 -49.833226 -40.257076 8.00000000
52.164374 -53.417403 -14.743275 8.00000000
56.031396 -50.265332 -45.193419 8.00000000
56.693717 -49.700030 -42.625436 8.00000000
59.361790 -47.178043 -32.848456 8.00000000
51.513525 -53.909823 0.467587 8.00000000
52.301774 -53.313449 -23.241020 8.00000000
57.129051 -49.288532 -29.528483 8.00000000
52.386111 -53.249641 -48.459473 8.00000000
50.789345 -54.457723 -18.580722 8.00000000
59.623454 -46.930707 -54.887464 8.00000000
58.049888 -48.418115 -39.142574 8.00000000
53.522522 -52.389125 -44.855122 8.00000000
51.888667 -53.625998 -59.297250 8.00000000
59.219295 -47.312736 -17.747581 8.00000000
53.518929 -52.392166 -46.657486 8.00000000
54.809572 -51.299621 -15.789790 8.00000000
55.905548 -50.371864 -3.897770 8.00000000
59.619610 -46.934340 3.384709 8.00000000
55.002535 -51.136275 -17.461545 8.00000000
50.693153 -54.530501 -38.144574 8.00000000
58.760043 -47.746843 -19.007506 8.00000000
55.204943 -50.964935 -2.249439 8.00000000
49.337697 -55.481190 -21.666569 8.00000000
56.667305 -49.724996 2.055572 8.00000000
57.605965 -48.837731 -19.766537 8.00000000
48.139930 -56.288250 -32.103947 8.00000000
48.945671 -55.745339 -34.750556 8.00000000
57.505785 -48.932426 -42.487367 8.00000000
53.165432 -52.660022 -46.745947 8.00000000
54.727965 -51.368702 -8.218060 8.00000000
52.253235 -53.350173 -3.572483 8.00000000
57.162529 -49.256887 -26.724774 8.00000000
58.379342 -48.106698 0.915886 8.00000000
54.986747 -51.149640 -40.370783 8.00000000
58.963631 -47.554402 -48.825846 8.00000000
49.487543 -55.380223 -6.706954 8.00000000
47.509489 -56.713044 -18.622731 8.00000000
48.815788 -55.832854 -19.148513 8.00000000
53.352998 -52.518113 -7.419010 8.00000000
53.806432 -52.148791 -45.168937 8.00000000
58.988343 -47.531043 -47.225374 8.00000000
57.703969 -48.745093 -8.747380 8.00000000
53.642506 -52.287556 -11.126855 8.00000000
48.905272 -55.772560 -22.065315 8.00000000
56.197553 -50.124679 -46.927609 8.00000000
53.291252 -52.564829 2.381851 8.00000000
48.016659 -56.371311 -34.752036 8.00000000
54.214749 -51.803146 -43.426651 8.00000000
47.666057 -56.607548 -51.257125 8.00000000
49.390570 -55.445564 -42.135285 8.00000000
54.055871 -51.937638 -0.109002 8.00000000
57.590561 -48.852291 -58.871397 8.00000000
59.035444 -47.486521 -26.800779 8.00000000
58.671087 -47.830928 -28.081290 8.00000000
57.621861 -48.822705 3.279142 8.00000000
50.295305 -54.831505 -22.710666 8.00000000
58.669832 -47.832115 -11.442344 8.00000000
48.680839 -55.923784 -14.208721 8.00000000
53.003729 -52.782363 -24.702608 8.00000000
55.038297 -51.106002 -19.444439 8.00000000
56.250875 -50.079541 -7.202293 8.00000000
52.558624 -53.119121 -18.597745 8.00000000
49.927688 -55.083652 -18.234572 8.00000000
46.914796 -57.113750 -42.342635 8.00000000
53.149618 -52.671986 -57.675302 8.00000000
47.805294 -56.513729 -53.160259 8.00000000
57.969552 -48.494052 -20.355640 8.00000000
58.696086 -47.807297 -2.020892 8.00000000
57.241768 -49.181987 -39.051328 8.00000000
59.617123 -46.936691 -8.668657 8.00000000
51.019507 -54.283587 -2.051328 8.00000000
53.432889 -52.457669 -53.803048 8.00000000
49.002978 -55.706725 -58.566782 8.00000000
48.889997 -55.782852 -42.461393 8.00000000
52.658088 -53.043869 -56.067569 8.00000000
52.526931 -53.143099 -43.814688 8.00000000
49.574126 -55.321883 -60.666114 8.00000000
55.333016 -50.856520 -9.777614 8.00000000
55.927814 -50.353016 -52.582861 8.00000000
54.402558 -51.644163 -13.992894 8.00000000
52.212388 -53.381077 2.014304 8.00000000
52.366847 -53.264216 -51.303927 8.00000000
57.510086 -48.928361 -15.396626 8.00000000
53.870986 -52.094146 -24.475007 8.00000000
56.083242 -50.221444 -60.109364 8.00000000
52.268582 -53.338561 -59.966609 8.00000000
52.356676 -53.271911 -34.061107 8.00000000
46.890398 -57.130190 -36.050677 8.00000000
47.436632 -56.762135 -53.239041 8.00000000
56.605926 -49.778985 -37.821428 8.00000000
46.890384 -57.130200 -36.612806 8.00000000
50.904010 -54.370971 -19.091501 8.00000000
53.883242 -52.083771 -34.743605 8.00000000
52.030689 -53.518547 -56.730329 8.00000000
49.047978 -55.676404 -36.312077 8.00000000
50.360380 -54.782271 -2.366608 8.00000000
50.402719 -54.750238 -57.928385 8.00000000
49.562069 -55.330007 -1.380029 8.00000000
52.505752 -53.159123 -42.449497 8.00000000
47.211776 -56.913644 3.247976 8.00000000
58.586185 -47.911181 -58.889942 8.00000000
50.819653 -54.434793 -51.644689 8.00000000
49.180881 -55.586853 -3.182211 8.00000000
47.323502 -56.838363 -33.753670 8.00000000
47.222649 -56.906318 -23.629555 8.00000000
49.597796 -55.305934 -21.331060 8.00000000
51.481515 -53.934041 -23.608538 8.00000000
53.289934 -52.565826 -51.120662 8.00000000
56.755534 -49.641597 -35.524847 8.00000000
55.809020 -50.453576 -38.078134 8.00000000
48.918031 -55.763963 -45.180347 8.00000000
54.014050 -51.973040 -42.524940 8.00000000
53.660100 -52.272663 -50.247778 8.00000000
47.970837 -56.402186 -19.323900 8.00000000
51.246596 -54.111777 -19.652144 8.00000000
57.871932 -48.586326 -53.143271 8.00000000
49.667666 -55.258855 -36.143548 8.00000000
54.842888 -51.271419 -45.858319 8.00000000
57.584520 -48.858002 -57.325137 8.00000000
58.551369 -47.944091 -27.398456 8.00000000
47.885393 -56.459758 -13.428757 8.00000000
58.863588 -47.648967 -44.409532 8.00000000
49.764759 -55.193434 1.102834 8.00000000
58.402418 -48.084886 -0.778383 8.00000000
48.990606 -55.715062 2.863238 8.00000000
46.860419 -57.150390 -61.031138 8.00000000
53.007111 -52.779805 -13.795743 8.00000000
58.732600 -47.772783 -21.853006 8.00000000
50.641947 -54.569242 -26.080575 8.00000000
55.320758 -50.866896 -26.667006 8.00000000
48.285740 -56.190003 -52.485131 8.00000000
48.998089 -55.710019 -6.394849 8.00000000
57.081701 -49.333290 -17.717588 8.00000000
58.449099 -48.040761 -23.133024 8.00000000
50.148668 -54.934754 -34.238752 8.00000000
53.272824 -52.578771 -60.616995 8.00000000
58.491984 -48.000224 -56.383483 8.00000000
47.008093 -57.050887 -54.708783 8.00000000
58.390917 -48.095758 -1.775836 8.00000000
55.160682 -51.002402 -1.322128 8.00000000
50.134520 -54.944287 -7.909064 8.00000000
55.324862 -50.863421 -58.809436 8.00000000
46.942561 -57.095043 -31.286331 8.00000000
57.251604 -49.172689 -39.575642 8.00000000
49.049794 -55.675180 -13.499479 8.00000000
56.020682 -50.274402 -52.174476 8.00000000
57.584723 -48.857810 -18.106742 8.00000000
57.218362 -49.204112 -19.107905 8.00000000
48.348546 -56.147684 -58.897911 8.00000000
49.749049 -55.204020 -56.077524 8.00000000
54.773082 -51.330510 -56.777052 8.00000000
53.540797 -52.373655 -31.917272 8.00000000
54.884309 -51.236355 -35.498285 8.00000000
54.901664 -51.221664 -60.745652 8.00000000
52.650292 -53.049767 -20.975710 8.00000000
54.795830 -51.311254 0.130831 8.00000000
57.173298 -49.246708 -55.932905 8.00000000
55.305564 -50.879757 -46.164049 8.00000000
57.089431 -49.325983 -37.276217 8.00000000
49.673356 -55.255021 -19.432580 8.00000000
56.871767 -49.531729 -26.177183 8.00000000
55.926726 -50.353936 -8.247066 8.00000000
49.907478 -55.097269 -10.669502 8.00000000
56.649676 -49.741660 -4.835929 8.00000000
54.721531 -51.374149 -12.493727 8.00000000
50.385101 -54.763567 -1.045341 8.00000000
47.915286 -56.439616 -23.952967 8.00000000
53.018713 -52.771027 -25.761431 8.00000000
52.770529 -52.958798 -3.980850 8.00000000
59.104723 -47.421035 -3.786548 8.00000000
52.267116 -53.339671 -9.370337 8.00000000
48.379095 -56.127100 -40.566924 8.00000000
51.603739 -53.841569 -26.326693 8.00000000
50.076829 -54.983160 -38.795311 8.00000000
47.578478 -56.666559 -10.151429 8.00000000
54.350030 -51.688629 -0.998612 8.00000000
50.802912 -54.447459 -34.705194 8.00000000
47.494780 -56.722955 -14.452256 8.00000000
49.902999 -55.100287 -42.917660 8.00000000
54.668206 -51.419289 -53.921183 8.00000000
54.526228 -51.539475 -38.893443 8.00000000
50.556702 -54.633737 -41.218390 8.00000000
55.337321 -50.852875 -50.354611 8.00000000
50.902577 -54.372055 -23.396183 8.00000000
58.271936 -48.208224 -33.979379 8.00000000
49.602456 -55.302794 -39.482549 8.00000000
