63.964153 54.364125 -57.141134 7.00000000
63.645783 54.740213 -38.102666 7.00000000
67.357046 50.050394 3.860642 7.00000000
63.900123 54.439763 -46.081471 7.00000000
63.671161 54.710234 -19.679989 7.00000000
64.803149 53.373027 -22.111928 7.00000000
66.814101 50.768029 -44.315886 7.00000000
64.450236 53.789920 -21.422118 7.00000000
63.838382 54.512697 -11.149723 7.00000000
65.317152 52.746591 -33.785279 7.00000000
61.990707 56.628994 -31.439106 7.00000000
65.802472 52.111142 -27.969781 7.00000000
66.387203 51.332276 -23.232361 7.00000000
65.655799 52.299002 -50.303321 7.00000000
61.932912 56.690138 -47.458282 7.00000000
66.040124 51.791025 -48.739792 7.00000000
60.432009 58.278014 -34.402851 7.00000000
65.611433 52.377408 -25.639906 7.00000000
69.912561 46.306246 -15.471297 7.00000000
68.405568 48.542854 -20.473489 7.00000000
66.802094 50.783893 3.852918 7.00000000
67.105698 50.382614 -40.818309 7.00000000
68.829256 47.914026 -36.380132 7.00000000
68.369024 48.597078 -59.770915 7.00000000
67.843709 49.376729 -44.268068 7.00000000
60.797740 57.891090 -39.826226 7.00000000
67.757516 49.504650 -48.475322 7.00000000
65.907354 51.969532 -25.582927 7.00000000
66.010285 51.849032 -8.433303 7.00000000
69.522432 46.885255 -10.852421 7.00000000
64.853248 53.313845 -3.086155 7.00000000
60.110687 58.617956 -12.175264 7.00000000
68.748007 48.034612 -50.812645 7.00000000
68.893062 47.819333 -22.965488 7.00000000
60.081962 58.648345 -13.943420 7.00000000
60.301962 58.415597 -46.763612 7.00000000
63.122404 55.358475 -45.366396 7.00000000
69.441763 47.004979 -32.565436 7.00000000
62.684029 55.876336 -8.992438 7.00000000
66.660123 50.971548 -53.649645 7.00000000
62.297220 56.304719 -43.357244 7.00000000
66.808855 50.774962 -24.272844 7.00000000
68.184962 48.870258 -38.194088 7.00000000
63.749591 54.617586 -48.775329 7.00000000
65.867740 52.018871 -52.181046 7.00000000
67.586231 49.747474 -37.467607 7.00000000
61.042241 57.632421 -35.954434 7.00000000
67.543487 49.803971 -21.189374 7.00000000
61.083629 57.588635 -10.980143 7.00000000
60.061538 58.669952 -54.535377 7.00000000
65.303529 52.764599 -15.721762 7.00000000
68.761316 48.014877 -5.934729 7.00000000
63.876456 54.467720 -39.138198 7.00000000
62.024109 56.593656 -2.447401 7.00000000
67.660531 49.648584 -8.735053 7.00000000
66.549342 51.117971 -42.602969 7.00000000
66.043184 51.786978 -30.885874 7.00000000
66.560619 51.103062 -8.297247 7.00000000
61.665424 56.973126 -10.868968 7.00000000
66.964421 50.569343 -5.916704 7.00000000
63.358357 55.079746 -20.763846 7.00000000
61.732695 56.901956 -14.816561 7.00000000
61.569412 57.074702 -58.074392 7.00000000
66.161188 51.631009 -36.842776 7.00000000
60.584553 58.116631 -19.079232 7.00000000
63.697619 54.678979 -53.666289 7.00000000
62.286237 56.316338 -2.577780 7.00000000
67.112258 50.373939 3.821799 7.00000000
65.927584 51.939773 -46.473413 7.00000000
60.586603 58.114461 -35.865360 7.00000000
64.376902 53.876549 -13.286493 7.00000000
65.268029 52.811524 -32.892105 7.00000000
60.057809 58.673898 -34.308995 7.00000000
61.047292 57.627077 -47.825925 7.00000000
63.111737 55.384404 -2.178334 7.00000000
68.935804 47.755894 -25.181873 7.00000000
67.672202 49.631263 -52.655310 7.00000000
63.291101 55.159194 -40.523277 7.00000000
62.306097 56.295328 -6.749955 7.00000000
65.818414 52.084068 -50.906417 7.00000000
68.427634 48.510092 -49.942321 7.00000000
65.716548 52.239553 -4.285774 7.00000000
63.791130 54.568515 -14.332639 7.00000000
68.463195 48.457315 -36.844267 7.00000000
59.892321 58.848976 -3.326583 7.00000000
67.451846 49.925096 -7.198128 7.00000000
68.108452 48.983804 -58.557911 7.00000000
65.568160 52.414838 -60.820410 7.00000000
66.012330 51.827761 -46.055180 7.00000000
69.003196 47.655889 -5.855912 7.00000000
64.084369 54.222115 -43.774901 7.00000000
64.385872 53.865952 -48.577784 7.00000000
65.457887 52.560591 -59.915612 7.00000000
66.825782 50.752589 -14.697575 7.00000000
65.733367 52.196476 -38.255775 7.00000000
68.603889 48.248521 -10.896725 7.00000000
61.900603 56.724319 3.803530 7.00000000
59.934788 58.804048 -6.230855 7.00000000
61.330175 57.327802 -11.788342 7.00000000
65.053258 53.077575 -29.007406 7.00000000
68.046694 49.075461 -59.696648 7.00000000
68.736837 48.051212 1.588601 7.00000000
69.290522 47.229442 -42.702531 7.00000000
66.174353 51.616127 -13.825012 7.00000000
59.790544 58.956650 -20.736256 7.00000000
61.995042 56.624407 -58.386296 7.00000000
63.578104 54.820161 -60.942658 7.00000000
69.413806 47.046471 -38.060059 7.00000000
64.538812 53.685285 -42.969938 7.00000000
68.515398 48.379837 -48.192032 7.00000000
61.119745 57.550426 -21.649892 7.00000000
61.528706 57.117766 -31.367133 7.00000000
69.627749 46.728948 -49.649155 7.00000000
64.267806 54.005423 -23.711875 7.00000000
64.608997 53.602376 -32.065504 7.00000000
67.726610 49.550516 -7.258868 7.00000000
69.644546 46.704020 -2.718625 7.00000000
62.097704 56.515796 2.511922 7.00000000
61.207857 57.457208 -9.878495 7.00000000
65.130911 52.985844 -50.832143 7.00000000
63.786648 54.573810 -40.830411 7.00000000
65.709501 52.243188 2.891287 7.00000000
64.625280 53.583141 -28.221955 7.00000000
64.675693 53.523589 -60.870821 7.00000000
68.396609 48.556160 -6.721924 7.00000000
67.739268 49.531730 0.674575 7.00000000
63.226384 55.235644 -35.033790 7.00000000
67.735862 49.536785 -15.218885 7.00000000
60.686721 58.008542 -0.538250 7.00000000
63.383258 55.050330 -13.077273 7.00000000
60.649554 58.047863 -12.468494 7.00000000
68.703434 48.100765 -54.610579 7.00000000
67.296969 50.129803 -51.432859 7.00000000
67.231871 50.215845 -52.313850 7.00000000
68.862687 47.864415 -20.213559 7.00000000
67.830091 49.396934 -51.739263 7.00000000
62.797113 55.750884 -30.090757 7.00000000
64.864809 53.300188 -35.604874 7.00000000
66.898712 50.656194 -29.447603 7.00000000
69.878721 46.356470 -9.191506 7.00000000
63.281128 55.170975 -31.124780 7.00000000
62.980151 55.526518 -53.378875 7.00000000
63.743814 54.624408 2.317896 7.00000000
67.479450 49.888610 -58.707963 7.00000000
59.992848 58.742624 -25.591588 7.00000000
60.738644 57.953610 -59.675813 7.00000000
69.189168 47.379866 -39.561247 7.00000000
69.706013 46.612793 -15.220277 7.00000000
69.206292 47.354451 -25.280888 7.00000000
63.438976 54.984511 -29.516787 7.00000000
60.575546 58.126159 -40.202064 7.00000000
66.795066 50.793188 -49.278678 7.00000000
65.557604 52.435056 -38.911862 7.00000000
62.679672 55.881483 -4.381412 7.00000000
61.047705 57.626640 -30.186998 7.00000000
60.925778 57.755632 -45.013226 7.00000000
67.364122 50.041044 -39.025309 7.00000000
64.073718 54.234697 -33.076193 7.00000000
65.946437 51.935031 -10.052260 7.00000000
69.916740 46.300044 -41.610349 7.00000000
66.276041 51.489115 -3.268107 7.00000000
65.574801 52.420983 -31.189335 7.00000000
68.552243 48.325175 -5.684191 7.00000000
68.164930 48.900011 -3.058542 7.00000000
61.613562 57.027993 -17.031084 7.00000000
69.262594 47.270891 -50.399244 7.00000000
67.667973 49.637539 -17.529556 7.00000000
62.634582 55.934743 -14.722577 7.00000000
69.644773 46.703688 3.074950 7.00000000
65.963341 51.928560 3.437885 7.00000000
60.487198 58.219627 -28.600844 7.00000000
65.029896 53.105173 -44.023694 7.00000000
69.311233 47.198705 -11.232931 7.00000000
62.523494 56.065334 -30.112372 7.00000000
61.432542 57.219503 -23.788138 7.00000000
66.745878 50.858199 -10.919222 7.00000000
62.847159 55.683620 -45.528800 7.00000000
69.495982 46.924510 -16.274549 7.00000000
61.768808 56.863751 -49.725793 7.00000000
66.582302 51.074407 -46.588287 7.00000000
61.179873 57.486813 -0.540425 7.00000000
63.934319 54.399367 -22.591235 7.00000000
65.455741 52.563427 -54.751940 7.00000000
64.610468 53.600640 -26.133323 7.00000000
62.881113 55.653941 -20.894907 7.00000000
69.553418 46.839267 -57.472411 7.00000000
65.714175 52.221845 -53.449478 7.00000000
66.371266 51.353341 -31.716709 7.00000000
69.379536 47.097333 -52.501527 7.00000000
65.557298 52.445856 -24.100302 7.00000000
68.523344 48.368044 -49.013739 7.00000000
67.668164 49.637255 -19.775766 7.00000000
60.386671 58.325979 -33.093541 7.00000000
68.839882 47.898259 -23.830671 7.00000000
67.154258 50.318429 -14.611734 7.00000000
66.626089 51.016531 -28.911343 7.00000000
68.548046 48.331406 -0.816417 7.00000000
64.578499 53.638403 -6.108443 7.00000000
66.974821 50.555598 -33.269999 7.00000000
60.589223 58.111689 -31.225044 7.00000000
67.552596 49.791930 -36.851843 7.00000000
65.463524 52.563237 -40.125204 7.00000000
63.234924 55.228251 -15.765091 7.00000000
60.290695 58.427517 -23.929317 7.00000000
66.039980 51.791215 -42.304830 7.00000000
60.377755 58.335412 -33.631533 7.00000000
65.533289 52.460927 -45.771167 7.00000000
63.186443 55.282827 -50.326124 7.00000000
68.176844 48.882324 -11.252727 7.00000000
69.445023 47.000140 -34.332203 7.00000000
61.397268 57.256821 -13.808799 7.00000000
68.453211 48.472143 -25.548831 7.00000000
60.715672 57.977913 -27.140570 7.00000000
62.298497 56.303368 -39.048076 7.00000000
61.195861 57.469899 -60.876928 7.00000000
61.444372 57.206987 -44.334949 7.00000000
66.746024 50.858009 -39.886193 7.00000000
63.878736 54.465027 -25.639002 7.00000000
66.676435 50.949985 -16.553033 7.00000000
59.875161 58.867130 -38.034784 7.00000000
67.251001 50.190561 -30.212571 7.00000000
61.594792 57.047851 -22.202660 7.00000000
69.934677 46.273423 -6.488909 7.00000000
61.374213 57.281212 -5.905076 7.00000000
63.442506 54.980342 -33.633633 7.00000000
67.321097 50.097912 -44.631811 7.00000000
68.826181 47.918611 -1.458736 7.00000000
68.011666 49.127452 -46.810318 7.00000000
60.982889 57.695212 -4.270004 7.00000000
63.608814 54.783883 -11.522028 7.00000000
66.336993 51.398640 -26.271538 7.00000000
61.689874 56.947260 -5.091775 7.00000000
60.621731 58.077298 -16.325444 7.00000000
66.004092 51.838650 -59.118506 7.00000000
61.597214 57.045288 -3.457927 7.00000000
66.079671 51.738750 -20.557720 7.00000000
67.072568 50.426403 -43.103128 7.00000000
62.983411 55.534834 -11.715767 7.00000000
69.400286 47.066537 -35.939479 7.00000000
67.243047 50.201074 -33.410646 7.00000000
61.286188 57.374338 -31.088050 7.00000000
60.805627 57.882746 -28.698098 7.00000000
64.446011 53.794911 -14.752542 7.00000000
65.755937 52.173061 -29.758821 7.00000000
69.525667 46.880460 0.355655 7.00000000
62.929825 55.585967 -47.982240 7.00000000
66.601682 51.048790 -17.502811 7.00000000
69.688426 46.638895 -12.474808 7.00000000
60.156746 58.569228 -10.297184 7.00000000
66.385189 51.334935 -16.216221 7.00000000
63.048583 55.445679 -51.610797 7.00000000
68.046226 49.076157 -48.089911 7.00000000
61.181234 57.485374 -51.778605 7.00000000
62.191390 56.416682 -36.753284 7.00000000
67.552243 49.792398 -44.410985 7.00000000
64.063860 54.246342 -37.011395 7.00000000
61.091140 57.580688 -13.204661 7.00000000
60.416980 58.293913 -20.824289 7.00000000
64.748559 53.437514 -53.626168 7.00000000
69.411824 47.049412 -22.382218 7.00000000
69.944908 46.258239 -28.339052 7.00000000
60.313011 58.403908 -18.963157 7.00000000
69.031164 47.614367 -57.911862 7.00000000
60.486774 58.220075 -44.819332 7.00000000
68.003369 49.139763 -57.798468 7.00000000
61.096099 57.575441 -37.947858 7.00000000
63.669407 54.712305 -59.987946 7.00000000
61.095711 57.575852 -29.732694 7.00000000
68.381953 48.577889 -56.261669 7.00000000
62.082236 56.532160 -26.508805 7.00000000
69.498347 46.921000 -25.882310 7.00000000
69.574845 46.807465 -19.922025 7.00000000
60.936068 57.744746 -36.363983 7.00000000
68.040757 49.084283 -35.025238 7.00000000
62.454658 56.138158 -41.093974 7.00000000
68.203949 48.842081 -34.574679 7.00000000
69.865955 46.375416 -16.317527 7.00000000
67.241446 50.203190 -29.747218 7.00000000
65.167483 52.942642 -9.932785 7.00000000
63.127957 55.351916 -42.183894 7.00000000
68.870429 47.852920 -27.936376 7.00000000
60.419856 58.290871 -37.352115 7.00000000
64.025989 54.291078 0.321803 7.00000000
69.893504 46.334530 -18.859147 7.00000000
69.599155 46.771387 -14.757735 7.00000000
64.976691 53.168023 -24.896952 7.00000000
62.360971 56.237274 2.303358 7.00000000
68.531997 48.355202 -39.594730 7.00000000
67.051395 50.454388 -24.429901 7.00000000
60.875742 57.808568 -23.847323 7.00000000
64.945990 53.204290 -25.669510 7.00000000
61.575807 57.067936 -48.282987 7.00000000
63.050661 55.448837 -20.586406 7.00000000
67.101370 50.388333 -6.481552 7.00000000
69.009964 47.645831 -55.038837 7.00000000
60.856708 57.828705 -58.637420 7.00000000
66.563109 51.099770 -7.512889 7.00000000
64.725920 53.464257 -41.828343 7.00000000
69.469567 46.963716 -5.945275 7.00000000
62.973773 55.536480 -31.120318 7.00000000
66.664539 50.965711 -37.897598 7.00000000
66.411270 51.300467 -29.714431 7.00000000
62.266726 56.336980 -42.928519 7.00000000
60.333617 58.382108 -48.755655 7.00000000
68.215751 48.824563 -36.565388 7.00000000
63.005633 55.510268 -7.190889 7.00000000
64.380623 53.872152 -53.174832 7.00000000
61.096985 57.574504 -33.331255 7.00000000
67.706911 49.579751 -47.991773 7.00000000
69.790793 46.486968 -29.107391 7.00000000
60.561279 58.141254 -41.745498 7.00000000
60.631432 58.067035 -33.880005 7.00000000
63.087965 55.415727 2.746512 7.00000000
63.620945 54.769553 -47.669235 7.00000000
66.681327 50.943522 -31.036097 7.00000000
62.910383 55.608934 -41.202324 7.00000000
68.838812 47.899849 -22.213760 7.00000000
61.231840 57.431835 -15.289149 7.00000000
62.422913 56.171743 -45.905681 7.00000000
65.914552 51.974165 -13.917367 7.00000000
60.948814 57.731261 -57.691521 7.00000000
69.894930 46.332413 -38.862427 7.00000000
69.327462 47.174626 -3.042864 7.00000000
63.558342 54.843506 -24.893851 7.00000000
60.605094 58.094899 -52.273303 7.00000000
69.659723 46.681494 -14.299825 7.00000000
69.543123 46.854546 -58.536435 7.00000000
62.689985 55.869301 0.515727 7.00000000
62.275069 56.328154 -22.778591 7.00000000
62.238348 56.367002 -44.108125 7.00000000
59.832848 58.911895 -44.595507 7.00000000
69.443362 47.002615 1.836111 7.00000000
65.447651 52.574091 -10.353323 7.00000000
69.777250 46.507068 -53.526214 7.00000000
69.945619 46.257183 -3.449793 7.00000000
63.299208 55.149618 -39.736856 7.00000000
69.016430 47.636238 -16.813710 7.00000000
68.250446 48.773064 -52.777366 7.00000000
65.277546 52.798945 -6.055477 7.00000000
69.590425 46.784347 -0.494594 7.00000000
63.750296 54.616751 -7.702528 7.00000000
65.920121 51.971836 -9.630757 7.00000000
65.378831 52.667569 -32.401640 7.00000000
62.621504 55.950192 -22.795576 7.00000000
60.381530 58.331418 -4.273272 7.00000000
62.540506 56.045867 -51.686167 7.00000000
69.071113 47.555089 -5.322111 7.00000000
60.954488 57.725259 -2.498620 7.00000000
62.392644 56.203765 -49.196820 7.00000000
61.609178 57.032632 -52.012628 7.00000000
64.676874 53.522194 -21.600434 7.00000000
63.652309 54.732503 -21.515220 7.00000000
67.705941 49.581191 -55.555462 7.00000000
60.675141 58.020793 -48.897450 7.00000000
68.331332 48.653027 -30.144660 7.00000000
61.121510 57.548558 0.881553 7.00000000
61.931792 56.691323 -7.247674 7.00000000
65.870135 52.046013 -5.408305 7.00000000
69.563555 46.824221 -42.600379 7.00000000
67.861904 49.349729 -32.681438 7.00000000
67.088767 50.404991 -8.359277 7.00000000
69.932705 46.276350 -36.073950 7.00000000
59.746173 59.003593 -35.149071 7.00000000
66.577801 51.080352 -9.033952 7.00000000
66.637822 51.001023 -44.603334 7.00000000
59.810794 58.935227 -9.693090 7.00000000
69.313607 47.195187 -6.662860 7.00000000
64.371446 53.882993 -32.786167 7.00000000
63.682437 54.696914 -54.917808 7.00000000
68.179863 48.877820 -54.879635 7.00000000
69.937951 46.268564 -42.784149 7.00000000
62.429229 56.165061 -19.736735 7.00000000
60.254984 58.465297 -56.430592 7.00000000
63.548994 54.854548 -12.684184 7.00000000
64.888554 53.272138 -32.922233 7.00000000
60.925635 57.755783 -57.036408 7.00000000
68.850368 47.882694 -43.703967 7.00000000
62.000495 56.618639 -39.186780 7.00000000
69.371769 47.108860 -14.625155 7.00000000
61.213844 57.450874 -54.711957 7.00000000
59.749164 59.000428 -16.593800 7.00000000
59.907945 58.832446 -46.903849 7.00000000
67.049767 50.456539 -11.166646 7.00000000
68.010010 49.129926 -9.297271 7.00000000
62.198137 56.409543 -3.817820 7.00000000
59.782819 58.964823 2.184110 7.00000000
65.575661 52.404923 -49.152379 7.00000000
68.125735 48.958168 -26.004038 7.00000000
68.500179 48.402436 -22.588520 7.00000000
63.028898 55.477837 -15.450404 7.00000000
60.428058 58.282194 2.854264 7.00000000
64.771435 53.410490 -7.784994 7.00000000
59.913560 58.826506 -40.657936 7.00000000
64.888095 53.272681 -6.317296 7.00000000
61.092784 57.578949 -43.432753 7.00000000
61.326863 57.331306 -32.156837 7.00000000
61.832241 56.796642 -54.373547 7.00000000
69.243703 47.298928 -60.553407 7.00000000
59.709949 59.041915 -35.610549 7.00000000
63.936604 54.396668 -51.821906 7.00000000
63.228294 55.233388 -28.633743 7.00000000
64.335459 53.925504 -42.388344 7.00000000
66.270717 51.489338 -8.972154 7.00000000
64.278778 53.992461 -5.528789 7.00000000
67.707946 49.578215 -49.426405 7.00000000
67.358476 50.048506 -28.037513 7.00000000
68.281285 48.727323 0.004963 7.00000000
65.160952 52.950357 -51.865676 7.00000000
60.366551 58.347265 -45.198964 7.00000000
63.508472 54.902417 -50.180735 7.00000000
65.815280 52.101797 -21.307714 7.00000000
64.006672 54.313897 -19.675080 7.00000000
65.749542 52.180543 -30.827176 7.00000000
68.599134 48.255573 -19.672469 7.00000000
65.767666 52.151144 -46.030697 7.00000000
59.797322 58.949479 -56.436818 7.00000000
62.817035 55.729973 -1.012199 7.00000000
61.506266 57.141506 -55.291506 7.00000000
63.730515 54.640119 -28.737374 7.00000000
69.119239 47.483651 -20.079694 7.00000000
65.287190 52.786196 -10.860399 7.00000000
62.757927 55.789029 -57.269850 7.00000000
66.785191 50.806239 -12.392325 7.00000000
61.965097 56.656088 -53.413625 7.00000000
60.777632 57.912363 -47.767836 7.00000000
67.311404 50.110723 -22.898741 7.00000000
65.561291 52.428261 -5.393928 7.00000000
60.934631 57.746266 -0.170068 7.00000000
59.983535 58.752476 -23.614917 7.00000000
63.189899 55.278744 -48.170952 7.00000000
59.897381 58.843622 -8.275427 7.00000000
66.401509 51.313368 -30.267374 7.00000000
59.800567 58.946046 -23.074803 7.00000000
69.717026 46.596448 -44.462405 7.00000000
65.646560 52.311212 -43.386287 7.00000000
66.898268 50.656782 -23.859472 7.00000000
69.900563 46.324053 -47.169439 7.00000000
67.655171 49.656354 2.998984 7.00000000
62.586819 55.991162 -13.072285 7.00000000
69.320099 47.185545 -42.241846 7.00000000
66.191755 51.590609 -60.319333 7.00000000
69.597294 46.774147 -8.007453 7.00000000
66.757772 50.842481 -50.586829 7.00000000
63.649518 54.735801 -37.029709 7.00000000
66.150512 51.645121 -60.906244 7.00000000
64.173860 54.116400 -33.494402 7.00000000
63.673425 54.707559 -59.115576 7.00000000
61.463327 57.186934 -36.727949 7.00000000
66.070990 51.750226 -29.757999 7.00000000
63.556649 54.845505 -20.093298 7.00000000
64.255679 54.019748 -46.914389 7.00000000
61.091830 57.579958 -40.718642 7.00000000
67.124476 50.357794 -20.700543 7.00000000
62.644720 55.926444 -35.168169 7.00000000
66.375996 51.347090 -61.096111 7.00000000
66.156435 51.637288 -18.578455 7.00000000
67.561552 49.780092 -42.668766 7.00000000
62.137179 56.474034 -18.615687 7.00000000
69.221262 47.332233 -34.433109 7.00000000
60.312341 58.404617 -54.858832 7.00000000
69.627002 46.730057 -31.419660 7.00000000
60.100280 58.628966 -37.407289 7.00000000
67.170519 50.296937 -39.268447 7.00000000
61.453995 57.196807 -8.423375 7.00000000
64.666511 53.534436 -23.988658 7.00000000
65.456914 52.562497 -16.943277 7.00000000
59.760600 58.988330 -37.089131 7.00000000
69.111116 47.495706 -27.997281 7.00000000
64.956567 53.191795 -23.784235 7.00000000
60.470776 58.237001 -9.662243 7.00000000
60.124739 58.603090 -39.921968 7.00000000
64.239484 54.038879 -55.913786 7.00000000
59.873055 58.869358 -59.039160 7.00000000
68.564084 48.307581 -34.222599 7.00000000
65.656579 52.303430 -35.049582 7.00000000
69.244372 47.297935 -41.287835 7.00000000
62.245160 56.359796 -52.432490 7.00000000
60.784836 57.904742 -45.570274 7.00000000
60.088144 58.641805 -41.676858 7.00000000
62.885526 55.638297 -48.416080 7.00000000
68.308015 48.687652 -0.674044 7.00000000
69.060625 47.570652 -9.600365 7.00000000
64.705653 53.488198 -41.295713 7.00000000
64.945884 53.204416 -28.274861 7.00000000
59.811490 58.934490 -57.694931 7.00000000
66.014011 51.832987 -17.177090 7.00000000
67.038039 50.472041 -12.796284 7.00000000
66.856912 50.711439 3.017080 7.00000000
67.854167 49.361210 -8.231104 7.00000000
66.630082 51.011253 -18.772894 7.00000000
65.770740 52.174370 -12.353288 7.00000000
64.875511 53.287546 -9.593024 7.00000000
69.244181 47.298233 2.564457 7.00000000
65.512715 52.491266 -11.550001 7.00000000
62.925898 55.591876 -36.085443 7.00000000
63.973881 54.352633 -58.989509 7.00000000
65.974415 51.885238 -19.048682 7.00000000
69.102821 47.508017 -55.956636 7.00000000
64.094762 54.209838 -13.351198 7.00000000
68.783768 47.981560 3.142670 7.00000000
69.198256 47.366378 -28.429153 7.00000000
60.452342 58.256503 -30.342702 7.00000000
66.252356 51.510506 -18.966582 7.00000000
62.934550 55.592462 -14.669343 7.00000000
68.170227 48.892122 -45.217610 7.00000000
67.916594 49.268564 -17.531286 7.00000000
66.499505 51.183837 -5.789797 7.00000000
65.868843 52.052202 -1.874858 7.00000000
67.103557 50.385443 -60.205710 7.00000000
69.241948 47.301533 -16.426151 7.00000000
64.166544 54.125042 -20.973842 7.00000000
60.622688 58.076286 -48.335099 7.00000000
66.925517 50.620766 -21.178675 7.00000000
68.976699 47.695200 -34.683165 7.00000000
60.661675 58.035039 -5.244587 7.00000000
60.551842 58.151237 -38.341603 7.00000000
68.382161 48.577602 -7.988369 7.00000000
68.362126 48.607322 -31.687139 7.00000000
61.880077 56.746034 -22.866200 7.00000000
59.744184 59.005697 -0.832422 7.00000000
69.325512 47.177511 -57.940254 7.00000000
62.288844 56.313581 -38.287195 7.00000000
66.830261 50.746670 -58.476942 7.00000000
63.030905 55.477016 -12.334702 7.00000000
68.732103 48.058216 -39.826982 7.00000000
59.759962 58.989005 -56.911496 7.00000000
61.987652 56.632226 -4.832147 7.00000000
60.363927 58.350041 -58.323599 7.00000000
63.814825 54.540524 -10.422326 7.00000000
68.354082 48.619268 -21.773593 7.00000000
62.680252 55.881243 -15.495237 7.00000000
61.557301 57.087514 -25.579789 7.00000000
65.690917 52.261881 -30.411630 7.00000000
66.420158 51.288714 -11.527374 7.00000000
66.081488 51.736350 -25.068751 7.00000000
64.560567 53.659587 -23.578862 7.00000000
64.242006 54.035900 -47.440079 7.00000000
69.752991 46.543072 -32.888334 7.00000000
63.408073 55.021017 -31.527870 7.00000000
64.229627 54.050524 -36.036174 7.00000000
68.810697 47.941586 -9.394844 7.00000000
59.788298 58.959027 -11.836274 7.00000000
62.301022 56.300697 -56.618695 7.00000000
62.734023 55.827951 -28.760079 7.00000000
65.438421 52.586292 1.236137 7.00000000
67.045706 50.461907 -18.192713 7.00000000
62.457674 56.134967 -17.309069 7.00000000
63.049258 55.455654 -10.677074 7.00000000
68.224243 48.811979 -6.290462 7.00000000
64.460243 53.778098 -58.534722 7.00000000
68.905795 47.800431 -56.732103 7.00000000
62.572359 56.008242 -4.817096 7.00000000
60.304106 58.413329 -54.197426 7.00000000
69.167368 47.412220 -35.599038 7.00000000
64.764487 53.418698 3.876687 7.00000000
69.379973 47.096683 -28.147928 7.00000000
67.189584 50.271738 -25.690981 7.00000000
59.742817 59.007142 -5.839248 7.00000000
60.863756 57.821248 -50.647252 7.00000000
67.206089 50.249923 -49.684829 7.00000000
60.820966 57.866518 -9.651250 7.00000000
68.555142 48.320868 -14.060616 7.00000000
60.274089 58.445085 -38.694993 7.00000000
66.848886 50.722052 -20.505055 7.00000000
61.601119 57.041157 -21.108733 7.00000000
64.522098 53.705030 -55.907470 7.00000000
69.896836 46.329585 2.951745 7.00000000
65.206644 52.893862 -58.561341 7.00000000
60.927085 57.754250 -53.441539 7.00000000
62.103163 56.510021 -55.797658 7.00000000
65.387015 52.655689 -29.510757 7.00000000
69.350820 47.139951 -20.042597 7.00000000
60.900706 57.782157 -9.093261 7.00000000
61.870165 56.756521 -22.324005 7.00000000
60.135108 58.592120 -33.292034 7.00000000
59.923242 58.816263 -2.421896 7.00000000
69.662204 46.677812 -5.107890 7.00000000
63.124670 55.361245 -16.702055 7.00000000
68.315871 48.675981 -17.955994 7.00000000
62.037155 56.579855 -28.474364 7.00000000
67.978926 49.176058 -10.035233 7.00000000
62.690593 55.871274 -18.355326 7.00000000
63.774568 54.588079 -5.465932 7.00000000
63.753395 54.613091 -44.947124 7.00000000
67.717729 49.563696 -40.105247 7.00000000
63.616090 54.775288 -17.261383 7.00000000
69.341612 47.153618 -12.177550 7.00000000
60.629302 58.069288 -25.283562 7.00000000
59.718196 59.033190 -34.668283 7.00000000
65.913540 51.958335 -45.669311 7.00000000
69.823485 46.438447 -61.008083 7.00000000
61.693494 56.943429 -17.522683 7.00000000
66.807395 50.776893 -56.318118 7.00000000
65.025446 53.110429 -26.705037 7.00000000
65.779959 52.134895 -58.905840 7.00000000
65.951472 51.908200 -55.943005 7.00000000
65.159603 52.951951 -42.864838 7.00000000
67.313690 50.107700 0.985634 7.00000000
61.299824 57.359911 -10.260580 7.00000000
65.747855 52.197244 -19.305414 7.00000000
60.644166 58.053563 -57.608556 7.00000000
62.188314 56.419936 -25.994168 7.00000000
60.230188 58.491530 -38.139963 7.00000000
63.467501 54.950815 -18.188603 7.00000000
69.513188 46.898973 -32.030093 7.00000000
63.338945 55.102678 -47.698665 7.00000000
63.836941 54.514400 -26.548753 7.00000000
63.159801 55.314298 -54.504461 7.00000000
67.331901 50.083631 -28.762374 7.00000000
67.619856 49.703030 -57.097403 7.00000000
61.967922 56.653099 -38.255740 7.00000000
68.951638 47.732399 -18.537350 7.00000000
68.854526 47.876522 -43.205745 7.00000000
63.295512 55.163896 1.653550 7.00000000
67.499932 49.861538 -43.605410 7.00000000
66.231558 51.538389 -12.925473 7.00000000
69.230029 47.319222 -52.891459 7.00000000
65.971015 51.882368 -37.962245 7.00000000
64.175333 54.114660 -28.471863 7.00000000
66.898926 50.655909 -3.737108 7.00000000
65.878474 52.004684 -41.927045 7.00000000
67.563053 49.778109 -38.002885 7.00000000
61.396192 57.257960 -38.303337 7.00000000
68.859250 47.869512 -40.801585 7.00000000
67.856500 49.357749 -25.764782 7.00000000
69.924703 46.288226 -26.622089 7.00000000
69.318605 47.187762 -13.967628 7.00000000
61.014793 57.661459 -18.134011 7.00000000
68.152024 48.919165 3.350590 7.00000000
61.123013 57.546968 -7.062803 7.00000000
61.349372 57.307492 -30.410562 7.00000000
62.630448 55.939626 -9.517960 7.00000000
67.208051 50.247328 -4.728117 7.00000000
66.951478 50.586448 0.317863 7.00000000
68.381370 48.578754 -43.467394 7.00000000
61.473417 57.176259 -51.496616 7.00000000
62.508301 56.081406 -34.831778 7.00000000
67.519205 49.836064 -3.660750 7.00000000
69.205021 47.356338 -43.829338 7.00000000
67.830128 49.396886 -41.301707 7.00000000
68.331307 48.653065 -28.245939 7.00000000
59.923531 58.815957 -52.855805 7.00000000
65.258339 52.824333 -16.164571 7.00000000
65.502374 52.501790 -56.750138 7.00000000
61.206130 57.459035 -50.718119 7.00000000
68.852266 47.879897 1.940403 7.00000000
68.470371 48.446664 -52.847627 7.00000000
63.150865 55.324854 -29.458346 7.00000000
62.901235 55.619740 -58.347012 7.00000000
63.888979 54.452927 -14.994532 7.00000000
66.538384 51.132455 -35.510505 7.00000000
65.339928 52.716485 -30.581863 7.00000000
69.109354 47.498335 -1.321276 7.00000000
62.800156 55.748228 -28.102418 7.00000000
63.517576 54.891662 -27.719630 7.00000000
68.626875 48.214389 -55.985784 7.00000000
61.743409 56.890622 -34.527740 7.00000000
66.801897 50.784159 -43.153435 7.00000000
68.057220 49.059860 -17.896390 7.00000000
63.729429 54.641402 -13.252276 7.00000000
61.890515 56.734992 -33.572474 7.00000000
68.182068 48.874563 -23.300069 7.00000000
61.073827 57.599004 -31.580792 7.00000000
69.201017 47.362281 -15.045734 7.00000000
61.663260 56.975415 -5.646367 7.00000000
66.322591 51.417677 -53.057483 7.00000000
63.088805 55.408839 -8.619960 7.00000000
68.762514 48.013082 -33.204717 7.00000000
66.240101 51.526707 -40.571054 7.00000000
62.810996 55.726854 -44.073921 7.00000000
63.304394 55.143492 -38.846541 7.00000000
60.813194 57.874741 -20.614750 7.00000000
68.093088 49.006632 0.569221 7.00000000
64.020571 54.297479 -17.098132 7.00000000
67.896993 49.297651 -35.892607 7.00000000
66.234618 51.533954 -31.276873 7.00000000
60.360791 58.353358 -43.518327 7.00000000
63.546604 54.857372 -59.545002 7.00000000
61.160711 57.507086 -7.595023 7.00000000
60.601532 58.098668 -12.931882 7.00000000
66.169064 51.632227 -6.764732 7.00000000
61.346781 57.310233 -39.151936 7.00000000
67.982826 49.170252 -50.706249 7.00000000
66.793540 50.795199 2.018938 7.00000000
60.657890 58.039044 -13.691975 7.00000000
67.500406 49.860912 -49.803851 7.00000000
69.078788 47.543691 -12.863359 7.00000000
67.804697 49.434629 -13.283793 7.00000000
62.686552 55.873343 -53.187482 7.00000000
62.947016 55.565660 -42.772759 7.00000000
63.864015 54.482417 -42.631914 7.00000000
67.892639 49.304115 -5.839975 7.00000000
67.419306 49.968105 -18.287674 7.00000000
61.935088 56.687835 -8.433154 7.00000000
64.601182 53.611608 -14.338882 7.00000000
61.006519 57.670213 -47.271886 7.00000000
67.242463 50.201845 -54.821195 7.00000000
65.390778 52.649269 -12.952589 7.00000000
67.577895 49.758492 -39.346231 7.00000000
66.880251 50.680595 -59.068627 7.00000000
64.688892 53.507997 -27.068065 7.00000000
62.614526 55.958433 -24.909420 7.00000000
65.586264 52.390908 -44.934949 7.00000000
62.492207 56.098433 -22.442589 7.00000000
64.793950 53.383893 -36.385169 7.00000000
67.602484 49.725992 -27.905358 7.00000000
69.528794 46.875812 -29.751131 7.00000000
61.690017 56.947108 -1.516914 7.00000000
62.937924 55.578243 -34.291522 7.00000000
61.674990 56.963006 1.781214 7.00000000
63.883293 54.459644 -47.496085 7.00000000
67.917642 49.267004 -37.638964 7.00000000
69.205071 47.356264 -51.865937 7.00000000
66.476580 51.214139 -10.088662 7.00000000
69.916153 46.300915 -52.605754 7.00000000
61.863286 56.763799 -43.789176 7.00000000
63.646821 54.738985 -22.577355 7.00000000
60.460553 58.247816 -18.052348 7.00000000
60.213035 58.509677 -36.310650 7.00000000
64.126124 54.172790 -35.165073 7.00000000
60.613448 58.086061 -10.578319 7.00000000
63.765566 54.598714 -52.283467 7.00000000
63.605327 54.788003 -43.910009 7.00000000
65.703274 52.261052 -17.422472 7.00000000
68.220442 48.817608 -25.426118 7.00000000
66.402184 51.320881 1.269949 7.00000000
64.855030 53.311740 -18.106772 7.00000000
64.427516 53.816759 -41.706644 7.00000000
60.349599 58.365199 -49.334662 7.00000000
60.897746 57.785289 -38.777877 7.00000000
69.511592 46.901343 -40.962021 7.00000000
67.761900 49.498142 -50.960685 7.00000000
63.718101 54.654782 0.150916 7.00000000
64.138467 54.158209 2.360795 7.00000000
60.311364 58.405650 -35.274652 7.00000000
63.069245 55.423812 -25.479042 7.00000000
63.709445 54.665009 -58.267793 7.00000000
69.289199 47.231406 -50.894172 7.00000000
62.285696 56.316910 -51.351950 7.00000000
60.609831 58.089888 -2.537258 7.00000000
64.829152 53.342309 -10.895157 7.00000000
66.772955 50.822413 -24.706267 7.00000000
66.572272 51.087663 -18.153649 7.00000000
60.795129 57.893852 -29.524724 7.00000000
65.067792 53.060407 -20.889704 7.00000000
65.839637 52.086749 1.278353 7.00000000
69.807510 46.462158 -14.616124 7.00000000
66.927109 50.618661 -12.018146 7.00000000
68.433037 48.502073 -47.018300 7.00000000
66.279445 51.474704 -26.866855 7.00000000
65.171347 52.938077 -33.296179 7.00000000
60.834475 57.852226 -51.049820 7.00000000
69.062143 47.568404 -2.672553 7.00000000
62.580872 55.998187 -20.162418 7.00000000
65.384472 52.657604 -17.980997 7.00000000
60.927479 57.753833 -35.376760 7.00000000
68.547071 48.332840 -24.493369 7.00000000
64.626395 53.581825 -20.537297 7.00000000
64.585767 53.629818 1.160791 7.00000000
62.238817 56.366507 -3.338455 7.00000000
61.087457 57.584584 -4.669007 7.00000000
68.116315 48.972135 -48.527129 7.00000000
66.946761 50.592687 -52.012725 7.00000000
66.339363 51.395504 -13.480312 7.00000000
63.148626 55.327499 -34.010677 7.00000000
67.087686 50.406420 -19.623587 7.00000000
63.152927 55.322419 -57.213610 7.00000000
65.216510 52.879625 -14.838669 7.00000000
63.193551 55.274430 -33.450008 7.00000000
64.947799 53.202153 -1.572776 7.00000000
61.753772 56.879659 -47.110912 7.00000000
61.962563 56.658769 -25.340469 7.00000000
63.479871 54.936202 -26.225526 7.00000000
65.010639 53.127921 -52.200604 7.00000000
61.517427 57.129699 -6.672804 7.00000000
65.786721 52.125955 -35.485336 7.00000000
60.320595 58.395884 -10.739727 7.00000000
66.411725 51.299866 -43.715449 7.00000000
64.303548 53.963201 -17.202805 7.00000000
66.935858 50.607097 -16.407720 7.00000000
65.434651 52.591276 3.740575 7.00000000
69.260718 47.273683 -5.822226 7.00000000
64.403771 53.844808 -9.872877 7.00000000
60.551660 58.151429 0.483310 7.00000000
63.447874 54.974000 -16.034272 7.00000000
59.791815 58.955305 -47.915362 7.00000000
69.614034 46.749304 -42.209331 7.00000000
60.499070 58.207067 -32.124380 7.00000000
65.551194 52.443171 -9.330715 7.00000000
66.987932 50.538270 -54.902808 7.00000000
65.531943 52.462707 -48.652173 7.00000000
68.490075 48.417422 -36.300741 7.00000000
62.581461 55.997491 -1.406896 7.00000000
66.554937 51.110576 -34.730016 7.00000000
69.611629 46.752873 -33.667093 7.00000000
61.230809 57.432926 -11.361727 7.00000000
62.971900 55.536264 -40.824937 7.00000000
66.964805 50.568836 -9.760367 7.00000000
68.595727 48.260626 -23.675433 7.00000000
67.570321 49.768502 -42.012938 7.00000000
69.564522 46.822786 -23.528075 7.00000000
69.098228 47.514839 -14.257381 7.00000000
67.015211 50.502214 -14.274892 7.00000000
60.692294 58.002646 -31.713112 7.00000000
67.261368 50.176858 -46.445824 7.00000000
63.409451 55.019389 -37.723713 7.00000000
62.596086 55.980215 -39.121918 7.00000000
61.740917 56.893259 -51.101271 7.00000000
64.672504 53.527356 -15.379691 7.00000000
60.563423 58.138985 -17.585872 7.00000000
60.564418 58.137932 -14.251069 7.00000000
64.783245 53.396539 -54.074396 7.00000000
65.890609 51.988645 -39.055788 7.00000000
60.752025 57.939454 -8.399459 7.00000000
63.317280 55.132888 -7.360780 7.00000000
60.214915 58.507688 -47.163097 7.00000000
66.304181 51.442010 -49.586966 7.00000000
69.945918 46.256740 1.676554 7.00000000
66.599991 51.051026 -48.442746 7.00000000
61.597114 57.045395 -6.234565 7.00000000
65.301745 52.766957 -20.610064 7.00000000
68.201738 48.845354 -54.023773 7.00000000
66.620400 51.024051 -21.010467 7.00000000
69.879654 46.355085 -38.073426 7.00000000
64.563599 53.656005 -9.414077 7.00000000
69.073870 47.550985 -51.251993 7.00000000
64.304815 53.961703 -8.149167 7.00000000
61.050119 57.624086 -58.279367 7.00000000
60.342906 58.372280 -16.197260 7.00000000
64.213465 54.069615 -4.312615 7.00000000
60.071931 58.658957 -56.105954 7.00000000
62.724818 55.837745 -26.371429 7.00000000
66.765110 50.832783 -19.963491 7.00000000
60.235476 58.485935 0.339524 7.00000000
62.390268 56.206279 -4.161262 7.00000000
66.398003 51.318002 -32.626939 7.00000000
65.457953 52.560474 -2.768893 7.00000000
63.783993 54.576946 -0.615311 7.00000000
65.258039 52.824729 -11.364097 7.00000000
66.499918 51.183297 -54.922097 7.00000000
67.992498 49.155916 -6.394411 7.00000000
64.842070 53.327050 -38.079968 7.00000000
66.429858 51.279904 -0.996069 7.00000000
59.733894 59.016582 -5.264980 7.00000000
63.314564 55.134583 -10.444808 7.00000000
60.896072 57.787060 -14.454991 7.00000000
61.657987 56.980994 -53.347201 7.00000000
67.149286 50.325002 -13.676989 7.00000000
62.574647 56.005540 -12.650075 7.00000000
66.813362 50.769006 -34.143480 7.00000000
64.665351 53.535806 -13.530149 7.00000000
68.992924 47.671121 -30.986362 7.00000000
68.917861 47.782524 -57.350580 7.00000000
66.433171 51.271520 -37.047916 7.00000000
69.059312 47.572590 -42.525345 7.00000000
61.510135 57.137413 -14.596267 7.00000000
60.342535 58.372673 -53.005462 7.00000000
66.613007 51.033823 -57.696290 7.00000000
59.719481 59.031831 -7.391414 7.00000000
62.561120 56.021517 -25.859172 7.00000000
62.522339 56.066555 -16.649362 7.00000000
68.256856 48.763552 -56.744366 7.00000000
62.521609 56.067327 -29.082653 7.00000000
66.027569 51.822668 -10.467872 7.00000000
62.143351 56.467504 -10.852766 7.00000000
69.592652 46.781037 -60.031538 7.00000000
69.856364 46.389650 -17.383926 7.00000000
59.784706 58.962826 -9.159011 7.00000000
60.603929 58.096132 2.456557 7.00000000
59.927828 58.811411 -39.055143 7.00000000
63.282399 55.169475 -41.064957 7.00000000
62.500454 56.089708 -52.132131 7.00000000
68.435653 48.498190 -44.260398 7.00000000
63.931096 54.403175 -47.975533 7.00000000
62.834506 55.712196 -3.325425 7.00000000
62.805768 55.747232 -15.135620 7.00000000
67.322774 50.095695 -37.129164 7.00000000
64.416632 53.829616 -15.250577 7.00000000
67.960486 49.203422 -29.039042 7.00000000
65.673460 52.275660 -60.362691 7.00000000
67.106996 50.380896 -0.833939 7.00000000
60.808320 57.879896 3.519302 7.00000000
59.920168 58.819515 -39.593724 7.00000000
69.291394 47.228148 -27.611314 7.00000000
66.196099 51.584867 -57.937960 7.00000000
61.322296 57.336137 -22.510614 7.00000000
60.074876 58.655842 2.940811 7.00000000
68.927025 47.768937 -8.015218 7.00000000
69.733158 46.572507 -57.744389 7.00000000
61.657923 56.981061 -11.795388 7.00000000
66.419897 51.289059 -6.574309 7.00000000
62.317993 56.282743 -36.292677 7.00000000
67.205282 50.250989 -32.109683 7.00000000
59.728015 59.022803 -29.302879 7.00000000
66.082629 51.734844 -50.708449 7.00000000
59.994149 58.741247 -0.554454 7.00000000
66.436731 51.266813 -35.096717 7.00000000
69.918947 46.296768 -30.696970 7.00000000
66.615673 51.030299 -25.177189 7.00000000
69.871706 46.366882 -18.297422 7.00000000
63.246886 55.220172 -3.367603 7.00000000
64.215104 54.067679 -30.394876 7.00000000
63.317210 55.128353 -25.219147 7.00000000
63.257663 55.198696 -36.794183 7.00000000
67.274069 50.160071 -53.504066 7.00000000
66.888643 50.669504 -53.428784 7.00000000
67.708995 49.576659 -6.226016 7.00000000
64.535621 53.689055 -5.294740 7.00000000
64.335560 53.925384 -5.962200 7.00000000
65.005029 53.134548 -51.487264 7.00000000
68.529509 48.358919 -2.243569 7.00000000
61.838026 56.790522 -52.899168 7.00000000
66.998518 50.524277 -26.474270 7.00000000
69.531373 46.871984 -51.620474 7.00000000
63.022326 55.476697 -51.153975 7.00000000
66.348612 51.383281 -19.366267 7.00000000
60.024594 58.709037 -11.532085 7.00000000
66.223985 51.548008 -55.641912 7.00000000
61.291697 57.368510 -24.770567 7.00000000
67.836575 49.387319 -23.992364 7.00000000
68.209290 48.834146 -55.856882 7.00000000
69.348578 47.143279 -33.417394 7.00000000
64.791881 53.386338 -55.996572 7.00000000
65.856919 52.033174 -54.068672 7.00000000
64.036673 54.278458 -22.977700 7.00000000
66.599247 51.052008 -16.990891 7.00000000
59.714185 59.037434 -12.992456 7.00000000
69.374884 47.104237 -31.712956 7.00000000
61.485205 57.163788 2.095226 7.00000000
60.602768 58.097360 -35.333018 7.00000000
60.595798 58.104734 -45.858444 7.00000000
64.117839 54.182577 -26.945946 7.00000000
66.012899 51.827010 -51.367222 7.00000000
67.996280 49.150293 -36.269012 7.00000000
69.726935 46.581742 -58.900215 7.00000000
67.640621 49.675584 -15.622462 7.00000000
62.699185 55.863507 -41.577458 7.00000000
69.131206 47.465898 -8.438254 7.00000000
63.976444 54.349605 -42.195062 7.00000000
66.567729 51.093669 -56.447103 7.00000000
68.729931 48.061450 -17.687984 7.00000000
62.813551 55.723320 -55.298759 7.00000000
59.755771 58.993438 -55.979484 7.00000000
62.668851 55.894265 3.825214 7.00000000
66.835581 50.739636 -9.009123 7.00000000
60.005694 58.729033 -19.414266 7.00000000
61.016408 57.659751 -40.221380 7.00000000
69.072642 47.552807 -45.367624 7.00000000
64.955435 53.193132 -13.060820 7.00000000
67.462427 49.911110 -9.190966 7.00000000
65.068777 53.059243 -4.271865 7.00000000
62.352402 56.246340 -28.686738 7.00000000
65.610590 52.359556 -40.879126 7.00000000
62.809286 55.731988 -38.143186 7.00000000
68.462072 48.458992 -23.214548 7.00000000
63.878210 54.465648 -8.787453 7.00000000
60.887668 57.795951 -17.681482 7.00000000
69.854206 46.392853 -37.657330 7.00000000
61.123684 57.546258 -19.927497 7.00000000
68.043656 49.079992 2.877456 7.00000000
67.306445 50.117278 -7.611332 7.00000000
60.994022 57.683434 2.314536 7.00000000
62.504822 56.085087 -42.522057 7.00000000
63.048778 55.446174 -30.156187 7.00000000
64.549390 53.672790 2.876030 7.00000000
68.835404 47.904902 -60.165991 7.00000000
69.538872 46.860855 -28.807432 7.00000000
64.034836 54.280628 -24.458717 7.00000000
69.445502 46.999429 -56.134229 7.00000000
69.675733 46.657733 -46.021929 7.00000000
69.358934 47.127908 -35.380181 7.00000000
61.630577 57.009993 -39.271748 7.00000000
64.778781 53.401812 -22.553412 7.00000000
62.300965 56.300757 -8.161836 7.00000000
61.169512 57.497775 -49.560877 7.00000000
60.530962 58.173327 -47.572004 7.00000000
68.999970 47.660663 -50.376447 7.00000000
65.740372 52.187219 -54.757375 7.00000000
64.881540 53.280424 -31.275165 7.00000000
67.951807 49.216305 -1.943779 7.00000000
63.947528 54.383763 -10.078525 7.00000000
63.400489 55.033129 -5.468984 7.00000000
61.866403 56.760501 -12.912286 7.00000000
69.514505 46.897021 -4.517564 7.00000000
64.995071 53.146311 -11.676712 7.00000000
61.584799 57.058423 -22.890793 7.00000000
65.274983 52.802332 -4.713581 7.00000000
66.323818 51.416055 -48.712628 7.00000000
68.897019 47.813457 -54.094354 7.00000000
67.837780 49.385531 -12.114290 7.00000000
68.469092 48.448565 -34.668887 7.00000000
66.973306 50.557601 -36.039937 7.00000000
62.313852 56.287124 -40.646772 7.00000000
64.776802 53.404150 -23.040782 7.00000000
65.868381 52.048971 -4.976069 7.00000000
65.321581 52.740736 -28.882525 7.00000000
62.999349 55.509104 -24.176069 7.00000000
65.052364 53.078631 -31.684699 7.00000000
63.929704 54.404819 -55.220557 7.00000000
69.848156 46.401832 -39.325724 7.00000000
68.167855 48.895642 -50.444845 7.00000000
68.071760 49.038260 -56.450685 7.00000000
60.867544 57.817241 -41.341547 7.00000000
64.950387 53.199095 -52.814735 7.00000000
67.634266 49.683984 -53.759883 7.00000000
68.162355 48.903831 -5.897030 7.00000000
65.276947 52.799736 -43.367988 7.00000000
66.503073 51.182259 1.638226 7.00000000
68.564903 48.306377 -20.118695 7.00000000
61.619554 57.021654 -20.536215 7.00000000
61.275908 57.385214 -48.184328 7.00000000
62.595819 55.980531 -0.663844 7.00000000
67.882433 49.319262 -26.691439 7.00000000
62.386951 56.209788 -57.804488 7.00000000
61.784781 56.846852 2.146259 7.00000000
59.957797 58.779706 -60.937914 7.00000000
64.950549 53.198904 -61.086883 7.00000000
66.897587 50.657678 -4.660373 7.00000000
67.219349 50.232394 0.616436 7.00000000
60.185567 58.538737 -40.975768 7.00000000
66.339276 51.409525 2.809033 7.00000000
69.548992 46.845834 -51.107711 7.00000000
60.591312 58.109480 -46.768670 7.00000000
69.634408 46.719065 -49.025278 7.00000000
67.773057 49.481579 -59.318791 7.00000000
67.823138 49.407261 -34.806799 7.00000000
63.807233 54.549492 -5.928333 7.00000000
63.691965 54.685658 -18.980910 7.00000000
61.672175 56.965984 -40.077360 7.00000000
61.070148 57.602896 -55.072527 7.00000000
69.266031 47.265794 -10.622925 7.00000000
67.646014 49.668456 -51.495130 7.00000000
62.119258 56.492993 -37.922808 7.00000000
65.497642 52.518314 -38.433790 7.00000000
63.794906 54.564055 -26.133014 7.00000000
61.386649 57.268055 -34.269219 7.00000000
65.881428 52.035438 -1.406167 7.00000000
66.402092 51.312596 -22.090009 7.00000000
69.895491 46.331580 -0.581062 7.00000000
63.489406 54.924939 -49.770482 7.00000000
63.516702 54.892695 -30.871790 7.00000000
60.042166 58.690447 -10.887402 7.00000000
61.327518 57.330612 -4.975645 7.00000000
62.941915 55.589212 -3.698540 7.00000000
64.288081 53.981472 -60.221800 7.00000000
69.875484 46.361274 -11.094172 7.00000000
63.469521 54.948430 -58.474408 7.00000000
67.222845 50.227776 -12.497227 7.00000000
68.724401 48.069647 -55.277737 7.00000000
68.672048 48.147370 0.300433 7.00000000
68.672217 48.147096 -49.781181 7.00000000
68.590181 48.268869 -4.911243 7.00000000
60.979603 57.698689 -50.031245 7.00000000
60.997079 57.680200 -16.848467 7.00000000
68.445966 48.482905 -8.409026 7.00000000
62.204503 56.402809 -19.205293 7.00000000
68.022169 49.111868 -40.937838 7.00000000
64.050492 54.262134 -58.461409 7.00000000
69.623222 46.735668 -47.349166 7.00000000
63.257672 55.198685 -45.869355 7.00000000
63.921139 54.414936 -3.099601 7.00000000
69.300501 47.214632 -38.654032 7.00000000
62.409978 56.185427 -32.001240 7.00000000
65.539036 52.456920 -41.902807 7.00000000
66.085812 51.730637 -47.577144 7.00000000
66.358935 51.369639 -59.909132 7.00000000
62.485694 56.105324 -60.101954 7.00000000
65.233906 52.856629 -30.160579 7.00000000
60.426095 58.284270 2.013881 7.00000000
66.259053 51.501658 -34.761008 7.00000000
67.339606 50.073447 -1.050974 7.00000000
61.905503 56.719135 -14.144235 7.00000000
61.501767 57.146266 -7.240248 7.00000000
64.386491 53.865221 -11.485760 7.00000000
65.594224 52.394432 -14.246510 7.00000000
63.166238 55.315350 -8.127177 7.00000000
65.003647 53.136180 -47.498777 7.00000000
61.643779 56.996025 -29.105834 7.00000000
67.819631 49.412465 -7.731940 7.00000000
69.526109 46.879797 -45.155186 7.00000000
66.518591 51.158616 -31.381504 7.00000000
69.928215 46.283013 -27.131768 7.00000000
60.379681 58.333374 -26.367878 7.00000000
66.287734 51.463749 -35.696303 7.00000000
69.863571 46.378954 -30.258794 7.00000000
69.217241 47.338202 -36.349078 7.00000000
69.536391 46.864537 -57.022678 7.00000000
69.890480 46.339018 -12.209757 7.00000000
68.914529 47.787469 -46.813973 7.00000000
60.350242 58.364519 -28.147986 7.00000000
61.897957 56.727118 -9.422492 7.00000000
62.586846 55.991130 -3.775508 7.00000000
69.650151 46.695700 -7.295300 7.00000000
64.987044 53.155793 -29.775909 7.00000000
59.754809 58.994456 -14.707702 7.00000000
63.348065 55.092078 -14.214650 7.00000000
65.029861 53.105214 2.387154 7.00000000
66.323628 51.416307 -32.256279 7.00000000
66.301447 51.445622 -20.792232 7.00000000
61.540151 57.105659 -25.079706 7.00000000
60.105618 58.623318 -15.167957 7.00000000
68.842292 47.894680 -26.787438 7.00000000
65.705290 52.233589 -56.415833 7.00000000
69.755839 46.538845 -51.429884 7.00000000
64.305960 53.960351 -39.821666 7.00000000
66.969107 50.563151 -22.047444 7.00000000
62.079849 56.534686 -35.420284 7.00000000
63.636203 54.751529 -25.311623 7.00000000
69.941964 46.262608 -46.712513 7.00000000
68.631648 48.207317 -18.124663 7.00000000
64.543563 53.679673 -2.593836 7.00000000
67.081752 50.414264 -28.602125 7.00000000
67.460611 49.913510 -43.090743 7.00000000
69.364150 47.120167 -48.281577 7.00000000
69.165945 47.414331 -35.113114 7.00000000
65.043477 53.089129 1.737177 7.00000000
67.012694 50.505538 -1.613915 7.00000000
60.670257 58.025960 -49.451341 7.00000000
68.961021 47.718488 2.424588 7.00000000
69.640603 46.709871 -9.778967 7.00000000
68.911902 47.791368 -32.877771 7.00000000
66.733548 50.874499 -23.066488 7.00000000
68.410935 48.534893 -14.531657 7.00000000
66.624344 51.018839 -56.851030 7.00000000
66.896047 50.659717 -53.992266 7.00000000
68.597848 48.257470 -51.971736 7.00000000
60.217246 58.505222 -34.679947 7.00000000
63.272666 55.180971 -27.601649 7.00000000
63.274804 55.185986 -4.116932 7.00000000
68.104652 48.989469 -6.753348 7.00000000
67.536689 49.812955 -61.094453 7.00000000
62.203899 56.403448 -20.030306 7.00000000
63.633609 54.754593 -23.340665 7.00000000
65.973987 51.878440 -55.291009 7.00000000
67.942226 49.230508 -55.890563 7.00000000
66.115300 51.691657 -19.625141 7.00000000
69.609275 46.756367 -37.266965 7.00000000
62.046243 56.570240 -35.950561 7.00000000
65.515171 52.484876 -52.637946 7.00000000
68.873888 47.847805 -0.703908 7.00000000
64.351128 53.906995 -9.161579 7.00000000
68.147022 48.926566 -40.440770 7.00000000
61.130762 57.538770 -36.746201 7.00000000
69.592801 46.780817 -11.285569 7.00000000
60.593139 58.107547 -15.868331 7.00000000
64.834352 53.336167 -2.341320 7.00000000
65.004746 53.134882 -47.000376 7.00000000
62.634732 55.937152 -50.068128 7.00000000
64.387570 53.863946 -43.411475 7.00000000
