-21.144334 2.821897 -37.603705 3.00000000
26.360238 -14.242677 -50.004648 3.00000000
11.899781 33.908530 -29.252807 3.00000000
31.387603 -7.696406 -58.737521 3.00000000
30.061806 -9.858217 -20.575279 3.00000000
-21.069661 11.611901 -0.828385 3.00000000
6.649230 34.189918 -42.286662 3.00000000
30.484904 21.402769 -50.555309 3.00000000
-10.214652 -16.592867 -23.374980 3.00000000
-21.505048 8.527214 -12.978081 3.00000000
6.230876 34.160856 -7.804536 3.00000000
24.401848 28.166667 -60.447181 3.00000000
19.592381 -19.086899 -39.680287 3.00000000
32.205911 18.319680 -61.029273 3.00000000
3.896933 -22.068457 -30.420147 3.00000000
29.304394 23.107873 -5.642907 3.00000000
33.722744 14.481268 -11.298110 3.00000000
-4.292078 32.187408 -7.470641 3.00000000
9.335519 -21.841111 -46.816178 3.00000000
26.534281 -14.081415 -30.185809 3.00000000
-21.480335 7.214856 -58.405212 3.00000000
-6.066112 -19.164848 -29.473110 3.00000000
21.679551 -17.894567 -19.354602 3.00000000
34.616319 8.891369 -10.380164 3.00000000
33.343897 -3.398435 -49.960120 3.00000000
3.810071 -22.061225 -41.567725 3.00000000
-1.090066 -21.107624 -29.604917 3.00000000
25.704583 27.056372 -11.951678 3.00000000
32.051468 -6.438970 -42.300610 3.00000000
-2.934740 32.714342 -47.106875 3.00000000
-9.761279 29.120542 -27.918826 3.00000000
-20.307913 -2.416480 -30.032311 3.00000000
18.709662 31.710528 -50.969904 3.00000000
30.388760 21.556523 -32.982736 3.00000000
28.606095 23.986834 -60.155081 3.00000000
34.505642 0.936495 -60.916857 3.00000000
34.731352 7.060395 2.211685 3.00000000
-21.073076 1.890253 -6.770975 3.00000000
-20.376701 -2.191574 -45.423558 3.00000000
8.280721 -21.907383 -10.494070 3.00000000
24.449220 28.126942 -12.639444 3.00000000
-2.178017 -20.770298 -11.722299 3.00000000
-15.868278 23.185876 -9.398053 3.00000000
23.690177 28.713204 -50.793192 3.00000000
-20.061461 -3.161057 -26.782949 3.00000000
13.879120 -21.253115 -27.112440 3.00000000
33.466305 15.256086 -20.811040 3.00000000
-6.810974 -18.770197 -9.354503 3.00000000
-16.795239 -9.707516 -56.539360 3.00000000
23.873133 -16.392393 -23.367308 3.00000000
-18.998616 -5.768410 -0.400194 3.00000000
24.436965 -15.933461 -50.819970 3.00000000
9.500035 -21.830774 -12.516519 3.00000000
-18.803728 18.378955 -11.354449 3.00000000
29.666528 -10.408552 1.877706 3.00000000
34.532310 10.228527 1.615848 3.00000000
31.191974 20.260633 -12.999936 3.00000000
2.624814 -21.903441 -16.016919 3.00000000
21.788077 -17.826706 -35.474742 3.00000000
-21.221434 10.822042 -22.193912 3.00000000
-6.172281 31.310887 1.510082 3.00000000
13.793798 -21.275648 -45.969234 3.00000000
1.340099 -21.685239 -18.880748 3.00000000
14.339651 -21.131488 -49.911922 3.00000000
20.225887 30.943085 -9.393288 3.00000000
-9.332301 -17.238433 -49.074052 3.00000000
31.818009 19.103650 -30.586140 3.00000000
1.281200 33.817005 -7.606708 3.00000000
23.938445 -16.340307 -32.858614 3.00000000
-15.659607 -11.269338 -33.161890 3.00000000
34.357226 11.983441 -35.774719 3.00000000
-19.458617 -4.736191 -4.000996 3.00000000
1.602318 33.839313 1.426963 3.00000000
6.775270 34.198674 -39.003009 3.00000000
-21.061455 1.738320 -53.152876 3.00000000
10.367261 34.151284 -57.265581 3.00000000
34.875225 4.770364 -42.952312 3.00000000
-6.665457 31.044023 -23.799066 3.00000000
7.475709 -21.957962 -60.788364 3.00000000
5.612332 34.117886 -27.784327 3.00000000
-15.477796 -11.492123 -24.192706 3.00000000
21.052567 -18.286618 -51.466257 3.00000000
-19.816174 16.031789 1.154666 3.00000000
-14.631763 -12.522865 -15.466612 3.00000000
25.316627 27.399564 -33.020419 3.00000000
34.624141 1.561104 -18.234226 3.00000000
31.982028 18.800524 -20.724825 3.00000000
5.282050 -22.095789 -21.453121 3.00000000
0.202765 -21.434010 -54.612655 3.00000000
34.010631 13.393243 -4.238282 3.00000000
23.099805 29.148206 -29.714119 3.00000000
8.918070 -21.867339 -57.554732 3.00000000
-10.758376 28.381923 -51.113885 3.00000000
-19.379188 17.114267 -11.365315 3.00000000
-10.097667 -16.679063 -4.937395 3.00000000
-20.641657 13.395641 -27.365167 3.00000000
-7.542360 30.569520 -16.536684 3.00000000
32.303600 -5.912321 -56.588324 3.00000000
34.672676 7.994332 -32.299451 3.00000000
-20.948486 0.261327 -45.022481 3.00000000
27.894793 24.836720 -24.944183 3.00000000
-0.815852 -21.176851 -55.801117 3.00000000
-13.748071 -13.476596 -44.880887 3.00000000
-20.359840 14.431577 -13.104143 3.00000000
17.699765 32.163900 -30.394076 3.00000000
25.901721 26.868756 -9.626430 3.00000000
-9.239214 -17.298381 -39.796843 3.00000000
18.358888 -19.674977 -50.990274 3.00000000
26.811234 -13.794540 -44.445803 3.00000000
31.048811 -8.303019 -18.147345 3.00000000
-8.402381 -17.837309 -12.922969 3.00000000
-9.627106 -17.025777 -12.591280 3.00000000
-8.363419 -17.862401 -25.689366 3.00000000
34.653142 1.778946 -25.326765 3.00000000
12.736246 33.740449 -40.818704 3.00000000
-15.917085 -10.933333 -29.331848 3.00000000
34.605552 9.062740 -51.818573 3.00000000
8.041391 34.286631 -43.042552 3.00000000
-7.332335 -18.479034 -30.614660 3.00000000
34.770011 6.445051 -26.729984 3.00000000
4.679787 34.053103 -22.632695 3.00000000
23.780694 -16.458613 -26.463892 3.00000000
33.007931 -4.278294 -61.095918 3.00000000
11.167399 -21.726014 -15.740599 3.00000000
34.891560 3.909753 -56.616594 3.00000000
24.917307 -15.541451 -47.247418 3.00000000
-18.637872 18.725391 -9.096595 3.00000000
-13.594505 -13.642334 -31.864323 3.00000000
15.807993 -20.693680 -16.175588 3.00000000
-19.820022 16.022257 -26.521855 3.00000000
26.023194 -14.554968 -24.892636 3.00000000
-18.176317 -7.406640 -28.578104 3.00000000
-20.597563 13.570302 0.623009 3.00000000
2.245480 -21.852928 -56.000623 3.00000000
-15.066068 24.192441 -29.954289 3.00000000
3.896084 33.998659 -5.336725 3.00000000
5.905632 34.138261 -32.366550 3.00000000
0.351586 -21.471581 -25.633943 3.00000000
19.636218 -19.063178 -51.091950 3.00000000
-17.507725 20.787190 -26.216459 3.00000000
-0.231913 -21.324272 -46.062721 3.00000000
-20.370577 -2.214761 -53.542381 3.00000000
-20.665430 -1.098372 1.204361 3.00000000
-20.508772 13.922012 -30.844759 3.00000000
-0.553380 -21.243115 -58.895803 3.00000000
-21.161866 11.123382 -54.672393 3.00000000
-7.766761 30.430770 -51.930792 3.00000000
24.796964 -15.639663 -37.765441 3.00000000
-13.727986 -13.498273 -4.072060 3.00000000
9.595912 34.253949 -7.950907 3.00000000
19.810253 -18.969005 -46.067567 3.00000000
34.905962 4.281122 -60.963781 3.00000000
-20.485518 14.014123 -1.934262 3.00000000
-18.602528 -6.618955 -17.953820 3.00000000
9.011076 34.295910 -16.238369 3.00000000
28.036164 -12.473081 -20.475312 3.00000000
3.577888 -22.030319 -39.710095 3.00000000
8.108610 -21.918197 -16.445173 3.00000000
19.324375 -19.228497 -28.273282 3.00000000
-0.676841 33.405969 -58.393512 3.00000000
33.808359 -2.000828 -22.471685 3.00000000
-0.093746 33.559977 -4.399217 3.00000000
-10.164862 -16.629553 3.809967 3.00000000
-11.135862 28.073854 -14.575527 3.00000000
-11.093804 28.108177 -18.546038 3.00000000
34.857148 3.379693 -48.545194 3.00000000
-2.721288 -20.589761 -26.347645 3.00000000
-19.558105 16.671062 -57.589489 3.00000000
34.602053 9.118442 -35.628007 3.00000000
33.496255 15.165595 -23.700538 3.00000000
-21.258877 10.593408 -2.195308 3.00000000
21.042125 -18.293147 -42.026221 3.00000000
-5.216458 31.766685 -57.764950 3.00000000
2.466065 -21.882302 -32.639174 3.00000000
11.844379 -21.683480 -59.431831 3.00000000
-8.935347 29.700058 -55.675950 3.00000000
29.940764 -10.036356 -8.184068 3.00000000
19.783722 31.190037 -53.756980 3.00000000
18.870981 -19.438165 -4.890888 3.00000000
3.394836 33.963838 -32.619505 3.00000000
-16.745291 -9.777237 -22.454779 3.00000000
-21.140718 11.230365 -47.395718 3.00000000
-5.789384 -19.297341 -12.885904 3.00000000
-14.063886 25.336692 -9.854031 3.00000000
26.805002 26.009108 -38.865541 3.00000000
1.703450 33.846339 -25.648353 3.00000000
31.264753 20.126128 -31.710632 3.00000000
-20.472452 14.065880 -8.986945 3.00000000
11.610711 33.965674 -56.194901 3.00000000
14.848327 -20.997145 -58.369912 3.00000000
4.930472 34.070518 -16.167517 3.00000000
7.467694 -21.958466 -2.509589 3.00000000
19.191596 31.479808 -20.358543 3.00000000
22.993402 29.226606 -5.206440 3.00000000
28.251170 24.421746 -38.323798 3.00000000
-20.916936 12.305235 -55.874231 3.00000000
30.910120 -8.540964 -60.789330 3.00000000
34.005010 13.414527 -46.869517 3.00000000
24.111466 28.402787 -22.359132 3.00000000
-18.589699 18.826015 -13.088112 3.00000000
16.541123 -20.425556 -43.300946 3.00000000
34.789736 2.805069 -26.262156 3.00000000
4.286082 -22.093734 -50.623086 3.00000000
-21.482580 8.873127 -59.675879 3.00000000
-21.319979 10.134450 -44.045807 3.00000000
-1.216524 33.263428 -36.718248 3.00000000
-16.440276 22.409532 -27.322412 3.00000000
13.581263 -21.331779 -14.349392 3.00000000
11.675388 33.952889 -39.548157 3.00000000
-11.157169 -15.863401 -35.143184 3.00000000
27.106791 -13.483996 -4.713331 3.00000000
-15.184645 -11.851338 2.996639 3.00000000
12.076204 -21.667971 -5.962867 3.00000000
15.768418 -20.706779 -27.289439 3.00000000
-13.948163 -13.260645 -35.621366 3.00000000
34.662128 1.846445 -20.087560 3.00000000
-21.372874 5.809878 -51.345770 3.00000000
33.086595 16.271501 -0.685845 3.00000000
7.067756 -21.983594 -50.984398 3.00000000
30.359827 -9.395453 -44.177959 3.00000000
-19.468726 -4.710148 -14.077707 3.00000000
-19.085662 -5.580175 -52.036763 3.00000000
-20.232832 14.813776 -21.580029 3.00000000
31.156603 -8.110015 -47.370018 3.00000000
-8.302148 30.095995 -24.315630 3.00000000
17.767824 32.136427 -49.103127 3.00000000
-19.244877 17.446975 -43.307189 3.00000000
-20.909003 -0.176141 -24.800148 3.00000000
-8.238618 -17.942774 -29.433416 3.00000000
34.687290 7.761730 -54.996686 3.00000000
-7.936275 -18.137486 -43.184359 3.00000000
0.012632 33.588073 -1.014829 3.00000000
34.717688 7.277883 -38.095789 3.00000000
0.340112 33.674568 -54.097002 3.00000000
17.573785 -20.024673 -12.697060 3.00000000
2.740520 -21.918849 -28.859973 3.00000000
11.402186 -21.711263 -26.636534 3.00000000
19.212416 31.469841 -30.173535 3.00000000
14.723016 33.238865 -56.764584 3.00000000
22.536658 29.543122 -12.991986 3.00000000
24.352658 -16.002265 -7.425315 3.00000000
15.154747 -20.909902 -9.170257 3.00000000
8.533644 -21.891492 -36.410245 3.00000000
-21.276912 4.555255 -22.998113 3.00000000
-15.739527 -11.171407 -54.552586 3.00000000
-21.407005 6.256127 -26.092408 3.00000000
-17.669321 20.515707 -22.320949 3.00000000
12.962340 -21.495238 -33.893523 3.00000000
9.963002 34.205090 -58.695752 3.00000000
25.621056 -14.927574 -15.616558 3.00000000
-4.799296 31.959594 -3.195954 3.00000000
-11.980556 -15.172935 0.307275 3.00000000
30.032181 22.091952 -45.619546 3.00000000
29.673744 -10.398759 -23.924870 3.00000000
15.192117 33.086271 -14.966010 3.00000000
-20.434214 -1.973815 -27.913485 3.00000000
28.691089 -11.692076 -17.589379 3.00000000
34.740789 6.910178 -22.965018 3.00000000
-6.469571 -18.960859 -42.747738 3.00000000
-21.523011 7.772815 -50.494685 3.00000000
26.802751 -13.803452 -51.314683 3.00000000
25.756272 -14.802288 3.250611 3.00000000
0.202053 -21.433830 -7.781861 3.00000000
-21.129158 2.623484 -26.436719 3.00000000
-2.443820 -20.681967 -29.264463 3.00000000
34.483145 11.011092 -23.190677 3.00000000
32.857187 -4.651726 -10.631528 3.00000000
-18.315246 -7.149884 -59.552070 3.00000000
3.570281 -22.029306 -57.193096 3.00000000
-21.076609 1.936438 -17.083003 3.00000000
12.494938 -21.587511 -20.048514 3.00000000
14.618687 -21.057794 -5.885587 3.00000000
29.991863 -9.966822 -52.233555 3.00000000
22.141230 -17.605881 -48.710450 3.00000000
-6.755765 30.995157 -13.812259 3.00000000
16.244806 -20.540587 -49.817659 3.00000000
-9.047315 -17.421966 -31.125584 3.00000000
3.211744 -21.981581 -10.963764 3.00000000
34.518133 10.454191 3.791473 3.00000000
11.165254 34.045022 -1.736941 3.00000000
-20.284638 14.657879 -5.529907 3.00000000
33.321094 -3.467051 2.841258 3.00000000
-19.239469 17.460370 -26.777779 3.00000000
18.185985 31.961232 -21.733956 3.00000000
-18.315541 -7.149337 -0.030118 3.00000000
16.601460 32.607255 -5.772772 3.00000000
6.950220 34.210828 -18.405086 3.00000000
31.129214 20.372382 -8.982430 3.00000000
-19.190714 17.570623 -18.297317 3.00000000
-21.512061 7.629644 -19.877439 3.00000000
26.502749 -14.110632 -40.632278 3.00000000
26.673597 26.134166 -45.070140 3.00000000
33.061920 -4.144548 -19.852291 3.00000000
34.722775 2.301993 -0.159801 3.00000000
-12.075966 -15.092928 -12.111630 3.00000000
-13.136272 -14.095103 -48.189547 3.00000000
-21.352195 5.539517 -1.455165 3.00000000
7.879372 34.275376 -8.279845 3.00000000
26.158478 26.624402 -43.706132 3.00000000
22.952603 29.256668 -46.709205 3.00000000
22.379912 -17.456634 -14.165237 3.00000000
32.928583 -4.474860 -56.456931 3.00000000
32.810165 -4.768213 -16.908569 3.00000000
18.576262 31.774392 3.203170 3.00000000
-9.438229 -17.164944 2.121077 3.00000000
-8.492409 -17.779331 -14.795419 3.00000000
17.993644 32.045270 -27.754891 3.00000000
-21.215468 3.751917 -29.173897 3.00000000
-19.529530 -4.553520 -39.383133 3.00000000
-9.143921 -17.359751 -8.858722 3.00000000
-19.779417 16.122840 -38.977531 3.00000000
31.960291 18.840696 -11.770393 3.00000000
-11.551914 -15.532381 -24.309843 3.00000000
2.715331 -21.915495 -31.058597 3.00000000
34.870608 4.843864 -54.291354 3.00000000
-15.347584 23.856738 -52.321471 3.00000000
-21.285767 4.671030 -16.414985 3.00000000
25.347715 27.373495 -56.470737 3.00000000
8.231721 -21.910462 -26.584840 3.00000000
-21.423277 9.358413 -39.918592 3.00000000
3.475981 -22.016754 -21.156118 3.00000000
34.852948 5.124942 -25.545261 3.00000000
-16.075403 -10.712337 -17.330151 3.00000000
17.040318 -20.231767 1.228115 3.00000000
-11.573007 27.717096 -10.333338 3.00000000
32.514755 17.651811 -4.656604 3.00000000
-19.007922 17.952436 -38.849057 3.00000000
-2.854122 -20.545618 -7.528147 3.00000000
-21.255311 4.272841 -40.845390 3.00000000
19.945177 31.099864 2.824332 3.00000000
34.530136 1.060389 -21.675827 3.00000000
-9.968302 28.972239 -57.517613 3.00000000
-2.681041 -20.603135 -41.000430 3.00000000
28.975781 -11.346042 -44.359659 3.00000000
-15.228718 -11.797333 -41.454871 3.00000000
-20.764083 12.910701 -37.850757 3.00000000
-15.091209 24.162460 1.646510 3.00000000
-18.753994 -6.297402 2.311806 3.00000000
33.446344 15.316398 -33.407188 3.00000000
19.529681 31.317954 -42.893143 3.00000000
24.016583 28.472699 -59.026007 3.00000000
31.262900 20.129553 -52.253483 3.00000000
6.039479 34.147560 -3.319400 3.00000000
20.180401 30.968490 -12.381339 3.00000000
20.464982 30.809549 1.011233 3.00000000
15.319549 -20.855352 -45.513287 3.00000000
0.163720 33.627979 1.869627 3.00000000
-2.211888 -20.759042 -14.064951 3.00000000
-18.833827 18.316083 -60.974794 3.00000000
8.633571 -21.885214 -48.484964 3.00000000
-12.206239 27.165615 -27.938177 3.00000000
30.072124 22.036196 -35.513123 3.00000000
12.139252 -21.655856 -24.989461 3.00000000
-13.553490 25.872981 -37.297801 3.00000000
-21.485431 7.281476 -52.442955 3.00000000
-1.840425 -20.882484 -57.449977 3.00000000
33.038126 -4.203492 -1.569927 3.00000000
32.253441 18.216897 -10.633126 3.00000000
32.963161 16.589450 -51.233443 3.00000000
-21.247936 4.176416 -34.050680 3.00000000
-0.798280 33.373895 -29.985765 3.00000000
-6.733349 31.007286 -25.392254 3.00000000
33.893009 13.838581 -35.154224 3.00000000
28.811718 -11.548225 -19.910373 3.00000000
-20.019754 15.454981 -18.465148 3.00000000
-18.178199 -7.403162 -33.298208 3.00000000
34.518607 10.446642 -26.054519 3.00000000
-12.363603 -14.830466 -13.546517 3.00000000
19.764084 31.201006 -23.949942 3.00000000
-21.464149 7.003235 -43.777097 3.00000000
7.286213 -21.969868 -53.155358 3.00000000
-18.482251 19.050450 -51.966676 3.00000000
0.179252 33.632081 -31.169497 3.00000000
-18.351301 19.294567 -21.622010 3.00000000
22.148719 29.792958 -58.224949 3.00000000
33.223680 -3.743826 -8.961223 3.00000000
-14.156156 -13.036167 -19.955171 3.00000000
18.341953 31.886565 -26.010299 3.00000000
26.108918 -14.475540 -2.592300 3.00000000
-20.108945 15.186582 -40.833936 3.00000000
26.190722 26.593716 -21.094771 3.00000000
0.673181 33.745957 -48.877060 3.00000000
18.964143 -19.395083 -38.593571 3.00000000
0.068807 33.602910 -26.111249 3.00000000
34.529741 10.269431 -40.287121 3.00000000
33.734922 14.437123 -48.188444 3.00000000
34.134990 -0.713569 -56.901708 3.00000000
-19.007914 17.952453 -29.700632 3.00000000
19.097287 31.524958 -49.424025 3.00000000
27.154312 25.635910 -49.816272 3.00000000
20.957013 -18.346367 -59.730449 3.00000000
33.725764 14.471797 -56.266616 3.00000000
-7.653082 30.501854 -40.201998 3.00000000
10.368914 34.151064 -3.895149 3.00000000
4.138585 -22.084154 -34.091634 3.00000000
8.648639 -21.884267 -59.284449 3.00000000
-4.016123 -20.092736 -8.175723 3.00000000
11.379767 34.011328 -11.899848 3.00000000
1.837355 33.855641 -42.622372 3.00000000
-19.066625 17.829819 -2.150479 3.00000000
34.477122 11.106959 -19.271932 3.00000000
27.153197 25.637114 -0.971911 3.00000000
-21.121415 2.522250 -30.583334 3.00000000
-0.189231 33.534757 -56.824355 3.00000000
34.580190 9.466436 -60.954747 3.00000000
-19.149995 17.655676 -36.280670 3.00000000
21.237373 30.378164 -36.070983 3.00000000
13.748163 -21.287701 -43.164040 3.00000000
19.435012 31.363276 -6.484542 3.00000000
34.492025 0.867616 2.144022 3.00000000
33.189315 16.006910 -42.032204 3.00000000
16.074290 32.793118 2.374897 3.00000000
-11.504951 27.772637 -37.143967 3.00000000
15.059897 33.130209 -36.353449 3.00000000
15.878050 32.858330 -44.864583 3.00000000
28.097782 24.609701 -49.639663 3.00000000
22.105182 -17.628422 -2.272137 3.00000000
11.892039 -21.680485 -55.568695 3.00000000
3.061764 33.940700 -47.208145 3.00000000
19.279318 31.437813 -35.571014 3.00000000
29.041263 23.453596 -53.157622 3.00000000
-21.360160 5.643656 -8.341076 3.00000000
-20.917815 -0.139667 -32.319624 3.00000000
32.603125 -5.281102 -43.635752 3.00000000
-12.468625 26.922498 -9.438101 3.00000000
-19.226592 -5.275417 -58.079397 3.00000000
-21.229344 10.782025 -29.719076 3.00000000
15.210364 33.080208 -17.206358 3.00000000
33.458143 -3.054659 -46.542540 3.00000000
-15.872962 23.179520 -30.918715 3.00000000
-1.256099 -21.065707 -43.643192 3.00000000
10.937123 34.075403 -36.332814 3.00000000
-12.835334 -14.381512 -46.850466 3.00000000
-21.480757 8.901199 -46.415082 3.00000000
23.829612 -16.423571 -48.023883 3.00000000
21.930506 -17.737646 -38.594596 3.00000000
3.760860 33.989266 -21.067668 3.00000000
-1.232754 33.259141 1.745893 3.00000000
-11.763523 27.561615 -12.160537 3.00000000
34.464082 0.726277 -50.287054 3.00000000
34.674486 7.965518 -60.456308 3.00000000
21.737505 30.057783 -1.220783 3.00000000
11.787735 -21.687039 0.024640 3.00000000
26.890438 -13.711319 -36.843239 3.00000000
-0.042362 -21.372126 -15.698464 3.00000000
32.075113 18.602528 -14.544794 3.00000000
8.328684 34.306589 -34.355491 3.00000000
-20.462264 -1.867609 3.482428 3.00000000
11.357010 34.015826 -17.850607 3.00000000
-7.473389 -18.400260 -7.982691 3.00000000
-20.304894 -2.425600 -32.963254 3.00000000
28.105141 -12.390825 -1.298510 3.00000000
7.587445 -21.950942 -19.741147 3.00000000
-20.770914 -0.698982 -9.820558 3.00000000
18.805977 31.664419 -1.649431 3.00000000
-5.942478 31.430950 -29.891792 3.00000000
-21.020165 1.198484 -9.787172 3.00000000
-13.084520 -14.144356 -36.191530 3.00000000
32.812190 16.978325 -55.995519 3.00000000
-4.751449 31.981720 -8.989537 3.00000000
34.442164 11.541387 -3.569918 3.00000000
-1.099795 -21.105167 -61.115829 3.00000000
-1.383644 -21.033507 -28.185287 3.00000000
34.746579 2.480829 -45.821630 3.00000000
9.441210 34.267975 -14.604480 3.00000000
-15.690823 -11.231087 -31.206679 3.00000000
24.438532 -15.932182 -8.719487 3.00000000
18.075158 -19.806185 -22.557796 3.00000000
22.579493 -17.319106 -36.923577 3.00000000
30.475279 -9.216180 1.211163 3.00000000
-21.449918 9.158261 -2.867296 3.00000000
-20.733372 -0.841123 -11.340787 3.00000000
29.112925 23.365785 -35.473072 3.00000000
0.833982 33.776860 -47.229205 3.00000000
20.060309 31.035562 -33.549585 3.00000000
34.211728 -0.409601 -6.291827 3.00000000
-4.765862 -19.787388 2.691529 3.00000000
11.692392 -21.693029 -2.881299 3.00000000
18.966633 31.587506 -59.779389 3.00000000
5.827806 -22.061499 0.234948 3.00000000
14.859029 -20.994319 3.560892 3.00000000
-21.476828 7.169010 -47.168021 3.00000000
-12.655724 26.749140 -36.797304 3.00000000
-13.940310 -13.269121 -51.061762 3.00000000
21.603947 30.143796 -38.015959 3.00000000
32.205205 -6.117848 -11.705370 3.00000000
-21.237927 10.738603 -57.890621 3.00000000
24.410372 28.159520 -25.435669 3.00000000
33.017438 16.449639 -38.142447 3.00000000
22.776927 29.386111 -26.780487 3.00000000
34.496892 10.792286 -42.212424 3.00000000
25.976723 26.797378 -13.424552 3.00000000
34.908829 4.175763 0.201463 3.00000000
-21.258159 10.598802 -23.832736 3.00000000
-21.079269 1.971224 -57.060414 3.00000000
27.198937 25.587747 -48.118854 3.00000000
6.891234 -21.994684 -32.480425 3.00000000
-20.986760 12.028655 -14.120819 3.00000000
18.647009 -19.541738 -19.348145 3.00000000
30.666546 -8.919183 -21.443647 3.00000000
8.312155 34.305441 -26.683623 3.00000000
25.096476 27.584176 -23.219648 3.00000000
17.368179 32.297752 -59.833622 3.00000000
-21.058717 1.702521 -40.221596 3.00000000
29.761464 -10.279704 -33.909242 3.00000000
7.521372 34.250506 3.594690 3.00000000
21.076678 -18.271541 -39.899602 3.00000000
-13.580030 25.845095 -38.789662 3.00000000
-17.785916 -8.128145 -43.616382 3.00000000
30.742875 20.990220 -2.512406 3.00000000
-21.299771 4.854117 2.133715 3.00000000
-21.421866 9.369014 -47.650727 3.00000000
-17.036263 21.519246 -37.505044 3.00000000
10.833382 -21.747000 -9.900362 3.00000000
31.647344 19.419059 -42.272769 3.00000000
-14.227762 -12.958886 -57.504906 3.00000000
-5.404299 -19.481714 -58.039333 3.00000000
2.841391 33.925391 -22.553588 3.00000000
29.286812 -10.923907 -47.067832 3.00000000
34.819959 3.032130 -15.621673 3.00000000
-16.458987 -10.176891 -14.015499 3.00000000
-12.924581 26.500027 -53.619362 3.00000000
-7.907209 30.342949 -38.375110 3.00000000
-3.353651 32.551716 -14.521534 3.00000000
-21.280832 4.606497 -14.897336 3.00000000
7.181112 -21.976472 -8.047222 3.00000000
-17.623737 -8.390146 -59.302371 3.00000000
29.225794 23.217592 -58.770693 3.00000000
32.547629 17.580722 -49.550293 3.00000000
-3.146762 32.632033 -38.587933 3.00000000
32.483975 -5.535557 -59.116150 3.00000000
27.296916 25.482000 -37.759794 3.00000000
27.209751 25.576076 -24.068533 3.00000000
6.449492 -22.022439 -43.021184 3.00000000
34.487075 0.842577 -5.793046 3.00000000
-17.862750 -7.986147 -3.869614 3.00000000
4.476864 -22.106126 -11.733507 3.00000000
29.735150 -10.315417 -3.111531 3.00000000
6.893543 34.206891 -31.522608 3.00000000
-5.647788 31.567225 -59.461269 3.00000000
34.852788 5.127495 -35.563026 3.00000000
33.011727 16.464350 -45.133677 3.00000000
-5.782279 31.505031 -48.090302 3.00000000
11.128544 -21.728455 -17.026027 3.00000000
29.126234 23.349476 -17.215849 3.00000000
-13.903073 -13.309309 -33.104564 3.00000000
29.176839 -11.073163 -55.784714 3.00000000
15.789726 32.887681 -24.418316 3.00000000
24.999269 27.665690 1.132725 3.00000000
23.020448 -17.003223 -38.512578 3.00000000
-1.642661 33.150876 -4.786158 3.00000000
-20.635677 -1.211023 -12.661304 3.00000000
30.481842 21.407667 -37.071484 3.00000000
-19.948302 -3.474778 -44.713869 3.00000000
23.145250 29.114721 -57.209383 3.00000000
13.315629 33.594177 -4.365601 3.00000000
-20.631144 -1.228185 -19.486907 3.00000000
31.972172 -6.604602 -18.908330 3.00000000
3.966128 -22.072952 -22.550392 3.00000000
-1.536810 -20.983380 -15.592028 3.00000000
-2.494770 -20.665036 -35.418504 3.00000000
29.585772 -10.518156 -53.421402 3.00000000
3.351900 33.960855 -6.727199 3.00000000
19.549124 31.308646 -48.131161 3.00000000
17.970656 -19.854511 3.329691 3.00000000
25.367901 -15.162138 -44.598112 3.00000000
1.955525 33.863850 -51.550875 3.00000000
5.184080 34.088136 -33.833604 3.00000000
-20.384447 -2.162245 -42.549866 3.00000000
-15.321185 -11.684028 -28.451762 3.00000000
33.498114 15.159978 -31.930013 3.00000000
29.702314 22.552415 -13.810025 3.00000000
4.106453 -22.082067 -25.764622 3.00000000
8.321906 34.306118 -30.579382 3.00000000
-19.348229 17.190957 -40.382876 3.00000000
34.665681 8.105673 -0.500087 3.00000000
31.542242 -7.419523 -55.584955 3.00000000
33.194565 15.993388 -22.547871 3.00000000
-9.732012 29.141508 -21.033571 3.00000000
19.239112 -19.267926 -21.873944 3.00000000
32.308284 -5.902537 -34.461434 3.00000000
34.685553 7.789375 -1.834082 3.00000000
29.069704 -11.218568 -32.782669 3.00000000
34.460903 11.365119 -37.809562 3.00000000
8.680609 34.317372 -45.588722 3.00000000
-20.206300 14.893617 -50.855918 3.00000000
5.650402 34.120531 -37.566919 3.00000000
32.523600 -5.452788 -45.919814 3.00000000
-14.581137 -12.577503 -54.634084 3.00000000
34.539136 10.119887 -4.473520 3.00000000
33.852940 13.990290 -26.839502 3.00000000
-19.125201 17.707466 3.679094 3.00000000
24.077772 -16.226602 -28.129132 3.00000000
-18.725173 -6.359726 -57.244808 3.00000000
2.394601 33.894353 -0.207795 3.00000000
-8.204809 30.156861 -12.776885 3.00000000
-10.391694 28.668938 -3.355107 3.00000000
23.751124 28.668297 -54.487559 3.00000000
31.695538 19.329989 -1.915352 3.00000000
33.991673 13.465025 -19.407208 3.00000000
-0.719178 -21.201258 -23.167416 3.00000000
8.027579 -21.923288 -18.055628 3.00000000
-21.103637 2.289815 -58.512567 3.00000000
-16.202799 22.731847 -4.008929 3.00000000
28.293459 -12.166254 -38.334596 3.00000000
-7.433584 30.628381 -26.836631 3.00000000
-8.711103 29.840277 -37.191828 3.00000000
1.139378 -21.651026 -14.682127 3.00000000
14.059760 33.406312 -45.888938 3.00000000
28.333451 -12.118563 -33.757082 3.00000000
-1.928916 -20.853077 -21.077993 3.00000000
26.260794 26.527029 -50.436045 3.00000000
22.391879 -17.449151 -6.585154 3.00000000
33.767490 14.313816 -16.753609 3.00000000
-7.365371 30.665291 -7.539887 3.00000000
18.289399 -19.707111 -48.242064 3.00000000
15.188420 33.087500 -8.373596 3.00000000
4.259440 -22.092004 -28.499790 3.00000000
-9.834371 -16.873062 -0.855560 3.00000000
18.157651 -19.768037 -21.088935 3.00000000
3.280064 33.955865 -42.877608 3.00000000
21.316362 30.329003 2.690256 3.00000000
33.942707 13.650415 -54.781724 3.00000000
34.748648 6.785087 -16.288048 3.00000000
13.513312 33.544269 -27.657156 3.00000000
20.508477 30.785257 -15.621863 3.00000000
-20.744189 12.989502 -52.018207 3.00000000
-0.841020 33.362606 -9.932461 3.00000000
-20.773231 -0.690210 -43.755985 3.00000000
-21.455707 9.114769 -26.986912 3.00000000
34.126570 -0.746922 -61.114611 3.00000000
34.632582 1.624511 -46.895049 3.00000000
-21.177248 3.252215 -53.136911 3.00000000
-8.052467 -18.062657 -0.480027 3.00000000
34.003697 -1.233633 -3.190515 3.00000000
34.538312 1.101747 -39.816735 3.00000000
22.314960 29.685897 3.728506 3.00000000
30.563579 -9.079069 -34.123358 3.00000000
-21.503611 7.519169 -10.310392 3.00000000
-3.122704 32.641372 -11.542324 3.00000000
-20.270759 -2.528729 -2.014029 3.00000000
-15.095187 24.157718 -49.005729 3.00000000
7.579668 -21.951430 -23.026025 3.00000000
3.323885 -21.996508 -8.895953 3.00000000
0.274286 -21.452066 -13.463640 3.00000000
34.112900 -0.801069 -31.171993 3.00000000
-14.278435 -12.904197 -46.184319 3.00000000
-21.335652 5.323240 -56.369635 3.00000000
-2.034145 33.024421 -17.241861 3.00000000
2.336120 33.890290 -50.132087 3.00000000
-20.173554 14.992159 -24.405645 3.00000000
-1.894691 33.070578 -32.478694 3.00000000
-15.461206 23.721247 -17.563428 3.00000000
1.121940 -21.648158 -34.537577 3.00000000
-17.277592 -8.943704 -20.980227 3.00000000
4.550014 34.044088 -41.648495 3.00000000
27.784455 -12.771971 -14.526996 3.00000000
19.140867 31.504094 -52.594753 3.00000000
15.029995 33.140146 -22.498137 3.00000000
14.095547 -21.195956 -22.914686 3.00000000
32.313106 18.087874 -2.434322 3.00000000
18.999135 31.571947 -10.271372 3.00000000
6.392305 34.172070 -34.783801 3.00000000
-11.631225 27.669584 -16.146587 3.00000000
30.356449 21.608196 -54.189545 3.00000000
-18.272594 -7.228710 -25.502533 3.00000000
-15.426715 -11.554715 1.058534 3.00000000
11.849932 -21.683131 -46.421238 3.00000000
-18.375858 19.250597 -36.321430 3.00000000
30.920270 20.706528 3.107141 3.00000000
34.413169 0.418618 -55.314226 3.00000000
0.833887 33.776841 -10.951601 3.00000000
16.678724 -20.372139 -1.125334 3.00000000
28.181789 24.506763 -33.864673 3.00000000
-10.256768 28.765594 -10.921354 3.00000000
31.657046 19.401128 -5.415477 3.00000000
34.732668 7.039445 -53.471870 3.00000000
-21.360189 5.644040 -35.122861 3.00000000
18.966581 -19.393955 -56.129436 3.00000000
-21.360511 9.829979 -28.419549 3.00000000
30.680968 21.089222 -55.522382 3.00000000
16.080657 -20.603429 -34.329390 3.00000000
-14.799818 -12.322891 -49.868033 3.00000000
33.444331 15.322479 0.725525 3.00000000
-15.648214 23.484558 0.619467 3.00000000
17.249350 -20.150620 -36.036510 3.00000000
-5.081358 31.829159 -42.070997 3.00000000
34.510589 10.574263 -52.445611 3.00000000
28.287865 -12.172925 -56.614278 3.00000000
34.772768 2.677585 -34.707783 3.00000000
26.605483 26.198989 -6.474147 3.00000000
34.542657 10.063847 -34.178761 3.00000000
1.993020 33.866455 -32.852040 3.00000000
34.552792 9.902517 -24.301016 3.00000000
33.019448 -4.249764 1.266685 3.00000000
19.003340 31.569934 -28.632246 3.00000000
34.852968 3.315299 -36.930870 3.00000000
-5.107390 31.817122 -15.314438 3.00000000
-12.048380 27.311881 -60.883242 3.00000000
27.521972 -13.047763 -17.735471 3.00000000
1.531357 33.834384 -19.240232 3.00000000
12.069566 -21.669246 -28.056789 3.00000000
1.248525 33.814736 -55.746073 3.00000000
-5.034326 -19.658852 -18.021029 3.00000000
-21.320482 10.130667 -50.425399 3.00000000
19.025410 31.559368 -15.581906 3.00000000
32.662148 -5.134887 -55.163330 3.00000000
-21.495121 8.680052 -54.473426 3.00000000
24.974838 -15.494499 -14.343158 3.00000000
-11.654277 -15.446542 -2.497161 3.00000000
21.211004 -18.187547 -10.443129 3.00000000
29.967935 -9.999479 -58.419195 3.00000000
25.123369 -15.373281 -26.421001 3.00000000
-20.575252 -1.439808 -56.452667 3.00000000
18.208849 31.950287 -12.105144 3.00000000
30.212073 21.839084 -30.456763 3.00000000
-18.418070 19.175012 -53.660452 3.00000000
20.137135 30.992654 -36.892766 3.00000000
-11.966767 -15.184499 -48.482313 3.00000000
4.789199 34.060704 -53.784091 3.00000000
-10.999828 -15.995342 -5.673520 3.00000000
3.837525 33.994591 -57.048255 3.00000000
12.402482 -21.605276 -41.132703 3.00000000
20.176703 30.970555 -0.868161 3.00000000
34.006351 13.409448 -29.745893 3.00000000
-19.746413 -3.994837 -2.552454 3.00000000
-8.850443 -17.548753 -24.516734 3.00000000
-16.748770 -9.772381 -44.586927 3.00000000
-20.922273 -0.081387 -38.387832 3.00000000
30.043051 22.076779 -9.825966 3.00000000
-3.320079 -20.373704 -12.721217 3.00000000
27.966955 24.758837 -9.842571 3.00000000
5.343463 -22.091931 -18.406674 3.00000000
-20.793058 12.795927 -8.895982 3.00000000
34.460960 11.364209 -14.935250 3.00000000
9.194214 -21.849989 -1.246218 3.00000000
22.547065 -17.342336 -24.075870 3.00000000
-21.502133 8.572095 -16.224139 3.00000000
32.628334 17.406198 -18.871381 3.00000000
13.473676 33.554276 -12.612115 3.00000000
-10.450133 -16.419362 -60.476269 3.00000000
-18.276871 -7.220805 -16.335787 3.00000000
-14.300937 -12.879912 -24.377799 3.00000000
-4.742223 31.985986 -17.342282 3.00000000
23.323675 28.983253 -33.795751 3.00000000
2.833357 -21.931211 -4.351159 3.00000000
6.776670 -22.001883 -4.370690 3.00000000
13.219986 33.618323 -36.692266 3.00000000
-15.576704 23.581615 -16.044914 3.00000000
-7.108451 -18.604066 -47.974755 3.00000000
10.495757 -21.768213 -59.331125 3.00000000
32.548251 -5.401297 -36.072896 3.00000000
15.557617 -20.776553 -4.804667 3.00000000
23.787328 -16.453861 -61.060882 3.00000000
14.034307 33.412738 -37.701272 3.00000000
-17.742068 20.385449 -5.550169 3.00000000
11.591181 -21.699388 -32.693734 3.00000000
2.667723 33.913326 -37.099586 3.00000000
0.264593 -21.449619 -12.124013 3.00000000
18.656876 -19.537175 -26.915712 3.00000000
17.088387 32.410697 -29.100312 3.00000000
32.004789 -6.536473 -14.610625 3.00000000
-13.678483 25.741647 -59.435933 3.00000000
26.493657 -14.119056 -8.046138 3.00000000
-12.638162 -14.569163 -61.016507 3.00000000
-7.806305 30.406044 -34.265708 3.00000000
-10.860405 -16.112257 -3.790546 3.00000000
-15.010734 24.258425 -41.812502 3.00000000
-6.575994 31.092433 0.240104 3.00000000
24.122814 28.394425 -47.299070 3.00000000
-21.323639 5.166175 -0.072968 3.00000000
33.161903 16.077521 -40.219616 3.00000000
-7.877012 -18.174850 -50.293052 3.00000000
33.001214 16.491430 -31.426327 3.00000000
24.305245 28.247676 -16.971670 3.00000000
-19.233107 -5.261328 3.780206 3.00000000
-11.011479 28.175363 -35.277419 3.00000000
16.723983 32.557796 -13.159398 3.00000000
10.576017 34.123492 -19.113537 3.00000000
-8.848831 29.754156 -49.007669 3.00000000
32.659972 -5.140278 -5.982696 3.00000000
34.732576 2.375627 -17.017306 3.00000000
-10.859917 -16.112666 -50.834772 3.00000000
34.881100 3.748642 -5.511419 3.00000000
20.564938 30.753724 -45.174345 3.00000000
-17.154495 21.335663 -27.864648 3.00000000
-7.324823 30.687232 -47.573668 3.00000000
-8.036492 -18.072945 -35.750249 3.00000000
34.081827 13.123686 -56.877544 3.00000000
0.931242 -21.616793 -56.807883 3.00000000
-21.339355 5.371652 -27.456667 3.00000000
-18.705310 18.584527 -7.477424 3.00000000
26.181576 -14.408218 -28.721606 3.00000000
31.715740 -7.108871 -29.289934 3.00000000
9.860108 34.218785 -17.589097 3.00000000
22.630126 29.482927 -61.094174 3.00000000
-11.949460 -15.199011 -52.832949 3.00000000
-1.456514 33.200042 -33.809343 3.00000000
0.195711 -21.432229 -5.999079 3.00000000
-19.435752 16.974150 -44.957413 3.00000000
24.723210 -15.699854 -52.432586 3.00000000
22.435620 -17.421800 -28.682497 3.00000000
27.428435 -13.146043 0.201758 3.00000000
-3.675733 32.426680 -25.775669 3.00000000
33.905274 -1.623497 -52.020244 3.00000000
30.813791 -8.690544 -7.771823 3.00000000
32.607911 17.450362 -46.496767 3.00000000
-2.785351 32.772336 -15.802902 3.00000000
31.208434 20.230212 0.461947 3.00000000
29.865393 -10.138650 -18.968071 3.00000000
21.002794 -18.317741 -15.874620 3.00000000
1.687415 33.845225 -31.417042 3.00000000
20.936908 -18.358938 -22.538131 3.00000000
17.595173 32.206121 -52.852097 3.00000000
-4.201398 -20.017947 -37.911541 3.00000000
13.116330 33.644492 -2.938385 3.00000000
19.474618 31.344315 0.169408 3.00000000
25.549367 -14.993998 -39.073926 3.00000000
-19.966136 -3.428837 -13.507936 3.00000000
34.660492 8.188261 -44.897585 3.00000000
-21.443218 9.208599 -41.561331 3.00000000
28.014639 -12.498750 1.466313 3.00000000
-20.881044 12.447405 -16.331741 3.00000000
-1.381551 33.219841 -40.418791 3.00000000
-15.168862 24.069862 -20.725980 3.00000000
6.023151 34.146425 -9.632863 3.00000000
31.457284 19.770309 -16.518341 3.00000000
-20.426351 14.231428 -26.240868 3.00000000
-21.140451 2.771126 0.266229 3.00000000
-7.653410 30.501649 -60.169153 3.00000000
15.385027 33.022165 -38.389996 3.00000000
-21.513546 7.649067 -39.069406 3.00000000
-18.983187 -5.801776 -14.927617 3.00000000
9.162946 34.286047 -55.068487 3.00000000
-4.250876 -19.997975 -3.545745 3.00000000
8.857062 -21.871172 -40.293932 3.00000000
-19.776853 -3.916425 -5.493524 3.00000000
33.755393 -2.160208 -50.321427 3.00000000
-12.393193 -14.802305 -31.667306 3.00000000
17.630159 32.191999 -24.548914 3.00000000
24.289569 -16.053752 0.496071 3.00000000
27.715169 25.030586 -40.034678 3.00000000
25.597685 -14.949228 -10.813361 3.00000000
-20.674935 13.263822 -6.351599 3.00000000
9.993695 34.201005 -11.002855 3.00000000
22.557369 -17.334955 -39.894906 3.00000000
-21.362683 5.676638 -47.601425 3.00000000
6.810856 34.201146 -24.210416 3.00000000
-1.893151 33.071088 -12.014453 3.00000000
34.856632 5.066318 -24.000420 3.00000000
34.264703 12.431288 -49.436965 3.00000000
28.464685 24.160113 -4.126980 3.00000000
-20.967781 0.513602 -26.131569 3.00000000
-20.038986 15.397106 -31.328370 3.00000000
-21.248465 10.671621 -39.643322 3.00000000
-2.191331 -20.765873 -4.142446 3.00000000
4.516681 34.041772 -11.845765 3.00000000
21.425783 30.258535 -13.854431 3.00000000
14.434108 33.311803 -55.221059 3.00000000
-13.123630 -14.107135 -6.039670 3.00000000
-20.742032 12.998045 -41.060361 3.00000000
-0.261751 33.515603 -20.635783 3.00000000
34.832101 3.123355 -18.510577 3.00000000
-19.802524 -3.850297 -35.958871 3.00000000
13.447406 -21.367131 3.646956 3.00000000
-12.580898 26.818471 -41.182385 3.00000000
-6.731338 31.008375 -12.208727 3.00000000
-20.964185 0.466585 3.379652 3.00000000
24.538979 -15.850207 -21.878364 3.00000000
-6.707710 31.021160 -15.344957 3.00000000
33.913082 -1.592567 -44.097466 3.00000000
30.609109 -9.008371 -16.911229 3.00000000
-21.131473 2.653753 -27.946749 3.00000000
11.977311 -21.675128 -13.061961 3.00000000
6.500459 -22.019237 -49.209681 3.00000000
9.227933 -21.847870 -6.320721 3.00000000
19.986454 -18.873661 -60.652610 3.00000000
-16.799795 21.886420 -26.106600 3.00000000
16.297991 32.718780 -30.748185 3.00000000
18.211989 -19.742909 -53.156702 3.00000000
-0.740161 33.389245 -44.000707 3.00000000
-13.665168 25.755638 -22.545497 3.00000000
-19.938853 15.698431 -28.349794 3.00000000
-21.088474 11.497574 -5.905588 3.00000000
5.762538 -22.065600 -44.368128 3.00000000
34.779506 6.293929 -49.897775 3.00000000
34.352690 12.007048 -30.172681 3.00000000
0.757258 -21.573997 -32.945609 3.00000000
-14.372851 25.012052 -24.358675 3.00000000
-21.240326 4.076917 -8.198735 3.00000000
-15.578003 23.579852 -38.564472 3.00000000
-20.401107 14.307393 -55.272198 3.00000000
28.588993 24.007791 -44.483384 3.00000000
0.173379 33.630530 3.363870 3.00000000
24.572828 -15.822582 -30.373201 3.00000000
14.806584 -21.008170 -32.172106 3.00000000
13.703993 -21.299366 -60.805535 3.00000000
11.852316 33.917913 -31.019353 3.00000000
-14.259027 -12.925143 -37.333046 3.00000000
-19.675668 16.379842 -32.654187 3.00000000
-17.116923 21.394003 -32.859466 3.00000000
19.248225 -19.263712 -42.357973 3.00000000
-6.643506 31.055901 -32.840739 3.00000000
-3.712480 -20.215306 -52.803634 3.00000000
32.620639 -5.237716 -49.569376 3.00000000
-17.418906 -8.717714 -5.877904 3.00000000
-11.653020 27.651796 -45.998101 3.00000000
34.509574 10.590424 -5.977540 3.00000000
1.604147 -21.737433 -30.019615 3.00000000
-15.345459 23.859274 -24.106521 3.00000000
-18.896566 -5.989091 -42.728413 3.00000000
15.342133 33.036420 -41.021613 3.00000000
-11.298602 -15.744799 1.726222 3.00000000
5.905395 -22.056624 2.186021 3.00000000
-13.364098 26.071981 -52.226748 3.00000000
29.001272 -11.311445 -30.415939 3.00000000
-12.975962 -14.247673 -57.012500 3.00000000
33.053283 16.357307 -26.519361 3.00000000
27.038290 -13.555971 -45.822006 3.00000000
20.048414 -18.840134 -41.222738 3.00000000
24.559916 -15.833120 -24.901732 3.00000000
-20.136662 -2.933859 -7.613156 3.00000000
-7.865924 -18.181042 -4.845249 3.00000000
-7.621503 -18.317543 -37.494786 3.00000000
34.480840 11.047776 -45.597599 3.00000000
-2.088757 33.006345 -58.900768 3.00000000
-17.323824 21.072740 -55.245190 3.00000000
-6.980338 30.873638 -10.489228 3.00000000
34.879094 3.717738 -23.467762 3.00000000
-21.174790 3.220081 1.775254 3.00000000
-17.277779 21.144235 -24.784693 3.00000000
-5.613481 31.583089 -28.418626 3.00000000
32.156170 -6.220270 -44.770480 3.00000000
-16.700448 22.040680 -48.278709 3.00000000
-3.514221 32.489381 -57.839616 3.00000000
-13.873688 -13.341023 -30.458499 3.00000000
33.723499 -2.256178 -35.336248 3.00000000
33.496584 15.164601 -36.624115 3.00000000
33.788082 14.235850 -18.224082 3.00000000
17.300700 -20.130686 -27.648116 3.00000000
3.229068 -21.983887 -54.975721 3.00000000
30.483509 -9.203401 -53.869292 3.00000000
-1.633506 -20.951246 0.619861 3.00000000
-9.290877 29.457519 -11.548874 3.00000000
13.196739 -21.433333 -28.777129 3.00000000
-11.733645 -15.379987 -42.802858 3.00000000
32.778965 -4.845501 -27.424429 3.00000000
22.827291 -17.141594 -27.460398 3.00000000
-8.147987 30.192392 -25.680331 3.00000000
23.903819 -16.368566 -13.634935 3.00000000
-21.503608 7.519127 -24.781701 3.00000000
9.048476 34.293481 3.169988 3.00000000
-21.354034 9.878642 -19.064782 3.00000000
-21.322815 10.113146 1.709068 3.00000000
34.580383 9.463358 -45.405613 3.00000000
33.099122 -4.052390 -42.404181 3.00000000
-13.010447 -14.214853 -0.135100 3.00000000
-1.721939 33.127757 -52.047436 3.00000000
-5.787504 31.502615 -16.536141 3.00000000
16.030956 -20.619880 -10.879887 3.00000000
4.604190 -22.114396 -4.756213 3.00000000
-20.414775 -2.047413 -34.686162 3.00000000
24.678722 -15.736162 -55.866067 3.00000000
10.361527 -21.776647 -57.206312 3.00000000
-17.063624 21.476763 2.926748 3.00000000
-16.469359 22.370058 -10.951783 3.00000000
-1.377023 33.221037 -31.234092 3.00000000
7.375809 -21.964239 3.720417 3.00000000
16.297529 32.718934 -42.800544 3.00000000
-15.967172 -10.863417 3.811887 3.00000000
-2.367941 -20.707183 -18.186946 3.00000000
-12.616687 26.785310 -58.866483 3.00000000
-0.177836 33.537767 -12.555487 3.00000000
-19.365423 -4.975197 -44.177220 3.00000000
-19.433535 -4.800801 -18.134080 3.00000000
-19.710542 16.293453 -49.044381 3.00000000
-18.830929 -6.131030 -60.617786 3.00000000
-15.718240 -11.197491 -22.494777 3.00000000
10.255599 -21.783302 3.828229 3.00000000
21.670127 30.101175 -55.504727 3.00000000
-21.137394 11.247182 -41.190171 3.00000000
-1.439819 33.204451 -57.379752 3.00000000
26.489774 26.309109 -10.884040 3.00000000
12.154852 -21.652858 -14.657255 3.00000000
25.613888 27.142686 -40.899087 3.00000000
32.162958 -6.206093 -54.351309 3.00000000
11.147215 -21.727282 -4.510026 3.00000000
5.667908 -22.071546 -58.399335 3.00000000
34.272044 12.403495 -23.800916 3.00000000
34.566515 1.244402 -33.844460 3.00000000
33.665808 -2.429775 -60.865196 3.00000000
32.403052 17.893365 -29.699672 3.00000000
34.726306 2.328521 -8.580610 3.00000000
11.317350 34.023667 -59.849752 3.00000000
4.966940 34.073051 -2.555100 3.00000000
34.527658 10.302572 -55.617694 3.00000000
-12.492615 26.900270 -0.198552 3.00000000
-21.408533 9.469191 -8.472074 3.00000000
-20.440371 14.189237 -16.541626 3.00000000
31.486278 -7.519726 -57.072289 3.00000000
-5.371722 31.694886 3.776898 3.00000000
30.861611 20.800335 -41.200974 3.00000000
-7.349261 -18.469582 -26.583520 3.00000000
-18.753475 18.483922 -59.676522 3.00000000
25.353901 -15.175109 -40.516885 3.00000000
-19.841572 -3.749712 -19.813438 3.00000000
7.985483 34.282747 -56.049320 3.00000000
-17.324662 21.071439 -7.610482 3.00000000
8.540124 -21.891085 -42.800193 3.00000000
34.180960 -0.531476 -46.591823 3.00000000
30.463044 21.437728 -12.206652 3.00000000
-21.056447 1.672839 -25.432540 3.00000000
-15.254015 23.968318 -4.124616 3.00000000
13.822136 -21.268164 -9.110516 3.00000000
2.441461 33.897608 -39.124809 3.00000000
24.170358 -16.151041 -49.459338 3.00000000
-4.693036 -19.819490 -16.153386 3.00000000
-11.276263 -15.763532 -18.956929 3.00000000
26.934918 -13.664584 -1.151988 3.00000000
-21.176021 3.236181 -14.023604 3.00000000
-19.467271 -4.713896 -21.280682 3.00000000
34.481883 11.031171 -17.602042 3.00000000
-14.405174 -12.767412 -7.254807 3.00000000
4.406962 -22.101586 0.908624 3.00000000
-3.553645 32.474076 -18.146573 3.00000000
-1.131959 33.285763 -54.166571 3.00000000
34.427735 0.507168 -2.992145 3.00000000
-20.612975 13.509255 -4.421867 3.00000000
-11.830454 -15.298806 -40.542220 3.00000000
-17.675081 -8.308036 -24.256111 3.00000000
-13.192994 -14.041120 -19.044158 3.00000000
-3.457489 -20.318237 3.572128 3.00000000
-20.907215 -0.182909 -18.645148 3.00000000
34.833717 5.431053 -38.785948 3.00000000
34.750557 6.754711 -6.889027 3.00000000
-1.886079 33.073429 -35.377744 3.00000000
3.406078 33.964619 -1.082172 3.00000000
-21.457722 6.919213 -29.610291 3.00000000
-16.959668 21.638180 -12.680407 3.00000000
-17.887505 -7.940396 -27.162560 3.00000000
1.184993 33.810322 -26.932359 3.00000000
-20.142911 -2.914980 -59.609804 3.00000000
29.229740 23.212083 -9.063876 3.00000000
34.758654 6.625816 -5.301944 3.00000000
16.684643 -20.369841 -14.860390 3.00000000
-16.573114 -10.017581 -47.987452 3.00000000
-21.463775 6.998343 -1.615344 3.00000000
34.739878 6.924677 -14.098589 3.00000000
-21.418166 9.396812 3.373423 3.00000000
23.305777 28.996440 -9.875089 3.00000000
34.850008 5.171749 -13.274208 3.00000000
21.721293 30.068224 -26.043630 3.00000000
14.350107 -21.128726 -54.211152 3.00000000
26.972660 -13.624928 -20.491964 3.00000000
6.767153 34.198111 -20.983769 3.00000000
-20.553371 -1.522655 -54.653797 3.00000000
26.986899 25.816596 -13.363769 3.00000000
34.902438 4.077321 -45.816748 3.00000000
-20.215473 14.866012 -29.554162 3.00000000
-5.580071 31.598539 -26.264305 3.00000000
12.343262 33.830044 -53.305642 3.00000000
-15.813981 -11.077257 -6.705847 3.00000000
-18.692977 -6.429350 -53.352637 3.00000000
-19.086369 17.788578 -23.008804 3.00000000
30.031390 22.093056 3.543139 3.00000000
-5.921621 -19.234028 -52.554613 3.00000000
11.526104 -21.703477 -31.252702 3.00000000
-0.279802 33.510836 -18.757637 3.00000000
17.199415 -20.170005 -23.773543 3.00000000
32.384023 17.934517 -52.232895 3.00000000
18.232421 31.939002 -47.519329 3.00000000
30.235065 -9.589181 -9.455757 3.00000000
-8.278698 30.110659 -21.812209 3.00000000
28.055977 24.660928 -52.730453 3.00000000
-14.709525 24.617611 -43.675763 3.00000000
-21.129195 2.623963 -12.780809 3.00000000
9.915429 34.211422 -50.317504 3.00000000
-8.904366 -17.514026 -23.062980 3.00000000
21.217184 -18.183683 -13.477460 3.00000000
21.846662 -17.790073 1.269652 3.00000000
25.536549 27.215145 -24.853178 3.00000000
6.375936 -22.027060 -35.501447 3.00000000
27.923372 24.805875 -43.603661 3.00000000
32.396102 17.908396 -58.694293 3.00000000
33.640382 14.730121 -3.486898 3.00000000
-5.557534 -19.408347 -32.752138 3.00000000
31.502040 -7.491504 -21.698776 3.00000000
23.645737 -16.555291 -20.234144 3.00000000
32.441784 17.809609 -26.455615 3.00000000
19.468479 -19.153944 -10.585514 3.00000000
-3.412071 32.529037 -3.857476 3.00000000
-6.652233 -18.858848 -49.600519 3.00000000
13.854451 33.458145 -14.073300 3.00000000
-7.655904 30.500089 -23.070252 3.00000000
-13.395321 26.039174 -28.655594 3.00000000
3.228311 33.952270 -11.117385 3.00000000
34.611536 8.967494 2.421560 3.00000000
-2.213990 32.964895 3.175798 3.00000000
-6.130760 31.333355 -43.508419 3.00000000
16.587165 -20.407683 -40.750774 3.00000000
34.636538 8.569535 -21.750580 3.00000000
34.791919 6.096347 -32.781185 3.00000000
-14.316383 25.071385 -31.413022 3.00000000
26.898104 -13.703265 -11.644037 3.00000000
34.551546 9.922359 -30.311492 3.00000000
-4.846234 -19.748908 -50.134452 3.00000000
32.558895 -5.379064 -32.938413 3.00000000
0.459822 -21.498906 -1.013514 3.00000000
-14.384423 -12.789808 -41.373834 3.00000000
31.153444 20.331840 -1.186568 3.00000000
25.474690 -15.063191 -19.186411 3.00000000
34.613820 8.931144 -41.052159 3.00000000
-20.018159 15.459779 -54.456370 3.00000000
-21.489138 8.772172 -30.905280 3.00000000
-15.838666 -11.042798 -5.039537 3.00000000
-6.985204 -18.672895 -61.117986 3.00000000
30.539707 21.315127 -16.201516 3.00000000
-16.974440 -9.428507 1.894033 3.00000000
32.468795 17.751199 -38.823784 3.00000000
29.766197 -10.273281 -17.364280 3.00000000
13.463467 33.556853 -39.311893 3.00000000
-14.354478 -12.822126 -52.510685 3.00000000
15.534202 -20.784304 -57.228079 3.00000000
-11.154152 -15.865931 -58.649938 3.00000000
-13.036777 26.396071 -49.986522 3.00000000
24.886938 27.759887 -7.156611 3.00000000
23.503615 28.850668 -45.216530 3.00000000
13.811121 -21.271073 -7.708929 3.00000000
33.789148 14.231813 3.617498 3.00000000
19.746102 -19.003718 -44.316071 3.00000000
29.957890 22.195656 -17.003770 3.00000000
6.098934 34.151690 -1.806562 3.00000000
33.542423 -2.801052 -31.738758 3.00000000
34.771773 2.670113 -28.948388 3.00000000
-15.505204 23.668780 -25.440978 3.00000000
30.665004 -8.921577 -57.032975 3.00000000
-19.889272 15.847632 -10.711644 3.00000000
21.667093 30.103130 -28.106877 3.00000000
-19.433836 -4.800026 -56.412984 3.00000000
33.445033 -3.094109 -18.994395 3.00000000
