7.995078 -21.925330 -40.485745 24.00000000
12.060136 -21.669924 -26.456396 24.00000000
8.221930 -21.911077 -49.756461 24.00000000
10.202297 -21.786651 -52.428230 24.00000000
5.660296 -22.072024 -22.594061 24.00000000
5.916655 -22.055917 -40.540326 24.00000000
11.442241 -21.708746 -45.314522 24.00000000
7.002073 -21.987720 -10.199899 24.00000000
12.029968 -21.671819 -28.152151 24.00000000
9.139210 -21.853445 -7.385344 24.00000000
9.181525 -21.850786 -48.233520 24.00000000
6.752629 -22.003393 -56.830272 24.00000000
9.006123 -21.861807 -35.221482 24.00000000
6.703138 -22.006502 -9.558783 24.00000000
7.053705 -21.984476 -7.321145 24.00000000
10.070992 -21.794901 -59.529984 24.00000000
6.581835 -22.014124 -58.267034 24.00000000
5.145188 -22.104388 -24.778502 24.00000000
8.115839 -21.917743 -30.958072 24.00000000
5.707185 -22.069078 -30.159446 24.00000000
10.266537 -21.782615 -5.217764 24.00000000
9.985944 -21.800245 -32.184462 24.00000000
6.486950 -22.020086 -46.506519 24.00000000
8.141908 -21.916105 2.993186 24.00000000
10.076737 -21.794540 -27.162499 24.00000000
9.135530 -21.853676 -21.936396 24.00000000
6.719951 -22.005446 -14.369654 24.00000000
7.929448 -21.929454 -6.493661 24.00000000
8.319241 -21.904963 -39.239569 24.00000000
8.666606 -21.883138 -44.979343 24.00000000
8.511869 -21.892860 -19.207323 24.00000000
10.229082 -21.784968 -13.726968 24.00000000
11.382702 -21.712487 -52.271675 24.00000000
8.013984 -21.924142 -4.742833 24.00000000
10.414391 -21.773325 -23.887088 24.00000000
9.901838 -21.805529 -52.440501 24.00000000
11.607076 -21.698389 -49.572112 24.00000000
6.514849 -22.018333 -35.573548 24.00000000
12.049799 -21.670573 -2.517268 24.00000000
8.351367 -21.902945 -7.048900 24.00000000
4.883410 -22.120836 -28.606093 24.00000000
9.794649 -21.812264 -0.776046 24.00000000
9.200889 -21.849569 -55.050290 24.00000000
11.222829 -21.722532 -44.999177 24.00000000
5.254855 -22.097498 -58.084036 24.00000000
9.227675 -21.847886 -6.624388 24.00000000
11.534681 -21.702938 2.704922 24.00000000
10.978263 -21.737898 -13.261241 24.00000000
7.948346 -21.928266 -47.622661 24.00000000
11.080298 -21.731487 -33.966674 24.00000000
9.406818 -21.836631 -55.870230 24.00000000
8.648548 -21.884273 -10.885397 24.00000000
9.911649 -21.804913 -54.506787 24.00000000
5.590241 -22.076426 -37.550741 24.00000000
5.495085 -22.082404 -26.754523 24.00000000
11.908781 -21.679433 -13.142595 24.00000000
9.893040 -21.806082 -58.771224 24.00000000
6.715733 -22.005711 -5.990512 24.00000000
6.000925 -22.050622 -37.553696 24.00000000
5.297013 -22.094849 -23.324163 24.00000000
8.871845 -21.870243 -24.384122 24.00000000
9.968283 -21.801354 -26.370379 24.00000000
5.597785 -22.075951 -14.826751 24.00000000
8.384709 -21.900850 -39.563874 24.00000000
7.930694 -21.929375 -22.133094 24.00000000
7.676190 -21.945366 -6.959579 24.00000000
5.173346 -22.102619 -53.770547 24.00000000
11.278962 -21.719005 0.574809 24.00000000
7.896803 -21.931505 -14.638113 24.00000000
6.535682 -22.017024 1.424715 24.00000000
8.722867 -21.879603 -25.624784 24.00000000
8.181699 -21.913605 -59.489378 24.00000000
12.026464 -21.672039 -0.073899 24.00000000
7.803856 -21.937345 -41.756618 24.00000000
6.611244 -22.012276 -49.831734 24.00000000
8.389182 -21.900569 -26.941778 24.00000000
5.053964 -22.110120 -55.927746 24.00000000
9.389875 -21.837696 -46.539693 24.00000000
10.532050 -21.765933 -13.156378 24.00000000
11.159013 -21.726541 -39.226720 24.00000000
9.878022 -21.807025 -26.885163 24.00000000
7.412572 -21.961929 -55.030250 24.00000000
10.159046 -21.789369 -44.220964 24.00000000
8.324415 -21.904638 -20.744248 24.00000000
10.665629 -21.757540 -30.273584 24.00000000
9.348353 -21.840304 -16.843658 24.00000000
10.639451 -21.759185 -37.652652 24.00000000
8.638823 -21.884884 -37.302353 24.00000000
6.356705 -22.028269 -5.144269 24.00000000
6.325491 -22.030230 -49.960967 24.00000000
9.541336 -21.828179 -19.229958 24.00000000
7.478428 -21.957791 -60.758437 24.00000000
7.086950 -21.982388 -53.823823 24.00000000
8.041230 -21.922431 -41.906569 24.00000000
7.428022 -21.960958 -7.650045 24.00000000
10.509039 -21.767379 -58.441683 24.00000000
9.242816 -21.846935 -17.174929 24.00000000
9.855218 -21.808458 -16.401418 24.00000000
8.195367 -21.912746 -12.072737 24.00000000
10.389539 -21.774887 -45.454131 24.00000000
10.930693 -21.740886 -56.228593 24.00000000
6.193174 -22.038543 -7.541252 24.00000000
10.202573 -21.786634 -8.930265 24.00000000
8.224024 -21.910946 -49.158592 24.00000000
10.691664 -21.755904 0.850292 24.00000000
7.264678 -21.971221 -17.250370 24.00000000
5.282923 -22.095734 -20.982284 24.00000000
8.465794 -21.895755 -35.131967 24.00000000
9.282339 -21.844452 -41.623616 24.00000000
10.900030 -21.742813 -0.265775 24.00000000
5.789603 -22.063900 -22.947005 24.00000000
10.507294 -21.767488 1.101602 24.00000000
8.134890 -21.916546 -48.904724 24.00000000
9.553727 -21.827401 -13.176314 24.00000000
9.476141 -21.832275 -35.483084 24.00000000
10.074508 -21.794680 -22.396158 24.00000000
5.070125 -22.109104 3.801791 24.00000000
7.719343 -21.942655 -51.142679 24.00000000
11.749980 -21.689411 -52.774362 24.00000000
5.155247 -22.103756 -50.308394 24.00000000
11.515916 -21.704117 0.355441 24.00000000
11.583351 -21.699880 -23.539542 24.00000000
6.946742 -21.991197 -29.606703 24.00000000
10.424976 -21.772660 -61.083750 24.00000000
11.657870 -21.695198 -1.703515 24.00000000
11.482823 -21.706196 -36.717169 24.00000000
7.992582 -21.925487 -48.495574 24.00000000
8.097553 -21.918892 -5.880144 24.00000000
7.232300 -21.973255 -47.485278 24.00000000
7.662679 -21.946215 -35.758176 24.00000000
9.761320 -21.814358 2.922333 24.00000000
6.410430 -22.024893 -30.531915 24.00000000
6.023727 -22.049190 -30.506669 24.00000000
8.314660 -21.905251 -2.586824 24.00000000
7.221983 -21.973904 -16.691705 24.00000000
9.264914 -21.845547 -0.961091 24.00000000
11.938468 -21.677568 -16.854814 24.00000000
11.645270 -21.695990 -9.080848 24.00000000
9.198761 -21.849703 -49.084162 24.00000000
8.043719 -21.922274 -59.256545 24.00000000
5.429618 -22.086517 -33.387048 24.00000000
9.654353 -21.821078 -48.847754 24.00000000
8.686531 -21.881886 -0.521837 24.00000000
10.832190 -21.747075 -21.046559 24.00000000
4.897311 -22.119962 -14.130939 24.00000000
6.094699 -22.044731 -9.034041 24.00000000
8.982789 -21.863273 -26.426154 24.00000000
8.446208 -21.896986 -43.361020 24.00000000
8.421534 -21.898536 -50.864801 24.00000000
11.657228 -21.695238 2.137873 24.00000000
6.348348 -22.028794 -37.524751 24.00000000
8.050544 -21.921845 -2.996460 24.00000000
7.433402 -21.960620 -3.261565 24.00000000
6.416080 -22.024538 -41.910476 24.00000000
12.030557 -21.671782 -50.914327 24.00000000
11.576561 -21.700307 -30.586318 24.00000000
9.509419 -21.830185 1.521775 24.00000000
9.229437 -21.847776 -50.450273 24.00000000
10.147869 -21.790071 -21.097552 24.00000000
6.725029 -22.005127 -3.598316 24.00000000
5.835835 -22.060995 -58.101376 24.00000000
7.833412 -21.935488 -55.665730 24.00000000
8.923107 -21.867022 2.832113 24.00000000
8.467944 -21.895620 -27.226198 24.00000000
9.249753 -21.846499 -51.243986 24.00000000
6.046667 -22.047748 -13.469272 24.00000000
7.418868 -21.961533 -9.706685 24.00000000
7.101112 -21.981498 -19.188012 24.00000000
10.736140 -21.753110 -1.802917 24.00000000
9.694674 -21.818545 -48.217052 24.00000000
6.560894 -22.015440 -36.039798 24.00000000
9.072704 -21.857623 -54.758862 24.00000000
4.799826 -22.126087 -55.653227 24.00000000
9.235532 -21.847393 -4.251905 24.00000000
7.271789 -21.970774 0.703662 24.00000000
5.815092 -22.062298 -36.352380 24.00000000
6.718837 -22.005516 -48.228754 24.00000000
10.214564 -21.785881 -9.808837 24.00000000
6.596469 -22.013204 3.223190 24.00000000
12.058629 -21.670018 -47.669587 24.00000000
11.279858 -21.718948 -58.343932 24.00000000
6.020977 -22.049362 -49.996145 24.00000000
6.345226 -22.028990 -15.706000 24.00000000
10.307886 -21.780017 -32.606659 24.00000000
11.958007 -21.676340 -39.170736 24.00000000
8.720128 -21.879776 -30.019386 24.00000000
5.149657 -22.104107 -29.330374 24.00000000
8.059780 -21.921265 -59.884013 24.00000000
5.361905 -22.090772 -51.178225 24.00000000
9.576218 -21.825988 -2.818141 24.00000000
10.660038 -21.757892 1.429348 24.00000000
8.292673 -21.906632 -51.158440 24.00000000
9.892162 -21.806137 -22.134986 24.00000000
10.163624 -21.789081 -14.342140 24.00000000
6.619101 -22.011782 -31.788580 24.00000000
10.507545 -21.767473 -8.862517 24.00000000
7.710427 -21.943215 -25.126606 24.00000000
9.387781 -21.837827 -17.751889 24.00000000
7.707391 -21.943406 -9.346602 24.00000000
10.034999 -21.797163 -52.773564 24.00000000
6.740395 -22.004162 -24.277756 24.00000000
11.419910 -21.710149 -58.088578 24.00000000
8.675270 -21.882594 -9.588312 24.00000000
10.952420 -21.739521 -0.002378 24.00000000
10.459762 -21.770475 0.137078 24.00000000
7.021999 -21.986468 2.513877 24.00000000
10.106116 -21.792694 -20.073696 24.00000000
8.025091 -21.923445 -56.942208 24.00000000
10.586734 -21.762497 -22.233930 24.00000000
11.590703 -21.699418 -9.399939 24.00000000
6.128829 -22.042586 -44.093890 24.00000000
6.505848 -22.018898 -1.448518 24.00000000
9.216480 -21.848590 -10.044233 24.00000000
10.913365 -21.741975 -34.554991 24.00000000
8.993107 -21.862624 -16.644323 24.00000000
9.851556 -21.808688 -20.807846 24.00000000
9.587473 -21.825281 -51.321659 24.00000000
12.022181 -21.672308 -15.510002 24.00000000
6.157433 -22.040789 -7.870192 24.00000000
10.959817 -21.739056 -39.892391 24.00000000
8.227246 -21.910743 -1.460374 24.00000000
6.538511 -22.016846 -44.196870 24.00000000
5.593324 -22.076232 -16.567813 24.00000000
9.888596 -21.806361 -2.489136 24.00000000
11.435572 -21.709165 -35.977819 24.00000000
11.064458 -21.732482 -46.833687 24.00000000
5.801598 -22.063146 -7.439244 24.00000000
6.069385 -22.046321 -35.753951 24.00000000
12.025983 -21.672070 -6.662681 24.00000000
7.202065 -21.975155 -57.980733 24.00000000
9.058406 -21.858522 -35.606134 24.00000000
11.433547 -21.709292 -40.830860 24.00000000
9.248589 -21.846573 0.263562 24.00000000
6.589678 -22.013631 -55.385617 24.00000000
7.215253 -21.974326 -30.343416 24.00000000
5.501677 -22.081990 -42.072286 24.00000000
9.135015 -21.853708 -59.406390 24.00000000
10.059359 -21.795632 -31.287049 24.00000000
10.835486 -21.746868 -4.005782 24.00000000
6.350913 -22.028633 -11.260362 24.00000000
9.598400 -21.824594 -11.408696 24.00000000
9.885075 -21.806582 -6.647886 24.00000000
8.555936 -21.890092 -30.465991 24.00000000
5.396641 -22.088589 -33.098947 24.00000000
11.129621 -21.728388 -33.578661 24.00000000
8.401645 -21.899786 -8.598089 24.00000000
7.726690 -21.942193 -20.377437 24.00000000
10.914648 -21.741894 -5.753845 24.00000000
10.873144 -21.744502 -24.970012 24.00000000
10.049901 -21.796226 -40.513913 24.00000000
6.754212 -22.003294 -26.702414 24.00000000
7.405551 -21.962370 -33.583531 24.00000000
11.921895 -21.678609 3.623242 24.00000000
9.620865 -21.823182 -30.056388 24.00000000
8.259624 -21.908709 -32.757734 24.00000000
6.555019 -22.015809 -44.857937 24.00000000
7.871279 -21.933109 -23.175485 24.00000000
6.548982 -22.016188 -20.975684 24.00000000
8.423372 -21.898421 -2.040645 24.00000000
11.980059 -21.674955 -24.575122 24.00000000
11.308680 -21.717137 -7.244767 24.00000000
6.976393 -21.989334 -14.034095 24.00000000
7.452769 -21.959403 -32.419401 24.00000000
8.436678 -21.897585 -5.864274 24.00000000
6.603955 -22.012734 -20.503414 24.00000000
5.074021 -22.108859 -44.142272 24.00000000
4.853905 -22.122689 -25.263170 24.00000000
7.479481 -21.957725 -51.309911 24.00000000
10.913182 -21.741987 -27.672095 24.00000000
5.453690 -22.085005 -4.468631 24.00000000
9.194040 -21.850000 -34.870802 24.00000000
10.570960 -21.763488 -27.790976 24.00000000
8.029522 -21.923166 -15.208055 24.00000000
8.841421 -21.872155 -45.482012 24.00000000
6.461060 -22.021712 -27.803687 24.00000000
7.392494 -21.963190 -56.654960 24.00000000
9.941928 -21.803010 -25.047478 24.00000000
9.188069 -21.850375 -57.075525 24.00000000
5.402360 -22.088230 -11.275773 24.00000000
6.038544 -22.048259 -28.884171 24.00000000
7.764684 -21.939806 -16.679966 24.00000000
6.249752 -22.034989 -38.496526 24.00000000
8.574486 -21.888926 0.179142 24.00000000
10.839543 -21.746613 -35.282716 24.00000000
5.931393 -22.054991 -14.463872 24.00000000
5.165771 -22.103095 -41.596313 24.00000000
11.641882 -21.696203 -41.152678 24.00000000
5.760107 -22.065753 0.068219 24.00000000
6.486584 -22.020108 -7.822498 24.00000000
11.113376 -21.729408 -13.992042 24.00000000
9.485955 -21.831659 -44.769831 24.00000000
5.661360 -22.071957 -19.313755 24.00000000
5.007899 -22.113014 1.940363 24.00000000
6.409622 -22.024944 -59.263924 24.00000000
11.347209 -21.714717 -11.970398 24.00000000
7.085584 -21.982473 -38.760000 24.00000000
9.392525 -21.837529 -18.141083 24.00000000
5.184388 -22.101925 -60.076024 24.00000000
7.465037 -21.958633 -47.821341 24.00000000
9.263736 -21.845621 -43.097175 24.00000000
6.970487 -21.989705 -12.191326 24.00000000
7.104080 -21.981311 -30.924350 24.00000000
8.874025 -21.870106 -52.769295 24.00000000
6.037988 -22.048294 -53.655156 24.00000000
9.374572 -21.838657 -8.746300 24.00000000
9.508780 -21.830225 -33.054718 24.00000000
6.002879 -22.050500 -24.607196 24.00000000
10.680750 -21.756590 -17.294699 24.00000000
11.437748 -21.709028 -49.160086 24.00000000
10.189344 -21.787465 -56.732608 24.00000000
9.687416 -21.819001 -51.604562 24.00000000
7.933518 -21.929198 -9.560636 24.00000000
7.669770 -21.945769 -24.813818 24.00000000
7.576964 -21.951600 -50.372813 24.00000000
7.542502 -21.953765 -29.868075 24.00000000
11.939704 -21.677490 -40.198400 24.00000000
6.009347 -22.050093 -41.506937 24.00000000
12.037743 -21.671331 -9.870758 24.00000000
6.812709 -21.999618 -58.024424 24.00000000
10.964017 -21.738793 -56.496752 24.00000000
7.682852 -21.944947 -27.119741 24.00000000
5.278009 -22.096043 -45.501597 24.00000000
7.589228 -21.950830 -23.085227 24.00000000
10.871529 -21.744604 -58.038105 24.00000000
4.829539 -22.124220 -56.600528 24.00000000
6.834381 -21.998257 1.534012 24.00000000
5.509456 -22.081501 -13.929273 24.00000000
9.525941 -21.829147 -30.919465 24.00000000
6.003077 -22.050487 -43.213985 24.00000000
11.804187 -21.686005 -27.072109 24.00000000
5.005680 -22.113153 -51.318873 24.00000000
11.637636 -21.696469 -37.961845 24.00000000
6.668246 -22.008695 -5.675310 24.00000000
6.711888 -22.005953 -18.760605 24.00000000
8.750717 -21.877854 -10.619061 24.00000000
6.101104 -22.044328 -23.048204 24.00000000
6.020773 -22.049375 -54.538449 24.00000000
5.717796 -22.068411 -39.880118 24.00000000
12.018477 -21.672541 -0.580291 24.00000000
5.829437 -22.061397 2.817008 24.00000000
5.278202 -22.096031 -51.536216 24.00000000
4.979138 -22.114821 -36.623649 24.00000000
10.881085 -21.744003 -47.173732 24.00000000
11.192600 -21.724431 -53.094514 24.00000000
9.894486 -21.805991 -29.501515 24.00000000
6.190363 -22.038720 -35.109111 24.00000000
11.037111 -21.734200 -4.920371 24.00000000
6.432532 -22.023505 2.862081 24.00000000
6.010109 -22.050045 -24.053495 24.00000000
8.488434 -21.894333 -48.179200 24.00000000
6.548118 -22.016242 -31.232713 24.00000000
9.919221 -21.804437 -7.760516 24.00000000
4.842965 -22.123377 -19.856031 24.00000000
11.985455 -21.674616 -5.511317 24.00000000
8.011918 -21.924272 -2.656931 24.00000000
10.339892 -21.778006 -48.810505 24.00000000
5.851869 -22.059987 -28.549658 24.00000000
11.000871 -21.736477 -55.096817 24.00000000
5.534374 -22.079936 -43.770723 24.00000000
11.264879 -21.719890 -33.274991 24.00000000
11.997659 -21.673849 -51.395722 24.00000000
8.620563 -21.886031 -49.755198 24.00000000
4.794545 -22.126419 -57.150480 24.00000000
8.194645 -21.912792 -33.954672 24.00000000
11.055061 -21.733072 -52.010974 24.00000000
5.405302 -22.088045 2.069768 24.00000000
9.753064 -21.814876 -39.330782 24.00000000
5.640588 -22.073262 -23.697392 24.00000000
10.516183 -21.766930 -57.698658 24.00000000
5.089193 -22.107906 -5.147195 24.00000000
8.534538 -21.891436 -56.295789 24.00000000
4.916683 -22.118745 -5.726098 24.00000000
11.554233 -21.701709 -15.748085 24.00000000
7.063322 -21.983872 -18.077091 24.00000000
5.876601 -22.058434 -3.268829 24.00000000
7.156406 -21.978024 -23.566808 24.00000000
11.641207 -21.696245 -44.044519 24.00000000
5.382371 -22.089486 -36.465700 24.00000000
9.093782 -21.856299 -2.055815 24.00000000
5.333907 -22.092531 -59.834374 24.00000000
5.404587 -22.088090 3.345590 24.00000000
11.361095 -21.713844 -31.104385 24.00000000
9.276702 -21.844806 -13.221478 24.00000000
10.614860 -21.760730 -16.836438 24.00000000
5.851700 -22.059998 -40.209726 24.00000000
11.086056 -21.731125 -44.700976 24.00000000
11.892129 -21.680480 -4.182839 24.00000000
12.039811 -21.671201 -53.598403 24.00000000
6.014710 -22.049756 -25.597409 24.00000000
12.000733 -21.673656 -40.933409 24.00000000
6.559420 -22.015532 -38.482490 24.00000000
6.967813 -21.989873 -56.111000 24.00000000
5.785427 -22.064162 -35.588006 24.00000000
10.591880 -21.762174 -32.605588 24.00000000
12.036193 -21.671428 -3.032821 24.00000000
6.772938 -22.002117 -7.210253 24.00000000
8.504292 -21.893336 -1.492263 24.00000000
5.159960 -22.103460 2.312703 24.00000000
8.229499 -21.910602 -52.632468 24.00000000
6.447723 -22.022550 -9.696581 24.00000000
5.498382 -22.082197 -42.605066 24.00000000
11.005667 -21.736176 -14.747975 24.00000000
4.810188 -22.125436 -50.482265 24.00000000
4.821633 -22.124717 -15.854547 24.00000000
10.435629 -21.771991 -15.106713 24.00000000
12.006517 -21.673293 -56.136595 24.00000000
7.425020 -21.961147 1.717067 24.00000000
8.689947 -21.881672 -24.164017 24.00000000
10.253564 -21.783430 2.179255 24.00000000
10.329255 -21.778675 -7.599160 24.00000000
10.091599 -21.793606 -16.563270 24.00000000
11.187292 -21.724764 -11.348760 24.00000000
12.025494 -21.672100 -14.620722 24.00000000
8.088668 -21.919450 -22.416137 24.00000000
10.849054 -21.746016 -17.038011 24.00000000
8.773263 -21.876437 -28.051528 24.00000000
11.236916 -21.721646 -45.670618 24.00000000
10.080837 -21.794283 -47.832645 24.00000000
6.440197 -22.023023 -43.875370 24.00000000
11.648512 -21.695786 -0.546146 24.00000000
8.106828 -21.918309 -55.994917 24.00000000
10.174742 -21.788383 -13.066227 24.00000000
10.914614 -21.741897 -47.973899 24.00000000
6.314031 -22.030950 -21.906647 24.00000000
12.059075 -21.669990 -4.699336 24.00000000
9.263893 -21.845611 -45.036768 24.00000000
6.236744 -22.035806 -25.371113 24.00000000
4.842741 -22.123391 -46.225792 24.00000000
10.960469 -21.739015 -53.499292 24.00000000
8.495802 -21.893870 3.862355 24.00000000
4.853972 -22.122685 -33.178668 24.00000000
8.182350 -21.913564 -9.917039 24.00000000
10.935513 -21.740584 -4.599419 24.00000000
11.909035 -21.679417 -3.742319 24.00000000
7.921164 -21.929974 3.403676 24.00000000
11.537408 -21.702767 -21.928084 24.00000000
7.511718 -21.955700 -39.959046 24.00000000
7.153056 -21.978234 -16.946001 24.00000000
9.094810 -21.856234 -37.275098 24.00000000
8.373764 -21.901537 -3.993277 24.00000000
8.377890 -21.901278 -45.549610 24.00000000
6.841914 -21.997783 -9.915166 24.00000000
11.241676 -21.721347 -54.246730 24.00000000
11.649803 -21.695705 -11.155943 24.00000000
11.358153 -21.714029 -34.076302 24.00000000
5.294795 -22.094988 -13.439141 24.00000000
7.988057 -21.925771 -14.918651 24.00000000
7.146617 -21.978639 0.284194 24.00000000
9.354109 -21.839943 -10.534720 24.00000000
8.148102 -21.915716 -51.838487 24.00000000
9.615693 -21.823507 -5.144220 24.00000000
11.998357 -21.673805 -36.194141 24.00000000
12.023628 -21.672218 -49.211338 24.00000000
6.142908 -22.041702 -18.402876 24.00000000
6.231108 -22.036160 -1.215383 24.00000000
6.347184 -22.028867 -52.912412 24.00000000
9.315366 -21.842377 -15.590013 24.00000000
8.199829 -21.912466 -35.624293 24.00000000
8.998640 -21.862277 -11.012870 24.00000000
6.635096 -22.010778 -30.878552 24.00000000
9.205005 -21.849311 -5.168802 24.00000000
9.436609 -21.834759 -41.375428 24.00000000
6.344473 -22.029037 -20.198454 24.00000000
10.457038 -21.770646 -50.399385 24.00000000
4.882340 -22.120903 -59.920770 24.00000000
10.235028 -21.784595 3.725453 24.00000000
7.459645 -21.958971 -56.010874 24.00000000
10.859313 -21.745371 -14.104910 24.00000000
7.752415 -21.940577 -3.786865 24.00000000
10.285722 -21.781410 -41.885859 24.00000000
5.816031 -22.062239 -34.775690 24.00000000
6.635203 -22.010771 -32.093854 24.00000000
9.771114 -21.813742 -6.287920 24.00000000
11.356267 -21.714148 -5.169959 24.00000000
5.523251 -22.080634 -54.719802 24.00000000
4.828754 -22.124269 -52.073426 24.00000000
11.298413 -21.717783 -23.672204 24.00000000
7.908013 -21.930801 -12.631817 24.00000000
9.214459 -21.848717 -12.339380 24.00000000
5.162579 -22.103295 -50.000563 24.00000000
9.245288 -21.846780 -20.497651 24.00000000
11.963141 -21.676018 -53.072792 24.00000000
11.034783 -21.734346 -7.867354 24.00000000
5.061172 -22.109667 -1.583028 24.00000000
5.695591 -22.069806 -40.748793 24.00000000
6.446519 -22.022626 -33.104430 24.00000000
8.527423 -21.891883 -18.510407 24.00000000
7.788357 -21.938318 -28.078162 24.00000000
9.294678 -21.843677 -21.646548 24.00000000
7.898489 -21.931399 1.103326 24.00000000
7.761174 -21.940026 -29.371438 24.00000000
6.302494 -22.031675 -32.833380 24.00000000
6.638691 -22.010552 -45.885185 24.00000000
5.579857 -22.077078 -34.120915 24.00000000
7.810968 -21.936898 -54.357163 24.00000000
7.482827 -21.957515 -25.347253 24.00000000
6.455668 -22.022051 -15.289597 24.00000000
10.869839 -21.744710 -0.833255 24.00000000
7.062997 -21.983893 -10.722725 24.00000000
7.508841 -21.955880 -59.056932 24.00000000
7.428694 -21.960916 -34.490206 24.00000000
7.329146 -21.967171 -24.979080 24.00000000
8.717698 -21.879928 -40.288633 24.00000000
11.385135 -21.712334 -20.966291 24.00000000
5.367356 -22.090429 -15.663441 24.00000000
8.230070 -21.910566 3.834634 24.00000000
7.257274 -21.971686 -52.260697 24.00000000
7.352701 -21.965691 -11.753622 24.00000000
8.055857 -21.921512 -7.077777 24.00000000
12.036929 -21.671382 -1.348786 24.00000000
11.944852 -21.677167 -39.913734 24.00000000
7.116366 -21.980539 -46.289484 24.00000000
10.287090 -21.781324 -7.888763 24.00000000
11.677660 -21.693955 -43.385180 24.00000000
8.027534 -21.923291 -33.481728 24.00000000
5.719376 -22.068312 -8.295343 24.00000000
10.305050 -21.780195 -31.873836 24.00000000
10.252867 -21.783474 1.744016 24.00000000
10.077966 -21.794463 -7.061995 24.00000000
10.497194 -21.768123 -52.304762 24.00000000
5.679241 -22.070834 -18.149847 24.00000000
5.261857 -22.097058 -56.197742 24.00000000
9.228362 -21.847843 -33.982924 24.00000000
5.583827 -22.076828 -34.613203 24.00000000
9.850413 -21.808760 -33.350794 24.00000000
8.675437 -21.882583 -45.713669 24.00000000
6.159694 -22.040647 -32.116112 24.00000000
10.892629 -21.743278 -45.550607 24.00000000
8.373585 -21.901549 -53.975931 24.00000000
6.805704 -22.000058 0.755222 24.00000000
5.557744 -22.078467 -10.027051 24.00000000
10.120566 -21.791786 -14.915536 24.00000000
5.879227 -22.058269 -25.949848 24.00000000
11.529870 -21.703240 -30.086853 24.00000000
10.921342 -21.741474 -31.793571 24.00000000
7.149170 -21.978478 -29.043072 24.00000000
9.484322 -21.831761 -20.121494 24.00000000
4.998388 -22.113611 -9.165534 24.00000000
7.740106 -21.941350 -44.214408 24.00000000
11.659802 -21.695077 -16.684243 24.00000000
8.692483 -21.881512 -46.194614 24.00000000
12.055323 -21.670226 -21.483037 24.00000000
10.072705 -21.794794 -48.953539 24.00000000
10.962251 -21.738904 -9.990197 24.00000000
8.441106 -21.897306 -9.456429 24.00000000
6.108951 -22.043835 -44.360940 24.00000000
6.364306 -22.027791 -41.319655 24.00000000
5.948828 -22.053896 0.773567 24.00000000
9.478252 -21.832143 -34.051802 24.00000000
6.857357 -21.996813 2.223372 24.00000000
8.886659 -21.869312 -5.113246 24.00000000
5.379007 -22.089697 -38.784783 24.00000000
10.385305 -21.775153 -56.976867 24.00000000
8.444868 -21.897070 -6.154196 24.00000000
6.917396 -21.993041 -41.034647 24.00000000
10.613879 -21.760792 -50.668316 24.00000000
9.851479 -21.808693 -37.599288 24.00000000
8.733691 -21.878923 -16.297462 24.00000000
12.059450 -21.669967 -35.531015 24.00000000
6.734839 -22.004511 -46.998367 24.00000000
5.793998 -22.063623 -22.304914 24.00000000
5.967126 -22.052746 -17.663760 24.00000000
8.879701 -21.869750 -34.936336 24.00000000
7.474448 -21.958041 -1.346889 24.00000000
7.393803 -21.963108 -46.196821 24.00000000
9.487117 -21.831586 -15.079172 24.00000000
10.931968 -21.740806 -19.600034 24.00000000
7.176642 -21.976752 -26.345558 24.00000000
11.710880 -21.691867 -56.094323 24.00000000
8.394692 -21.900223 -12.730587 24.00000000
8.984544 -21.863162 -22.847797 24.00000000
10.733289 -21.753289 -42.355182 24.00000000
6.567097 -22.015050 -58.560980 24.00000000
8.992774 -21.862645 -8.260345 24.00000000
10.243065 -21.784090 -45.718898 24.00000000
11.148699 -21.727189 -8.129529 24.00000000
7.956857 -21.927732 -34.116349 24.00000000
10.735144 -21.753173 -7.283786 24.00000000
6.151941 -22.041134 -26.853310 24.00000000
10.814168 -21.748208 2.317232 24.00000000
11.011848 -21.735787 -44.430594 24.00000000
9.281768 -21.844488 -45.330016 24.00000000
6.998370 -21.987953 -49.767567 24.00000000
7.117269 -21.980483 -15.622929 24.00000000
5.367344 -22.090430 1.415178 24.00000000
4.794803 -22.126403 -9.375806 24.00000000
8.438127 -21.897494 -9.161639 24.00000000
4.825190 -22.124493 -4.602395 24.00000000
7.200364 -21.975262 -35.848289 24.00000000
5.047636 -22.110517 -11.317752 24.00000000
11.158165 -21.726594 -0.931403 24.00000000
11.833912 -21.684137 -15.188997 24.00000000
10.676164 -21.756878 -33.218839 24.00000000
10.680208 -21.756624 -37.913725 24.00000000
8.650802 -21.884131 -44.284141 24.00000000
9.107903 -21.855412 -13.825211 24.00000000
4.925928 -22.118164 -35.863558 24.00000000
6.343674 -22.029087 -9.964124 24.00000000
5.137391 -22.104878 -25.069439 24.00000000
6.875888 -21.995649 -20.214078 24.00000000
9.023199 -21.860734 -39.509774 24.00000000
5.157487 -22.103615 -55.332836 24.00000000
10.752573 -21.752078 -28.467669 24.00000000
7.754041 -21.940475 -1.996544 24.00000000
10.362419 -21.776591 -58.165617 24.00000000
9.849207 -21.808836 0.315370 24.00000000
5.487556 -22.082877 -14.462363 24.00000000
4.929321 -22.117951 -7.828918 24.00000000
6.053742 -22.047304 -41.180848 24.00000000
9.808873 -21.811370 -50.489860 24.00000000
8.105744 -21.918377 -55.265220 24.00000000
11.041559 -21.733921 -10.400679 24.00000000
5.259277 -22.097220 -48.617607 24.00000000
5.499894 -22.082102 -53.482466 24.00000000
10.918809 -21.741633 -8.369540 24.00000000
6.852044 -21.997147 -1.387693 24.00000000
8.811963 -21.874006 -41.361857 24.00000000
9.389687 -21.837707 -19.746303 24.00000000
9.908955 -21.805082 -41.840586 24.00000000
8.575790 -21.888844 -39.022192 24.00000000
11.690436 -21.693152 -59.364337 24.00000000
7.898656 -21.931388 -19.196920 24.00000000
6.846838 -21.997474 -60.447045 24.00000000
4.793062 -22.126512 -12.394818 24.00000000
6.595288 -22.013279 -31.523906 24.00000000
10.572565 -21.763387 -43.207514 24.00000000
11.769648 -21.688175 0.080231 24.00000000
5.155929 -22.103713 0.128228 24.00000000
10.919522 -21.741588 -52.467153 24.00000000
6.940539 -21.991587 -9.295704 24.00000000
6.661751 -22.009103 -11.216315 24.00000000
10.590658 -21.762251 -2.964978 24.00000000
4.905258 -22.119463 -6.144217 24.00000000
11.174416 -21.725573 -29.672009 24.00000000
5.375395 -22.089924 3.733205 24.00000000
5.859085 -22.059534 3.308132 24.00000000
10.758064 -21.751733 -60.104481 24.00000000
10.434560 -21.772058 -42.577769 24.00000000
5.994449 -22.051029 1.696972 24.00000000
11.523336 -21.703651 -6.176510 24.00000000
10.473751 -21.769596 -36.934775 24.00000000
7.477333 -21.957860 -15.520126 24.00000000
6.259835 -22.034355 -1.891901 24.00000000
9.514497 -21.829866 -12.902207 24.00000000
8.340210 -21.903646 -57.826047 24.00000000
7.028625 -21.986052 -2.898458 24.00000000
9.187032 -21.850440 -23.098156 24.00000000
9.772389 -21.813662 -37.204912 24.00000000
5.768829 -22.065205 -8.882827 24.00000000
10.859182 -21.745379 -22.821149 24.00000000
11.668667 -21.694520 -54.954292 24.00000000
8.551097 -21.890396 -28.842066 24.00000000
10.710661 -21.754711 -32.958561 24.00000000
10.769274 -21.751028 -51.671983 24.00000000
10.247788 -21.783793 -40.803435 24.00000000
8.054082 -21.921623 2.648650 24.00000000
10.090561 -21.793672 -0.782013 24.00000000
8.687724 -21.881811 -5.775944 24.00000000
8.528954 -21.891787 -27.788617 24.00000000
9.906508 -21.805236 -60.029583 24.00000000
6.511958 -22.018514 -18.168967 24.00000000
9.463890 -21.833045 -45.642440 24.00000000
11.146643 -21.727318 -12.305966 24.00000000
10.347584 -21.777523 -52.823799 24.00000000
5.435187 -22.086168 -20.049574 24.00000000
11.036204 -21.734257 -0.605708 24.00000000
9.173282 -21.851304 -8.520904 24.00000000
5.121953 -22.105848 -5.471118 24.00000000
9.883182 -21.806701 -24.178639 24.00000000
6.345522 -22.028971 -0.909908 24.00000000
10.385063 -21.775168 -17.145573 24.00000000
10.769992 -21.750983 -37.343698 24.00000000
7.147860 -21.978561 -37.022538 24.00000000
8.369008 -21.901836 -18.175042 24.00000000
9.798032 -21.812051 -58.236074 24.00000000
8.910644 -21.867805 -42.930871 24.00000000
11.208156 -21.723453 -15.681637 24.00000000
11.694963 -21.692867 -60.452991 24.00000000
6.038638 -22.048253 -43.743805 24.00000000
11.786909 -21.687090 -55.338392 24.00000000
7.683500 -21.944907 -10.901878 24.00000000
7.506751 -21.956012 -27.649749 24.00000000
10.212359 -21.786019 -17.457129 24.00000000
10.240082 -21.784277 -51.708679 24.00000000
6.510596 -22.018600 -10.925730 24.00000000
7.108478 -21.981035 -22.137462 24.00000000
6.690727 -22.007282 -32.954698 24.00000000
9.475819 -21.832296 -59.251344 24.00000000
7.280294 -21.970240 -45.925350 24.00000000
5.916037 -22.055956 -20.089783 24.00000000
12.023804 -21.672206 -23.227259 24.00000000
10.009583 -21.798759 -31.706785 24.00000000
4.853423 -22.122720 -60.684968 24.00000000
5.404837 -22.088074 2.984348 24.00000000
4.850229 -22.122920 -16.165881 24.00000000
8.379571 -21.901173 1.276492 24.00000000
5.543341 -22.079372 -29.151921 24.00000000
5.678312 -22.070892 -46.774007 24.00000000
12.039212 -21.671238 -17.741895 24.00000000
10.825887 -21.747471 -14.984047 24.00000000
6.132447 -22.042359 -54.265175 24.00000000
9.763318 -21.814232 -8.503801 24.00000000
6.340670 -22.029276 -51.414238 24.00000000
10.275402 -21.782058 -59.199568 24.00000000
7.230455 -21.973371 -38.058855 24.00000000
5.840824 -22.060681 -51.288723 24.00000000
6.026575 -22.049011 -9.909685 24.00000000
7.436260 -21.960441 2.675315 24.00000000
6.018379 -22.049526 -60.807855 24.00000000
11.735616 -21.690313 -42.956889 24.00000000
6.446023 -22.022657 -27.033100 24.00000000
5.234434 -22.098781 -8.430164 24.00000000
9.117106 -21.854834 -17.770372 24.00000000
11.108508 -21.729714 -50.941500 24.00000000
8.948845 -21.865405 -57.267628 24.00000000
4.830700 -22.124147 -41.668492 24.00000000
9.477840 -21.832169 -32.006030 24.00000000
6.506082 -22.018883 -23.385226 24.00000000
8.708830 -21.880485 -33.591490 24.00000000
8.307392 -21.905708 -15.834744 24.00000000
7.453587 -21.959352 -11.080304 24.00000000
8.563790 -21.889598 -53.458037 24.00000000
8.905758 -21.868112 -14.734860 24.00000000
8.458586 -21.896208 -6.577729 24.00000000
8.168907 -21.914409 -48.028073 24.00000000
9.503534 -21.830554 -43.286800 24.00000000
9.720700 -21.816910 -17.865318 24.00000000
11.263564 -21.719972 -12.653644 24.00000000
12.061389 -21.669845 -33.282554 24.00000000
9.389759 -21.837703 -8.056366 24.00000000
9.730781 -21.816276 0.840651 24.00000000
12.036410 -21.671414 -46.125484 24.00000000
4.825330 -22.124485 -24.833983 24.00000000
11.534833 -21.702928 -19.579643 24.00000000
5.311465 -22.093941 -32.456875 24.00000000
6.948207 -21.991105 -39.913165 24.00000000
4.828428 -22.124290 -60.196408 24.00000000
10.958697 -21.739127 -47.597633 24.00000000
5.143265 -22.104509 -21.591507 24.00000000
9.440808 -21.834495 -5.452385 24.00000000
11.747648 -21.689557 -1.173401 24.00000000
7.711327 -21.943158 -14.862404 24.00000000
5.897677 -22.057109 -52.825091 24.00000000
11.451360 -21.708173 3.558305 24.00000000
10.319551 -21.779284 -12.318719 24.00000000
8.117339 -21.917649 -7.858253 24.00000000
9.924290 -21.804118 -35.917193 24.00000000
10.481691 -21.769097 -20.710504 24.00000000
7.896765 -21.931507 -36.893122 24.00000000
4.969023 -22.115456 -45.603114 24.00000000
11.684316 -21.693536 -17.645758 24.00000000
12.005412 -21.673362 -29.019665 24.00000000
5.126907 -22.105537 -43.794701 24.00000000
5.493415 -22.082509 -56.045639 24.00000000
7.963809 -21.927295 -24.720932 24.00000000
7.932422 -21.929267 -47.078380 24.00000000
5.350381 -22.091496 2.700963 24.00000000
11.118528 -21.729085 -17.275591 24.00000000
8.564799 -21.889535 -44.709770 24.00000000
6.407666 -22.025067 -2.293700 24.00000000
9.649406 -21.821389 1.771567 24.00000000
9.693856 -21.818596 -49.208374 24.00000000
9.113588 -21.855055 -17.434951 24.00000000
8.787392 -21.875549 -54.948605 24.00000000
8.521861 -21.892233 -43.629078 24.00000000
5.482132 -22.083218 -39.311166 24.00000000
10.211506 -21.786073 -56.263202 24.00000000
6.032172 -22.048659 1.360363 24.00000000
7.482724 -21.957521 -10.586135 24.00000000
7.929636 -21.929442 -35.530179 24.00000000
4.876163 -22.121291 -27.155501 24.00000000
11.686335 -21.693410 -33.462128 24.00000000
6.728743 -22.004894 -1.652790 24.00000000
8.520181 -21.892338 -11.176638 24.00000000
11.253597 -21.720598 -37.831165 24.00000000
9.815177 -21.810974 1.559516 24.00000000
7.831188 -21.935627 -15.418433 24.00000000
10.111012 -21.792387 0.874821 24.00000000
9.603934 -21.824246 -41.653728 24.00000000
9.196417 -21.849850 3.389149 24.00000000
5.781409 -22.064414 -5.670316 24.00000000
8.061038 -21.921186 -15.634653 24.00000000
10.525763 -21.766328 -6.260075 24.00000000
10.985618 -21.737435 -8.813071 24.00000000
5.540844 -22.079529 -6.623918 24.00000000
5.941228 -22.054373 2.080330 24.00000000
7.241066 -21.972705 -11.280927 24.00000000
6.051014 -22.047475 -26.191887 24.00000000
6.413180 -22.024720 -38.742680 24.00000000
6.454798 -22.022106 3.518680 24.00000000
8.215075 -21.911508 -41.582533 24.00000000
8.877359 -21.869897 -38.131906 24.00000000
7.518231 -21.955290 -8.780474 24.00000000
11.009238 -21.735951 -46.411550 24.00000000
9.611585 -21.823766 -29.366866 24.00000000
7.331596 -21.967017 -26.967410 24.00000000
4.873787 -22.121440 -54.838663 24.00000000
8.800698 -21.874713 -22.550379 24.00000000
9.893926 -21.806026 -45.660753 24.00000000
6.604736 -22.012685 -37.691250 24.00000000
4.855848 -22.122567 -10.972407 24.00000000
12.029420 -21.671854 -52.411791 24.00000000
11.582762 -21.699917 -37.383385 24.00000000
8.417131 -21.898813 -48.879731 24.00000000
7.299407 -21.969039 -28.134458 24.00000000
11.993162 -21.674132 -34.108601 24.00000000
7.193321 -21.975704 -6.106317 24.00000000
9.996749 -21.799566 -39.128245 24.00000000
4.814356 -22.125174 -54.256086 24.00000000
8.206592 -21.912041 -26.357498 24.00000000
5.663669 -22.071812 -49.317328 24.00000000
12.065063 -21.669614 -32.918668 24.00000000
5.121681 -22.105865 -20.681010 24.00000000
8.771163 -21.876569 -36.675109 24.00000000
7.414253 -21.961823 -12.045751 24.00000000
6.070744 -22.046236 -19.162346 24.00000000
9.147056 -21.852952 -60.950950 24.00000000
6.529821 -22.017392 -57.854031 24.00000000
10.063643 -21.795363 -48.196624 24.00000000
8.331249 -21.904209 2.083930 24.00000000
5.774626 -22.064841 -54.406454 24.00000000
5.695957 -22.069783 -41.593960 24.00000000
9.967765 -21.801387 -55.181071 24.00000000
9.387245 -21.837861 -0.117628 24.00000000
5.830311 -22.061342 -10.362762 24.00000000
5.998607 -22.050768 -21.485079 24.00000000
9.285187 -21.844273 -6.024147 24.00000000
10.436106 -21.771961 -39.007563 24.00000000
5.782942 -22.064318 -0.367446 24.00000000
5.966372 -22.052793 3.838771 24.00000000
11.251220 -21.720748 -31.634653 24.00000000
5.099470 -22.107260 -54.122954 24.00000000
10.282873 -21.781589 -35.612125 24.00000000
7.950170 -21.928152 -23.527284 24.00000000
7.856773 -21.934020 -32.453992 24.00000000
9.381639 -21.838213 -35.128689 24.00000000
10.095404 -21.793367 -37.758953 24.00000000
6.382171 -22.026669 -50.302244 24.00000000
11.147601 -21.727258 -54.823480 24.00000000
9.169271 -21.851556 -20.144663 24.00000000
5.295703 -22.094931 -46.905999 24.00000000
10.641886 -21.759032 -34.563779 24.00000000
10.328047 -21.778750 -3.885407 24.00000000
9.732597 -21.816162 -28.068074 24.00000000
6.808800 -21.999864 -45.058174 24.00000000
5.385042 -22.089318 -0.122014 24.00000000
9.481319 -21.831950 -9.014641 24.00000000
7.664517 -21.946099 -57.204215 24.00000000
11.433424 -21.709300 -31.930076 24.00000000
9.127438 -21.854184 -44.403506 24.00000000
8.426890 -21.898200 -12.252599 24.00000000
8.738294 -21.878634 -19.421799 24.00000000
11.678758 -21.693886 -59.859961 24.00000000
8.408809 -21.899336 -46.647838 24.00000000
6.030436 -22.048768 -3.841221 24.00000000
8.391699 -21.900411 2.742945 24.00000000
11.667117 -21.694617 -32.980289 24.00000000
7.362613 -21.965068 -18.827518 24.00000000
10.531914 -21.765942 -48.988128 24.00000000
6.808906 -21.999857 -16.012701 24.00000000
10.657495 -21.758051 -26.050627 24.00000000
6.844334 -21.997631 -60.762842 24.00000000
4.903329 -22.119584 -2.180455 24.00000000
7.549430 -21.953330 0.330973 24.00000000
10.501245 -21.767868 -39.432515 24.00000000
8.460939 -21.896060 -43.016710 24.00000000
6.494267 -22.019626 -16.649004 24.00000000
4.909930 -22.119169 -49.074963 24.00000000
7.302484 -21.968846 -25.834170 24.00000000
12.054906 -21.670252 -41.719955 24.00000000
7.943366 -21.928579 -31.160961 24.00000000
8.871777 -21.870247 -53.401333 24.00000000
11.775363 -21.687816 2.863453 24.00000000
7.483216 -21.957490 -1.029753 24.00000000
11.518829 -21.703934 -8.504094 24.00000000
11.587587 -21.699614 -61.078455 24.00000000
8.241246 -21.909864 -57.536710 24.00000000
6.842857 -21.997724 -58.781240 24.00000000
9.763897 -21.814196 -59.120359 24.00000000
5.931623 -22.054977 -17.072246 24.00000000
4.799432 -22.126112 -31.422136 24.00000000
11.638457 -21.696418 -26.327605 24.00000000
11.058375 -21.732864 -9.585007 24.00000000
7.017519 -21.986750 -30.677449 24.00000000
9.967042 -21.801432 -10.803848 24.00000000
6.068744 -22.046361 -10.845457 24.00000000
9.761845 -21.814325 -20.527436 24.00000000
11.558212 -21.701460 3.164470 24.00000000
7.935784 -21.929056 -49.968456 24.00000000
5.283500 -22.095698 -58.547067 24.00000000
4.807118 -22.125629 -41.014417 24.00000000
12.029414 -21.671854 -48.869420 24.00000000
11.389329 -21.712070 -59.420761 24.00000000
9.795434 -21.812214 -59.430218 24.00000000
9.715442 -21.817240 -36.282680 24.00000000
8.885354 -21.869394 -41.110232 24.00000000
10.448208 -21.771201 -40.593566 24.00000000
11.699159 -21.692604 -45.535428 24.00000000
5.535821 -22.079845 -44.319860 24.00000000
7.901839 -21.931188 -45.809815 24.00000000
4.883052 -22.120858 -42.047328 24.00000000
8.272117 -21.907924 -44.126496 24.00000000
11.623488 -21.697358 -53.790660 24.00000000
6.581013 -22.014176 -20.056694 24.00000000
6.045504 -22.047821 -7.260800 24.00000000
9.332491 -21.841301 -11.791108 24.00000000
7.744449 -21.941077 -49.790694 24.00000000
7.310171 -21.968363 -15.180555 24.00000000
6.956117 -21.990608 -10.993282 24.00000000
6.679331 -22.007998 -14.100960 24.00000000
11.742743 -21.689865 1.046074 24.00000000
6.447405 -22.022570 -9.062851 24.00000000
8.985112 -21.863127 -20.426180 24.00000000
6.636095 -22.010715 -51.694920 24.00000000
6.251684 -22.034867 -14.656506 24.00000000
9.237860 -21.847247 -59.651303 24.00000000
6.799859 -22.000425 -7.838703 24.00000000
9.789949 -21.812559 0.010756 24.00000000
10.024266 -21.797837 -25.322944 24.00000000
8.979835 -21.863458 -9.582333 24.00000000
4.816809 -22.125020 3.225179 24.00000000
9.290025 -21.843969 -60.393696 24.00000000
5.784273 -22.064235 -48.285579 24.00000000
6.574648 -22.014575 -2.729322 24.00000000
11.199413 -21.724003 -11.083513 24.00000000
4.826667 -22.124401 -1.782109 24.00000000
11.118705 -21.729074 -42.746721 24.00000000
7.515498 -21.955462 -53.543487 24.00000000
6.998418 -21.987950 -25.967318 24.00000000
9.836130 -21.809657 -14.233727 24.00000000
11.955112 -21.676522 -11.870389 24.00000000
11.928758 -21.678178 -56.817434 24.00000000
11.247631 -21.720973 -6.661568 24.00000000
6.598739 -22.013062 -27.428837 24.00000000
7.656284 -21.946617 -52.561226 24.00000000
5.124566 -22.105684 -0.289274 24.00000000
10.443000 -21.771528 -19.992474 24.00000000
8.396359 -21.900118 -21.077772 24.00000000
6.325073 -22.030256 -34.318411 24.00000000
7.530124 -21.954543 -3.000383 24.00000000
9.624799 -21.822935 -36.923976 24.00000000
9.561754 -21.826896 -41.081579 24.00000000
8.159802 -21.914981 -21.842393 24.00000000
7.331381 -21.967030 -0.085440 24.00000000
4.834633 -22.123900 -42.511056 24.00000000
11.112080 -21.729490 -20.606161 24.00000000
9.624157 -21.822976 -56.919874 24.00000000
11.938294 -21.677579 -51.742352 24.00000000
8.141524 -21.916129 -22.995385 24.00000000
10.949627 -21.739697 1.418831 24.00000000
11.385814 -21.712291 -49.803998 24.00000000
9.136708 -21.853602 -52.715314 24.00000000
6.123409 -22.042927 -53.932279 24.00000000
5.029001 -22.111688 -17.563142 24.00000000
11.252684 -21.720656 -20.090153 24.00000000
8.794295 -21.875116 -23.664539 24.00000000
5.266782 -22.096748 -12.620711 24.00000000
6.819732 -21.999177 -19.521185 24.00000000
9.783083 -21.812990 -51.864837 24.00000000
10.254118 -21.783395 -6.096332 24.00000000
5.473731 -22.083746 -15.369200 24.00000000
8.949406 -21.865370 -44.071242 24.00000000
11.368328 -21.713390 -41.089273 24.00000000
5.754430 -22.066110 -43.937780 24.00000000
9.977699 -21.800763 -12.582100 24.00000000
4.926477 -22.118130 -20.914553 24.00000000
8.207441 -21.911988 -14.748321 24.00000000
6.221059 -22.036791 -29.313359 24.00000000
7.753020 -21.940539 -2.838793 24.00000000
11.069552 -21.732162 -26.482119 24.00000000
10.192658 -21.787257 -13.407327 24.00000000
9.125144 -21.854328 -41.367352 24.00000000
11.561882 -21.701229 -3.929261 24.00000000
6.433414 -22.023449 -50.958808 24.00000000
5.070589 -22.109075 -48.273185 24.00000000
7.212831 -21.974479 -35.476677 24.00000000
7.876793 -21.932762 -19.555038 24.00000000
7.783961 -21.938595 -49.294864 24.00000000
5.882759 -22.058047 -35.989623 24.00000000
10.791163 -21.749653 -49.183165 24.00000000
8.256636 -21.908897 -23.951659 24.00000000
10.490790 -21.768525 -14.692533 24.00000000
9.831969 -21.809919 -36.667460 24.00000000
8.285697 -21.907071 -19.399156 24.00000000
10.678654 -21.756722 -5.423807 24.00000000
7.038951 -21.985403 -56.684309 24.00000000
8.667639 -21.883073 -48.446428 24.00000000
6.291016 -22.032396 -0.297667 24.00000000
8.018710 -21.923845 -0.840214 24.00000000
9.469202 -21.832711 -33.707901 24.00000000
7.875406 -21.932849 -1.744226 24.00000000
9.069435 -21.857829 -47.799372 24.00000000
9.620452 -21.823208 -3.942250 24.00000000
7.723382 -21.942401 -17.544204 24.00000000
11.994049 -21.674076 -60.180120 24.00000000
6.979632 -21.989130 -12.933191 24.00000000
7.936983 -21.928980 -18.910382 24.00000000
9.226908 -21.847935 -30.878979 24.00000000
5.016813 -22.112454 -13.327907 24.00000000
9.661240 -21.820646 -57.867743 24.00000000
10.571801 -21.763435 -43.805909 24.00000000
10.179239 -21.788100 -26.843908 24.00000000
6.172752 -22.039826 -47.003833 24.00000000
7.661822 -21.946269 -50.094793 24.00000000
8.341122 -21.903588 -36.612190 24.00000000
7.572037 -21.951910 2.966031 24.00000000
5.081215 -22.108407 -52.316776 24.00000000
7.678172 -21.945241 -56.436783 24.00000000
6.800165 -22.000406 -27.814863 24.00000000
5.567254 -22.077870 -48.496067 24.00000000
7.953857 -21.927920 -9.210640 24.00000000
8.706221 -21.880649 -11.551844 24.00000000
6.693597 -22.007102 -54.628951 24.00000000
4.831479 -22.124098 -30.631863 24.00000000
8.952699 -21.865163 -6.674472 24.00000000
5.390881 -22.088951 -22.601397 24.00000000
5.191335 -22.101489 -42.550581 24.00000000
8.948641 -21.865418 -52.040751 24.00000000
7.879564 -21.932588 -5.048334 24.00000000
7.655201 -21.946685 -45.395268 24.00000000
6.415555 -22.024571 -20.732786 24.00000000
10.505505 -21.767601 -36.655071 24.00000000
7.382315 -21.963830 -0.458544 24.00000000
6.796523 -22.000635 -12.590151 24.00000000
9.789401 -21.812593 -20.095309 24.00000000
10.710341 -21.754731 -30.576592 24.00000000
10.832211 -21.747074 -17.521901 24.00000000
10.511068 -21.767251 2.281787 24.00000000
6.524424 -22.017731 -26.329340 24.00000000
10.555899 -21.764435 -59.924186 24.00000000
9.481908 -21.831913 -37.535127 24.00000000
9.517353 -21.829686 -2.312930 24.00000000
6.247102 -22.035155 -4.494595 24.00000000
7.096535 -21.981785 -4.622555 24.00000000
8.840290 -21.872226 -40.562424 24.00000000
6.102963 -22.044211 -19.511965 24.00000000
5.095997 -22.107479 -36.924757 24.00000000
11.156125 -21.726722 -24.741113 24.00000000
6.302833 -22.031654 -2.677679 24.00000000
8.516537 -21.892567 -59.364368 24.00000000
7.964969 -21.927222 -57.582027 24.00000000
9.562257 -21.826865 -59.978260 24.00000000
5.195817 -22.101207 -37.592780 24.00000000
10.698837 -21.755454 -46.937771 24.00000000
4.833268 -22.123986 -51.606576 24.00000000
10.812017 -21.748343 -46.695733 24.00000000
7.824814 -21.936028 -29.650198 24.00000000
10.367821 -21.776251 -5.499885 24.00000000
5.803081 -22.063053 -13.266348 24.00000000
9.793284 -21.812349 -15.266537 24.00000000
8.829067 -21.872931 -56.434180 24.00000000
11.017572 -21.735428 -38.364289 24.00000000
7.238049 -21.972894 -29.745050 24.00000000
7.139162 -21.979107 -0.327091 24.00000000
7.283300 -21.970051 -32.706263 24.00000000
11.956634 -21.676427 -57.183211 24.00000000
6.319222 -22.030624 -45.087026 24.00000000
8.038217 -21.922620 -30.662196 24.00000000
8.715818 -21.880046 -25.313958 24.00000000
5.747708 -22.066532 -25.645690 24.00000000
6.558736 -22.015575 -29.954854 24.00000000
9.472401 -21.832510 -39.380548 24.00000000
5.988037 -22.051432 -38.639727 24.00000000
9.994149 -21.799729 -55.481415 24.00000000
11.512596 -21.704326 -29.108522 24.00000000
10.981638 -21.737685 -20.021580 24.00000000
10.581048 -21.762854 -15.465619 24.00000000
7.190108 -21.975906 -22.830755 24.00000000
6.625010 -22.011411 -9.279458 24.00000000
8.275595 -21.907705 -49.454849 24.00000000
9.620092 -21.823231 -25.589265 24.00000000
11.732975 -21.690479 -22.122321 24.00000000
7.430916 -21.960776 -17.038796 24.00000000
9.176829 -21.851081 -57.729014 24.00000000
8.108604 -21.918197 -54.261678 24.00000000
10.544240 -21.765167 -10.629199 24.00000000
11.243290 -21.721246 -60.040810 24.00000000
8.331815 -21.904173 -47.799386 24.00000000
7.053512 -21.984489 -11.910798 24.00000000
4.964428 -22.115745 -25.580736 24.00000000
5.193769 -22.101336 -26.554733 24.00000000
11.478799 -21.706449 -6.992218 24.00000000
7.624821 -21.948593 -26.557467 24.00000000
9.157853 -21.852273 -46.797706 24.00000000
7.963984 -21.927284 -49.568958 24.00000000
8.388329 -21.900622 -30.943359 24.00000000
8.468279 -21.895599 -4.457009 24.00000000
5.581999 -22.076943 -21.474356 24.00000000
9.156530 -21.852357 -28.367929 24.00000000
10.779319 -21.750397 -12.986366 24.00000000
8.298396 -21.906273 -2.854310 24.00000000
6.099542 -22.044426 -57.904143 24.00000000
7.963575 -21.927310 -58.188616 24.00000000
8.785804 -21.875649 -19.064405 24.00000000
6.468842 -22.021223 -12.507519 24.00000000
9.615940 -21.823492 -24.279947 24.00000000
7.187699 -21.976058 -27.362984 24.00000000
8.608819 -21.886769 -23.868077 24.00000000
6.287291 -22.032630 -45.593537 24.00000000
11.861852 -21.682382 -48.655410 24.00000000
5.551421 -22.078865 -50.800816 24.00000000
8.652375 -21.884032 -13.232012 24.00000000
7.499331 -21.956478 -31.956737 24.00000000
6.524500 -22.017726 -48.654384 24.00000000
5.493722 -22.082490 -46.508416 24.00000000
10.258254 -21.783136 -18.360572 24.00000000
9.331406 -21.841369 -13.602203 24.00000000
9.976637 -21.800829 -25.746141 24.00000000
8.659955 -21.883556 -35.640836 24.00000000
12.041807 -21.671075 -55.214407 24.00000000
6.516402 -22.018235 2.133740 24.00000000
6.143932 -22.041637 -34.818542 24.00000000
8.856962 -21.871178 -46.901612 24.00000000
11.091757 -21.730767 -15.333989 24.00000000
10.911294 -21.742105 -6.449488 24.00000000
8.266381 -21.908284 -30.465904 24.00000000
