0.185152 -0.088975 0.045244 1.00000000
0.236907 -0.074316 -0.066363 1.00000000
-0.367315 0.022892 -0.097031 1.00000000
-0.247493 0.099537 0.009319 1.00000000
0.033508 0.057632 -0.081444 1.00000000
0.371127 0.091220 0.041044 1.00000000
-0.106152 -0.018546 0.098309 1.00000000
-0.297126 0.099960 0.001608 1.00000000
0.191107 0.036299 0.093267 1.00000000
-0.043886 0.024373 0.097063 1.00000000
-0.041813 0.034937 0.093758 1.00000000
0.174688 0.097693 0.021329 1.00000000
-0.465971 0.097167 0.023681 1.00000000
0.267552 0.027249 0.096266 1.00000000
-0.379548 -0.035846 -0.092984 1.00000000
-0.452455 -0.073989 0.067097 1.00000000
0.262068 -0.017783 -0.098067 1.00000000
-0.158410 -0.029056 0.095673 1.00000000
0.248639 0.029036 0.095747 1.00000000
0.226189 -0.088551 0.046076 1.00000000
-0.043578 -0.017946 -0.098042 1.00000000
-0.462847 -0.078445 0.061794 1.00000000
0.426951 -0.049555 -0.086435 1.00000000
0.135108 -0.097245 -0.021924 1.00000000
0.010085 -0.030712 0.095192 1.00000000
-0.098129 0.057698 -0.081399 1.00000000
-0.038387 0.039606 0.091879 1.00000000
-0.021254 0.003214 0.099973 1.00000000
-0.241741 -0.081722 0.057383 1.00000000
-0.329074 0.084163 0.054135 1.00000000
0.023209 -0.054007 0.084112 1.00000000
0.261412 0.084463 -0.053329 1.00000000
0.448002 0.088696 0.046250 1.00000000
-0.092298 -0.073812 0.067297 1.00000000
-0.013802 0.099645 -0.007820 1.00000000
-0.245854 -0.059237 -0.080133 1.00000000
-0.409125 0.014293 0.099020 1.00000000
0.255496 -0.035764 0.093376 1.00000000
-0.244109 -0.049161 -0.086668 1.00000000
0.208351 -0.014435 -0.098598 1.00000000
0.385469 0.065807 -0.075004 1.00000000
-0.317571 -0.085188 -0.051709 1.00000000
0.446137 0.001082 -0.099677 1.00000000
-0.038147 -0.099295 -0.009054 1.00000000
0.423386 0.027093 0.096312 1.00000000
-0.383592 0.099432 -0.010067 1.00000000
0.132748 -0.069675 0.071584 1.00000000
-0.263050 -0.039116 0.091990 1.00000000
0.261416 -0.089667 0.043886 1.00000000
0.370843 0.047210 -0.087875 1.00000000
0.112524 -0.084950 -0.052111 1.00000000
-0.111099 -0.079465 -0.060117 1.00000000
-0.096616 0.045446 0.089137 1.00000000
-0.292396 0.096864 0.025033 1.00000000
0.449177 0.007685 -0.099388 1.00000000
0.319302 0.013858 -0.098726 1.00000000
-0.046555 0.087310 0.048877 1.00000000
-0.341325 -0.025569 -0.096324 1.00000000
-0.207130 -0.072598 -0.068298 1.00000000
0.074127 0.086435 0.050357 1.00000000
-0.393510 0.018181 -0.098041 1.00000000
0.175177 0.059348 0.080591 1.00000000
-0.456175 0.056243 0.082751 1.00000000
0.142970 0.071246 -0.069883 1.00000000
0.330303 0.093845 0.034581 1.00000000
0.170460 0.001006 0.100042 1.00000000
0.223727 0.005970 -0.099523 1.00000000
-0.412384 0.098055 -0.019346 1.00000000
0.316696 0.079989 -0.059742 1.00000000
0.309457 -0.020003 0.097987 1.00000000
0.002576 0.021412 -0.097362 1.00000000
-0.037965 -0.098330 0.016834 1.00000000
0.187344 0.096594 -0.025601 1.00000000
-0.274562 0.090380 0.042945 1.00000000
0.136782 -0.098691 -0.014187 1.00000000
0.175235 0.089630 -0.044054 1.00000000
-0.303966 0.017619 -0.098130 1.00000000
-0.352959 -0.099663 0.003634 1.00000000
-0.053576 -0.069820 0.071438 1.00000000
-0.057254 0.093023 -0.036500 1.00000000
0.316514 -0.016376 0.098653 1.00000000
-0.226303 -0.066976 0.074130 1.00000000
0.244512 -0.093654 0.034462 1.00000000
0.116902 -0.099736 0.001334 1.00000000
-0.322694 0.066500 0.074756 1.00000000
0.235373 -0.099452 0.007753 1.00000000
0.353954 0.080691 -0.058837 1.00000000
0.008259 -0.095393 0.029293 1.00000000
-0.441348 0.073162 0.068299 1.00000000
0.364197 0.017483 0.098515 1.00000000
0.248580 0.030287 -0.095021 1.00000000
0.312650 0.092813 -0.037001 1.00000000
0.337951 0.027853 0.096091 1.00000000
-0.229178 -0.095814 0.027845 1.00000000
-0.411569 0.068172 0.073282 1.00000000
-0.279181 0.042553 -0.090241 1.00000000
-0.422632 -0.098821 0.013730 1.00000000
-0.010949 0.020496 0.097929 1.00000000
-0.091771 -0.091106 -0.040406 1.00000000
0.128410 -0.038681 -0.091816 1.00000000
-0.400285 -0.034424 0.093858 1.00000000
0.334228 -0.076506 0.064241 1.00000000
0.174075 0.079963 0.060138 1.00000000
0.209428 0.055267 -0.083052 1.00000000
0.098456 0.012394 -0.098942 1.00000000
0.003901 -0.044779 -0.088995 1.00000000
0.375617 -0.091991 -0.038360 1.00000000
-0.065801 -0.020642 -0.097482 1.00000000
0.406907 0.069445 0.072048 1.00000000
-0.322277 0.037215 -0.092551 1.00000000
-0.190349 -0.050730 0.086103 1.00000000
-0.382493 -0.097405 -0.021209 1.00000000
-0.399875 0.096584 0.025995 1.00000000
-0.216640 -0.061122 -0.078671 1.00000000
-0.438037 0.033971 -0.093743 1.00000000
0.163219 -0.082850 -0.055360 1.00000000
-0.205250 0.056069 0.082869 1.00000000
-0.283303 -0.037260 0.092794 1.00000000
0.005607 -0.018690 0.098281 1.00000000
-0.249394 0.076892 0.064069 1.00000000
-0.323074 -0.094692 0.031580 1.00000000
-0.341844 -0.014137 -0.098645 1.00000000
-0.268567 -0.087980 -0.046835 1.00000000
0.214264 0.099637 -0.007904 1.00000000
-0.166645 -0.029508 0.095542 1.00000000
0.373946 0.099984 -0.000491 1.00000000
-0.388934 -0.069070 -0.071826 1.00000000
0.315630 0.098310 0.018429 1.00000000
-0.137888 -0.077620 -0.062495 1.00000000
0.175942 -0.098538 0.015520 1.00000000
0.455475 0.089658 0.044362 1.00000000
-0.006149 0.050445 0.086409 1.00000000
0.213579 -0.076999 0.063658 1.00000000
-0.148769 0.040056 0.091685 1.00000000
-0.397194 0.082769 -0.055823 1.00000000
-0.423109 -0.061321 0.078879 1.00000000
0.376983 0.049981 -0.086321 1.00000000
-0.456994 -0.062763 0.077761 1.00000000
0.237629 -0.091025 0.040955 1.00000000
0.112053 0.081342 0.058285 1.00000000
0.363829 0.087400 -0.048363 1.00000000
-0.430291 0.067484 -0.073525 1.00000000
0.282520 -0.099719 0.001871 1.00000000
0.044229 0.013447 0.099154 1.00000000
0.193316 0.095073 0.031169 1.00000000
0.237631 -0.014712 0.098917 1.00000000
-0.406011 -0.063110 0.077492 1.00000000
0.410345 0.077324 0.063541 1.00000000
0.288960 -0.093144 -0.035516 1.00000000
-0.050031 -0.085943 -0.050432 1.00000000
-0.279878 0.030691 0.095266 1.00000000
-0.085670 0.011662 0.099374 1.00000000
-0.353815 -0.011022 0.099413 1.00000000
0.446820 0.084712 0.053270 1.00000000
-0.181496 0.069281 -0.071849 1.00000000
0.241498 -0.095314 0.029565 1.00000000
-0.205383 0.014807 0.098938 1.00000000
-0.357257 0.013911 -0.098718 1.00000000
0.278610 0.054004 -0.083910 1.00000000
-0.445310 0.065560 -0.075222 1.00000000
-0.289714 -0.083278 -0.054731 1.00000000
0.397240 -0.097546 0.020943 1.00000000
-0.233222 -0.065061 0.075818 1.00000000
0.269263 -0.024667 -0.096582 1.00000000
0.001290 -0.034371 -0.093515 1.00000000
-0.031530 0.008662 0.099658 1.00000000
-0.238833 0.071553 -0.069576 1.00000000
-0.443819 0.089690 0.044298 1.00000000
-0.113222 0.078799 -0.061277 1.00000000
-0.259354 0.099581 0.008855 1.00000000
0.323275 0.059383 0.080564 1.00000000
-0.380236 -0.079751 -0.059749 1.00000000
0.167829 0.095664 -0.028800 1.00000000
-0.058777 0.085092 -0.052266 1.00000000
-0.174589 -0.099571 -0.006126 1.00000000
0.100573 -0.086170 -0.050048 1.00000000
-0.357887 -0.051528 0.085631 1.00000000
0.004703 -0.042884 0.090324 1.00000000
0.346289 -0.094993 0.030671 1.00000000
0.028595 0.097744 -0.020738 1.00000000
0.392781 0.057509 0.081890 1.00000000
-0.298770 0.071251 -0.069878 1.00000000
0.091787 -0.098624 0.014974 1.00000000
0.376378 -0.055458 0.083126 1.00000000
0.160070 -0.058708 0.080906 1.00000000
-0.261206 0.081117 0.058616 1.00000000
0.316951 0.005628 0.099897 1.00000000
-0.006227 -0.079014 -0.060699 1.00000000
0.127629 0.097414 -0.022215 1.00000000
0.311403 0.081724 -0.057360 1.00000000
0.444453 -0.082643 -0.055666 1.00000000
0.100342 0.000978 0.100043 1.00000000
0.336260 0.097633 -0.021235 1.00000000
-0.408166 -0.071371 0.069887 1.00000000
0.161190 -0.014291 0.098983 1.00000000
-0.241522 -0.098926 0.013071 1.00000000
-0.001795 0.040424 -0.091163 1.00000000
0.461274 0.026842 -0.096022 1.00000000
0.094987 -0.013309 -0.098776 1.00000000
-0.142143 -0.036851 -0.092608 1.00000000
-0.026378 0.012958 0.099231 1.00000000
0.310302 0.096822 0.025178 1.00000000
0.057566 -0.001888 0.100007 1.00000000
-0.311926 -0.089450 0.044311 1.00000000
-0.058738 0.078476 -0.061693 1.00000000
-0.071035 -0.049221 -0.086632 1.00000000
-0.272124 -0.067039 0.074075 1.00000000
-0.399425 0.005070 0.099914 1.00000000
-0.286419 -0.081331 0.057958 1.00000000
0.441725 -0.086279 -0.049864 1.00000000
0.235544 0.092882 -0.036842 1.00000000
0.445386 -0.094130 0.033141 1.00000000
-0.421223 0.083451 0.055183 1.00000000
-0.254280 -0.019966 0.097995 1.00000000
-0.101404 -0.062945 -0.077257 1.00000000
-0.311422 -0.080040 -0.059375 1.00000000
-0.364932 -0.067815 -0.073028 1.00000000
0.413171 0.056670 0.082461 1.00000000
0.220562 -0.024401 -0.096641 1.00000000
0.462811 -0.090473 0.042232 1.00000000
0.041227 0.056352 0.082677 1.00000000
-0.139287 0.028765 0.095826 1.00000000
0.197726 0.094619 -0.032069 1.00000000
-0.377173 -0.068679 -0.072217 1.00000000
-0.153402 -0.099696 0.002583 1.00000000
-0.459469 -0.073651 -0.067117 1.00000000
0.427153 0.070715 -0.070414 1.00000000
-0.296555 -0.087106 -0.048465 1.00000000
0.330772 -0.014473 0.098954 1.00000000
0.344661 0.073658 0.067737 1.00000000
0.354340 0.080685 0.059208 1.00000000
-0.248849 0.062818 -0.077537 1.00000000
0.102262 0.098503 0.017213 1.00000000
0.091992 0.053604 -0.084178 1.00000000
-0.453029 -0.069316 0.071942 1.00000000
-0.108265 -0.096686 0.024788 1.00000000
-0.040687 -0.097064 0.023097 1.00000000
0.167152 -0.099185 0.010578 1.00000000
-0.017476 0.097152 0.023746 1.00000000
-0.046142 0.035527 -0.093183 1.00000000
-0.212130 0.017567 0.098501 1.00000000
0.194278 0.010568 0.099478 1.00000000
0.237890 0.046106 0.088801 1.00000000
-0.170187 0.000461 0.100059 1.00000000
-0.280050 -0.060405 -0.079227 1.00000000
0.217062 0.015865 -0.098408 1.00000000
-0.334734 -0.091642 0.039530 1.00000000
0.375625 0.099270 0.012149 1.00000000
-0.263766 0.034669 -0.093492 1.00000000
-0.431730 0.089765 -0.043789 1.00000000
0.314056 0.098075 -0.019255 1.00000000
0.414205 -0.004588 0.099922 1.00000000
-0.104936 0.099863 0.004722 1.00000000
-0.397965 0.003813 -0.099591 1.00000000
-0.325871 -0.030606 0.095223 1.00000000
-0.257172 -0.057132 0.081988 1.00000000
0.212371 0.096955 -0.024267 1.00000000
0.427704 -0.041960 -0.090397 1.00000000
-0.154656 0.084886 -0.052614 1.00000000
0.404640 -0.095817 -0.027470 1.00000000
-0.233070 0.099290 0.011934 1.00000000
-0.054715 0.068287 -0.072818 1.00000000
-0.015070 0.028105 0.096017 1.00000000
0.400455 -0.065604 0.075340 1.00000000
0.021167 -0.098183 -0.017396 1.00000000
-0.195582 0.076007 0.065072 1.00000000
0.020299 0.031016 0.095170 1.00000000
0.319233 -0.035938 0.093313 1.00000000
-0.394185 -0.098280 0.017148 1.00000000
0.344358 0.099068 0.013644 1.00000000
-0.298466 0.043561 0.090098 1.00000000
-0.390630 0.073035 0.068443 1.00000000
-0.251346 -0.032011 -0.094365 1.00000000
0.220843 -0.043730 -0.089530 1.00000000
-0.444465 -0.084325 -0.053168 1.00000000
-0.030497 -0.097979 -0.018642 1.00000000
0.038010 0.099334 0.011467 1.00000000
-0.226074 -0.000505 0.100050 1.00000000
0.332602 0.091511 0.040373 1.00000000
-0.227109 -0.055896 0.082828 1.00000000
0.265874 -0.077999 0.062370 1.00000000
-0.267651 0.098024 -0.019486 1.00000000
0.383350 0.023362 0.097289 1.00000000
0.433429 -0.098076 -0.018070 1.00000000
0.465080 0.022386 -0.097144 1.00000000
-0.434619 0.009423 -0.099223 1.00000000
-0.411664 0.064828 -0.075867 1.00000000
-0.229209 0.099962 -0.001188 1.00000000
-0.213931 0.079498 -0.060375 1.00000000
-0.346412 0.071901 0.069591 1.00000000
0.433652 0.087175 0.049107 1.00000000
-0.303144 0.085898 0.051265 1.00000000
0.149770 -0.069941 -0.070955 1.00000000
-0.430428 0.065868 0.075313 1.00000000
-0.352612 0.098539 -0.016625 1.00000000
0.415139 0.080151 0.059896 1.00000000
-0.382406 0.089917 -0.043490 1.00000000
-0.229156 -0.085657 0.051279 1.00000000
0.060062 0.070345 -0.070785 1.00000000
0.269005 0.077448 0.063381 1.00000000
-0.088993 -0.012548 0.099259 1.00000000
0.126770 0.098774 0.015504 1.00000000
0.334766 0.040269 0.091592 1.00000000
-0.367038 0.078015 0.062650 1.00000000
0.087500 -0.083555 0.054685 1.00000000
-0.466469 0.011609 0.099379 1.00000000
-0.232286 0.067153 0.074180 1.00000000
-0.425735 0.052271 0.085329 1.00000000
0.118679 -0.087842 -0.047105 1.00000000
-0.380343 0.052660 0.085099 1.00000000
-0.291384 -0.098855 -0.013153 1.00000000
-0.029496 -0.095732 -0.027764 1.00000000
0.299094 -0.090687 0.041736 1.00000000
-0.375384 -0.099714 -0.001677 1.00000000
-0.374208 -0.099642 0.004312 1.00000000
-0.049461 -0.099207 -0.009980 1.00000000
-0.240284 -0.039793 0.091697 1.00000000
0.221628 -0.036156 -0.092872 1.00000000
-0.079936 -0.058538 0.081033 1.00000000
0.057018 0.095646 -0.028863 1.00000000
0.351444 0.038299 -0.092082 1.00000000
-0.288214 -0.033711 -0.093753 1.00000000
-0.064132 -0.081991 -0.056624 1.00000000
-0.090438 -0.099375 -0.008204 1.00000000
-0.386268 0.047839 0.087918 1.00000000
0.181866 0.089321 -0.044659 1.00000000
0.169557 -0.095278 0.029688 1.00000000
0.288813 0.056120 0.082835 1.00000000
-0.135116 -0.099636 -0.004141 1.00000000
-0.432695 -0.093743 -0.033853 1.00000000
0.170108 -0.095454 -0.028722 1.00000000
-0.169149 0.077417 -0.063059 1.00000000
0.089222 -0.089559 -0.043735 1.00000000
-0.268129 0.047014 0.088338 1.00000000
0.227810 -0.095326 0.029523 1.00000000
0.292325 -0.052535 0.085036 1.00000000
0.104526 0.005603 0.099898 1.00000000
-0.380131 -0.099653 0.003975 1.00000000
-0.113401 0.069775 0.071717 1.00000000
-0.038515 0.083466 0.055160 1.00000000
-0.155803 0.047427 -0.087765 1.00000000
0.406717 0.033909 -0.093765 1.00000000
0.354515 0.004710 -0.099563 1.00000000
-0.460625 -0.093198 -0.035366 1.00000000
-0.304078 -0.071806 0.069453 1.00000000
-0.194733 0.062004 0.078531 1.00000000
-0.085205 -0.047306 0.088070 1.00000000
0.321195 -0.099482 0.007430 1.00000000
-0.018554 0.071476 0.070016 1.00000000
-0.384148 0.083724 -0.054418 1.00000000
-0.244720 0.094738 0.032100 1.00000000
0.037422 -0.087540 -0.047698 1.00000000
0.424184 -0.030264 -0.094960 1.00000000
0.191763 -0.034044 0.093995 1.00000000
0.430668 0.098371 -0.017686 1.00000000
-0.464251 -0.096741 0.024541 1.00000000
0.232026 -0.040110 -0.091198 1.00000000
0.169163 0.091721 -0.039524 1.00000000
0.186520 -0.068500 -0.072396 1.00000000
-0.138678 -0.091515 0.039824 1.00000000
-0.171050 -0.029374 -0.095218 1.00000000
0.215539 0.094303 -0.032946 1.00000000
0.188094 -0.099705 0.002309 1.00000000
0.453687 0.095680 -0.028748 1.00000000
0.146619 0.084817 0.053092 1.00000000
-0.231410 0.058076 0.081505 1.00000000
0.012037 0.099351 -0.010926 1.00000000
-0.052367 -0.078377 0.061883 1.00000000
0.404931 -0.019681 0.098059 1.00000000
0.276858 0.099915 0.003039 1.00000000
-0.270236 0.092905 0.037151 1.00000000
-0.137723 0.070702 0.070790 1.00000000
0.086747 -0.091722 0.039345 1.00000000
-0.039595 -0.080923 0.058558 1.00000000
-0.101245 -0.095264 -0.029375 1.00000000
0.326261 -0.043278 -0.089760 1.00000000
0.180684 0.049484 0.086978 1.00000000
0.250746 0.090300 -0.042739 1.00000000
0.275690 0.097864 -0.020198 1.00000000
-0.431739 0.015844 -0.098412 1.00000000
0.346706 0.044972 0.089379 1.00000000
-0.431569 0.049938 0.086709 1.00000000
0.243690 -0.021576 0.097636 1.00000000
-0.301122 -0.043303 -0.089748 1.00000000
0.352017 0.099978 -0.000673 1.00000000
0.449780 -0.021738 0.097599 1.00000000
0.362346 0.074146 0.067183 1.00000000
-0.097589 0.030646 -0.094916 1.00000000
0.418661 -0.003101 -0.099606 1.00000000
-0.392248 0.088894 -0.045498 1.00000000
0.300230 0.007105 0.099805 1.00000000
0.411728 0.098643 0.016328 1.00000000
0.138227 0.034190 0.094027 1.00000000
-0.429710 -0.014508 0.098949 1.00000000
0.463837 0.019324 0.098191 1.00000000
-0.364862 0.081450 -0.057763 1.00000000
0.125245 -0.012717 -0.098870 1.00000000
-0.290193 -0.011746 -0.098982 1.00000000
-0.064527 0.084696 -0.052935 1.00000000
0.367684 0.099900 0.003523 1.00000000
-0.416261 0.049341 0.087062 1.00000000
0.465161 0.080061 0.060013 1.00000000
0.256552 0.024756 -0.096614 1.00000000
0.252710 -0.099693 0.002698 1.00000000
0.034876 0.093843 -0.034224 1.00000000
0.199232 -0.088226 -0.046351 1.00000000
-0.330185 -0.035757 -0.093016 1.00000000
0.400015 -0.007179 0.099776 1.00000000
0.065476 -0.007373 0.099758 1.00000000
0.304805 0.099884 -0.003686 1.00000000
-0.277257 -0.096669 0.024866 1.00000000
-0.311923 0.070191 -0.070939 1.00000000
-0.227682 -0.023367 0.097235 1.00000000
0.314352 -0.043819 0.089847 1.00000000
0.061347 -0.039240 -0.091574 1.00000000
-0.338987 -0.000568 -0.099686 1.00000000
0.408705 -0.064398 0.076403 1.00000000
-0.424633 0.034226 0.094014 1.00000000
-0.184982 -0.054394 0.083849 1.00000000
-0.200887 0.092942 -0.036704 1.00000000
-0.343836 0.056216 0.082769 1.00000000
0.266539 0.063836 -0.076741 1.00000000
-0.087542 0.090437 -0.042470 1.00000000
-0.092720 -0.016957 0.098561 1.00000000
-0.132606 -0.081472 -0.057388 1.00000000
-0.203091 -0.054500 0.083777 1.00000000
0.034147 -0.093879 0.033838 1.00000000
-0.433525 -0.039183 -0.091599 1.00000000
-0.431455 0.055255 0.083422 1.00000000
-0.346460 0.050115 0.086604 1.00000000
-0.218125 -0.090858 0.041341 1.00000000
0.283944 0.081862 0.057520 1.00000000
0.148678 0.021638 0.097674 1.00000000
0.151095 -0.059799 -0.079697 1.00000000
0.102943 -0.009497 0.099557 1.00000000
-0.385084 -0.063574 -0.076767 1.00000000
-0.181405 -0.069125 -0.071771 1.00000000
0.233687 0.040163 0.091638 1.00000000
0.073236 -0.099759 0.000609 1.00000000
0.205044 0.008240 -0.099335 1.00000000
0.196028 -0.099083 -0.011297 1.00000000
0.217299 0.086165 0.050813 1.00000000
-0.457840 0.072947 -0.068180 1.00000000
0.268229 -0.074172 0.066889 1.00000000
-0.179307 0.037927 -0.092243 1.00000000
-0.069818 0.074014 -0.066970 1.00000000
-0.120442 0.027147 0.096296 1.00000000
0.243201 0.067322 -0.073669 1.00000000
-0.417571 0.044152 -0.089434 1.00000000
-0.261082 0.008284 0.099694 1.00000000
0.100906 0.043122 -0.089959 1.00000000
0.013842 -0.077258 -0.062963 1.00000000
0.001723 0.099831 0.005738 1.00000000
-0.133013 -0.055845 -0.082500 1.00000000
0.158082 0.026450 -0.096136 1.00000000
-0.116009 -0.070264 0.070995 1.00000000
0.445332 0.091274 0.040919 1.00000000
-0.044571 -0.090760 -0.041207 1.00000000
0.304294 0.091593 -0.039821 1.00000000
-0.083692 0.099533 -0.008997 1.00000000
-0.313700 0.095933 -0.027876 1.00000000
0.289980 0.097526 -0.021710 1.00000000
-0.303009 -0.064202 -0.076213 1.00000000
-0.137239 0.066535 0.074725 1.00000000
-0.249191 0.098480 -0.016994 1.00000000
-0.335607 -0.012974 0.099192 1.00000000
0.222901 0.042886 0.090441 1.00000000
0.259845 0.093995 -0.033801 1.00000000
-0.456194 -0.080801 -0.058375 1.00000000
0.276197 0.088112 -0.047033 1.00000000
-0.192443 -0.097466 -0.020936 1.00000000
0.170348 -0.080320 -0.059015 1.00000000
-0.052068 0.052227 -0.084993 1.00000000
-0.327767 -0.099686 -0.002547 1.00000000
0.259260 0.094204 0.033582 1.00000000
-0.110919 -0.053637 -0.084001 1.00000000
0.416921 0.030665 0.095274 1.00000000
-0.401048 -0.093541 0.034777 1.00000000
0.210002 0.046427 -0.088274 1.00000000
0.353931 -0.095213 0.029913 1.00000000
0.042521 0.071838 0.069654 1.00000000
0.284053 0.084416 -0.053400 1.00000000
0.284335 -0.091049 -0.040538 1.00000000
0.150641 0.087349 0.048811 1.00000000
-0.117663 0.027230 -0.095909 1.00000000
0.148189 -0.094404 -0.032016 1.00000000
-0.056248 0.057433 -0.081580 1.00000000
-0.200142 -0.089206 0.044790 1.00000000
-0.090077 -0.082665 0.055995 1.00000000
0.237647 -0.049665 -0.086370 1.00000000
-0.379921 -0.030128 -0.094999 1.00000000
0.009627 0.067887 -0.073170 1.00000000
-0.177873 0.093087 0.036686 1.00000000
-0.042557 0.088631 -0.046015 1.00000000
0.282254 -0.001333 0.100024 1.00000000
-0.351312 0.080994 0.058797 1.00000000
0.055471 -0.052127 -0.084914 1.00000000
-0.429013 0.081528 0.058012 1.00000000
-0.295829 0.035470 -0.093203 1.00000000
0.004252 -0.066307 0.074720 1.00000000
-0.062199 -0.004914 -0.099549 1.00000000
-0.139276 -0.038191 0.092391 1.00000000
0.266782 0.099395 0.010819 1.00000000
0.031147 -0.098213 -0.017210 1.00000000
-0.285273 -0.076707 -0.063651 1.00000000
0.251763 -0.060959 -0.078797 1.00000000
-0.430117 -0.057043 -0.081686 1.00000000
0.223865 -0.076153 0.064642 1.00000000
-0.310621 0.098782 -0.015088 1.00000000
-0.370036 -0.062478 0.077982 1.00000000
-0.376587 -0.092637 -0.036867 1.00000000
0.288977 -0.032056 -0.094348 1.00000000
0.369883 0.093814 0.034667 1.00000000
0.111539 -0.076609 -0.063762 1.00000000
0.149874 0.093454 -0.035304 1.00000000
-0.322394 -0.059231 0.080501 1.00000000
-0.052626 0.001518 -0.099663 1.00000000
-0.050051 0.082623 0.056401 1.00000000
-0.134020 0.079264 0.061041 1.00000000
-0.435359 0.094642 -0.032004 1.00000000
-0.357039 -0.004248 -0.099570 1.00000000
-0.284539 0.096330 -0.026508 1.00000000
0.097291 -0.047731 -0.087491 1.00000000
0.176044 0.092487 0.038117 1.00000000
-0.120187 0.087434 0.048668 1.00000000
0.293400 0.060464 0.079725 1.00000000
-0.027498 0.091100 -0.040959 1.00000000
-0.122862 -0.079129 0.060913 1.00000000
-0.217289 0.095643 -0.028872 1.00000000
-0.020672 -0.080588 -0.058670 1.00000000
-0.183330 0.048258 -0.087340 1.00000000
-0.339648 0.097010 0.024381 1.00000000
0.193081 -0.022612 0.097404 1.00000000
-0.436105 0.099952 -0.001521 1.00000000
-0.237254 0.089735 0.044210 1.00000000
0.093397 -0.057875 0.081483 1.00000000
0.439585 -0.028389 -0.095504 1.00000000
0.322441 -0.068693 -0.072203 1.00000000
-0.340925 0.037214 0.092915 1.00000000
-0.369820 0.086307 0.050573 1.00000000
0.254671 -0.099032 -0.011830 1.00000000
0.248606 -0.078647 0.061534 1.00000000
-0.224576 0.061902 0.078610 1.00000000
-0.329148 0.061421 -0.078620 1.00000000
-0.163106 0.079661 -0.060166 1.00000000
0.296498 0.072181 -0.068948 1.00000000
0.115991 0.008095 -0.099349 1.00000000
0.121045 0.099275 0.012091 1.00000000
-0.168783 -0.087500 -0.047775 1.00000000
0.008138 -0.080583 -0.058676 1.00000000
0.141642 0.040597 -0.091088 1.00000000
-0.104056 0.094554 0.032611 1.00000000
-0.421393 -0.080328 0.059368 1.00000000
-0.367031 0.086752 -0.049457 1.00000000
0.115075 -0.099285 0.009522 1.00000000
-0.105134 0.094076 -0.033576 1.00000000
0.046925 0.099346 -0.010982 1.00000000
0.409967 0.061778 0.078706 1.00000000
-0.393983 0.023748 0.097202 1.00000000
-0.098799 -0.071526 -0.069370 1.00000000
0.397406 0.042213 0.090751 1.00000000
0.077959 -0.096887 -0.023527 1.00000000
0.438582 0.073226 -0.067864 1.00000000
-0.196494 -0.076764 -0.063586 1.00000000
0.292586 0.099893 0.003760 1.00000000
0.128969 0.040847 0.091342 1.00000000
0.140451 0.075431 -0.065363 1.00000000
-0.351404 -0.003977 0.099941 1.00000000
-0.221920 -0.085863 -0.050567 1.00000000
-0.240884 0.074580 0.066691 1.00000000
0.205745 0.041864 -0.090539 1.00000000
0.390068 0.097847 -0.020278 1.00000000
0.027639 0.096753 0.025416 1.00000000
0.428397 0.059411 -0.080180 1.00000000
-0.110000 0.098714 -0.015515 1.00000000
0.405524 -0.088495 -0.045823 1.00000000
0.205069 -0.097574 0.020817 1.00000000
0.363926 0.098278 0.018633 1.00000000
0.062905 -0.082125 -0.056427 1.00000000
0.325075 0.099568 0.008989 1.00000000
0.309742 -0.047156 -0.087784 1.00000000
0.166218 0.078830 -0.061237 1.00000000
-0.325756 0.099824 0.005956 1.00000000
-0.094939 -0.058735 0.080885 1.00000000
-0.066445 0.077753 0.062988 1.00000000
0.014063 0.091192 -0.040748 1.00000000
-0.044911 -0.095773 0.027986 1.00000000
0.260845 0.071880 0.069612 1.00000000
0.134643 0.072489 -0.068641 1.00000000
0.115468 -0.051431 -0.085326 1.00000000
0.248595 0.084518 0.053599 1.00000000
-0.100436 -0.006067 0.099876 1.00000000
0.019381 0.089443 -0.044420 1.00000000
-0.126428 0.095733 -0.028563 1.00000000
-0.350001 0.028904 0.095785 1.00000000
-0.126119 0.051407 -0.085478 1.00000000
-0.342287 -0.001658 0.100014 1.00000000
0.121570 0.074744 0.066505 1.00000000
0.423284 0.091987 0.039272 1.00000000
-0.188892 0.099728 0.007297 1.00000000
0.280750 0.027753 -0.095757 1.00000000
0.017103 0.028057 -0.095669 1.00000000
0.174181 -0.048835 -0.086861 1.00000000
-0.213700 -0.041199 0.091089 1.00000000
-0.221226 -0.084714 0.052873 1.00000000
0.358215 0.018044 0.098426 1.00000000
-0.092206 -0.049507 0.086826 1.00000000
-0.257585 0.099911 -0.002807 1.00000000
0.167378 0.073850 0.067519 1.00000000
0.327372 -0.087180 0.048703 1.00000000
0.149867 -0.003668 -0.099588 1.00000000
0.052385 0.023578 0.097240 1.00000000
0.384991 0.090662 0.042334 1.00000000
0.325599 -0.032422 0.094579 1.00000000
0.149439 0.006257 0.099877 1.00000000
-0.260887 -0.049912 0.086587 1.00000000
-0.283496 0.094159 -0.033344 1.00000000
0.036038 0.047592 0.088044 1.00000000
-0.420712 -0.093645 0.034486 1.00000000
-0.173890 0.082430 0.056685 1.00000000
-0.431801 0.009577 0.099571 1.00000000
-0.408026 -0.045101 0.089194 1.00000000
0.260117 -0.004656 0.099920 1.00000000
-0.027796 0.078950 0.061445 1.00000000
-0.150910 -0.038284 0.092350 1.00000000
0.006482 0.017593 0.098497 1.00000000
-0.221195 0.045782 -0.088603 1.00000000
0.272513 -0.038020 -0.092102 1.00000000
0.308128 0.054578 0.083882 1.00000000
-0.194296 0.085546 -0.051497 1.00000000
-0.403308 -0.069695 -0.071201 1.00000000
-0.457362 0.077808 -0.062554 1.00000000
-0.292086 -0.041541 0.090941 1.00000000
0.036321 -0.094144 -0.032739 1.00000000
0.075325 -0.097902 0.019348 1.00000000
-0.407438 0.096985 -0.024135 1.00000000
0.458001 -0.099599 0.005682 1.00000000
0.382224 0.070050 -0.071080 1.00000000
0.399120 0.067112 0.074216 1.00000000
-0.318635 -0.098900 -0.012869 1.00000000
0.049654 -0.061739 0.078555 1.00000000
-0.388994 0.058099 -0.081127 1.00000000
0.344561 -0.097867 0.019507 1.00000000
-0.332720 0.099663 0.007988 1.00000000
-0.136217 -0.086755 -0.049059 1.00000000
-0.155235 0.024726 -0.096621 1.00000000
0.065688 0.026832 0.096387 1.00000000
-0.225797 0.097194 -0.023198 1.00000000
-0.158592 0.027920 0.096071 1.00000000
-0.078992 0.037971 -0.092224 1.00000000
-0.380881 -0.074844 0.066127 1.00000000
-0.031819 0.090251 0.043198 1.00000000
-0.447418 -0.088143 0.046876 1.00000000
-0.121636 -0.026859 0.096312 1.00000000
-0.082351 0.032026 -0.094443 1.00000000
0.035217 0.062900 0.077836 1.00000000
-0.086815 -0.000267 -0.099695 1.00000000
0.130618 0.098842 -0.014707 1.00000000
0.042205 0.049197 0.087148 1.00000000
0.052854 0.099711 0.007482 1.00000000
0.116162 -0.079201 -0.060458 1.00000000
-0.322220 -0.093041 -0.035804 1.00000000
0.268343 0.039572 -0.091531 1.00000000
-0.016559 -0.087668 0.047809 1.00000000
-0.020192 -0.061762 -0.078175 1.00000000
-0.434774 0.061308 -0.078708 1.00000000
0.159548 -0.053108 0.084696 1.00000000
-0.067399 0.056470 -0.082234 1.00000000
0.104531 -0.038994 -0.091680 1.00000000
-0.331676 0.089081 -0.045132 1.00000000
0.447967 0.069663 0.071829 1.00000000
0.053049 -0.081113 0.058279 1.00000000
0.328858 -0.061983 0.078366 1.00000000
0.233818 0.040978 -0.090923 1.00000000
0.154576 0.007944 -0.099363 1.00000000
0.260070 0.025147 0.096877 1.00000000
0.093609 -0.099594 0.005844 1.00000000
-0.309456 0.086108 0.050910 1.00000000
-0.209100 -0.087165 0.048727 1.00000000
-0.018404 -0.031543 0.094896 1.00000000
-0.270071 0.060176 0.079949 1.00000000
0.440110 0.095298 -0.030059 1.00000000
0.138762 -0.096154 -0.026310 1.00000000
0.076529 -0.074377 -0.066294 1.00000000
0.310564 -0.052779 -0.084528 1.00000000
0.172220 0.054155 -0.083807 1.00000000
-0.041223 0.059663 0.080346 1.00000000
-0.418379 0.069859 0.071634 1.00000000
-0.365620 0.065032 0.076051 1.00000000
-0.441610 -0.065135 -0.075391 1.00000000
-0.197012 0.089666 0.044346 1.00000000
0.020536 -0.083917 -0.053791 1.00000000
-0.353652 0.076526 0.064484 1.00000000
0.396015 -0.063221 -0.077043 1.00000000
0.120444 -0.032950 0.094389 1.00000000
-0.211664 -0.052702 -0.084574 1.00000000
-0.409454 -0.095097 0.030311 1.00000000
-0.093380 0.069509 0.071984 1.00000000
0.082723 0.043175 -0.089932 1.00000000
0.360499 -0.028766 -0.095395 1.00000000
0.085428 0.087530 0.048505 1.00000000
0.081292 -0.031567 0.094887 1.00000000
0.139641 -0.091830 0.039096 1.00000000
0.055964 0.029021 0.095751 1.00000000
-0.435004 -0.088372 -0.046065 1.00000000
0.062387 0.047961 0.087856 1.00000000
-0.267644 0.099048 0.013773 1.00000000
0.319199 0.071857 0.069635 1.00000000
0.073228 -0.024724 0.096932 1.00000000
0.295649 -0.069617 -0.071279 1.00000000
0.010030 -0.039785 0.091701 1.00000000
-0.081397 -0.090202 0.042835 1.00000000
-0.042140 0.068942 -0.072187 1.00000000
0.078442 -0.086053 -0.050246 1.00000000
0.437311 0.031525 -0.094624 1.00000000
-0.091921 -0.099598 0.005717 1.00000000
0.137365 -0.060550 0.079477 1.00000000
0.373398 0.010129 -0.099156 1.00000000
-0.073008 -0.099012 0.012405 1.00000000
-0.263822 -0.098866 0.013448 1.00000000
-0.356045 0.025153 0.096875 1.00000000
-0.248728 -0.045180 0.089154 1.00000000
-0.379939 0.026574 0.096462 1.00000000
0.143407 -0.093675 0.034404 1.00000000
0.241634 0.080852 -0.058630 1.00000000
0.270700 0.085300 0.052276 1.00000000
-0.207284 0.096427 -0.026175 1.00000000
0.115327 -0.064813 -0.075675 1.00000000
0.313700 -0.097952 0.019126 1.00000000
0.385659 0.071493 0.069999 1.00000000
0.286822 0.030375 -0.094995 1.00000000
0.254512 0.086912 -0.049187 1.00000000
0.219879 -0.078796 -0.060980 1.00000000
-0.424884 0.077257 -0.063264 1.00000000
-0.081434 0.037462 0.092807 1.00000000
0.011083 0.011990 0.099343 1.00000000
-0.363175 -0.020933 0.097779 1.00000000
0.252296 0.009931 -0.099175 1.00000000
-0.419346 -0.007681 0.099729 1.00000000
-0.002973 -0.026921 -0.095931 1.00000000
0.141153 -0.093251 -0.035219 1.00000000
0.372432 0.087669 0.048265 1.00000000
0.392560 0.040559 -0.091104 1.00000000
0.330686 -0.053235 -0.084258 1.00000000
0.109974 -0.060458 -0.079186 1.00000000
-0.165600 -0.098375 -0.016184 1.00000000
0.355387 -0.098775 -0.013662 1.00000000
-0.344022 -0.069832 0.071427 1.00000000
0.427183 -0.069944 0.071315 1.00000000
-0.445415 0.083959 -0.054072 1.00000000
0.268603 -0.089948 0.043334 1.00000000
0.415962 0.012382 -0.098943 1.00000000
0.322740 0.035001 -0.093372 1.00000000
0.008429 -0.015899 -0.098366 1.00000000
-0.073098 -0.091129 -0.040354 1.00000000
-0.318538 -0.027639 -0.095722 1.00000000
0.029132 -0.089176 -0.044486 1.00000000
0.151208 0.074832 -0.066042 1.00000000
0.249654 -0.022703 0.097384 1.00000000
0.265210 0.059063 -0.080449 1.00000000
0.049335 0.072685 0.068807 1.00000000
0.193602 0.083391 -0.054908 1.00000000
0.160923 0.041930 -0.090511 1.00000000
0.337187 -0.059523 0.080274 1.00000000
0.413842 -0.074963 -0.065629 1.00000000
0.021975 0.099890 0.003846 1.00000000
0.161463 0.066205 0.075016 1.00000000
-0.132925 0.005416 -0.099541 1.00000000
0.365006 0.093840 -0.034230 1.00000000
-0.258743 0.090582 0.042519 1.00000000
-0.160622 -0.080467 0.059189 1.00000000
0.025781 0.017931 -0.098081 1.00000000
0.076037 0.097352 0.022853 1.00000000
-0.318456 0.031131 0.095128 1.00000000
0.129645 -0.098346 0.016730 1.00000000
0.454267 0.026605 -0.096090 1.00000000
0.132630 0.064437 0.076575 1.00000000
-0.453016 -0.041978 -0.090389 1.00000000
0.148794 0.091459 0.040492 1.00000000
-0.304040 0.039504 -0.091561 1.00000000
-0.291493 0.083172 -0.055230 1.00000000
0.178963 -0.047628 0.087907 1.00000000
-0.466105 -0.027019 0.096265 1.00000000
-0.273022 0.098530 -0.016677 1.00000000
0.353524 0.011838 -0.098995 1.00000000
0.382894 -0.099309 -0.008899 1.00000000
0.379526 0.084799 -0.052760 1.00000000
-0.460169 -0.099655 0.003896 1.00000000
-0.339577 0.068785 0.072707 1.00000000
-0.454582 -0.040259 0.091496 1.00000000
0.005312 -0.098889 -0.012940 1.00000000
0.215254 -0.051333 -0.085384 1.00000000
0.093589 -0.053544 -0.084063 1.00000000
-0.349016 -0.099161 0.010827 1.00000000
0.157146 -0.035200 0.093579 1.00000000
-0.364132 0.060367 0.079800 1.00000000
-0.273042 -0.044824 -0.088972 1.00000000
0.319426 -0.010517 0.099461 1.00000000
0.009464 -0.083499 0.054768 1.00000000
-0.403312 0.010915 0.099445 1.00000000
0.265136 0.080898 0.058933 1.00000000
-0.407763 0.098842 -0.014710 1.00000000
0.256607 -0.054777 0.083589 1.00000000
-0.100504 0.040390 0.091540 1.00000000
-0.386818 -0.097645 0.020496 1.00000000
-0.135932 -0.089858 -0.043148 1.00000000
0.342509 0.082843 -0.055714 1.00000000
0.426929 -0.063261 0.077375 1.00000000
-0.146033 0.025157 0.096874 1.00000000
-0.195137 -0.069808 0.071451 1.00000000
-0.213256 -0.080050 -0.059363 1.00000000
-0.235521 0.098320 0.018370 1.00000000
-0.077434 0.006353 -0.099511 1.00000000
0.091730 0.089758 0.044165 1.00000000
0.190971 0.029270 0.095679 1.00000000
-0.063433 -0.056346 -0.082160 1.00000000
0.094699 -0.024697 0.096938 1.00000000
0.318079 -0.076380 0.064384 1.00000000
0.464183 -0.031569 0.094886 1.00000000
-0.186343 0.086036 -0.050669 1.00000000
-0.307205 0.069521 0.071972 1.00000000
0.378341 0.001556 -0.099662 1.00000000
-0.142740 -0.015092 -0.098494 1.00000000
-0.029217 0.097197 -0.023183 1.00000000
0.193387 -0.081029 0.058403 1.00000000
-0.442608 0.068633 0.072859 1.00000000
-0.324211 0.095208 0.030734 1.00000000
-0.224173 0.056576 0.082524 1.00000000
0.176447 -0.092591 -0.036974 1.00000000
0.409617 -0.014709 0.098917 1.00000000
0.239455 0.096890 -0.024558 1.00000000
0.002975 0.069946 0.071546 1.00000000
-0.148294 -0.003377 0.099960 1.00000000
-0.264227 -0.097371 -0.021362 1.00000000
-0.112139 0.099921 0.002870 1.00000000
-0.231389 -0.042870 -0.089968 1.00000000
-0.297516 0.055188 -0.083105 1.00000000
-0.035708 0.022628 0.097452 1.00000000
-0.303100 0.099615 -0.008129 1.00000000
0.325397 -0.064609 -0.075855 1.00000000
-0.331166 -0.093639 -0.034143 1.00000000
0.306161 0.039028 -0.091767 1.00000000
-0.064048 0.099264 0.012214 1.00000000
0.274692 0.001840 -0.099653 1.00000000
0.155471 -0.044852 0.089321 1.00000000
-0.289396 0.009534 0.099576 1.00000000
-0.270702 0.096707 -0.025211 1.00000000
-0.155402 0.067964 0.073465 1.00000000
-0.218445 0.039998 -0.091347 1.00000000
0.302480 0.067225 0.074117 1.00000000
-0.085068 -0.099605 0.005479 1.00000000
0.408297 -0.077070 -0.063205 1.00000000
0.284239 0.068391 -0.072726 1.00000000
0.029667 0.032799 0.094528 1.00000000
0.111824 -0.025814 -0.096252 1.00000000
0.067504 0.072629 -0.068501 1.00000000
-0.324241 0.093771 -0.034423 1.00000000
0.125580 0.097621 0.021648 1.00000000
0.038564 -0.092056 0.038573 1.00000000
-0.364758 0.074561 -0.066350 1.00000000
-0.240786 0.022976 -0.097012 1.00000000
-0.106446 -0.030682 -0.094838 1.00000000
0.340017 -0.053914 0.084175 1.00000000
0.379678 -0.098517 -0.015286 1.00000000
0.125439 -0.071879 -0.069017 1.00000000
-0.311362 0.032957 0.094471 1.00000000
-0.151429 -0.057654 -0.081271 1.00000000
-0.258231 -0.099619 0.005044 1.00000000
0.272306 0.044900 0.089415 1.00000000
0.133708 0.074251 0.067065 1.00000000
0.143106 -0.048010 -0.087349 1.00000000
-0.289451 0.001188 -0.099674 1.00000000
0.261899 0.097358 0.022827 1.00000000
-0.195463 0.079523 -0.060344 1.00000000
-0.128062 -0.039248 -0.091571 1.00000000
0.250193 0.057189 0.082108 1.00000000
0.368296 -0.095751 0.028061 1.00000000
0.072763 0.099922 0.002836 1.00000000
0.317444 -0.099600 -0.005275 1.00000000
0.165914 -0.057502 0.081737 1.00000000
-0.266113 -0.014757 0.098909 1.00000000
0.034283 0.068111 -0.072973 1.00000000
-0.344297 0.013242 -0.098824 1.00000000
-0.233263 0.099277 -0.011706 1.00000000
0.011833 0.087632 -0.047971 1.00000000
0.377150 -0.062467 0.077990 1.00000000
-0.168018 0.025765 0.096697 1.00000000
-0.016327 0.052624 -0.084758 1.00000000
0.018128 -0.003153 -0.099604 1.00000000
0.419964 -0.068622 0.072637 1.00000000
-0.183951 -0.081010 0.058430 1.00000000
0.406742 0.097095 -0.023639 1.00000000
-0.049178 0.025062 -0.096539 1.00000000
0.447152 -0.094964 -0.030409 1.00000000
0.207413 -0.007541 -0.099379 1.00000000
0.017123 0.077708 0.063046 1.00000000
-0.318421 -0.066864 -0.073867 1.00000000
-0.201950 -0.045666 0.088906 1.00000000
-0.381722 0.096160 -0.027095 1.00000000
0.275546 0.096171 -0.027055 1.00000000
0.058914 -0.056064 0.082714 1.00000000
-0.004948 0.089943 0.043802 1.00000000
-0.016747 0.077787 -0.062582 1.00000000
0.202596 -0.022537 0.097421 1.00000000
0.315430 0.041163 -0.090843 1.00000000
0.309555 0.020010 -0.097675 1.00000000
0.059240 -0.001966 -0.099642 1.00000000
0.096584 0.099559 0.009093 1.00000000
-0.127084 -0.021762 -0.097231 1.00000000
-0.429839 -0.089887 -0.043091 1.00000000
0.318039 0.094531 0.032675 1.00000000
-0.023354 -0.006940 -0.099436 1.00000000
0.372237 0.023395 -0.096918 1.00000000
-0.086257 -0.018929 0.098227 1.00000000
-0.269359 0.022031 0.097586 1.00000000
0.086004 -0.013410 -0.098760 1.00000000
0.074788 -0.036280 -0.092827 1.00000000
0.060228 -0.087248 -0.048224 1.00000000
0.365470 0.098756 -0.015254 1.00000000
0.327144 -0.098765 -0.013719 1.00000000
0.262901 0.013900 -0.098719 1.00000000
-0.395531 -0.003289 0.099963 1.00000000
0.358847 0.097998 -0.019602 1.00000000
0.403546 -0.097355 -0.021433 1.00000000
0.458419 -0.019707 0.098053 1.00000000
0.254436 0.062432 -0.077836 1.00000000
0.218040 0.067270 0.074077 1.00000000
0.429805 0.090048 -0.043233 1.00000000
-0.149133 0.093986 0.034189 1.00000000
-0.125799 -0.099406 -0.007878 1.00000000
0.012135 0.095725 0.028955 1.00000000
-0.466546 0.046956 0.088368 1.00000000
0.423984 -0.012599 -0.098888 1.00000000
0.146706 -0.096942 -0.023282 1.00000000
-0.337377 -0.051538 0.085625 1.00000000
0.322463 0.065927 -0.074899 1.00000000
-0.215292 0.098514 -0.016783 1.00000000
-0.100957 -0.027147 -0.095865 1.00000000
-0.301205 0.096843 0.025107 1.00000000
0.183696 -0.054717 0.083629 1.00000000
-0.081971 0.096862 -0.024678 1.00000000
-0.427194 0.062002 0.078532 1.00000000
0.031845 -0.045899 -0.088425 1.00000000
0.176179 -0.074413 -0.066253 1.00000000
0.201963 -0.099225 -0.009796 1.00000000
0.161204 -0.061192 -0.078617 1.00000000
-0.004081 0.099547 0.009216 1.00000000
-0.044740 0.099314 -0.011314 1.00000000
-0.177992 0.062233 -0.077991 1.00000000
0.099782 -0.030772 0.095173 1.00000000
0.451989 0.013006 -0.098861 1.00000000
-0.088143 0.081955 -0.057020 1.00000000
0.063737 0.084174 -0.053756 1.00000000
0.418770 -0.009731 0.099535 1.00000000
-0.273519 0.098770 0.015528 1.00000000
0.161074 0.056000 0.082916 1.00000000
-0.268076 -0.050874 0.086018 1.00000000
-0.360402 -0.040225 -0.091148 1.00000000
0.031328 0.047151 -0.087906 1.00000000
-0.077782 -0.061733 -0.078197 1.00000000
-0.218426 -0.095927 -0.027093 1.00000000
-0.223157 -0.003685 -0.099588 1.00000000
-0.387389 0.098879 0.014840 1.00000000
-0.428405 -0.095584 0.028637 1.00000000
-0.395655 0.062538 -0.077754 1.00000000
0.419704 0.056527 0.082558 1.00000000
-0.326424 0.086862 0.049636 1.00000000
0.233863 0.047463 -0.087747 1.00000000
0.237549 -0.022097 0.097519 1.00000000
0.254605 0.004398 -0.099573 1.00000000
-0.082562 -0.065570 -0.075008 1.00000000
0.280663 -0.098213 -0.017209 1.00000000
-0.159817 0.093129 0.036570 1.00000000
-0.268118 -0.088697 0.045789 1.00000000
-0.152271 -0.050452 -0.085904 1.00000000
-0.111608 0.094726 0.032132 1.00000000
-0.331320 0.082735 -0.055873 1.00000000
-0.328537 0.099066 0.013660 1.00000000
-0.435446 0.099584 -0.008457 1.00000000
-0.361903 0.049111 -0.086836 1.00000000
-0.068056 -0.065618 -0.074965 1.00000000
0.329221 0.001447 -0.099665 1.00000000
-0.455708 0.093450 0.035678 1.00000000
-0.291947 0.015139 0.098886 1.00000000
-0.231869 0.090273 -0.042792 1.00000000
0.402966 0.098702 -0.015596 1.00000000
0.232244 -0.078233 -0.061705 1.00000000
0.156491 0.062858 -0.077505 1.00000000
-0.465299 -0.091164 0.040635 1.00000000
0.221304 0.099918 0.002949 1.00000000
-0.106081 -0.036544 0.093095 1.00000000
0.015516 -0.095294 -0.029272 1.00000000
-0.077102 -0.099510 0.007137 1.00000000
-0.111748 -0.012468 0.099272 1.00000000
0.427913 -0.099699 -0.002144 1.00000000
0.332162 -0.041017 -0.090805 1.00000000
-0.359847 0.087214 -0.048677 1.00000000
-0.392951 -0.089568 0.044081 1.00000000
-0.038120 -0.025693 0.096650 1.00000000
0.034568 0.021664 0.097668 1.00000000
-0.255793 0.052028 0.085473 1.00000000
-0.416572 -0.066403 0.074636 1.00000000
0.108113 0.036146 -0.092960 1.00000000
-0.016209 0.091128 0.041257 1.00000000
0.058035 0.094247 0.033464 1.00000000
0.061733 0.022701 0.097436 1.00000000
-0.028665 0.056388 -0.082290 1.00000000
0.424550 0.048757 -0.087045 1.00000000
0.391312 -0.065474 0.075455 1.00000000
-0.048385 0.057508 0.081892 1.00000000
0.391511 -0.093040 -0.035806 1.00000000
-0.463660 0.099689 -0.007355 1.00000000
-0.323904 0.052484 -0.084841 1.00000000
-0.373319 -0.010150 -0.099133 1.00000000
0.356970 0.086647 0.049998 1.00000000
0.036627 -0.081471 -0.057390 1.00000000
-0.409770 0.084885 -0.052615 1.00000000
-0.228952 -0.046943 0.088256 1.00000000
-0.005348 0.057437 0.081939 1.00000000
0.384212 0.025577 -0.096389 1.00000000
0.425410 0.096144 -0.027150 1.00000000
0.004484 -0.000723 -0.099681 1.00000000
-0.265026 0.095435 -0.029589 1.00000000
-0.464796 -0.013253 0.099148 1.00000000
0.352592 -0.023022 0.097312 1.00000000
-0.162682 -0.095572 0.028677 1.00000000
0.367146 0.099669 -0.007559 1.00000000
-0.319276 -0.012567 0.099256 1.00000000
-0.420032 0.014350 0.099011 1.00000000
0.170607 -0.092521 -0.037135 1.00000000
-0.411737 0.028211 -0.095624 1.00000000
0.428440 0.076425 0.064599 1.00000000
-0.280476 0.099896 0.003670 1.00000000
0.155727 -0.088130 0.046903 1.00000000
-0.160467 0.034415 0.093946 1.00000000
-0.364072 0.031981 -0.094459 1.00000000
0.201194 0.033553 -0.093894 1.00000000
-0.433559 0.093699 0.034985 1.00000000
0.298937 -0.064772 -0.075711 1.00000000
-0.426226 -0.037387 -0.092376 1.00000000
-0.186569 -0.097188 0.022540 1.00000000
0.461857 -0.025443 0.096723 1.00000000
0.110035 0.099829 -0.005414 1.00000000
-0.374957 -0.002786 0.099979 1.00000000
-0.454559 -0.052937 0.084798 1.00000000
0.388521 0.098107 0.019476 1.00000000
-0.266615 0.099855 0.004964 1.00000000
0.089052 -0.099764 0.000441 1.00000000
-0.327783 -0.027368 -0.095801 1.00000000
-0.182874 0.064020 0.076942 1.00000000
-0.458508 0.017114 0.098573 1.00000000
-0.046149 0.098354 -0.017788 1.00000000
0.004766 0.049096 -0.086845 1.00000000
-0.231547 -0.011520 -0.099003 1.00000000
-0.077724 0.080653 -0.058887 1.00000000
-0.131280 0.053992 0.084281 1.00000000
-0.450257 0.023290 0.097305 1.00000000
-0.097114 0.012842 -0.098887 1.00000000
-0.337593 -0.008863 -0.099254 1.00000000
0.127572 0.086973 -0.049085 1.00000000
-0.228255 0.080907 0.058922 1.00000000
0.262301 -0.066757 0.074324 1.00000000
0.170502 0.085208 0.052432 1.00000000
0.458063 0.082177 0.057056 1.00000000
0.107218 0.095472 0.029824 1.00000000
-0.380056 -0.083639 0.054562 1.00000000
0.246980 0.051350 -0.085511 1.00000000
0.157816 -0.090361 -0.042126 1.00000000
0.064657 -0.095464 -0.028685 1.00000000
-0.287308 -0.017337 -0.098138 1.00000000
-0.054827 -0.069457 -0.071439 1.00000000
0.347027 -0.050107 0.086471 1.00000000
0.102409 0.067637 0.073754 1.00000000
0.095486 0.048639 0.087478 1.00000000
-0.414960 0.099946 0.002077 1.00000000
-0.325971 -0.090197 0.042846 1.00000000
0.196142 0.071050 -0.070079 1.00000000
0.223872 -0.095336 -0.029126 1.00000000
0.155689 -0.063920 -0.076462 1.00000000
-0.295294 0.032514 0.094630 1.00000000
-0.336734 -0.018278 -0.097989 1.00000000
0.234225 -0.096215 0.026463 1.00000000
-0.052543 0.038089 -0.092173 1.00000000
-0.081292 -0.091608 -0.039247 1.00000000
-0.048312 -0.004582 -0.099560 1.00000000
-0.328116 -0.083951 -0.053740 1.00000000
0.062670 -0.082977 0.055536 1.00000000
-0.324342 0.009977 0.099534 1.00000000
-0.453718 0.090830 0.041947 1.00000000
0.000187 0.059359 0.080582 1.00000000
-0.258018 -0.071398 -0.069498 1.00000000
0.251159 0.013446 0.099154 1.00000000
0.020562 -0.099685 -0.002576 1.00000000
0.284341 0.093733 0.034891 1.00000000
-0.028179 -0.099099 -0.011121 1.00000000
0.372726 0.068765 0.072727 1.00000000
0.075218 0.072502 -0.068628 1.00000000
-0.265691 -0.082314 0.056511 1.00000000
-0.392168 0.099911 -0.002831 1.00000000
-0.375717 -0.095832 0.027783 1.00000000
-0.219753 -0.009028 -0.099239 1.00000000
0.137952 0.002150 -0.099643 1.00000000
-0.436691 0.004043 0.099947 1.00000000
-0.413446 -0.032125 -0.094324 1.00000000
-0.260442 0.026564 0.096465 1.00000000
-0.143364 0.062223 0.078361 1.00000000
0.238156 0.017778 0.098468 1.00000000
-0.308835 0.088448 -0.046373 1.00000000
0.071539 -0.063673 0.077043 1.00000000
-0.151006 -0.095185 0.030010 1.00000000
0.359668 -0.092680 -0.036770 1.00000000
-0.310641 -0.062634 -0.077499 1.00000000
-0.300629 0.064909 0.076159 1.00000000
-0.014427 -0.099231 0.010087 1.00000000
0.207903 -0.098073 -0.018091 1.00000000
0.372495 0.096053 -0.027463 1.00000000
-0.153883 -0.083636 -0.054204 1.00000000
0.163685 -0.028074 0.095959 1.00000000
-0.064164 0.099836 -0.005215 1.00000000
-0.436849 0.084110 -0.053850 1.00000000
0.056098 -0.099423 -0.007699 1.00000000
-0.343857 -0.096468 -0.025232 1.00000000
-0.237169 -0.022620 -0.097039 1.00000000
-0.304433 -0.056894 0.082149 1.00000000
-0.035732 0.084136 -0.053812 1.00000000
-0.048466 0.035305 0.093625 1.00000000
0.229944 0.054686 -0.083447 1.00000000
0.042240 -0.032339 -0.094246 1.00000000
-0.229375 -0.086756 -0.049057 1.00000000
0.084112 -0.006426 -0.099485 1.00000000
-0.099101 -0.075994 -0.064460 1.00000000
-0.452715 -0.090161 0.042916 1.00000000
0.120618 0.080094 -0.059607 1.00000000
-0.296059 0.015878 -0.098406 1.00000000
0.133355 -0.084432 0.053349 1.00000000
0.334966 -0.090991 -0.040672 1.00000000
-0.072933 0.055290 0.083399 1.00000000
-0.400843 -0.053225 0.084627 1.00000000
-0.286506 0.001606 0.100023 1.00000000
0.439987 0.098838 0.015096 1.00000000
-0.321013 -0.005099 0.099906 1.00000000
-0.246591 -0.015623 -0.098409 1.00000000
-0.241185 -0.011476 -0.099007 1.00000000
-0.194298 0.080284 0.059725 1.00000000
0.387125 -0.049520 0.086818 1.00000000
-0.026228 0.042113 -0.090432 1.00000000
-0.327616 0.099989 -0.000348 1.00000000
-0.386355 0.092908 -0.036781 1.00000000
-0.049711 -0.029703 -0.095123 1.00000000
0.199069 0.009115 -0.099252 1.00000000
0.107855 -0.092766 0.036928 1.00000000
-0.251639 -0.096311 -0.025770 1.00000000
-0.089918 0.027181 -0.095923 1.00000000
-0.093819 0.098921 0.014571 1.00000000
-0.275374 -0.035252 -0.093198 1.00000000
-0.144040 0.016923 0.098603 1.00000000
0.015689 -0.015963 -0.098356 1.00000000
-0.001432 -0.039820 -0.091323 1.00000000
-0.419127 -0.037968 -0.092124 1.00000000
-0.384295 -0.095627 0.028488 1.00000000
-0.427571 0.072023 0.069469 1.00000000
0.312914 -0.038343 0.092325 1.00000000
-0.125570 0.011875 0.099354 1.00000000
-0.434621 0.023648 0.097225 1.00000000
0.263946 -0.095460 0.029061 1.00000000
0.285556 0.090039 0.043614 1.00000000
0.000965 -0.095423 0.029191 1.00000000
0.040308 0.031020 -0.094805 1.00000000
-0.014588 -0.023381 -0.096869 1.00000000
0.156306 0.092596 0.037866 1.00000000
0.240198 0.076591 -0.064048 1.00000000
-0.123209 -0.004433 -0.099564 1.00000000
0.200591 -0.062973 0.077598 1.00000000
-0.023240 -0.061819 0.078493 1.00000000
0.233993 0.054968 0.083617 1.00000000
0.008401 0.093970 0.034234 1.00000000
-0.298974 -0.003818 -0.099584 1.00000000
0.182814 0.099717 0.007422 1.00000000
-0.002777 -0.087740 -0.047304 1.00000000
0.355233 -0.011971 0.099323 1.00000000
-0.417781 0.097167 -0.023320 1.00000000
-0.239280 0.099591 -0.008387 1.00000000
0.067090 -0.051106 -0.085517 1.00000000
0.411156 -0.013232 -0.098788 1.00000000
0.349867 0.090742 0.042149 1.00000000
0.077155 0.004503 0.099932 1.00000000
0.381676 -0.086251 0.050273 1.00000000
-0.212792 -0.046289 -0.088226 1.00000000
-0.352721 0.086515 -0.049859 1.00000000
0.169905 0.063378 -0.077102 1.00000000
-0.214757 -0.097847 0.019594 1.00000000
-0.052697 0.048845 0.087356 1.00000000
-0.424582 0.042772 -0.090137 1.00000000
-0.073057 0.022181 -0.097190 1.00000000
-0.407004 -0.022952 0.097328 1.00000000
-0.423006 0.075328 0.065842 1.00000000
-0.316602 0.058114 0.081479 1.00000000
0.094232 -0.087649 -0.047483 1.00000000
-0.185200 -0.014204 -0.098634 1.00000000
-0.106407 -0.059364 0.080398 1.00000000
-0.318235 -0.064533 0.076284 1.00000000
0.090757 -0.040706 0.091302 1.00000000
-0.314937 0.033746 -0.093824 1.00000000
-0.051194 0.030458 -0.094971 1.00000000
0.174669 -0.000987 -0.099673 1.00000000
0.274491 -0.062698 0.077812 1.00000000
-0.274028 0.027444 -0.095847 1.00000000
-0.322323 0.041363 0.091119 1.00000000
0.033517 -0.089465 0.044282 1.00000000
-0.213094 -0.099434 0.007942 1.00000000
-0.212545 -0.099652 -0.003639 1.00000000
-0.191855 -0.035632 -0.093061 1.00000000
0.340515 0.017478 0.098515 1.00000000
0.161213 0.094922 -0.031225 1.00000000
-0.322590 -0.023575 0.097189 1.00000000
-0.396928 -0.097241 0.022304 1.00000000
