22.712392 -50.658459 -7.396938
34.184732 -55.842174 -3.449977
17.471962 -46.509916 3.606294
33.856244 -55.741200 -23.983021
9.251896 -35.570622 -12.514443
37.962716 -56.662667 -7.314339
9.306181 -35.674432 -45.390103
33.090276 -55.505751 -41.434567
14.126810 -42.972782 -33.519300
23.837128 -51.357069 -21.143572
7.889756 -32.605330 -1.930226
6.514064 -28.758005 -56.279592
8.455359 -33.932879 -31.646033
28.564756 -53.861297 -1.031635
45.976331 -57.180980 -0.746240
36.896782 -56.465422 -45.825006
8.420316 -33.850629 -50.530009
18.017133 -47.041374 -48.896508
23.446551 -51.125366 -41.699003
36.391262 -56.352831 -28.346000
23.478190 -51.144136 -14.056810
17.811203 -46.840624 -35.943085
6.879897 -29.848448 -3.170377
7.937290 -32.716899 -48.982607
19.704547 -48.444668 -33.268021
12.539667 -40.924525 -12.326732
26.949492 -53.074317 -8.077707
29.940783 -54.406573 -2.296254
12.600099 -41.005695 -3.904734
9.750287 -36.523699 -34.854318
7.701026 -32.162352 -30.511915
6.106805 -27.203939 -33.987599
9.485175 -36.016725 -6.248953
28.262462 -53.718905 -40.213526
19.554536 -48.319951 3.844190
32.061237 -55.189436 -26.663085
6.335853 -28.088361 -39.352719
15.859264 -44.937782 -13.603093
41.272966 -57.073609 -12.368858
7.764940 -32.312369 -32.323054
15.604373 -44.660658 -50.876526
8.802902 -34.712009 -20.499094
5.434377 -24.607496 -59.685146
7.039981 -30.325613 -40.489814
41.281030 -57.074101 1.878505
16.743425 -45.799703 -23.484294
7.908446 -32.649198 -27.441847
7.737998 -32.249130 -7.796200
41.808914 -57.106333 3.732878
17.377719 -46.418043 -32.139419
25.371833 -52.267503 0.883074
40.791791 -57.044229 -24.213976
21.471605 -49.782873 -5.191626
7.184727 -30.757061 -51.931010
9.897091 -36.804434 0.093783
22.299025 -50.366758 -1.420460
11.237317 -39.025691 -27.338583
21.404133 -49.735259 -3.559401
22.450826 -50.473880 -15.180069
16.970727 -46.021288 -28.506418
30.140445 -54.485692 -0.681404
43.801942 -57.220277 -28.985291
11.755556 -39.850625 -7.092929
20.086685 -48.762371 -1.664967
19.739485 -48.473715 -11.499370
35.321077 -56.114476 -40.961776
40.763491 -57.042501 -10.758738
8.288374 -33.540943 -18.905883
30.486894 -54.622979 -57.767178
25.806215 -52.513039 -57.933803
42.829180 -57.168628 -57.667982
37.217806 -56.536922 -5.336637
17.251696 -46.295190 -4.328364
27.006521 -53.102315 -6.096093
39.098045 -56.822737 -23.834469
23.547280 -51.185122 -46.901557
5.139196 -23.467717 -46.892276
8.877005 -34.853715 -37.897551
6.882717 -29.856855 -48.598593
10.812426 -38.349348 -35.311208
35.463008 -56.146088 -23.393158
32.002663 -55.171431 -10.613216
20.088677 -48.764027 -7.080684
46.630260 -57.169162 -25.916395
34.623694 -55.959153 -57.444346
28.083002 -53.630801 -4.758197
24.818043 -51.938978 -13.499298
5.607909 -25.277554 -4.832337
9.456166 -35.961250 -1.381730
9.594755 -36.226275 -37.721717
13.910826 -42.726055 -35.241594
38.338289 -56.715619 3.794728
7.938408 -32.719523 -46.069710
44.274923 -57.211729 -31.467696
15.172014 -44.166759 -33.065559
35.714103 -56.202012 -14.281737
5.584066 -25.185490 -49.942072
5.024286 -23.024013 -54.297209
12.310854 -40.617185 -20.326478
42.445254 -57.145187 -19.002124
23.529216 -51.174406 -31.465969
38.219872 -56.698923 -54.714446
7.606758 -31.941093 -11.260382
15.417963 -44.447715 -45.163325
11.820403 -39.953848 -30.723172
13.376687 -42.048802 -44.423702
6.009753 -26.829194 0.297680
42.243341 -57.132858 0.340110
7.210131 -30.832783 -55.513192
5.980046 -26.714486 -53.788540
11.576513 -39.565623 -54.238650
23.894944 -51.391367 -8.134149
37.388650 -56.574973 -51.164359
10.506804 -37.862859 -21.530957
7.936069 -32.714033 -12.787199
12.055183 -40.273770 -47.985518
5.676459 -25.542246 -27.960350
42.174582 -57.128660 -28.053771
43.861264 -57.219204 -34.948989
5.907623 -26.434840 -39.894000
32.611376 -55.358543 -8.237228
9.795774 -36.610685 1.885880
39.411095 -56.866874 -12.001735
19.581090 -48.342028 0.232792
5.673235 -25.529797 -11.838255
27.230566 -53.212307 -51.607351
12.883962 -41.386978 -35.655653
19.703729 -48.443988 -28.605130
5.972009 -26.683453 -49.039502
42.693068 -57.160318 -10.925801
14.996370 -43.966113 -19.066454
30.697331 -54.706368 -11.323592
24.953747 -52.019481 -33.125275
22.294475 -50.363548 -30.271770
5.551954 -25.061496 -41.119461
19.059352 -47.908263 -13.100913
22.447281 -50.471378 -22.409990
14.876164 -43.828798 -39.907911
35.906335 -56.244827 -9.219828
44.673499 -57.204525 -58.257545
22.413212 -50.447337 -25.505342
28.949334 -54.013693 0.407126
34.551286 -55.943026 -19.484358
26.922992 -53.061307 1.900170
9.060571 -35.204750 -3.103825
40.936046 -57.053037 -32.389954
31.935369 -55.150746 -36.487928
7.004975 -30.221271 -9.852396
9.951464 -36.908411 -19.681240
39.502399 -56.879747 -0.058354
7.065702 -30.402281 3.598853
44.898226 -57.200464 2.629470
25.880355 -52.549437 -3.229608
11.129067 -38.853378 -5.236993
5.873342 -26.302471 -37.742743
5.035875 -23.068764 -45.252223
29.826373 -54.361236 -39.149510
5.614504 -25.303022 1.234562
17.182865 -46.228091 -38.546059
46.750852 -57.166983 -27.859780
8.177376 -33.280414 -61.039950
8.581958 -34.230027 -26.738387
39.303028 -56.851638 -20.479121
21.593629 -49.868982 -55.836893
15.667391 -44.732646 -29.930334
46.728837 -57.167381 -52.928779
8.672102 -34.441606 -6.468314
9.353411 -35.764750 -14.629830
25.618896 -52.414068 3.068387
19.080822 -47.926113 -57.654008
44.463912 -57.208313 -4.964933
6.940986 -30.030538 1.732830
12.967822 -41.499618 -32.272393
10.355975 -37.622771 -6.894391
11.525669 -39.484690 -43.950644
5.912888 -26.455170 -6.174027
45.132051 -57.196238 -15.643241
14.605507 -43.519616 -53.171984
6.289240 -27.908378 -55.019407
33.220638 -55.545822 -47.942061
7.836663 -32.480712 -40.577180
27.797934 -53.490850 3.704936
9.376803 -35.809483 -28.818853
27.858373 -53.520522 -48.347197
6.136888 -27.320099 -14.764826
12.369240 -40.695608 -14.784047
22.890948 -50.784461 -19.637151
41.581447 -57.092444 -54.548465
27.859142 -53.520900 -38.727289
17.689734 -46.722210 -42.169927
5.707631 -25.662611 -32.850467
7.347914 -31.243474 -44.757625
23.510446 -51.163271 -34.544575
14.697007 -43.624139 -60.237597
45.319708 -57.192847 -18.013438
36.360091 -56.345889 -1.477356
43.164675 -57.189113 -15.896948
10.720042 -38.202291 -54.158629
6.241844 -27.725366 -43.029336
7.243990 -30.933707 -42.283074
39.005847 -56.809738 -18.747312
34.858927 -56.011545 -35.371933
29.388169 -54.187590 -56.472861
14.590270 -43.502211 -42.216852
44.422512 -57.209061 0.953417
27.119101 -53.157585 -32.512415
25.314247 -52.233341 -20.939712
12.407197 -40.746591 -53.297110
35.389283 -56.129667 -52.405311
21.506864 -49.807754 -26.889643
11.852842 -40.001987 -24.099482
33.152122 -55.524762 -16.441575
40.412301 -57.008035 -28.588133
36.868484 -56.459120 -48.973185
9.195535 -35.462843 3.081273
29.784488 -54.344638 -12.843148
35.611678 -56.179200 0.663547
43.407036 -57.203911 -17.391828
24.987771 -52.039665 -41.708843
16.502588 -45.564924 -20.162369
34.206105 -55.848744 -21.257194
45.912417 -57.182135 -60.779426
19.486942 -48.263755 -52.824454
21.414529 -49.742596 -38.287998
31.832775 -55.119210 1.875821
21.596017 -49.870667 -44.633931
7.149400 -30.651762 -7.288307
39.335787 -56.856257 -9.265394
22.669592 -50.628257 -4.588779
12.663190 -41.090440 -51.519017
18.104818 -47.114680 -34.054880
7.088122 -30.469108 -59.351247
8.642866 -34.372987 -40.067098
5.664350 -25.495490 -7.645268
46.569015 -57.170269 -54.502407
35.852601 -56.232859 -50.671131
17.632488 -46.666404 -22.318854
4.827055 -22.262447 -18.941475
6.040704 -26.948706 3.429241
39.719159 -56.910309 1.459548
6.093022 -27.150723 -31.405370
12.668101 -41.097036 -22.337450
36.459069 -56.367934 -35.664647
11.434060 -39.338866 -9.422139
14.519199 -43.421023 -29.320934
46.553844 -57.170543 -14.843592
16.206724 -45.276503 -21.794899
8.429085 -33.871211 -22.004649
46.013248 -57.180313 -57.017341
24.454831 -51.723509 -27.965065
13.417547 -42.103685 -20.876586
37.332047 -56.562366 -40.328623
18.935515 -47.805307 -1.123615
37.283052 -56.551454 -0.134029
13.783004 -42.580040 -7.856578
24.707254 -51.873254 -53.136187
24.562293 -51.787259 -2.933832
14.584530 -43.495653 -6.430802
5.629979 -25.362772 -19.375089
5.833538 -26.148775 -9.340480
6.923876 -29.979537 -29.783380
6.969482 -30.115477 -5.585958
14.733753 -43.666116 -31.582586
4.861612 -22.395880 -24.740930
46.461301 -57.172216 -20.859879
8.598113 -34.267945 -45.111631
21.239295 -49.618938 -14.675923
23.621640 -51.229235 -0.013284
16.940695 -45.992011 -26.227507
6.232668 -27.689937 -16.657181
14.995779 -43.965439 -10.738766
10.644871 -38.082635 -50.511529
39.174557 -56.833525 -60.317367
31.148544 -54.885169 -15.219139
7.764184 -32.310593 -20.323860
40.040129 -56.955562 -43.044181
36.142741 -56.297480 -12.546134
6.826473 -29.689207 -43.800354
7.921246 -32.679241 -25.818655
7.301074 -31.103859 -47.712943
9.953810 -36.912898 -31.177152
36.035552 -56.273606 -3.632563
10.147127 -37.282580 -22.883253
17.871336 -46.899244 -43.807873
34.804444 -55.999410 -31.573482
25.120561 -52.118441 -1.404092
10.098065 -37.188758 -24.970007
14.952872 -43.916424 -0.911080
25.655505 -52.435786 -43.433167
4.931187 -22.664531 3.770999
25.424758 -52.298899 -46.886876
39.870661 -56.931669 -34.365994
8.281689 -33.525251 -38.719134
10.674742 -38.130183 2.168529
11.403758 -39.290633 -17.349101
19.066346 -47.914078 -54.954684
5.709521 -25.669910 -45.239405
20.459714 -49.068811 -39.780829
13.129426 -41.716683 3.678223
12.830507 -41.315178 -33.902145
14.754006 -43.689251 -43.899764
46.225745 -57.176473 1.770246
8.467704 -33.961855 -35.873135
12.874886 -41.374787 -41.152930
36.004823 -56.266762 2.866237
12.835454 -41.321823 -59.644015
4.803056 -22.169780 -33.300220
28.558851 -53.858958 -27.298970
22.956408 -50.830654 -55.360574
7.386726 -31.359163 -29.013413
11.320769 -39.158530 -15.233347
26.270509 -52.740979 -33.790096
15.304540 -44.318147 -58.030076
28.506583 -53.838245 -33.940277
11.407956 -39.297314 -12.875333
25.684971 -52.453266 -11.788490
14.942027 -43.904035 -14.786627
33.142924 -55.521934 -6.768199
22.250990 -50.332862 -32.751659
14.203919 -43.060866 -15.937420
15.889242 -44.967005 -53.914199
5.301856 -24.095794 -22.118082
4.958493 -22.769968 -15.195718
46.270408 -57.175665 -9.311467
28.925497 -54.004248 -29.057166
31.368778 -54.972441 -60.826950
17.278369 -46.321192 -58.761287
6.448424 -28.523034 -12.236486
30.635962 -54.682050 -34.230444
14.682519 -43.607589 -23.283390
10.001172 -37.003468 -26.716611
16.940519 -45.991840 -47.634634
38.448261 -56.731124 -58.439055
4.906345 -22.568609 -6.525738
13.143757 -41.735933 -48.854373
40.804073 -57.044979 -38.593144
4.894370 -22.522368 -21.006379
17.734058 -46.765419 0.083035
14.381438 -43.263654 2.317859
12.086859 -40.316317 -27.476494
38.091841 -56.680872 -10.608325
27.396592 -53.293816 -12.908298
7.843917 -32.497738 2.128678
4.835606 -22.295465 -13.621887
46.785728 -57.166352 -2.107864
29.659817 -54.295235 -60.540698
15.308158 -44.322281 -3.692616
29.217228 -54.119851 -42.970182
15.500729 -44.542262 -16.290095
30.078414 -54.461111 -4.170629
11.567256 -39.550889 -56.967307
13.543554 -42.272936 -53.680883
32.616027 -55.359972 -34.350329
35.922707 -56.248473 -37.075503
28.566214 -53.861875 -7.751420
35.618486 -56.180716 -43.154170
5.531062 -24.980826 -25.459208
20.491053 -49.090926 -50.339793
32.641791 -55.367892 -18.327441
13.415924 -42.101505 1.729262
11.700090 -39.762333 -58.821927
29.032068 -54.046478 -46.928107
16.454447 -45.517995 -6.054035
26.726237 -52.964713 -19.865612
24.834108 -51.948508 -49.250677
28.095556 -53.636964 -58.045642
20.959667 -49.421613 3.561204
19.541495 -48.309109 -48.958076
5.169669 -23.585379 -40.213800
33.421703 -55.607628 1.849266
10.601526 -38.013638 -17.888136
43.106804 -57.185580 -51.945784
13.660208 -42.429626 -22.661478
26.143455 -52.678603 -52.518986
25.907551 -52.562789 -31.474581
32.545523 -55.338300 -59.570970
26.453457 -52.830795 -16.421257
21.703920 -49.946810 -51.037386
18.089052 -47.101572 -2.476920
33.474972 -55.624002 -36.581679
32.386492 -55.289416 -12.243125
17.872919 -46.900787 -20.824167
46.814452 -57.165833 -50.637917
13.818743 -42.620866 -51.526078
34.307789 -55.880000 -53.608306
5.842575 -26.183670 -43.574449
13.719235 -42.507194 -30.747626
6.405707 -28.358091 -5.151029
44.540510 -57.206929 -55.812994
13.918590 -42.734925 -40.756498
28.270554 -53.722878 -49.849588
9.359375 -35.776156 -4.601334
5.215870 -23.763776 -5.151814
14.379128 -43.261015 0.720201
13.114627 -41.696806 -9.710194
44.833847 -57.201628 -27.036235
22.071637 -50.206298 -43.084163
6.452671 -28.539431 -24.818676
29.660531 -54.295518 -32.681871
39.826065 -56.925381 -22.306036
13.706867 -42.492297 -0.672561
8.821562 -34.747691 -54.320130
26.921386 -53.060519 -1.988355
16.492228 -45.554825 -44.583144
7.280261 -31.041821 -33.323386
37.601109 -56.611684 -37.081545
46.396211 -57.173392 -38.578543
6.547378 -28.857305 -6.770613
41.132582 -57.065037 -15.596188
38.257300 -56.704200 -41.915672
16.012037 -45.086712 -11.767699
9.990010 -36.982123 -13.615549
4.969060 -22.810769 -58.803956
5.736557 -25.774303 -35.005817
17.925703 -46.952244 -15.227129
30.955029 -54.808486 -56.110317
10.757890 -38.262539 -38.287507
20.495497 -49.094062 -56.956907
34.386398 -55.904164 -8.410631
6.848451 -29.754718 -14.085985
36.453142 -56.366613 -20.218729
6.097879 -27.169476 -27.077366
4.891416 -22.510964 -22.775423
38.178364 -56.693071 2.239600
30.263771 -54.534562 -28.444411
8.710608 -34.531986 -11.006800
44.355584 -57.210271 -11.689661
5.673452 -25.530637 -1.923764
30.677870 -54.698656 -22.660889
8.773147 -34.655108 -48.292766
45.475274 -57.190035 -24.028392
40.428835 -57.010366 -13.915167
6.838295 -29.724446 -26.390039
33.219075 -55.545342 -9.712571
8.825406 -34.755043 -23.658077
7.948248 -32.742619 -0.371543
19.819872 -48.540547 -26.807418
9.736532 -36.497395 -53.692505
5.263891 -23.949198 -8.730732
26.414048 -52.811447 -4.733229
10.002181 -37.005398 -40.932817
6.183886 -27.501573 -7.723352
6.397437 -28.326158 -48.315960
16.832366 -45.886407 -55.760858
4.908149 -22.575575 -26.562328
11.543916 -39.513735 -33.254036
31.850142 -55.124548 -21.141430
21.250193 -49.626629 -22.926303
45.338242 -57.192512 -47.328015
20.860214 -49.351432 -59.343999
6.686037 -29.270608 0.370684
4.902791 -22.554885 -41.820459
10.272911 -37.490549 -52.234457
31.736357 -55.089572 -17.106711
15.734133 -44.808888 -34.771529
20.371955 -48.999539 -46.763952
4.844985 -22.331680 1.261792
8.673530 -34.444959 -41.737913
17.564254 -46.599886 -50.597904
40.766572 -57.042689 -26.151608
15.977447 -45.052992 -17.868187
37.196651 -56.532210 -43.793222
8.028765 -32.931604 -33.914874
8.144654 -33.203611 -55.817025
11.541450 -39.509810 0.266549
28.282127 -53.728559 -55.209911
21.827045 -50.033696 -10.910311
23.288327 -51.031503 -36.130924
26.796676 -52.999294 -56.252165
25.760228 -52.490462 -25.201872
18.011865 -47.036238 -55.572984
7.978914 -32.814597 -44.059920
15.867195 -44.945514 -27.256184
7.038386 -30.320860 -15.845256
15.992703 -45.067864 -39.885081
24.736941 -51.890865 -30.370255
11.166768 -38.913390 -48.794099
16.033062 -45.107208 -37.958077
9.346925 -35.752347 -49.315608
22.013022 -50.164935 -28.489955
11.480109 -39.412167 -19.184058
22.382761 -50.425849 0.505420
29.966305 -54.416686 -53.888789
30.732130 -54.720158 -8.874975
17.708308 -46.740317 -13.208142
34.747216 -55.986664 -39.351618
42.731378 -57.162657 -45.451016
38.806452 -56.781626 -4.831456
9.751680 -36.526363 -43.774033
6.536205 -28.823999 -15.396229
25.990840 -52.603678 -28.405545
10.543998 -37.922065 -32.451124
5.803494 -26.032767 -55.361736
4.791886 -22.126648 -43.668993
17.777422 -46.807692 -60.188070
31.824977 -55.116813 -42.706048
16.784818 -45.840055 -36.536593
38.692686 -56.765586 -28.433634
20.294202 -48.934897 -61.055556
6.815773 -29.657314 -46.729299
24.816411 -51.938010 -19.337859
13.447518 -42.143941 -42.499819
13.258155 -41.889591 -2.541362
4.813327 -22.209439 -29.304632
41.631745 -57.095515 -20.959057
7.921773 -32.680479 -22.941228
14.489820 -43.387462 -2.572705
7.322502 -31.167728 0.130237
6.475107 -28.626065 -21.384281
7.476480 -31.626694 -50.585240
34.586839 -55.950945 -1.895498
18.084379 -47.097687 -47.275766
46.028374 -57.180040 -6.591886
46.543223 -57.170735 -42.618474
14.658938 -43.580652 -26.077801
7.120360 -30.565202 -31.769427
38.101556 -56.682242 -21.787738
18.899264 -47.775169 -7.246893
10.426619 -37.735221 -3.336205
26.690270 -52.947055 -49.293981
15.228437 -44.231212 -36.789675
28.756549 -53.937299 -51.527279
22.992484 -50.856000 -60.717699
17.792349 -46.822244 -40.260600
5.437520 -24.619634 -54.569623
42.197159 -57.130038 -40.041931
38.282882 -56.707807 -30.434003
12.421932 -40.766384 -8.467291
5.609493 -25.283673 -14.246596
34.710624 -55.978514 -25.745437
33.006950 -55.480137 -30.246217
24.073236 -51.497135 -6.438917
31.104251 -54.867617 -13.629562
26.980835 -53.089705 -46.902418
8.495100 -34.026158 -52.791003
31.982614 -55.165269 -52.940088
11.695044 -39.754302 -46.467783
12.296884 -40.598420 1.906929
25.525192 -52.358480 -8.649842
11.558372 -39.536747 -3.684870
29.458852 -54.215599 -15.465846
7.762741 -32.307207 -35.732272
16.154294 -45.225391 -42.363247
18.195259 -47.189870 -5.242444
30.839589 -54.762740 -18.872755
17.820747 -46.849928 -57.213962
12.813055 -41.291737 -6.941088
42.944458 -57.175667 -37.994926
13.616871 -42.371416 -60.389302
37.712221 -56.627349 -25.071595
19.333503 -48.136188 -38.967516
19.828346 -48.547592 -22.083747
39.181648 -56.834525 -44.994901
40.393644 -57.005405 -4.673625
16.974533 -46.024999 -8.556549
13.806227 -42.606569 -58.730658
14.743504 -43.677255 -8.166779
26.447636 -52.827937 -9.784342
18.597526 -47.524308 -45.395004
32.183718 -55.227086 -44.503834
17.623706 -46.657843 -53.361648
7.337542 -31.212557 -4.038308
7.310724 -31.132622 -27.496089
19.146737 -47.980914 -19.799491
9.947099 -36.900064 -46.123255
22.088523 -50.218214 -47.284956
8.563724 -34.187230 -0.105337
9.494883 -36.035289 -21.951441
42.869660 -57.171100 -1.300306
46.570457 -57.170243 -22.837657
40.354914 -56.999944 -57.701187
28.745525 -53.932931 -17.450999
10.358446 -37.626703 -29.870352
21.782037 -50.001935 -8.719063
33.013556 -55.482168 3.385686
33.844507 -55.737593 -55.792964
25.910515 -52.564244 -60.472196
32.532114 -55.334178 -46.196570
38.770112 -56.776502 -49.224154
30.343159 -54.566021 -52.255250
35.698432 -56.198522 -47.113593
13.338620 -41.997671 -14.597482
28.056526 -53.617803 -22.891878
9.433565 -35.918029 -10.135153
44.815656 -57.201956 -7.976878
9.995458 -36.992541 -60.986233
28.174418 -53.675681 -9.366345
16.510464 -45.572603 -49.138735
6.088713 -27.134083 -56.522245
46.535184 -57.170880 -4.559441
8.365527 -33.722033 -14.110206
36.277145 -56.327415 -57.496037
9.007975 -35.104171 -8.754440
5.860620 -26.253346 -17.722897
37.232140 -56.540114 -53.198511
12.531770 -40.913917 -39.119888
9.250865 -35.568652 -60.241311
27.816924 -53.500173 -15.656752
15.094488 -44.078198 -20.921259
41.498333 -57.087369 -56.352410
8.527010 -34.101056 -16.914325
46.576177 -57.170139 3.587075
45.575352 -57.188227 -29.366284
31.613041 -55.051666 -47.563825
5.529537 -24.974939 -0.473899
34.940254 -56.029658 -49.027555
28.264937 -53.720120 -10.859548
33.651669 -55.678317 -32.637923
6.975006 -30.131942 -20.892524
43.660434 -57.219383 -39.376940
9.590514 -36.218164 -47.527569
20.047579 -48.729859 -14.153994
23.851816 -51.365782 -18.233338
43.019192 -57.180230 -50.384734
8.120762 -33.147533 -9.558693
6.444691 -28.508621 3.686143
9.410741 -35.874384 -32.708880
11.008955 -38.662185 -22.861664
26.150825 -52.682221 -17.905586
46.228674 -57.176420 -12.226783
16.816646 -45.871082 -2.166305
5.336155 -24.228233 -12.917619
9.059704 -35.203092 1.072857
12.792400 -41.263993 -56.319627
18.170869 -47.169593 -23.984799
38.743852 -56.772800 -16.170239
5.273401 -23.985919 -57.776046
40.107830 -56.965107 -54.029826
25.261179 -52.201859 -15.142028
5.101306 -23.321410 -56.158176
5.448345 -24.661430 -43.791317
9.852518 -36.719197 3.799108
8.416329 -33.841270 3.362071
12.011542 -40.215151 -1.841984
34.018710 -55.791141 -42.873689
19.111351 -47.951494 -35.117087
43.395036 -57.203179 -21.758091
4.955415 -22.758084 -48.908456
44.335625 -57.210632 -36.659814
43.567332 -57.213699 -3.355249
4.861657 -22.396054 -60.769094
12.872116 -41.371067 0.277737
8.725049 -34.563130 -33.086403
5.274249 -23.989195 -3.248402
26.725385 -52.964294 -14.275806
46.216167 -57.176646 -44.469484
34.824323 -56.003838 -44.540247
29.991953 -54.426850 2.707175
44.070971 -57.215415 -9.846003
23.493356 -51.153133 -29.031558
6.910415 -29.939415 -23.748543
44.005477 -57.216598 -20.003128
45.555299 -57.188589 -32.688097
37.951103 -56.661030 -3.285545
40.151427 -56.971254 -6.234464
30.113962 -54.475198 -40.698564
7.288759 -31.067151 -22.811677
25.546954 -52.371390 -38.115649
24.028221 -51.470431 -38.436169
22.149410 -50.261180 -34.656663
30.814456 -54.752781 -59.416819
37.840564 -56.645445 -17.736085
30.215239 -54.515331 -30.087566
12.011005 -40.214431 -5.475917
16.810896 -45.865477 -33.839711
18.518605 -47.458695 -26.536642
4.850009 -22.351079 -52.541567
33.321889 -55.576946 -52.233176
25.019950 -52.058755 -36.108810
32.318428 -55.268494 -24.843625
19.652118 -48.401079 -15.784760
30.570379 -54.656061 -7.205299
10.699252 -38.169198 -57.009387
28.578213 -53.866630 -3.210727
46.829142 -57.165568 -36.705794
20.817689 -49.321423 -48.688684
32.277053 -55.255776 -23.040035
45.239335 -57.194299 -40.223785
7.905968 -32.643382 -6.193727
8.340564 -33.663440 -29.924962
19.079491 -47.925007 -3.575345
22.333529 -50.391107 -49.424364
5.670462 -25.519091 -30.227590
38.211103 -56.697687 -35.217302
6.438296 -28.483924 -50.182900
42.406423 -57.142816 -4.467053
35.947575 -56.254012 -54.679676
14.229769 -43.090396 -27.545784
6.765689 -29.508028 -33.110164
23.929376 -51.411793 -16.543314
20.510240 -49.104465 -30.813655
18.961693 -47.827071 -60.480661
18.839996 -47.725894 -9.529635
12.123433 -40.365443 -10.904587
11.180811 -38.935745 -41.606844
33.309396 -55.573106 -49.792121
34.323091 -55.884704 -60.971735
5.024326 -23.024169 -31.407155
35.865679 -56.235772 -18.449552
41.933161 -57.113919 -46.916424
32.561212 -55.343123 -4.193605
28.391851 -53.782427 -19.908804
12.973455 -41.507185 -37.162596
39.239827 -56.842727 -26.854063
7.943916 -32.732451 -37.445638
11.670592 -39.715378 3.504486
6.168661 -27.442784 -46.298789
21.018924 -49.463429 -0.339003
21.325041 -49.679446 -53.276949
6.316210 -28.012516 -2.536934
12.241264 -40.523712 -16.720727
13.896014 -42.709135 -24.952434
15.758078 -44.836241 -56.407941
11.160957 -38.904141 -60.445134
40.589614 -57.031884 -18.955980
6.191039 -27.529194 -44.689105
39.196135 -56.836567 -56.620730
5.331221 -24.209181 -52.738645
4.807306 -22.186188 -10.304710
4.830529 -22.275861 -12.112388
43.127549 -57.186846 -25.637664
7.033058 -30.304979 -53.361426
20.383914 -49.009482 -43.304162
6.463428 -28.580969 -57.981778
9.240256 -35.548364 -36.009732
6.640496 -29.134861 -27.944437
7.488684 -31.663070 -24.554309
28.561337 -53.859943 -24.924529
18.382059 -47.345173 -28.371350
40.626285 -57.034123 -50.558683
37.377525 -56.572495 -56.435922
5.989113 -26.749498 -58.118390
9.993116 -36.988064 -39.370444
8.484904 -34.002227 -4.477874
21.078673 -49.505592 -12.586723
8.783263 -34.674453 -43.545688
11.648170 -39.679687 -50.463828
37.101374 -56.510990 -38.784656
7.158036 -30.677503 -38.410491
30.610604 -54.672001 -24.575146
43.498650 -57.209505 3.871954
42.413247 -57.143232 -31.665962
9.573838 -36.186275 -57.143300
5.844777 -26.192173 -22.974103
4.803814 -22.172705 -8.380368
13.920644 -42.737271 -19.077824
18.924886 -47.796470 -37.221477
12.679993 -41.113009 -58.031621
22.307680 -50.372866 -17.956022
6.214818 -27.621012 -18.773379
30.712830 -54.712510 -43.814292
5.969239 -26.672759 -24.835565
42.326296 -57.137923 -35.410786
38.442674 -56.730336 -14.392379
15.882809 -44.960734 3.692956
17.301280 -46.343527 -45.624337
28.086650 -53.632592 -60.166120
35.268685 -56.102807 -33.405908
35.879788 -56.238914 -60.927576
23.597641 -51.214998 -9.745936
37.930639 -56.658144 -1.664412
42.453682 -57.145701 -60.927210
30.589262 -54.663544 -26.642282
14.354411 -43.232780 -50.007391
32.886784 -55.443200 -54.452203
9.158229 -35.391503 -51.166728
8.913040 -34.922626 -56.114559
20.221786 -48.874692 1.594065
24.741355 -51.893484 -51.218382
42.248598 -57.133179 -6.932234
9.444179 -35.938327 -42.115729
7.110067 -30.534520 -12.363713
6.626254 -29.092410 -41.511624
17.959607 -46.985295 -11.457057
28.971007 -54.022282 -37.358956
24.740640 -51.893060 -26.178055
10.692049 -38.157733 -11.265641
34.609292 -55.955945 -28.312444
20.426887 -49.045209 -36.875958
5.391280 -24.441087 -10.804639
22.153201 -50.263855 -59.372119
6.166677 -27.435126 -41.324448
43.121774 -57.186494 -8.299401
35.533741 -56.161842 -59.241808
41.443115 -57.083998 -52.511488
8.923482 -34.942595 -58.274997
30.681101 -54.699937 -45.760772
13.950730 -42.771639 -57.166032
26.455417 -52.831757 -36.540960
16.723006 -45.779798 0.797487
8.480421 -33.991705 1.806648
18.209520 -47.201727 -30.987593
22.619464 -50.592883 3.287216
11.367688 -39.233215 -21.267678
15.983731 -45.059118 -7.558130
34.713496 -55.979154 -10.510191
21.378527 -49.717190 -16.534244
13.230283 -41.852154 -28.194837
10.672972 -38.127365 -43.055478
6.988700 -30.172760 -57.010396
20.434922 -49.051316 -54.615052
35.234966 -56.095298 -6.700542
13.634565 -42.395182 -47.322038
6.251537 -27.762795 -10.319566
19.271628 -48.084746 -17.418307
45.773744 -57.184641 -34.619233
15.452180 -44.486803 0.443996
26.033572 -52.624657 -23.353271
21.138536 -49.547835 -21.323361
15.635190 -44.695862 -24.405353
24.212285 -51.579624 2.332003
25.793032 -52.506567 -54.801776
26.959893 -53.079424 -45.130421
37.271217 -56.548818 -15.953496
27.344184 -53.268087 -25.983713
5.279090 -24.007886 -29.132619
10.291954 -37.520861 -9.612018
11.205812 -38.975541 -25.696344
29.670871 -54.299615 -10.165394
31.410038 -54.988791 -38.221739
6.712839 -29.350497 -17.640889
34.544213 -55.941451 -13.051847
29.236698 -54.127567 -45.087795
31.302893 -54.946333 -5.503931
14.722226 -43.652949 -48.408764
37.583090 -56.609143 -23.473337
6.454867 -28.547912 1.859754
16.667029 -45.725229 -14.962707
6.822255 -29.676633 -61.068081
6.163260 -27.421931 -35.948435
44.408984 -57.209306 -0.882545
43.585385 -57.214801 -23.777225
42.882727 -57.171898 2.004106
14.616020 -43.531626 -4.919513
5.844083 -26.189492 -15.940857
28.618768 -53.882701 2.308272
39.759382 -56.915980 -48.114098
5.306833 -24.115011 -18.095515
17.506235 -46.543327 -6.820605
44.224048 -57.212648 -52.999819
11.703748 -39.768155 -40.362966
25.880628 -52.549571 -7.060629
24.121619 -51.525837 -45.013018
14.608826 -43.523407 -17.457723
9.251674 -35.570198 -26.905406
5.712395 -25.681008 -21.058392
6.049679 -26.983360 1.890644
6.236636 -27.705259 -23.089791
14.604205 -43.518129 -55.069114
10.180486 -37.343427 -48.575273
19.543584 -48.310846 -23.741850
7.765579 -32.313867 -58.852385
24.693042 -51.864823 -59.167125
19.041099 -47.893088 -43.573191
13.902494 -42.716538 -39.121442
28.330535 -53.752325 -31.823375
32.425617 -55.301442 -28.474760
6.786512 -29.570094 -1.241654
20.212876 -48.867284 -4.762756
21.111292 -49.528610 -19.402192
6.326873 -28.053688 -29.893965
23.538011 -51.179623 -12.453513
7.209327 -30.830386 -35.117623
42.821301 -57.168147 -42.033697
33.244329 -55.553105 -39.354805
7.559910 -31.831132 -16.574635
19.264875 -48.079132 -31.788752
23.241787 -51.003894 -53.661528
10.578881 -37.977591 -47.133435
27.505898 -53.347478 -35.057608
35.792438 -56.219459 -21.846786
42.877627 -57.171587 -33.227168
22.201503 -50.297940 -57.696749
5.998300 -26.784971 -60.431503
40.331027 -56.996576 -35.972561
37.739108 -56.631140 -12.799756
5.241913 -23.864338 1.963459
9.613842 -36.262775 -55.281525
10.939486 -38.551603 -45.211734
41.733441 -57.101724 -49.283542
9.854431 -36.722854 -16.150884
44.984563 -57.198904 -49.027345
30.404362 -54.590274 1.187601
35.249319 -56.098494 -29.877270
23.215863 -50.988515 -3.155004
27.305878 -53.249281 -29.907749
4.840222 -22.313288 -35.774853
36.747897 -56.432262 -31.500562
13.440301 -42.134247 -11.630436
31.326858 -54.955829 -31.578101
31.575096 -55.040002 -40.015971
7.444852 -31.532420 -60.788114
10.102153 -37.196575 -36.602455
4.808725 -22.191669 -1.897935
45.327104 -57.192713 -2.756999
29.880062 -54.382511 -20.767175
42.811001 -57.167518 -55.475747
4.902687 -22.554485 -50.516641
16.568685 -45.629359 -31.108389
41.522614 -57.088852 -43.959819
8.241343 -33.430554 -57.416467
15.744860 -44.821141 -9.496025
8.595860 -34.262656 -46.717593
15.695441 -44.764688 -60.989661
5.426768 -24.578116 -36.756364
23.342468 -51.063621 -26.694410
40.036379 -56.955034 -17.096303
5.217045 -23.768313 -33.911738
11.836750 -39.979869 -36.296184
32.934565 -55.457887 -14.311746
34.436324 -55.917421 -17.264937
44.360115 -57.210189 -46.021076
6.756464 -29.480530 -36.744907
19.092452 -47.935782 -50.995421
17.392153 -46.432114 -17.151357
13.141355 -41.732706 -23.925495
18.559032 -47.492305 2.549816
38.415164 -56.726458 -46.604172
41.473316 -57.085842 -8.880402
46.421396 -57.172937 -16.992927
5.516730 -24.925487 3.467764
26.561915 -52.884041 -0.266444
23.133298 -50.939535 -39.804036
40.986662 -57.056127 -41.599526
30.174905 -54.499348 -36.626896
34.363710 -55.897190 -46.472738
6.018392 -26.862551 -12.681100
14.047657 -42.882363 -9.845496
26.284101 -52.747651 -39.623918
23.388972 -51.091209 -51.131380
39.246027 -56.843601 -37.444372
19.146780 -47.980950 -40.810009
7.790037 -32.371275 -52.109997
33.060241 -55.496518 -57.814902
31.709963 -55.081459 -49.664853
24.730772 -51.887206 -22.567358
13.413318 -42.098005 -26.673082
43.150463 -57.188245 -14.237003
20.330252 -48.964869 -25.122964
39.727009 -56.911415 -31.436936
46.836106 -57.165442 -58.867246
10.769161 -38.280480 -58.778746
39.202266 -56.837432 -39.092209
11.719130 -39.792641 -28.935146
20.234783 -48.885497 -10.080395
7.635887 -32.009461 -14.327115
14.401282 -43.286322 -12.852029
43.298659 -57.197294 -43.503184
9.319662 -35.700212 -24.841333
40.826639 -57.046357 -2.515837
46.687708 -57.168124 -48.512994
6.454456 -28.546324 -53.555343
32.782267 -55.411072 -2.452637
29.455585 -54.214304 -48.542462
12.478046 -40.841756 -43.102129
33.058160 -55.495879 -0.881666
35.468668 -56.147348 -15.925550
17.086712 -46.134356 -18.676486
6.605822 -29.031510 -51.762877
4.998642 -22.924995 -17.170267
7.932570 -32.705820 -42.191375
7.585388 -31.890933 -18.256285
21.873141 -50.066225 -36.272043
9.250227 -35.567430 -17.846620
26.510545 -52.858821 -41.714438
28.072208 -53.625502 -53.059127
13.465913 -42.168649 -17.462034
46.154699 -57.177757 -30.830142
41.608342 -57.094086 -30.048635
39.310962 -56.852757 -40.740729
12.264276 -40.554621 -25.464862
11.856139 -40.006416 -37.909914
4.887254 -22.494891 -38.704537
6.589839 -28.983868 -8.609808
28.525175 -53.845613 -13.950509
6.033568 -26.921151 -3.952386
40.862677 -57.048557 -0.792083
39.940186 -56.941471 -7.831347
37.190357 -56.530808 -59.726316
24.594855 -51.806576 -55.735665
11.015136 -38.672023 -1.725434
15.490019 -44.530028 -46.779915
23.503230 -51.158990 -56.911943
5.520957 -24.941807 -38.588816
5.568839 -25.126696 -47.816780
23.977825 -51.440534 -24.735330
36.997559 -56.487868 -33.201266
30.182374 -54.502307 -16.902885
7.541235 -31.787299 -54.308652
7.097036 -30.495678 -18.924800
5.995985 -26.776034 -50.858453
44.670043 -57.204588 -13.437779
45.220393 -57.194642 -51.495031
21.690166 -49.937104 -40.825571
39.075157 -56.819510 -51.464475
14.241692 -43.104017 -36.894344
41.743055 -57.102311 -36.965108
27.528875 -53.358759 -42.973872
23.450532 -51.127728 -48.500025
6.067961 -27.053954 -20.480732
