-45.298601 60.029747 -55.458418
-44.323857 60.951120 -11.222398
-44.671629 60.622390 -9.302083
-33.574072 69.290777 -14.894590
-40.225770 64.523685 -50.350402
-36.084573 67.599176 -14.452768
-41.028703 63.843992 -17.553764
-35.655332 67.888403 -1.127484
-37.999289 66.215602 -26.024181
-43.817366 61.429879 -48.527430
-34.406202 68.730079 -15.957123
-39.247721 65.271062 -57.333784
-43.234293 61.976933 2.964087
-45.995396 59.371104 -59.233299
-39.876830 64.795090 -60.667975
-37.050854 66.933169 -3.194679
-44.163609 61.102594 -20.955877
-40.807065 64.031611 -19.084193
-38.860241 65.564222 -26.273178
-44.741767 60.556093 -14.469707
-37.705208 66.438098 -37.342556
-34.440474 68.706987 -18.041544
-45.910034 59.451792 -53.993839
-42.829521 62.319577 -21.127556
-35.623492 67.909857 -25.731288
-35.138498 68.236651 3.864656
-36.722637 67.169243 -43.723530
-37.835856 66.339252 -6.305125
-36.925441 67.028055 -18.217888
-35.748000 67.825963 -41.293556
-44.778416 60.521450 -31.810327
-37.791340 66.372932 -42.600692
-40.872656 63.976087 3.799657
-44.422935 60.857467 0.259823
-40.213199 64.534326 -21.721855
-45.409289 59.925119 -37.511303
-39.476633 65.097872 -53.249785
-44.000014 61.257232 -10.450152
-43.869388 61.380706 -51.767301
-35.907968 67.718175 -58.267655
-44.826838 60.475679 -56.855232
-38.631425 65.737340 -3.565996
-38.305248 65.984119 -36.566489
-34.492708 68.671791 -59.464865
-38.181275 66.077914 -28.534183
-40.104203 64.623064 -19.277231
-37.648645 66.480892 -2.943357
-42.721412 62.411093 -45.042610
-35.247117 68.163463 -7.789726
-41.442357 63.493829 -0.991482
-43.484708 61.744323 -17.106775
-43.234915 61.976407 -20.436823
-42.136068 62.906594 -48.355553
-44.220390 61.048923 -33.777411
-43.960452 61.294628 3.292294
-35.123785 68.246565 -12.598809
-45.909263 59.452521 -48.177285
-40.960481 63.901742 -9.281736
-37.073028 66.916393 -48.743948
-44.242811 61.027729 -15.439466
-45.285085 60.042523 -18.254301
-45.206625 60.116687 -48.188726
-42.791393 62.351853 -26.144848
-38.138253 66.110464 -51.667570
-36.120525 67.574951 -1.828109
-38.201055 66.062950 -8.127200
-34.137059 68.911431 -4.215344
-42.004637 63.017851 -53.283634
-45.044735 60.269713 -33.646675
-35.951286 67.688986 -49.827872
-40.103744 64.623412 -44.706943
-33.671188 69.225339 -41.315381
-45.950595 59.413452 -18.035477
-45.286201 60.041468 -10.276798
-44.424171 60.856299 -53.319124
-40.872711 63.976041 -14.541660
-35.712928 67.849594 -53.499337
-34.267531 68.823517 -12.827760
-45.090153 60.226782 -22.786012
-41.799115 63.191829 -50.419243
-38.828087 65.588549 -41.242876
-43.685557 61.554472 -15.125818
-36.665189 67.207951 -20.916816
-39.456739 65.112923 -35.771404
-45.552591 59.789664 -26.275763
-35.476565 68.008858 -14.080274
-39.856220 64.810683 -34.384132
-37.482376 66.606689 -32.936501
-38.917841 65.520643 -2.279187
-46.053403 59.316273 -42.057461
-41.877179 63.125747 -51.259470
-38.719472 65.670725 -1.282361
-35.280979 68.140646 -5.966111
-41.370656 63.554525 -51.994888
-38.741008 65.654431 -13.317325
-43.161472 62.038577 -50.533350
-46.193487 59.183859 -12.749668
-39.551236 65.041429 -25.054350
-45.908359 59.453376 -36.725955
-36.610319 67.244923 -35.290071
-36.158073 67.549651 -42.893263
-41.542053 63.409435 -30.670898
-40.422420 64.357217 -23.699269
-44.925317 60.382593 -53.733241
-42.263465 62.798751 -16.340036
-34.840793 68.437248 -46.965722
-36.205241 67.517869 -2.684266
-38.749529 65.647984 -43.844397
-44.394948 60.883922 -19.742385
-40.092024 64.632279 -20.395624
-38.709379 65.678361 -51.061121
-35.658320 67.886390 -31.323639
-34.647748 68.567323 -35.996875
-38.989392 65.466508 -23.890692
-45.408866 59.925520 -13.050391
-41.155425 63.736720 -16.327546
-38.632227 65.736733 -44.829856
-42.748692 62.388001 -55.284499
-34.546890 68.635283 -30.518766
-34.837773 68.439283 3.110171
-34.517129 68.655336 -32.879059
-44.638202 60.653987 -37.003198
-39.035671 65.431495 -36.642646
-42.271575 62.791886 -36.235192
-42.975013 62.196417 -36.158763
-35.772257 67.809618 -16.399519
-33.706703 69.201409 -34.052594
-34.666170 68.554911 -51.437431
-43.790003 61.455744 -20.123120
-40.962982 63.899625 1.371211
-45.692524 59.657393 -1.720717
-36.670368 67.204461 -29.836782
-44.132426 61.132070 -41.907073
-40.708791 64.114801 -19.996554
-39.843337 64.820430 -7.938385
-45.661872 59.686366 -27.640986
-44.089124 61.173001 -61.011591
-43.748440 61.495032 -0.017895
-46.125510 59.248114 -11.573988
-45.389244 59.944067 -12.193496
-35.341502 68.099865 -17.426635
-43.412391 61.812681 -18.602613
-39.013685 65.448130 -21.689990
-36.271426 67.473273 -55.941457
-40.459813 64.325564 -13.283259
-42.160962 62.885521 -38.023439
-40.135591 64.599317 -17.628077
-35.183414 68.206387 -40.336063
-43.216668 61.991853 -5.163824
-45.690750 59.659070 -7.619817
-41.062349 63.815510 -46.597823
-41.037219 63.836782 -3.618952
-35.819970 67.777469 2.600952
-46.254505 59.126182 -17.293602
-43.565725 61.667742 -36.828955
-44.916469 60.390956 -6.933452
-41.558316 63.395668 -58.792409
-43.450408 61.776745 -46.747561
-41.904037 63.103011 -58.024173
-43.429407 61.796597 -13.250779
-38.876752 65.551730 -55.859920
-38.034041 66.189309 -5.457127
-38.940695 65.503352 -8.900832
-41.211422 63.689318 -54.256102
-44.623814 60.667587 -10.187262
-42.127566 62.913791 -26.312435
-45.086240 60.230481 -1.300016
-44.775075 60.524608 -36.164506
-40.709718 64.114016 -51.652284
-45.096710 60.220583 -38.726849
-46.004685 59.362324 -39.532819
-42.559483 62.548168 -37.137691
-45.117761 60.200685 -0.267092
-39.350402 65.193375 -6.993664
-36.788271 67.125018 -15.006908
-45.912988 59.449000 -15.627284
-41.243178 63.662436 -11.549350
-40.731371 64.095687 -56.518841
-37.169117 66.843694 -7.497881
-40.672505 64.145517 -20.833812
-44.233138 61.036873 -1.606771
-37.089832 66.903680 -36.716764
-37.238600 66.791125 -25.845626
-34.604758 68.596291 -19.009252
-43.028151 62.151435 -4.322898
-39.381682 65.169710 -20.132476
-45.499681 59.839677 -50.156673
-44.533821 60.752653 3.762249
-38.436355 65.884926 -24.538569
-37.925316 66.271568 -2.012676
-37.488579 66.601995 0.014452
-36.434149 67.363628 -45.926866
-33.745612 69.175192 -46.728845
-39.439428 65.126020 -12.457455
-40.738394 64.089742 -15.405540
-41.748115 63.235001 -4.029142
-43.095966 62.094028 -56.508767
-40.149485 64.588260 -43.405766
-33.533731 69.317959 -6.867052
-45.135074 60.184321 -40.723363
-44.822024 60.480230 -45.289044
-33.772164 69.157301 -57.534594
-34.819114 68.451856 -49.370409
-44.523879 60.762050 -48.771225
-42.988426 62.185062 -10.074448
-44.359772 60.917172 -39.365150
-41.254345 63.652983 -42.406601
-43.702535 61.538423 -58.748711
-39.607572 64.998805 -33.296818
-36.618710 67.239269 -58.848822
-37.925570 66.271376 -30.067386
-34.801930 68.463434 -56.416352
-34.200030 68.869000 -44.926472
-34.229194 68.849350 -2.594903
-45.462880 59.874463 -47.404661
-41.321915 63.595784 -57.023463
-38.183314 66.076372 -32.310046
-43.791316 61.454503 -17.823690
-33.727524 69.187380 -19.995881
-44.065410 61.195417 -43.514121
-40.554993 64.244993 -28.457719
-36.551819 67.284341 -30.756779
-40.785395 64.049955 -24.649592
-42.837332 62.312966 -13.609719
-36.637085 67.226888 -19.571440
-45.939736 59.423717 -13.617814
-36.833945 67.094242 -8.390673
-40.158293 64.580805 -24.466118
-35.466065 68.015933 -23.684480
-41.657568 63.311650 -60.577584
-36.824520 67.100592 -13.809404
-33.477133 69.356096 -2.995195
-43.851055 61.398035 -4.664037
-37.641809 66.486064 -44.995241
-40.159119 64.580105 -14.747129
-34.266242 68.824386 -3.389939
-35.494040 67.997083 -15.057521
-41.733214 63.247615 -32.858710
-33.778935 69.152738 -19.171908
-36.984503 66.983369 -34.190875
-39.917846 64.764058 1.276598
-45.361138 59.970634 -59.354444
-37.403489 66.666373 2.520149
-45.450464 59.886199 -41.418761
-35.847968 67.758603 -59.105747
-46.168854 59.207143 -37.503219
-38.455710 65.870283 -41.978706
-46.213298 59.165133 -40.913209
-45.012517 60.300167 -19.386421
-38.357307 65.944732 -54.202918
-38.259953 66.018388 -58.595736
-42.539186 62.565350 -56.128788
-43.896403 61.355170 -2.404768
-33.474013 69.358198 -26.859444
-35.137597 68.237258 -2.257845
-41.275279 63.635262 -6.047493
-33.563782 69.297711 -48.541810
-38.530364 65.813801 -46.661457
-41.017234 63.853700 -23.271837
-35.211651 68.187360 -46.192260
-36.095411 67.591873 -48.961031
-40.396684 64.379004 -7.144660
-33.877552 69.086289 -29.801892
-41.694517 63.280372 1.128042
-34.432080 68.712643 -31.581369
-44.529947 60.756315 1.138985
-42.867032 62.287824 -12.577366
-35.962961 67.681120 -4.088773
-39.219529 65.292392 -34.860383
-36.608118 67.246406 -57.774497
-46.238288 59.141511 -24.478119
-42.566879 62.541907 -3.782677
-40.322247 64.442015 -5.108948
-40.330055 64.435406 -46.253221
-39.860513 64.807435 -26.190217
-43.188414 62.015770 -23.031556
-34.478575 68.681314 -60.519933
-35.297329 68.129629 0.952596
-39.694827 64.932791 3.517131
-39.575296 65.023225 -49.087212
-38.878567 65.550357 -7.958195
-37.144354 66.862429 -38.359056
-35.941799 67.695379 -33.810322
-39.972868 64.722430 -22.724141
-39.326907 65.211152 -22.477924
-34.658156 68.560310 -42.769617
-36.943871 67.014111 -60.536479
-37.232378 66.795832 -26.957983
-33.554918 69.303683 -25.733749
-45.412311 59.922263 -44.737527
-46.112061 59.260827 -48.980419
-42.604539 62.510027 -24.269282
-43.915249 61.337356 -24.353807
-38.492257 65.842632 -50.198014
-43.589274 61.645482 -34.256731
-35.032630 68.307986 -11.661658
-40.629032 64.182318 -57.456663
-43.684953 61.555043 -57.837310
-45.362129 59.969698 -43.089251
-35.136705 68.237859 -54.952574
-44.118157 61.145558 -14.269159
-40.606976 64.200989 -29.724292
-38.788354 65.618610 -17.644173
-36.552597 67.283817 2.026202
-44.789418 60.511050 -49.975902
-36.021210 67.641871 -34.603061
-45.091023 60.225960 -7.804813
-35.780820 67.803848 -7.229790
-35.927702 67.704877 -26.715231
-38.306923 65.982852 2.532640
-40.318721 64.445000 -39.243209
-36.919281 67.032715 -29.034830
-34.515533 68.656411 -37.932115
-39.295522 65.234897 -13.761979
-39.012516 65.449013 -47.561730
-33.655764 69.235732 -40.405051
-43.497807 61.731941 -42.242483
-42.105897 62.932134 -40.444605
-45.374197 59.958290 -2.475674
-41.497970 63.446752 -19.591831
-42.238305 62.820049 -59.116550
-38.624030 65.742935 -27.446720
-40.148323 64.589244 -53.067877
-37.432428 66.644478 -43.597786
-43.754220 61.489568 -6.085324
-33.813437 69.129491 3.573517
-37.848339 66.329808 -60.145941
-39.252760 65.267250 -11.475458
-44.405294 60.874142 -22.682949
-35.137809 68.237116 -0.166847
-33.543775 69.311191 -32.956079
-36.762531 67.142361 -12.781605
-35.222559 68.180010 -26.904939
-37.117962 66.882397 -10.686457
-39.347687 65.195430 -27.115815
-42.551052 62.555305 -54.346907
-35.544518 67.963071 -9.364058
-36.460756 67.345700 -4.831966
-43.733502 61.509152 -30.359026
-36.235734 67.497323 1.181051
-41.862210 63.138418 -54.145753
-33.670933 69.225511 -0.680472
-37.936021 66.263469 -40.676685
-36.117970 67.576673 -39.695479
-45.262077 60.064271 -27.001109
-45.562210 59.780571 -6.372325
-42.406963 62.677278 -50.569084
-33.780267 69.151841 -10.381439
-42.363505 62.714065 -23.161550
-37.443622 66.636009 -34.903171
-38.825511 65.590498 -54.950411
-34.083258 68.947683 -42.155504
-42.193978 62.857572 -0.595206
-45.958422 59.406053 -58.279540
-38.873762 65.553992 3.398751
-36.071390 67.608059 -28.786407
-34.341672 68.773560 -33.704184
-44.606467 60.683984 -52.192452
-41.420141 63.512634 -37.952859
-43.256293 61.958310 -37.703916
-42.120361 62.919890 -12.445407
-34.150997 68.902039 -49.073662
-34.328407 68.782499 -46.124060
-36.407642 67.381489 -37.457989
-36.799571 67.117403 -2.282949
-42.553670 62.553089 -28.977386
-38.669439 65.708579 -40.197077
-37.600598 66.517244 -39.209881
-41.603372 63.357528 -49.555712
-40.222346 64.526583 -3.430894
-45.490968 59.847913 -24.355421
-44.718326 60.578250 -43.091604
-46.184842 59.192031 -49.923979
-35.534386 67.969898 -55.638814
-46.068215 59.302272 -25.449804
-44.229804 61.040024 -35.798185
-41.661229 63.308551 -2.353220
-37.060239 66.926069 -45.525984
-38.793802 65.614488 -52.035992
-35.942167 67.695131 -12.552263
-42.960421 62.208769 -1.658226
-45.357266 59.974294 -31.584159
-43.720219 61.521707 -56.683195
-46.047488 59.321864 -6.969672
-43.465112 61.762846 -14.132448
-35.670449 67.878217 -54.460016
-37.567518 66.542271 -21.272820
-33.648742 69.240464 -30.792256
-43.800494 61.445828 -45.366430
-35.541013 67.965432 -18.499957
-43.809939 61.436900 -7.406929
-41.378432 63.547942 -28.566957
-37.017995 66.958030 -53.676112
-43.199267 62.006583 -39.645078
-42.374789 62.704513 -21.769166
-46.053493 59.316188 -26.891166
-44.324366 60.950639 -58.222536
-40.534129 64.262655 -32.957742
-33.724234 69.189597 -36.560350
-44.487554 60.796387 -3.974073
-38.251438 66.024831 -21.371272
-44.713530 60.582783 -51.341562
-44.004623 61.252875 -38.191503
-44.066320 61.194556 -13.267159
-40.370437 64.401222 -53.973398
-46.030157 59.338246 -43.585296
-43.740815 61.502239 1.500138
-43.316053 61.903744 0.590159
-38.421773 65.895959 -4.539678
-37.883572 66.303151 -13.914454
-42.486961 62.609558 -47.152294
-43.525042 61.706197 -38.954937
-41.284267 63.627654 -51.041372
-40.867604 63.980364 -12.521456
-43.362657 61.859691 -44.748850
-38.496740 65.839240 -37.508815
-37.465756 66.619263 -52.250163
-45.343613 59.987200 -9.333702
-43.796677 61.449435 -53.080380
-44.701012 60.594616 -47.662829
-41.883921 63.120039 0.294385
-41.090708 63.791503 -58.154514
-41.530878 63.418895 -22.310486
-43.497025 61.732681 -21.598361
-33.666277 69.228649 -35.036485
-43.166094 62.034664 -29.462774
-35.213151 68.186349 -19.590992
-46.025283 59.342854 -20.485218
-45.018431 60.294577 -43.843469
-43.307034 61.912269 -60.983508
-39.499147 65.080838 -28.033101
-34.813111 68.455900 -10.770232
-42.558421 62.549067 -60.940073
-43.423632 61.802055 -43.369104
-41.417657 63.514738 -59.565928
-38.084585 66.151068 -55.841578
-44.120374 61.143462 -50.177342
-33.479777 69.354314 -12.203548
-41.774584 63.212594 -46.279508
-36.226470 67.503565 -24.263521
-40.748977 64.080783 -59.602882
-36.778488 67.131609 -50.957698
-33.685370 69.215783 -17.816949
-38.350689 65.949739 0.455321
-41.158397 63.734205 -13.420604
-38.035338 66.188328 -35.477857
-43.105484 62.085972 -45.824201
-33.613108 69.264475 -13.125967
-33.553431 69.304686 -47.567154
-37.253803 66.779622 -40.269226
-38.745048 65.651375 -60.534548
-34.881499 68.409820 -50.586563
-36.628919 67.232390 -44.899677
-34.486349 68.676075 -6.418769
-35.588246 67.933607 -35.317383
-43.833972 61.414182 -25.373571
-40.212447 64.534962 -49.283246
-37.558415 66.549159 -12.886974
-43.400550 61.823873 -49.283135
-41.266867 63.642383 -10.097611
-36.456742 67.348405 -22.864249
-46.038096 59.330742 -4.333230
-41.291695 63.621366 -26.607898
-44.629397 60.662310 -8.506292
-38.214175 66.053023 -9.411088
-36.304922 67.450703 -41.945467
-46.204562 59.173391 -28.127146
-46.030400 59.338017 -33.893269
-34.222082 68.854141 -49.949454
-35.375468 68.076978 -36.188393
-43.635570 61.601721 -32.036263
-40.552717 64.246920 2.503564
-45.242531 60.082747 -42.288716
-35.134398 68.239414 -58.374337
-34.714648 68.522246 -57.303267
-43.654522 61.583807 -16.165098
-42.174814 62.873795 -20.865936
-33.677553 69.221051 -16.078372
-45.069274 60.246517 -32.528561
-42.288992 62.777142 -56.990384
-36.091981 67.594184 -40.592787
-43.880734 61.369981 -53.913352
-35.890468 67.729966 -20.409850
-35.920647 67.709632 -52.384203
-33.492673 69.345625 -53.607406
-38.693680 65.690239 -20.545675
-39.970857 64.723951 -31.500183
-41.966684 63.049979 -29.215720
-46.243519 59.136566 -0.806105
-41.830372 63.165370 -56.112741
-33.911690 69.063287 -61.041534
-42.964678 62.205165 -58.423862
-35.940463 67.696279 0.234802
-34.874724 68.414385 -36.835485
-35.432215 68.038742 -24.751465
-42.409925 62.674771 -31.108284
-35.158334 68.223285 -32.109067
-44.449545 60.832314 -12.280128
-37.448127 66.632601 -15.277657
-46.189442 59.187683 -2.724555
-44.664896 60.628754 -2.221980
-46.186259 59.190692 -8.491413
-36.225916 67.503938 -17.075685
-39.120161 65.367571 2.288963
-35.764223 67.815032 -44.927126
-42.947771 62.219477 -48.556205
-38.236256 66.036317 -17.048053
-37.368690 66.692701 -30.452971
-33.752127 69.170802 -50.856319
-43.653702 61.584583 -41.413381
-38.554841 65.795282 -22.593850
-45.089994 60.226932 -28.083300
-34.181059 68.881783 -51.978874
-37.458369 66.624852 -18.887297
-37.433812 66.643431 -61.056900
-42.693378 62.434824 -43.092359
-38.492593 65.842378 -6.219858
-36.463641 67.343756 -54.874046
-45.368828 59.963365 -20.121325
-37.749846 66.404326 -23.184854
-34.363262 68.759013 -21.065094
-41.116609 63.769578 0.320619
-39.347249 65.195761 -46.677111
-38.159347 66.094505 -14.814565
-45.575928 59.767604 -16.540729
-33.488736 69.348278 -56.253092
-46.056269 59.313564 -60.981765
-38.086799 66.149394 -60.900156
-34.401105 68.733514 -54.991490
-33.493541 69.345040 -23.404999
-41.387559 63.540216 -7.116079
-38.882828 65.547133 -33.446424
-35.361413 68.086449 -51.299674
-39.072478 65.403647 -39.334632
-41.513736 63.433405 -24.673502
-42.769654 62.370256 -33.915346
-39.362543 65.184190 -17.049189
-42.369839 62.708703 -2.996028
-44.622898 60.668453 -18.205951
-38.566081 65.786778 -30.417936
-45.699793 59.650522 -5.083646
-40.063577 64.653801 -27.411340
-45.000424 60.311598 -23.870101
-42.510888 62.589304 -27.047924
-45.574914 59.768563 2.250265
-34.709518 68.525702 -17.008826
-40.057019 64.658762 -15.650111
-36.669323 67.205166 3.821523
-42.064544 62.967139 -1.605578
-39.675134 64.947690 -36.559303
-36.971868 66.992929 -23.530676
-35.997440 67.657887 -30.081339
-42.779955 62.361536 -40.338227
-41.607439 63.354085 -8.006196
-45.896458 59.464625 -54.926341
-35.911039 67.716105 -38.239185
-34.316931 68.790231 -7.435854
-39.991612 64.708248 -40.748865
-44.741132 60.556693 -27.414170
-37.791312 66.372953 -41.660217
-36.804465 67.114106 -25.129434
-42.154112 62.891320 -45.457785
-37.003812 66.968761 -21.799027
-42.917735 62.244903 -28.216928
-38.788902 65.618196 -42.690694
-45.984625 59.381285 -57.273877
-42.719096 62.413053 -18.754471
-36.151514 67.554071 -22.055686
-42.918187 62.244521 -17.459734
-40.310209 64.452205 -0.016950
-42.312858 62.756939 -44.408278
-46.173728 59.202536 -9.622813
-42.410296 62.674457 2.669219
-41.933453 63.078110 -38.885135
-35.383522 68.071552 -48.669744
-40.599440 64.207368 -25.518261
-34.849597 68.431315 -29.080679
-39.594987 65.008328 -2.944103
-40.482957 64.305972 -58.445770
-38.456307 65.869831 -29.333324
-38.847210 65.574081 -25.357645
-34.201560 68.867970 -1.291747
-43.254344 61.959960 -19.492009
-41.480649 63.461414 -18.419557
-45.521475 59.819076 -21.893689
-41.821319 63.173033 2.029150
-33.651706 69.238466 -45.591549
-41.403115 63.527047 -15.122284
-39.502333 65.078427 -30.612452
-39.282685 65.244609 -6.059149
-41.162075 63.731091 -45.335642
-46.149595 59.225348 -55.957377
-34.602968 68.597497 -9.947544
-34.825699 68.447418 -48.011606
-37.394394 66.673254 -9.798944
-40.882680 63.967602 -8.148435
-39.755249 64.887076 -38.277062
-37.862229 66.319299 -38.145446
-40.743690 64.085259 -41.278454
-38.052084 66.175658 -27.017985
-44.071067 61.190069 -46.186411
-40.977432 63.887393 -55.050867
-36.767778 67.138826 -1.003229
-35.111679 68.254722 -52.327454
-39.431990 65.131648 -14.947214
-42.680571 62.445666 -5.606649
-44.441987 60.839459 -6.483499
-45.769679 59.584462 -30.770705
-44.518004 60.767603 -0.698530
-36.286590 67.463055 -8.862768
-37.540372 66.562809 -31.531912
-38.414427 65.901516 -56.697979
-40.105164 64.622337 -55.283231
-41.713313 63.264461 -17.326558
-34.815954 68.453985 -22.772331
-40.829667 64.012478 -44.357426
-40.148500 64.589094 -4.220192
-34.255524 68.831608 -5.390249
-41.381939 63.544973 -40.743025
-42.272069 62.791467 -27.894737
-41.666507 63.304083 3.822049
-43.498028 61.731733 -60.107448
-42.103488 62.934173 -31.818150
-43.572498 61.661340 2.317425
-38.608393 65.754766 -10.183445
-42.170565 62.877392 -33.603232
-40.033026 64.676915 -11.490267
-35.091952 68.268014 -38.318439
-40.881461 63.968634 -21.925129
-39.260610 65.261310 -56.505405
-41.409785 63.521402 -27.720615
-41.953960 63.060750 -5.619833
-37.984980 66.226428 -10.653808
-34.815094 68.454564 1.724464
-34.338651 68.775596 -23.944015
-36.353426 67.418021 -10.434321
-39.976899 64.719380 -56.732696
-44.285440 60.987434 -5.407197
-37.669769 66.464910 -33.885256
-45.020450 60.292669 -3.106567
-42.978436 62.193519 -43.963247
-45.302384 60.026171 -14.010920
-44.420923 60.859369 -59.188689
-36.477507 67.334413 -5.695641
-43.807852 61.438872 -3.873853
-39.448428 65.119211 -44.218105
-35.884731 67.733832 -27.625726
-38.612552 65.751619 -53.409518
-40.265727 64.489860 -48.245590
-37.075788 66.914305 -41.896071
-44.755083 60.543505 -21.871969
-42.275049 62.788945 -15.139742
-34.301941 68.800332 -26.237574
-41.369425 63.555566 -48.805308
-45.210252 60.113259 -50.930617
-43.380897 61.842450 -32.836236
-34.180788 68.881966 -58.223227
-43.487889 61.741316 -55.149554
-37.906686 66.285663 -3.952886
-40.303561 64.457834 3.318427
-36.524933 67.302457 -6.664834
-42.604696 62.509894 -19.913720
-37.700947 66.441322 -29.210571
-46.142861 59.231713 1.449162
-39.173538 65.327188 -54.049967
-38.330511 65.965006 -34.671153
-37.288530 66.753349 -47.603206
-34.851003 68.430368 -20.322452
-42.896162 62.263165 -22.224150
-39.138486 65.353707 0.397296
-41.665654 63.304805 -47.465948
-36.070559 67.608619 -13.570561
-38.438666 65.883178 -59.720309
-38.689721 65.693234 -57.795612
-42.729985 62.403836 -32.529239
-40.174668 64.566943 -47.324534
-39.442803 65.123466 -51.691075
-34.881703 68.409682 -13.540970
-36.538319 67.293437 -38.905200
-41.423678 63.509641 -36.635348
-39.368644 65.179574 -43.275772
-45.603426 59.741612 -33.228383
-45.471831 59.866002 0.680060
-35.115564 68.252104 -3.773497
-33.614149 69.263773 -52.638340
-39.151381 65.343951 -28.968384
-40.372727 64.399283 -5.894790
-39.353240 65.191228 -10.065717
-42.868624 62.286476 -9.076631
-42.422412 62.664200 -29.896693
-41.413091 63.518603 -20.520830
-44.427632 60.853028 -29.382516
-33.688929 69.213385 0.456690
-40.905671 63.948140 -52.795736
-34.971518 68.349164 -39.541283
-35.929840 67.703437 3.729151
-43.053356 62.130099 -7.250306
-40.296819 64.463540 -2.101962
-36.892037 67.053327 -49.735493
-39.663329 64.956621 -23.462673
-33.568500 69.294532 -4.705138
-33.626473 69.255469 -22.154118
-42.126328 62.914839 -24.924242
-36.659113 67.212046 -9.580485
-36.019052 67.643325 -47.834292
-46.243608 59.136482 -60.122262
-40.505480 64.286906 -32.003984
-36.552620 67.283802 -27.968046
-34.920460 68.383567 -0.994797
-33.498937 69.341404 -49.434142
-44.429849 60.850932 1.935354
-40.391862 64.383085 -45.417247
-45.610221 59.735189 -29.971498
-38.000830 66.214436 -19.859355
-45.061624 60.253749 -4.698949
-42.552889 62.553750 -38.722249
-37.672992 66.462472 -54.266504
-46.250120 59.130327 -5.929497
-46.213592 59.164855 2.713786
-44.134471 61.130136 -21.843751
-35.086908 68.271413 -60.938029
-37.685281 66.453174 -24.831750
-44.357052 60.919743 -3.095270
-38.348628 65.951299 -45.595594
-42.273742 62.790051 -14.001930
-37.845142 66.332227 -55.035413
-33.864601 69.095016 -28.823362
-42.850134 62.302128 -51.492015
-44.651093 60.641801 -13.583309
-43.089943 62.099127 -57.530145
-38.048177 66.178614 -48.926560
-42.984780 62.188149 -15.194723
-39.374283 65.175307 -37.344845
-40.075038 64.645130 -59.704186
-41.164173 63.729315 -1.820726
-42.571862 62.537689 -41.311964
-40.797977 64.039304 -27.304136
-37.167339 66.845039 -6.131358
-43.865359 61.384514 -9.622280
-41.730833 63.249630 -41.524902
-34.331108 68.780679 -0.105058
-40.437146 64.344752 -18.340193
-45.002125 60.309990 -15.255860
-34.241407 68.841120 -39.730983
-34.082942 68.947896 -9.011670
-39.045369 65.424158 1.399553
-42.346809 62.728199 -17.910896
-40.045065 64.667807 -35.244320
-36.348970 67.421023 -25.915804
-42.647137 62.473968 -35.426370
-39.186575 65.317324 -41.958472
-35.087192 68.271222 -34.556776
-38.104446 66.136042 -18.179797
-36.768292 67.138480 -16.339321
-45.834287 59.523392 -51.504263
-41.426681 63.507098 -34.237538
-43.826417 61.421324 -19.159090
-35.717171 67.846736 -22.835525
-40.876670 63.972689 -49.442325
-38.777499 65.626823 -5.224927
-37.949628 66.253174 -22.152326
-39.883774 64.789836 -42.326365
-43.470152 61.758082 -31.267109
-44.248784 61.022083 -23.599368
-46.013989 59.353529 0.055338
-34.228334 68.849929 -27.115987
-43.494889 61.734699 -11.242285
-46.195269 59.182175 -47.313551
-36.305018 67.450638 -53.881684
-39.338392 65.202462 -58.171903
-45.051528 60.263292 -21.166012
-35.378705 68.074797 -33.146260
-39.755193 64.887119 -39.749419
-36.578856 67.266124 2.840116
-35.674843 67.875257 1.678751
-41.580172 63.377167 -43.537222
-35.189435 68.202329 -59.751540
-34.536937 68.641989 0.923982
-37.104501 66.892581 -17.367762
-40.412768 64.365388 -33.892389
-42.953314 62.214785 1.349883
-36.198891 67.522148 -60.414391
-36.710309 67.177549 -56.872851
-39.058312 65.414365 -29.846129
-37.234761 66.794029 -35.752953
-37.735673 66.415048 -53.052765
-34.274105 68.819088 -27.990305
-35.762545 67.816162 -36.982439
-46.118658 59.254591 -14.801887
-46.183303 59.193486 -46.486596
-38.241618 66.032261 1.464587
-38.054191 66.174064 -15.970123
-35.014551 68.320168 -44.939140
-46.179634 59.196954 -21.568346
-43.571751 61.662046 -26.454966
-36.399020 67.387299 -36.235613
-35.264689 68.151623 -22.105019
-42.763956 62.375079 -49.484628
-39.797824 64.854865 -54.460643
-45.060680 60.254641 -54.659221
-44.953043 60.356385 -16.116066
-37.511180 66.584895 -57.991004
-40.567196 64.234663 -26.425149
-46.234892 59.144721 -18.883305
-42.089249 62.946227 -34.582822
-42.370188 62.708409 -39.567454
-42.659300 62.463672 0.096625
-37.730577 66.418904 -49.856639
-34.446012 68.703256 -38.917774
-42.416024 62.669607 -9.741888
-35.508123 67.987594 -43.132256
-40.550341 64.248931 -61.058947
-45.619026 59.726866 -19.055565
-37.468780 66.616975 -28.303677
-45.772082 59.582191 -35.777796
-35.917289 67.711894 -46.565372
-44.933724 60.374646 -58.375960
-40.592934 64.212876 -10.010946
-35.804055 67.788192 -10.980490
-45.759163 59.594402 -3.374403
-38.772932 65.630278 -49.175884
-41.082138 63.798758 -35.656183
-44.325388 60.949673 -26.597863
-44.316769 60.957820 -32.420576
-40.525212 64.270203 -1.064384
-40.921268 63.934937 -37.383565
-36.749674 67.151025 -47.117010
-45.420157 59.914846 -25.366819
-39.631134 64.980979 -9.234534
-46.039570 59.329348 -45.642849
-40.440839 64.341625 -16.690236
-38.006533 66.210121 -1.057871
-45.147890 60.172206 -34.634347
-45.157567 60.163059 1.680142
-44.174619 61.092187 -55.948782
-33.690132 69.212575 -39.170637
-39.239962 65.276932 -15.830785
-46.075721 59.295177 -32.015251
-37.832919 66.341474 -11.660674
-37.304378 66.741358 -5.071809
-33.507478 69.335649 -31.767815
-39.050724 65.420106 -0.585020
-33.552308 69.305442 -8.178665
-41.446757 63.490104 2.922876
-34.726149 68.514496 -53.355696
-42.984426 62.188449 -53.096891
-37.389537 66.676929 3.878916
-44.926697 60.381288 -26.007228
-33.475273 69.357349 -24.754567
-39.684873 64.940321 -1.511798
-35.540432 67.965824 -56.494498
-34.890689 68.403628 -8.590334
-39.520103 65.064983 -4.919775
-38.646781 65.725722 -11.270171
-42.534828 62.569038 -46.163001
-41.739238 63.242515 -3.233426
-44.276298 60.996076 -60.066354
-33.534417 69.317497 -43.181584
-36.841878 67.088897 0.540694
-39.285815 65.242241 -49.853892
-37.569927 66.540449 -59.165576
-34.832908 68.442560 -25.413919
-42.713198 62.418046 -25.251373
-36.639500 67.225261 -51.870517
-36.979900 66.986852 -42.908777
-40.834181 64.008657 -47.633758
-37.572939 66.538170 -8.495166
-44.600173 60.689933 -55.309981
-37.632263 66.493286 -50.726906
-39.453721 65.115207 -59.149486
-44.231849 61.038091 -28.320594
-44.713553 60.582761 -41.581093
-42.451262 62.639778 -7.676629
-42.270079 62.793152 -60.078926
-44.046553 61.213242 -40.397150
-33.693391 69.210379 -1.858840
-33.556699 69.302483 -5.580955
-34.149487 68.903057 -11.250533
-44.657978 60.635294 -46.471985
-43.825710 61.421992 -28.961024
-36.063366 67.613465 -44.199535
-45.743755 59.608967 -23.423448
-43.019788 62.158515 -16.029091
-45.873389 59.486431 3.749211
-35.962506 67.681427 -19.241963
-37.486591 66.603499 -57.008450
-44.187510 61.080002 -31.444128
-40.973860 63.890417 -50.310733
-44.190474 61.077201 -46.997598
-43.203794 62.002751 -54.055137
-36.757166 67.145976 -52.714691
-37.106518 66.891055 -55.544929
-33.776231 69.154560 -37.739834
-44.968808 60.341483 2.711041
-39.292407 65.237253 -31.392686
-36.958978 67.002681 -32.004072
-42.292525 62.774152 0.939628
-44.789359 60.511106 -17.129929
-38.410190 65.904722 -12.394822
-45.194806 60.127859 3.581486
-45.322233 60.007409 -36.584609
-44.456023 60.826191 -25.189355
-35.900548 67.723174 -57.271574
-38.106150 66.134753 -43.528399
-39.240021 65.276888 -40.604381
-36.198764 67.522234 -18.318589
-42.533031 62.570560 3.871981
-41.889858 63.115014 -6.491864
-37.896420 66.293431 -46.235367
-34.067980 68.957977 -13.916722
-45.703675 59.646852 -40.319346
-38.179586 66.079193 -19.024902
-41.187661 63.709432 -33.308903
-41.534739 63.415626 -25.732315
-34.899050 68.397994 -41.867832
-33.482172 69.352701 -60.084202
-34.454664 68.697426 -43.893579
-34.412360 68.725930 -21.978338
-34.971460 68.349203 -7.060174
-39.678141 64.945415 -21.200238
-34.797597 68.466354 -4.677992
-34.492429 68.671979 -40.584688
-37.258131 66.776347 -4.163262
-43.489033 61.740235 -27.778013
-34.603956 68.596831 -14.538523
-40.695508 64.126045 -10.903377
-44.201832 61.066465 -57.319750
-38.839376 65.580008 -32.488377
-38.187523 66.073188 -31.213715
-35.572557 67.944178 -3.173952
-41.012301 63.857876 -4.488999
-39.883434 64.790093 -51.087304
-40.778188 64.056056 -31.244235
-45.315380 60.013887 -11.202842
-35.611743 67.917774 -5.178417
-37.944590 66.256986 -47.200035
-43.375935 61.847140 -0.675162
-35.015569 68.319482 -28.176864
-33.479908 69.354226 -54.724751
-38.666153 65.711065 -48.310575
-41.442975 63.493305 -39.468745
-43.234983 61.976349 -3.427821
-45.988872 59.377271 -52.498165
-39.444949 65.121843 -48.215032
-43.505985 61.724211 -8.785025
-38.289951 65.995692 -23.658334
-38.210909 66.055494 -7.086605
-38.628825 65.739307 -38.599156
-45.216184 60.107651 -52.163417
-39.297908 65.233091 -18.466581
-43.712739 61.528778 -50.820776
-38.063889 66.166727 -57.458125
-46.142480 59.232074 -38.723280
-40.975160 63.889316 -60.447372
-42.174152 62.874356 -4.706133
-41.247350 63.658905 -29.613096
-35.915477 67.713115 -32.428098
-42.448724 62.641927 -52.660904
-35.399569 68.060739 -29.552114
-39.338218 65.202594 -4.095921
-45.033587 60.280250 -60.037049
-40.320633 64.443382 -8.926373
-44.725458 60.571509 -30.186022
-40.597562 64.208958 -42.230662
-43.322691 61.897469 -52.386558
-35.262692 68.152968 -44.102172
-42.226191 62.830304 -11.357363
-33.619381 69.260248 2.109156
-38.246969 66.028212 3.463230
-36.670463 67.204397 -11.439590
-40.266369 64.489317 -30.668164
-46.236527 59.143175 -22.506116
-44.027528 61.231225 -54.821799
-40.474925 64.312772 -36.640845
-39.850017 64.815376 2.130012
-33.606789 69.268732 -58.892038
-43.336916 61.884023 -8.015775
-45.164361 60.156637 -39.517003
-39.803990 64.850199 -29.338870
-41.826017 63.169056 -55.040969
-45.402889 59.931169 -53.037063
-40.834836 64.008102 -43.368817
-41.752712 63.231109 -9.199494
-35.862267 67.748968 -50.663870
-46.183577 59.193226 -19.702157
-44.891084 60.414951 -60.973477
-45.378701 59.954033 -45.744742
-45.657301 59.690687 -28.745122
-43.529039 61.702419 -35.259329
-41.393178 63.535459 -31.911548
-43.201555 62.004646 -24.103932
-40.766895 64.065615 -39.824284
-45.102730 60.214893 -29.316298
-40.790841 64.045345 -34.840727
-45.308364 60.020518 -57.593730
-42.011360 63.012160 -23.968183
-40.897928 63.954694 -38.792756
-44.165912 61.100417 -34.808408
-43.821698 61.425785 -12.479696
-42.082969 62.951543 -19.211938
