34.789571 6.133712 -43.811358
-19.945767 15.677626 -34.831071
-13.064428 -14.163479 -58.956096
15.988757 32.821541 -14.071338
33.707544 -2.304189 -57.712341
-19.302346 -5.111600 -53.428253
-15.262091 23.958688 -34.543066
25.516808 -15.024166 -34.414930
-12.306041 -14.885248 -53.582930
8.931742 -21.866480 -25.298687
32.705058 17.240285 -45.397451
20.162323 30.978586 -29.419440
32.801380 -4.789975 -46.874482
-19.937062 15.703822 -32.160127
30.574756 21.259077 -49.770828
-3.764392 32.392262 -11.441209
-2.744135 -20.582168 -30.272049
-21.293564 4.772971 -32.549894
-14.049791 -13.150963 -42.435826
13.542374 -21.342050 -49.434766
21.610517 30.139565 -36.386423
11.475716 33.992360 -57.375587
-18.109033 19.728368 3.733183
-21.221125 3.825880 -42.809507
34.827160 5.535416 -7.786032
32.709641 -5.017235 -41.588579
7.923578 34.278446 -13.171388
29.582112 -10.523123 -52.650355
-16.362460 -10.311633 -8.067801
-20.907860 12.341187 -9.278622
10.242359 34.167908 -26.287369
9.844844 -21.809110 2.636340
22.750993 29.405088 -39.024685
-21.080239 1.983908 -30.134861
3.838998 -22.064694 -60.283397
-20.204396 -2.729221 -1.562150
-9.306991 -17.254732 -22.270304
-5.776456 -19.303531 -41.246272
33.814973 -1.980925 -2.271628
-10.687731 -16.244298 -38.859791
-19.241777 17.454653 2.164198
-21.402345 6.195198 -39.569560
-7.526421 -18.370644 -2.243911
-0.380396 -21.286786 -49.759838
-21.496473 8.659233 -12.997054
12.700679 33.749428 -24.693992
-0.712978 33.396425 -59.342251
7.544026 34.252079 -4.620102
34.767584 2.638644 -39.949490
-12.020640 -15.139323 -7.703502
-20.363951 -2.239847 -20.431299
-15.510661 -11.451851 -17.424188
-20.877987 -0.293574 -42.020333
12.485253 -21.589372 -39.824214
-18.337133 19.319936 -11.840753
4.838433 34.064124 -60.685197
2.613691 -21.901960 -46.703290
22.204484 -17.566329 -41.675639
-3.782049 32.385407 -49.680476
26.888094 25.923235 -27.399423
-19.481706 -4.676714 -46.149646
32.374852 17.954349 -57.443436
21.844173 -17.791629 3.613650
-13.741645 25.675280 -22.370397
34.774057 6.380656 2.508378
-2.547219 -20.647606 -2.352106
-18.874739 18.230627 -60.922429
-20.357370 -2.264765 -52.607352
31.711185 19.301073 -47.786020
21.142778 30.430996 1.670510
-11.859838 27.483011 -24.784907
19.777404 31.193566 -38.652212
34.652008 1.770428 -27.591801
-14.996853 -12.081452 -57.113255
20.321051 -18.692606 -6.230407
-12.112613 -15.062197 -41.127111
34.536920 1.094705 -3.164146
30.758494 -8.776408 -24.670422
33.985088 -1.307344 -45.175973
20.882751 30.576223 -26.772529
-17.235205 -9.011490 3.357139
-15.656147 23.473792 -24.035310
-16.077131 -10.709925 -4.526420
28.458834 -11.969043 -48.516507
17.117365 -20.201857 -30.100873
34.203396 -0.442605 -16.712171
26.039777 -14.539603 -54.114967
33.107328 16.218096 3.725449
27.415110 25.354435 -20.860030
-4.008835 32.297366 -18.501939
-18.663035 -6.494098 2.860176
-11.754248 27.569184 -11.345319
-21.270073 4.465835 -45.563656
-21.232279 3.971709 -60.868177
32.478250 -5.547515 -17.049975
25.974856 26.799154 -15.117463
4.989953 34.074650 -11.101225
22.300034 29.695510 -20.728087
12.980786 -21.490366 -7.861949
-19.695424 16.330904 -39.334827
-17.734915 20.398257 -7.445862
26.591780 -14.025121 -43.764097
29.761632 -10.279476 -42.110952
10.569333 34.124383 -17.483102
33.493583 15.173667 -0.462758
-13.373684 26.061909 -51.348401
-10.671540 -16.256227 -36.169675
31.889165 18.972145 3.509600
-6.844893 -18.751254 -38.086312
-21.305804 10.240918 -45.301264
-20.722465 -0.882420 -25.645996
5.812230 -22.062478 -12.543162
-18.886505 -6.010850 -10.189082
22.992971 -17.022907 -45.704017
34.378334 0.250341 -52.190726
-6.488744 31.139645 -13.399431
-9.979752 -16.765944 -46.921508
14.270950 -21.149632 -28.710388
18.363937 31.876040 -31.400722
-18.197207 19.570485 -28.090333
21.313373 30.330928 -4.722755
-16.757312 21.952384 -4.083012
32.527500 17.624250 -51.226661
28.998416 23.506100 -49.739605
4.809592 34.062120 -5.107245
34.363485 11.950865 -51.681273
-18.320853 -7.139522 -38.480524
5.530882 -22.080155 -41.971589
-21.195724 10.952103 3.112960
22.433948 29.609268 -42.545123
6.105243 -22.044068 3.442004
21.019185 -18.307491 -50.139407
-15.945493 -10.893679 -28.374095
32.814307 16.972874 -2.429592
13.895061 33.447892 -42.261311
-9.289612 29.458425 -10.002674
34.099841 -0.852796 -7.699146
9.201675 34.283531 -31.366831
34.028927 -1.133693 -38.519573
-16.329491 -10.357654 -1.303026
-20.397123 14.319384 -2.045178
17.003980 32.444769 -55.694082
-2.745555 32.787785 -56.800292
-21.075244 11.577973 -56.032622
-17.252983 21.182738 -37.939212
-4.602507 -19.856034 -36.360665
21.618479 -17.932755 -23.478916
29.930377 22.234061 -24.561282
25.950598 -14.622233 -28.506694
10.169528 34.177602 -39.932559
-19.437740 16.969224 -11.581007
-10.045509 28.916931 -18.462341
32.460324 -5.584959 -2.553700
34.471415 11.197797 -6.424152
27.691525 25.056104 -0.497069
-10.131993 28.854977 2.054821
27.110013 25.683722 -51.644515
16.225923 32.742729 -16.849786
1.336229 -21.684474 -0.570937
23.783004 -16.456959 -19.191263
13.482672 33.552005 -9.200712
1.614571 -21.739493 -43.072555
17.602279 -20.013612 -33.666048
5.305078 -22.094342 -24.677248
33.792308 -2.049126 -42.369485
34.796582 2.856506 -9.305133
19.595107 31.286632 -55.042912
34.516305 10.483290 -2.402320
-5.857853 31.470084 -57.678332
19.101622 -19.331507 -12.777115
34.525044 10.344189 -24.157622
-1.265474 33.250499 -33.671198
-13.583210 25.841753 -5.712959
34.349153 0.134752 3.799385
29.739690 22.500243 -4.666566
0.731930 33.757247 -9.504467
-21.492953 8.713432 -41.522178
-8.944863 29.694108 -12.645218
28.980040 23.528616 -15.895541
-4.860158 31.931449 -37.820290
26.541566 26.259819 -4.398818
-20.992376 0.835160 -9.048143
-21.324987 10.096832 -60.522073
31.212216 20.223223 -32.345555
-2.985722 -20.501885 -19.671822
33.522475 -2.861079 -60.902420
-5.264300 31.744561 -21.861068
30.348498 21.620911 2.952103
-19.367373 -4.970980 -40.096682
30.666904 -8.918627 -17.612035
30.681856 -8.895410 1.520262
-9.399594 29.379639 -7.039191
10.220099 -21.785533 -19.833998
-16.312168 -10.381836 -52.609887
-0.719663 33.394659 -0.873823
-12.404404 -14.791635 3.724300
-21.092189 2.140136 -58.667333
-11.988540 27.367326 -1.992876
33.653163 14.691503 -48.136137
-13.150598 26.290609 -44.522919
-20.192972 14.933724 -54.937892
34.465468 11.292457 -44.478955
34.649201 8.367982 -46.204980
-0.172654 -21.339232 -33.334789
18.880988 -19.433537 -0.609572
23.502887 -16.657623 1.126406
-7.485720 -18.393374 -30.858965
-21.401047 6.178228 -6.093183
25.592749 -14.953802 -17.856750
26.842540 -13.761646 -32.237675
25.533713 27.217523 -0.037968
18.362212 31.876866 -25.641510
-21.538464 8.012743 -29.346617
0.463314 -21.499788 -36.157585
11.264783 -21.719896 -1.360494
16.215013 32.746354 -3.501921
4.510678 34.041355 -51.362787
29.080287 -11.204205 0.602919
-0.924347 33.340598 -24.190419
19.646621 -19.057549 -30.437853
30.010575 -9.937766 -34.606083
15.223308 -20.887208 -6.209941
33.514200 -2.885978 -51.854668
9.808401 34.225667 -55.187468
-20.448220 14.161864 -40.412993
-14.680914 -12.468592 -6.684062
30.986354 -8.414850 -20.459844
8.251223 34.301208 -19.035320
-20.984630 12.037093 -17.989855
-21.522121 7.761172 -57.518508
-20.988153 0.779952 -51.351711
16.580349 32.615777 -21.420913
29.859641 -10.146457 -22.109522
-21.238170 4.048725 -14.717706
-20.995889 11.992493 -31.212140
1.374133 33.823461 -15.947122
16.611497 32.603204 -44.369221
28.604892 -11.794866 -9.901677
1.896858 33.859775 -13.329866
-14.352984 -12.823739 -15.074377
-0.687901 33.403048 -27.562970
28.782904 23.770180 -18.664911
34.870157 3.580067 -59.249080
-6.545242 -18.918599 -61.063863
28.442634 -11.988362 -29.337297
-15.215724 24.013980 -50.319337
34.860775 5.000373 -3.340044
28.146246 24.550316 -3.305763
-21.233739 10.759790 -49.318011
19.348420 31.404731 -43.821064
1.028002 -21.632708 -14.152472
-17.998074 19.927049 -33.476138
34.042953 13.270869 -22.192119
33.324984 -3.455347 3.447328
32.872928 16.821874 -18.090512
-2.238561 -20.750178 -38.373498
-21.441477 9.221683 -54.848304
27.670690 -12.891504 -56.792452
34.844654 3.217670 -6.206228
15.730078 -20.719469 -45.815602
-19.056158 -5.643978 -4.350846
-19.407992 17.042916 -56.727399
-20.993003 0.843354 -20.493236
21.071225 -18.274951 -53.495898
-13.686566 25.733154 -54.849160
24.686370 27.928077 -32.185216
12.211618 -21.641951 -4.798389
31.297964 20.064751 -44.148960
-12.125209 -15.051634 -20.878835
-5.672004 -19.353541 -46.080780
33.278168 -3.596219 -33.401879
22.844381 -17.129351 -25.991646
27.974600 -12.546497 -21.071993
-20.979926 0.672380 -23.185092
-16.371975 22.502234 -52.411334
-12.664784 -14.543826 -37.271464
-14.789531 24.522205 -59.961140
-19.700211 -4.113852 1.145612
4.622322 34.049111 -17.004337
13.738778 33.487348 -55.842999
-20.890550 12.409750 -46.968407
31.179257 20.284135 -26.844367
-11.514372 -15.563862 -11.117795
33.401704 -3.224488 -23.872667
4.712401 -22.121425 -30.153723
-20.752400 -0.769078 -3.799400
-20.682450 -1.033927 -58.930287
12.192618 -21.645602 -33.838486
-1.282565 -21.059026 -23.837276
34.700661 7.548900 -51.901650
-1.410014 -21.025516 2.095192
31.525976 -7.448646 -42.646345
-15.183454 24.052461 -4.509118
1.629853 33.841226 -52.154542
1.935963 -21.803022 -23.952093
20.027879 -18.851246 -38.113451
7.389753 -21.963363 -22.966277
-21.492831 8.715303 0.646056
-19.217312 -5.295486 -36.608822
-20.493344 13.983122 -60.926198
-9.327239 -17.241692 -25.033185
34.641298 8.493771 -0.436493
-14.000058 25.403758 -25.518447
25.965703 -14.608237 -22.369809
6.156612 -22.040841 -15.233837
19.238921 -19.268014 -15.624031
20.773035 -18.448032 -17.872142
-7.420067 30.635695 -24.184406
-13.692810 25.726593 -47.781721
-4.224168 32.213772 -45.686186
-21.141821 2.789043 1.481632
31.353647 -7.757204 -45.685784
-2.668401 -20.607336 -48.390673
15.225107 -20.886613 -31.825672
-21.192930 3.457245 -23.237253
34.899195 4.388834 -56.475274
34.888773 4.554727 -26.003289
-18.482487 19.049957 -49.311901
11.139025 -21.727797 -55.887761
4.478588 -22.106238 -21.934457
17.119532 -20.201016 -48.151990
-19.239802 -5.246850 -49.347955
6.877312 -21.995559 -50.937106
33.784925 14.247804 -42.514663
-9.169414 -17.343333 -15.577163
34.896186 4.436732 -17.048694
-3.657720 -20.237410 -59.052953
-21.509549 8.457912 -47.489910
22.984586 -17.028913 -60.184196
-10.215062 28.795470 -60.447135
-16.051182 -10.746148 -21.088731
-11.284192 27.952800 -40.497848
-21.399060 6.152241 -1.725055
-6.425251 31.174002 -50.860992
-14.840781 -12.272696 -24.357574
-17.635633 20.576030 -17.262356
-15.440038 23.746489 -28.361340
29.218279 -11.016920 -58.741707
-17.866629 -7.978978 -1.569695
-15.582158 23.574213 -21.046210
13.716506 33.492971 -4.134675
1.659572 -21.748388 -16.794957
-20.806342 -0.564840 -6.613912
28.337961 -12.113185 -35.937598
6.710711 34.194189 -7.276202
15.257217 33.064638 -47.264628
30.216816 21.831499 -56.642010
25.654574 -14.896517 -56.690024
31.085494 -8.237337 -59.058472
-20.690670 13.201495 -4.517084
-16.577608 -10.011307 -24.593544
8.053267 -21.921674 -34.568709
24.225106 28.314878 3.686095
13.480820 -21.358306 -44.122934
17.658986 -19.991597 -60.585308
-3.796100 32.379953 -52.624395
-15.340565 -11.660280 -12.294272
10.962190 34.072065 -10.974141
26.908044 25.901704 -17.623680
-7.497973 30.593539 -38.481016
-12.420759 26.966849 -33.642600
-14.369286 -12.806144 2.831507
-8.398008 -17.840126 -44.582572
20.150722 30.985065 -50.746987
-13.969720 25.435635 -11.057350
6.536059 34.182057 -29.267815
11.058290 -21.732869 -23.189235
33.196310 -3.811630 -30.413346
-18.565604 18.876343 -40.096950
-11.288706 -15.753098 -49.102467
17.765971 32.137175 0.055005
32.485223 17.715673 -54.016388
-8.099340 30.222810 -58.060994
0.370526 -21.476363 -26.684647
34.726797 7.132888 -13.696851
27.306502 -13.274159 2.746426
-6.861444 30.937972 -10.492373
-6.961413 -18.686182 -10.466551
-14.695976 -12.450134 -51.609220
27.737232 25.006774 -13.503397
-4.236988 -20.003580 -33.587879
34.044289 -1.072844 -21.053898
13.131138 33.640754 -53.147034
11.891260 33.910214 -33.127854
6.660036 -22.009211 -19.754845
-19.763883 16.161319 -43.126306
-9.009531 29.653671 -47.633688
-18.400647 -6.992052 -21.942519
-16.104413 22.865383 -7.708251
34.619396 1.525465 -47.838686
-19.121541 17.715111 -17.876466
29.821786 22.385643 -42.236587
34.654628 8.281595 -26.779996
30.022147 -9.919799 -14.312942
9.812500 -21.811142 -14.607722
23.590139 28.786915 -10.631374
33.489784 -2.959448 -49.075577
-3.176798 32.620372 -2.057081
0.569862 33.726101 -30.344875
33.779278 14.269183 -35.043532
-15.991574 23.018532 -18.117145
23.719933 28.691279 -3.765213
-21.514412 8.383045 -4.068520
21.097803 30.456115 -8.758090
33.150912 16.105830 -7.868819
-17.430519 20.907071 -55.314794
34.627658 8.710882 -59.515101
-15.656622 23.473147 -55.774230
-19.701417 16.316058 -24.225689
-13.303498 -13.935951 -1.396598
33.290459 15.746379 -32.591124
2.445272 33.897873 -19.553479
-21.374571 5.832071 -21.540783
-13.232010 -14.003988 -50.089474
34.587990 1.353025 -22.291732
-16.931259 21.682291 -46.464304
-19.798282 16.076108 -4.691592
-16.751490 21.961425 -40.853945
-17.944833 20.022381 -42.633028
34.631988 8.641955 -21.571833
-8.317027 -17.892278 -6.923869
12.264502 -21.631789 -52.501644
-18.763653 -6.276515 -33.897874
-10.878272 28.284074 -45.859063
21.939255 29.927855 -60.968523
34.759758 6.608253 -32.831413
13.038873 -21.475025 -17.146631
-11.196870 28.024064 -37.393934
23.294010 -16.807255 -16.569581
-14.552706 -12.608187 -20.018347
8.202531 -21.912296 0.030766
32.693701 -5.056724 -22.072932
26.112799 26.667875 -34.340981
20.435179 30.826195 -11.809679
31.835653 -6.889762 -10.222320
34.464935 11.300942 -26.566968
22.770709 -17.182127 -13.279108
32.246815 18.231226 -33.814140
-6.061667 31.370742 0.368944
16.199472 -20.558186 -9.001432
1.905315 -21.796964 3.214145
18.615188 31.755757 -9.466894
23.475915 28.871078 -46.559263
33.510002 15.124057 -25.945098
-11.463577 27.806402 -58.116041
33.492054 15.178289 -29.191868
-17.350993 -8.826321 -13.080466
10.423119 34.143849 -22.754020
23.222002 29.058168 -34.559380
33.917758 13.744875 -39.415452
34.780156 2.733096 -13.727721
30.005666 22.128965 -52.665653
24.488344 28.094135 -17.752439
15.364488 -20.840478 -51.849276
25.146949 27.541850 -22.308745
14.111555 33.393236 -21.605901
20.964795 30.530401 -32.279964
34.661259 1.839914 -24.986530
-7.163787 30.774371 3.475349
27.981717 -12.538011 -45.501361
-21.208401 3.659522 -1.183822
9.346470 -21.840423 -48.636766
30.464950 21.434681 -1.783861
-20.679931 -1.043465 -11.377531
28.077726 24.634277 -25.435714
-20.841006 12.606002 -37.330705
28.986688 23.520470 -30.119099
14.649906 -21.049549 -22.726498
3.701806 -22.046814 -2.530932
-18.997759 17.973665 -30.841588
-20.919360 -0.119472 -32.392724
17.318648 -20.123718 3.269941
13.344807 33.586811 -14.227233
26.257376 26.530281 -55.748720
28.131676 -12.359182 -26.701334
1.426254 33.827082 -3.694384
-9.134478 -17.365832 -0.002032
0.587148 -21.531051 -3.266831
28.938047 23.580073 -8.233191
17.773951 -19.945475 -43.822413
34.880416 4.687738 -53.758322
-21.516658 8.348472 -8.337626
19.717180 -19.019369 -25.843969
22.537931 29.542302 -57.437334
-11.103509 28.100257 -49.056805
2.284205 33.886683 -33.562616
18.595454 31.765204 -14.239901
-10.735358 28.400708 -28.663349
5.417059 34.104320 -20.361639
2.592515 -21.899140 -53.312104
17.991367 -19.844933 -4.535653
-1.234615 33.258650 -53.979056
-9.815315 29.081833 -15.083713
34.754069 2.537102 -50.343990
12.930595 33.691383 -50.244983
11.094831 34.054401 -0.389734
34.476184 0.787490 -42.590067
-10.756006 28.383857 -55.547654
34.187391 -0.506002 -32.326377
-20.275798 -2.513503 -23.585233
24.860985 -15.587415 -4.250200
2.887863 -21.938469 -5.128691
32.068914 18.615934 -37.739095
34.591827 1.372435 -34.238521
-17.852773 -8.004586 -46.320006
34.563365 9.734234 -12.957522
11.741893 -21.689919 -30.704308
-21.110632 2.381266 -54.893330
19.858573 -18.942859 -45.711858
-20.886919 -0.259757 -55.984730
5.852716 -22.059934 -48.001724
23.479918 -16.674077 -55.615623
15.770898 32.893937 -24.580975
26.958321 -13.639995 -15.353473
23.465416 28.878814 -24.726590
31.570834 -7.368327 3.507617
-21.105463 2.313688 -11.216156
-9.431902 -17.169606 -42.029279
7.766851 34.267559 -57.431305
-5.926182 -19.231844 -28.319172
18.690873 31.719523 -6.487337
34.761221 6.584963 -41.000909
7.852826 34.273531 -49.398577
-15.492738 23.683646 -45.306853
1.724925 33.847831 -42.045392
-15.986457 23.025478 -10.298547
11.516397 33.984318 -29.494696
30.200278 -9.643198 -27.061851
6.844942 34.203514 -34.112639
27.851963 24.882946 -33.343969
-21.425541 9.341405 -16.526470
7.535000 34.251452 3.564874
22.547463 -17.342051 -5.221963
15.120491 -20.921240 -34.462754
-5.716874 -19.332058 -7.399526
29.561072 -10.551679 3.427955
-17.701705 -8.265459 -57.472835
-19.413344 -4.852812 -29.062867
-14.063366 25.337238 -31.156297
6.133952 -22.042264 -32.681237
-5.616243 -19.380238 -19.910645
-2.631237 32.826792 -36.338786
-9.008192 -17.447162 -50.428788
0.290849 33.661556 -47.864225
11.630416 33.961779 3.753151
32.590269 17.488512 -12.537924
-2.187124 -20.767271 -7.236549
3.114166 33.944340 -44.843612
-21.316472 5.072472 -48.835330
-19.353519 17.177852 -47.483604
23.623366 28.762432 -13.581037
-13.580121 -13.657857 -31.478794
23.489918 -16.666913 -1.942264
-1.892195 -20.865280 -45.138723
34.890881 3.899293 3.422646
-9.187796 -17.331495 -53.359173
29.334820 23.065401 0.470802
-20.710978 13.121052 -34.374671
8.810833 -21.874077 -11.711669
-19.419109 17.015376 -52.986700
-21.440454 6.693440 -15.766368
15.620633 32.943872 -11.327832
31.337713 -7.785734 -35.984663
-18.066532 19.804470 -24.792321
-2.859587 -20.543802 -26.375372
32.317353 -5.883595 -50.373189
16.270831 -20.530484 -13.129573
25.637299 -14.912523 0.495039
11.368404 34.013574 -6.478461
34.119013 12.982894 -3.663754
-20.273764 14.690599 -29.336238
26.907445 25.902350 -37.866637
-11.196245 28.024574 -5.022923
34.414134 11.687267 -59.431775
-18.177784 19.605263 -3.796296
-0.079190 -21.362828 -47.093078
-15.772494 -11.131011 1.269497
12.763460 33.733579 -39.598205
20.433285 -18.631875 -9.932210
15.058529 -20.941631 2.038795
29.994250 -9.963117 -38.614609
34.370241 11.915703 3.165814
-6.233039 31.278010 -47.804377
20.216437 -18.749215 -42.727154
7.070450 -21.983424 -57.051571
-20.322609 14.543615 -52.337689
25.193492 27.502821 -40.467828
-21.037232 11.808969 -1.151236
24.722182 27.898046 -48.899845
5.806770 -22.062821 -8.487845
-1.995163 33.037324 -38.929599
33.586468 14.893019 -15.685594
21.547553 -17.977105 -35.515754
1.531572 33.834399 -6.634038
29.643387 -10.439960 -46.512920
32.606018 17.454456 -27.653895
-21.313806 5.037609 3.836582
-17.295724 -8.914707 -29.938580
30.136985 21.945656 -47.285141
-10.303811 -16.527173 -31.914864
32.902078 -4.540519 -27.216300
-15.571413 -11.377408 -40.624052
-4.178444 -20.027213 3.784554
-19.669472 -4.193034 -8.122858
-8.807645 -17.576316 -27.930870
32.271136 18.178633 -9.437110
-9.573082 29.255359 -1.309220
-3.950998 32.319819 2.240090
-14.991055 24.281892 -41.534479
-16.099099 -10.679260 -49.068465
34.510179 10.580793 -16.177231
31.089744 -8.229729 -6.298301
34.603296 9.098648 2.051104
-15.927939 -10.918182 -34.963798
28.691946 23.881636 -10.935672
8.926236 -21.866826 -54.456859
5.882985 34.136688 -26.124594
-20.965009 0.477356 -0.102375
25.527777 27.222500 -25.209205
15.077755 33.124275 -30.778865
9.621569 -21.823138 -4.907140
-14.419487 -12.751965 -38.312137
-12.078409 27.284058 -16.740761
7.980523 34.282402 -16.274651
24.028168 -16.267084 -22.977578
-19.762044 16.165876 -7.641966
34.902507 4.336127 0.826103
0.288019 33.660809 3.130061
-17.243264 -8.998603 -16.753619
-2.642483 -20.615949 -42.250805
32.825291 16.944581 -21.768432
30.126310 -9.758055 -11.736758
1.428245 -21.702663 -9.166501
5.482564 -22.083191 -54.098243
23.388892 28.935199 -28.779770
-14.162633 -13.029177 -34.084710
-1.792535 33.104391 -45.865090
6.462575 34.176952 -46.020390
31.443546 19.795699 -41.373438
-2.419096 -20.690183 -55.487338
7.758565 -21.940190 -40.376357
-13.367330 -13.875201 -12.149296
5.114999 34.083337 -0.122540
-21.347474 5.477798 -26.803745
34.671056 8.020110 -35.036231
33.300574 -3.528798 -19.541930
33.551806 -2.772819 -5.575199
24.439080 -15.931735 -11.023280
9.662015 34.245151 -2.825433
3.212445 33.951168 -23.870109
6.275678 34.163968 -54.626218
31.665098 19.386247 -6.214463
-6.493697 -18.947385 -24.970740
-21.323329 10.109285 -52.180471
-11.955588 -15.193873 -23.785496
-15.534325 -11.422854 -44.950934
14.776578 33.224358 -35.421416
34.841731 5.303491 -11.111943
10.278503 34.163097 -60.283121
31.083330 -8.241212 -32.618890
-13.342647 26.094521 -36.811710
32.894063 -4.560375 0.324449
-3.472443 32.505600 -26.227252
30.179011 21.886992 -13.108415
-21.536730 7.952175 -24.861182
8.838370 34.307126 -43.063353
16.802938 32.525924 -53.046075
34.495283 10.817894 -56.957025
34.532459 10.226163 -54.177002
30.356612 21.607935 -34.487348
-7.027665 30.848028 -6.500193
33.966117 -1.382491 -26.172520
33.127801 16.165360 -37.675844
3.148285 33.946710 3.581676
25.693786 27.066648 -29.543076
32.253489 -6.016991 -61.015079
0.565175 -21.525504 -60.695721
-13.320005 26.118312 0.240060
4.808344 34.062034 -31.911850
26.706784 26.102582 2.839924
19.376998 31.391049 -34.735159
28.692605 23.880829 -58.332228
7.282373 34.233902 -39.910114
21.396830 -18.071351 0.805661
-4.691928 -19.819938 0.781568
-10.635423 -16.282838 -58.203739
-3.579364 32.464092 -32.279621
34.623076 8.783807 -42.911657
-19.731049 -4.034414 -32.175224
19.031673 -19.363854 -23.309492
-12.327673 27.053099 3.504650
21.301290 -18.131092 -32.386019
34.835607 5.400958 -28.544826
12.453559 -21.595462 -14.013917
13.256587 -21.417527 -11.216869
31.226795 -7.984336 -29.524216
-8.660853 29.871698 -21.162695
14.499281 -21.089329 -2.710367
-20.265417 -2.544866 -38.870416
-4.453824 -19.916052 -11.666473
-19.891521 -3.621042 -14.336143
-20.504095 13.940536 1.594090
-7.020505 30.851903 -2.794832
34.371206 0.222105 -10.129945
-12.150956 27.216838 -61.088060
28.054882 -12.450760 -60.825929
34.803976 5.904443 -60.627507
-4.156293 32.240122 -60.502619
31.671279 19.374824 -29.599100
33.818718 14.119857 -58.025779
29.668208 -10.406272 -31.355310
-12.306696 27.072535 -8.118898
-1.033885 33.311667 -17.634178
-0.577480 33.432213 -20.482535
25.697562 -14.856686 -47.784548
13.313449 -21.402509 -60.168675
34.784257 6.218308 -19.148651
-21.350325 5.515068 -55.468564
34.862350 4.975301 -48.332509
33.773374 14.291537 -53.335079
33.096824 16.245153 -60.792823
23.251332 -16.837827 -33.680133
-20.887519 -0.257486 -15.019815
-21.085217 11.517370 -12.133019
-19.911059 15.782071 -49.702458
-19.707267 16.301566 -59.267905
-10.334526 28.709890 -31.578721
34.852933 3.314755 -43.739389
-21.199668 3.545344 -4.214255
-7.197183 30.756300 -55.143558
31.271201 -7.904827 -54.669963
27.966218 -12.556493 -53.902207
-21.062259 1.748832 -47.810663
-21.473306 8.982545 -37.947368
25.069728 -15.417058 -14.253448
-20.464350 -1.859711 -29.919442
-9.637738 29.209042 -26.024788
-17.454272 20.870189 -21.357608
-18.716930 -6.377552 -42.360235
34.670686 1.910727 -30.538011
30.513258 21.357425 -9.180607
-21.125627 2.577317 -34.717990
-12.629548 -14.577362 -28.465303
34.221448 12.595057 0.459131
4.178656 -22.086756 -36.521060
-19.070168 -5.613680 -1.461552
34.459422 11.388693 -35.491115
33.589892 -2.658213 -54.629524
25.535275 -15.007055 -37.564301
-17.980508 -7.768518 -53.977878
12.770453 33.731813 -44.829682
28.841745 23.698078 -55.212027
-16.761169 -9.755073 -60.746678
25.333070 27.385775 -59.192197
-21.447419 9.177039 -20.009599
31.613747 -7.291490 -14.328326
-14.446073 -12.723272 -47.972549
34.526882 1.043932 0.453147
-6.981096 -18.675190 -14.229120
-20.709569 -0.931248 -46.330715
21.591887 30.151563 -18.199114
-19.853082 15.940361 -15.447536
19.336140 31.410609 -2.379715
-20.823691 -0.499153 2.791788
5.795028 34.130578 -23.249110
-15.774403 23.313289 2.642129
14.890213 33.186597 -6.528120
-20.265893 -2.543429 -16.910189
14.931163 33.172989 3.680789
22.029447 29.869770 -53.593965
33.899647 13.813447 -18.746492
31.655313 -7.217066 -39.967087
-14.687293 24.644123 -15.863215
-21.113393 11.368597 -42.455681
28.269916 -12.194330 -6.484657
-20.181357 14.968677 -17.777430
7.327389 -21.967281 -59.706053
-17.324235 -8.869113 -41.381120
1.721519 -21.760633 -57.750166
1.766779 -21.769580 -30.066654
-14.371050 -12.804241 -9.450826
-19.411896 17.033245 -1.660809
-12.589825 -14.615166 -4.232667
33.630929 14.758681 -12.781396
33.117844 -4.006010 -39.061213
34.904739 4.112756 -21.342454
3.996432 34.005631 -57.232942
13.023173 -21.479172 -20.348727
0.424058 33.696740 -56.351666
18.865675 31.635839 -60.730131
-20.550309 13.757478 -21.204010
1.350718 33.821835 -38.591583
29.968877 22.180319 -60.569640
34.888075 4.565835 -34.816347
34.742179 6.888051 -5.399109
17.136259 -20.194522 -27.457355
23.586016 -16.598073 -8.199642
32.323951 18.064421 -0.090018
8.392780 -21.900343 -45.859817
34.204823 -0.436953 -29.220536
-0.056065 -21.368666 -40.085291
20.464593 -18.614934 -60.676691
31.363700 19.943264 -22.009869
34.032612 -1.119098 -35.257573
21.832570 29.996561 -15.254665
-18.066414 -7.609754 -7.424557
21.440868 -18.043815 -28.634253
-5.761125 31.514814 -29.568344
-5.596340 -19.389768 -53.823094
-19.333772 -5.043641 -57.430485
29.376813 -10.801756 -56.071036
19.087760 31.529519 -20.213483
20.454472 -18.620411 -3.296563
-7.053538 -18.634733 -57.633898
-18.449222 -6.902281 -60.472718
-7.898960 30.348107 -17.618726
-21.407215 6.258872 -36.473559
14.011425 33.418515 -18.938023
-19.293879 17.325588 -20.894010
25.020307 -15.457391 -26.010573
-9.228120 29.502476 -53.738241
-17.276633 21.146015 -60.730957
32.590607 -5.312113 -53.360083
-18.333646 19.326180 -58.469743
-21.253217 10.635928 -35.438723
34.719632 7.246931 -16.299722
-2.065894 33.013913 -7.797383
-20.516594 13.891028 -13.188197
2.734653 -21.918068 -49.950885
-11.235838 27.992262 -51.842499
-18.735391 18.521695 -15.218428
34.162706 12.817465 -30.572004
34.415125 0.430513 -58.724708
-18.973842 -5.821984 -25.470477
-21.494767 7.403543 -51.377537
-5.403609 -19.482044 -48.629633
5.562272 34.114408 -42.228559
-18.939924 18.094469 -35.916264
30.758724 20.964873 -37.650732
-11.027474 -15.972158 -1.132200
-21.188308 3.396819 -51.127421
3.138315 -21.971807 -33.601875
26.064206 -14.516968 -6.816266
-16.774523 -9.736433 -55.535061
-21.183265 3.330889 -19.385680
17.411065 32.280440 -48.603440
-20.461314 -1.871207 -48.772700
-21.159185 3.016064 -37.546021
21.167663 30.417098 -47.930796
-17.085085 21.443440 0.989788
-7.357003 30.669820 -43.224651
-11.607194 -15.486024 -44.811591
-20.438613 14.194530 -57.624789
-19.857316 -3.709155 -43.672170
16.580065 -20.410439 -16.215978
9.120008 -21.854651 -28.848561
10.571116 34.124145 -14.717890
0.664715 -21.550633 -19.932591
-19.689158 -4.142323 -60.488840
-5.400605 31.681530 -40.725823
-6.822354 -18.763842 -33.794152
10.372720 34.150557 -52.254681
3.293446 33.956795 -28.957256
-3.132414 32.637603 -14.242847
25.861920 26.906635 -8.156869
11.953359 -21.676632 -26.303245
13.481191 33.552379 -60.293842
-13.223399 26.219818 -28.301718
-20.174414 -2.819804 -5.471372
32.994689 16.508238 -5.052912
26.722354 26.087764 -10.838851
-21.053428 1.633362 -26.986124
-3.935540 -20.125264 -51.076831
-9.083366 29.606172 -50.661284
3.457404 -22.014281 -18.922088
18.636567 -19.546567 -52.787309
21.702419 -17.880268 -57.533328
3.119219 -21.969265 -27.199128
27.962085 -12.561421 -39.007654
-13.448924 -13.797547 -17.609899
-11.301309 27.938831 -21.136475
-21.384749 5.965146 -12.125814
23.276323 -16.819925 -36.994023
24.839648 -15.604828 -31.568472
-1.662394 -20.941647 -12.209660
-18.802859 -6.191732 -13.818226
-21.478137 7.186113 -60.565614
-4.168354 -20.031286 -22.476226
26.613644 -14.002149 -2.730025
-21.489623 7.336292 -43.691478
4.389461 34.032934 -47.945982
31.034276 20.524208 -16.192900
-7.994897 -18.099733 -48.146653
-16.603463 22.188047 -14.083458
24.530960 28.058398 -37.575543
-16.652809 -9.906334 -38.118375
31.241997 -7.957117 -3.077464
-5.021693 31.856750 -8.295194
16.492751 -20.444334 -58.075280
-17.234196 -9.013103 -33.287571
19.763104 31.201552 -16.567556
34.568005 9.660369 -32.061698
25.622409 27.134576 -44.766845
11.325063 34.022142 -36.857729
18.045238 -19.820021 -18.951004
10.114412 -21.792173 -42.794916
-19.188449 17.575353 -26.453763
-9.954007 -16.784913 3.702146
-9.709311 -16.965208 -60.789252
31.881965 18.985452 -19.715504
-10.105895 -16.673000 -4.091744
34.777627 2.714092 -36.941311
16.006022 -20.628133 -39.280920
34.616655 8.886012 -38.120952
26.618403 -13.997148 -50.314870
1.645821 33.842335 -60.450958
22.826771 29.349385 -1.019094
3.091409 33.942759 -36.324466
34.622646 1.549875 -19.063084
23.377593 28.943524 -7.984652
-18.251462 -7.267764 -51.160174
-13.549386 25.877294 -13.934507
19.109214 31.519248 3.639974
26.956770 25.849114 -48.298279
10.133436 -21.790978 -60.674272
34.648389 8.380913 -9.783228
3.438257 -22.011733 -11.262078
-17.274874 -8.948051 -10.387451
33.117096 -4.007864 -9.429653
34.511267 10.563475 -19.142379
8.136266 34.293222 -37.099620
-3.949120 -20.119783 -5.078771
-21.532336 8.107086 3.694035
15.503068 32.982940 -28.015148
-7.765432 30.431602 -31.569826
4.038022 -22.077622 0.933222
-9.983872 -16.762908 -19.611684
-15.087834 -11.969967 -60.123095
29.512099 -10.618145 -3.003730
11.231037 -21.722016 -37.066778
-7.899992 30.347461 -28.015933
23.037653 -16.990899 -51.551935
-9.186279 -17.332472 -11.312444
-5.355300 31.702480 -15.623732
8.859990 34.305722 -8.820310
-11.649555 -15.450502 -15.961802
-15.072684 -11.988531 -54.306797
-21.000407 11.974596 -28.120011
33.487447 -2.966479 -14.298269
-21.187290 3.383518 -7.613352
13.955575 33.432615 1.018589
-0.914822 33.343114 -12.175646
30.624000 -8.985248 -49.048122
34.474867 11.142857 -41.528241
30.242699 21.790107 -19.360679
14.614920 -21.058788 -25.998768
-16.148898 22.805005 -31.697678
34.440032 11.552481 -9.289633
28.261021 -12.204936 -12.829268
34.836177 5.391894 -37.259729
28.161732 24.531340 -43.833051
-1.705587 -20.927293 -15.581334
4.863735 34.065881 -14.460825
15.253355 33.065921 -38.701641
-20.166566 15.013186 -46.142982
-8.299582 -17.903513 -35.727487
-20.310765 -2.407863 -35.886439
23.624540 -16.570476 -28.456133
2.119444 -21.836145 -38.331608
32.293222 -5.933999 -24.903267
28.951832 -11.378545 -16.672182
15.731452 32.907046 -58.380621
-1.404130 33.213877 -43.054529
32.529966 -5.439490 -57.393654
9.640180 -21.821969 -7.944754
32.751538 17.134557 -42.757152
34.552315 9.910116 -49.311001
-18.553180 -6.710155 -17.737720
-21.116023 11.355295 -24.596103
-8.708776 29.841732 -34.577120
28.856198 23.680368 -36.137982
34.728710 7.102436 -54.699090
23.153777 -16.907712 -48.336546
-4.630259 -19.844831 -16.869835
17.036165 32.431777 -40.924804
25.225216 -15.290163 3.340050
9.816007 34.224655 -46.561525
20.598023 30.735245 -23.623409
29.027898 23.469973 -38.919887
-21.035393 1.397570 -44.434167
-15.394582 23.800695 -0.527075
-21.507640 8.487309 -32.598366
-1.914694 33.063958 -4.774536
6.891336 -21.994678 -3.262422
26.692541 -13.919251 -9.957361
34.519785 1.008035 -55.993784
34.407249 11.723096 -47.339226
24.667670 -15.745181 -42.354920
-9.355811 29.411004 -41.772152
14.334460 -21.132858 -55.134313
