5.014770 -22.112582 -44.264043
8.791029 -21.875321 -50.841563
11.164296 -21.726209 -55.020775
5.437750 -22.086006 -6.262623
5.142932 -22.104530 -10.876777
8.784015 -21.875762 -57.521241
8.569929 -21.889213 -44.383171
7.446346 -21.959807 -2.643428
6.010922 -22.049994 -45.335770
9.963894 -21.801630 -20.326763
5.099421 -22.107264 -24.541020
9.877877 -21.807034 -39.071350
10.561499 -21.764083 -45.778650
6.072424 -22.046130 -19.559855
4.846685 -22.123143 -42.651092
11.811554 -21.685542 -50.822360
11.374415 -21.713007 -33.581186
8.478124 -21.894981 -45.408578
6.923530 -21.992655 -41.407137
4.856748 -22.122511 -47.220746
10.769080 -21.751040 -28.787841
9.829645 -21.810065 -57.201185
9.197071 -21.849809 -43.962741
4.953504 -22.116432 -51.943142
11.932991 -21.677912 -10.519158
9.170636 -21.851470 -28.242014
11.155627 -21.726754 -45.038277
12.041309 -21.671107 -28.271488
10.996398 -21.736758 -41.063058
10.735796 -21.753132 -59.186848
6.901590 -21.994034 -39.259931
11.995494 -21.673985 2.222636
10.814033 -21.748216 -8.445610
7.423600 -21.961236 -40.477646
5.693756 -22.069922 -8.363700
8.850242 -21.871600 -35.833639
7.926570 -21.929635 -52.331130
9.717081 -21.817137 -41.649645
11.384712 -21.712360 -42.653878
8.385416 -21.900805 -45.996206
11.231742 -21.721972 -59.487871
8.645426 -21.884469 -23.464440
5.975571 -22.052215 -35.030923
7.300994 -21.968939 -37.396176
12.060668 -21.669890 -41.359185
8.941797 -21.865848 -7.251091
11.485555 -21.706024 -44.174231
7.142107 -21.978922 -22.790761
5.725256 -22.067943 -15.196056
8.072300 -21.920478 -36.887658
8.923927 -21.866971 -12.983332
11.954381 -21.676568 -52.951788
9.576501 -21.825970 -18.897793
6.722151 -22.005308 -25.317548
7.564272 -21.952398 -38.825155
11.470679 -21.706959 -60.022322
10.321955 -21.779133 -51.961699
7.364121 -21.964973 -18.039811
7.088466 -21.982292 -56.712896
5.956769 -22.053397 -50.295162
9.307371 -21.842879 -6.514976
7.629619 -21.948292 -4.148717
6.527070 -22.017565 -33.744928
9.384417 -21.838038 -3.300463
5.938874 -22.054521 -35.930077
7.695022 -21.944183 -53.493970
9.583300 -21.825543 -22.373601
6.877958 -21.995519 -28.579861
11.831835 -21.684268 -0.134610
7.898674 -21.931387 -42.263026
11.019618 -21.735299 -17.665703
7.614561 -21.949238 -58.420961
6.143937 -22.041637 -42.352342
9.383069 -21.838123 -13.340506
7.872973 -21.933002 -50.036478
6.797418 -22.000579 -36.640168
7.737395 -21.941520 -9.495883
9.702936 -21.818026 -28.980713
7.367329 -21.964772 -29.061009
8.035373 -21.922799 -7.396400
9.711513 -21.817487 -36.720453
6.809421 -21.999825 -57.740604
8.697519 -21.881196 -38.558328
5.424797 -22.086820 -46.842174
11.944899 -21.677164 -46.743083
10.224797 -21.785238 -31.922151
12.007560 -21.673227 -42.014715
11.608321 -21.698311 -57.435825
5.623002 -22.074367 -0.277900
6.125360 -22.042804 -9.507462
9.699262 -21.818257 -60.238670
9.995940 -21.799617 -57.924425
5.623989 -22.074305 -33.891069
7.863198 -21.933616 -7.901844
11.021288 -21.735194 -0.741289
6.270467 -22.033687 -57.116547
9.278701 -21.844681 0.854914
10.213155 -21.785969 -37.716000
10.231574 -21.784812 -17.748302
6.964147 -21.990103 -40.120080
8.121257 -21.917402 -41.140929
7.835242 -21.935373 -47.813460
9.078160 -21.857280 -17.869566
9.895090 -21.805953 -37.237422
10.932656 -21.740763 -9.745317
11.500135 -21.705108 1.802208
8.809237 -21.874177 1.786566
10.398863 -21.774301 -30.123946
10.926335 -21.741160 -33.265285
9.624074 -21.822981 -39.696177
11.362425 -21.713761 -32.938300
8.568877 -21.889279 -29.993736
6.203710 -22.037881 -51.795746
9.005902 -21.861820 -19.951003
11.548481 -21.702071 -1.567373
8.572350 -21.889060 -16.049745
5.055155 -22.110045 -10.356894
10.772325 -21.750837 -27.632774
9.376454 -21.838539 -46.000266
8.260842 -21.908632 -14.544967
11.869351 -21.681911 -22.606434
5.855933 -22.059732 -21.204441
8.287057 -21.906985 -6.469637
10.859757 -21.745343 -34.705470
10.332408 -21.778476 -44.574217
6.741600 -22.004086 -19.200463
11.861685 -21.682392 -33.282529
5.000268 -22.113493 -15.060465
4.807653 -22.125595 -34.455948
8.153972 -21.915347 -28.477173
11.885448 -21.680899 -14.609670
9.098875 -21.855979 -0.496213
5.938230 -22.054561 -7.724773
11.013646 -21.735674 -30.095655
9.598753 -21.824572 -8.418110
5.764700 -22.065464 -30.698960
5.477228 -22.083526 -24.037931
8.272280 -21.907914 3.770603
5.637273 -22.073470 -13.861159
8.171652 -21.914236 -44.822291
6.906505 -21.993725 0.610533
9.571708 -21.826271 -33.046771
12.024533 -21.672161 -9.509998
8.728391 -21.879256 -46.627180
10.741626 -21.752765 -18.754150
10.934226 -21.740664 -57.781107
4.848519 -22.123028 -17.279023
4.841590 -22.123463 -0.913496
5.378032 -22.089759 -34.569702
8.463527 -21.895898 -42.683777
10.306935 -21.780077 -35.710562
10.688233 -21.756120 -52.412932
7.118253 -21.980421 -14.455747
9.201011 -21.849562 -41.304687
6.500334 -22.019245 -49.539796
11.195811 -21.724229 -0.023949
8.317056 -21.905100 -56.156124
8.887132 -21.869283 -58.488676
8.740727 -21.878481 -24.071354
6.755022 -22.003243 -37.220568
10.905164 -21.742490 1.963799
5.375328 -22.089928 -18.960261
9.808749 -21.811378 -32.315271
7.565886 -21.952296 -31.211386
8.129801 -21.916866 -11.685246
6.571977 -22.014743 -52.942956
7.413674 -21.961860 2.711278
6.767595 -22.002453 -41.939377
6.310863 -22.031149 -29.582776
6.155668 -22.040900 -48.882713
9.222933 -21.848184 -14.802467
5.826983 -22.061551 -58.385894
8.833347 -21.872662 -6.207065
10.274827 -21.782094 -1.561547
7.699482 -21.943902 -43.351038
11.141176 -21.727662 -26.996736
10.692400 -21.755858 -23.146335
7.130203 -21.979670 -46.338353
7.094640 -21.981905 -9.257753
7.646669 -21.947221 -13.611630
8.237411 -21.910104 -0.136426
11.560420 -21.701321 -27.823880
6.293622 -22.032232 -16.970036
10.033627 -21.797249 -11.708488
9.784799 -21.812883 -2.761917
10.637154 -21.759329 0.924376
11.851216 -21.683050 -8.990076
8.684897 -21.881989 -21.373647
11.728306 -21.690773 3.815339
4.859989 -22.122307 -22.802497
4.919288 -22.118581 -57.752093
10.751907 -21.752119 -7.824786
9.777517 -21.813340 -51.627195
11.156030 -21.726729 -15.477345
5.281986 -22.095793 -4.185908
11.921000 -21.678666 -49.776924
9.645633 -21.821626 -58.451421
5.706412 -22.069126 -24.634757
10.466425 -21.770056 -16.575035
4.828392 -22.124292 -39.423597
11.258207 -21.720309 -43.173235
6.094087 -22.044769 -57.848474
10.350043 -21.777368 -18.315366
9.929844 -21.803769 -48.015314
6.920759 -21.992829 -58.541971
6.674301 -22.008314 -59.757590
5.430271 -22.086476 -47.464146
7.395194 -21.963021 -3.399646
9.002614 -21.862027 -9.545962
8.181618 -21.913610 -35.373259
9.442926 -21.834362 -59.065019
11.392013 -21.711902 -47.763171
11.899073 -21.680043 -47.499085
6.615105 -22.012034 -20.342934
10.294748 -21.780843 -55.604622
10.922202 -21.741420 2.689215
6.948156 -21.991108 -5.185276
11.973972 -21.675337 -44.526343
6.690954 -22.007268 -50.577124
10.340217 -21.777986 -60.134536
6.290986 -22.032398 -38.306805
10.992726 -21.736989 -48.792821
5.068556 -22.109203 -50.718413
8.959097 -21.864761 -43.369809
11.599350 -21.698875 -5.841908
8.053776 -21.921642 -50.614688
10.423519 -21.772752 -0.309612
12.002779 -21.673527 -51.670806
5.998241 -22.050791 -47.497289
8.912586 -21.867683 2.401971
5.176049 -22.102449 -31.981300
10.166129 -21.788924 -50.005711
5.402896 -22.088196 -54.430299
9.036476 -21.859900 -25.925164
10.925886 -21.741188 -46.251837
4.963153 -22.115825 -12.498193
7.264136 -21.971255 1.450988
7.255365 -21.971806 -25.100201
11.149712 -21.727125 -51.823490
7.160789 -21.977748 -7.706464
10.692754 -21.755836 -35.246851
5.340591 -22.092111 -37.316732
10.781042 -21.750289 -30.603040
6.061491 -22.046817 -40.497678
6.648408 -22.009941 -56.186069
12.022617 -21.672281 1.487520
11.299829 -21.717694 -25.313482
5.541454 -22.079491 -4.853846
8.044840 -21.922204 -39.230737
6.546426 -22.016349 -16.426134
8.351219 -21.902954 2.141003
10.357709 -21.776887 -46.331762
9.289977 -21.843972 -8.956576
10.113979 -21.792200 -21.208417
7.894176 -21.931670 -18.368541
7.574237 -21.951772 -6.275302
4.949253 -22.116699 -35.823356
8.200143 -21.912446 -21.620029
9.562344 -21.826859 3.558164
10.486921 -21.768768 -20.497415
10.672590 -21.757103 -54.599785
9.075387 -21.857455 -35.142021
6.361242 -22.027984 -28.272062
7.052492 -21.984553 -32.159114
10.351713 -21.777263 -9.689006
10.075224 -21.794635 -42.155451
5.741788 -22.066904 0.291486
11.754562 -21.689123 -54.285496
10.860916 -21.745270 -1.282550
8.051023 -21.921815 -21.022376
9.509898 -21.830155 -11.041304
5.251556 -22.097705 -7.878843
12.052099 -21.670429 -38.580257
5.878393 -22.058321 -44.308861
6.480263 -22.020506 -22.099974
7.399176 -21.962771 -19.978456
6.631826 -22.010983 -10.304169
8.055336 -21.921544 -47.297837
8.858970 -21.871052 -13.998336
9.542749 -21.828091 -49.927799
9.520246 -21.829504 -31.240109
9.497771 -21.830916 -59.649330
6.592865 -22.013431 -15.609727
9.336392 -21.841056 -5.748350
8.918780 -21.867294 -49.016790
9.573367 -21.826167 -50.648939
8.790391 -21.875361 -10.710735
8.201468 -21.912363 -23.860263
9.592618 -21.824957 -49.350275
7.880697 -21.932517 -24.776789
11.064072 -21.732506 -6.089917
10.356900 -21.776938 -26.083061
11.105236 -21.729920 -31.062588
5.313285 -22.093827 -29.873163
5.373636 -22.090035 -13.082005
9.445749 -21.834185 -17.384997
9.258869 -21.845927 -40.670686
11.681822 -21.693693 -3.554965
8.334971 -21.903975 -59.751730
6.773108 -22.002106 -46.933739
5.600185 -22.075801 -36.760079
5.943858 -22.054208 -3.943529
4.965325 -22.115689 -18.018654
7.372558 -21.964443 -45.254720
9.628835 -21.822682 -14.104484
5.022942 -22.112069 -26.638170
4.879582 -22.121076 -23.635990
4.798003 -22.126202 -49.570083
8.082577 -21.919833 1.466809
10.371323 -21.776031 -19.602120
11.957212 -21.676390 -56.264237
9.648182 -21.821466 -19.703626
8.133975 -21.916603 -43.885168
10.326210 -21.778866 -22.608330
7.775858 -21.939104 -22.491144
5.869192 -22.058899 -15.733356
6.461051 -22.021713 -27.452996
7.524139 -21.954919 -7.100241
7.710130 -21.943233 -35.651065
10.443063 -21.771524 -5.856350
8.495883 -21.893865 -33.206048
11.132008 -21.728238 1.325843
5.864862 -22.059171 -61.018510
5.259334 -22.097216 -60.155662
6.636327 -22.010700 -18.598697
4.865663 -22.121951 -7.425997
4.819515 -22.124850 -5.559587
8.553582 -21.890240 -58.058229
9.368457 -21.839041 -45.376757
11.297977 -21.717810 -35.071729
10.892576 -21.743281 -51.231053
5.628650 -22.074012 -59.633717
10.632773 -21.759605 3.276245
9.291626 -21.843869 -37.395734
5.240972 -22.098370 -28.478318
9.973082 -21.801053 -2.178277
12.004778 -21.673402 2.784904
10.351390 -21.777284 -41.366094
7.378995 -21.964039 -18.636637
8.640397 -21.884785 -56.988016
9.456742 -21.833494 -43.068962
5.916813 -22.055907 -32.755021
9.391325 -21.837604 -56.397762
7.373321 -21.964395 -39.782488
9.417610 -21.835953 -38.707480
6.425059 -22.023974 -41.147991
10.294234 -21.780875 3.812892
6.942368 -21.991472 -40.769101
9.441657 -21.834442 -1.782945
4.871226 -22.121601 -45.307782
11.338824 -21.715244 -21.411274
6.298084 -22.031952 -26.597496
5.717582 -22.068425 -8.942328
10.857871 -21.745462 -24.739864
8.547597 -21.890616 -24.663046
12.038928 -21.671256 -31.734976
8.159253 -21.915015 -18.858521
11.443409 -21.708673 -18.516324
4.934109 -22.117650 -43.368440
8.695351 -21.881332 1.097940
5.089871 -22.107864 0.324759
7.000557 -21.987816 -13.822759
7.470211 -21.958307 -43.996668
11.064874 -21.732456 -11.779577
11.908104 -21.679476 -8.233842
6.310628 -22.031164 -28.911880
10.875374 -21.744362 -22.570886
10.752903 -21.752057 -21.513320
12.004944 -21.673391 -27.173558
12.003769 -21.673465 -29.271067
11.230397 -21.722056 -8.844703
6.098681 -22.044480 -1.966155
4.935891 -22.117538 -33.804556
6.039588 -22.048193 -12.773363
6.413060 -22.024728 -39.918158
12.013079 -21.672880 -19.096023
11.262026 -21.720069 -46.708349
8.418869 -21.898704 -1.734535
5.969174 -22.052617 -46.646444
8.694188 -21.881405 -4.903956
9.231428 -21.847651 -51.271628
10.174619 -21.788390 -53.498244
5.543088 -22.079388 3.732555
11.201409 -21.723877 -11.071077
9.071794 -21.857680 -30.829927
12.040164 -21.671179 -57.903525
7.343684 -21.966257 -59.983271
10.253755 -21.783418 -58.873497
9.217401 -21.848532 -42.575169
9.390627 -21.837648 -26.708079
9.782002 -21.813058 0.143893
8.247817 -21.909451 -33.903794
5.030591 -22.111588 -53.186365
6.424346 -22.024019 -7.052890
7.371981 -21.964479 -32.870678
7.011367 -21.987137 -24.111516
6.248864 -22.035044 -13.914500
11.433678 -21.709284 -28.952284
6.472184 -22.021013 -0.936260
5.423043 -22.086930 -44.911070
6.574386 -22.014592 2.066137
11.282034 -21.718812 -45.675179
7.180832 -21.976489 -59.394541
7.726465 -21.942207 -1.544231
5.872578 -22.058686 -10.785036
6.960330 -21.990343 -23.575271
5.308306 -22.094139 -53.823884
6.337441 -22.029479 -52.314633
8.054066 -21.921624 -19.877270
9.621647 -21.823133 -30.254875
5.640369 -22.073276 2.357761
6.180770 -22.039323 -4.949986
12.028564 -21.671907 0.915016
7.957143 -21.927714 -56.704095
6.721969 -22.005319 2.720892
5.448262 -22.085346 -23.365972
9.795728 -21.812196 2.357226
10.947822 -21.739810 -57.011615
8.551703 -21.890358 -51.944888
8.567431 -21.889369 -40.803729
8.197438 -21.912616 -40.314209
11.942628 -21.677307 -7.505560
10.561584 -21.764077 -13.102604
7.302019 -21.968875 -12.715850
10.945492 -21.739957 -53.660927
8.753225 -21.877696 -40.156837
9.398229 -21.837171 -23.465884
12.065897 -21.669562 -31.029660
4.919156 -22.118590 -2.947159
5.531192 -22.080136 -9.797196
11.083596 -21.731279 -13.557422
11.351407 -21.714453 -12.833513
8.788566 -21.875476 -29.445686
8.946415 -21.865558 -55.305285
8.514600 -21.892689 -11.260116
5.575248 -22.077367 -45.720831
4.964455 -22.115743 -41.403531
10.609088 -21.761093 -11.314427
8.206760 -21.912030 -2.793886
6.517090 -22.018192 -21.069288
4.844600 -22.123274 -48.813321
6.918161 -21.992993 -52.421573
8.407647 -21.899409 2.710997
10.154679 -21.789643 -14.406426
6.574295 -22.014598 -34.826826
7.032512 -21.985808 -8.411118
5.349247 -22.091567 2.972830
9.191476 -21.850161 -56.951950
7.353244 -21.965656 -54.631943
8.756040 -21.877519 -47.694078
5.823446 -22.061773 -55.884003
10.703441 -21.755165 -3.888032
6.222157 -22.036722 -30.199104
7.031272 -21.985886 -53.390234
6.616828 -22.011925 -51.247259
6.466648 -22.021361 -5.532635
7.875274 -21.932857 -45.421588
11.319116 -21.716482 -37.502867
9.751382 -21.814982 -40.428627
6.131178 -22.042439 -25.115119
6.319060 -22.030634 -55.578801
7.407371 -21.962256 -41.691130
5.006344 -22.113112 -60.934726
4.936989 -22.117469 -35.002739
12.058701 -21.670014 -34.757350
7.475206 -21.957994 3.793500
7.411539 -21.961994 -20.959833
7.971922 -21.926785 -29.228554
11.607545 -21.698360 -16.143241
9.808119 -21.811417 -16.404496
4.837625 -22.123712 -32.905314
5.298965 -22.094726 -38.904280
9.231034 -21.847675 -36.275069
5.680684 -22.070743 -29.363201
6.847226 -21.997449 -48.185912
8.377738 -21.901288 -37.904425
5.458033 -22.084732 -40.378239
5.178878 -22.102271 -11.619758
5.565110 -22.078004 -14.616337
10.553477 -21.764587 -47.770836
9.393354 -21.837477 -25.458768
6.391871 -22.026059 0.975103
9.180344 -21.850860 -15.662390
10.525945 -21.766317 -60.823756
6.053047 -22.047348 -20.668854
10.367475 -21.776273 -36.466111
5.107573 -22.106751 -13.571647
7.035703 -21.985607 -38.580750
8.005103 -21.924700 -0.648265
10.377977 -21.775613 -27.279701
11.188535 -21.724686 -56.472520
9.811488 -21.811206 -48.850438
8.294957 -21.906489 -55.337818
6.567208 -22.015043 -30.757864
10.211395 -21.786080 -12.295762
11.013695 -21.735671 -39.197890
11.918838 -21.678801 -43.596506
9.773129 -21.813616 -35.818062
8.440952 -21.897316 -8.505063
7.730514 -21.941953 -42.811086
12.011514 -21.672979 -21.864039
10.191265 -21.787344 2.969893
7.365037 -21.964916 -25.806934
7.150566 -21.978391 -55.239890
11.886336 -21.680844 -52.283429
5.574899 -22.077389 -59.029332
6.208844 -22.037559 3.839589
9.834605 -21.809753 -25.141288
6.236422 -22.035826 -41.766954
10.652353 -21.758374 -23.993546
7.502657 -21.956269 -28.416222
8.239208 -21.909992 -12.219809
11.082919 -21.731322 -16.358511
8.185929 -21.913339 -31.252724
10.451414 -21.770999 -40.624002
7.625027 -21.948580 -23.322699
5.394835 -22.088703 -18.428528
11.943065 -21.677279 -36.208237
7.287051 -21.969815 -38.030865
12.044640 -21.670897 -30.118033
4.908113 -22.119283 -50.189344
7.354164 -21.965599 -51.918909
6.237725 -22.035744 -60.599234
6.784317 -22.001402 -9.720432
6.995027 -21.988163 -35.454967
10.950819 -21.739622 -60.283590
7.292949 -21.969445 -9.901076
8.261315 -21.908603 -49.544316
10.792749 -21.749553 -25.582216
9.104739 -21.855611 -33.755661
8.297740 -21.906314 -39.751692
11.714475 -21.691642 -19.873911
5.620386 -22.074531 -48.484132
8.340780 -21.903610 -48.955537
8.613975 -21.886445 -37.061408
9.854242 -21.808519 -22.884420
11.777304 -21.687694 -40.431161
8.244861 -21.909636 -13.615525
7.874236 -21.932923 -37.452673
5.641880 -22.073181 -41.044819
8.736700 -21.878734 -5.511688
11.098726 -21.730329 -32.461502
8.346730 -21.903236 -16.572852
9.036964 -21.859869 0.289839
8.525929 -21.891977 -17.620823
6.652326 -22.009695 -2.221424
11.971823 -21.675472 -35.541975
11.514879 -21.704182 -9.932276
6.412446 -22.024767 -46.147515
11.396285 -21.711633 -31.995874
10.493445 -21.768359 -39.315903
8.987094 -21.863002 -22.362544
10.479755 -21.769219 -32.471317
4.829157 -22.124244 -29.306627
5.346331 -22.091750 -32.493523
4.939972 -22.117282 -27.171718
6.969281 -21.989781 -43.231843
8.696445 -21.881264 -48.357057
6.885499 -21.995045 -60.440451
7.962322 -21.927388 -48.406583
9.824063 -21.810416 -53.019257
11.129733 -21.728381 -53.047564
8.531458 -21.891630 -2.300372
12.008012 -21.673199 -42.870485
4.952697 -22.116482 -38.304133
8.095942 -21.918993 -54.281231
7.894695 -21.931637 -26.993138
11.347917 -21.714672 -48.336534
8.338911 -21.903727 -10.296787
11.884928 -21.680932 -11.604725
7.908190 -21.930789 -15.945042
12.016167 -21.672686 -13.925587
8.933138 -21.866392 -53.465793
8.196606 -21.912668 -5.918785
7.890661 -21.931891 -33.503769
5.802973 -22.063060 -5.640792
7.086995 -21.982385 -17.149137
10.106405 -21.792676 -33.134020
10.003327 -21.799152 -17.087587
10.981047 -21.737723 -47.273395
6.163569 -22.040403 -37.583704
5.069190 -22.109163 -59.367144
5.357695 -22.091036 -42.908145
9.691496 -21.818745 -26.153077
10.937480 -21.740460 -39.831498
5.890710 -22.057547 3.258163
8.003075 -21.924828 -29.787613
12.044581 -21.670901 -17.434133
7.153425 -21.978211 -50.899552
8.767406 -21.876805 -27.074212
6.069759 -22.046298 -33.364724
10.334894 -21.778320 -43.893112
7.667519 -21.945911 -55.798387
5.646898 -22.072866 -52.408554
6.938581 -21.991710 -11.473807
11.582123 -21.699957 0.557434
6.339367 -22.029358 -47.978648
11.128552 -21.728455 -54.281454
7.419431 -21.961498 -26.467935
7.309106 -21.968430 -15.499067
6.335775 -22.029584 -8.388807
7.368827 -21.964677 -54.046449
12.044715 -21.670893 -12.354630
10.968676 -21.738500 -49.357264
12.012606 -21.672910 -2.626332
8.686487 -21.881889 -18.249187
6.867748 -21.996160 -21.473821
8.049648 -21.921902 -4.775617
9.293918 -21.843724 -18.389465
11.206484 -21.723558 -21.985008
6.114241 -22.043503 -21.701534
7.906912 -21.930870 -2.283171
8.137749 -21.916366 -23.179053
10.558938 -21.764244 -31.223027
10.910106 -21.742180 -29.429911
10.003230 -21.799159 0.945019
6.434832 -22.023360 -44.052267
4.792297 -22.126560 -15.799166
9.297240 -21.843516 -48.509065
7.540306 -21.953903 -41.034768
11.869739 -21.681886 -48.172037
5.422671 -22.086954 -49.042663
11.501287 -21.705036 -36.521514
10.041897 -21.796729 1.842687
11.389231 -21.712077 -2.884962
4.896866 -22.119990 -31.250505
4.845840 -22.123196 -58.842989
8.523539 -21.892127 -0.980558
6.372157 -22.027298 -25.862487
9.261589 -21.845756 -12.413006
5.555679 -22.078597 -16.256863
9.812867 -21.811119 -6.268367
11.569226 -21.700767 -30.544485
5.802133 -22.063112 -26.013178
11.878488 -21.681337 -21.118594
8.947097 -21.865515 -60.165923
6.284858 -22.032783 -0.138889
5.901745 -22.056854 -22.385352
10.892397 -21.743292 -5.360234
5.299029 -22.094722 -6.987387
8.343734 -21.903424 -60.796045
5.374738 -22.089965 -17.533627
11.653081 -21.695499 -24.746961
6.818261 -21.999269 -45.648536
8.100053 -21.918735 -17.135339
10.659069 -21.757952 -50.230857
10.938054 -21.740424 -34.012011
5.180812 -22.102150 -25.972955
4.971113 -22.115325 -57.024886
6.054093 -22.047282 -10.267434
11.690315 -21.693159 -2.148373
6.573574 -22.014643 -8.904668
7.624915 -21.948587 0.177104
8.534924 -21.891412 -27.870451
7.337021 -21.966676 -19.273264
8.852394 -21.871465 -54.042899
9.199315 -21.849668 -55.826937
11.908037 -21.679480 -25.659717
7.066850 -21.983651 -6.671655
11.300341 -21.717661 -23.978296
7.701896 -21.943751 -10.364451
12.050719 -21.670515 -4.188495
6.060629 -22.046871 -56.505076
4.855216 -22.122607 -14.204512
7.315093 -21.968054 -49.757483
12.044983 -21.670876 -5.399088
8.916803 -21.867418 -18.832001
4.803857 -22.125834 -52.688440
9.315594 -21.842363 -47.642884
5.209814 -22.100328 -58.283812
4.803069 -22.125883 -54.862114
10.909883 -21.742194 -12.374849
11.650929 -21.695634 -56.808350
9.980252 -21.800602 -30.721448
6.680230 -22.007942 -36.008213
6.845388 -21.997565 -19.810743
9.477797 -21.832171 1.421825
10.588376 -21.762394 -45.070267
8.420762 -21.898585 -22.588877
10.242882 -21.784101 -21.898552
6.335266 -22.029616 -2.959279
11.461409 -21.707542 -50.285795
9.752107 -21.814937 -35.210815
11.132183 -21.728227 -16.892704
4.853096 -22.122740 -21.293597
5.883797 -22.057981 -54.782394
9.235575 -21.847390 -3.986728
12.017645 -21.672593 -23.407055
7.581465 -21.951317 -11.322344
6.997926 -21.987981 -42.508844
9.913084 -21.804822 -60.876904
5.509133 -22.081521 -51.801465
10.722454 -21.753970 -42.696134
5.110258 -22.106583 -8.500808
5.617324 -22.074724 -2.839301
8.769667 -21.876663 -44.937420
9.250269 -21.846467 -10.264508
9.369638 -21.838967 -24.704799
11.902051 -21.679856 -24.121227
11.536718 -21.702810 -12.217593
11.631261 -21.696870 -26.601077
5.601292 -22.075731 -31.429040
6.384964 -22.026493 -4.335792
10.392504 -21.774701 -0.959055
9.808848 -21.811372 -10.016669
7.254281 -21.971874 -48.676854
6.424840 -22.023988 -11.298016
7.192919 -21.975730 -2.073271
4.855174 -22.122610 -3.819469
7.622490 -21.948740 -23.906608
7.123794 -21.980073 -5.827607
5.005108 -22.113189 -42.007366
9.264447 -21.845576 -11.676191
9.084668 -21.856872 -52.100014
10.881635 -21.743969 -55.493144
8.048257 -21.921989 -60.269415
8.565361 -21.889500 -20.280687
6.008265 -22.050161 -43.007121
10.880012 -21.744071 -31.728574
6.943367 -21.991409 -26.722930
10.195199 -21.787097 -24.470401
4.840079 -22.123558 -30.508247
7.263029 -21.971325 -4.565802
8.874226 -21.870094 -17.049091
11.559722 -21.701365 -55.615074
6.154287 -22.040987 -58.932892
9.667554 -21.820249 -37.832661
8.197116 -21.912636 -52.967177
5.937884 -22.054583 -17.481765
10.920032 -21.741556 -44.412611
9.613014 -21.823676 -53.637825
12.061958 -21.669809 -61.101894
10.396107 -21.774474 -53.999208
8.140112 -21.916218 -38.526425
9.978484 -21.800713 -12.878230
9.933967 -21.803510 -45.649842
4.883701 -22.120817 -1.594496
12.005944 -21.673329 -37.063316
11.012276 -21.735761 -28.183209
6.731337 -22.004731 -54.464404
9.262489 -21.845699 -58.052904
9.190591 -21.850217 -27.658692
9.526586 -21.829106 -21.192981
8.964936 -21.864394 -37.991494
11.159271 -21.726525 -14.609440
5.635282 -22.073596 -57.087573
10.836352 -21.746814 -20.039991
6.815927 -21.999416 -29.343121
7.704032 -21.943617 -14.967908
9.403859 -21.836817 -54.408768
12.050430 -21.670534 -45.626788
8.930644 -21.866549 -20.744377
11.527430 -21.703394 -38.915895
5.034696 -22.111330 -16.529798
7.669612 -21.945779 -46.785361
11.003929 -21.736285 -6.660562
6.275313 -22.033383 -13.298463
8.920910 -21.867160 -34.469525
6.632500 -22.010941 -37.843741
8.250083 -21.909308 -53.727361
11.978448 -21.675056 -37.774240
7.752537 -21.940569 -16.640834
9.812969 -21.811113 -15.100273
8.293638 -21.906572 -59.009783
9.496825 -21.830976 -34.580966
9.025366 -21.860597 -2.837728
10.063523 -21.795370 -59.656336
7.217215 -21.974203 -13.246573
9.580972 -21.825689 -21.773435
9.721732 -21.816845 -28.403630
7.316687 -21.967953 -36.052631
10.543846 -21.765192 -17.291303
9.352142 -21.840066 2.782987
5.999155 -22.050734 -34.347882
12.047101 -21.670743 -54.819076
6.447320 -22.022575 -23.261093
7.707677 -21.943388 -49.108182
10.834542 -21.746928 -10.476901
8.066818 -21.920823 -15.368393
5.672729 -22.071243 -27.092867
9.718705 -21.817035 -33.911833
10.328243 -21.778738 -3.200114
8.963226 -21.864502 -60.980253
10.096168 -21.793319 -3.862199
10.696824 -21.755580 -38.160564
10.597408 -21.761827 0.275231
10.411850 -21.773485 -14.890417
5.531187 -22.080136 -41.643614
7.195934 -21.975540 -16.304653
9.233107 -21.847545 -4.584629
6.552573 -22.015962 -7.789584
8.860745 -21.870941 -54.761152
8.031651 -21.923032 -41.709418
6.409149 -22.024974 -17.971483
8.729209 -21.879205 -31.383912
11.777398 -21.687688 -15.397757
8.473347 -21.895281 -19.504101
10.245152 -21.783959 -49.426381
7.974731 -21.926609 -27.928687
5.321579 -22.093305 -33.408902
10.072184 -21.794826 -29.497020
5.685670 -22.070430 -39.406539
5.974792 -22.052264 -43.705385
6.655269 -22.009510 -12.893123
7.108119 -21.981058 -10.830980
11.100561 -21.730214 -58.649240
6.241555 -22.035504 -31.240477
10.934453 -21.740650 -26.263139
8.094833 -21.919063 -30.498169
7.457212 -21.959124 -45.842267
9.784814 -21.812882 -55.835756
5.829415 -22.061398 -39.925077
8.700818 -21.880989 -36.468804
8.864265 -21.870719 -25.177707
10.055891 -21.795850 -13.692914
7.182787 -21.976366 -22.131997
10.279852 -21.781779 -7.388597
10.019434 -21.798140 -42.893436
12.067599 -21.669455 -60.516440
11.390427 -21.712001 -10.521332
6.174914 -22.039691 -54.267324
8.112460 -21.917955 -5.355117
6.609620 -22.012378 -6.128007
11.316511 -21.716646 -61.100882
7.920154 -21.930038 3.221614
11.390001 -21.712028 -34.505959
5.388002 -22.089132 0.853934
10.493145 -21.768377 -58.315081
9.636192 -21.822219 -44.566455
5.995999 -22.050932 -18.931361
7.583716 -21.951176 -17.519771
10.707107 -21.754934 -2.176682
6.843011 -21.997714 -3.376072
8.303443 -21.905956 -35.910013
11.955185 -21.676518 -6.902882
11.809923 -21.685645 -58.405140
7.771359 -21.939386 -34.257749
10.169429 -21.788716 -7.931717
8.456358 -21.896348 -9.142090
5.748884 -22.066458 -16.788678
8.843834 -21.872003 -26.491557
4.871239 -22.121600 -19.684136
11.031524 -21.734551 -4.430827
5.641781 -22.073187 -3.436402
5.740052 -22.067013 -38.070436
7.509036 -21.955868 -30.457144
6.581964 -22.014116 -14.899438
9.086757 -21.856740 -31.885168
6.644391 -22.010194 -44.643162
5.839184 -22.060784 -1.272873
7.177221 -21.976716 -34.557555
4.802211 -22.125937 -20.597763
8.887931 -21.869233 -59.561403
7.405232 -21.962390 -29.876514
5.453362 -22.085026 -19.565091
11.757299 -21.688951 -0.694159
5.466148 -22.084222 -25.298735
11.826859 -21.684580 -48.886231
5.941456 -22.054359 -51.249111
11.969324 -21.675629 -59.226245
6.483224 -22.020320 -24.585293
11.849449 -21.683161 -39.404950
8.668414 -21.883025 3.237333
8.258646 -21.908770 -32.574825
4.792681 -22.126536 -19.155045
12.033005 -21.671628 -18.546648
6.716179 -22.005683 -61.085716
7.283345 -21.970048 -47.388467
6.683652 -22.007727 1.463917
8.558053 -21.889959 -25.633168
12.024669 -21.672152 -6.299413
9.249402 -21.846521 -16.675914
5.521318 -22.080756 -42.365188
4.941569 -22.117181 2.070692
8.058921 -21.921319 -51.654923
6.607187 -22.012531 -1.681963
4.832284 -22.124048 -48.045001
5.607590 -22.075335 -26.542797
7.022732 -21.986422 -49.248035
8.127901 -21.916985 -12.882396
10.110874 -21.792395 -19.070999
10.103392 -21.792865 -23.530877
5.642843 -22.073121 -55.350028
8.079812 -21.920006 0.633846
5.935734 -22.054718 -22.957258
10.159264 -21.789355 -40.003802
6.374123 -22.027174 -38.936583
7.759080 -21.940158 -51.068062
5.541725 -22.079474 -21.709417
4.899886 -22.119800 -36.726839
10.347428 -21.777533 -2.588375
11.027405 -21.734810 -19.508961
11.248343 -21.720928 3.192479
4.851662 -22.122830 -6.414374
7.280312 -21.970239 -33.590305
7.461039 -21.958884 -12.149400
7.878058 -21.932683 -34.848496
6.258227 -22.034456 -11.937984
11.442320 -21.708741 -35.624482
4.985150 -22.114443 -0.253490
8.957766 -21.864845 -28.760170
5.292337 -22.095143 -27.891553
8.061323 -21.921168 -10.832111
5.875569 -22.058498 -18.053261
9.901645 -21.805541 -45.120394
11.974777 -21.675287 -53.718602
8.151520 -21.915501 -57.400069
5.762596 -22.065596 -28.270962
11.006928 -21.736097 -43.727438
7.515960 -21.955433 -5.407300
5.352099 -22.091388 -43.736522
7.603203 -21.949952 -31.873391
8.299619 -21.906196 -31.904664
6.761665 -22.002825 -53.896224
7.468290 -21.958428 -0.401293
10.318152 -21.779372 -15.508526
7.179629 -21.976565 -44.559622
6.051314 -22.047456 1.764426
4.878173 -22.121165 3.505346
6.448930 -22.022474 -23.844962
8.418403 -21.898733 -3.645285
6.088621 -22.045112 -60.055582
9.691648 -21.818735 -6.999777
6.627198 -22.011274 -33.077881
10.337304 -21.778169 -34.165368
6.398936 -22.025615 -55.033798
11.457911 -21.707761 -23.194849
10.213756 -21.785931 -47.125189
11.152728 -21.726936 -7.216599
6.497406 -22.019429 3.212410
10.310726 -21.779839 -51.401635
10.942349 -21.740154 -41.684323
10.321351 -21.779171 -50.709559
7.119278 -21.980356 -0.918677
11.842618 -21.683590 -20.479786
10.132118 -21.791061 -26.712176
9.050603 -21.859012 -32.477841
10.965974 -21.738670 -36.364897
4.881932 -22.120928 -51.324007
8.520374 -21.892326 -50.168909
5.808684 -22.062701 -53.528165
6.008512 -22.050146 -6.455829
4.913413 -22.118950 -40.657631
9.809513 -21.811330 -43.521267
10.486656 -21.768785 -43.232140
10.374058 -21.775860 -4.494474
5.730530 -22.067611 -20.086865
4.970052 -22.115392 -46.064808
6.779032 -22.001734 3.712000
9.257986 -21.845982 -1.072638
4.972044 -22.115267 -21.892341
7.013130 -21.987026 -31.171989
5.896946 -22.057155 -32.034042
8.519088 -21.892407 -34.849830
8.925557 -21.866868 -41.956867
10.493042 -21.768384 -9.030791
6.791749 -22.000935 -0.406924
8.885149 -21.869407 3.839637
10.615676 -21.760679 -14.009450
4.917055 -22.118722 -2.319065
10.375794 -21.775750 -6.490180
11.199966 -21.723968 -20.886312
10.498006 -21.768072 -37.096352
7.551104 -21.953225 -27.521373
5.325285 -22.093073 -22.326667
7.829151 -21.935755 -54.890604
9.065128 -21.858099 -19.339948
8.361439 -21.902312 -43.255498
5.278371 -22.096020 1.476993
9.694213 -21.818574 -0.670964
10.299387 -21.780551 -10.638136
9.790816 -21.812505 -9.365580
6.955503 -21.990646 -3.975396
5.562675 -22.078157 -57.664041
4.980760 -22.114719 -9.342903
11.911778 -21.679245 -32.432589
11.456431 -21.707854 -7.776625
11.002637 -21.736366 -40.503188
10.073254 -21.794759 -56.667961
10.450403 -21.771063 -57.413792
9.061007 -21.858358 -39.415203
6.426630 -22.023875 -32.320694
9.990567 -21.799954 -54.527288
11.905900 -21.679614 -16.796090
4.809522 -22.125478 -56.216044
9.392855 -21.837508 -46.883936
5.329175 -22.092828 -49.620075
7.901498 -21.931210 -26.177881
10.939958 -21.740304 3.832183
8.866456 -21.870582 -22.980405
9.121298 -21.854570 -7.861250
9.583489 -21.825531 -55.114400
5.757834 -22.065896 -52.943396
9.762161 -21.814305 -27.717119
5.706652 -22.069111 -12.266726
9.817932 -21.810801 -4.847242
12.029357 -21.671858 -13.091704
9.502995 -21.830588 -29.712738
4.924560 -22.118250 -55.536934
5.441927 -22.085744 -20.723721
