-21.177802 3.259468 -47.640072
-21.353583 5.557669 -19.446162
-21.358698 5.624545 -25.486160
-21.461326 6.966323 -2.555029
-20.942744 0.186264 -57.715205
-21.156804 2.984934 -50.620141
-21.373204 5.814203 -7.031174
-21.260439 4.339882 -16.570960
-21.470813 7.090368 -27.261076
-21.153504 2.941784 -1.156313
-21.071122 1.864706 3.772005
-20.930124 0.021257 -20.380371
-21.349517 5.504502 -4.756708
-20.964512 0.470854 -49.374835
-21.038254 1.434975 -50.669887
-21.099292 2.233007 -45.184931
-21.301397 4.875378 -13.383471
-21.220542 3.818257 -24.424931
-21.415059 6.361424 -1.430306
-21.199905 3.548438 -45.435419
-21.175377 3.227755 -53.778688
-21.160731 3.036272 -4.818103
-20.949064 0.268883 -53.329261
-21.440021 6.687782 -18.838232
-21.454147 6.872463 -22.656849
-21.538522 7.975605 -41.625208
-21.180275 3.291797 -5.428749
-21.222373 3.842198 -17.701542
-21.013499 1.111325 -13.882842
-21.510300 7.606630 -29.301860
-21.417412 6.392186 -49.438784
-21.453706 6.866695 -33.528712
-21.029375 1.318889 -4.779309
-21.218840 3.796002 -53.259225
-21.019017 1.183468 -18.155725
-21.048338 1.566822 -19.155229
-21.127341 2.599730 -12.768934
-20.994088 0.857545 -3.433221
-21.483210 7.252443 -42.967744
-21.532166 7.892510 -16.847898
-21.504167 7.526435 -8.180053
-21.025307 1.265706 -51.636844
-21.410314 6.299389 0.814686
-21.538846 7.979839 -47.758227
-21.413060 6.335284 -37.627056
-21.159743 3.023352 -34.496677
-21.100395 2.247428 2.802594
-21.010431 1.071219 -36.287739
-21.075500 1.921947 -12.794507
-21.054334 1.645218 -33.968334
-21.043191 1.499531 -22.270652
-21.446793 6.776316 2.349572
-21.228583 3.923382 -55.261079
-21.153789 2.945510 -45.059905
-21.339490 5.373406 -44.016250
-20.926361 -0.027943 -12.922377
-21.298809 4.841544 -57.528678
-21.378161 5.879008 2.045340
-21.089111 2.099896 -53.386084
-20.930547 0.026793 -21.379949
-21.478265 7.187797 -38.452878
-21.483593 7.257451 -15.234331
-21.359862 5.639755 -22.299361
-20.986953 0.764255 -43.355013
-21.475596 7.152902 -39.918737
-21.407581 6.263646 -13.319779
-21.346128 5.460204 -43.170722
-21.465604 7.022257 -42.207740
-21.292157 4.754565 -10.137220
-21.019764 1.193234 -34.500472
-21.525015 7.799017 -42.267889
-21.105655 2.316191 -1.090967
-21.389913 6.032655 -46.147808
-21.065168 1.786858 -29.864040
-20.948714 0.264310 -26.412999
-20.979866 0.671602 -58.197948
-21.331828 5.273239 -47.355904
-21.248949 4.189663 -9.724997
-21.069264 1.840413 -27.455867
-21.087031 2.072708 -5.992307
-21.190468 3.425060 -46.214306
-21.303934 4.908542 -16.050220
-21.017610 1.165078 -53.001528
-21.253158 4.244691 -53.919227
-21.014026 1.118221 -35.466239
-21.310154 4.989860 -22.687203
-21.491608 7.362243 -12.609260
-21.361995 5.667648 -40.377600
-21.346293 5.462357 -8.783643
-21.164874 3.090443 -19.697774
-21.032895 1.364920 -60.997062
-21.349113 5.499231 -39.533176
-21.223488 3.856769 -20.986256
-21.446876 6.777401 -48.741907
-21.364986 5.706758 -2.009265
-21.191010 3.432145 -27.291602
-21.245221 4.140911 -58.691472
-21.159146 3.015555 -10.096519
-21.508752 7.586385 -57.268762
-21.112616 2.407203 -5.481247
-21.259928 4.333198 -22.782289
-21.338569 5.361375 -54.261914
-21.436991 6.648169 -26.655985
-21.261095 4.348452 -36.424802
-21.066380 1.802703 1.298063
-20.991862 0.828442 -21.768732
-21.146522 2.850503 -23.866380
-21.257960 4.307474 -17.256618
-21.180124 3.289823 -19.137052
-21.486334 7.293286 -37.656133
-21.102141 2.270249 -46.746699
-21.539167 7.984043 -5.400033
-21.150644 2.904395 -30.921439
-20.987477 0.771110 -30.139858
-21.439000 6.674428 -44.323686
-21.071117 1.864640 -58.637365
-21.160179 3.029055 1.026372
-21.166454 3.111100 -36.989713
-21.151547 2.916206 -6.011854
-21.330832 5.260219 -1.223220
-20.921240 -0.094885 -39.619322
-20.919569 -0.116738 -41.316353
-21.057994 1.693066 -1.366801
-20.990964 0.816697 -17.619196
-21.192092 3.446300 -11.198948
-21.457483 6.916078 -29.450714
-20.973464 0.587902 -2.772557
-21.123406 2.548282 -52.157273
-20.995015 0.869658 -7.065983
-21.355348 5.580745 -17.114822
-21.170197 3.160034 -28.476360
-21.512192 7.631360 -30.311151
-21.252402 4.234804 -43.150428
-21.479742 7.207095 -27.961553
-21.298109 4.832386 -4.707930
-21.320020 5.118859 3.354479
-21.049884 1.587032 -41.095838
-21.037422 1.424107 -59.105883
-21.260306 4.338142 -52.622895
-21.522406 7.764907 0.645064
-21.538381 7.973767 -6.066021
-20.932190 0.048272 -10.281219
-20.919148 -0.122245 -17.292922
-21.527856 7.836162 -52.736217
-21.042060 1.484744 -17.071998
-20.965155 0.479261 -37.139204
-21.228122 3.917367 -26.974204
-21.431162 6.571958 -11.199256
-21.242618 4.106880 -58.039725
-20.925932 -0.033547 -56.221003
-20.927956 -0.007087 -7.589863
-21.395074 6.100126 -0.821690
-21.257975 4.307667 -45.343873
-21.041748 1.480662 -33.324336
-21.526903 7.823695 -15.003767
-21.272631 4.499278 -27.417603
-20.960504 0.418460 -37.832768
-21.385016 5.968631 -49.881277
-20.922995 -0.071946 -61.050703
-21.132760 2.670575 -11.225915
-20.919466 -0.118090 -60.181646
-21.203309 3.592956 -59.316292
-21.414938 6.359845 -59.875786
-21.281255 4.612036 -51.319392
-21.504115 7.525767 3.785257
-21.067995 1.823826 -17.827837
-21.319287 5.109277 -40.249805
-21.409262 6.285625 -32.489476
-21.085348 2.050699 -61.028454
-21.044395 1.515269 -24.890738
-21.462161 6.977240 -54.455829
-21.522859 7.770826 -19.783129
-21.291336 4.743835 -7.609491
-20.988207 0.780653 -56.429102
-21.093662 2.159401 -19.246710
-21.004297 0.991016 -9.840624
-21.537872 7.967107 -32.723077
-21.065375 1.789562 -2.092004
-21.155122 2.962943 -33.864267
-21.193425 3.463721 -58.152218
-21.278753 4.579329 -11.736376
-21.175054 3.223541 -48.721495
-20.921353 -0.093417 -23.568990
-21.505438 7.543060 -52.073459
-21.376105 5.852130 -38.160794
-21.030852 1.338208 -15.035967
-21.068803 1.834386 -55.999156
-21.318000 5.092441 -42.435869
-21.361252 5.657930 -16.071748
-21.493744 7.390169 -58.463349
-21.393071 6.073947 -10.571418
-21.258974 4.320724 -5.046570
-21.057161 1.682179 -58.077394
-21.405425 6.235458 -16.288877
-21.409255 6.285532 -51.593216
-21.450367 6.823044 -59.394124
-20.982124 0.701116 -46.802035
-21.049342 1.579952 1.815926
-21.394610 6.094071 -59.247881
-21.311520 5.007727 -4.145465
-20.992214 0.833044 -60.588343
-21.131656 2.656135 -2.118227
-21.323403 5.163087 -59.370397
-21.397662 6.133973 -47.396800
-21.495126 7.408238 -35.297304
-20.992089 0.831407 -10.875730
-21.268657 4.447331 -18.089288
-21.476532 7.165134 -31.328219
-20.937999 0.124227 -34.616950
-21.043115 1.498530 -27.965840
-20.950974 0.293858 -46.146161
-21.188114 3.394284 -41.359518
-21.240918 4.084657 -25.438112
-20.965729 0.486769 -8.829394
-21.403410 6.209125 2.766788
-21.025815 1.272347 -55.831171
-21.187158 3.381792 -2.200191
-20.918789 -0.126936 -44.191302
-21.477012 7.171409 -55.020423
-21.388386 6.012685 -27.215791
-21.108495 2.353328 -33.838476
-21.440592 6.695245 -0.450489
-21.420278 6.429652 -35.382276
-21.525242 7.801985 -40.281713
-21.428700 6.539770 -29.970740
-21.001173 0.950177 -8.361016
-21.101918 2.267343 -18.411583
-21.012696 1.100822 -11.786649
-21.145303 2.834570 -7.686968
-21.499244 7.462079 -59.123640
-21.206128 3.629802 -50.850083
-20.930855 0.030815 -27.241723
-21.086767 2.069247 -12.004971
-21.161453 3.045715 3.870752
-21.457501 6.916316 -7.417674
-21.373508 5.818167 -44.551196
-21.481830 7.234397 -47.998689
-21.397337 6.129725 -24.977241
-21.497497 7.439232 -47.414714
-21.358322 5.619632 -32.810660
-21.279626 4.590740 -21.737323
-21.337139 5.342670 -31.611210
-21.104090 2.295740 -16.282602
-21.325344 5.188466 -27.593401
-20.952030 0.307670 -22.817149
-21.030887 1.338661 -6.212148
-21.369522 5.766064 -57.539002
-21.028979 1.313717 -49.893139
-21.420611 6.434011 -5.553021
-21.231279 3.958636 -60.852666
-20.940668 0.159121 -31.075937
-21.295757 4.801633 -52.994554
-21.043696 1.506128 -46.874873
-21.211517 3.700262 -33.738230
-21.087435 2.077982 -40.714662
-21.047959 1.561867 -21.563147
-21.139834 2.763067 -31.542726
-20.919533 -0.117213 -24.418319
-21.045801 1.533645 -47.877774
-21.346448 5.464379 -9.630577
-21.213942 3.731965 -8.419319
-21.135337 2.704261 -15.156806
-21.210520 3.687226 -32.155636
-21.174263 3.213199 -58.714349
-21.013352 1.109402 -49.253990
-21.512611 7.636836 -10.520443
-21.410335 6.299659 -41.770343
-21.348497 5.491172 -6.380006
-21.315411 5.058604 -56.442481
-20.938325 0.128479 -45.407174
-20.920809 -0.100523 0.085584
-21.059031 1.706618 -30.488575
-21.486056 7.289659 -0.573993
-21.237769 4.043483 -41.493142
-21.329229 5.239261 -55.378014
-21.117324 2.468755 -53.814648
-21.528889 7.849661 -31.172133
-21.266970 4.425274 -5.850220
-21.171491 3.176953 -38.653491
-21.279593 4.590305 -50.609504
-20.937597 0.118968 -1.108464
-21.055693 1.662984 -44.927344
-21.525657 7.807400 -21.277853
-21.370402 5.777565 -29.451675
-21.125833 2.580004 -57.148106
-20.919491 -0.117760 -19.520166
-21.475700 7.154262 -28.901631
-21.294507 4.785297 -53.701909
-21.475322 7.149309 -14.527729
-20.935803 0.095515 -6.397325
-21.367438 5.738809 0.753987
-21.370661 5.780954 -27.907894
-21.464049 7.001926 -49.816186
-21.291605 4.747359 -43.671392
-20.991118 0.818716 -16.441248
-21.375289 5.841452 -22.830762
-21.231441 3.960756 -32.661736
-20.923532 -0.064922 -56.961258
-21.474152 7.134021 -30.011810
-21.151976 2.921804 -8.423976
-21.473453 7.124880 -57.852308
-21.240700 4.081812 -7.178277
-21.203456 3.594876 -49.225266
-21.390345 6.038308 -15.549688
-21.538134 7.970539 -8.600603
-21.161947 3.052168 1.725728
-21.520382 7.738435 -4.456109
-20.984068 0.726539 -50.560079
-21.000335 0.939223 -38.206464
-21.094273 2.167383 -7.695029
-21.066165 1.799897 -60.284537
-20.976020 0.621322 -4.342720
-21.139618 2.760237 -11.939986
-21.455269 6.887137 -46.810741
-21.025535 1.268688 -19.689866
-21.210390 3.685525 -36.828600
-21.367926 5.745196 -46.660976
-21.082000 2.006920 -54.496499
-21.112160 2.401240 -7.164365
-21.002241 0.964142 -26.597565
-20.966867 0.501654 -27.618853
-21.086482 2.065528 -3.351286
-21.211834 3.704408 -54.252769
-21.054735 1.650453 -55.211748
-20.929510 0.013233 -25.740251
-21.494637 7.401843 -36.228876
-21.435070 6.623046 -40.994483
-21.342535 5.413218 -10.959821
-20.967677 0.512235 -36.524901
-21.320219 5.121465 -30.931984
-21.430501 6.563316 -27.683707
-21.021693 1.218461 -13.133035
-21.000815 0.945491 -28.800792
-21.431204 6.572499 -16.804322
-20.923162 -0.069757 -58.940328
-20.940564 0.157754 1.456632
-21.054333 1.645200 -36.169458
-21.205601 3.622914 -51.413758
-21.222665 3.846013 -44.320650
-21.034329 1.383663 -0.370824
-21.232744 3.977788 -30.132383
-21.391077 6.047869 -9.844975
-21.412268 6.324936 -58.134553
-21.179174 3.277408 -49.901404
-21.393811 6.083617 -35.881018
-21.414446 6.353402 -21.045713
-21.216790 3.769197 0.403921
-21.068037 1.824375 -46.263371
-20.969515 0.536268 -29.349403
-21.303595 4.904108 2.703615
-21.391433 6.052523 -9.287237
-21.487536 7.309008 -56.522760
-21.515114 7.669566 -11.925151
-21.535821 7.940290 -1.707204
-20.918045 -0.136664 -3.798151
-21.276990 4.556270 -1.261064
-21.316764 5.076287 -8.242144
-21.137662 2.734658 -21.882508
-21.187959 3.392262 -54.746953
-21.110841 2.383996 -28.049219
-21.525430 7.804443 -0.955959
-21.125420 2.574616 -21.214605
-21.463551 6.995420 -13.687266
-21.228580 3.923350 -45.889304
-21.091346 2.129117 -3.986152
-21.466793 7.037797 -3.895426
-21.353919 5.562064 -56.055603
-21.187333 3.384080 -60.432962
-21.318621 5.100564 -28.201311
-21.423184 6.467650 -39.514007
-21.436704 6.644414 -36.179781
-21.340959 5.392618 -3.684300
-21.466408 7.032768 -51.398072
-21.201912 3.574681 -9.815720
-21.539209 7.984583 -22.987543
-21.097605 2.210952 -55.319344
-21.468224 7.056519 -55.852561
-20.978928 0.659333 -18.541547
-21.145497 2.837105 -61.044047
-21.154965 2.960884 -25.002289
-21.091272 2.128151 -17.027766
-21.440964 6.700112 -17.952497
-21.534247 7.919717 -60.387593
-21.432240 6.586044 -50.230095
-21.324763 5.180872 -50.903281
-21.246627 4.159301 -22.187898
-21.042327 1.488233 -5.418782
-21.342522 5.413051 -47.907522
-21.293752 4.775424 -37.398144
-21.058203 1.695800 -52.488859
-21.092771 2.147751 -14.318586
-21.418454 6.405805 -54.907101
-21.015069 1.131852 -37.472082
-21.150967 2.908618 -39.200055
-21.306508 4.942196 -59.978894
-21.053240 1.630912 -40.012448
-21.159010 3.013778 -42.760235
-21.197739 3.520121 -25.242241
-21.322362 5.149473 -34.382836
-21.214022 3.733012 1.999471
-21.135891 2.711515 -0.362158
-20.956990 0.372513 3.508958
-21.271392 4.483079 2.039091
-21.314690 5.049168 -19.181279
-21.364355 5.698498 -23.921180
-21.198603 3.531420 -15.263788
-21.115844 2.449405 3.497469
-21.530647 7.872652 -17.885436
-21.168805 3.141830 -14.708793
-21.371291 5.789190 -18.052698
-21.032243 1.356396 -14.461264
-21.041357 1.475550 -7.123987
-21.365697 5.716055 -41.170632
-21.137098 2.727284 -43.926875
-21.411852 6.319495 -34.204136
-21.287480 4.693423 -48.072926
-21.311580 5.008508 1.351859
-21.537054 7.956410 -26.018938
-21.177051 3.249642 -59.872871
-21.296470 4.810954 -42.957693
-20.926973 -0.019937 -29.011613
-21.023533 1.242514 -1.717507
-21.328281 5.226864 2.192326
-21.411826 6.319149 -24.208430
-21.458811 6.933450 -52.053743
-21.289029 4.713676 3.803479
-20.924922 -0.046747 -14.311065
-21.060334 1.723653 -16.500963
-21.148996 2.882845 -57.731102
-21.489353 7.332760 -18.584820
-21.510944 7.615040 -61.048431
-21.192915 3.457053 -26.523297
-21.273762 4.514067 -26.049775
-20.974015 0.595107 -39.584237
-21.421294 6.442942 -25.611811
-21.094964 2.176416 -26.713881
-21.259381 4.326046 -8.061848
-21.537766 7.965721 -35.070454
-20.971343 0.560171 -0.493226
-21.500907 7.483823 -59.816430
-21.183126 3.329074 -56.794448
-21.030576 1.334600 -43.571074
-21.191532 3.438970 -34.945766
-21.416993 6.386704 -13.914608
-21.067288 1.814579 -9.502628
-21.324824 5.181667 -29.239203
-21.359667 5.637217 -0.387802
-21.221081 3.825301 -0.923831
-21.369257 5.762593 -35.395533
-20.920264 -0.107657 -36.769677
-20.978509 0.653863 -19.575731
-21.098350 2.220696 -39.848943
-20.926537 -0.025631 -32.219978
-21.011511 1.085334 -47.408097
-21.176503 3.242477 -44.324201
-21.331939 5.274688 -57.031123
-21.108390 2.351958 -50.771405
-21.102282 2.272095 -39.216839
-21.316200 5.068912 -49.142997
-20.991964 0.829769 -1.238162
-21.111137 2.387869 1.681128
-21.288165 4.702374 -8.779189
-21.157878 2.998968 -41.854575
-21.534595 7.924264 -29.776903
-20.919844 -0.113140 -55.456774
-21.449773 6.815281 -47.395306
-21.207657 3.649795 1.058443
-21.076233 1.931524 -37.372545
-21.127930 2.607424 -48.424966
-21.301891 4.881831 -9.414967
-21.285814 4.671637 -38.712423
-21.089268 2.101953 -35.824815
-21.005467 1.006321 -23.269344
-21.424126 6.479971 -28.303047
-21.149254 2.886224 -14.018105
-21.363252 5.684084 -26.763802
-21.532540 7.897396 -25.410011
-21.176740 3.245576 -3.750329
-21.416900 6.385485 -21.641910
-20.929501 0.013116 -13.711658
-21.183987 3.340322 -22.291595
-21.203426 3.594478 2.623286
-21.411208 6.311066 -2.646930
-21.407804 6.266561 -4.126919
-21.191999 3.445078 -39.586309
-20.976678 0.629919 -12.353333
-21.005252 1.003509 -44.575161
-21.193229 3.461158 -31.606265
-21.424088 6.479462 -12.391775
-21.217824 3.782728 -13.987344
-21.469108 7.068069 -19.469513
-21.411288 6.312120 -36.904031
-21.012110 1.093160 -29.632276
-21.356501 5.595815 -58.763495
-21.215092 3.747003 -37.530107
-20.920811 -0.100498 -4.639833
-21.119344 2.495174 -27.463019
-21.259825 4.331856 -4.228362
-21.432743 6.592621 -20.390923
-21.397999 6.138375 -48.098204
-21.534713 7.925805 -44.873500
-21.409441 6.287964 -19.791779
-21.412385 6.326459 -3.432586
-21.088704 2.094580 -59.615466
-21.214790 3.743050 -5.900686
-20.981019 0.686669 -51.188916
-21.216962 3.771452 -34.424120
-21.043033 1.497455 -41.762023
-21.087619 2.080391 -41.687108
-21.052637 1.623022 3.069286
-21.082646 2.015367 0.188484
-20.919228 -0.121191 -2.465553
-21.535885 7.941134 -58.086335
-21.119658 2.499270 -37.104231
-21.182867 3.325682 -10.636496
-20.919462 -0.118138 0.819024
-20.964632 0.472431 -23.664556
-21.151681 2.917954 -49.354202
-20.982371 0.704351 -57.119867
-21.491284 7.358009 -16.219353
-21.362761 5.677658 -5.522290
-21.281099 4.609992 -34.173122
-21.128393 2.613481 -17.435737
-21.070323 1.854252 -31.064909
-21.470046 7.080336 -5.606137
-21.154955 2.960763 2.377811
-21.420753 6.435869 -11.790254
-21.236702 4.029538 -11.488483
-21.326833 5.207938 -46.126400
-20.919826 -0.113380 -49.267792
-21.116514 2.458169 -47.413667
-21.367295 5.736937 -49.337759
-20.927928 -0.007444 -18.385763
-21.535152 7.931547 -12.602150
-21.350108 5.512241 -10.230192
-21.174118 3.211296 -30.137760
-20.920267 -0.107611 -42.410817
-21.151300 2.912973 -37.738826
-21.433276 6.599600 -58.666451
-20.965001 0.477255 -48.719629
-21.330356 5.253997 -17.799256
-21.282765 4.631781 -58.348869
-21.407810 6.266643 -53.634712
-20.948503 0.261555 -35.563422
-21.005452 1.006115 -20.704632
-21.343107 5.420705 -45.156415
-20.926917 -0.020672 -47.110711
-21.485030 7.276242 -53.916399
-21.381063 5.916943 -28.753403
-21.334806 5.312173 -33.340280
-21.486739 7.298578 -17.445102
-20.949559 0.275363 -30.447856
-21.394888 6.097701 -6.256621
-21.327914 5.222064 -11.602305
-20.933147 0.060780 -16.601622
-21.535836 7.940493 -54.333568
-21.307726 4.958116 -20.308875
-21.213403 3.724915 -18.398084
-21.270443 4.470680 -3.034057
-21.016469 1.150156 -48.638892
-21.218686 3.793995 -29.470386
-21.400143 6.166399 -7.534642
-21.416256 6.377065 -22.262565
-21.250479 4.209656 -6.502915
-21.073492 1.895688 -32.489904
-21.224606 3.871394 -28.574282
-21.012197 1.094305 -39.058412
-21.384214 5.958151 -48.722254
-21.314273 5.043720 -18.574743
-21.210945 3.692779 -48.037529
-21.372719 5.807864 -30.997553
-21.282725 4.631248 -35.778396
-21.056367 1.671799 -20.919554
-20.940474 0.156574 -43.572684
-21.121299 2.520735 -25.958763
-21.465927 7.026475 -8.673267
-21.472248 7.109119 -52.772223
-21.070890 1.861666 -48.504367
-21.153707 2.944436 -2.648431
-21.225802 3.887022 -23.286672
-21.358104 5.616775 -13.559949
-21.173769 3.206732 -25.969847
-21.205982 3.627895 -42.099401
-20.958742 0.395417 -44.792627
-21.135770 2.709932 -59.521039
-21.365324 5.711177 -21.005544
-21.422443 6.457962 -23.151495
-21.105180 2.309984 -13.439377
-20.937251 0.114446 -54.701223
-21.173920 3.208712 -9.043630
-21.124544 2.563161 -41.361697
-21.089655 2.107011 -56.492649
-20.967585 0.511030 -11.436694
-21.269598 4.459628 -24.474137
-21.363861 5.692040 -41.931602
-21.006056 1.014017 2.721504
-21.303626 4.904517 -6.784856
-21.288544 4.707327 -23.304843
-21.014422 1.123394 -52.291376
-21.197485 3.516809 -6.980611
-21.002573 0.968476 -40.772608
-21.431535 6.576832 -53.050971
-21.082166 2.009094 -4.906149
-21.447534 6.786009 -7.967969
-20.941505 0.170065 -40.719925
-21.083243 2.023179 -22.688298
-21.397710 6.134592 -52.502730
-21.529939 7.863386 -42.901124
-21.224660 3.872094 -4.586407
-21.231751 3.964807 -46.465898
-21.072356 1.880838 -57.323180
-21.108828 2.357688 -20.158049
-21.149630 2.891143 -9.503322
-21.448483 6.798414 -13.016098
-21.427011 6.517689 -38.192239
-20.992470 0.836393 -22.429146
-21.489542 7.335233 -26.379402
-21.153866 2.946519 -18.028092
-21.281381 4.613675 -55.399186
-20.933277 0.062485 -52.302315
-20.922799 -0.074512 -5.605864
-21.256586 4.289512 2.931429
-21.283081 4.635910 -25.204617
-21.004073 0.988087 -25.267099
-21.298477 4.837193 -23.967029
-21.114297 2.429189 -30.505482
-21.281285 4.612428 -33.298183
-21.418543 6.406975 -54.250402
-21.457760 6.919703 -25.085016
-20.970674 0.551419 -44.118650
-20.922166 -0.082782 -8.361656
-21.126631 2.590447 -3.574456
-21.416081 6.374786 -30.717118
-21.526436 7.817593 -33.339401
-20.980393 0.678484 -6.519522
-21.414764 6.357563 -45.076730
-21.539457 7.987834 -6.841947
-21.523339 7.777098 -14.237254
-21.456928 6.908828 -34.126589
-21.223011 3.850544 -59.969018
-21.519295 7.724221 1.573576
-21.237752 4.043262 -57.332859
-21.165058 3.092852 -6.557414
-21.536234 7.945694 -13.204898
-21.246390 4.156200 -19.112637
-20.918939 -0.124973 -50.672513
-21.159741 3.023324 -40.847342
-21.239439 4.065325 -40.443413
-21.212701 3.715746 -47.160310
-20.979952 0.672724 -20.167243
-21.513541 7.649002 -50.841507
-21.370963 5.784900 3.541507
-21.478267 7.187819 0.776281
-20.917627 -0.142121 -14.891259
-21.506442 7.556186 -43.552197
-20.928910 0.005388 -11.034835
-21.286898 4.685812 -10.726193
-21.510742 7.612401 -7.327992
-21.536343 7.947116 -36.577545
-21.129178 2.623740 -22.995232
-21.532581 7.897938 -27.421666
-21.378791 5.887243 -14.275172
-21.455150 6.885582 -40.418246
-21.455405 6.888915 -1.140182
-21.091240 2.127727 -2.615279
-21.415635 6.368948 -42.793864
-21.051068 1.602515 -8.281957
-21.338902 5.365722 -12.712200
-21.322006 5.144825 -61.116371
-21.215762 3.755763 -20.313260
-21.043668 1.505759 -26.708431
-20.922280 -0.081287 -36.073923
-21.330348 5.253886 -24.456285
-21.216363 3.763622 -7.749841
-21.335151 5.316683 -38.422034
-21.308680 4.970597 -54.781940
-21.241413 4.091132 -31.643129
-21.103721 2.290915 -52.806090
-21.395273 6.102732 -4.959236
-21.057688 1.689067 -25.505418
-21.487530 7.308925 -20.184709
-21.330495 5.255813 -35.972775
-21.101215 2.258144 -38.236343
-21.198592 3.531281 -17.019379
-21.101883 2.266882 -28.751152
-21.233935 3.993361 -39.187419
-21.204036 3.602451 -13.278737
-20.959128 0.400462 -4.963003
-21.070465 1.856115 -26.096589
-21.273938 4.516373 -3.636781
-21.512553 7.636084 -19.156254
-21.273672 4.512898 -40.954529
-21.340202 5.382717 -15.234627
-21.309377 4.979711 -5.997679
-21.135242 2.703028 -45.637257
-21.361887 5.666233 1.420121
-21.375710 5.846958 -12.033905
-21.265680 4.408399 -56.772972
-20.955793 0.356862 -25.049160
-21.177456 3.254938 -52.135320
-21.000612 0.942836 -33.028680
-21.107686 2.342756 -58.947367
-21.537156 7.957744 -40.958069
-21.176483 3.242222 -21.522715
-21.399746 6.161217 -43.611011
-21.525081 7.799875 -0.139114
-21.430323 6.560981 -34.822320
-21.159302 3.017595 -55.372444
-20.982590 0.707218 -54.002672
-20.927315 -0.015466 -38.391591
-21.501889 7.496659 -45.651594
-21.539439 7.987590 3.367386
-21.076558 1.935778 -6.544182
-21.354853 5.574277 -60.069970
-21.268797 4.449156 -44.515522
-20.936510 0.104760 -54.133354
-21.256523 4.288687 -35.265271
-21.438274 6.664944 0.261089
-21.215238 3.748917 -14.648151
-21.502774 7.508226 -46.364957
-21.063212 1.761293 -13.811393
-21.149860 2.894140 -26.462984
-20.920909 -0.099221 -43.017339
-21.266795 4.422977 -49.099731
-21.517127 7.695881 -24.659417
-21.142628 2.799589 -16.745735
-21.263207 4.376075 -14.471587
-21.082663 2.015588 -10.982377
-21.497392 7.437863 -49.371994
-21.510428 7.608302 -39.108650
-20.921813 -0.087396 -37.441878
-21.371599 5.793216 -34.677987
-21.520993 7.746423 -34.239505
-21.142487 2.797748 -46.219083
-21.167544 3.125348 -53.191496
-21.311671 5.009696 -16.770542
-21.537126 7.957352 -3.605055
-21.085503 2.052722 -50.210894
-21.340994 5.393077 -37.742760
-21.417237 6.389894 -8.706225
-21.190452 3.424849 -55.951291
-21.189192 3.408377 -23.679920
-21.472165 7.108034 -21.162262
-21.193650 3.466662 -36.069976
-21.253669 4.251368 -37.788110
-21.530066 7.865050 -11.077244
-20.990952 0.816547 -15.415062
-21.331593 5.270170 -37.049171
-21.444336 6.744201 -9.520601
-21.262413 4.365689 -29.612531
-20.991018 0.817401 -58.826202
-21.456608 6.904645 1.298041
-21.291371 4.744296 -55.947659
-21.521376 7.751439 -31.972777
-21.453036 6.857939 -43.578202
-21.124248 2.559288 -43.357844
-21.488010 7.315202 -3.244852
-21.531644 7.885678 -20.524099
-20.924626 -0.050625 -29.906698
-21.302022 4.883548 -45.590859
-21.269840 4.462793 -15.425171
-20.936467 0.104195 -49.946022
-21.527092 7.826167 -9.186959
-20.985432 0.744366 -49.926959
-21.525463 7.804873 -38.384907
-21.086663 2.067897 -21.890862
-20.973112 0.583296 -51.947416
-21.471466 7.098903 -30.619872
-21.253533 4.249596 -12.894493
-21.191716 3.441379 -1.570542
-21.191098 3.433301 -33.103272
-21.119644 2.499088 -29.796419
-21.242865 4.110119 -56.056055
-21.294880 4.790169 -2.495256
-21.430565 6.564154 -2.033749
-21.239361 4.064303 -38.545379
-21.329542 5.243354 -52.509119
-21.099925 2.241278 -8.285237
-21.102452 2.274325 -49.168391
-21.121880 2.528323 -33.198360
-21.125527 2.576011 -49.864929
-20.923152 -0.069897 -12.196341
-21.157396 2.992672 3.097023
-21.368070 5.747080 -36.450982
-21.432023 6.583210 -31.364615
-20.918280 -0.133587 -58.266521
-20.982975 0.712254 -54.762115
-21.190853 3.430099 -57.420604
-21.098798 2.226545 -23.550892
-21.183986 3.340312 -0.066387
-21.221550 3.831440 -12.136633
-21.303566 4.903736 -41.871024
-21.280868 4.606976 0.389242
-21.105288 2.311396 -44.516949
-21.264341 4.390895 -59.570086
-21.270819 4.475592 -21.027822
-21.061702 1.741547 -35.336179
-21.247096 4.165426 1.362923
-21.145576 2.838128 -18.764580
-21.266478 4.418831 -49.830767
-21.212166 3.708742 -52.531536
-21.285171 4.663237 -47.337419
-21.396695 6.121319 -39.996841
-21.351526 5.530776 2.688345
-21.010173 1.067837 -7.655538
-21.462544 6.982253 -4.604872
-21.098732 2.225684 -42.882181
-21.009759 1.062425 -27.383808
-21.248533 4.184223 3.491295
-21.129549 2.628590 -24.479642
-21.380888 5.914655 -30.117807
-20.997193 0.898136 -9.224878
-21.159953 3.026102 -20.468515
-21.333878 5.300036 -51.553893
-21.266445 4.418409 -13.826385
-21.147675 2.865581 -36.340578
-21.159020 3.013906 -51.460613
-20.920221 -0.108216 2.854212
-21.308173 4.963967 -12.284773
-20.924556 -0.051534 -47.887214
-21.538801 7.979260 -15.651412
-20.999069 0.922667 -57.653583
-21.070623 1.858174 -51.894946
-21.141142 2.780157 -56.089600
-21.441636 6.708894 3.360096
-21.040962 1.470381 -45.566964
-21.468747 7.063350 -11.837956
-21.494657 7.402108 -34.712530
-20.944519 0.209464 -39.023346
-21.106920 2.332733 -51.509687
-21.485385 7.280878 -11.082503
-21.367510 5.739750 -45.637747
-20.966210 0.493056 -17.120201
-20.999416 0.927202 -32.278640
-21.487850 7.313108 -25.701983
-20.974303 0.598865 -25.799294
-21.041345 1.475392 -3.336621
-21.334366 5.306422 -23.263257
-21.523132 7.774389 2.630866
-20.966392 0.495443 -34.169793
-21.290072 4.727314 -51.987272
-20.974017 0.595135 -40.213381
-21.192616 3.453146 -40.399700
-21.391743 6.056583 -57.001135
-21.301943 4.882521 -60.578528
-21.521218 7.749363 -22.023821
-21.056698 1.676120 -36.783764
-21.499448 7.464740 -23.358155
-20.918096 -0.135997 3.853048
-21.428006 6.530696 -6.918552
-21.056700 1.676151 -28.528213
-20.934394 0.077092 -51.478781
-21.369578 5.766787 -34.046131
-21.534563 7.923846 -28.390054
-21.530425 7.869742 -55.207316
-21.527628 7.833173 -23.909361
-21.234952 4.006661 -10.457037
-20.994350 0.860965 -5.403310
-21.529390 7.856208 -2.535872
-21.394727 6.095596 -14.938229
-21.314166 5.042322 -20.868776
-20.944560 0.209997 -1.920801
-21.220277 3.814788 -2.852739
-21.418173 6.402128 -60.808319
-21.382534 5.936177 -18.848067
-21.226460 3.895630 -15.801192
-20.936951 0.110516 -9.314044
-21.030527 1.333951 -56.717824
-20.971860 0.566922 2.334561
-21.127380 2.600239 -58.254953
-21.319974 5.118252 -35.220864
-21.319490 5.111930 -25.864650
-21.192343 3.449571 -22.849103
-21.452637 6.852727 -57.026670
-21.035148 1.394374 -12.388624
-21.071624 1.871262 -43.919682
-21.244265 4.128421 -0.134428
-21.043400 1.502266 -11.239103
-20.964949 0.476574 -28.194607
-21.097436 2.208737 -10.043485
-21.097934 2.215252 -25.009152
-21.308197 4.964283 -0.558295
-21.080954 1.993251 -29.250437
-20.965122 0.478832 -14.768562
-21.039665 1.453428 -20.247751
-20.988074 0.778920 -59.956454
-21.291089 4.740609 -31.880134
-21.344519 5.439167 -2.721089
-21.253979 4.255421 -42.247032
-21.476738 7.167821 -16.814385
-20.968702 0.525642 -55.669344
-21.469769 7.076712 -24.339789
-21.407934 6.268269 -33.612178
-20.975469 0.614119 -33.531321
-21.232714 3.977403 -30.928941
-21.252663 4.238222 -23.898419
-20.927336 -0.015195 -33.090775
-21.495242 7.409754 -9.734100
-21.136145 2.714828 0.376386
-21.030299 1.330979 0.773728
-21.194580 3.478824 -38.124175
-21.240595 4.080439 -43.738959
-21.249159 4.192403 -2.322601
-21.349145 5.499644 -50.242943
-21.319350 5.110100 -13.934101
-21.000534 0.941815 1.762395
-21.016797 1.154442 3.665343
-21.460072 6.949929 -35.639034
-21.074409 1.907673 -24.196262
-20.919514 -0.117457 -15.540135
-20.973335 0.586212 0.485744
-21.432222 6.585815 -15.240393
-21.047834 1.560226 -23.552822
-21.359222 5.631392 -7.954485
-21.486757 7.298817 -32.463463
-21.292795 4.762918 -28.814056
-21.146823 2.854443 -40.141819
-21.060444 1.725098 -39.003863
-21.226931 3.901793 -9.182474
-21.161541 3.046866 -27.802689
-21.534401 7.921724 -50.190193
-21.467651 7.049016 -10.278951
-21.401880 6.189119 -55.958946
-21.205990 3.627997 3.812199
-21.016779 1.154207 -25.984446
-21.329023 5.236564 -30.211771
-21.306349 4.940115 -14.734259
-21.539725 7.991331 -56.718653
-21.374400 5.829833 -32.081537
-21.363757 5.690691 -26.060052
-21.449348 6.809727 -15.801241
-21.530330 7.868497 -55.983177
-21.487583 7.309622 -44.353400
-20.981922 0.698476 -48.045108
-21.463489 6.994605 -41.476045
-21.428975 6.543363 -45.771353
-21.125018 2.569357 -10.555210
-21.245574 4.145530 -47.592987
-21.149618 2.890985 -4.235925
-20.922755 -0.075085 -34.025645
-21.376285 5.854486 -55.241749
-21.206533 3.635106 -43.299443
-20.919166 -0.122001 -22.070407
-21.019866 1.194574 -4.137823
-21.329532 5.243222 -40.849139
-21.146607 2.851608 -35.689740
-21.159901 3.025417 -29.066080
-21.012249 1.094990 -24.053991
-21.115760 2.448307 -34.531953
-20.918328 -0.132965 -28.070267
-21.466055 7.028156 -60.363114
-21.417961 6.399359 -51.012346
-20.994431 0.862027 -31.424690
-21.066115 1.799245 -42.248102
-21.229656 3.937412 -3.674028
-21.528695 7.847128 -53.531352
-21.095181 2.179255 -15.469885
-21.106228 2.323693 -9.116428
-21.196802 3.507872 -12.663423
-20.976439 0.626790 -13.012611
-21.275589 4.537955 -32.424297
-20.974782 0.605129 -13.638189
-21.453585 6.865122 -23.733068
-20.978039 0.647717 -41.265198
-21.514423 7.660527 -37.067537
-21.123097 2.544235 -60.278688
-21.296917 4.816809 -38.094754
-21.262222 4.363195 -0.685127
-21.348142 5.486532 -21.677385
-20.996051 0.883203 -46.038156
-21.236459 4.026354 -28.004340
-21.041791 1.481220 -10.659814
-21.258700 4.317150 -19.842931
-20.974084 0.596000 -35.040651
-21.340337 5.384483 -58.133684
-21.282025 4.622100 -46.138671
-21.469092 7.067860 -6.610197
-21.539774 7.991974 -49.391868
-21.354415 5.568552 -53.675912
-20.994275 0.859982 1.208518
-21.419321 6.417148 -38.858865
-21.233780 3.991340 -35.814806
-21.138991 2.752035 -54.829144
-21.454507 6.877174 -31.873042
-21.211624 3.701659 -19.677654
-21.538872 7.980178 -46.916122
-20.963037 0.451571 -41.949746
-21.141549 2.785489 -35.100721
-21.324908 5.182768 -49.740234
-21.027181 1.290214 -2.479582
-21.519761 7.730323 -48.731067
-21.042197 1.486530 -53.794724
-21.462140 6.976973 -22.026307
-21.067052 1.811490 -31.867700
-21.267679 4.434536 -30.465002
-20.971349 0.560241 -42.572309
-21.318287 5.096205 -1.968577
-21.277610 4.564379 -39.885643
-21.124262 2.559471 -32.347281
-21.010357 1.070242 -30.785407
