-0.466955 -0.047264 -0.062180 3.000000
-0.466955 -0.081268 0.001853 3.000000
-0.466955 -0.037352 -0.056782 3.000000
-0.466955 0.056137 -0.077554 3.000000
-0.466955 -0.070239 -0.069681 3.000000
-0.466955 0.041791 0.009155 3.000000
-0.466955 0.004231 -0.031271 3.000000
-0.466955 0.046003 -0.016167 3.000000
-0.466955 -0.029737 0.080319 3.000000
-0.466955 -0.053202 -0.010942 3.000000
-0.466955 0.057936 0.046333 3.000000
-0.466955 -0.086988 -0.031194 3.000000
-0.466955 0.014876 0.062246 3.000000
-0.466955 0.057518 -0.017309 3.000000
-0.466955 -0.019584 -0.075579 3.000000
-0.466955 -0.019749 0.067276 3.000000
-0.466955 -0.030973 0.086388 3.000000
-0.466955 0.023107 0.036055 3.000000
-0.466955 0.021483 0.064701 3.000000
-0.466955 -0.006661 -0.000032 3.000000
-0.466955 -0.021763 0.077812 3.000000
-0.466955 -0.084167 -0.041923 3.000000
-0.466955 -0.004972 0.082123 3.000000
-0.466955 -0.039284 -0.062384 3.000000
-0.466955 -0.000954 -0.057773 3.000000
-0.466955 0.016387 0.043229 3.000000
-0.466955 -0.046088 -0.058277 3.000000
-0.466955 0.039884 -0.048225 3.000000
-0.466955 0.058609 -0.051148 3.000000
-0.466955 0.013694 -0.081333 3.000000
-0.466955 0.080428 0.025360 3.000000
-0.466955 -0.058900 0.059909 3.000000
-0.466955 0.029436 0.056440 3.000000
-0.466955 0.042947 -0.054780 3.000000
-0.466955 0.088087 -0.003877 3.000000
-0.466955 0.078099 -0.003487 3.000000
-0.466955 0.060237 0.056406 3.000000
-0.466955 0.056505 -0.041067 3.000000
-0.466955 -0.060759 -0.007156 3.000000
-0.466955 -0.009261 -0.010384 3.000000
-0.466955 0.024317 0.043246 3.000000
-0.466955 0.046857 -0.082247 3.000000
-0.466955 -0.080150 -0.017097 3.000000
-0.466955 -0.057465 0.014026 3.000000
-0.466955 0.022733 -0.030237 3.000000
-0.466955 0.089266 0.014594 3.000000
-0.466955 0.055849 -0.080804 3.000000
-0.466955 0.011054 0.086817 3.000000
-0.466955 0.004708 0.008806 3.000000
-0.466955 -0.014795 0.074802 3.000000
-0.466955 0.041232 0.035267 3.000000
-0.466955 -0.008185 0.007651 3.000000
-0.466955 -0.046204 0.003002 3.000000
-0.466955 0.075163 0.030699 3.000000
-0.466955 -0.087698 -0.018742 3.000000
-0.466955 -0.075652 -0.025128 3.000000
-0.466955 -0.011794 -0.093413 3.000000
-0.466955 -0.039256 0.071274 3.000000
-0.466955 -0.006294 0.089164 3.000000
-0.466955 0.033802 0.012210 3.000000
-0.466955 0.086924 0.024841 3.000000
-0.466955 0.051364 0.048961 3.000000
-0.466955 -0.038356 0.037527 3.000000
-0.466955 -0.049692 0.027388 3.000000
-0.466955 -0.003752 0.039567 3.000000
-0.466955 0.050031 0.014827 3.000000
-0.466955 0.032303 -0.064760 3.000000
-0.466955 0.068750 -0.015650 3.000000
-0.466955 -0.082984 0.011222 3.000000
-0.466955 0.058072 0.070326 3.000000
-0.466955 -0.092529 -0.019636 3.000000
-0.466955 0.036985 0.085831 3.000000
-0.466955 -0.090864 0.040843 3.000000
-0.466955 0.022499 -0.052081 3.000000
-0.466955 -0.012089 -0.081788 3.000000
-0.466955 0.041855 -0.004707 3.000000
-0.466955 0.065586 -0.027859 3.000000
-0.466955 0.014737 -0.075766 3.000000
-0.466955 -0.064846 0.011749 3.000000
-0.466955 -0.041147 -0.079569 3.000000
-0.466955 0.060644 -0.022548 3.000000
-0.466955 0.014754 -0.021243 3.000000
-0.466955 0.022493 -0.059246 3.000000
-0.466955 -0.020668 -0.039863 3.000000
-0.466955 -0.035492 -0.036445 3.000000
-0.466955 0.024681 0.094683 3.000000
-0.466955 -0.081797 -0.044038 3.000000
-0.466955 0.053506 0.026851 3.000000
-0.466955 0.004069 0.097193 3.000000
-0.466955 -0.074867 -0.065459 3.000000
-0.466955 -0.077234 0.052524 3.000000
-0.466955 -0.033006 0.060649 3.000000
-0.466955 -0.085709 -0.043646 3.000000
-0.466955 0.053644 -0.019889 3.000000
-0.466955 0.081674 0.026453 3.000000
-0.466955 -0.017298 0.062897 3.000000
-0.466955 0.015216 0.017246 3.000000
-0.466955 0.050834 -0.000408 3.000000
-0.466955 -0.040271 -0.078027 3.000000
-0.466955 0.002823 0.030706 3.000000
-0.466955 0.020241 0.009385 3.000000
-0.466955 0.071169 -0.020428 3.000000
-0.466955 -0.021553 -0.017477 3.000000
-0.466955 -0.073741 -0.030612 3.000000
-0.466955 -0.085897 0.005785 3.000000
-0.466955 -0.019653 -0.052691 3.000000
-0.466955 0.061849 -0.050233 3.000000
-0.466955 0.047269 -0.043857 3.000000
-0.466955 -0.073686 -0.003640 3.000000
-0.466955 0.012711 -0.060334 3.000000
-0.466955 0.035651 -0.073595 3.000000
-0.466955 0.073318 -0.014354 3.000000
-0.466955 0.087430 0.007395 3.000000
-0.466955 -0.000168 -0.078005 3.000000
-0.466955 0.045691 0.059013 3.000000
-0.466955 0.018412 0.089204 3.000000
-0.466955 0.009799 -0.047996 3.000000
-0.466955 -0.026864 0.006869 3.000000
-0.466955 -0.033224 0.069769 3.000000
-0.466955 -0.052570 0.056544 3.000000
-0.466955 -0.062306 0.059103 3.000000
-0.466955 -0.045819 -0.088308 3.000000
-0.466955 0.002773 -0.051178 3.000000
-0.466955 0.038321 0.091208 3.000000
-0.466955 -0.018292 -0.060871 3.000000
-0.466955 0.005561 0.045495 3.000000
-0.466955 -0.013913 0.081691 3.000000
-0.466955 -0.004368 -0.041626 3.000000
-0.466955 0.012154 -0.051987 3.000000
-0.466955 -0.045611 0.072276 3.000000
-0.466955 0.048531 -0.000845 3.000000
-0.466955 -0.046363 0.009697 3.000000
-0.466955 0.029117 0.011441 3.000000
-0.466955 0.046554 0.074071 3.000000
-0.466955 -0.068388 0.024356 3.000000
-0.466955 -0.087106 0.004609 3.000000
-0.466955 0.013091 -0.037476 3.000000
-0.466955 -0.041169 -0.070666 3.000000
-0.466955 -0.033727 0.021343 3.000000
-0.466955 -0.036548 0.044183 3.000000
-0.466955 -0.000785 0.012888 3.000000
-0.466955 0.001437 -0.026924 3.000000
-0.466955 -0.047807 0.006228 3.000000
-0.466955 0.012157 -0.080792 3.000000
-0.466955 0.073361 0.018770 3.000000
-0.466955 0.062797 0.061255 3.000000
-0.466955 0.082596 0.046114 3.000000
-0.466955 0.080603 -0.018037 3.000000
-0.466955 -0.040183 -0.044748 3.000000
-0.466955 0.012512 -0.075260 3.000000
-0.466955 0.083893 -0.035300 3.000000
-0.466955 0.076026 -0.046825 3.000000
-0.466955 -0.038670 -0.071803 3.000000
-0.466955 -0.029066 0.029016 3.000000
-0.466955 -0.002294 0.099231 3.000000
-0.466955 0.065304 0.007527 3.000000
-0.466955 -0.035044 -0.049269 3.000000
-0.466955 0.069364 0.024175 3.000000
-0.466955 -0.015083 0.030258 3.000000
-0.466955 0.030402 -0.035966 3.000000
-0.466955 0.091537 -0.032293 3.000000
-0.466955 -0.067483 0.052625 3.000000
-0.466955 0.007852 -0.057244 3.000000
-0.466955 -0.002183 -0.062644 3.000000
-0.466955 -0.052471 0.084858 3.000000
-0.466955 -0.080322 -0.049603 3.000000
-0.466955 -0.069952 0.016191 3.000000
-0.466955 0.002000 0.088864 3.000000
-0.466955 0.038594 -0.056913 3.000000
-0.466955 -0.011411 0.052716 3.000000
-0.466955 -0.045313 -0.032226 3.000000
-0.466955 0.082546 0.007675 3.000000
-0.466955 0.021638 -0.028210 3.000000
-0.466955 -0.066695 -0.042209 3.000000
-0.466955 -0.069251 -0.043189 3.000000
-0.466955 -0.014774 0.078057 3.000000
-0.466955 -0.037354 -0.052663 3.000000
-0.466955 0.074395 -0.034055 3.000000
-0.466955 0.047157 -0.029459 3.000000
-0.466955 0.044002 -0.078914 3.000000
-0.466955 -0.066923 -0.070614 3.000000
-0.466955 -0.041694 -0.065651 3.000000
-0.466955 0.009456 0.021627 3.000000
-0.466955 -0.025868 -0.007668 3.000000
-0.466955 -0.026321 -0.029028 3.000000
-0.466955 -0.048447 0.052019 3.000000
-0.466955 -0.007834 -0.042171 3.000000
-0.466955 -0.006729 -0.079458 3.000000
-0.466955 -0.063536 -0.031599 3.000000
-0.466955 0.006127 0.053053 3.000000
-0.466955 0.028549 0.007803 3.000000
-0.466955 0.034914 0.038689 3.000000
-0.466955 0.028439 -0.041854 3.000000
-0.466955 0.021273 0.033325 3.000000
-0.466955 -0.009730 -0.028625 3.000000
-0.466955 0.090748 -0.020289 3.000000
-0.466955 -0.039341 0.050950 3.000000
-0.466955 -0.028981 -0.028593 3.000000
-0.466955 0.021957 0.002497 3.000000
-0.466955 0.026101 -0.040635 3.000000
-0.466955 -0.010684 -0.034391 3.000000
-0.466955 -0.009125 0.086740 3.000000
-0.466955 0.013916 -0.071133 3.000000
-0.466955 0.039966 0.025144 3.000000
-0.466955 -0.017669 -0.055890 3.000000
-0.466955 0.034885 0.069992 3.000000
-0.466955 0.008693 0.092634 3.000000
-0.466955 0.041945 0.029053 3.000000
-0.466955 0.086869 -0.024872 3.000000
-0.466955 0.012402 -0.041235 3.000000
-0.466955 -0.005939 0.036816 3.000000
-0.466955 0.058287 0.009202 3.000000
-0.466955 0.034374 -0.084862 3.000000
-0.466955 -0.004575 0.096081 3.000000
-0.466955 0.018913 0.037034 3.000000
-0.466955 0.055289 -0.071409 3.000000
-0.466955 0.023078 0.091529 3.000000
-0.466955 0.027433 -0.059500 3.000000
-0.466955 0.051226 -0.044197 3.000000
-0.466955 -0.010891 0.043119 3.000000
-0.466955 0.021129 0.007924 3.000000
-0.466955 -0.076642 -0.042884 3.000000
-0.466955 -0.062777 0.051516 3.000000
-0.466955 0.016362 0.052898 3.000000
-0.466955 0.075120 -0.035999 3.000000
-0.466955 -0.016775 -0.052162 3.000000
-0.466955 0.082654 0.011988 3.000000
-0.466955 0.035922 0.025217 3.000000
-0.466955 -0.066932 0.042734 3.000000
-0.466955 -0.067934 -0.018181 3.000000
-0.466955 -0.028871 -0.049650 3.000000
-0.466955 0.031050 0.075783 3.000000
-0.466955 0.064733 0.022056 3.000000
-0.466955 0.051219 0.008799 3.000000
-0.466955 0.033263 0.085550 3.000000
-0.466955 -0.088925 0.003651 3.000000
-0.466955 -0.039211 0.032384 3.000000
-0.466955 0.014561 -0.006843 3.000000
-0.466955 -0.000996 0.026171 3.000000
-0.466955 -0.012072 -0.085712 3.000000
-0.466955 -0.028030 -0.048553 3.000000
-0.466955 0.061477 -0.059313 3.000000
-0.466955 0.058584 0.037845 3.000000
-0.466955 -0.050957 0.049063 3.000000
-0.466955 0.080051 -0.050360 3.000000
-0.466955 -0.031712 -0.035748 3.000000
-0.466955 -0.014020 -0.040116 3.000000
-0.466955 0.016270 -0.063166 3.000000
-0.466955 -0.011507 -0.095251 3.000000
-0.466955 0.015325 -0.051889 3.000000
-0.466955 -0.056977 -0.058193 3.000000
-0.466955 -0.010536 0.086906 3.000000
-0.466955 0.065041 -0.068090 3.000000
-0.466955 0.019151 -0.093648 3.000000
-0.466955 -0.045462 0.040632 3.000000
-0.466955 0.046011 -0.069669 3.000000
-0.466955 -0.003932 -0.065661 3.000000
-0.466955 -0.064500 0.041953 3.000000
-0.466955 0.028910 0.041443 3.000000
-0.466955 -0.031646 -0.005137 3.000000
-0.466955 0.003208 -0.086140 3.000000
-0.466955 -0.040144 -0.074005 3.000000
-0.466955 0.074324 0.023729 3.000000
-0.466955 0.094441 -0.012677 3.000000
-0.466955 -0.053551 -0.073710 3.000000
-0.466955 0.043758 0.007898 3.000000
-0.466955 0.052461 0.002363 3.000000
-0.466955 0.041300 -0.090373 3.000000
-0.466955 -0.009029 -0.063354 3.000000
-0.466955 0.062039 -0.052329 3.000000
-0.466955 -0.092730 0.000522 3.000000
-0.466955 0.045642 0.037279 3.000000
-0.466955 -0.073428 0.032342 3.000000
-0.466955 -0.028802 -0.071016 3.000000
-0.466955 -0.070442 -0.068323 3.000000
-0.466955 -0.060874 0.058775 3.000000
-0.466955 -0.055667 0.023915 3.000000
-0.466955 0.077188 -0.014594 3.000000
-0.466955 0.081795 0.020902 3.000000
-0.466955 -0.094533 -0.007853 3.000000
-0.466955 0.006991 0.071428 3.000000
-0.466955 -0.099663 0.000499 3.000000
-0.466955 -0.018747 -0.068177 3.000000
-0.466955 0.003121 -0.060912 3.000000
-0.466955 0.049868 -0.008767 3.000000
-0.466955 -0.038058 -0.013254 3.000000
-0.466955 0.014355 0.007316 3.000000
-0.466955 -0.050479 -0.009458 3.000000
-0.466955 -0.005684 0.062003 3.000000
-0.466955 0.013670 0.033871 3.000000
-0.466955 0.039890 -0.026969 3.000000
-0.466955 0.061079 -0.043035 3.000000
-0.466955 -0.009002 -0.061686 3.000000
-0.466955 0.016791 0.058024 3.000000
-0.466955 -0.081874 -0.026010 3.000000
-0.466955 0.009025 0.050712 3.000000
-0.466955 0.067261 -0.037295 3.000000
-0.466955 0.014956 -0.089720 3.000000
-0.466955 -0.069316 -0.021010 3.000000
-0.466955 -0.074583 -0.037766 3.000000
-0.466955 -0.002201 -0.054787 3.000000
-0.466955 0.001670 0.063166 3.000000
-0.466955 -0.076999 -0.051147 3.000000
-0.466955 -0.005101 -0.086661 3.000000
-0.466955 0.047705 0.062612 3.000000
-0.466955 -0.058905 -0.012590 3.000000
-0.466955 -0.077007 0.032879 3.000000
-0.466955 0.034331 -0.042599 3.000000
-0.466955 0.025766 0.054094 3.000000
-0.466955 0.022891 0.048221 3.000000
-0.466955 -0.008548 0.034047 3.000000
-0.466955 -0.089443 -0.029736 3.000000
-0.466955 -0.088691 -0.010946 3.000000
-0.466955 0.061259 -0.034114 3.000000
-0.466955 0.037683 -0.058987 3.000000
-0.466955 0.027164 -0.056422 3.000000
-0.466955 -0.067496 -0.002290 3.000000
-0.466955 -0.039708 0.081944 3.000000
-0.466955 0.058199 -0.015676 3.000000
-0.466955 0.017361 0.088147 3.000000
-0.466955 -0.074834 -0.001094 3.000000
-0.466955 0.012996 -0.018739 3.000000
-0.466955 -0.005390 0.085167 3.000000
-0.466955 -0.081581 -0.027535 3.000000
-0.466955 0.053864 -0.005781 3.000000
-0.466955 -0.059891 0.071086 3.000000
-0.466955 -0.037314 0.077897 3.000000
-0.466955 0.008260 -0.008480 3.000000
-0.466955 0.030087 0.071111 3.000000
-0.466955 -0.032406 0.085466 3.000000
-0.466955 -0.085537 0.015435 3.000000
-0.466955 0.009145 -0.020893 3.000000
-0.466955 -0.051585 0.016042 3.000000
-0.466955 -0.037993 -0.026726 3.000000
-0.466955 -0.046222 0.064610 3.000000
-0.466955 0.011618 0.066989 3.000000
-0.466955 0.008211 0.027268 3.000000
-0.466955 -0.050383 -0.058222 3.000000
-0.466955 -0.043492 -0.000721 3.000000
-0.466955 -0.007339 0.056711 3.000000
-0.466955 -0.016326 0.072475 3.000000
-0.466955 0.051003 0.012583 3.000000
-0.466955 0.081598 0.030548 3.000000
-0.466955 -0.079905 -0.057642 3.000000
-0.466955 0.047695 -0.083374 3.000000
-0.466955 -0.044844 0.017845 3.000000
-0.466955 -0.026249 -0.088131 3.000000
-0.466955 0.067066 -0.035053 3.000000
-0.466955 -0.007559 -0.086277 3.000000
-0.466955 -0.051836 -0.012807 3.000000
-0.466955 -0.053805 -0.031872 3.000000
-0.466955 -0.010296 -0.021862 3.000000
-0.466955 0.023463 -0.056343 3.000000
-0.466955 0.050040 -0.055165 3.000000
-0.466955 0.076620 -0.031275 3.000000
-0.466955 0.030288 -0.025898 3.000000
-0.466955 0.010179 -0.049595 3.000000
-0.466955 -0.064512 0.028128 3.000000
-0.466955 -0.047936 0.007731 3.000000
-0.466955 0.090653 0.026469 3.000000
-0.466955 -0.075226 0.022904 3.000000
-0.466955 -0.087875 -0.008681 3.000000
-0.466955 -0.082129 0.055880 3.000000
-0.466955 -0.031725 -0.028646 3.000000
-0.466955 0.022451 0.087298 3.000000
-0.466955 0.043150 -0.070378 3.000000
-0.466955 -0.020792 0.050506 3.000000
-0.466955 0.074830 -0.005455 3.000000
-0.466955 0.060746 -0.012297 3.000000
-0.466955 0.052193 -0.022691 3.000000
-0.466955 -0.056617 0.074510 3.000000
-0.466955 -0.007559 -0.063544 3.000000
-0.466955 0.038451 -0.043827 3.000000
-0.466955 0.020448 0.026979 3.000000
-0.466955 0.073972 0.026865 3.000000
-0.466955 0.065971 -0.018970 3.000000
-0.466955 0.014806 0.055785 3.000000
-0.466955 -0.007895 0.022274 3.000000
-0.466955 -0.032673 -0.073767 3.000000
-0.466955 0.007919 0.034643 3.000000
-0.466955 0.087402 -0.040982 3.000000
-0.466955 0.040396 0.079902 3.000000
-0.466955 -0.040414 -0.031693 3.000000
-0.466955 0.010450 -0.011233 3.000000
-0.466955 0.042265 -0.000581 3.000000
-0.466955 0.019935 -0.004231 3.000000
-0.466955 0.055447 -0.035941 3.000000
-0.466955 -0.030732 0.082435 3.000000
-0.466955 -0.099485 0.004481 3.000000
-0.466955 -0.058166 0.074051 3.000000
-0.466955 -0.031013 -0.017810 3.000000
-0.466955 0.039255 -0.003739 3.000000
-0.466955 0.084230 0.020531 3.000000
-0.466955 0.049516 0.055682 3.000000
-0.466955 0.039680 0.076218 3.000000
-0.466955 0.011492 -0.005099 3.000000
-0.466955 -0.051128 -0.046333 3.000000
-0.466955 0.030128 0.037912 3.000000
-0.466955 0.003915 0.022602 3.000000
-0.466955 -0.095703 -0.019832 3.000000
-0.466955 -0.038653 0.034286 3.000000
-0.466955 0.064950 -0.059331 3.000000
-0.466955 -0.007857 0.001670 3.000000
-0.466955 -0.090897 -0.000421 3.000000
-0.466955 -0.021468 -0.027007 3.000000
-0.466955 -0.027439 -0.071560 3.000000
-0.466955 0.025664 -0.034470 3.000000
-0.466955 -0.005730 0.073243 3.000000
-0.466955 0.021398 -0.089729 3.000000
-0.466955 0.067828 -0.029921 3.000000
-0.466955 -0.026424 0.037346 3.000000
-0.466955 0.094539 0.030803 3.000000
-0.466955 0.030831 -0.082202 3.000000
-0.466955 -0.041981 0.000978 3.000000
-0.466955 0.045084 -0.039810 3.000000
-0.466955 0.007084 0.078877 3.000000
-0.466955 -0.032774 -0.002118 3.000000
-0.466955 -0.029003 0.015119 3.000000
-0.466955 -0.055322 0.057624 3.000000
-0.466955 0.036344 -0.007900 3.000000
-0.466955 0.020262 -0.088579 3.000000
-0.466955 0.038603 0.042905 3.000000
-0.466955 0.021320 -0.010136 3.000000
-0.466955 0.061662 0.002760 3.000000
-0.466955 -0.053768 0.046807 3.000000
-0.466955 -0.063908 -0.034994 3.000000
-0.466955 0.042657 -0.023601 3.000000
-0.466955 0.014063 -0.004528 3.000000
-0.466955 0.013948 0.067638 3.000000
-0.466955 0.061450 -0.032496 3.000000
-0.466955 -0.012357 -0.019964 3.000000
-0.466955 0.064730 0.050829 3.000000
-0.466955 -0.001311 0.046845 3.000000
-0.466955 0.064570 0.009087 3.000000
-0.466955 -0.004063 -0.074370 3.000000
-0.466955 0.040907 -0.026074 3.000000
-0.466955 -0.025182 0.064935 3.000000
-0.466955 -0.077824 0.040052 3.000000
-0.466955 -0.031084 0.026543 3.000000
-0.466955 0.096291 0.005395 3.000000
-0.466955 0.079403 -0.003115 3.000000
-0.466955 0.087706 -0.011235 3.000000
-0.466955 -0.028407 -0.030386 3.000000
-0.466955 -0.022280 0.069588 3.000000
-0.466955 0.022838 0.080336 3.000000
-0.466955 -0.026402 -0.041766 3.000000
-0.466955 0.083285 -0.048399 3.000000
-0.466955 0.073120 -0.028774 3.000000
-0.466955 -0.023630 -0.085870 3.000000
-0.466955 -0.003275 -0.025624 3.000000
-0.466955 -0.055000 -0.001931 3.000000
-0.466955 0.034935 -0.061654 3.000000
-0.466955 0.004648 -0.085792 3.000000
-0.466955 0.067131 -0.054336 3.000000
-0.466955 0.014501 0.014418 3.000000
-0.466955 -0.001185 -0.038914 3.000000
-0.466955 0.027035 -0.032609 3.000000
-0.466955 0.065761 -0.038049 3.000000
-0.466955 -0.020771 -0.092390 3.000000
-0.466955 -0.030427 0.030013 3.000000
-0.466955 0.004121 -0.015975 3.000000
-0.466955 0.056217 -0.070028 3.000000
-0.466955 0.066887 0.053418 3.000000
-0.466955 -0.034819 0.056024 3.000000
-0.466955 -0.047222 0.042877 3.000000
-0.466955 0.008211 0.086601 3.000000
-0.466955 0.042949 0.049114 3.000000
-0.466955 0.034866 -0.065712 3.000000
-0.466955 0.000009 -0.061899 3.000000
-0.466955 -0.065857 -0.065385 3.000000
-0.466955 0.062203 0.018539 3.000000
-0.466955 0.069269 -0.007672 3.000000
-0.466955 0.002068 -0.024665 3.000000
-0.466955 0.034923 -0.012110 3.000000
-0.466955 0.023560 -0.014920 3.000000
-0.466955 0.058424 -0.055569 3.000000
-0.466955 0.033130 -0.078232 3.000000
-0.466955 -0.001240 0.024482 3.000000
-0.466955 0.034917 -0.077969 3.000000
-0.466955 0.073260 -0.027176 3.000000
-0.466955 0.013647 0.044407 3.000000
-0.466955 0.085484 -0.030410 3.000000
-0.466955 -0.025857 -0.047199 3.000000
-0.466955 0.061391 0.016601 3.000000
-0.466955 -0.020311 0.085216 3.000000
-0.466955 -0.079001 -0.006162 3.000000
-0.466955 0.016279 -0.032939 3.000000
-0.466955 -0.090566 0.006911 3.000000
-0.466955 0.084381 0.016567 3.000000
-0.466955 0.073292 0.053572 3.000000
-0.466955 -0.026651 -0.002253 3.000000
-0.466955 0.038334 0.066598 3.000000
-0.466955 0.051606 0.039831 3.000000
-0.466955 0.021446 -0.045753 3.000000
-0.466955 0.038805 0.053804 3.000000
-0.466955 -0.000793 -0.094860 3.000000
-0.466955 0.041492 0.032813 3.000000
-0.466955 0.003168 -0.067738 3.000000
-0.466955 -0.005608 -0.090266 3.000000
-0.466955 -0.002107 -0.097113 3.000000
-0.466955 0.063519 -0.070763 3.000000
-0.466955 -0.014451 -0.065936 3.000000
-0.466955 0.036832 0.045004 3.000000
-0.466955 -0.050141 -0.023024 3.000000
-0.466955 0.033334 0.090071 3.000000
-0.466955 -0.083741 -0.026218 3.000000
-0.466955 -0.039147 -0.079358 3.000000
-0.466955 0.046713 -0.026595 3.000000
-0.466955 0.046145 -0.014428 3.000000
-0.466955 0.041717 -0.024825 3.000000
-0.466955 -0.092210 0.010020 3.000000
-0.466955 0.023045 0.093605 3.000000
-0.466955 -0.044817 0.039193 3.000000
-0.466955 0.041445 -0.088793 3.000000
-0.466955 -0.099595 0.002238 3.000000
-0.466955 0.019116 0.090372 3.000000
-0.466955 -0.078714 0.011359 3.000000
-0.466955 -0.028723 -0.009628 3.000000
-0.466955 -0.059797 -0.073742 3.000000
-0.466955 -0.002992 -0.017247 3.000000
-0.466955 -0.023371 -0.063131 3.000000
-0.466955 0.096483 0.025770 3.000000
-0.466955 0.000226 0.052503 3.000000
-0.466955 0.051430 0.080098 3.000000
-0.466955 -0.088234 -0.036098 3.000000
-0.466955 -0.080509 -0.025547 3.000000
-0.466955 0.017710 0.012815 3.000000
-0.466955 0.055022 -0.065814 3.000000
-0.466955 -0.090736 -0.022141 3.000000
-0.466955 0.021940 0.094666 3.000000
-0.466955 0.078092 -0.041061 3.000000
-0.466955 0.093064 0.036413 3.000000
-0.466955 0.076369 -0.049819 3.000000
-0.466955 0.095080 0.022736 3.000000
-0.466955 -0.059762 0.014545 3.000000
-0.466955 -0.023123 -0.032403 3.000000
-0.466955 -0.039998 0.046568 3.000000
-0.466955 0.081631 -0.051996 3.000000
-0.466955 0.030821 0.093159 3.000000
-0.466955 -0.006848 0.002958 3.000000
-0.466955 0.063223 -0.025077 3.000000
-0.466955 -0.053921 -0.082095 3.000000
-0.466955 -0.083230 0.021977 3.000000
-0.466955 -0.007401 0.030863 3.000000
-0.466955 0.014321 0.052775 3.000000
-0.466955 -0.071980 -0.001200 3.000000
-0.466955 -0.083481 0.041773 3.000000
-0.466955 -0.042576 -0.054873 3.000000
-0.466955 -0.069839 -0.066284 3.000000
-0.466955 0.056615 0.070974 3.000000
-0.466955 -0.031908 0.018242 3.000000
-0.466955 -0.048780 -0.022412 3.000000
-0.466955 0.052628 -0.034152 3.000000
-0.466955 -0.070439 -0.050096 3.000000
-0.466955 0.042234 0.074007 3.000000
-0.466955 0.003811 -0.014362 3.000000
-0.466955 -0.036662 0.060778 3.000000
-0.466955 -0.099011 -0.008794 3.000000
-0.466955 0.009726 -0.065483 3.000000
-0.466955 -0.052880 0.064884 3.000000
-0.466955 -0.064888 0.069836 3.000000
-0.466955 0.023626 0.009353 3.000000
-0.466955 0.072493 0.003115 3.000000
-0.466955 -0.068780 0.021309 3.000000
-0.466955 0.063798 0.018245 3.000000
-0.466955 -0.014713 -0.011372 3.000000
-0.466955 -0.045777 -0.008397 3.000000
-0.466955 -0.036037 -0.068050 3.000000
-0.466955 0.026367 0.077693 3.000000
-0.466955 0.003514 -0.000283 3.000000
-0.466955 -0.055768 0.013682 3.000000
-0.466955 -0.015655 0.011188 3.000000
-0.466955 0.002171 0.037264 3.000000
-0.466955 0.090234 -0.032941 3.000000
-0.466955 0.055134 -0.075190 3.000000
-0.466955 -0.021597 -0.034595 3.000000
-0.466955 -0.078300 -0.061597 3.000000
-0.466955 0.081341 0.054068 3.000000
-0.466955 -0.030979 -0.007195 3.000000
-0.466955 -0.020393 -0.077071 3.000000
-0.466955 0.003054 0.051906 3.000000
-0.466955 -0.073719 0.050474 3.000000
-0.466955 0.086822 -0.020740 3.000000
-0.466955 0.056170 0.002039 3.000000
-0.466955 0.011178 0.003009 3.000000
-0.466955 -0.076751 0.002417 3.000000
-0.466955 0.062237 0.064214 3.000000
-0.466955 0.081106 -0.015198 3.000000
-0.466955 -0.068090 0.048602 3.000000
-0.466955 -0.022607 -0.041698 3.000000
-0.466955 0.015477 0.070728 3.000000
-0.466955 -0.016597 0.022500 3.000000
-0.466955 -0.055315 -0.045535 3.000000
-0.466955 -0.037622 -0.040677 3.000000
-0.466955 0.078642 0.021061 3.000000
-0.466955 -0.050291 -0.028354 3.000000
-0.466955 0.090486 -0.022569 3.000000
-0.466955 -0.042965 0.064013 3.000000
-0.466955 0.017646 -0.032512 3.000000
-0.466955 0.036431 -0.034843 3.000000
-0.466955 0.089333 -0.031107 3.000000
-0.466955 0.014796 0.050854 3.000000
-0.466955 0.034283 0.052276 3.000000
-0.466955 0.063722 0.075986 3.000000
-0.466955 -0.068310 0.016740 3.000000
-0.466955 0.044912 0.026816 3.000000
-0.466955 -0.084757 0.049161 3.000000
-0.466955 -0.007744 0.042021 3.000000
-0.466955 -0.075910 0.031746 3.000000
-0.466955 0.018523 -0.038592 3.000000
-0.466955 0.012720 -0.030034 3.000000
-0.466955 0.050930 0.074318 3.000000
-0.466955 0.033932 0.040043 3.000000
-0.466955 -0.071457 -0.059174 3.000000
-0.466955 -0.093454 0.020137 3.000000
-0.466955 -0.000148 -0.072392 3.000000
-0.466955 0.061550 0.047958 3.000000
-0.466955 -0.036444 0.042822 3.000000
-0.466955 -0.073415 0.002612 3.000000
-0.466955 -0.091260 0.039100 3.000000
-0.466955 -0.067198 0.044595 3.000000
-0.466955 0.074723 -0.031181 3.000000
-0.466955 -0.078959 -0.048999 3.000000
-0.466955 0.036928 0.002924 3.000000
-0.466955 0.062507 -0.018814 3.000000
-0.466955 0.037236 -0.009914 3.000000
-0.466955 0.091904 0.005212 3.000000
-0.466955 0.018995 0.096477 3.000000
-0.466955 -0.038445 0.055412 3.000000
-0.466955 -0.093520 0.027285 3.000000
-0.466955 -0.080296 0.045511 3.000000
-0.466955 0.019553 0.040640 3.000000
-0.466955 0.044009 0.062330 3.000000
-0.466955 -0.075832 -0.044572 3.000000
-0.466955 -0.029295 -0.080671 3.000000
-0.466955 0.023931 0.069416 3.000000
-0.466955 -0.014148 -0.035364 3.000000
-0.466955 -0.049642 0.057964 3.000000
-0.466955 0.073967 0.048828 3.000000
-0.466955 -0.017937 -0.038388 3.000000
-0.466955 0.083386 0.001104 3.000000
-0.466955 0.072572 0.065608 3.000000
-0.466955 -0.018442 0.000941 3.000000
-0.466955 0.054837 -0.011541 3.000000
-0.466955 -0.035533 -0.047923 3.000000
-0.466955 0.034003 -0.006903 3.000000
-0.466955 0.075455 0.035718 3.000000
-0.466955 -0.054551 0.002119 3.000000
-0.466955 -0.077869 -0.001935 3.000000
-0.466955 0.043839 -0.072150 3.000000
-0.466955 0.067501 0.063973 3.000000
-0.466955 -0.036021 0.017358 3.000000
-0.466955 0.048732 -0.036245 3.000000
-0.466955 0.039269 0.007699 3.000000
-0.466955 0.029592 0.060128 3.000000
-0.466955 0.051738 -0.066287 3.000000
-0.466955 -0.042088 0.033270 3.000000
-0.466955 -0.032177 -0.023437 3.000000
-0.466955 -0.011677 -0.003434 3.000000
-0.466955 -0.067490 -0.067490 3.000000
-0.466955 0.033752 -0.022821 3.000000
-0.466955 0.063764 -0.060839 3.000000
-0.466955 -0.079090 0.016322 3.000000
-0.466955 0.028569 -0.032231 3.000000
-0.466955 0.024806 -0.074494 3.000000
-0.466955 0.042377 0.033945 3.000000
-0.466955 -0.015355 0.019787 3.000000
-0.466955 0.004667 0.093565 3.000000
-0.466955 0.058924 -0.039031 3.000000
-0.466955 -0.035457 0.012938 3.000000
-0.466955 0.031819 -0.088221 3.000000
-0.466955 0.049538 -0.082847 3.000000
-0.466955 -0.031246 0.032656 3.000000
-0.466955 0.046080 -0.024288 3.000000
-0.466955 -0.075451 0.043654 3.000000
-0.466955 -0.055900 0.019903 3.000000
-0.466955 -0.077328 -0.010950 3.000000
-0.466955 0.059173 0.002917 3.000000
-0.466955 -0.027899 -0.020858 3.000000
-0.466955 -0.065479 0.055761 3.000000
-0.466955 0.054163 -0.061352 3.000000
-0.466955 0.033115 0.087881 3.000000
-0.466955 -0.038132 -0.075189 3.000000
-0.466955 -0.021395 0.081317 3.000000
-0.466955 -0.035268 0.037892 3.000000
-0.466955 -0.003781 0.070971 3.000000
-0.466955 0.085640 0.010469 3.000000
-0.466955 -0.080034 -0.051354 3.000000
-0.466955 -0.087434 0.027075 3.000000
-0.466955 0.006110 0.067167 3.000000
-0.466955 -0.007429 0.074552 3.000000
-0.466955 0.034236 -0.031146 3.000000
-0.466955 0.087371 -0.007394 3.000000
-0.466955 0.092405 -0.010876 3.000000
-0.466955 -0.029205 0.037431 3.000000
-0.466955 -0.039815 0.076438 3.000000
-0.466955 -0.045711 0.021589 3.000000
-0.466955 -0.076374 0.020339 3.000000
-0.466955 0.050103 0.019774 3.000000
-0.466955 0.074394 -0.044440 3.000000
-0.466955 0.064163 -0.064412 3.000000
-0.466955 0.033366 0.038569 3.000000
-0.466955 0.053877 0.073372 3.000000
-0.466955 0.044814 0.021198 3.000000
-0.466955 -0.015341 0.047591 3.000000
-0.466955 0.024654 -0.069694 3.000000
-0.466955 0.036968 -0.052173 3.000000
-0.466955 0.010337 -0.025222 3.000000
-0.466955 -0.028081 0.072153 3.000000
-0.466955 0.008047 -0.099326 3.000000
-0.466955 0.034555 -0.039216 3.000000
-0.466955 0.033310 -0.072438 3.000000
-0.466955 0.068408 0.010561 3.000000
-0.466955 -0.060146 -0.059043 3.000000
-0.466955 0.093546 -0.004138 3.000000
-0.466955 -0.013487 0.007375 3.000000
-0.466955 -0.065564 0.006969 3.000000
-0.466955 0.001814 0.094304 3.000000
-0.466955 -0.040602 -0.007972 3.000000
-0.466955 0.070107 0.032066 3.000000
-0.466955 0.033712 -0.024492 3.000000
-0.466955 -0.093965 -0.019844 3.000000
-0.466955 0.022448 0.015675 3.000000
-0.466955 -0.094048 0.005348 3.000000
-0.466955 -0.021121 0.030345 3.000000
-0.466955 0.008881 -0.086669 3.000000
-0.466955 -0.032749 0.003987 3.000000
-0.466955 -0.018824 0.063059 3.000000
-0.466955 -0.062105 0.019933 3.000000
-0.466955 -0.003297 -0.033307 3.000000
-0.466955 0.062147 0.074474 3.000000
-0.466955 -0.004273 0.075835 3.000000
-0.466955 0.063961 0.011709 3.000000
-0.466955 0.014759 -0.023113 3.000000
-0.466955 -0.045393 -0.027527 3.000000
-0.466955 -0.048719 0.015123 3.000000
-0.466955 -0.020057 -0.012134 3.000000
-0.466955 0.075889 -0.010946 3.000000
-0.466955 -0.072870 -0.039333 3.000000
-0.466955 -0.080611 -0.015639 3.000000
-0.466955 -0.033638 -0.020335 3.000000
-0.466955 0.077222 -0.017612 3.000000
-0.466955 -0.067021 -0.053266 3.000000
-0.466955 0.091008 0.001299 3.000000
-0.466955 -0.003961 0.000740 3.000000
-0.466955 -0.041606 0.027225 3.000000
-0.466955 0.016482 0.098321 3.000000
-0.466955 0.011934 0.095351 3.000000
-0.466955 -0.079095 0.024578 3.000000
-0.466955 0.015042 -0.098466 3.000000
-0.466955 0.002477 -0.065211 3.000000
-0.466955 0.019354 -0.047945 3.000000
-0.466955 -0.079182 0.026272 3.000000
-0.466955 -0.002810 -0.037817 3.000000
-0.466955 -0.038347 0.072516 3.000000
-0.466955 -0.024863 0.058081 3.000000
-0.466955 0.053701 0.055461 3.000000
-0.466955 0.037578 -0.030412 3.000000
-0.466955 -0.013333 -0.008799 3.000000
-0.466955 -0.084630 -0.040302 3.000000
-0.466955 -0.007571 0.091458 3.000000
-0.466955 0.027055 -0.086144 3.000000
-0.466955 0.097695 0.011659 3.000000
-0.466955 -0.052307 0.014333 3.000000
-0.466955 -0.021811 0.047997 3.000000
-0.466955 -0.038396 0.035922 3.000000
-0.466955 0.085285 0.025152 3.000000
-0.466955 -0.038432 0.046559 3.000000
-0.466955 -0.083344 -0.034458 3.000000
-0.466955 0.048947 -0.032555 3.000000
-0.466955 -0.072987 -0.020459 3.000000
-0.466955 0.094269 0.008186 3.000000
-0.466955 -0.006237 0.080888 3.000000
-0.466955 0.030929 -0.019749 3.000000
-0.466955 0.060667 -0.031123 3.000000
-0.466955 0.032059 -0.020882 3.000000
-0.466955 0.002394 0.096234 3.000000
-0.466955 -0.006307 -0.038971 3.000000
-0.466955 -0.059344 -0.028787 3.000000
-0.466955 0.002345 -0.030144 3.000000
-0.466955 -0.028791 0.009387 3.000000
-0.466955 0.000382 0.039341 3.000000
-0.466955 -0.051293 0.009497 3.000000
-0.466955 0.015299 -0.050128 3.000000
-0.466955 0.088608 -0.035441 3.000000
-0.466955 -0.040730 -0.033834 3.000000
-0.466955 -0.063890 -0.028885 3.000000
-0.466955 -0.027001 -0.043005 3.000000
-0.466955 0.034095 -0.044233 3.000000
-0.466955 -0.014774 0.085388 3.000000
-0.466955 0.060013 -0.060780 3.000000
-0.466955 -0.094598 0.010889 3.000000
-0.466955 0.025418 -0.088694 3.000000
-0.466955 -0.012210 -0.096481 3.000000
-0.466955 -0.059878 -0.060437 3.000000
-0.466955 0.050868 -0.006516 3.000000
-0.466955 0.097070 0.010473 3.000000
-0.466955 0.032169 -0.074290 3.000000
-0.466955 -0.023165 0.013323 3.000000
-0.466955 -0.056126 -0.022788 3.000000
-0.466955 -0.062708 -0.042931 3.000000
-0.466955 0.050515 0.021925 3.000000
-0.466955 0.076307 0.041361 3.000000
-0.466955 0.058081 -0.066350 3.000000
-0.466955 -0.077951 0.028952 3.000000
-0.466955 -0.023050 -0.065096 3.000000
-0.466955 -0.027775 0.094758 3.000000
-0.466955 0.017761 -0.062923 3.000000
-0.466955 -0.046178 -0.016996 3.000000
-0.466955 -0.035300 -0.069393 3.000000
-0.466955 -0.078576 0.058248 3.000000
-0.466955 -0.000338 -0.081853 3.000000
-0.466955 0.030856 -0.027132 3.000000
-0.466955 0.064187 -0.048339 3.000000
-0.466955 -0.017533 -0.079392 3.000000
-0.466955 -0.071362 -0.005026 3.000000
-0.466955 -0.042975 -0.051541 3.000000
-0.466955 -0.005086 -0.045879 3.000000
-0.466955 -0.070644 -0.060853 3.000000
-0.466955 0.018006 -0.085225 3.000000
-0.466955 -0.078315 -0.023097 3.000000
-0.466955 0.077921 -0.050146 3.000000
-0.466955 -0.088833 -0.028258 3.000000
-0.466955 -0.050641 -0.041271 3.000000
-0.466955 0.040262 0.008787 3.000000
-0.466955 -0.030628 -0.053728 3.000000
-0.466955 0.041831 -0.053998 3.000000
-0.466955 0.062252 -0.060666 3.000000
-0.466955 -0.008207 -0.056110 3.000000
-0.466955 0.037887 0.019352 3.000000
-0.466955 -0.030425 -0.040624 3.000000
-0.466955 -0.060015 -0.004942 3.000000
-0.466955 0.023113 -0.086333 3.000000
-0.466955 -0.074681 0.034357 3.000000
-0.466955 -0.026415 -0.015035 3.000000
-0.466955 0.011722 0.023704 3.000000
-0.466955 -0.016749 0.059489 3.000000
-0.466955 0.017604 0.025901 3.000000
-0.466955 0.084410 -0.038028 3.000000
-0.466955 0.076495 -0.002946 3.000000
-0.466955 0.005821 -0.018884 3.000000
-0.466955 -0.084773 -0.045517 3.000000
-0.466955 -0.048861 -0.066001 3.000000
-0.466955 -0.006849 -0.068481 3.000000
-0.466955 0.072627 0.023598 3.000000
-0.466955 -0.010931 0.000687 3.000000
-0.466955 0.039815 -0.049764 3.000000
-0.466955 0.043213 0.069457 3.000000
-0.466955 0.091645 -0.015859 3.000000
-0.466955 0.068647 0.001701 3.000000
-0.466955 -0.062886 -0.072921 3.000000
-0.466955 -0.020650 -0.033141 3.000000
-0.466955 0.061968 -0.054003 3.000000
-0.466955 -0.017080 -0.026443 3.000000
-0.466955 0.047380 -0.003503 3.000000
-0.466955 0.060440 -0.070292 3.000000
-0.466955 0.049857 -0.045250 3.000000
-0.466955 0.089319 -0.011870 3.000000
-0.466955 -0.014522 0.079944 3.000000
-0.466955 -0.049331 0.039322 3.000000
-0.466955 -0.032212 -0.033746 3.000000
-0.466955 0.030934 -0.006090 3.000000
-0.466955 -0.072602 0.029465 3.000000
-0.466955 -0.006408 -0.074721 3.000000
-0.466955 -0.070530 0.068217 3.000000
-0.466955 -0.022730 -0.090537 3.000000
-0.466955 -0.017606 -0.050928 3.000000
-0.466955 0.027202 -0.011263 3.000000
-0.466955 0.000125 -0.016890 3.000000
-0.466955 0.022673 0.083634 3.000000
-0.466955 0.021527 -0.095746 3.000000
-0.466955 0.060730 -0.023911 3.000000
-0.466955 -0.030557 0.078755 3.000000
-0.466955 0.083276 0.054865 3.000000
-0.466955 -0.024746 -0.063119 3.000000
-0.466955 -0.004807 -0.029806 3.000000
-0.466955 0.000629 -0.099174 3.000000
-0.466955 -0.010711 -0.011474 3.000000
-0.466955 0.009986 -0.005664 3.000000
-0.466955 -0.098149 0.014752 3.000000
-0.466955 -0.063513 0.074159 3.000000
-0.466955 0.081104 -0.039402 3.000000
-0.466955 0.092840 0.032347 3.000000
-0.466955 -0.043497 -0.069729 3.000000
-0.466955 -0.017055 0.071185 3.000000
-0.466955 -0.047142 -0.040670 3.000000
-0.466955 -0.020041 0.038048 3.000000
-0.466955 -0.022986 -0.061499 3.000000
-0.466955 -0.016050 0.087782 3.000000
-0.466955 -0.001433 -0.051835 3.000000
-0.466955 -0.061282 0.042567 3.000000
-0.466955 -0.036768 0.028123 3.000000
-0.466955 0.051875 0.021057 3.000000
-0.466955 0.030557 0.057291 3.000000
-0.466955 0.011301 -0.001780 3.000000
-0.466955 -0.022606 -0.004828 3.000000
-0.466955 0.009869 -0.019304 3.000000
-0.466955 -0.055911 -0.073851 3.000000
-0.466955 0.028920 -0.033761 3.000000
-0.466955 -0.029859 0.022643 3.000000
-0.466955 -0.072389 -0.045273 3.000000
-0.466955 -0.034012 -0.003167 3.000000
-0.466955 0.057382 0.052966 3.000000
-0.466955 0.025551 -0.063191 3.000000
-0.466955 0.021611 -0.004772 3.000000
-0.466955 0.021986 0.039156 3.000000
-0.466955 0.032065 -0.071435 3.000000
-0.466955 -0.004308 0.058060 3.000000
-0.466955 0.042962 -0.016300 3.000000
-0.466955 -0.001026 0.069291 3.000000
-0.466955 -0.030403 -0.025453 3.000000
-0.466955 -0.024132 0.081452 3.000000
-0.466955 0.062829 0.069611 3.000000
-0.466955 0.006350 0.019522 3.000000
-0.466955 0.051951 -0.055840 3.000000
-0.466955 -0.036583 -0.031024 3.000000
-0.466955 0.024018 -0.059422 3.000000
-0.466955 -0.062670 -0.041489 3.000000
-0.466955 0.044070 0.036596 3.000000
-0.466955 0.025240 0.001049 3.000000
-0.466955 0.063065 0.047197 3.000000
-0.466955 -0.003336 -0.011706 3.000000
-0.466955 -0.048109 0.086687 3.000000
-0.466955 -0.027734 0.035990 3.000000
-0.466955 0.049513 -0.073905 3.000000
-0.466955 -0.039603 -0.047160 3.000000
-0.466955 -0.058023 0.000544 3.000000
-0.466955 -0.073681 0.020371 3.000000
-0.466955 -0.024869 -0.035794 3.000000
-0.466955 0.053589 -0.009869 3.000000
-0.466955 -0.029298 0.011277 3.000000
-0.466955 -0.080854 -0.021179 3.000000
-0.466955 0.035793 -0.064528 3.000000
-0.466955 0.079988 0.035232 3.000000
-0.466955 0.090836 0.022638 3.000000
-0.466955 -0.006287 0.095837 3.000000
-0.466955 0.001928 -0.019638 3.000000
-0.466955 -0.071650 0.018789 3.000000
-0.466955 0.002679 -0.015963 3.000000
-0.466955 0.031954 -0.061863 3.000000
-0.466955 -0.068222 -0.008978 3.000000
-0.466955 -0.080383 0.035336 3.000000
-0.466955 0.002378 0.061947 3.000000
-0.466955 0.024754 -0.082167 3.000000
-0.466955 0.042346 0.060566 3.000000
-0.466955 0.029575 -0.018797 3.000000
-0.466955 0.055970 0.036405 3.000000
-0.466955 0.053054 -0.070296 3.000000
-0.466955 0.034130 0.088916 3.000000
-0.466955 -0.081908 -0.046016 3.000000
-0.466955 0.030981 -0.048433 3.000000
-0.466955 -0.062696 0.005883 3.000000
-0.466955 0.049460 0.067386 3.000000
-0.466955 0.062357 -0.067011 3.000000
-0.466955 -0.006449 -0.052327 3.000000
-0.466955 -0.016240 0.066200 3.000000
-0.466955 0.015932 0.013835 3.000000
-0.466955 -0.022408 0.089965 3.000000
-0.466955 -0.050304 -0.065069 3.000000
-0.466955 0.045307 0.035740 3.000000
-0.466955 -0.018471 -0.065903 3.000000
-0.466955 -0.035968 -0.079335 3.000000
-0.466955 0.032878 0.075006 3.000000
-0.466955 0.067168 -0.017683 3.000000
-0.466955 0.022731 -0.097017 3.000000
-0.466955 0.041603 0.018238 3.000000
-0.466955 -0.012609 0.027301 3.000000
-0.466955 0.051677 0.026109 3.000000
-0.466955 0.093905 -0.006565 3.000000
-0.466955 0.030548 -0.004640 3.000000
-0.466955 -0.060314 0.003575 3.000000
-0.466955 -0.055781 -0.051665 3.000000
-0.466955 0.051522 -0.001874 3.000000
-0.466955 0.048426 0.025086 3.000000
-0.466955 0.048401 -0.016146 3.000000
-0.466955 -0.089728 0.012978 3.000000
-0.466955 -0.011738 0.075242 3.000000
-0.466955 0.009570 -0.051368 3.000000
-0.466955 -0.049614 0.061590 3.000000
-0.466955 0.039432 -0.008020 3.000000
-0.466955 0.046882 0.040382 3.000000
-0.466955 0.033212 0.007003 3.000000
-0.466955 -0.065474 -0.038511 3.000000
-0.466955 0.037609 -0.047313 3.000000
-0.466955 -0.051199 0.058436 3.000000
-0.466955 -0.082544 0.035573 3.000000
-0.466955 -0.002332 0.040260 3.000000
-0.466955 0.057451 0.000746 3.000000
-0.466955 -0.040746 -0.004338 3.000000
-0.466955 0.073483 0.064260 3.000000
-0.466955 -0.066987 -0.051869 3.000000
-0.466955 0.063562 0.074316 3.000000
-0.466955 0.029422 0.043298 3.000000
-0.466955 -0.083441 -0.015487 3.000000
-0.466955 0.015305 0.026582 3.000000
-0.466955 -0.024430 -0.011131 3.000000
-0.466955 0.038753 -0.025113 3.000000
-0.466955 0.057874 0.004160 3.000000
-0.466955 0.069305 0.046532 3.000000
-0.466955 0.098620 0.009758 3.000000
-0.466955 0.030035 0.072751 3.000000
-0.466955 0.018509 0.006956 3.000000
-0.466955 -0.001128 -0.046177 3.000000
-0.466955 0.055841 0.063431 3.000000
-0.466955 -0.041653 0.067629 3.000000
-0.466955 -0.029481 0.095521 3.000000
-0.466955 0.064654 -0.023860 3.000000
-0.466955 -0.009036 -0.025384 3.000000
-0.466955 0.054408 0.032685 3.000000
-0.466955 0.010332 -0.000066 3.000000
-0.466955 0.044174 0.046916 3.000000
-0.466955 -0.010199 -0.094798 3.000000
-0.466955 0.032245 0.068094 3.000000
-0.466955 0.078034 0.033737 3.000000
-0.466955 -0.022359 -0.072155 3.000000
-0.466955 -0.005648 -0.056128 3.000000
-0.466955 -0.004766 0.078973 3.000000
-0.466955 0.046487 -0.053488 3.000000
-0.466955 0.036745 0.049172 3.000000
-0.466955 0.018997 -0.095708 3.000000
-0.466955 -0.000140 -0.049974 3.000000
-0.466955 -0.094161 0.024685 3.000000
-0.466955 0.024146 -0.042325 3.000000
-0.466955 0.061597 -0.055933 3.000000
-0.466955 -0.035081 -0.019069 3.000000
-0.466955 -0.058299 -0.042018 3.000000
-0.466955 -0.041445 0.006327 3.000000
-0.466955 -0.080696 -0.011316 3.000000
-0.466955 0.038567 0.003211 3.000000
-0.466955 0.010204 -0.070498 3.000000
-0.466955 0.024171 -0.052165 3.000000
-0.466955 -0.010905 0.059337 3.000000
-0.466955 0.069748 0.071456 3.000000
-0.466955 0.007542 0.085281 3.000000
-0.466955 0.007449 -0.011790 3.000000
-0.466955 -0.022787 -0.010649 3.000000
-0.466955 0.021031 0.024861 3.000000
-0.466955 -0.080230 0.041421 3.000000
-0.466955 -0.012418 0.000217 3.000000
-0.466955 0.046383 -0.064487 3.000000
-0.466955 -0.035312 0.018736 3.000000
-0.466955 -0.066164 -0.017323 3.000000
-0.466955 0.048240 0.071728 3.000000
-0.466955 0.033415 -0.013752 3.000000
-0.466955 -0.032237 0.002200 3.000000
-0.466955 -0.095396 0.020033 3.000000
-0.466955 -0.052954 -0.018012 3.000000
-0.466955 -0.070533 0.036154 3.000000
-0.466955 -0.035618 0.070280 3.000000
-0.466955 0.019607 -0.013563 3.000000
-0.466955 0.039088 -0.019306 3.000000
-0.466955 0.053698 -0.063026 3.000000
-0.466955 0.030262 0.007926 3.000000
-0.466955 -0.023219 -0.059912 3.000000
-0.466955 -0.045837 -0.056595 3.000000
-0.466955 0.044709 -0.022459 3.000000
-0.466955 0.057490 -0.040097 3.000000
-0.466955 -0.089990 0.015634 3.000000
-0.466955 -0.006521 0.066647 3.000000
-0.466955 -0.074859 -0.039543 3.000000
-0.466955 0.019302 -0.092037 3.000000
-0.466955 -0.070691 0.026716 3.000000
-0.466955 0.017523 0.067054 3.000000
-0.466955 -0.075415 0.053956 3.000000
-0.466955 -0.045276 0.013277 3.000000
-0.466955 -0.018177 -0.024248 3.000000
-0.466955 -0.083031 -0.050388 3.000000
-0.466955 0.015113 -0.084291 3.000000
-0.466955 -0.030114 -0.071521 3.000000
-0.466955 0.092222 -0.027016 3.000000
-0.466955 0.065189 0.037757 3.000000
-0.466955 -0.061806 0.055704 3.000000
-0.466955 0.088101 0.028409 3.000000
-0.466955 0.070832 -0.024678 3.000000
-0.466955 0.016038 -0.065487 3.000000
-0.466955 -0.061859 0.013963 3.000000
-0.466955 -0.000267 -0.056372 3.000000
-0.466955 -0.075455 0.039365 3.000000
-0.466955 -0.058587 0.068454 3.000000
-0.466955 -0.022266 0.025518 3.000000
-0.466955 0.012108 0.044112 3.000000
-0.466955 -0.024862 -0.068306 3.000000
-0.466955 0.004626 -0.011799 3.000000
-0.466955 -0.015496 -0.068898 3.000000
-0.466955 -0.027167 0.010150 3.000000
-0.466955 0.037089 -0.022050 3.000000
-0.466955 0.005237 -0.002098 3.000000
-0.466955 -0.085488 -0.014197 3.000000
-0.466955 0.077170 -0.062999 3.000000
-0.466955 -0.067861 0.002463 3.000000
-0.466955 -0.062378 -0.011647 3.000000
-0.466955 -0.016805 0.003351 3.000000
-0.466955 -0.017236 -0.064803 3.000000
-0.466955 0.071816 0.011602 3.000000
-0.466955 -0.085367 0.010010 3.000000
-0.466955 0.014458 0.091370 3.000000
-0.466955 -0.031791 0.031123 3.000000
-0.466955 -0.055869 0.043812 3.000000
-0.466955 -0.030896 -0.015783 3.000000
-0.466955 0.035120 -0.091477 3.000000
-0.466955 -0.076983 0.047587 3.000000
-0.466955 -0.003755 0.005824 3.000000
-0.466955 -0.071945 0.035774 3.000000
-0.466955 0.004004 -0.066337 3.000000
-0.466955 -0.015293 0.034924 3.000000
-0.466955 0.015672 -0.095574 3.000000
-0.466955 0.034760 -0.016929 3.000000
-0.466955 0.066085 0.071793 3.000000
-0.466955 -0.047778 -0.051011 3.000000
-0.466955 -0.043300 0.062453 3.000000
-0.466955 0.060196 -0.003973 3.000000
-0.466955 0.053346 0.071893 3.000000
-0.466955 -0.002629 0.010584 3.000000
-0.466955 0.025201 0.014540 3.000000
-0.466955 0.024249 0.079741 3.000000
-0.466955 -0.089969 -0.020958 3.000000
-0.466955 0.042838 -0.030042 3.000000
-0.466955 -0.064472 -0.005624 3.000000
-0.466955 -0.043585 -0.057736 3.000000
-0.466955 -0.079412 0.018512 3.000000
-0.466955 -0.022480 -0.068879 3.000000
-0.466955 -0.054756 0.014922 3.000000
-0.466955 0.056029 -0.003842 3.000000
-0.466955 0.077161 0.011525 3.000000
-0.466955 0.042460 0.024815 3.000000
-0.466955 -0.036229 0.091424 3.000000
-0.466955 0.035631 -0.082723 3.000000
-0.466955 -0.001033 -0.006322 3.000000
-0.466955 -0.036876 0.036894 3.000000
-0.466955 0.023702 0.038426 3.000000
-0.466955 -0.038944 0.044821 3.000000
-0.466955 0.044574 -0.032672 3.000000
-0.466955 0.086874 -0.045992 3.000000
-0.466955 -0.008853 -0.036289 3.000000
-0.466955 -0.045980 -0.006352 3.000000
-0.466955 -0.046803 -0.002893 3.000000
-0.466955 0.017101 -0.018323 3.000000
-0.466955 0.099765 -0.001556 3.000000
-0.466955 0.068557 -0.021572 3.000000
-0.466955 0.059415 -0.042391 3.000000
-0.466955 0.020229 0.091961 3.000000
-0.466955 0.053373 0.043673 3.000000
-0.466955 0.082280 0.025180 3.000000
-0.466955 -0.004523 0.077530 3.000000
-0.466955 -0.042872 -0.062294 3.000000
-0.466955 0.027092 -0.030927 3.000000
-0.466955 -0.081346 -0.057088 3.000000
-0.466955 -0.021051 -0.088630 3.000000
-0.466955 -0.021163 0.043286 3.000000
-0.466955 0.026247 0.021184 3.000000
-0.466955 0.068750 0.007484 3.000000
-0.466955 0.095135 -0.028523 3.000000
-0.466955 0.033820 0.008654 3.000000
-0.466955 0.049612 0.037026 3.000000
-0.466955 -0.003472 -0.049074 3.000000
-0.466955 0.048165 0.054290 3.000000
-0.466955 -0.017490 -0.067243 3.000000
-0.466955 -0.053243 -0.012651 3.000000
-0.466955 -0.071941 -0.068058 3.000000
-0.466955 0.089380 -0.021661 3.000000
-0.466955 0.033507 -0.021476 3.000000
-0.466955 0.047957 -0.033665 3.000000
-0.466955 -0.034900 -0.075906 3.000000
-0.466955 0.022163 -0.079269 3.000000
-0.466955 0.039903 0.030057 3.000000
-0.466955 0.028165 0.066119 3.000000
-0.466955 0.091504 -0.039692 3.000000
-0.466955 -0.013939 -0.073522 3.000000
-0.466955 -0.040695 -0.015329 3.000000
-0.466955 0.078533 0.001777 3.000000
-0.466955 0.075717 0.034049 3.000000
-0.466955 0.058263 -0.027905 3.000000
-0.466955 0.033257 -0.045916 3.000000
-0.466955 0.031883 0.047342 3.000000
-0.466955 0.041698 -0.072554 3.000000
-0.466955 -0.054439 0.022154 3.000000
-0.466955 -0.046523 -0.023966 3.000000
-0.466955 -0.021376 0.086649 3.000000
-0.466955 -0.051427 -0.060906 3.000000
-0.466955 -0.058535 -0.003508 3.000000
-0.466955 -0.028233 0.047763 3.000000
-0.466955 0.068156 0.022333 3.000000
-0.466955 0.022927 0.029494 3.000000
-0.466955 0.019137 0.072487 3.000000
-0.466955 0.003873 0.013664 3.000000
-0.466955 0.016218 0.041448 3.000000
-0.466955 0.078607 0.019437 3.000000
-0.466955 0.017095 -0.066529 3.000000
-0.466955 0.082912 0.023937 3.000000
-0.466955 0.058269 -0.022724 3.000000
-0.466955 -0.087693 -0.032471 3.000000
-0.466955 -0.033033 -0.058092 3.000000
-0.466955 0.004784 -0.068542 3.000000
-0.466955 0.042713 -0.009305 3.000000
-0.466955 0.019829 -0.041314 3.000000
-0.466955 -0.052667 -0.016174 3.000000
-0.466955 -0.064957 0.071937 3.000000
-0.466955 -0.009749 0.062126 3.000000
-0.466955 -0.047078 -0.085565 3.000000
-0.466955 0.052911 -0.039494 3.000000
-0.466955 -0.001741 0.003616 3.000000
-0.466955 0.002220 0.025273 3.000000
-0.466955 0.016541 -0.091758 3.000000
-0.466955 -0.022599 -0.030862 3.000000
-0.466955 -0.027182 -0.056228 3.000000
-0.466955 0.039512 -0.006581 3.000000
-0.466955 0.064892 -0.039625 3.000000
-0.466955 0.064828 0.065794 3.000000
-0.466955 -0.089153 0.008254 3.000000
-0.466955 0.062902 0.055719 3.000000
-0.466955 -0.070436 0.046068 3.000000
-0.466955 0.052859 -0.050654 3.000000
-0.466955 0.051961 0.059880 3.000000
-0.466955 -0.043104 -0.022298 3.000000
-0.466955 -0.020942 0.023653 3.000000
-0.466955 -0.047834 0.050123 3.000000
-0.466955 -0.024829 -0.026417 3.000000
-0.466955 -0.018645 0.097314 3.000000
-0.466955 -0.052205 -0.072272 3.000000
-0.466955 -0.082897 0.050005 3.000000
-0.466955 -0.051206 0.050652 3.000000
-0.466955 -0.083736 0.033630 3.000000
-0.466955 0.088865 0.019191 3.000000
-0.466955 -0.050705 0.072566 3.000000
-0.466955 0.053101 0.079233 3.000000
-0.466955 -0.078275 -0.000480 3.000000
-0.466955 -0.026565 -0.063184 3.000000
-0.466955 -0.011420 -0.071152 3.000000
-0.466955 0.006730 0.027451 3.000000
-0.466955 0.061188 -0.075010 3.000000
-0.466955 -0.032696 -0.089749 3.000000
-0.466955 0.013741 0.020947 3.000000
-0.466955 0.023838 -0.020311 3.000000
-0.466955 0.031511 0.084050 3.000000
-0.466955 0.025930 0.076417 3.000000
-0.466955 -0.039679 0.023646 3.000000
-0.466955 -0.017473 -0.002981 3.000000
-0.466955 0.030154 0.087121 3.000000
-0.466955 -0.075706 -0.026985 3.000000
-0.466955 0.005632 0.084448 3.000000
-0.466955 0.065234 0.045248 3.000000
-0.466955 -0.044416 -0.013093 3.000000
-0.466955 0.046319 -0.001614 3.000000
-0.466955 -0.037773 0.091064 3.000000
-0.466955 0.004022 0.062289 3.000000
-0.466955 0.086840 -0.017126 3.000000
-0.466955 -0.019129 0.009443 3.000000
-0.466955 0.042723 -0.043878 3.000000
-0.466955 0.019373 0.034038 3.000000
-0.466955 0.057115 -0.021513 3.000000
-0.466955 -0.024142 0.009398 3.000000
-0.466955 0.060315 0.032916 3.000000
-0.466955 -0.060506 0.036554 3.000000
-0.466955 0.064925 -0.011969 3.000000
-0.466955 -0.075826 -0.022504 3.000000
-0.466955 0.058462 -0.025604 3.000000
-0.466955 0.090654 -0.017249 3.000000
-0.466955 -0.059542 0.069514 3.000000
-0.466955 0.009624 0.087065 3.000000
-0.466955 0.079184 0.060071 3.000000
-0.466955 0.042550 -0.058003 3.000000
-0.466955 -0.028806 -0.043470 3.000000
