-0.185418 0.098573 -0.016410 1.000000
0.061444 -0.085574 -0.051056 1.000000
-0.036120 0.058743 -0.080689 1.000000
-0.288774 0.000951 0.100044 1.000000
0.197177 -0.023297 0.097251 1.000000
-0.154072 0.098738 0.015730 1.000000
0.283647 -0.097720 -0.019800 1.000000
0.039407 0.064958 -0.075753 1.000000
-0.243903 0.016647 -0.098284 1.000000
0.110043 -0.069762 0.071497 1.000000
-0.238583 -0.089416 0.044378 1.000000
0.007762 -0.009453 -0.099198 1.000000
0.203808 -0.023530 0.097199 1.000000
0.178785 -0.095567 0.028696 1.000000
-0.431516 -0.076220 0.064567 3.000000
-0.006821 -0.098196 -0.017317 1.000000
-0.346053 0.099984 0.000866 1.000000
-0.280676 0.024483 0.097038 1.000000
0.151651 0.048196 -0.087373 1.000000
0.058444 0.014500 -0.098624 1.000000
-0.066386 -0.097592 0.020735 1.000000
-0.214447 -0.077335 0.063226 1.000000
-0.256723 -0.065411 -0.075147 1.000000
-0.443519 0.019919 -0.097695 3.000000
-0.178555 0.099443 0.010316 1.000000
0.223866 -0.039622 -0.091409 1.000000
-0.122629 -0.076205 -0.064220 1.000000
0.361921 0.024869 -0.096589 1.000000
0.125399 -0.084901 -0.052193 1.000000
0.218748 0.043841 -0.089592 1.000000
0.337953 0.059160 -0.080374 1.000000
0.130438 0.077478 0.063343 1.000000
-0.415778 0.097477 0.022292 1.000000
0.022271 0.059885 -0.079811 1.000000
-0.454628 -0.034643 -0.093417 3.000000
-0.138857 0.075227 0.065957 1.000000
-0.006443 -0.093374 0.035239 1.000000
-0.188484 -0.037851 0.092538 1.000000
0.041683 -0.037664 -0.092256 1.000000
-0.018518 0.074369 -0.066568 1.000000
0.432439 -0.051323 -0.085390 1.000000
-0.166534 -0.012794 -0.098858 1.000000
0.356363 0.069879 -0.071251 1.000000
-0.095991 -0.000879 0.100039 1.000000
-0.181915 -0.090548 -0.041695 1.000000
-0.225122 0.051914 0.085541 1.000000
-0.390832 0.065505 -0.075271 1.000000
-0.305207 -0.060915 -0.078832 1.000000
-0.463783 -0.062221 0.078181 3.000000
-0.272382 0.060731 -0.079156 1.000000
0.210959 0.013299 0.099177 1.000000
-0.139924 -0.072499 0.068760 1.000000
-0.158795 -0.015148 0.098847 1.000000
-0.288481 0.059590 0.080403 1.000000
0.185823 -0.093263 -0.035187 1.000000
-0.404887 -0.099437 -0.007546 1.000000
-0.015101 0.015880 0.098768 1.000000
-0.387572 0.019295 0.098198 1.000000
0.258242 0.047430 0.088126 1.000000
-0.346263 0.098062 0.019679 1.000000
0.323320 -0.047991 0.087722 1.000000
0.405402 -0.031934 0.094755 1.000000
-0.105240 -0.036883 -0.092594 1.000000
-0.171369 0.034660 0.093858 1.000000
0.018288 0.063242 -0.077207 1.000000
0.010999 -0.025049 0.096837 1.000000
0.132124 -0.094799 -0.030920 1.000000
0.436894 -0.037489 -0.092332 1.000000
-0.039231 0.022497 0.097482 1.000000
-0.416929 0.022284 0.097529 1.000000
-0.046312 -0.006119 -0.099511 1.000000
0.288115 0.098013 0.019894 1.000000
0.224941 0.033550 -0.093894 1.000000
0.017335 0.008229 -0.099336 1.000000
-0.156900 0.025676 -0.096360 1.000000
-0.138055 0.052181 -0.085020 1.000000
0.121839 -0.099038 0.012127 1.000000
-0.299113 0.003929 -0.099587 1.000000
0.382516 0.085633 -0.051351 1.000000
0.232453 -0.082730 0.055900 1.000000
-0.419608 0.096175 0.027405 1.000000
-0.127285 0.094244 -0.033110 1.000000
0.145910 -0.087139 -0.048410 1.000000
0.419464 0.097698 -0.020941 1.000000
-0.334423 -0.068306 0.072953 1.000000
-0.406459 -0.058125 -0.080951 1.000000
-0.166333 0.062125 -0.078074 1.000000
-0.002930 -0.067275 -0.073505 1.000000
-0.304013 0.058450 0.081251 1.000000
-0.443921 0.030481 -0.094964 3.000000
0.410570 0.010632 -0.099109 1.000000
-0.422134 0.099915 -0.002703 1.000000
0.053297 0.040335 0.091564 1.000000
-0.041468 -0.026314 0.096470 1.000000
-0.125824 0.094963 0.031476 1.000000
0.114694 -0.092341 -0.037553 1.000000
0.291217 -0.096462 -0.025252 1.000000
0.288532 0.068467 -0.072659 1.000000
0.345102 -0.073347 -0.067462 1.000000
0.319907 0.099167 -0.012657 1.000000
0.173058 -0.096527 0.025391 1.000000
-0.064144 0.094734 -0.031748 1.000000
0.115665 -0.098421 0.016260 1.000000
-0.422231 -0.095498 0.028931 3.000000
-0.124886 -0.039601 0.091780 1.000000
0.151819 -0.011685 -0.098987 1.000000
0.334973 -0.058788 0.080845 1.000000
-0.118392 -0.085218 0.052020 1.000000
-0.014048 0.099946 -0.001714 1.000000
-0.452764 -0.094916 -0.030574 3.000000
-0.390626 0.054047 0.084243 1.000000
-0.105985 -0.089654 0.043912 1.000000
0.434912 -0.007697 0.099727 2.000000
0.124902 0.096531 0.026178 1.000000
0.038634 0.021634 -0.097312 1.000000
0.464399 -0.014675 0.098923 2.000000
0.372954 -0.012614 0.099249 1.000000
-0.361030 -0.072482 -0.068414 1.000000
0.068729 -0.065612 0.075333 1.000000
-0.026459 -0.096539 -0.024985 1.000000
0.445548 0.062282 -0.077953 2.000000
-0.442148 0.094132 0.033784 3.000000
0.200550 -0.081792 0.057281 1.000000
-0.440043 0.072404 0.069089 3.000000
-0.309433 0.100004 0.000154 1.000000
-0.437835 0.029676 -0.095198 3.000000
0.299791 -0.064480 -0.075968 1.000000
0.414303 0.081563 0.057960 1.000000
0.054791 0.024981 -0.096562 1.000000
-0.183019 0.091692 -0.039591 1.000000
-0.411336 0.064218 0.076768 1.000000
0.028314 0.060359 0.079807 1.000000
0.255520 0.099507 0.009642 1.000000
0.426208 0.021581 0.097687 2.000000
0.043466 0.023957 0.097156 1.000000
-0.074241 -0.096809 0.024238 1.000000
0.376295 -0.070035 -0.070861 1.000000
0.204540 0.011493 0.099390 1.000000
0.271108 0.064844 0.076216 1.000000
0.078975 0.084680 0.053325 1.000000
0.160874 0.062259 -0.077970 1.000000
0.218445 -0.095678 0.028314 1.000000
0.054799 -0.094452 -0.031884 1.000000
-0.280845 -0.096941 -0.023286 1.000000
-0.278591 -0.054631 -0.083325 1.000000
-0.425339 -0.046386 -0.088177 1.000000
0.453810 0.014634 0.098966 2.000000
-0.235204 0.081022 -0.058394 1.000000
0.463979 0.073270 0.068177 2.000000
-0.440234 -0.038778 -0.091774 3.000000
0.386237 -0.094194 0.032964 1.000000
0.171603 -0.033493 0.094194 1.000000
0.444950 0.074260 -0.066691 2.000000
-0.340331 -0.085106 0.052209 1.000000
-0.042529 -0.096926 -0.023350 1.000000
-0.382819 0.003525 -0.099600 1.000000
0.162841 -0.078328 -0.061583 1.000000
-0.062990 -0.073127 -0.067711 1.000000
-0.001675 0.051563 0.085748 1.000000
-0.262405 0.031783 -0.094531 1.000000
0.450415 0.098087 0.019564 2.000000
-0.390099 -0.099448 -0.007436 1.000000
-0.277523 0.038120 -0.092160 1.000000
0.202650 -0.001973 0.100004 1.000000
0.042712 -0.070518 0.070741 1.000000
0.328708 0.092799 0.037396 1.000000
0.033739 -0.088456 0.046262 1.000000
-0.029718 0.093011 0.036895 1.000000
0.292194 -0.064274 -0.076150 1.000000
0.049462 -0.008955 0.099608 1.000000
-0.350981 0.060607 -0.079252 1.000000
0.025663 -0.063417 0.077253 1.000000
0.029062 0.028979 -0.095401 1.000000
-0.454865 0.092775 -0.037090 3.000000
-0.436354 -0.064658 -0.075811 3.000000
-0.039946 -0.093476 -0.034593 1.000000
-0.071809 0.097591 0.021785 1.000000
0.109395 0.098909 -0.014289 1.000000
0.214261 0.087479 0.048592 1.000000
-0.345004 0.099685 0.007753 1.000000
-0.083636 -0.037219 0.092811 1.000000
0.253831 -0.038616 -0.091844 1.000000
-0.399769 0.035227 -0.093291 1.000000
-0.237878 -0.060094 -0.079468 1.000000
-0.238280 -0.047761 0.087839 1.000000
-0.389862 0.097691 -0.020974 1.000000
-0.026411 0.092850 -0.036915 1.000000
-0.460770 0.071564 0.069929 3.000000
0.007929 -0.023798 -0.096776 1.000000
-0.040808 -0.056630 0.082329 1.000000
0.416652 -0.014187 0.099000 2.000000
0.462039 0.081399 0.058202 2.000000
-0.078071 0.031202 -0.094740 1.000000
-0.136482 0.027221 0.096274 1.000000
-0.396110 0.099924 -0.002412 1.000000
0.242266 0.046937 0.088378 1.000000
-0.018988 0.093509 -0.035151 1.000000
-0.439991 0.095842 0.028553 3.000000
0.278226 0.090918 0.041742 1.000000
-0.085354 0.044600 -0.089206 1.000000
0.203122 -0.045286 0.089100 1.000000
-0.406652 0.068878 -0.072251 1.000000
-0.381638 0.053210 -0.084411 1.000000
-0.364728 -0.011586 0.099360 1.000000
0.433950 -0.031298 -0.094621 1.000000
-0.053521 -0.010280 0.099483 1.000000
0.000138 0.036291 0.093270 1.000000
0.346599 -0.068935 -0.071961 1.000000
-0.088154 -0.099186 0.010564 1.000000
-0.234192 0.095678 0.029116 1.000000
0.411138 -0.098789 -0.013569 1.000000
0.135252 0.020132 0.098010 1.000000
0.087508 -0.093800 -0.033695 1.000000
-0.273351 0.074650 0.066611 1.000000
0.213077 -0.098951 -0.012548 1.000000
-0.147400 -0.094975 -0.030369 1.000000
0.036855 0.009924 0.099539 1.000000
-0.345896 -0.050706 0.086117 1.000000
-0.090778 -0.089436 0.044339 1.000000
-0.437436 0.097616 -0.021310 3.000000
0.078458 -0.018726 0.098273 1.000000
-0.415474 0.080513 0.059430 1.000000
-0.152310 -0.045912 -0.088418 1.000000
-0.070518 -0.081948 -0.056688 1.000000
0.109731 -0.021572 0.097637 1.000000
-0.139937 -0.012659 -0.098879 1.000000
0.458069 -0.098995 0.012585 2.000000
0.034385 0.048073 -0.087436 1.000000
0.328266 -0.086744 -0.049076 1.000000
-0.368711 -0.090961 0.041104 1.000000
0.008423 -0.087974 0.047209 1.000000
-0.394870 0.098560 -0.016492 1.000000
-0.399999 0.084260 -0.053629 1.000000
-0.458073 -0.057988 0.081406 3.000000
-0.103812 -0.099114 -0.010962 1.000000
-0.331922 -0.017510 -0.098111 1.000000
0.150409 -0.063852 -0.076522 1.000000
0.021362 -0.077373 0.063177 1.000000
0.130478 -0.088292 -0.046221 1.000000
0.452169 0.081522 -0.057658 2.000000
-0.172256 -0.093407 -0.034785 1.000000
0.001962 0.027962 -0.095696 1.000000
0.066981 0.088413 0.046804 1.000000
0.077360 0.048208 -0.087367 1.000000
-0.171372 0.061297 0.079079 1.000000
-0.143486 -0.095949 0.027378 1.000000
-0.174415 -0.060017 -0.079528 1.000000
-0.025929 0.099587 0.008794 1.000000
-0.013346 0.007342 -0.099420 1.000000
-0.024795 0.062759 -0.077583 1.000000
0.250836 0.080240 -0.059419 1.000000
-0.213439 0.072283 -0.068847 1.000000
-0.152038 -0.075889 0.064942 1.000000
-0.087550 -0.019439 0.098113 1.000000
-0.144374 0.015470 0.098833 1.000000
-0.302628 -0.063581 0.077124 1.000000
0.238629 -0.078546 0.061665 1.000000
-0.378851 0.061158 0.079187 1.000000
-0.265451 -0.052825 -0.084501 1.000000
-0.272841 -0.072390 -0.068506 1.000000
0.404074 -0.098571 0.015309 1.000000
0.464200 -0.093119 -0.035584 2.000000
-0.366265 0.070808 -0.070321 1.000000
0.088734 -0.020917 0.097783 1.000000
-0.040115 -0.037953 0.092494 1.000000
0.284273 0.081607 0.057896 1.000000
0.385545 0.097547 0.021979 1.000000
-0.059895 0.076881 -0.063719 1.000000
0.305078 -0.061263 -0.078562 1.000000
-0.011206 0.086869 -0.049261 1.000000
0.190367 0.097398 -0.022283 1.000000
0.205352 0.097787 0.020906 1.000000
0.146976 0.019896 0.098063 1.000000
0.141229 -0.022197 -0.097134 1.000000
0.449444 -0.003045 -0.099608 2.000000
0.013799 0.065857 0.075323 1.000000
0.032038 -0.049652 0.086741 1.000000
0.179576 0.087605 0.048378 1.000000
-0.337296 -0.099616 0.005141 1.000000
0.307241 0.049412 0.087020 1.000000
-0.032964 0.054587 0.083876 1.000000
-0.261499 -0.008892 0.099614 1.000000
-0.203145 -0.095148 0.030137 1.000000
0.305974 0.054935 0.083640 1.000000
-0.451310 0.057435 0.081941 3.000000
0.408000 -0.086669 -0.049204 1.000000
0.458693 -0.079942 -0.059502 2.000000
-0.091785 0.089518 -0.044273 1.000000
-0.400600 0.043867 -0.089579 1.000000
0.152600 -0.083895 0.054185 1.000000
0.104962 0.095214 0.030714 1.000000
0.095803 -0.098305 0.016987 1.000000
-0.460742 0.003015 -0.099616 3.000000
-0.202894 -0.093229 -0.035281 1.000000
-0.031827 -0.062639 0.077857 1.000000
0.356657 0.079564 0.060653 1.000000
0.121170 0.018938 0.098277 1.000000
0.429790 -0.097276 -0.021788 1.000000
0.142608 0.096711 -0.025197 1.000000
-0.389611 -0.003050 0.099970 1.000000
-0.339759 0.079618 -0.060220 1.000000
-0.218720 -0.074490 0.066528 1.000000
-0.009406 0.005039 0.099915 1.000000
0.436258 0.077706 0.063049 2.000000
-0.135716 0.084407 -0.053413 1.000000
0.178815 -0.047253 -0.087735 1.000000
-0.065429 0.004032 -0.099584 1.000000
0.002334 -0.009621 0.099545 1.000000
0.027615 -0.026226 0.096495 1.000000
0.005589 0.067334 -0.073658 1.000000
0.407882 -0.072987 0.068233 1.000000
-0.268538 -0.077631 -0.062482 1.000000
0.401923 0.090016 0.043660 1.000000
0.235134 0.069974 -0.071155 1.000000
0.052684 0.095476 0.029810 1.000000
0.038323 -0.004730 -0.099555 1.000000
-0.350341 -0.068178 -0.072708 1.000000
-0.302618 -0.088842 0.045504 1.000000
-0.135580 -0.046669 0.088395 1.000000
0.357943 -0.049100 0.087067 1.000000
-0.019450 -0.017906 -0.098048 1.000000
-0.052213 -0.099495 -0.006938 1.000000
-0.086959 -0.088823 -0.045179 1.000000
-0.311496 0.083813 0.054649 1.000000
-0.215321 -0.005420 -0.099533 1.000000
0.271838 0.026107 -0.096235 1.000000
-0.448831 0.090593 0.042493 3.000000
-0.265095 -0.036339 -0.092806 1.000000
0.362922 -0.083943 0.054115 1.000000
0.340215 0.091162 0.041180 1.000000
-0.450719 0.097680 -0.021024 3.000000
0.037133 0.094563 -0.032222 1.000000
0.296490 -0.097634 0.020547 1.000000
0.138388 -0.029535 0.095534 1.000000
0.461569 -0.037810 -0.092193 2.000000
0.052833 0.033080 0.094427 1.000000
0.309095 0.043954 0.089898 1.000000
-0.188161 -0.094997 -0.030293 1.000000
0.357414 0.004882 -0.099557 1.000000
-0.260936 0.046300 -0.088339 1.000000
-0.249065 -0.099624 0.004898 1.000000
0.241309 -0.001711 0.100013 1.000000
0.225856 0.099907 -0.002955 1.000000
-0.252147 -0.087441 -0.047892 1.000000
0.449877 -0.098247 -0.016991 2.000000
-0.419815 0.093848 0.034573 1.000000
-0.015394 0.031217 0.095097 1.000000
-0.017252 0.086127 -0.050516 1.000000
-0.323203 0.029693 -0.095193 1.000000
0.015434 0.098390 0.017928 1.000000
-0.244039 -0.094648 -0.031340 1.000000
0.140010 0.083498 -0.054751 1.000000
0.354286 -0.079107 0.060941 1.000000
-0.205755 -0.075976 -0.064480 1.000000
0.428204 0.069939 -0.071191 1.000000
-0.374091 0.090975 -0.041248 1.000000
0.084965 -0.014479 0.098953 1.000000
0.218312 -0.018089 0.098382 1.000000
0.020805 0.089977 -0.043373 1.000000
-0.348515 -0.066544 0.074511 1.000000
-0.464491 -0.011426 -0.099012 3.000000
-0.259405 -0.049345 -0.086559 1.000000
-0.098796 0.053964 -0.083937 1.000000
0.428041 0.099922 0.002833 1.000000
0.222183 0.074089 -0.066885 1.000000
0.270076 0.024511 0.097032 1.000000
-0.355995 -0.085557 0.051447 1.000000
0.405002 -0.034500 -0.093468 1.000000
0.296971 0.059921 -0.079784 1.000000
0.313163 0.086835 -0.049319 1.000000
-0.174295 -0.021255 -0.097345 1.000000
-0.101911 0.089494 -0.044320 1.000000
0.387927 0.038437 0.092385 1.000000
0.217547 -0.084080 -0.053551 1.000000
0.393329 0.013525 -0.098779 1.000000
-0.413889 -0.072258 0.069001 1.000000
-0.259913 -0.056523 -0.082039 1.000000
-0.077747 -0.003133 -0.099605 1.000000
0.104842 0.066905 0.074399 1.000000
-0.324178 0.097084 -0.023690 1.000000
-0.068391 0.057360 -0.081629 1.000000
0.108155 -0.085668 -0.050897 1.000000
0.114768 0.089714 0.044252 1.000000
-0.349624 -0.039087 0.092003 1.000000
-0.058636 -0.097892 0.019394 1.000000
-0.031813 -0.093605 0.034600 1.000000
-0.381372 0.095157 -0.030546 1.000000
-0.298802 0.035576 0.093528 1.000000
-0.304370 -0.091774 0.039226 1.000000
0.225261 -0.001557 -0.099655 1.000000
-0.298213 0.099362 0.011174 1.000000
-0.334553 0.068748 0.072744 1.000000
0.365895 -0.024118 0.097067 1.000000
-0.123623 0.071412 -0.069717 1.000000
0.037049 0.074606 -0.066298 1.000000
-0.126400 -0.059182 -0.080176 1.000000
-0.056266 -0.017088 -0.098177 1.000000
-0.260802 0.038251 -0.092103 1.000000
0.253871 -0.048703 0.087302 1.000000
-0.113363 -0.044475 0.089513 1.000000
-0.192471 -0.075965 -0.064493 1.000000
-0.258756 0.093660 -0.034732 1.000000
-0.310255 -0.068152 -0.072731 1.000000
0.305792 -0.089842 0.043543 1.000000
0.135155 0.087775 0.048058 1.000000
0.042544 0.047138 -0.087912 1.000000
-0.205204 -0.031233 0.095008 1.000000
0.305504 -0.079361 -0.060252 1.000000
-0.313826 0.046524 0.088588 1.000000
0.111178 0.091598 0.040172 1.000000
0.397228 -0.098123 -0.017778 1.000000
-0.316925 0.027333 -0.095879 1.000000
0.036814 -0.011897 -0.098967 1.000000
0.255136 0.039622 -0.091509 1.000000
-0.259845 -0.019184 0.098170 1.000000
0.132013 0.054070 0.084228 1.000000
0.189742 -0.063370 -0.076927 1.000000
0.313484 0.011188 -0.099056 1.000000
0.185342 0.041715 -0.090604 1.000000
-0.337430 0.057889 -0.081270 1.000000
-0.394711 -0.033469 -0.093839 1.000000
0.172137 0.097881 -0.020125 1.000000
0.231671 0.099990 -0.000295 1.000000
0.146643 -0.040585 -0.090992 1.000000
0.391388 0.096864 0.025034 1.000000
0.206981 0.035514 -0.093187 1.000000
-0.447003 -0.092004 0.038694 3.000000
0.067434 -0.053339 0.084560 1.000000
0.363929 -0.036223 -0.092848 1.000000
-0.217878 0.052284 -0.084959 1.000000
-0.435968 -0.061660 0.078616 3.000000
0.396629 -0.099129 -0.010806 1.000000
-0.345749 0.038911 0.092180 1.000000
0.315702 -0.098653 0.014795 1.000000
-0.093575 0.079571 0.060644 1.000000
0.398278 -0.008556 0.099646 1.000000
0.283597 0.079015 -0.060998 1.000000
0.005795 0.077815 -0.062545 1.000000
-0.300106 0.050284 -0.086142 1.000000
0.005029 0.073673 0.067720 1.000000
0.245397 -0.094279 0.032727 1.000000
0.062604 -0.007609 -0.099373 1.000000
-0.358701 0.052838 -0.084632 1.000000
-0.276645 -0.060777 0.079301 1.000000
0.027025 -0.077990 0.062382 1.000000
0.208839 0.083149 0.055627 1.000000
0.112473 -0.094835 0.031181 1.000000
0.085151 -0.094271 0.032749 1.000000
0.028343 0.023545 0.097248 1.000000
-0.290590 -0.099018 -0.011983 1.000000
0.186759 0.062881 -0.077488 1.000000
0.066360 0.097129 0.023849 1.000000
-0.231421 -0.099734 0.001390 1.000000
0.444150 -0.099477 -0.007123 2.000000
0.400583 0.015329 -0.098493 1.000000
-0.091302 0.083562 0.055019 1.000000
-0.412465 0.028124 0.096012 1.000000
0.078784 -0.066828 -0.073899 1.000000
0.453698 -0.099519 0.007047 2.000000
0.011761 -0.052086 -0.084938 1.000000
-0.034050 0.060996 0.079313 1.000000
-0.437016 -0.099405 -0.007882 3.000000
-0.044757 0.085790 -0.051084 1.000000
-0.436272 0.018314 -0.098020 3.000000
-0.291363 -0.097952 -0.018761 1.000000
0.107306 0.061663 -0.078433 1.000000
0.115060 -0.096905 0.023811 1.000000
-0.033252 0.038270 0.092457 1.000000
-0.240550 0.016550 0.098662 1.000000
-0.147760 -0.057583 0.081681 1.000000
0.160503 0.099983 0.000879 1.000000
-0.014948 -0.099606 0.005473 1.000000
0.341961 -0.098784 -0.013605 1.000000
-0.380657 -0.071323 -0.069573 1.000000
0.224271 0.038766 0.092243 1.000000
0.359730 -0.023525 0.097200 1.000000
-0.301145 -0.038371 -0.091950 1.000000
-0.218588 -0.052643 -0.084609 1.000000
-0.359776 -0.085037 -0.051963 1.000000
0.010217 -0.056808 -0.081845 1.000000
0.446895 0.002470 0.099996 2.000000
-0.244646 -0.014105 -0.098650 1.000000
0.343204 0.099949 -0.001621 1.000000
0.446454 -0.044908 0.089292 2.000000
0.431026 -0.097954 0.019116 2.000000
-0.441078 0.043540 0.090108 3.000000
0.314289 -0.078703 0.061462 1.000000
-0.132573 -0.070448 -0.070448 1.000000
-0.065012 -0.099557 0.006645 1.000000
0.067431 -0.025951 0.096575 1.000000
0.225278 -0.091334 0.040241 1.000000
0.274929 -0.043211 0.090157 1.000000
0.241068 0.098855 -0.014627 1.000000
-0.411633 0.065236 -0.075507 1.000000
-0.455678 0.035558 -0.093172 3.000000
-0.362914 -0.088830 0.045529 1.000000
0.266332 -0.009563 0.099551 1.000000
0.033115 -0.020628 0.097847 1.000000
-0.068301 0.098699 0.015972 1.000000
0.412557 0.053677 -0.084132 1.000000
-0.306416 0.021233 -0.097402 1.000000
0.263249 -0.097416 0.021523 1.000000
0.265788 0.047827 0.087924 1.000000
0.373301 0.099316 -0.011298 1.000000
-0.153171 0.094227 -0.033155 1.000000
-0.235955 -0.095313 -0.029206 1.000000
-0.128341 -0.066572 -0.074124 1.000000
0.133466 0.089943 -0.043440 1.000000
-0.218032 0.088545 0.046546 1.000000
0.326601 -0.082033 0.056926 1.000000
-0.068995 -0.041549 0.090937 1.000000
0.429653 -0.046025 -0.088361 1.000000
0.226012 0.068471 0.073018 1.000000
0.213253 -0.096519 -0.025053 1.000000
-0.369167 -0.063840 0.076896 1.000000
-0.297013 0.068052 0.073388 1.000000
0.074113 0.068414 -0.072706 1.000000
-0.109331 0.012774 -0.098898 1.000000
0.293099 0.099971 -0.000924 1.000000
0.433575 0.069502 0.071990 2.000000
-0.006148 0.008659 -0.099295 1.000000
-0.319204 -0.045211 0.089138 1.000000
-0.383538 0.043173 -0.089933 1.000000
-0.050253 0.099322 0.011591 1.000000
-0.035218 0.099498 0.009733 1.000000
0.239826 -0.026922 0.096293 1.000000
-0.456640 -0.096764 -0.024075 3.000000
0.037210 0.098722 -0.015467 1.000000
0.048306 -0.064919 0.075944 1.000000
0.113615 0.006991 -0.099453 1.000000
0.323313 -0.046395 -0.088172 1.000000
0.321538 0.099842 0.005381 1.000000
0.042274 -0.054869 -0.083163 1.000000
-0.030716 0.089231 0.045200 1.000000
-0.208863 -0.020548 0.097865 1.000000
0.183159 0.022152 -0.097196 1.000000
-0.113845 -0.050013 0.086527 1.000000
0.112315 -0.023486 -0.096846 1.000000
0.015435 0.026434 0.096503 1.000000
-0.320783 0.006440 -0.099505 1.000000
0.170080 -0.088357 -0.046094 1.000000
-0.448864 0.003910 -0.099588 3.000000
0.013976 0.016081 0.098737 1.000000
-0.466316 -0.098054 0.018576 3.000000
-0.153878 0.087199 -0.048702 1.000000
-0.231318 0.096294 -0.026633 1.000000
0.137951 -0.040703 0.091304 1.000000
-0.034998 0.099914 0.003099 1.000000
0.253805 -0.086711 -0.049133 1.000000
-0.007159 -0.085315 -0.051493 1.000000
-0.384286 -0.098027 0.018746 1.000000
-0.222164 0.071136 -0.069993 1.000000
0.078465 0.093349 -0.035594 1.000000
-0.075977 -0.008158 0.099684 1.000000
-0.396320 -0.098927 -0.012697 1.000000
0.183097 0.005377 -0.099542 1.000000
-0.096766 0.016716 -0.098273 1.000000
0.463874 -0.015944 -0.098359 2.000000
-0.189411 0.086329 -0.050173 1.000000
0.086997 0.099945 -0.001734 1.000000
-0.036977 0.019819 -0.097718 1.000000
-0.143293 -0.007673 -0.099367 1.000000
0.334076 -0.029990 -0.095039 1.000000
0.136586 -0.085324 -0.051479 1.000000
-0.407013 0.055988 -0.082561 1.000000
0.285365 0.089345 -0.044614 1.000000
-0.006323 -0.006969 -0.099433 1.000000
-0.002879 0.099974 -0.000807 1.000000
0.368383 0.088527 0.046581 1.000000
-0.142489 -0.097961 0.019082 1.000000
0.443175 -0.020768 -0.097453 1.000000
0.199661 0.098118 0.019426 1.000000
0.390333 -0.099626 0.004822 1.000000
-0.005857 -0.029393 0.095576 1.000000
-0.095016 0.095118 0.031042 1.000000
-0.102428 0.001312 0.100032 1.000000
0.414831 -0.019692 -0.097694 1.000000
-0.089244 0.085979 -0.050766 1.000000
-0.307156 0.099620 -0.008077 1.000000
0.272110 0.075237 0.065946 1.000000
-0.091156 -0.041858 -0.090441 1.000000
0.427280 0.094593 -0.032139 1.000000
0.456519 0.092387 -0.037985 2.000000
0.391655 -0.090659 0.041801 1.000000
0.377830 -0.027241 -0.095838 1.000000
-0.098506 -0.023559 -0.096829 1.000000
0.195776 0.002137 0.100006 1.000000
-0.280704 -0.099623 0.004912 1.000000
-0.106295 -0.028727 -0.095406 1.000000
0.361746 0.098906 0.014669 1.000000
-0.093369 0.069074 -0.072056 1.000000
0.147151 0.033643 0.094224 1.000000
-0.352005 0.084602 0.053457 1.000000
0.311918 -0.060122 -0.079447 1.000000
0.067871 0.078873 0.061544 1.000000
-0.132133 -0.075764 -0.064721 1.000000
0.268212 0.094928 0.031572 1.000000
-0.466708 -0.095368 -0.029018 3.000000
-0.363649 -0.087669 -0.047444 1.000000
0.191280 -0.088144 -0.046511 1.000000
0.016526 -0.027983 0.095985 1.000000
0.457752 0.096609 -0.025550 2.000000
-0.432168 -0.007279 -0.099404 3.000000
0.071304 -0.058596 -0.080631 1.000000
0.102298 0.080059 -0.059652 1.000000
0.049604 -0.092756 -0.036594 1.000000
-0.262170 0.002026 0.100010 1.000000
0.241856 0.096866 0.025028 1.000000
-0.411977 -0.055421 -0.082788 1.000000
0.444180 -0.095953 0.027364 2.000000
-0.319742 -0.084657 -0.052606 1.000000
-0.051683 -0.002996 0.099972 1.000000
-0.020376 0.045850 0.088931 1.000000
-0.429275 -0.019954 -0.097635 1.000000
-0.391765 0.022078 -0.097213 1.000000
0.111228 0.096093 -0.027323 1.000000
0.462724 0.092629 -0.037426 2.000000
-0.132819 -0.098419 -0.015908 1.000000
0.292376 0.021294 0.097751 1.000000
0.377012 -0.051408 -0.085339 1.000000
0.269274 -0.061470 0.078764 1.000000
0.167133 -0.025811 -0.096253 1.000000
0.164458 -0.011863 0.099333 1.000000
0.244497 -0.087208 0.048655 1.000000
-0.326410 0.007104 0.099805 1.000000
0.030189 0.099900 0.003527 1.000000
-0.325234 -0.017697 0.098444 1.000000
-0.442877 -0.096289 0.026209 3.000000
-0.459424 0.090672 -0.041948 3.000000
-0.417193 0.069842 0.071650 1.000000
-0.336345 0.095598 -0.029030 1.000000
-0.000185 -0.071951 -0.068945 1.000000
-0.435351 0.050562 0.086340 3.000000
-0.196551 -0.098392 0.016441 1.000000
0.347312 -0.099241 -0.009623 1.000000
0.052955 0.097736 0.021137 1.000000
-0.036312 -0.082809 -0.055420 1.000000
0.310472 0.099986 0.000803 1.000000
-0.230187 -0.091981 0.038747 1.000000
-0.140495 0.053915 0.084333 1.000000
0.031037 0.073774 -0.067243 1.000000
-0.136469 -0.024351 0.097015 1.000000
-0.277348 0.048332 0.087659 1.000000
-0.150130 -0.092019 -0.038297 1.000000
-0.376088 0.004863 -0.099558 1.000000
-0.041269 0.034192 0.094026 1.000000
0.226788 -0.053262 0.084606 1.000000
-0.052236 0.099383 -0.010590 1.000000
0.338847 -0.099380 -0.008148 1.000000
-0.369034 -0.005810 0.099884 1.000000
-0.032761 -0.006523 -0.099475 1.000000
-0.025524 0.090915 0.041750 1.000000
0.245510 -0.082461 -0.055932 1.000000
-0.001862 -0.082718 -0.055555 1.000000
-0.394387 0.080956 -0.058491 1.000000
-0.433949 0.060341 -0.079458 3.000000
-0.465957 -0.085024 -0.051985 3.000000
0.306387 0.077368 0.063485 1.000000
0.193264 -0.098474 0.015925 1.000000
0.047233 0.043069 0.090348 1.000000
0.336109 -0.098944 0.012958 1.000000
-0.204200 -0.051181 0.085836 1.000000
0.003990 0.052492 -0.084836 1.000000
-0.462044 0.098439 0.017615 3.000000
0.084268 0.056898 0.082306 1.000000
-0.395151 -0.064578 0.076244 1.000000
-0.215251 0.066215 0.075008 1.000000
0.320264 0.013025 -0.098858 1.000000
0.026958 0.098273 0.018664 1.000000
0.268866 0.097735 0.021140 1.000000
-0.242601 -0.096766 0.024431 1.000000
0.306432 -0.027545 -0.095750 1.000000
-0.404820 0.094618 0.032434 1.000000
0.378144 -0.076129 0.064669 1.000000
-0.398900 -0.067268 -0.073510 1.000000
-0.273406 0.096264 0.027100 1.000000
-0.331923 -0.099612 -0.004900 1.000000
-0.319885 0.075257 0.065923 1.000000
-0.408999 0.049406 -0.086661 1.000000
0.291322 0.031965 -0.094465 1.000000
0.450259 -0.058908 0.080751 2.000000
0.274335 -0.038174 -0.092035 1.000000
0.128375 -0.005788 0.099884 1.000000
0.230454 -0.069633 0.071626 1.000000
-0.256895 0.014008 -0.098702 1.000000
-0.023332 -0.084272 -0.053257 1.000000
-0.293096 0.089493 0.044685 1.000000
-0.445522 0.098362 0.018101 3.000000
0.318777 -0.000929 0.100037 1.000000
-0.118832 0.013361 0.099168 1.000000
0.238743 0.095342 0.030272 1.000000
0.254478 0.072331 0.069161 1.000000
0.370182 -0.058696 0.080915 1.000000
0.268279 -0.090947 0.041136 1.000000
0.040838 -0.094727 0.031483 1.000000
0.313426 -0.080558 -0.058708 1.000000
-0.256100 0.095039 0.031265 1.000000
0.018298 -0.049064 0.087088 1.000000
-0.270343 0.059114 0.080773 1.000000
-0.020641 0.068203 0.073254 1.000000
0.109653 0.047002 -0.087982 1.000000
-0.360234 -0.071120 0.070139 1.000000
0.331553 -0.068623 0.072636 1.000000
-0.301207 -0.003605 -0.099590 1.000000
0.314565 0.097114 0.023917 1.000000
-0.318652 -0.099455 -0.007358 1.000000
0.451838 -0.042436 -0.090189 2.000000
0.145657 0.026605 0.096453 1.000000
0.293290 -0.051850 -0.085077 1.000000
0.121686 0.008627 -0.099298 1.000000
0.279327 -0.099113 0.011342 1.000000
0.065725 -0.096376 0.025908 1.000000
0.164205 0.052765 -0.084675 1.000000
-0.207482 0.006598 0.099853 1.000000
-0.465337 0.079661 -0.060166 3.000000
0.005571 -0.015721 -0.098394 1.000000
0.297194 0.079655 0.060537 1.000000
-0.299013 0.043095 0.090335 1.000000
0.291427 -0.099302 -0.008972 1.000000
0.034032 -0.037740 0.092586 1.000000
0.443077 -0.098479 -0.015531 2.000000
0.453735 -0.004026 0.099940 2.000000
0.298700 0.032731 -0.094189 1.000000
0.122881 -0.091792 0.039182 1.000000
0.058404 -0.074017 0.067064 1.000000
-0.202653 0.087339 0.048829 1.000000
0.070155 -0.063720 -0.076639 1.000000
-0.127559 -0.087020 0.048974 1.000000
-0.122602 0.088207 -0.046846 1.000000
0.248252 -0.099224 0.010160 1.000000
0.188441 -0.084059 -0.053582 1.000000
-0.087499 -0.015823 -0.098378 1.000000
-0.426023 -0.078269 -0.061658 1.000000
-0.412428 0.036830 -0.092714 1.000000
-0.182060 -0.073470 0.067685 1.000000
-0.305793 0.082449 0.056656 1.000000
0.438024 -0.076592 -0.063782 1.000000
-0.278153 0.077373 0.063478 1.000000
-0.311665 0.098534 0.017020 1.000000
-0.454613 -0.028537 -0.095462 3.000000
0.117364 -0.055035 0.083413 1.000000
-0.331069 -0.031519 -0.094541 1.000000
0.260990 -0.075579 -0.064930 1.000000
0.320835 -0.065778 0.075187 1.000000
-0.064000 0.091284 0.040898 1.000000
0.241608 0.089079 -0.045134 1.000000
0.179014 -0.098077 -0.018064 1.000000
0.236773 -0.088496 0.046183 1.000000
0.255677 0.095723 0.028962 1.000000
-0.208923 -0.071845 -0.069051 1.000000
-0.009712 -0.058021 -0.081021 1.000000
-0.414117 -0.013686 0.099079 1.000000
0.309675 -0.050739 0.086097 1.000000
0.236121 -0.099764 0.000421 1.000000
-0.013382 -0.098999 -0.012182 1.000000
0.172437 0.092777 0.037446 1.000000
0.443305 -0.008737 -0.099266 2.000000
0.334574 0.096804 0.025240 1.000000
-0.056142 0.086522 0.050210 1.000000
0.050261 -0.058696 0.080916 1.000000
0.461954 -0.099273 -0.009283 2.000000
0.146123 -0.013790 -0.098700 1.000000
-0.356374 -0.007131 -0.099418 1.000000
-0.347124 0.052485 0.085203 1.000000
-0.375474 -0.045548 0.088967 1.000000
-0.256708 0.082587 0.056454 1.000000
0.024474 -0.073584 0.067555 1.000000
0.266957 -0.039301 -0.091547 1.000000
0.165412 0.098854 0.014999 1.000000
-0.299825 -0.073635 0.067498 1.000000
0.017041 -0.022091 0.097521 1.000000
0.255168 0.002284 -0.099639 1.000000
0.353286 -0.000441 0.100052 1.000000
0.110724 0.001671 -0.099658 1.000000
-0.179292 0.090141 0.043414 1.000000
0.245901 -0.019449 -0.097748 1.000000
-0.171734 0.028085 0.096023 1.000000
0.389921 0.098406 -0.017463 1.000000
-0.014341 -0.033850 0.094065 1.000000
-0.043808 0.090624 0.042422 1.000000
0.320214 0.002364 -0.099637 1.000000
0.437390 0.097786 0.020914 2.000000
-0.437225 0.081388 -0.057855 3.000000
-0.238183 0.097601 0.021738 1.000000
-0.163982 -0.058985 0.080691 1.000000
0.073364 -0.054251 0.083946 1.000000
-0.463175 -0.062222 -0.077818 3.000000
0.249631 0.083575 -0.054638 1.000000
0.345900 -0.043719 0.089898 1.000000
-0.136572 0.031705 -0.094559 1.000000
0.170936 0.093736 -0.034519 1.000000
-0.390658 -0.089651 -0.043554 1.000000
0.255992 -0.022637 0.097398 1.000000
0.436220 -0.068537 0.072722 2.000000
0.081508 -0.099738 -0.000891 1.000000
0.010570 0.082954 -0.055550 1.000000
0.421144 0.099882 0.004115 1.000000
0.279888 0.023716 -0.096847 1.000000
0.152436 0.051490 0.085791 1.000000
-0.187965 0.095430 -0.029606 1.000000
-0.289404 -0.076094 0.064709 1.000000
0.226375 0.097069 -0.023758 1.000000
-0.359867 0.099054 -0.013371 1.000000
0.303593 -0.000558 0.100049 1.000000
0.247897 -0.074293 -0.066389 1.000000
0.342724 0.082581 0.056462 1.000000
0.009220 -0.070537 -0.070359 1.000000
-0.370500 0.093156 0.036493 1.000000
-0.287923 -0.071276 0.069983 1.000000
0.388735 0.082299 -0.056515 1.000000
-0.076763 0.090867 -0.041499 1.000000
0.281079 0.012180 0.099325 1.000000
0.157796 0.030237 -0.095035 1.000000
-0.064065 0.099455 0.010188 1.000000
0.099042 0.085857 0.051334 1.000000
-0.097975 0.086561 0.050145 1.000000
-0.229281 0.099383 -0.010585 1.000000
-0.098819 0.033423 0.094303 1.000000
0.119867 0.091280 0.040907 1.000000
0.203416 -0.091700 -0.039033 1.000000
-0.401880 0.090986 -0.041223 1.000000
-0.048714 0.097206 -0.023144 1.000000
-0.337910 -0.086353 -0.049739 1.000000
0.133777 -0.092519 -0.037141 1.000000
0.116661 0.093555 0.035386 1.000000
0.310123 -0.097543 0.020957 1.000000
0.338448 -0.091753 -0.038912 1.000000
-0.297556 -0.095378 -0.028983 1.000000
-0.141455 0.080639 0.059268 1.000000
0.451071 -0.034637 0.093782 2.000000
0.426275 -0.032101 0.094695 2.000000
-0.314328 -0.058183 0.081274 1.000000
-0.338245 0.040708 -0.091040 1.000000
-0.347147 0.014000 -0.098703 1.000000
-0.375625 0.076867 -0.063734 1.000000
0.173035 -0.004746 -0.099554 1.000000
-0.445539 -0.016817 -0.098220 3.000000
-0.203137 0.096945 0.024676 1.000000
-0.109892 0.049083 -0.086852 1.000000
-0.198352 0.003400 -0.099604 1.000000
-0.431147 -0.038314 -0.091974 1.000000
0.422715 0.010627 0.099472 2.000000
-0.055912 0.011625 -0.099015 1.000000
-0.126366 -0.072269 -0.068627 1.000000
0.201082 0.059893 0.080168 1.000000
-0.098072 -0.048321 0.087527 1.000000
0.128243 0.031805 -0.094523 1.000000
0.344904 0.098365 -0.017723 1.000000
0.086737 0.094350 0.033177 1.000000
0.138052 0.095630 -0.028918 1.000000
0.216365 -0.055221 0.083287 1.000000
-0.186818 -0.055033 0.083414 1.000000
-0.243219 -0.098234 0.017439 1.000000
-0.090592 0.097739 -0.020761 1.000000
-0.133738 -0.099348 -0.008493 1.000000
-0.158627 0.089865 -0.043593 1.000000
-0.225833 -0.012850 0.099212 1.000000
0.300097 0.068283 -0.072821 1.000000
-0.398530 0.044109 0.089818 1.000000
0.059657 0.075844 -0.064895 1.000000
0.344462 -0.053302 0.084582 1.000000
-0.007330 0.069788 0.071705 1.000000
-0.200900 -0.087572 -0.047636 1.000000
-0.174900 0.003961 0.099949 1.000000
0.226580 -0.075592 0.065278 1.000000
-0.158781 -0.037639 0.092630 1.000000
-0.044306 0.020893 -0.097478 1.000000
0.036021 0.099565 -0.008664 1.000000
0.135824 -0.062863 -0.077321 1.000000
0.350240 -0.037959 -0.092128 1.000000
-0.036158 -0.075906 -0.064560 1.000000
-0.031162 -0.046845 0.088305 1.000000
-0.324800 -0.082214 -0.056297 1.000000
-0.445017 -0.068030 0.073201 3.000000
0.293386 -0.030963 -0.094742 1.000000
-0.073683 0.093041 0.036814 1.000000
-0.039762 0.032984 -0.094098 1.000000
-0.076829 0.017268 0.098549 1.000000
-0.056653 -0.021382 0.097679 1.000000
0.214481 -0.099702 0.002415 1.000000
0.163239 0.094735 -0.031745 1.000000
0.404153 0.099131 0.013248 1.000000
0.262298 -0.099745 -0.000670 1.000000
0.428735 0.028008 -0.095683 1.000000
-0.159469 -0.051805 0.085467 1.000000
-0.237001 0.091587 0.040197 1.000000
-0.145369 0.092481 -0.037767 1.000000
-0.334684 -0.041946 -0.090403 1.000000
0.212496 -0.076315 -0.064095 1.000000
0.260588 0.068940 -0.072190 1.000000
0.458463 0.099841 -0.005043 2.000000
0.138483 -0.013731 0.099072 1.000000
0.435152 0.074627 -0.066275 1.000000
0.318624 -0.077040 -0.063244 1.000000
-0.201326 0.085608 -0.051392 1.000000
0.449718 0.099073 0.013616 2.000000
-0.189018 0.036268 0.093279 1.000000
0.238386 0.039495 -0.091565 1.000000
-0.014569 -0.079403 0.060560 1.000000
0.404396 -0.093293 0.035465 1.000000
-0.012379 0.090250 -0.042837 1.000000
0.302595 -0.020259 -0.097567 1.000000
-0.218862 -0.099142 -0.010669 1.000000
0.079026 0.079887 -0.059874 1.000000
0.079978 -0.099455 0.007716 1.000000
-0.355307 -0.091261 -0.040047 1.000000
0.120694 -0.095953 -0.027004 1.000000
0.284293 0.077393 0.063452 1.000000
0.204787 -0.097127 0.022814 1.000000
0.345242 0.058332 0.081331 1.000000
-0.131935 -0.090048 -0.042775 1.000000
0.160162 -0.098520 0.015629 1.000000
0.160136 -0.090640 0.041845 1.000000
0.322909 -0.032518 0.094545 1.000000
-0.399770 -0.099168 0.010757 1.000000
0.454266 -0.046359 0.088553 2.000000
-0.079670 0.064283 -0.076347 1.000000
0.228353 0.076924 -0.063670 1.000000
0.158567 0.073866 -0.067138 1.000000
-0.325676 0.016868 0.098612 1.000000
0.094230 0.098019 0.019870 1.000000
0.054533 0.099310 -0.011362 1.000000
-0.327432 0.086479 0.050283 1.000000
0.305037 -0.095158 -0.029740 1.000000
-0.354967 -0.074653 -0.065980 1.000000
-0.164924 0.032625 0.094590 1.000000
-0.426202 -0.096957 0.023574 3.000000
0.254671 -0.075843 0.064993 1.000000
-0.134140 -0.094412 0.032357 1.000000
0.152395 0.045543 0.089088 1.000000
0.455463 -0.056089 0.082697 2.000000
0.397477 0.029004 -0.095393 1.000000
0.001917 0.020126 0.098012 1.000000
-0.139132 -0.085397 0.051718 1.000000
0.463938 -0.098006 -0.018513 2.000000
0.421701 -0.001295 -0.099663 1.000000
-0.188074 0.099383 -0.010591 1.000000
-0.417123 0.031842 0.094872 1.000000
-0.401593 0.024785 0.096970 1.000000
0.424071 -0.097834 0.019652 1.000000
-0.281655 0.096054 -0.027459 1.000000
-0.255095 -0.046096 0.088687 1.000000
-0.431558 -0.072247 0.069012 3.000000
0.194943 0.048289 -0.087322 1.000000
-0.124380 -0.019310 -0.097779 1.000000
0.363119 0.093606 0.035243 1.000000
0.457203 -0.085957 0.050771 2.000000
0.016508 0.095990 -0.027679 1.000000
0.342897 0.049944 0.086706 1.000000
0.374586 0.019770 -0.097729 1.000000
0.425035 -0.041644 0.090896 2.000000
0.311440 0.080061 -0.059650 1.000000
-0.191647 -0.092779 0.036893 1.000000
-0.317742 -0.012902 -0.098841 1.000000
0.093425 0.081550 -0.057617 1.000000
0.099726 0.051638 0.085704 1.000000
0.382557 0.081704 0.057753 1.000000
0.372003 0.006000 -0.099522 1.000000
-0.183535 0.075564 0.065575 1.000000
-0.208919 -0.087833 -0.047123 1.000000
0.243711 0.052180 -0.085021 1.000000
-0.416945 -0.087773 0.047602 1.000000
-0.432716 -0.086195 0.050369 3.000000
-0.429795 -0.026501 -0.096053 1.000000
0.463694 0.088255 -0.046752 2.000000
-0.208568 -0.087977 0.047203 1.000000
0.069735 0.082386 0.056750 1.000000
0.088642 0.096516 0.026233 1.000000
-0.010182 -0.099281 0.009557 1.000000
0.411798 -0.044151 -0.089315 1.000000
-0.034952 0.046494 0.088603 1.000000
-0.359955 -0.065189 -0.075343 1.000000
-0.321535 0.088653 -0.045972 1.000000
-0.216418 -0.081681 0.057443 1.000000
0.253508 -0.035685 0.093404 1.000000
0.381761 0.018975 -0.097906 1.000000
0.068664 -0.035537 -0.093095 1.000000
0.029343 -0.086469 0.049904 1.000000
0.164827 0.097126 0.023867 1.000000
-0.248704 0.031495 0.094997 1.000000
-0.056463 -0.092991 0.036303 1.000000
0.396908 -0.084709 0.052881 1.000000
0.108486 0.039950 -0.091368 1.000000
-0.146961 -0.028539 -0.095461 1.000000
-0.018272 -0.053480 0.084470 1.000000
0.423080 0.080875 -0.058600 1.000000
-0.132884 -0.099367 0.008655 1.000000
-0.110846 -0.095295 0.029630 1.000000
0.238134 0.041551 0.091038 1.000000
0.220303 -0.093621 0.034555 1.000000
-0.043828 -0.029075 -0.095305 1.000000
0.258136 -0.064270 0.076516 1.000000
0.026942 0.097218 -0.023089 1.000000
0.333986 -0.020572 0.097860 1.000000
-0.056043 0.017190 0.098561 1.000000
-0.113315 0.029828 -0.095154 1.000000
0.160871 -0.027999 -0.095618 1.000000
-0.408375 -0.076298 0.064478 1.000000
0.329925 -0.095241 0.029817 1.000000
0.396733 -0.081012 0.058427 1.000000
-0.235802 -0.049793 -0.086294 1.000000
-0.454565 -0.066656 0.074412 3.000000
0.379435 0.073611 0.067790 1.000000
-0.339585 0.096950 0.024653 1.000000
0.069515 -0.080143 -0.059243 1.000000
0.428368 -0.093066 0.036095 2.000000
0.457799 0.099182 -0.012560 2.000000
0.387692 0.065574 -0.075209 1.000000
-0.046629 -0.088543 0.046091 1.000000
-0.057103 0.028660 -0.095493 1.000000
-0.460032 -0.099348 -0.008492 3.000000
-0.357824 0.084732 -0.052873 1.000000
-0.122498 0.040684 0.091413 1.000000
0.452449 -0.073782 0.067331 2.000000
0.358066 -0.036824 0.092982 1.000000
-0.371765 0.099958 -0.001331 1.000000
-0.108043 0.044002 -0.089510 1.000000
-0.110256 0.077951 -0.062370 1.000000
-0.375072 0.090985 0.041588 1.000000
-0.043007 0.047292 0.088197 1.000000
0.407191 0.099950 -0.001569 1.000000
0.040654 0.045955 0.088878 1.000000
0.211974 -0.096864 0.023992 1.000000
0.401064 -0.085867 -0.050560 1.000000
0.200027 -0.071430 -0.069466 1.000000
-0.011553 -0.097012 -0.022969 1.000000
-0.408443 0.056128 0.082829 1.000000
-0.037068 0.089971 0.043748 1.000000
0.437609 -0.080749 -0.058452 1.000000
-0.441654 -0.099671 -0.003020 3.000000
0.003105 0.062224 -0.077997 1.000000
-0.050745 0.059987 -0.079733 1.000000
-0.254344 0.039759 0.091813 1.000000
-0.107572 0.060255 0.079887 1.000000
-0.223317 -0.027494 -0.095764 1.000000
0.436889 0.026709 -0.096060 1.000000
0.424317 0.099848 -0.004834 1.000000
0.134640 -0.096295 0.026189 1.000000
-0.129262 0.089996 -0.043335 1.000000
0.174962 -0.086144 -0.050092 1.000000
-0.278257 -0.099108 -0.011027 1.000000
0.221583 -0.007521 -0.099381 1.000000
0.439668 -0.097130 -0.022441 2.000000
0.194958 -0.099152 -0.010563 1.000000
-0.301889 0.088385 0.046860 1.000000
0.326255 -0.017189 0.098524 1.000000
0.157032 0.063637 0.077264 1.000000
0.443839 0.079297 0.060998 2.000000
-0.173084 -0.053704 -0.083955 1.000000
0.194764 0.078129 0.062503 1.000000
0.419671 -0.069467 0.071792 2.000000
0.175927 -0.049430 0.086871 1.000000
-0.261953 0.093430 0.035732 1.000000
-0.182886 0.099917 -0.002638 1.000000
-0.059180 0.086475 -0.049927 1.000000
0.161843 0.099821 -0.005678 1.000000
-0.403844 0.022468 -0.097126 1.000000
-0.113870 0.018099 0.098417 1.000000
0.157770 0.043471 -0.089780 1.000000
0.416219 0.013647 -0.098759 1.000000
0.173574 -0.061004 -0.078762 1.000000
0.375101 -0.084743 -0.052460 1.000000
0.080325 0.099895 0.003705 1.000000
-0.117686 -0.099323 -0.008754 1.000000
-0.144693 0.021391 -0.097366 1.000000
-0.242620 0.093654 -0.034748 1.000000
0.442636 -0.094038 -0.033034 2.000000
-0.402520 0.091449 0.040516 1.000000
0.443064 0.028544 -0.095527 2.000000
0.250050 -0.098327 0.016851 1.000000
-0.226267 0.006867 -0.099465 1.000000
0.437103 -0.097863 0.019525 2.000000
-0.153743 -0.083729 0.054430 1.000000
-0.050102 -0.075572 0.065301 1.000000
-0.079732 -0.016383 -0.098289 1.000000
-0.418769 0.065348 0.075772 1.000000
0.464381 0.017762 -0.098108 2.000000
-0.068617 -0.041869 -0.090436 1.000000
-0.376316 0.098051 0.019725 1.000000
0.064903 -0.082959 -0.055200 1.000000
-0.325959 -0.089149 0.044901 1.000000
0.305798 -0.067633 -0.073188 1.000000
-0.393692 -0.021652 -0.097256 1.000000
0.103116 -0.090162 -0.042552 1.000000
-0.357739 0.075410 0.065749 1.000000
-0.313504 -0.049600 -0.086408 1.000000
-0.396788 -0.016319 -0.098299 1.000000
-0.373105 -0.090998 -0.040655 1.000000
0.285608 -0.093793 0.034077 1.000000
0.081829 -0.096339 0.026037 1.000000
-0.428847 0.080435 0.059530 1.000000
0.290397 -0.068418 -0.072478 1.000000
0.298602 -0.005300 -0.099537 1.000000
-0.075695 -0.030732 -0.094824 1.000000
0.263560 -0.030390 -0.094923 1.000000
-0.282692 0.033896 -0.093770 1.000000
-0.031461 0.065238 0.075869 1.000000
0.221846 -0.098030 0.018726 1.000000
-0.365076 0.006269 -0.099514 1.000000
-0.284901 -0.022255 -0.097121 1.000000
0.070028 -0.007145 -0.099417 1.000000
0.322253 -0.083778 -0.053994 1.000000
0.325710 0.097397 0.022651 1.000000
-0.283358 0.074820 0.066418 1.000000
0.439602 0.093079 0.036707 2.000000
0.265132 0.096591 0.025972 1.000000
0.425464 -0.031445 -0.094568 1.000000
-0.308935 0.093194 -0.036026 1.000000
0.235459 -0.016823 -0.098219 1.000000
0.274787 0.063307 -0.077157 1.000000
-0.048426 -0.096070 -0.026601 1.000000
-0.181071 -0.018462 0.098323 1.000000
-0.304871 -0.047056 0.088198 1.000000
0.253783 -0.018711 -0.097913 1.000000
-0.109889 0.006344 -0.099512 1.000000
-0.384844 -0.026072 0.096540 1.000000
0.216070 0.032179 -0.094388 1.000000
0.347534 0.087973 -0.047306 1.000000
0.126530 0.026010 -0.096263 1.000000
-0.030143 0.098244 -0.018488 1.000000
-0.192803 -0.085066 0.052278 1.000000
0.234725 -0.097317 0.021963 1.000000
-0.314093 -0.076894 -0.063432 1.000000
0.257341 -0.096580 0.025208 1.000000
0.041339 0.096277 -0.026693 1.000000
0.216468 0.087556 -0.048099 1.000000
0.326247 0.075147 0.066048 1.000000
-0.216878 -0.062601 -0.077524 1.000000
-0.428516 -0.007972 0.099701 1.000000
0.339231 0.095667 0.029154 1.000000
-0.430756 -0.055741 -0.082571 1.000000
0.410185 0.077735 -0.062648 1.000000
0.445688 -0.096600 -0.024776 2.000000
-0.387555 0.068018 0.073418 1.000000
0.232141 -0.086205 0.050351 1.000000
0.237964 -0.048806 0.087241 1.000000
0.030405 0.052557 0.085161 1.000000
0.252376 0.025834 0.096677 1.000000
0.219844 -0.074705 -0.065921 1.000000
-0.206885 -0.083996 0.054036 1.000000
-0.424975 -0.030041 -0.095024 1.000000
-0.150363 0.097305 0.023064 1.000000
-0.235238 0.025185 -0.096503 1.000000
0.037306 0.030461 0.095333 1.000000
-0.077411 -0.058081 0.081343 1.000000
0.279554 0.044061 -0.089480 1.000000
-0.268794 0.046537 -0.088218 1.000000
-0.373393 0.099852 0.005044 1.000000
-0.270606 0.090889 -0.041447 1.000000
0.405460 -0.001493 0.100019 1.000000
-0.006493 -0.018900 -0.097871 1.000000
0.437394 0.084743 -0.052855 1.000000
-0.319893 -0.079366 -0.060245 1.000000
0.156855 0.086136 0.050863 1.000000
0.198542 -0.008137 0.099686 1.000000
-0.046224 0.029625 0.095576 1.000000
0.360243 -0.085550 -0.051097 1.000000
0.390282 -0.099687 -0.002528 1.000000
-0.444083 0.037035 0.092992 3.000000
0.271487 0.092073 0.039074 1.000000
0.416107 -0.059046 -0.080282 1.000000
0.135694 0.098250 0.018812 1.000000
-0.291665 0.098423 0.017719 1.000000
0.160419 -0.020359 -0.097545 1.000000
-0.387522 0.090333 -0.042675 1.000000
-0.409988 0.048883 0.087333 1.000000
-0.096152 0.098338 0.018252 1.000000
0.409304 -0.044144 0.089682 2.000000
0.195880 0.084044 -0.053947 1.000000
-0.039511 -0.092842 0.036717 1.000000
0.388403 -0.046533 0.088464 1.000000
0.272128 0.088841 0.045964 1.000000
-0.102589 0.099952 -0.001507 1.000000
-0.189998 0.078017 0.062647 1.000000
-0.462640 0.029709 -0.095189 3.000000
0.361417 0.091315 -0.040462 1.000000
0.028439 -0.097912 0.019306 1.000000
0.323133 -0.063636 -0.076713 1.000000
0.381531 -0.032261 0.094637 1.000000
0.085190 0.076623 0.064374 1.000000
0.423761 0.058148 0.081456 2.000000
0.129886 0.085932 0.051208 1.000000
-0.224049 -0.098687 -0.014212 1.000000
-0.349210 -0.093526 -0.034454 1.000000
-0.318779 -0.082225 0.056643 1.000000
-0.106426 0.063649 -0.076892 1.000000
-0.071715 0.093546 -0.035048 1.000000
0.169267 -0.069590 -0.071306 1.000000
0.283979 -0.047062 0.088195 1.000000
-0.015426 -0.052755 -0.084543 1.000000
-0.007257 0.075799 0.065308 1.000000
-0.453816 -0.026260 0.096486 3.000000
-0.466875 0.075814 0.065292 3.000000
-0.065252 0.097667 0.021443 1.000000
0.050238 -0.099606 0.005462 1.000000
0.157514 0.079430 0.060826 1.000000
0.322676 -0.090988 -0.040678 1.000000
0.354741 -0.098958 0.012867 1.000000
0.068875 -0.050089 -0.086119 1.000000
0.374291 0.029035 0.095747 1.000000
0.274568 -0.074835 -0.065774 1.000000
0.381960 0.098733 -0.015399 1.000000
-0.265173 0.081173 0.058535 1.000000
-0.156617 -0.071022 0.070236 1.000000
-0.026566 0.058202 -0.081057 1.000000
-0.036211 0.082294 -0.056522 1.000000
-0.433886 0.098593 -0.016281 3.000000
0.431068 -0.035430 0.093496 2.000000
-0.199802 0.051518 0.085775 1.000000
0.224984 -0.054736 -0.083254 1.000000
-0.097875 -0.038714 0.092164 1.000000
0.091388 0.078187 0.062429 1.000000
-0.369605 0.098684 -0.015706 1.000000
-0.309190 0.026352 0.096527 1.000000
-0.238932 -0.064289 0.076500 1.000000
-0.196094 -0.082212 0.056663 1.000000
-0.029857 0.099293 -0.011540 1.000000
-0.363578 0.012244 -0.098957 1.000000
-0.277015 -0.033448 -0.093847 1.000000
-0.298605 0.030950 -0.094828 1.000000
0.210252 0.089439 -0.044429 1.000000
-0.009665 -0.035042 -0.093273 1.000000
-0.423326 -0.088859 -0.045108 1.000000
-0.326973 -0.041705 -0.090507 1.000000
-0.296694 -0.098744 -0.013853 1.000000
0.174608 -0.080901 -0.058229 1.000000
0.234122 -0.018824 0.098251 1.000000
-0.445414 -0.042362 -0.090223 3.000000
-0.268030 0.069631 -0.071498 1.000000
0.362752 0.088659 -0.045959 1.000000
0.050472 0.099748 -0.006731 1.000000
0.404291 -0.093606 -0.034232 1.000000
-0.231742 -0.064989 0.075883 1.000000
0.402241 -0.083001 0.055501 1.000000
-0.273831 -0.099754 0.000745 1.000000
0.234762 0.079549 -0.060310 1.000000
-0.255982 -0.094543 -0.031630 1.000000
0.046762 0.080711 0.059175 1.000000
-0.034354 -0.032476 0.094560 1.000000
0.055940 0.087554 -0.048101 1.000000
-0.200222 -0.091306 0.040307 1.000000
-0.347263 -0.056392 -0.082128 1.000000
0.356117 -0.087632 0.047880 1.000000
0.022942 0.095226 0.030671 1.000000
0.347928 0.089420 0.044829 1.000000
-0.203084 -0.099702 -0.002049 1.000000
0.170926 -0.039361 -0.091521 1.000000
0.246396 0.081590 0.057921 1.000000
-0.419354 -0.085426 -0.051307 1.000000
-0.174854 -0.014529 0.098945 1.000000
-0.266653 -0.095937 0.027419 1.000000
0.026469 0.087613 0.048365 1.000000
0.357880 -0.096533 0.025369 1.000000
0.114076 -0.027910 0.096006 1.000000
0.249623 -0.077806 0.062619 1.000000
-0.113786 0.081115 0.058620 1.000000
0.167454 -0.060100 0.079826 1.000000
-0.130748 0.031789 -0.094529 1.000000
-0.388286 0.089054 0.045546 1.000000
0.202432 -0.077493 0.063022 1.000000
0.196482 -0.096690 -0.024409 1.000000
-0.244561 0.065492 0.075645 1.000000
-0.294485 -0.002641 0.099983 1.000000
-0.253401 -0.007752 -0.099359 1.000000
0.458454 0.095489 0.029768 2.000000
-0.238232 -0.014262 -0.098625 1.000000
-0.339639 -0.048045 -0.087328 1.000000
0.158636 0.098099 -0.019147 1.000000
0.219053 0.057409 0.081959 1.000000
0.146951 0.062257 -0.077971 1.000000
-0.357970 0.014787 0.098942 1.000000
0.308201 0.072181 0.069312 1.000000
0.397488 -0.034025 -0.093639 1.000000
0.313599 0.098378 0.018004 1.000000
-0.325533 0.079234 -0.060716 1.000000
0.299127 0.041440 -0.090723 1.000000
0.121480 -0.087594 -0.047591 1.000000
-0.018347 -0.047030 0.088211 1.000000
0.277252 -0.084121 -0.053490 1.000000
