-0.466955 -0.036564 -0.006280 3.000000
-0.466955 0.001848 -0.009805 3.000000
-0.466955 -0.003822 -0.022731 3.000000
-0.466955 -0.038892 0.016548 3.000000
-0.466955 0.026747 -0.032219 3.000000
-0.466955 -0.053837 -0.021328 3.000000
-0.466955 -0.032832 -0.071824 3.000000
-0.466955 0.055188 0.034175 3.000000
-0.466955 -0.047732 0.052016 3.000000
-0.466955 -0.053808 0.022262 3.000000
-0.466955 0.014308 -0.036356 3.000000
-0.466955 -0.006534 -0.066222 3.000000
-0.466955 0.028998 -0.087211 3.000000
-0.466955 -0.016426 -0.021059 3.000000
-0.466955 0.035773 0.079317 3.000000
-0.466955 -0.049979 0.075139 3.000000
-0.466955 -0.016319 0.023089 3.000000
-0.466955 -0.027777 -0.016903 3.000000
-0.466955 0.082249 -0.000472 3.000000
-0.466955 -0.031010 -0.060803 3.000000
-0.466955 -0.015428 -0.068278 3.000000
-0.466955 -0.002527 -0.013948 3.000000
-0.466955 0.098927 -0.005357 3.000000
-0.466955 0.000072 0.063730 3.000000
-0.466955 0.010494 0.056846 3.000000
-0.466955 0.047537 0.061988 3.000000
-0.466955 0.069672 0.022238 3.000000
-0.466955 -0.060635 -0.071380 3.000000
-0.466955 -0.017974 0.072940 3.000000
-0.466955 0.018410 0.070586 3.000000
-0.466955 0.040917 -0.005490 3.000000
-0.466955 -0.030700 0.048213 3.000000
-0.466955 -0.094819 0.005203 3.000000
-0.466955 -0.068150 -0.029166 3.000000
-0.466955 0.033017 0.003783 3.000000
-0.466955 0.046588 -0.019286 3.000000
-0.466955 -0.014860 -0.071153 3.000000
-0.466955 0.059111 -0.061127 3.000000
-0.466955 -0.048521 -0.037727 3.000000
-0.466955 -0.041655 0.082688 3.000000
-0.466955 0.073210 0.062566 3.000000
-0.466955 0.027660 0.046189 3.000000
-0.466955 -0.047621 0.020676 3.000000
-0.466955 -0.008654 0.045067 3.000000
-0.466955 -0.077236 -0.048766 3.000000
-0.466955 -0.023868 0.037092 3.000000
-0.466955 0.049504 0.048871 3.000000
-0.466955 0.013431 -0.074603 3.000000
-0.466955 0.030894 -0.074642 3.000000
-0.466955 -0.004325 -0.086531 3.000000
-0.466955 0.085675 -0.045789 3.000000
-0.466955 -0.051525 0.077187 3.000000
-0.466955 -0.006528 -0.002615 3.000000
-0.466955 0.090265 0.020113 3.000000
-0.466955 0.031468 0.026837 3.000000
-0.466955 0.022634 0.025860 3.000000
-0.466955 0.037024 -0.010007 3.000000
-0.466955 -0.067809 -0.068114 3.000000
-0.466955 -0.000423 0.073883 3.000000
-0.466955 -0.052405 0.075061 3.000000
-0.466955 -0.042989 0.025733 3.000000
-0.466955 -0.033649 -0.081547 3.000000
-0.466955 0.002407 0.071040 3.000000
-0.466955 -0.038163 -0.061059 3.000000
-0.466955 0.034346 0.008289 3.000000
-0.466955 -0.058130 -0.080626 3.000000
-0.466955 0.023065 -0.087937 3.000000
-0.466955 -0.038368 0.027241 3.000000
-0.466955 0.001595 0.013629 3.000000
-0.466955 -0.063229 0.036733 3.000000
-0.466955 -0.093231 -0.019411 3.000000
-0.466955 -0.005194 -0.087680 3.000000
-0.466955 -0.043636 0.046578 3.000000
-0.466955 0.049932 0.073729 3.000000
-0.466955 0.001174 -0.037543 3.000000
-0.466955 0.026754 -0.079954 3.000000
-0.466955 -0.044264 -0.075162 3.000000
-0.466955 0.071072 0.061164 3.000000
-0.466955 -0.082769 0.045752 3.000000
-0.466955 -0.057236 0.071910 3.000000
-0.466955 0.069793 -0.004603 3.000000
-0.466955 -0.026298 -0.064619 3.000000
-0.466955 -0.015194 -0.076398 3.000000
-0.466955 0.047378 0.024263 3.000000
-0.466955 0.035757 -0.023442 3.000000
-0.466955 -0.005133 -0.018222 3.000000
-0.466955 -0.075541 0.010944 3.000000
-0.466955 -0.006773 0.024102 3.000000
-0.466955 -0.074101 -0.029264 3.000000
-0.466955 0.085955 -0.021968 3.000000
-0.466955 -0.041811 0.058564 3.000000
-0.466955 0.089419 -0.001718 3.000000
-0.466955 -0.054336 -0.033725 3.000000
-0.466955 0.026733 -0.057226 3.000000
-0.466955 0.045656 0.012826 3.000000
-0.466955 -0.011037 0.087421 3.000000
-0.466955 -0.062908 0.043279 3.000000
-0.466955 0.057624 -0.029927 3.000000
-0.466955 0.029322 -0.070532 3.000000
-0.466955 0.015439 -0.085651 3.000000
-0.466955 0.056473 0.011293 3.000000
-0.466955 0.034875 0.026457 3.000000
-0.466955 0.057365 -0.027485 3.000000
-0.466955 0.036813 0.035109 3.000000
-0.466955 -0.044565 -0.041648 3.000000
-0.466955 0.075600 -0.052857 3.000000
-0.466955 0.018312 -0.086048 3.000000
-0.466955 -0.005460 -0.025778 3.000000
-0.466955 0.032943 0.062982 3.000000
-0.466955 -0.006773 0.094767 3.000000
-0.466955 0.005592 -0.012748 3.000000
-0.466955 -0.067685 -0.027729 3.000000
-0.466955 0.027959 -0.005784 3.000000
-0.466955 0.020547 -0.027269 3.000000
-0.466955 0.074903 0.035898 3.000000
-0.466955 -0.052270 0.003973 3.000000
-0.466955 -0.076597 0.022666 3.000000
-0.466955 -0.060000 0.063709 3.000000
-0.466955 0.072019 0.052984 3.000000
-0.466955 0.004096 -0.015113 3.000000
-0.466955 -0.030174 0.006902 3.000000
-0.466955 -0.011358 -0.093426 3.000000
-0.466955 0.040074 0.040113 3.000000
-0.466955 -0.017305 0.019298 3.000000
-0.466955 0.029063 0.071740 3.000000
-0.466955 0.084001 -0.053224 3.000000
-0.466955 0.026592 0.090265 3.000000
-0.466955 -0.035221 0.001379 3.000000
-0.466955 0.077583 0.047660 3.000000
-0.466955 -0.019051 0.014235 3.000000
-0.466955 -0.009579 -0.063789 3.000000
-0.466955 0.020395 0.075241 3.000000
-0.466955 0.062050 0.070957 3.000000
-0.466955 0.010227 0.031906 3.000000
-0.466955 0.011976 0.070085 3.000000
-0.466955 0.034874 -0.063325 3.000000
-0.466955 -0.043322 0.058878 3.000000
-0.466955 0.045901 -0.027624 3.000000
-0.466955 0.067339 0.013844 3.000000
-0.466955 0.073943 -0.020817 3.000000
-0.466955 -0.012378 0.075971 3.000000
-0.466955 0.093176 -0.008486 3.000000
-0.466955 0.026434 0.021366 3.000000
-0.466955 -0.040762 0.043234 3.000000
-0.466955 0.006206 -0.072775 3.000000
-0.466955 -0.061377 0.057838 3.000000
-0.466955 0.066197 0.011799 3.000000
-0.466955 -0.051092 -0.000389 3.000000
-0.466955 0.058272 0.024459 3.000000
-0.466955 -0.046455 -0.072935 3.000000
-0.466955 0.079776 0.040221 3.000000
-0.466955 0.054336 -0.080534 3.000000
-0.466955 0.091120 0.036765 3.000000
-0.466955 -0.042578 -0.059222 3.000000
-0.466955 0.054477 -0.016750 3.000000
-0.466955 0.061017 0.062266 3.000000
-0.466955 0.069383 -0.041817 3.000000
-0.466955 -0.048779 0.034356 3.000000
-0.466955 -0.055476 -0.063075 3.000000
-0.466955 -0.040438 0.078886 3.000000
-0.466955 -0.003977 0.089855 3.000000
-0.466955 -0.034857 -0.039218 3.000000
-0.466955 -0.078004 0.007896 3.000000
-0.466955 -0.044125 -0.083845 3.000000
-0.466955 0.015673 0.091551 3.000000
-0.466955 0.032226 -0.037133 3.000000
-0.466955 0.045256 -0.049616 3.000000
-0.466955 -0.005899 0.085729 3.000000
-0.466955 0.041629 -0.038766 3.000000
-0.466955 0.015995 0.003412 3.000000
-0.466955 0.008826 -0.083018 3.000000
-0.466955 -0.008681 0.047266 3.000000
-0.466955 -0.071738 -0.033064 3.000000
-0.466955 0.012254 -0.059317 3.000000
-0.466955 0.000307 0.062268 3.000000
-0.466955 -0.022170 -0.051540 3.000000
-0.466955 0.050720 0.037529 3.000000
-0.466955 0.064300 -0.000020 3.000000
-0.466955 0.003061 0.084968 3.000000
-0.466955 -0.052399 -0.049401 3.000000
-0.466955 -0.057110 -0.040912 3.000000
-0.466955 0.082346 0.006019 3.000000
-0.466955 0.056839 -0.003374 3.000000
-0.466955 -0.024709 -0.054537 3.000000
-0.466955 0.081506 -0.001915 3.000000
-0.466955 0.019723 0.082879 3.000000
-0.466955 0.093162 0.026324 3.000000
-0.466955 0.017839 -0.076056 3.000000
-0.466955 -0.030790 -0.054823 3.000000
-0.466955 0.003701 -0.010530 3.000000
-0.466955 0.039633 -0.081502 3.000000
-0.466955 0.095191 -0.005249 3.000000
-0.466955 0.042099 0.047394 3.000000
-0.466955 -0.085778 -0.022916 3.000000
-0.466955 0.066316 -0.041234 3.000000
-0.466955 -0.007560 -0.051831 3.000000
-0.466955 -0.070413 -0.044480 3.000000
-0.466955 -0.051069 -0.085137 3.000000
-0.466955 0.016854 -0.053812 3.000000
-0.466955 0.021737 0.074879 3.000000
-0.466955 -0.048441 -0.003931 3.000000
-0.466955 0.046548 0.068038 3.000000
-0.466955 -0.006710 0.010461 3.000000
-0.466955 0.008660 0.009895 3.000000
-0.466955 -0.020147 -0.044529 3.000000
-0.466955 0.002663 -0.021790 3.000000
-0.466955 0.099442 0.008901 3.000000
-0.466955 0.003803 0.068037 3.000000
-0.466955 0.012600 0.026799 3.000000
-0.466955 -0.000467 -0.046594 3.000000
-0.466955 -0.018438 0.020292 3.000000
-0.466955 -0.052705 0.045788 3.000000
-0.466955 0.066873 -0.043093 3.000000
-0.466955 0.048644 -0.073194 3.000000
-0.466955 -0.038553 0.002439 3.000000
-0.466955 0.071268 -0.020119 3.000000
-0.466955 0.024340 -0.069910 3.000000
-0.466955 0.083239 -0.016117 3.000000
-0.466955 -0.077952 -0.026236 3.000000
-0.466955 -0.069750 -0.053353 3.000000
-0.466955 -0.011631 -0.058863 3.000000
-0.466955 0.050036 0.042856 3.000000
-0.466955 0.063279 -0.061839 3.000000
-0.466955 0.078606 -0.010412 3.000000
-0.466955 -0.014037 0.027103 3.000000
-0.466955 0.064846 0.043944 3.000000
-0.466955 0.024559 -0.087170 3.000000
-0.466955 0.008663 0.033022 3.000000
-0.466955 -0.052836 0.061628 3.000000
-0.466955 -0.020620 -0.016154 3.000000
-0.466955 0.008237 -0.069610 3.000000
-0.466955 -0.038428 0.063414 3.000000
-0.466955 0.015440 0.006909 3.000000
-0.466955 -0.057633 -0.061889 3.000000
-0.466955 0.035840 0.091467 3.000000
-0.466955 -0.056549 -0.058929 3.000000
-0.466955 -0.025835 -0.041515 3.000000
-0.466955 0.025694 0.084186 3.000000
-0.466955 0.014947 -0.001239 3.000000
-0.466955 0.023880 -0.078918 3.000000
-0.466955 0.002658 -0.047702 3.000000
-0.466955 -0.079415 0.041599 3.000000
-0.466955 0.019858 -0.093347 3.000000
-0.466955 0.002130 0.067527 3.000000
-0.466955 -0.033344 -0.084498 3.000000
-0.466955 -0.020196 0.006065 3.000000
-0.466955 -0.022029 -0.093201 3.000000
-0.466955 -0.091757 -0.000742 3.000000
-0.466955 -0.042914 -0.076937 3.000000
-0.466955 0.062265 0.065746 3.000000
-0.466955 -0.020609 0.021760 3.000000
-0.466955 0.061355 -0.023043 3.000000
-0.466955 0.015471 0.063870 3.000000
-0.466955 0.025070 0.086249 3.000000
-0.466955 -0.055673 0.015450 3.000000
-0.466955 -0.018365 -0.011801 3.000000
-0.466955 -0.038044 -0.040647 3.000000
-0.466955 0.081917 0.001036 3.000000
-0.466955 0.014113 -0.034687 3.000000
-0.466955 0.064195 -0.005090 3.000000
-0.466955 0.024907 0.087744 3.000000
-0.466955 -0.075156 0.043367 3.000000
-0.466955 -0.047961 -0.002689 3.000000
-0.466955 0.004493 0.031769 3.000000
-0.466955 0.072291 0.055242 3.000000
-0.466955 0.041472 0.021246 3.000000
-0.466955 -0.013220 -0.092654 3.000000
-0.466955 -0.093577 0.021784 3.000000
-0.466955 0.086332 0.036819 3.000000
-0.466955 -0.012320 0.057549 3.000000
-0.466955 0.077708 0.024364 3.000000
-0.466955 0.013090 -0.058107 3.000000
-0.466955 -0.074517 0.055521 3.000000
-0.466955 0.050576 0.082485 3.000000
-0.466955 -0.072730 0.004511 3.000000
-0.466955 0.002982 -0.090196 3.000000
-0.466955 0.005504 0.022054 3.000000
-0.466955 0.015649 -0.046661 3.000000
-0.466955 0.020837 -0.058601 3.000000
-0.466955 -0.050123 0.060634 3.000000
-0.466955 0.028451 0.051125 3.000000
-0.466955 -0.085615 -0.037174 3.000000
-0.466955 0.011460 -0.035395 3.000000
-0.466955 -0.050177 -0.056862 3.000000
-0.466955 0.021296 0.010479 3.000000
-0.466955 0.044407 0.013649 3.000000
-0.466955 -0.007132 -0.027024 3.000000
-0.466955 -0.020942 -0.013728 3.000000
-0.466955 -0.030931 -0.003311 3.000000
-0.466955 -0.000551 -0.008437 3.000000
-0.466955 -0.005973 0.064526 3.000000
-0.466955 -0.028212 0.001795 3.000000
-0.466955 -0.017839 0.075683 3.000000
-0.466955 -0.013827 -0.056359 3.000000
-0.466955 0.069078 0.032176 3.000000
-0.466955 0.007083 -0.041310 3.000000
-0.466955 -0.042148 0.014841 3.000000
-0.466955 -0.082966 -0.021488 3.000000
-0.466955 -0.048395 0.043544 3.000000
-0.466955 0.087828 -0.024151 3.000000
-0.466955 0.058652 -0.055208 3.000000
-0.466955 0.046878 0.063542 3.000000
-0.466955 0.033299 0.018871 3.000000
-0.466955 0.032391 0.094363 3.000000
-0.466955 0.019011 0.029782 3.000000
-0.466955 0.021839 -0.021389 3.000000
-0.466955 -0.063219 -0.048547 3.000000
-0.466955 0.018173 0.061863 3.000000
-0.466955 0.067143 -0.028052 3.000000
-0.466955 -0.011627 0.039974 3.000000
-0.466955 0.026272 0.054839 3.000000
-0.466955 0.026810 -0.044993 3.000000
-0.466955 -0.010123 0.021353 3.000000
-0.466955 -0.012544 0.054234 3.000000
-0.466955 0.056837 0.047491 3.000000
-0.466955 0.073350 0.039544 3.000000
-0.466955 -0.036251 0.004613 3.000000
-0.466955 -0.025883 0.053684 3.000000
-0.466955 -0.008736 0.019774 3.000000
-0.466955 0.093520 -0.025502 3.000000
-0.466955 -0.009646 -0.014691 3.000000
-0.466955 -0.063631 0.006004 3.000000
-0.466955 -0.091815 -0.031199 3.000000
-0.466955 -0.038655 -0.031280 3.000000
-0.466955 -0.056570 0.049678 3.000000
-0.466955 0.066793 -0.073142 3.000000
-0.466955 0.059769 -0.022558 3.000000
-0.466955 -0.001796 -0.094526 3.000000
-0.466955 -0.007824 -0.028627 3.000000
-0.466955 -0.044647 -0.014278 3.000000
-0.466955 0.034203 -0.086222 3.000000
-0.466955 -0.077355 -0.058008 3.000000
-0.466955 0.012916 -0.090874 3.000000
-0.466955 0.025819 -0.039334 3.000000
-0.466955 0.007269 -0.096343 3.000000
-0.466955 0.027314 0.088483 3.000000
-0.466955 0.019144 -0.063132 3.000000
-0.466955 -0.004245 0.080181 3.000000
-0.466955 -0.007668 0.040480 3.000000
-0.466955 0.020692 -0.053425 3.000000
-0.466955 -0.053648 -0.035496 3.000000
-0.466955 0.006959 -0.045995 3.000000
-0.466955 0.059479 0.019731 3.000000
-0.466955 -0.005984 -0.016669 3.000000
-0.466955 0.043646 0.010861 3.000000
-0.466955 0.016232 -0.075611 3.000000
-0.466955 -0.080838 0.024188 3.000000
-0.466955 0.045329 0.002644 3.000000
-0.466955 0.048355 0.053494 3.000000
-0.466955 -0.043932 -0.043510 3.000000
-0.466955 0.055492 -0.015624 3.000000
-0.466955 0.030869 -0.064258 3.000000
-0.466955 -0.066807 -0.046760 3.000000
-0.466955 -0.071497 -0.035216 3.000000
-0.466955 -0.000692 -0.086111 3.000000
-0.466955 0.031438 -0.052459 3.000000
-0.466955 -0.034177 0.057341 3.000000
-0.466955 0.010708 -0.034137 3.000000
-0.466955 -0.016237 -0.092653 3.000000
-0.466955 -0.074127 0.041971 3.000000
-0.466955 -0.040920 0.020053 3.000000
-0.466955 -0.011216 -0.019964 3.000000
-0.466955 -0.081696 -0.057029 3.000000
-0.466955 0.037231 -0.015127 3.000000
-0.466955 0.049192 0.006725 3.000000
-0.466955 0.064668 0.059005 3.000000
-0.466955 0.011435 0.025643 3.000000
-0.466955 -0.016388 -0.071935 3.000000
-0.466955 -0.009405 0.074299 3.000000
-0.466955 0.046357 0.077743 3.000000
-0.466955 -0.053212 0.041858 3.000000
-0.466955 -0.009906 0.013610 3.000000
-0.466955 0.099299 -0.011379 3.000000
-0.466955 0.044603 0.001090 3.000000
-0.466955 -0.015569 -0.016134 3.000000
-0.466955 0.042089 -0.028964 3.000000
-0.466955 0.052699 0.014629 3.000000
-0.466955 0.081882 -0.029687 3.000000
-0.466955 -0.084063 0.022123 3.000000
-0.466955 0.068451 0.072629 3.000000
-0.466955 0.089630 0.016804 3.000000
-0.466955 -0.059423 0.072719 3.000000
-0.466955 0.076773 0.031115 3.000000
-0.466955 -0.069305 -0.010774 3.000000
-0.466955 0.003968 -0.013289 3.000000
-0.466955 -0.013090 0.016635 3.000000
-0.466955 -0.088096 -0.013383 3.000000
-0.466955 0.056131 -0.066261 3.000000
-0.466955 0.035354 0.009316 3.000000
-0.466955 0.029528 0.039923 3.000000
-0.466955 -0.060326 -0.054708 3.000000
-0.466955 -0.027691 -0.030868 3.000000
-0.466955 -0.062583 0.056808 3.000000
-0.466955 -0.034651 0.072552 3.000000
-0.466955 -0.058903 -0.029236 3.000000
-0.466955 0.034515 -0.050940 3.000000
-0.466955 0.052400 -0.003045 3.000000
-0.466955 -0.081455 -0.031576 3.000000
-0.466955 0.090595 -0.010989 3.000000
-0.466955 0.043962 -0.017098 3.000000
-0.466955 0.042825 -0.057469 3.000000
-0.466955 -0.052722 -0.005102 3.000000
-0.466955 0.029030 0.003023 3.000000
-0.466955 0.053898 0.019071 3.000000
-0.466955 0.021989 -0.081706 3.000000
-0.466955 0.008308 0.002417 3.000000
-0.466955 0.094844 -0.024210 3.000000
-0.466955 0.033765 -0.009053 3.000000
-0.466955 0.024215 0.094955 3.000000
-0.466955 0.093340 0.008104 3.000000
-0.466955 0.063197 0.010697 3.000000
-0.466955 0.060315 0.014600 3.000000
-0.466955 -0.027045 -0.014156 3.000000
-0.466955 -0.000290 0.040926 3.000000
-0.466955 0.056355 -0.053549 3.000000
-0.466955 -0.032613 -0.078052 3.000000
-0.466955 -0.061925 -0.013931 3.000000
-0.466955 -0.074970 0.040321 3.000000
-0.466955 0.043914 -0.071806 3.000000
-0.466955 -0.060683 0.017442 3.000000
-0.466955 0.065920 0.001349 3.000000
-0.466955 0.056692 -0.042448 3.000000
-0.466955 0.017623 0.028996 3.000000
-0.466955 0.000961 0.051792 3.000000
-0.466955 -0.013901 0.054475 3.000000
-0.466955 0.025591 0.050698 3.000000
-0.466955 0.064969 -0.054756 3.000000
-0.466955 -0.059764 -0.052932 3.000000
-0.466955 -0.097475 0.006008 3.000000
-0.466955 0.061841 0.030237 3.000000
-0.466955 -0.084866 -0.035691 3.000000
-0.466955 -0.034043 0.080260 3.000000
-0.466955 -0.064564 0.021085 3.000000
-0.466955 0.036604 0.084267 3.000000
-0.466955 -0.010416 0.000543 3.000000
-0.466955 0.042803 -0.005368 3.000000
-0.466955 -0.064414 0.055857 3.000000
-0.466955 -0.082263 0.017850 3.000000
-0.466955 -0.000896 0.070844 3.000000
-0.466955 0.052884 -0.080088 3.000000
-0.466955 0.095357 -0.021300 3.000000
-0.466955 0.046680 0.084975 3.000000
-0.466955 -0.009836 0.036422 3.000000
-0.466955 0.043003 -0.087785 3.000000
-0.466955 0.059213 -0.049087 3.000000
-0.466955 0.011424 0.072962 3.000000
-0.466955 -0.049406 -0.061796 3.000000
-0.466955 0.078342 0.004813 3.000000
-0.466955 -0.078764 -0.023706 3.000000
-0.466955 0.090018 0.039330 3.000000
-0.466955 -0.034553 -0.061130 3.000000
-0.466955 0.009968 -0.096128 3.000000
-0.466955 0.065090 -0.072070 3.000000
-0.466955 -0.090432 -0.021927 3.000000
-0.466955 0.038419 -0.032476 3.000000
-0.466955 0.062934 -0.025912 3.000000
-0.466955 0.017674 -0.074271 3.000000
-0.466955 -0.010609 -0.089734 3.000000
-0.466955 0.000358 0.088938 3.000000
-0.466955 -0.035323 0.015959 3.000000
-0.466955 0.007170 -0.034251 3.000000
-0.466955 0.074886 0.015153 3.000000
-0.466955 0.028734 0.047138 3.000000
-0.466955 -0.038879 -0.062639 3.000000
-0.466955 -0.057070 0.034783 3.000000
-0.466955 -0.015203 0.027975 3.000000
-0.466955 0.040091 -0.043413 3.000000
-0.466955 0.077383 -0.061112 3.000000
-0.466955 -0.063827 0.012048 3.000000
-0.466955 -0.071047 -0.024563 3.000000
-0.466955 -0.004425 0.003464 3.000000
-0.466955 0.021324 -0.030513 3.000000
-0.466955 0.081785 0.015419 3.000000
-0.466955 -0.082674 -0.030462 3.000000
-0.466955 -0.051388 0.045354 3.000000
-0.466955 -0.026064 -0.030390 3.000000
-0.466955 -0.004557 0.075575 3.000000
-0.466955 -0.055818 -0.081693 3.000000
-0.466955 0.070321 -0.011033 3.000000
-0.466955 0.057316 -0.000050 3.000000
-0.466955 0.089173 -0.019578 3.000000
-0.466955 -0.067448 -0.042439 3.000000
-0.466955 -0.031434 0.064146 3.000000
-0.466955 -0.018661 -0.067467 3.000000
-0.466955 0.036475 -0.057277 3.000000
-0.466955 -0.038866 -0.026053 3.000000
-0.466955 -0.040420 0.008159 3.000000
-0.466955 -0.006864 0.089743 3.000000
-0.466955 0.002235 0.029479 3.000000
-0.466955 -0.020316 0.088779 3.000000
-0.466955 0.017866 0.077793 3.000000
-0.466955 -0.052072 0.010509 3.000000
-0.466955 -0.002035 0.048394 3.000000
-0.466955 -0.009840 0.052999 3.000000
-0.466955 0.033979 -0.024144 3.000000
-0.466955 0.060371 0.070894 3.000000
-0.466955 0.080317 0.002247 3.000000
-0.466955 -0.064441 -0.049489 3.000000
-0.466955 -0.079581 0.005973 3.000000
-0.466955 0.055034 0.022074 3.000000
-0.466955 0.040396 0.070410 3.000000
-0.466955 -0.016163 -0.070194 3.000000
-0.466955 -0.023409 -0.030047 3.000000
-0.466955 -0.067021 -0.035107 3.000000
-0.466955 0.031672 -0.028721 3.000000
-0.466955 -0.029770 -0.087685 3.000000
-0.466955 -0.034427 0.044772 3.000000
-0.466955 -0.003629 0.077140 3.000000
-0.466955 -0.072843 0.010787 3.000000
-0.466955 -0.036524 0.008847 3.000000
-0.466955 0.036237 -0.081162 3.000000
-0.466955 -0.075298 0.046644 3.000000
-0.466955 0.059244 0.029358 3.000000
-0.466955 0.019113 0.091371 3.000000
-0.466955 0.025714 -0.010719 3.000000
-0.466955 -0.002492 -0.028611 3.000000
-0.466955 0.019294 -0.087289 3.000000
-0.466955 0.019359 0.041973 3.000000
-0.466955 -0.022577 -0.004481 3.000000
-0.466955 0.011185 -0.081602 3.000000
-0.466955 0.014514 0.014920 3.000000
-0.466955 -0.001711 0.019912 3.000000
-0.466955 -0.075253 -0.001904 3.000000
-0.466955 -0.007365 0.016094 3.000000
-0.466955 0.019805 0.085802 3.000000
-0.466955 -0.056961 0.029762 3.000000
-0.466955 -0.058583 0.056651 3.000000
-0.466955 0.045866 -0.016440 3.000000
-0.466955 -0.037270 0.022720 3.000000
-0.466955 -0.069658 -0.065676 3.000000
-0.466955 0.030941 0.061258 3.000000
-0.466955 0.015108 0.013111 3.000000
-0.466955 0.033386 0.051657 3.000000
-0.466955 -0.088061 0.022144 3.000000
-0.466955 -0.066666 0.029080 3.000000
-0.466955 -0.008468 -0.095933 3.000000
-0.466955 -0.059577 0.031036 3.000000
-0.466955 0.076983 -0.053560 3.000000
-0.466955 0.070642 0.066310 3.000000
-0.466955 -0.064059 -0.010132 3.000000
-0.466955 0.015043 0.043358 3.000000
-0.466955 0.067313 0.015584 3.000000
-0.466955 0.086688 0.049047 3.000000
-0.466955 0.065140 -0.027162 3.000000
-0.466955 -0.056431 0.031597 3.000000
-0.466955 -0.036114 -0.007768 3.000000
-0.466955 0.062849 -0.065106 3.000000
-0.466955 0.069129 -0.060533 3.000000
-0.466955 -0.033694 0.075802 3.000000
-0.466955 -0.005565 0.005570 3.000000
-0.466955 0.072499 0.068412 3.000000
-0.466955 0.019473 -0.055582 3.000000
-0.466955 0.072105 -0.060834 3.000000
-0.466955 -0.076834 0.021130 3.000000
-0.466955 0.012967 -0.038188 3.000000
-0.466955 0.024324 0.049925 3.000000
-0.466955 0.082728 0.053895 3.000000
-0.466955 0.053520 -0.037847 3.000000
-0.466955 -0.089281 -0.044254 3.000000
-0.466955 -0.033813 -0.073921 3.000000
-0.466955 0.012543 -0.013711 3.000000
-0.466955 -0.017066 -0.097939 3.000000
-0.466955 0.043295 0.018243 3.000000
-0.466955 -0.046722 -0.040675 3.000000
-0.466955 -0.034778 0.070715 3.000000
-0.466955 0.077001 -0.009683 3.000000
-0.466955 -0.081446 0.029152 3.000000
-0.466955 0.001532 -0.066366 3.000000
-0.466955 0.040870 -0.027952 3.000000
-0.466955 0.031319 -0.001663 3.000000
-0.466955 -0.069522 0.012151 3.000000
-0.466955 0.080855 -0.030740 3.000000
-0.466955 -0.024499 -0.072081 3.000000
-0.466955 -0.059711 0.042726 3.000000
-0.466955 0.026367 0.036348 3.000000
-0.466955 0.031549 0.087439 3.000000
-0.466955 0.083213 0.007630 3.000000
-0.466955 0.052068 0.035595 3.000000
-0.466955 -0.034485 -0.080364 3.000000
-0.466955 0.074289 -0.028209 3.000000
-0.466955 0.038636 -0.073674 3.000000
-0.466955 -0.020258 -0.050989 3.000000
-0.466955 -0.041039 0.038888 3.000000
-0.466955 0.022787 -0.008234 3.000000
-0.466955 -0.006975 0.055180 3.000000
-0.466955 -0.045914 0.007621 3.000000
-0.466955 -0.078011 0.032297 3.000000
-0.466955 -0.003356 -0.090403 3.000000
-0.466955 0.051003 -0.052498 3.000000
-0.466955 0.031137 0.050722 3.000000
-0.466955 -0.065531 0.007117 3.000000
-0.466955 0.077428 0.053527 3.000000
-0.466955 0.088646 -0.026699 3.000000
-0.466955 0.047235 0.007069 3.000000
-0.466955 0.021515 0.081105 3.000000
-0.466955 -0.024123 -0.067270 3.000000
-0.466955 -0.027223 -0.024197 3.000000
-0.466955 -0.032549 -0.015812 3.000000
-0.466955 -0.042266 0.065092 3.000000
-0.466955 -0.049814 -0.002801 3.000000
-0.466955 -0.098364 -0.015974 3.000000
-0.466955 -0.029505 0.092612 3.000000
-0.466955 -0.000434 0.027110 3.000000
-0.466955 0.027780 0.091227 3.000000
-0.466955 0.094400 0.018032 3.000000
-0.466955 0.023228 -0.086488 3.000000
-0.466955 0.037235 0.001046 3.000000
-0.466955 0.010824 -0.077816 3.000000
-0.466955 0.040020 -0.050052 3.000000
-0.466955 -0.020509 -0.002799 3.000000
-0.466955 0.036564 0.047001 3.000000
-0.466955 -0.075123 0.058943 3.000000
-0.466955 0.049723 0.012692 3.000000
-0.466955 -0.089474 -0.003262 3.000000
-0.466955 0.023020 0.033443 3.000000
-0.466955 -0.020924 0.062954 3.000000
-0.466955 0.039269 0.005983 3.000000
-0.466955 -0.016591 -0.028520 3.000000
-0.466955 -0.023474 0.000797 3.000000
-0.466955 -0.041490 0.001917 3.000000
-0.466955 0.031652 0.077601 3.000000
-0.466955 -0.028506 0.045051 3.000000
-0.466955 -0.009743 0.011256 3.000000
-0.466955 -0.004843 0.088601 3.000000
-0.466955 0.036046 -0.058662 3.000000
-0.466955 0.001741 -0.046420 3.000000
-0.466955 0.084946 0.006517 3.000000
-0.466955 -0.049669 0.007630 3.000000
-0.466955 0.009448 -0.023751 3.000000
-0.466955 0.025371 -0.075900 3.000000
-0.466955 0.043856 -0.088946 3.000000
-0.466955 -0.068191 0.025974 3.000000
-0.466955 -0.001851 0.011822 3.000000
-0.466955 0.036166 0.011289 3.000000
-0.466955 0.024325 -0.092228 3.000000
-0.466955 0.020628 0.062230 3.000000
-0.466955 0.078917 0.056621 3.000000
-0.466955 0.019472 0.035569 3.000000
-0.466955 0.029629 -0.060829 3.000000
-0.466955 0.038646 -0.029366 3.000000
-0.466955 -0.013449 -0.012426 3.000000
-0.466955 0.094787 -0.007617 3.000000
-0.466955 0.025733 0.005712 3.000000
-0.466955 -0.036901 0.075614 3.000000
-0.466955 0.082331 -0.020774 3.000000
-0.466955 0.057047 0.076021 3.000000
-0.466955 -0.061955 -0.075636 3.000000
-0.466955 0.006440 0.045758 3.000000
-0.466955 -0.072090 0.028332 3.000000
-0.466955 -0.095105 0.013024 3.000000
-0.466955 -0.073675 0.000029 3.000000
-0.466955 0.004974 -0.055938 3.000000
-0.466955 -0.054640 -0.049496 3.000000
-0.466955 0.048385 0.045349 3.000000
-0.466955 0.000877 -0.059924 3.000000
-0.466955 -0.029981 -0.083335 3.000000
-0.466955 0.011704 0.039690 3.000000
-0.466955 0.065618 0.018758 3.000000
-0.466955 0.038792 0.086547 3.000000
-0.466955 0.002643 -0.039029 3.000000
-0.466955 0.014976 0.079346 3.000000
-0.466955 -0.078722 0.040349 3.000000
-0.466955 -0.036485 -0.041193 3.000000
-0.466955 0.089325 0.021833 3.000000
-0.466955 -0.047723 0.073069 3.000000
-0.466955 0.035096 -0.079493 3.000000
-0.466955 -0.036212 0.061393 3.000000
-0.466955 -0.019571 -0.015122 3.000000
-0.466955 -0.026302 -0.019660 3.000000
-0.466955 0.096680 -0.025059 3.000000
-0.466955 -0.055555 -0.050997 3.000000
-0.466955 -0.066195 -0.033402 3.000000
-0.466955 -0.020273 0.041671 3.000000
-0.466955 0.032537 0.029086 3.000000
-0.466955 -0.031317 0.039327 3.000000
-0.466955 -0.036722 -0.038395 3.000000
-0.466955 -0.007079 -0.018104 3.000000
-0.466955 0.046112 0.061865 3.000000
-0.466955 -0.004197 0.037426 3.000000
-0.466955 0.071028 -0.032670 3.000000
-0.466955 -0.031217 -0.090426 3.000000
-0.466955 0.054732 0.010478 3.000000
-0.466955 -0.043068 0.067493 3.000000
-0.466955 -0.051062 -0.076957 3.000000
-0.466955 -0.076823 -0.038993 3.000000
-0.466955 0.043727 -0.024017 3.000000
-0.466955 -0.066870 0.046829 3.000000
-0.466955 0.025724 0.009011 3.000000
-0.466955 0.066767 -0.034803 3.000000
-0.466955 0.053307 -0.071165 3.000000
-0.466955 -0.075064 0.052519 3.000000
-0.466955 -0.070597 -0.057558 3.000000
-0.466955 0.053468 -0.064209 3.000000
-0.466955 0.044758 0.067085 3.000000
-0.466955 0.090204 0.024959 3.000000
-0.466955 0.069437 0.000503 3.000000
-0.466955 0.017330 -0.049051 3.000000
-0.466955 0.015144 0.045386 3.000000
-0.466955 0.014735 0.050714 3.000000
-0.466955 -0.080903 0.052076 3.000000
-0.466955 -0.010170 -0.050398 3.000000
-0.466955 -0.003193 -0.073114 3.000000
-0.466955 0.012804 -0.006400 3.000000
-0.466955 0.009585 0.095077 3.000000
-0.466955 -0.005180 -0.046480 3.000000
-0.466955 -0.028102 0.033227 3.000000
-0.466955 -0.014462 0.034078 3.000000
-0.466955 -0.015160 -0.054391 3.000000
-0.466955 0.073339 0.028095 3.000000
-0.466955 0.039708 -0.033468 3.000000
-0.466955 -0.082387 -0.044550 3.000000
-0.466955 0.051238 0.084022 3.000000
-0.466955 0.064188 -0.051944 3.000000
-0.466955 -0.031798 -0.032766 3.000000
-0.466955 -0.054377 -0.013432 3.000000
-0.466955 -0.056389 -0.074176 3.000000
-0.466955 0.083071 0.011443 3.000000
-0.466955 0.040664 0.076366 3.000000
-0.466955 0.026805 -0.021579 3.000000
-0.466955 0.042527 0.083808 3.000000
-0.466955 -0.015508 0.003610 3.000000
-0.466955 0.089834 0.030484 3.000000
-0.466955 -0.012641 -0.017343 3.000000
-0.466955 0.031028 0.058372 3.000000
-0.466955 0.029756 0.093443 3.000000
-0.466955 -0.062425 0.025129 3.000000
-0.466955 0.037888 -0.080949 3.000000
-0.466955 0.052757 0.034398 3.000000
-0.466955 0.034380 -0.032716 3.000000
-0.466955 -0.048959 -0.086663 3.000000
-0.466955 -0.081055 -0.036858 3.000000
-0.466955 -0.076826 0.045646 3.000000
-0.466955 -0.022950 -0.032881 3.000000
-0.466955 0.062938 -0.011624 3.000000
-0.466955 0.052134 0.048436 3.000000
-0.466955 0.039576 -0.011218 3.000000
-0.466955 -0.031352 0.046912 3.000000
-0.466955 -0.045224 -0.059454 3.000000
-0.466955 0.026063 -0.085568 3.000000
-0.466955 -0.066370 -0.059735 3.000000
-0.466955 0.061326 -0.028089 3.000000
-0.466955 0.060569 0.046227 3.000000
-0.466955 -0.046142 -0.086637 3.000000
-0.466955 -0.031213 0.090813 3.000000
-0.466955 0.047384 -0.037914 3.000000
-0.466955 -0.056076 -0.029492 3.000000
-0.466955 -0.039907 -0.091234 3.000000
-0.466955 0.056062 0.018384 3.000000
-0.466955 -0.091400 0.001981 3.000000
-0.466955 -0.020504 0.029386 3.000000
-0.466955 0.095176 0.030349 3.000000
-0.466955 0.087754 0.002920 3.000000
-0.466955 -0.048044 -0.074639 3.000000
-0.466955 0.028343 0.008659 3.000000
-0.466955 -0.071863 0.063307 3.000000
-0.466955 -0.048456 -0.081881 3.000000
-0.466955 -0.086943 -0.009738 3.000000
-0.466955 -0.044534 0.047911 3.000000
-0.466955 -0.036823 0.058249 3.000000
-0.466955 0.061214 0.044937 3.000000
-0.466955 -0.078517 -0.030115 3.000000
-0.466955 0.011436 -0.007797 3.000000
-0.466955 -0.051894 0.017904 3.000000
-0.466955 -0.035802 -0.033546 3.000000
-0.466955 -0.078843 -0.052780 3.000000
-0.466955 0.018294 0.022599 3.000000
-0.466955 -0.013841 -0.048874 3.000000
-0.466955 -0.003362 -0.068242 3.000000
-0.466955 0.065889 -0.058646 3.000000
-0.466955 0.045601 -0.059653 3.000000
-0.466955 0.057450 0.034844 3.000000
-0.466955 0.065274 -0.061296 3.000000
-0.466955 0.029730 -0.032256 3.000000
-0.466955 -0.012037 0.084731 3.000000
-0.466955 -0.032116 -0.039754 3.000000
-0.466955 0.004532 -0.023415 3.000000
-0.466955 -0.033285 0.030610 3.000000
-0.466955 -0.044051 0.021522 3.000000
-0.466955 -0.069047 0.031518 3.000000
-0.466955 -0.063961 -0.003162 3.000000
-0.466955 0.010955 -0.009733 3.000000
-0.466955 -0.076771 0.048286 3.000000
-0.466955 -0.043721 -0.015504 3.000000
-0.466955 0.037530 -0.083017 3.000000
-0.466955 0.077709 -0.029014 3.000000
-0.466955 -0.027053 0.045577 3.000000
-0.466955 0.041371 0.056995 3.000000
-0.466955 -0.024906 -0.025297 3.000000
-0.466955 0.057138 -0.068626 3.000000
-0.466955 0.022732 0.019132 3.000000
-0.466955 0.067662 -0.001843 3.000000
-0.466955 -0.042063 0.049988 3.000000
-0.466955 -0.087475 -0.037503 3.000000
-0.466955 -0.032082 -0.026579 3.000000
-0.466955 -0.019312 -0.091697 3.000000
-0.466955 -0.035135 -0.029054 3.000000
-0.466955 0.065565 -0.033347 3.000000
-0.466955 0.092948 -0.035541 3.000000
-0.466955 0.039061 -0.007771 3.000000
-0.466955 -0.003225 -0.080221 3.000000
-0.466955 -0.039480 0.080151 3.000000
-0.466955 -0.048879 -0.031743 3.000000
-0.466955 0.032955 0.080213 3.000000
-0.466955 -0.042570 0.038295 3.000000
-0.466955 0.092172 0.013827 3.000000
-0.466955 -0.036784 0.071251 3.000000
-0.466955 0.085971 -0.009380 3.000000
-0.466955 -0.023593 0.092699 3.000000
-0.466955 -0.035576 0.028713 3.000000
-0.466955 -0.031423 0.058271 3.000000
-0.466955 -0.080229 -0.007762 3.000000
-0.466955 0.007270 0.036182 3.000000
-0.466955 -0.070612 -0.001738 3.000000
-0.466955 0.063821 0.066212 3.000000
-0.466955 -0.078049 -0.016669 3.000000
-0.466955 -0.033060 -0.043917 3.000000
-0.466955 -0.047355 -0.060976 3.000000
-0.466955 -0.051300 -0.073735 3.000000
-0.466955 -0.087147 0.025777 3.000000
-0.466955 -0.037269 -0.020977 3.000000
-0.466955 -0.049633 0.069648 3.000000
-0.466955 0.036367 0.072651 3.000000
-0.466955 -0.001632 -0.007163 3.000000
-0.466955 0.084508 -0.010850 3.000000
-0.466955 0.005332 -0.046383 3.000000
-0.466955 -0.056694 -0.054362 3.000000
-0.466955 0.032735 0.066351 3.000000
-0.466955 0.046555 0.066538 3.000000
-0.466955 -0.047929 -0.052297 3.000000
-0.466955 0.049751 0.052096 3.000000
-0.466955 0.058404 0.080988 3.000000
-0.466955 0.006872 -0.042633 3.000000
-0.466955 -0.009493 0.043841 3.000000
-0.466955 0.076316 -0.045712 3.000000
-0.466955 0.042394 0.064865 3.000000
-0.466955 0.035877 0.082990 3.000000
-0.466955 0.036425 0.043411 3.000000
-0.466955 -0.025354 0.063774 3.000000
-0.466955 -0.007569 -0.054284 3.000000
-0.466955 0.051784 0.029571 3.000000
-0.466955 0.034490 0.065329 3.000000
-0.466955 0.024767 -0.017948 3.000000
-0.466955 0.093343 0.027686 3.000000
-0.466955 -0.080270 -0.058782 3.000000
-0.466955 0.081993 -0.038758 3.000000
-0.466955 -0.029734 -0.040314 3.000000
-0.466955 0.041923 0.008335 3.000000
-0.466955 -0.015369 -0.056328 3.000000
-0.466955 0.039790 0.020554 3.000000
-0.466955 0.048531 0.074793 3.000000
-0.466955 0.044416 0.064982 3.000000
-0.466955 -0.094313 -0.020669 3.000000
-0.466955 0.038267 -0.047492 3.000000
-0.466955 0.039204 0.064951 3.000000
-0.466955 0.041963 0.011213 3.000000
-0.466955 -0.014775 0.087518 3.000000
-0.466955 -0.064787 -0.061745 3.000000
-0.466955 -0.056399 0.028540 3.000000
-0.466955 -0.030137 -0.057830 3.000000
-0.466955 0.035784 0.056568 3.000000
-0.466955 -0.012365 0.038732 3.000000
-0.466955 -0.029502 -0.003287 3.000000
-0.466955 -0.060662 -0.026442 3.000000
-0.466955 -0.093115 -0.028607 3.000000
-0.466955 0.062359 -0.034108 3.000000
-0.466955 -0.003996 0.063872 3.000000
-0.466955 -0.059931 0.003877 3.000000
-0.466955 -0.001201 -0.021991 3.000000
-0.466955 -0.025009 -0.040290 3.000000
-0.466955 -0.064205 -0.056368 3.000000
-0.466955 0.016138 -0.073723 3.000000
-0.466955 0.009106 0.062236 3.000000
-0.466955 0.083913 -0.001464 3.000000
-0.466955 0.045092 0.081504 3.000000
-0.466955 -0.032356 -0.063540 3.000000
-0.466955 -0.003554 0.061372 3.000000
-0.466955 -0.035739 -0.021478 3.000000
-0.466955 -0.029655 -0.075216 3.000000
-0.466955 -0.066070 0.074824 3.000000
-0.466955 0.020769 -0.069560 3.000000
-0.466955 0.067329 -0.066321 3.000000
-0.466955 0.010582 0.029535 3.000000
-0.466955 0.008304 -0.094588 3.000000
-0.466955 0.010982 0.086154 3.000000
-0.466955 -0.017930 -0.043583 3.000000
-0.466955 -0.079277 0.049674 3.000000
-0.466955 0.028214 -0.071912 3.000000
-0.466955 -0.038244 0.039693 3.000000
-0.466955 -0.025969 0.093846 3.000000
-0.466955 -0.025864 -0.014774 3.000000
-0.466955 0.085745 -0.032067 3.000000
-0.466955 -0.045591 0.025375 3.000000
-0.466955 -0.039017 -0.081033 3.000000
-0.466955 0.071223 0.064643 3.000000
-0.466955 0.053079 0.041913 3.000000
-0.466955 0.017687 -0.034624 3.000000
-0.466955 -0.019321 -0.073864 3.000000
-0.466955 -0.014305 -0.038756 3.000000
-0.466955 -0.007320 0.014286 3.000000
-0.466955 0.065443 0.042371 3.000000
-0.466955 0.036454 -0.055469 3.000000
-0.466955 -0.061785 -0.065096 3.000000
-0.466955 -0.013621 0.011165 3.000000
-0.466955 -0.037018 0.015268 3.000000
-0.466955 0.067680 -0.044175 3.000000
-0.466955 0.014941 0.036971 3.000000
-0.466955 0.015185 0.000456 3.000000
-0.466955 0.075415 -0.012403 3.000000
-0.466955 -0.047259 0.077888 3.000000
-0.466955 0.047113 0.054664 3.000000
-0.466955 -0.065683 -0.022685 3.000000
-0.466955 -0.006294 -0.010806 3.000000
-0.466955 0.004667 0.075331 3.000000
-0.466955 0.038765 -0.063155 3.000000
-0.466955 0.012310 0.001126 3.000000
-0.466955 -0.028991 -0.055109 3.000000
-0.466955 0.013180 0.075907 3.000000
-0.466955 0.053221 -0.034996 3.000000
-0.466955 -0.047199 0.045385 3.000000
-0.466955 -0.080696 0.011512 3.000000
-0.466955 0.029636 0.052871 3.000000
-0.466955 0.069225 -0.037670 3.000000
-0.466955 -0.029353 0.073352 3.000000
-0.466955 -0.029454 0.026917 3.000000
-0.466955 0.065593 -0.008588 3.000000
-0.466955 -0.010891 0.003449 3.000000
-0.466955 -0.033819 0.045994 3.000000
-0.466955 0.042515 -0.050143 3.000000
-0.466955 0.031317 0.068582 3.000000
-0.466955 -0.021953 0.028193 3.000000
-0.466955 0.009803 0.048483 3.000000
-0.466955 0.061346 -0.025932 3.000000
-0.466955 0.039982 -0.018903 3.000000
-0.466955 -0.017682 -0.094371 3.000000
-0.466955 -0.080679 -0.021538 3.000000
-0.466955 0.005625 0.092046 3.000000
-0.466955 0.073189 -0.049240 3.000000
-0.466955 0.002552 -0.011208 3.000000
-0.466955 -0.020333 0.085796 3.000000
-0.466955 -0.039471 0.004562 3.000000
-0.466955 -0.012274 0.094420 3.000000
-0.466955 -0.042203 0.043988 3.000000
-0.466955 0.064936 0.060482 3.000000
-0.466955 0.008592 -0.034037 3.000000
-0.466955 -0.098967 0.005759 3.000000
-0.466955 -0.092937 0.017284 3.000000
-0.466955 0.067344 -0.061540 3.000000
-0.466955 0.074466 0.047245 3.000000
-0.466955 0.028938 0.075631 3.000000
-0.466955 -0.080842 0.033798 3.000000
-0.466955 -0.033394 0.006859 3.000000
-0.466955 -0.013025 0.099086 3.000000
-0.466955 -0.009642 -0.048518 3.000000
-0.466955 0.069625 0.020012 3.000000
-0.466955 -0.051799 -0.083530 3.000000
-0.466955 0.039652 0.066308 3.000000
-0.466955 0.011519 0.075761 3.000000
-0.466955 -0.047884 -0.010355 3.000000
-0.466955 0.050274 -0.043126 3.000000
-0.466955 -0.046140 0.006242 3.000000
-0.466955 0.092633 0.022330 3.000000
-0.466955 0.063870 -0.053688 3.000000
-0.466955 0.085158 -0.004425 3.000000
-0.466955 0.038731 0.032585 3.000000
-0.466955 -0.027676 -0.001337 3.000000
-0.466955 0.006905 -0.035852 3.000000
-0.466955 0.026433 0.092833 3.000000
-0.466955 0.022266 0.094248 3.000000
-0.466955 -0.002569 -0.088016 3.000000
-0.466955 0.022905 -0.055748 3.000000
-0.466955 0.011979 -0.000468 3.000000
-0.466955 -0.001527 0.088091 3.000000
-0.466955 -0.006412 0.093104 3.000000
-0.466955 -0.085088 -0.001656 3.000000
-0.466955 0.028176 0.042614 3.000000
-0.466955 -0.066443 -0.010386 3.000000
-0.466955 -0.033789 0.000221 3.000000
-0.466955 -0.055025 0.023472 3.000000
-0.466955 -0.006126 0.048945 3.000000
-0.466955 0.066408 -0.045790 3.000000
-0.466955 -0.034645 0.027543 3.000000
-0.466955 0.025280 0.044111 3.000000
-0.466955 0.010142 0.009295 3.000000
-0.466955 -0.052384 0.068950 3.000000
-0.466955 -0.002037 -0.027106 3.000000
-0.466955 0.027228 0.017301 3.000000
-0.466955 -0.054061 0.058348 3.000000
-0.466955 0.037414 0.027382 3.000000
-0.466955 0.051840 0.046648 3.000000
-0.466955 -0.004879 0.058756 3.000000
-0.466955 -0.037233 0.055534 3.000000
-0.466955 -0.080198 -0.013044 3.000000
-0.466955 0.030374 0.082524 3.000000
-0.466955 0.083378 0.015903 3.000000
-0.466955 0.097169 0.015362 3.000000
-0.466955 0.042792 -0.002493 3.000000
-0.466955 0.043749 0.047316 3.000000
-0.466955 0.011732 0.079723 3.000000
-0.466955 -0.032083 -0.049523 3.000000
-0.466955 0.066078 -0.007120 3.000000
-0.466955 -0.000861 0.076530 3.000000
-0.466955 -0.094700 0.017002 3.000000
-0.466955 -0.044381 0.052239 3.000000
-0.466955 -0.048875 0.061973 3.000000
-0.466955 0.046916 0.080806 3.000000
-0.466955 -0.028367 0.023098 3.000000
-0.466955 0.055886 -0.030107 3.000000
-0.466955 -0.005086 -0.052601 3.000000
-0.466955 0.034380 -0.018603 3.000000
-0.466955 0.017518 0.035262 3.000000
-0.466955 -0.064358 0.023959 3.000000
-0.466955 -0.020224 0.053391 3.000000
-0.466955 0.020725 0.026618 3.000000
-0.466955 0.000507 -0.033926 3.000000
-0.466955 0.088294 0.036607 3.000000
-0.466955 -0.069413 0.024431 3.000000
-0.466955 0.045422 -0.076133 3.000000
-0.466955 -0.030613 0.017649 3.000000
-0.466955 -0.020915 0.010707 3.000000
-0.466955 0.060361 0.040058 3.000000
-0.466955 0.075497 -0.058539 3.000000
-0.466955 -0.007941 -0.069742 3.000000
-0.466955 -0.047657 -0.049135 3.000000
-0.466955 0.075074 0.045967 3.000000
-0.466955 0.012126 0.041178 3.000000
-0.466955 0.085181 0.032471 3.000000
-0.466955 -0.030706 -0.066544 3.000000
-0.466955 -0.023007 0.014970 3.000000
-0.466955 0.031482 0.000285 3.000000
-0.466955 0.027818 -0.069996 3.000000
-0.466955 -0.000740 0.081399 3.000000
-0.466955 -0.017418 0.068654 3.000000
-0.466955 -0.054963 -0.036545 3.000000
-0.466955 0.001416 0.019428 3.000000
-0.466955 0.009707 -0.053262 3.000000
-0.466955 0.056984 0.026180 3.000000
-0.466955 0.061624 0.007812 3.000000
-0.466955 -0.038049 -0.090028 3.000000
-0.466955 0.019467 0.028045 3.000000
-0.466955 -0.052321 -0.050950 3.000000
-0.466955 -0.008309 0.088801 3.000000
-0.466955 -0.035561 -0.074474 3.000000
-0.466955 -0.024895 0.042439 3.000000
-0.466955 0.032701 0.083281 3.000000
-0.466955 -0.020887 -0.032909 3.000000
-0.466955 -0.027420 0.029542 3.000000
-0.466955 0.085559 0.028596 3.000000
-0.466955 -0.028615 0.009113 3.000000
-0.466955 0.039035 -0.087932 3.000000
-0.466955 -0.008195 -0.039600 3.000000
-0.466955 -0.048266 -0.006925 3.000000
-0.466955 0.058935 0.051190 3.000000
-0.466955 0.045446 -0.044295 3.000000
-0.466955 -0.053344 -0.006746 3.000000
-0.466955 0.026509 -0.013734 3.000000
-0.466955 0.064385 -0.011470 3.000000
-0.466955 0.088150 -0.034301 3.000000
-0.466955 -0.029910 0.046881 3.000000
-0.466955 -0.032754 -0.029865 3.000000
-0.466955 0.023157 0.065403 3.000000
-0.466955 0.057566 -0.081412 3.000000
-0.466955 0.069221 -0.003139 3.000000
-0.466955 0.039362 -0.085378 3.000000
-0.466955 0.071047 -0.067040 3.000000
-0.466955 -0.059683 -0.000339 3.000000
-0.466955 0.055904 0.015173 3.000000
-0.466955 0.048335 0.017574 3.000000
-0.466955 -0.027346 -0.052630 3.000000
-0.466955 -0.056304 -0.001255 3.000000
-0.466955 0.032304 0.022747 3.000000
-0.466955 -0.067684 -0.040347 3.000000
-0.466955 -0.032324 0.062396 3.000000
-0.466955 -0.000576 0.066582 3.000000
-0.466955 -0.034308 -0.014758 3.000000
-0.466955 -0.008378 -0.097295 3.000000
-0.466955 0.025376 -0.047804 3.000000
-0.466955 -0.016747 -0.076353 3.000000
-0.466955 -0.038488 0.058229 3.000000
-0.466955 0.033585 0.081727 3.000000
-0.466955 -0.006402 -0.059670 3.000000
-0.466955 0.002805 -0.081809 3.000000
-0.466955 -0.092924 -0.035313 3.000000
-0.466955 0.085202 -0.044264 3.000000
-0.466955 0.017731 0.085254 3.000000
-0.466955 0.065792 0.034135 3.000000
-0.466955 0.017997 0.039546 3.000000
-0.466955 -0.012627 -0.057769 3.000000
-0.466955 0.011227 0.052207 3.000000
-0.466955 0.045826 0.073114 3.000000
-0.466955 0.021082 0.004688 3.000000
-0.466955 -0.004406 -0.037670 3.000000
-0.466955 -0.023519 -0.038108 3.000000
-0.466955 -0.024610 -0.048251 3.000000
-0.466955 -0.007578 -0.010051 3.000000
-0.466955 -0.028796 0.078364 3.000000
-0.466955 0.017471 -0.068729 3.000000
-0.466955 0.075215 0.009842 3.000000
-0.466955 -0.067409 -0.030608 3.000000
-0.466955 -0.058145 0.040459 3.000000
-0.466955 0.079707 -0.011803 3.000000
-0.466955 0.016459 0.066202 3.000000
-0.466955 -0.055412 0.073691 3.000000
-0.466955 0.031470 -0.015623 3.000000
-0.466955 -0.062441 0.058652 3.000000
-0.466955 0.050137 -0.016357 3.000000
-0.466955 -0.048047 0.054434 3.000000
-0.466955 -0.021815 -0.046367 3.000000
-0.466955 0.050362 0.003140 3.000000
-0.466955 -0.096821 -0.010743 3.000000
-0.466955 0.075823 -0.019266 3.000000
-0.466955 0.018078 -0.057476 3.000000
-0.466955 -0.038827 -0.088719 3.000000
-0.466955 0.050398 -0.085901 3.000000
-0.466955 0.070959 -0.044310 3.000000
-0.466955 0.062317 0.035623 3.000000
-0.466955 -0.072847 -0.067953 3.000000
-0.466955 0.046912 0.035094 3.000000
-0.466955 -0.017623 -0.023288 3.000000
-0.466955 0.070926 -0.009753 3.000000
-0.466955 -0.019153 -0.023878 3.000000
-0.466955 0.089690 0.007044 3.000000
-0.466955 0.072569 -0.064554 3.000000
-0.466955 -0.045710 -0.080846 3.000000
-0.466955 -0.073218 0.064387 3.000000
-0.466955 -0.038512 0.048214 3.000000
-0.466955 -0.008850 0.042284 3.000000
-0.466955 -0.060292 -0.070035 3.000000
-0.466955 -0.003405 -0.066468 3.000000
-0.466955 -0.070142 0.004326 3.000000
-0.466955 -0.002393 -0.054055 3.000000
-0.466955 -0.020920 -0.062167 3.000000
-0.466955 0.090467 0.018089 3.000000
-0.466955 -0.020626 -0.011321 3.000000
-0.466955 -0.016740 -0.010344 3.000000
-0.466955 0.020426 0.047994 3.000000
-0.466955 -0.069208 0.041332 3.000000
-0.466955 -0.069679 -0.025319 3.000000
-0.466955 -0.036871 -0.078922 3.000000
-0.466955 0.022503 0.067010 3.000000
-0.466955 -0.013655 0.018368 3.000000
-0.466955 0.033126 -0.061536 3.000000
-0.466955 -0.009233 -0.008597 3.000000
-0.466955 -0.035333 0.041115 3.000000
-0.466955 0.069297 -0.054676 3.000000
-0.466955 -0.003649 0.023083 3.000000
-0.466955 0.048185 0.051925 3.000000
-0.466955 -0.093827 0.027534 3.000000
-0.466955 0.014365 -0.052205 3.000000
-0.466955 0.003113 0.037455 3.000000
-0.466955 0.044461 0.025478 3.000000
-0.466955 0.025694 0.038255 3.000000
-0.466955 -0.030980 -0.068880 3.000000
-0.466955 -0.010112 0.019444 3.000000
-0.466955 -0.002690 -0.019204 3.000000
-0.466955 -0.066185 -0.048326 3.000000
-0.466955 0.073992 -0.025155 3.000000
-0.466955 0.010975 -0.038049 3.000000
-0.466955 -0.016730 -0.026366 3.000000
-0.466955 0.040307 -0.030430 3.000000
-0.466955 0.016478 0.025525 3.000000
-0.466955 -0.033792 -0.047411 3.000000
-0.466955 -0.001966 -0.015380 3.000000
-0.466955 -0.041357 0.052054 3.000000
-0.466955 0.032516 0.009703 3.000000
-0.466955 -0.026878 -0.077576 3.000000
-0.466955 -0.033512 0.063251 3.000000
-0.466955 -0.083791 0.047960 3.000000
-0.466955 -0.038865 0.029815 3.000000
-0.466955 0.022798 0.044792 3.000000
-0.466955 0.080845 0.045304 3.000000
-0.466955 -0.020669 0.033502 3.000000
-0.466955 0.024946 0.053905 3.000000
-0.466955 0.081146 -0.047425 3.000000
-0.466955 0.070105 -0.026679 3.000000
-0.466955 -0.046394 -0.001883 3.000000
-0.466955 -0.005674 0.030131 3.000000
-0.466955 0.088960 0.028028 3.000000
-0.466955 -0.040016 -0.051251 3.000000
-0.466955 0.079034 0.050929 3.000000
-0.466955 -0.028538 -0.010480 3.000000
-0.466955 -0.004157 0.053795 3.000000
-0.466955 0.044261 -0.056432 3.000000
-0.466955 0.034295 0.039882 3.000000
-0.466955 0.054463 -0.006602 3.000000
-0.466955 -0.041471 0.081265 3.000000
-0.466955 0.043787 0.027765 3.000000
-0.466955 0.075634 -0.054295 3.000000
-0.466955 0.017686 -0.061009 3.000000
-0.466955 -0.019247 0.043355 3.000000
-0.466955 0.071351 0.007500 3.000000
-0.466955 -0.073051 -0.001565 3.000000
-0.466955 0.051559 -0.081213 3.000000
-0.466955 0.036564 0.063673 3.000000
-0.466955 -0.001595 -0.066049 3.000000
-0.466955 0.027131 0.030964 3.000000
-0.466955 0.052301 0.043690 3.000000
-0.466955 0.077708 0.036506 3.000000
-0.466955 -0.046963 0.047088 3.000000
-0.466955 0.015971 -0.021347 3.000000
-0.466955 0.005131 -0.068379 3.000000
-0.466955 0.096506 -0.005976 3.000000
-0.466955 0.013935 -0.010175 3.000000
-0.466955 -0.029538 0.005324 3.000000
-0.466955 0.051496 -0.031441 3.000000
-0.466955 0.036831 -0.033472 3.000000
-0.466955 0.027014 -0.066462 3.000000
-0.466955 -0.036506 0.077791 3.000000
-0.466955 0.044365 -0.035029 3.000000
-0.466955 0.039019 -0.052825 3.000000
-0.466955 -0.036289 0.038120 3.000000
-0.466955 -0.010649 0.091601 3.000000
-0.466955 -0.069741 0.045746 3.000000
-0.466955 -0.021399 0.068502 3.000000
-0.466955 -0.061643 -0.006700 3.000000
-0.466955 -0.071197 0.068137 3.000000
-0.466955 -0.073639 -0.031872 3.000000
-0.466955 -0.078560 -0.001115 3.000000
-0.466955 0.045280 -0.012261 3.000000
-0.466955 -0.080530 0.003744 3.000000
-0.466955 -0.078266 -0.013897 3.000000
-0.466955 -0.049267 -0.075490 3.000000
-0.466955 -0.013543 0.052838 3.000000
-0.466955 -0.075413 -0.052717 3.000000
-0.466955 -0.094656 0.011318 3.000000
-0.466955 0.089245 -0.037815 3.000000
-0.466955 0.028798 0.058426 3.000000
-0.466955 -0.062246 0.063792 3.000000
-0.466955 0.031589 0.044080 3.000000
-0.466955 0.073312 0.035547 3.000000
-0.466955 0.058948 0.035270 3.000000
-0.466955 0.054143 -0.025839 3.000000
-0.466955 -0.048754 -0.027856 3.000000
-0.466955 0.021441 0.021840 3.000000
-0.466955 0.059991 -0.029588 3.000000
-0.466955 -0.021953 0.043518 3.000000
-0.466955 0.056509 -0.071358 3.000000
-0.466955 0.052456 -0.075848 3.000000
-0.466955 -0.058069 0.033347 3.000000
-0.466955 -0.010704 0.054668 3.000000
-0.466955 0.008871 -0.079942 3.000000
-0.466955 0.028325 -0.010456 3.000000
-0.466955 -0.038451 -0.038497 3.000000
-0.466955 0.000944 -0.001806 3.000000
-0.466955 -0.008976 -0.098598 3.000000
-0.466955 0.002809 -0.056805 3.000000
-0.466955 -0.010861 -0.038986 3.000000
-0.466955 -0.005810 0.079507 3.000000
-0.466955 0.046210 -0.073363 3.000000
-0.466955 -0.017027 0.080147 3.000000
-0.466955 0.006330 -0.008876 3.000000
-0.466955 -0.094118 -0.025819 3.000000
-0.466955 -0.053954 -0.012104 3.000000
-0.466955 0.039071 0.028796 3.000000
-0.466955 0.047454 -0.041515 3.000000
-0.466955 0.020697 0.041485 3.000000
-0.466955 0.069004 0.011534 3.000000
-0.466955 0.048657 -0.082998 3.000000
-0.466955 -0.034711 -0.059652 3.000000
-0.466955 0.034664 -0.042033 3.000000
-0.466955 -0.082776 0.041960 3.000000
-0.466955 0.054814 -0.012042 3.000000
-0.466955 0.003444 0.021589 3.000000
-0.466955 -0.034858 0.005304 3.000000
