0.465339 -0.028301 0.069190 2.000000
0.465339 0.007759 0.041989 2.000000
0.465339 0.026972 -0.020481 2.000000
0.465339 -0.099576 0.000578 2.000000
0.465339 0.045933 -0.042731 2.000000
0.465339 0.014051 -0.052128 2.000000
0.465339 0.042330 -0.064352 2.000000
0.465339 0.067429 0.032322 2.000000
0.465339 0.003039 0.095295 2.000000
0.465339 0.028805 -0.038006 2.000000
0.465339 -0.003914 -0.028678 2.000000
0.465339 0.053874 0.007373 2.000000
0.465339 -0.003639 0.063277 2.000000
0.465339 0.057737 -0.023462 2.000000
0.465339 -0.030764 0.090215 2.000000
0.465339 0.008635 0.082998 2.000000
0.465339 0.058912 -0.025077 2.000000
0.465339 0.038128 -0.039408 2.000000
0.465339 -0.020338 -0.066038 2.000000
0.465339 -0.082489 -0.016579 2.000000
0.465339 0.027215 0.092022 2.000000
0.465339 0.034451 0.026330 2.000000
0.465339 0.035424 0.086447 2.000000
0.465339 0.073486 -0.064872 2.000000
0.465339 -0.080525 -0.021956 2.000000
0.465339 -0.039532 0.006312 2.000000
0.465339 0.065264 -0.070334 2.000000
0.465339 -0.009906 -0.089966 2.000000
0.465339 -0.007689 0.033360 2.000000
0.465339 0.027898 -0.022930 2.000000
0.465339 -0.026802 0.052385 2.000000
0.465339 -0.009769 -0.081858 2.000000
0.465339 0.040654 0.086596 2.000000
0.465339 0.026309 0.061153 2.000000
0.465339 0.036873 -0.048090 2.000000
0.465339 -0.084804 0.052389 2.000000
0.465339 -0.017528 0.047877 2.000000
0.465339 0.036646 -0.060574 2.000000
0.465339 0.068606 -0.019272 2.000000
0.465339 0.049597 0.059040 2.000000
0.465339 0.007532 0.013155 2.000000
-0.466955 -0.033923 0.079388 3.000000
-0.466955 -0.068579 0.022438 3.000000
-0.466955 -0.015810 0.090526 3.000000
-0.466955 0.082893 -0.000997 3.000000
-0.466955 0.070337 0.067339 3.000000
-0.466955 0.008063 -0.022628 3.000000
-0.466955 0.042217 -0.010862 3.000000
-0.466955 0.072095 -0.044514 3.000000
-0.466955 0.008728 0.051461 3.000000
-0.466955 -0.020121 0.058660 3.000000
-0.466955 0.026407 0.067447 3.000000
-0.466955 -0.015497 -0.032630 3.000000
-0.466955 -0.087394 -0.009474 3.000000
-0.466955 -0.045548 0.068147 3.000000
-0.466955 0.024385 0.019442 3.000000
-0.466955 -0.004818 0.071604 3.000000
-0.466955 -0.021176 -0.048100 3.000000
-0.466955 0.025437 -0.085835 3.000000
-0.466955 0.017059 0.009011 3.000000
-0.466955 0.083544 0.039742 3.000000
-0.466955 0.050415 -0.043500 3.000000
-0.466955 -0.002914 -0.091428 3.000000
-0.466955 0.007001 -0.066135 3.000000
-0.466955 0.019590 0.083010 3.000000
-0.466955 -0.093974 -0.005968 3.000000
-0.466955 0.081068 -0.014272 3.000000
-0.466955 0.043114 -0.063231 3.000000
-0.466955 0.065237 -0.069841 3.000000
-0.466955 -0.054761 0.055529 3.000000
-0.466955 -0.026254 -0.052241 3.000000
-0.466955 -0.060544 0.022379 3.000000
-0.466955 -0.041500 0.035854 3.000000
-0.466955 -0.046796 0.052019 3.000000
-0.466955 -0.058189 0.035485 3.000000
-0.466955 -0.065888 -0.072911 3.000000
-0.466955 -0.037126 0.059032 3.000000
-0.466955 -0.045713 -0.014170 3.000000
-0.466955 -0.026164 0.075458 3.000000
-0.466955 -0.091139 -0.002783 3.000000
-0.466955 -0.046094 -0.017909 3.000000
-0.466955 0.058452 -0.064644 3.000000
-0.466955 0.046891 -0.070488 3.000000
-0.466955 0.081057 0.044010 3.000000
-0.466955 -0.032629 0.051814 3.000000
-0.466955 0.035942 0.084589 3.000000
-0.466955 -0.091480 -0.032440 3.000000
-0.466955 -0.014303 0.055696 3.000000
-0.466955 -0.018644 -0.041539 3.000000
-0.466955 0.025972 -0.075451 3.000000
-0.466955 0.000978 -0.090458 3.000000
-0.466955 -0.001988 0.021795 3.000000
-0.466955 -0.060905 0.008361 3.000000
-0.466955 0.050695 -0.072143 3.000000
-0.466955 -0.061971 0.060780 3.000000
-0.466955 -0.086850 -0.033036 3.000000
-0.466955 -0.037036 0.028045 3.000000
-0.466955 -0.051938 -0.007575 3.000000
-0.466955 -0.052327 -0.053410 3.000000
-0.466955 0.016125 0.001034 3.000000
-0.466955 0.040511 0.038154 3.000000
-0.466955 -0.022610 0.085483 3.000000
-0.466955 -0.057515 -0.026330 3.000000
-0.466955 0.000809 -0.088385 3.000000
-0.466955 -0.039043 -0.012320 3.000000
-0.466955 0.025892 -0.049802 3.000000
-0.466955 -0.030844 0.032324 3.000000
-0.466955 -0.045965 0.047955 3.000000
-0.466955 0.003350 0.089569 3.000000
-0.466955 0.027456 -0.052425 3.000000
-0.466955 -0.006851 0.019776 3.000000
-0.466955 -0.017884 -0.035276 3.000000
-0.466955 -0.064943 0.060081 3.000000
-0.466955 -0.001202 -0.099127 3.000000
-0.466955 0.011531 0.089428 3.000000
-0.466955 0.078522 0.038374 3.000000
-0.466955 -0.046994 0.069647 3.000000
-0.466955 -0.050534 -0.070270 3.000000
-0.466955 0.036780 0.043378 3.000000
-0.466955 0.056777 -0.037640 3.000000
-0.466955 0.051252 -0.031982 3.000000
-0.466955 -0.029761 0.004029 3.000000
-0.466955 -0.050296 -0.028999 3.000000
-0.466955 -0.056445 0.050102 3.000000
-0.466955 0.071845 -0.047887 3.000000
-0.466955 0.007954 0.000886 3.000000
-0.466955 0.076777 -0.011211 3.000000
-0.466955 -0.077368 -0.035955 3.000000
-0.466955 0.058306 0.071012 3.000000
-0.466955 0.092586 -0.026874 3.000000
-0.466955 -0.008116 -0.043149 3.000000
-0.466955 0.050272 -0.051112 3.000000
-0.466955 0.048745 0.018331 3.000000
-0.466955 -0.028625 0.028013 3.000000
-0.466955 -0.085945 -0.026501 3.000000
-0.466955 0.043546 0.021002 3.000000
-0.466955 0.093878 0.026052 3.000000
-0.466955 0.040021 0.086010 3.000000
-0.466955 0.044431 -0.078472 3.000000
-0.466955 0.071627 -0.003803 3.000000
-0.466955 0.034588 -0.037224 3.000000
-0.466955 -0.076621 0.001842 3.000000
-0.466955 0.082131 0.037014 3.000000
-0.466955 0.076306 -0.009045 3.000000
-0.466955 -0.059873 -0.002000 3.000000
-0.466955 0.021994 0.080806 3.000000
-0.466955 0.004637 0.008227 3.000000
-0.466955 0.020406 0.057432 3.000000
-0.466955 -0.023817 -0.039202 3.000000
-0.466955 -0.036579 -0.006727 3.000000
-0.466955 -0.004451 0.092336 3.000000
-0.466955 0.087032 0.048106 3.000000
-0.466955 0.087889 -0.011390 3.000000
-0.466955 -0.037088 0.064548 3.000000
-0.466955 -0.008085 -0.009331 3.000000
-0.466955 -0.000938 0.074277 3.000000
-0.466955 0.003068 0.002308 3.000000
-0.466955 -0.013342 0.067236 3.000000
-0.466955 0.049170 0.051436 3.000000
-0.466955 0.011118 0.075847 3.000000
-0.466955 0.089589 0.043181 3.000000
-0.466955 -0.049127 0.083920 3.000000
-0.466955 0.086140 0.026412 3.000000
-0.466955 -0.024775 -0.023722 3.000000
-0.466955 -0.030459 0.059153 3.000000
-0.466955 -0.018186 -0.024884 3.000000
-0.466955 0.032225 0.019870 3.000000
-0.466955 -0.008078 0.054868 3.000000
-0.466955 0.013529 0.021238 3.000000
-0.466955 0.020932 -0.074629 3.000000
-0.466955 -0.048357 -0.056656 3.000000
-0.466955 0.070788 -0.050327 3.000000
-0.466955 -0.067948 -0.019546 3.000000
-0.466955 0.043226 -0.040394 3.000000
-0.466955 -0.061807 -0.051399 3.000000
-0.466955 -0.009802 0.034317 3.000000
-0.466955 -0.066956 0.063010 3.000000
-0.466955 0.002040 0.046347 3.000000
-0.466955 -0.031616 0.087267 3.000000
-0.466955 0.008577 0.057572 3.000000
-0.466955 -0.085249 -0.018028 3.000000
-0.466955 -0.056366 0.048613 3.000000
-0.466955 -0.021426 -0.033041 3.000000
-0.466955 -0.017858 -0.095244 3.000000
-0.466955 -0.038784 -0.057215 3.000000
-0.466955 -0.028817 0.034748 3.000000
-0.466955 -0.041005 0.055395 3.000000
-0.466955 0.029295 -0.083570 3.000000
-0.466955 0.084281 -0.008406 3.000000
-0.466955 -0.037550 -0.087258 3.000000
-0.466955 -0.066673 -0.061650 3.000000
-0.466955 0.073057 -0.067841 3.000000
-0.466955 0.007228 -0.036920 3.000000
-0.466955 -0.035935 0.067108 3.000000
-0.466955 0.072357 0.005328 3.000000
-0.466955 -0.036456 -0.083608 3.000000
-0.466955 0.049541 -0.062671 3.000000
-0.466955 0.060851 0.035159 3.000000
-0.466955 0.064994 0.035053 3.000000
-0.466955 -0.086491 -0.007765 3.000000
-0.466955 -0.003605 0.028770 3.000000
-0.466955 -0.024996 0.072427 3.000000
-0.466955 -0.095109 0.016336 3.000000
-0.466955 -0.084737 -0.023646 3.000000
-0.466955 0.072783 0.028866 3.000000
-0.466955 0.052860 0.062106 3.000000
-0.466955 0.039077 -0.069568 3.000000
-0.466955 0.010374 -0.001620 3.000000
-0.466955 0.068989 -0.048178 3.000000
-0.466955 0.049474 -0.000638 3.000000
-0.466955 0.011698 -0.081600 3.000000
-0.466955 -0.029342 0.082230 3.000000
-0.466955 0.011791 -0.016779 3.000000
-0.466955 0.089426 -0.017262 3.000000
-0.466955 -0.003585 0.044401 3.000000
-0.466955 -0.032139 0.001341 3.000000
-0.466955 -0.013670 -0.069073 3.000000
-0.466955 0.034502 -0.082115 3.000000
-0.466955 0.015722 0.002725 3.000000
-0.466955 0.027756 0.001159 3.000000
-0.466955 0.008979 -0.051749 3.000000
-0.466955 0.024352 0.014640 3.000000
-0.466955 -0.064665 0.067280 3.000000
-0.466955 -0.041947 -0.021999 3.000000
-0.466955 -0.081609 -0.055625 3.000000
-0.466955 0.014860 0.037339 3.000000
-0.466955 0.046558 0.051882 3.000000
-0.466955 0.059418 0.049720 3.000000
-0.466955 -0.051000 0.004945 3.000000
-0.466955 0.011455 0.044553 3.000000
-0.466955 -0.030720 -0.069079 3.000000
-0.466955 -0.021414 0.051590 3.000000
-0.466955 -0.007599 0.013348 3.000000
-0.466955 0.062159 0.075574 3.000000
-0.466955 -0.073914 0.049767 3.000000
-0.466955 0.048951 0.077713 3.000000
-0.466955 -0.057092 0.080584 3.000000
-0.466955 -0.036986 0.092601 3.000000
-0.466955 0.071570 -0.067703 3.000000
-0.466955 -0.033680 0.066862 3.000000
-0.466955 -0.045707 0.014784 3.000000
-0.466955 -0.073278 0.016255 3.000000
-0.466955 -0.025344 0.015006 3.000000
-0.466955 0.077674 0.011051 3.000000
-0.466955 0.022014 0.086312 3.000000
-0.466955 0.053535 -0.064309 3.000000
-0.466955 -0.035593 0.092980 3.000000
-0.466955 0.065240 -0.047011 3.000000
-0.466955 0.011028 0.036498 3.000000
-0.466955 -0.035135 0.011426 3.000000
-0.466955 0.040265 0.030509 3.000000
-0.466955 0.076142 -0.045724 3.000000
-0.466955 0.098863 -0.010703 3.000000
-0.466955 0.032555 0.063721 3.000000
-0.466955 0.022819 0.050283 3.000000
-0.466955 0.015464 0.063190 3.000000
-0.466955 -0.078349 0.029379 3.000000
-0.466955 -0.001813 0.064652 3.000000
-0.466955 -0.047608 0.074668 3.000000
-0.466955 0.074974 -0.025534 3.000000
-0.466955 -0.020348 0.006228 3.000000
-0.466955 0.033214 -0.063298 3.000000
-0.466955 -0.013094 -0.029839 3.000000
-0.466955 0.002983 -0.060502 3.000000
-0.466955 -0.052774 -0.064097 3.000000
-0.466955 -0.066838 0.022153 3.000000
-0.466955 0.073511 0.033508 3.000000
-0.466955 -0.030766 0.015884 3.000000
-0.466955 -0.048334 -0.075262 3.000000
-0.466955 -0.016497 -0.067210 3.000000
-0.466955 0.083543 0.012482 3.000000
-0.466955 0.089354 -0.038664 3.000000
-0.466955 0.016338 0.020150 3.000000
-0.466955 0.017396 -0.040866 3.000000
-0.466955 -0.014433 0.051993 3.000000
-0.466955 0.037715 0.048885 3.000000
-0.466955 -0.058692 0.059844 3.000000
-0.466955 0.059152 -0.024412 3.000000
-0.466955 0.040223 -0.073700 3.000000
-0.466955 -0.018016 0.069266 3.000000
-0.466955 -0.069643 0.012504 3.000000
-0.466955 0.024135 0.031852 3.000000
-0.466955 0.020923 0.035738 3.000000
-0.466955 0.062284 -0.066615 3.000000
-0.466955 0.052349 -0.062693 3.000000
-0.466955 -0.007203 0.041442 3.000000
-0.466955 0.020603 -0.009572 3.000000
-0.466955 0.020449 0.053024 3.000000
-0.466955 0.004342 -0.062695 3.000000
-0.466955 -0.043475 0.077608 3.000000
-0.466955 0.015307 0.083556 3.000000
-0.466955 0.021478 -0.092154 3.000000
-0.466955 -0.014320 -0.079573 3.000000
-0.466955 -0.022072 0.066508 3.000000
-0.466955 -0.058242 0.015271 3.000000
-0.466955 -0.057773 0.006165 3.000000
-0.466955 0.018174 -0.004948 3.000000
-0.466955 0.010897 -0.089561 3.000000
-0.466955 0.011302 -0.047627 3.000000
-0.466955 0.018703 0.017608 3.000000
-0.466955 -0.033609 0.028121 3.000000
-0.466955 -0.076051 -0.025409 3.000000
-0.466955 -0.011681 0.037059 3.000000
-0.466955 -0.053120 -0.075165 3.000000
-0.466955 0.022693 -0.060688 3.000000
-0.466955 0.034616 0.053421 3.000000
-0.466955 0.011187 0.052307 3.000000
-0.466955 -0.014443 0.010676 3.000000
-0.466955 0.025870 0.063108 3.000000
-0.466955 -0.043220 0.065160 3.000000
-0.466955 -0.022117 0.016761 3.000000
-0.466955 0.033052 0.006528 3.000000
-0.466955 -0.058103 0.065065 3.000000
-0.466955 0.009246 -0.099086 3.000000
-0.466955 0.018956 0.062096 3.000000
-0.466955 0.064120 0.003125 3.000000
-0.466955 0.013010 0.061256 3.000000
-0.466955 -0.086310 -0.039688 3.000000
-0.466955 -0.000660 -0.000204 3.000000
-0.466955 0.008705 -0.065397 3.000000
-0.466955 0.083777 -0.016688 3.000000
-0.466955 0.054058 0.048932 3.000000
-0.466955 0.054259 0.025502 3.000000
-0.466955 -0.047350 0.031859 3.000000
-0.466955 -0.014556 -0.028067 3.000000
-0.466955 -0.063560 -0.050893 3.000000
-0.466955 -0.062945 -0.031114 3.000000
-0.466955 0.000947 -0.051653 3.000000
-0.466955 0.011517 0.028993 3.000000
-0.466955 0.060833 0.076759 3.000000
-0.466955 -0.063933 0.032685 3.000000
-0.466955 -0.063558 0.061205 3.000000
-0.466955 -0.051582 -0.025205 3.000000
-0.466955 0.018842 0.057536 3.000000
-0.466955 -0.029733 -0.062921 3.000000
-0.466955 -0.046939 -0.087845 3.000000
-0.466955 0.010054 -0.034188 3.000000
-0.466955 0.009654 -0.057560 3.000000
-0.466955 0.049928 0.055003 3.000000
-0.466955 -0.013018 -0.040966 3.000000
-0.466955 0.016384 -0.075914 3.000000
-0.466955 -0.020378 -0.000018 3.000000
-0.466955 -0.017777 -0.061685 3.000000
-0.466955 0.094429 0.027601 3.000000
-0.466955 0.039284 0.065404 3.000000
-0.466955 -0.050542 0.052105 3.000000
-0.466955 0.041424 0.024835 3.000000
-0.466955 0.012206 0.031083 3.000000
-0.466955 0.002914 -0.055564 3.000000
-0.466955 0.063766 0.011380 3.000000
-0.466955 0.008365 0.049882 3.000000
-0.466955 0.047034 -0.081788 3.000000
-0.466955 -0.057414 0.010770 3.000000
-0.466955 0.019138 0.084384 3.000000
-0.466955 0.042111 -0.080885 3.000000
-0.466955 -0.065717 -0.064706 3.000000
-0.466955 -0.000834 0.015697 3.000000
-0.466955 -0.004600 0.087290 3.000000
-0.466955 0.058526 -0.031711 3.000000
-0.466955 0.067880 -0.037355 3.000000
-0.466955 0.057057 0.036702 3.000000
-0.466955 -0.049638 0.049304 3.000000
-0.466955 -0.012863 -0.011680 3.000000
-0.466955 -0.068421 -0.071084 3.000000
-0.466955 0.075461 0.053825 3.000000
-0.466955 -0.010093 0.021397 3.000000
-0.466955 0.013914 0.082677 3.000000
-0.466955 0.069952 0.034164 3.000000
-0.466955 0.049127 -0.066640 3.000000
-0.466955 -0.052450 0.060376 3.000000
-0.466955 -0.054224 -0.054065 3.000000
-0.466955 0.071480 0.008265 3.000000
-0.466955 -0.010466 -0.079236 3.000000
-0.466955 -0.039243 0.037456 3.000000
-0.466955 -0.062425 0.032631 3.000000
-0.466955 -0.078374 -0.004793 3.000000
-0.466955 -0.065769 0.050704 3.000000
-0.466955 0.063486 0.020245 3.000000
-0.466955 0.059289 0.023025 3.000000
-0.466955 -0.096694 0.024684 3.000000
-0.466955 0.061180 -0.007863 3.000000
-0.466955 0.047130 -0.023063 3.000000
-0.466955 -0.033303 0.081064 3.000000
-0.466955 0.044404 0.088431 3.000000
-0.466955 -0.016120 0.024644 3.000000
-0.466955 0.020686 0.070526 3.000000
-0.466955 -0.038132 -0.062416 3.000000
-0.466955 -0.070450 0.011312 3.000000
-0.466955 0.041856 0.069693 3.000000
-0.466955 -0.088921 -0.003478 3.000000
-0.466955 0.074827 0.041141 3.000000
-0.466955 0.033371 0.083703 3.000000
-0.466955 0.050892 -0.026909 3.000000
-0.466955 -0.019048 -0.096136 3.000000
-0.466955 0.096454 -0.015086 3.000000
-0.466955 0.065527 -0.022596 3.000000
-0.466955 -0.031880 0.014382 3.000000
-0.466955 0.045265 0.033490 3.000000
-0.466955 -0.011951 -0.088249 3.000000
-0.466955 -0.052316 -0.046009 3.000000
-0.466955 -0.037049 0.055559 3.000000
-0.466955 0.061188 -0.067843 3.000000
-0.466955 -0.068783 -0.012637 3.000000
-0.466955 -0.072273 0.017593 3.000000
-0.466955 -0.030515 0.002468 3.000000
-0.466955 0.043102 0.074398 3.000000
-0.466955 0.060888 -0.017468 3.000000
-0.466955 0.080254 0.042733 3.000000
-0.466955 -0.091687 -0.039001 3.000000
-0.466955 -0.060652 0.073808 3.000000
-0.466955 0.072084 -0.038109 3.000000
-0.466955 0.075296 -0.056272 3.000000
-0.466955 0.089747 -0.023179 3.000000
-0.466955 0.044905 -0.083136 3.000000
-0.466955 0.086019 0.016532 3.000000
-0.466955 0.004215 0.005496 3.000000
-0.466955 0.045797 -0.049069 3.000000
-0.466955 -0.010472 -0.054667 3.000000
-0.466955 0.023927 -0.064569 3.000000
-0.466955 0.050963 0.018625 3.000000
-0.466955 0.057758 -0.021869 3.000000
-0.466955 -0.031047 0.064052 3.000000
-0.466955 -0.089553 0.033253 3.000000
-0.466955 -0.074998 -0.030544 3.000000
-0.466955 -0.053130 -0.079160 3.000000
-0.466955 0.051507 -0.082806 3.000000
-0.466955 0.004877 0.068456 3.000000
-0.466955 0.061884 0.046688 3.000000
-0.466955 -0.015381 -0.083324 3.000000
-0.466955 -0.076720 -0.008291 3.000000
-0.466955 -0.066794 0.061263 3.000000
-0.466955 0.061433 -0.047793 3.000000
-0.466955 -0.086666 -0.015222 3.000000
-0.466955 -0.016420 -0.020590 3.000000
-0.466955 -0.036915 0.053030 3.000000
-0.466955 -0.009557 -0.082443 3.000000
-0.466955 0.026232 0.065588 3.000000
-0.466955 0.096874 0.024635 3.000000
-0.466955 -0.073582 0.019000 3.000000
-0.466955 0.050599 0.048542 3.000000
-0.466955 0.031761 0.028586 3.000000
-0.466955 -0.019051 -0.037805 3.000000
-0.466955 -0.021583 0.020372 3.000000
-0.466955 0.085733 -0.008172 3.000000
-0.466955 0.067243 -0.056027 3.000000
-0.466955 0.065616 -0.030146 3.000000
-0.466955 0.075466 -0.028364 3.000000
-0.466955 0.008934 0.048450 3.000000
-0.466955 -0.052155 0.063692 3.000000
-0.466955 -0.035730 -0.047013 3.000000
-0.466955 -0.018632 0.087427 3.000000
-0.466955 0.013688 0.001907 3.000000
-0.466955 -0.042170 0.031514 3.000000
-0.466955 -0.026465 -0.014019 3.000000
-0.466955 0.090041 0.030506 3.000000
-0.466955 0.009535 0.043291 3.000000
-0.466955 0.005044 -0.001551 3.000000
-0.466955 0.068445 -0.064352 3.000000
-0.466955 0.046816 0.065716 3.000000
-0.466955 0.046552 -0.083457 3.000000
-0.466955 0.051948 -0.005297 3.000000
-0.466955 -0.088716 0.004181 3.000000
-0.466955 -0.006744 0.074588 3.000000
-0.466955 0.043028 0.054537 3.000000
-0.466955 -0.027827 -0.032058 3.000000
-0.466955 0.034361 0.036946 3.000000
-0.466955 0.014727 0.048599 3.000000
-0.466955 0.028058 -0.046357 3.000000
-0.466955 -0.036823 -0.038074 3.000000
-0.466955 -0.069231 0.047480 3.000000
-0.466955 0.042807 -0.002068 3.000000
-0.466955 -0.013352 0.008935 3.000000
-0.466955 0.062398 -0.050747 3.000000
-0.466955 0.090430 0.004061 3.000000
-0.466955 -0.005484 -0.025231 3.000000
-0.466955 0.002242 -0.000137 3.000000
-0.466955 -0.086984 0.046647 3.000000
-0.466955 -0.017834 0.040706 3.000000
-0.466955 -0.030077 -0.022250 3.000000
-0.466955 0.081607 0.007696 3.000000
-0.466955 -0.091977 0.015558 3.000000
-0.466955 -0.013207 0.034693 3.000000
-0.466955 0.046848 0.006392 3.000000
-0.466955 -0.016888 -0.006629 3.000000
-0.466955 0.088988 -0.026766 3.000000
-0.466955 -0.057237 0.072589 3.000000
-0.466955 -0.033689 -0.011514 3.000000
-0.466955 -0.049243 -0.073675 3.000000
-0.466955 -0.059170 -0.024466 3.000000
-0.466955 0.042287 0.045105 3.000000
-0.466955 -0.083696 0.017453 3.000000
-0.466955 -0.002099 0.093653 3.000000
-0.466955 -0.032939 0.004421 3.000000
-0.466955 -0.097942 -0.018708 3.000000
-0.466955 -0.016548 0.084781 3.000000
-0.466955 0.023140 -0.005710 3.000000
-0.466955 0.038700 0.081105 3.000000
-0.466955 -0.002977 0.017106 3.000000
-0.466955 -0.004980 0.010758 3.000000
-0.466955 -0.086169 0.004225 3.000000
-0.466955 0.061444 -0.021553 3.000000
-0.466955 -0.008770 0.036872 3.000000
-0.466955 0.080944 -0.001060 3.000000
-0.466955 0.040337 -0.036987 3.000000
-0.466955 0.002953 0.094929 3.000000
-0.466955 -0.056628 -0.061947 3.000000
-0.466955 0.051858 0.024787 3.000000
-0.466955 -0.037474 0.078115 3.000000
-0.466955 0.004686 -0.064568 3.000000
-0.466955 0.012977 0.041807 3.000000
-0.466955 -0.029665 0.024132 3.000000
-0.466955 0.035598 -0.028130 3.000000
-0.466955 0.007668 -0.091598 3.000000
-0.466955 0.014790 0.086678 3.000000
-0.466955 -0.046412 -0.046846 3.000000
-0.466955 0.087396 0.040888 3.000000
-0.466955 0.041731 0.090746 3.000000
-0.466955 0.029613 0.075530 3.000000
-0.466955 0.021717 -0.020948 3.000000
-0.466955 -0.016128 0.049390 3.000000
-0.466955 0.065308 0.073336 3.000000
-0.466955 -0.004191 0.095261 3.000000
-0.466955 0.053371 0.027968 3.000000
-0.466955 -0.065199 -0.022134 3.000000
-0.466955 -0.014961 0.001674 3.000000
-0.466955 -0.066491 0.010589 3.000000
-0.466955 -0.057381 0.059218 3.000000
-0.466955 0.019367 0.046409 3.000000
-0.466955 0.008283 0.011643 3.000000
-0.466955 0.016182 -0.053180 3.000000
-0.466955 0.025010 0.066784 3.000000
-0.466955 -0.095123 -0.023445 3.000000
-0.466955 0.094269 -0.019442 3.000000
-0.466955 0.026058 0.049504 3.000000
-0.466955 0.042324 -0.038829 3.000000
-0.466955 0.098059 -0.002062 3.000000
-0.466955 -0.010816 0.063279 3.000000
-0.466955 -0.061777 0.009471 3.000000
-0.466955 -0.061598 0.035321 3.000000
-0.466955 -0.081078 0.048241 3.000000
-0.466955 0.064302 0.029728 3.000000
-0.466955 0.010008 0.071690 3.000000
-0.466955 0.031341 -0.048472 3.000000
-0.466955 -0.021283 -0.028597 3.000000
-0.466955 0.053492 0.032412 3.000000
-0.466955 0.040823 -0.038633 3.000000
-0.466955 0.039188 0.037666 3.000000
-0.466955 0.023527 -0.072886 3.000000
-0.466955 -0.023825 0.074799 3.000000
-0.466955 -0.029005 -0.090881 3.000000
-0.466955 -0.034941 0.027362 3.000000
-0.466955 0.009782 -0.010361 3.000000
-0.466955 -0.027237 -0.002016 3.000000
-0.466955 -0.076959 -0.030454 3.000000
-0.466955 0.015312 -0.073085 3.000000
-0.466955 -0.068155 -0.043801 3.000000
-0.466955 -0.088149 0.024849 3.000000
-0.466955 -0.086112 0.014282 3.000000
-0.466955 0.036205 0.017376 3.000000
-0.466955 -0.045813 -0.039828 3.000000
-0.466955 -0.070142 -0.021768 3.000000
-0.466955 -0.035897 0.077178 3.000000
-0.466955 0.002014 -0.087368 3.000000
-0.466955 0.008325 0.054595 3.000000
-0.466955 -0.077979 0.044496 3.000000
-0.466955 0.030726 -0.032868 3.000000
-0.466955 -0.001425 0.012727 3.000000
-0.466955 -0.027917 0.063963 3.000000
-0.466955 0.062084 -0.024490 3.000000
-0.466955 -0.046143 0.042747 3.000000
-0.466955 0.063869 0.063674 3.000000
-0.466955 -0.063007 -0.000666 3.000000
-0.466955 0.046668 -0.026829 3.000000
-0.466955 -0.042826 0.075181 3.000000
-0.466955 -0.015095 -0.026344 3.000000
-0.466955 0.047666 0.007546 3.000000
-0.466955 -0.018953 0.005313 3.000000
-0.466955 -0.011909 0.081668 3.000000
-0.466955 0.021934 0.057744 3.000000
-0.466955 0.000147 0.075179 3.000000
-0.466955 -0.001792 -0.083021 3.000000
-0.466955 0.058042 -0.027959 3.000000
-0.466955 0.009931 -0.019022 3.000000
-0.466955 -0.013164 -0.000332 3.000000
-0.466955 -0.035369 -0.050875 3.000000
-0.466955 0.083147 0.052397 3.000000
-0.466955 0.028325 0.012544 3.000000
-0.466955 0.029604 0.014072 3.000000
-0.466955 0.020266 -0.005287 3.000000
-0.466955 -0.042206 -0.049629 3.000000
-0.466955 0.047670 0.013299 3.000000
-0.466955 0.055540 -0.028390 3.000000
-0.466955 0.001388 -0.037030 3.000000
-0.466955 -0.021561 0.037453 3.000000
-0.466955 -0.054490 -0.031906 3.000000
-0.466955 -0.072827 0.020538 3.000000
-0.466955 0.004032 0.099246 3.000000
-0.466955 0.050143 -0.044978 3.000000
-0.466955 -0.042533 -0.031870 3.000000
-0.466955 -0.005697 0.020926 3.000000
-0.466955 0.064774 -0.005916 3.000000
-0.466955 0.053007 -0.039838 3.000000
-0.466955 -0.000916 -0.071563 3.000000
-0.466955 0.061524 -0.041312 3.000000
-0.466955 0.035017 -0.016884 3.000000
-0.466955 -0.004685 0.027497 3.000000
-0.466955 0.017679 -0.089660 3.000000
-0.466955 0.065489 0.051074 3.000000
-0.466955 0.074232 -0.066506 3.000000
-0.466955 -0.070918 -0.033361 3.000000
-0.466955 0.007241 0.052040 3.000000
-0.466955 -0.060296 0.038211 3.000000
-0.466955 -0.087737 0.007067 3.000000
-0.466955 -0.050644 -0.057668 3.000000
-0.466955 -0.027541 0.037672 3.000000
-0.466955 0.004695 0.090344 3.000000
-0.466955 0.038595 -0.066027 3.000000
-0.466955 0.052062 -0.038565 3.000000
-0.466955 -0.054937 -0.081387 3.000000
-0.466955 0.032078 -0.081535 3.000000
-0.466955 -0.036076 -0.085985 3.000000
-0.466955 -0.075405 -0.018519 3.000000
-0.466955 0.031616 -0.071090 3.000000
-0.466955 -0.082442 -0.000917 3.000000
-0.466955 0.039151 -0.058148 3.000000
-0.466955 -0.054394 -0.068076 3.000000
-0.466955 0.036886 -0.053355 3.000000
-0.466955 -0.027530 0.021428 3.000000
-0.466955 -0.079452 0.030390 3.000000
-0.466955 0.008324 0.088004 3.000000
-0.466955 -0.040903 0.010176 3.000000
-0.466955 0.001216 0.002957 3.000000
-0.466955 -0.030634 0.091503 3.000000
-0.466955 -0.044464 0.046883 3.000000
-0.466955 -0.048811 0.013704 3.000000
-0.466955 -0.038390 -0.027412 3.000000
-0.466955 0.046057 0.003707 3.000000
-0.466955 0.036740 -0.000844 3.000000
-0.466955 -0.043251 0.085930 3.000000
-0.466955 -0.051340 0.055229 3.000000
-0.466955 0.008314 0.076132 3.000000
-0.466955 -0.023247 -0.031472 3.000000
-0.466955 -0.087021 -0.002670 3.000000
-0.466955 -0.048072 -0.061353 3.000000
-0.466955 0.043233 -0.012049 3.000000
-0.466955 0.057808 0.064709 3.000000
-0.466955 -0.032075 0.054924 3.000000
-0.466955 0.048634 -0.042363 3.000000
-0.466955 -0.000270 0.019149 3.000000
-0.466955 0.002409 -0.009382 3.000000
-0.466955 -0.012546 0.053174 3.000000
-0.466955 0.019054 0.002524 3.000000
-0.466955 0.028707 0.036425 3.000000
-0.466955 -0.023340 0.013510 3.000000
-0.466955 -0.029076 -0.084089 3.000000
-0.466955 0.029737 0.051425 3.000000
-0.466955 0.009607 0.082266 3.000000
-0.466955 0.029417 0.033268 3.000000
-0.466955 0.040241 -0.052027 3.000000
-0.466955 -0.043235 -0.086430 3.000000
-0.466955 -0.024791 -0.090633 3.000000
-0.466955 0.001650 -0.092521 3.000000
-0.466955 -0.050750 -0.080193 3.000000
-0.466955 -0.071924 -0.025561 3.000000
-0.466955 -0.032374 0.006893 3.000000
-0.466955 -0.082056 -0.052095 3.000000
-0.466955 -0.028974 -0.074131 3.000000
-0.466955 0.051427 -0.018039 3.000000
-0.466955 -0.029152 -0.045343 3.000000
-0.466955 -0.058455 -0.073144 3.000000
-0.466955 -0.035424 -0.004162 3.000000
-0.466955 -0.019441 -0.010907 3.000000
-0.466955 -0.067034 0.002215 3.000000
-0.466955 0.045778 0.082581 3.000000
-0.466955 -0.053948 0.020118 3.000000
-0.466955 -0.045653 -0.070477 3.000000
-0.466955 -0.072681 -0.055724 3.000000
-0.466955 0.041282 0.075747 3.000000
-0.466955 0.062966 -0.060535 3.000000
-0.466955 -0.032020 0.068032 3.000000
-0.466955 -0.061419 -0.046520 3.000000
-0.466955 0.073689 0.067449 3.000000
-0.466955 0.040656 -0.055381 3.000000
-0.466955 -0.023238 0.060677 3.000000
-0.466955 -0.071604 -0.013874 3.000000
-0.466955 -0.002717 -0.062734 3.000000
-0.466955 -0.058365 0.004619 3.000000
-0.466955 -0.075976 -0.029018 3.000000
-0.466955 -0.024928 0.031489 3.000000
-0.466955 0.045206 -0.042572 3.000000
-0.466955 0.071272 0.063408 3.000000
-0.466955 -0.026201 0.029544 3.000000
-0.466955 -0.043844 -0.065329 3.000000
-0.466955 0.031265 -0.043170 3.000000
-0.466955 -0.060487 -0.038326 3.000000
-0.466955 -0.019682 -0.061615 3.000000
-0.466955 0.020547 0.065074 3.000000
-0.466955 0.039021 -0.081891 3.000000
-0.466955 0.078189 0.008198 3.000000
-0.466955 0.041764 0.033116 3.000000
-0.466955 -0.056725 -0.069313 3.000000
-0.466955 0.055276 -0.070855 3.000000
-0.466955 0.005432 -0.084394 3.000000
-0.466955 0.021276 0.018319 3.000000
-0.466955 0.044772 -0.023704 3.000000
-0.466955 -0.072381 0.022681 3.000000
-0.466955 -0.024790 -0.076181 3.000000
-0.466955 0.014125 0.035721 3.000000
-0.466955 0.069668 -0.025547 3.000000
-0.466955 0.055979 0.052214 3.000000
-0.466955 0.061483 -0.037855 3.000000
-0.466955 -0.074648 0.030996 3.000000
-0.466955 0.075290 0.049466 3.000000
-0.466955 0.054843 0.023833 3.000000
-0.466955 0.050181 0.029264 3.000000
-0.466955 0.045961 -0.013670 3.000000
-0.466955 -0.035768 0.089273 3.000000
-0.466955 -0.012164 -0.025502 3.000000
-0.466955 0.005656 -0.050888 3.000000
-0.466955 0.042992 -0.006091 3.000000
-0.466955 0.055447 -0.036570 3.000000
-0.466955 -0.080873 -0.027816 3.000000
-0.466955 0.043196 -0.031487 3.000000
-0.466955 0.054941 0.070600 3.000000
-0.466955 -0.020684 -0.068932 3.000000
-0.466955 0.048020 0.030963 3.000000
-0.466955 -0.042611 -0.038108 3.000000
-0.466955 -0.035065 0.069224 3.000000
-0.466955 0.013955 0.066001 3.000000
-0.466955 0.029613 -0.005152 3.000000
-0.466955 -0.012074 0.004544 3.000000
-0.466955 0.035432 0.080995 3.000000
-0.466955 0.004356 0.029480 3.000000
-0.466955 0.086855 0.021402 3.000000
-0.466955 0.066397 0.038863 3.000000
-0.466955 -0.014530 0.050340 3.000000
-0.466955 0.024747 -0.029272 3.000000
-0.466955 0.027090 0.021318 3.000000
-0.466955 -0.016863 -0.079723 3.000000
-0.466955 -0.051777 0.030100 3.000000
-0.466955 -0.004860 -0.044459 3.000000
-0.466955 -0.055872 0.046925 3.000000
-0.466955 0.024577 0.072888 3.000000
-0.466955 -0.005333 -0.095785 3.000000
-0.466955 0.080239 -0.039226 3.000000
-0.466955 -0.069994 -0.036357 3.000000
-0.466955 0.074937 0.016414 3.000000
-0.466955 0.046847 0.005035 3.000000
-0.466955 -0.032461 -0.092252 3.000000
-0.466955 -0.045583 0.061047 3.000000
-0.466955 0.006234 0.053326 3.000000
-0.466955 0.048066 -0.040969 3.000000
-0.466955 -0.041950 -0.075442 3.000000
-0.466955 0.042828 -0.041756 3.000000
-0.466955 -0.067672 -0.001187 3.000000
-0.466955 0.054921 0.054719 3.000000
-0.466955 -0.023678 0.035636 3.000000
-0.466955 0.096525 -0.001349 3.000000
-0.466955 0.091789 -0.001909 3.000000
-0.466955 -0.078844 0.019124 3.000000
-0.466955 -0.041068 0.003430 3.000000
-0.466955 0.028744 -0.006673 3.000000
-0.466955 0.031062 -0.024810 3.000000
-0.466955 -0.008479 0.079779 3.000000
-0.466955 -0.025288 0.078004 3.000000
-0.466955 0.027313 -0.049463 3.000000
-0.466955 0.022560 -0.074479 3.000000
-0.466955 0.025338 0.030844 3.000000
-0.466955 0.034226 -0.049587 3.000000
-0.466955 -0.079415 0.025843 3.000000
-0.466955 -0.014159 -0.073469 3.000000
-0.466955 -0.053327 -0.049380 3.000000
-0.466955 -0.033458 -0.059921 3.000000
-0.466955 0.007878 0.036505 3.000000
-0.466955 -0.085527 0.038615 3.000000
-0.466955 -0.001256 0.065942 3.000000
-0.466955 0.026370 0.012966 3.000000
-0.466955 0.030544 0.080410 3.000000
-0.466955 -0.044827 -0.084365 3.000000
-0.466955 0.048051 0.066749 3.000000
-0.466955 -0.014323 -0.093688 3.000000
-0.466955 -0.004641 0.057909 3.000000
-0.466955 -0.049539 -0.050312 3.000000
-0.466955 0.024937 0.056520 3.000000
-0.466955 -0.034617 0.042005 3.000000
-0.466955 0.008802 0.098504 3.000000
-0.466955 0.017524 -0.013421 3.000000
-0.466955 -0.051887 -0.065543 3.000000
-0.466955 0.070724 -0.037980 3.000000
-0.466955 -0.056847 -0.079801 3.000000
-0.466955 -0.004140 -0.023300 3.000000
-0.466955 -0.003515 -0.041963 3.000000
-0.466955 0.023187 0.044367 3.000000
-0.466955 -0.080670 0.002632 3.000000
-0.466955 0.023972 -0.067624 3.000000
-0.466955 0.083316 -0.052532 3.000000
-0.466955 0.063153 -0.016867 3.000000
-0.466955 -0.005816 0.092351 3.000000
-0.466955 0.045691 0.057735 3.000000
-0.466955 0.032440 0.034207 3.000000
-0.466955 0.014921 0.023961 3.000000
-0.466955 0.051800 0.085515 3.000000
-0.466955 -0.097757 -0.001094 3.000000
-0.466955 0.025734 -0.045121 3.000000
-0.466955 -0.027372 0.049460 3.000000
-0.466955 0.040985 0.039803 3.000000
-0.466955 -0.042883 0.003999 3.000000
-0.466955 -0.044138 0.057935 3.000000
-0.466955 0.028469 0.038205 3.000000
-0.466955 -0.034527 0.020261 3.000000
-0.466955 0.031009 0.044688 3.000000
-0.466955 -0.026781 0.024761 3.000000
-0.466955 -0.007948 0.073511 3.000000
-0.466955 -0.017838 -0.028112 3.000000
-0.466955 0.001019 -0.033510 3.000000
-0.466955 0.003215 0.003951 3.000000
-0.466955 0.035877 -0.046634 3.000000
-0.466955 -0.055019 -0.012950 3.000000
-0.466955 -0.069949 -0.066971 3.000000
-0.466955 -0.009693 -0.013471 3.000000
-0.466955 0.072482 -0.061163 3.000000
-0.466955 0.005026 -0.078140 3.000000
-0.466955 0.014828 -0.060320 3.000000
-0.466955 0.019378 0.096617 3.000000
-0.466955 0.069431 0.057258 3.000000
-0.466955 0.027753 -0.072015 3.000000
-0.466955 -0.055616 -0.070339 3.000000
-0.466955 0.016240 -0.026412 3.000000
-0.466955 -0.008361 0.057740 3.000000
-0.466955 0.048906 0.085728 3.000000
-0.466955 0.022212 -0.071570 3.000000
-0.466955 -0.069164 0.043542 3.000000
-0.466955 0.062682 0.030787 3.000000
-0.466955 -0.011719 0.095109 3.000000
-0.466955 -0.055901 0.015049 3.000000
-0.466955 -0.094529 0.029106 3.000000
-0.466955 0.019174 0.012706 3.000000
-0.466955 -0.005442 0.093869 3.000000
-0.466955 0.017546 -0.036724 3.000000
-0.466955 -0.076041 0.014624 3.000000
-0.466955 -0.083463 -0.053126 3.000000
-0.466955 0.027533 -0.078111 3.000000
-0.466955 0.048966 -0.002291 3.000000
-0.466955 0.002029 0.078511 3.000000
-0.466955 0.026990 -0.009567 3.000000
-0.466955 0.027536 -0.011783 3.000000
-0.466955 0.023772 -0.061516 3.000000
-0.466955 -0.084713 -0.007344 3.000000
-0.466955 0.075326 -0.058321 3.000000
-0.466955 -0.078760 -0.022055 3.000000
-0.466955 0.024972 0.026956 3.000000
-0.466955 -0.033670 0.003110 3.000000
-0.466955 0.050140 0.053544 3.000000
-0.466955 -0.016506 0.096938 3.000000
-0.466955 -0.037643 -0.016549 3.000000
-0.466955 0.056929 0.057611 3.000000
-0.466955 0.092369 0.011595 3.000000
-0.466955 0.001721 -0.057428 3.000000
-0.466955 0.024972 -0.082941 3.000000
-0.466955 -0.026786 -0.037894 3.000000
-0.466955 0.053223 -0.041465 3.000000
-0.466955 0.015905 -0.084334 3.000000
-0.466955 -0.040997 0.052226 3.000000
-0.466955 0.038922 -0.026277 3.000000
-0.466955 0.029613 -0.038246 3.000000
-0.466955 0.035986 -0.057066 3.000000
-0.466955 -0.056725 0.032754 3.000000
-0.466955 0.075778 -0.049040 3.000000
-0.466955 0.019751 -0.072968 3.000000
-0.466955 0.038529 0.091429 3.000000
-0.466955 0.022732 -0.059056 3.000000
-0.466955 -0.087612 0.003256 3.000000
-0.466955 0.031185 -0.003513 3.000000
-0.466955 0.022152 0.052216 3.000000
-0.466955 -0.017423 0.029337 3.000000
-0.466955 0.048311 0.040008 3.000000
-0.466955 -0.091894 0.017160 3.000000
-0.466955 -0.082540 0.025207 3.000000
-0.466955 0.036759 -0.021503 3.000000
-0.466955 0.035511 0.062229 3.000000
-0.466955 -0.014916 0.089282 3.000000
-0.466955 0.067117 -0.073717 3.000000
-0.466955 0.077239 -0.038273 3.000000
-0.466955 0.057983 0.030083 3.000000
-0.466955 -0.063849 -0.068218 3.000000
-0.466955 -0.066018 -0.007837 3.000000
-0.466955 0.003529 -0.004815 3.000000
-0.466955 -0.042196 0.046491 3.000000
-0.466955 -0.027519 0.087134 3.000000
-0.466955 -0.047656 0.061851 3.000000
-0.466955 0.057168 -0.056247 3.000000
-0.466955 0.075040 -0.061503 3.000000
-0.466955 0.059894 -0.075894 3.000000
-0.466955 -0.001075 -0.079441 3.000000
-0.466955 -0.017886 0.058380 3.000000
-0.466955 0.042063 -0.026705 3.000000
-0.466955 -0.055027 0.033237 3.000000
-0.466955 0.070991 -0.034268 3.000000
-0.466955 -0.005380 0.048354 3.000000
-0.466955 -0.065551 -0.049653 3.000000
-0.466955 -0.048166 -0.007914 3.000000
-0.466955 0.011939 -0.018447 3.000000
-0.466955 -0.039651 -0.075064 3.000000
-0.466955 -0.071600 -0.046306 3.000000
-0.466955 -0.023516 0.033794 3.000000
-0.466955 -0.046495 -0.011408 3.000000
-0.466955 0.046511 -0.017236 3.000000
-0.466955 -0.087037 0.001002 3.000000
-0.466955 -0.048829 0.027488 3.000000
-0.466955 -0.020962 -0.012063 3.000000
-0.466955 -0.043335 -0.046252 3.000000
-0.466955 -0.008659 -0.018591 3.000000
-0.466955 -0.011086 0.042142 3.000000
-0.466955 0.012417 0.068932 3.000000
-0.466955 0.093871 0.022682 3.000000
-0.466955 -0.012686 0.057837 3.000000
-0.466955 0.092096 0.025616 3.000000
-0.466955 -0.014589 0.007906 3.000000
-0.466955 0.067068 -0.027182 3.000000
-0.466955 -0.070500 -0.024601 3.000000
-0.466955 -0.029079 0.062712 3.000000
-0.466955 -0.052898 -0.067419 3.000000
-0.466955 -0.082962 -0.009569 3.000000
-0.466955 -0.065579 0.033110 3.000000
-0.466955 -0.080680 0.031394 3.000000
-0.466955 0.016863 0.073208 3.000000
-0.466955 -0.014497 -0.061977 3.000000
-0.466955 0.030307 -0.046926 3.000000
-0.466955 0.060050 -0.077333 3.000000
-0.466955 -0.024252 -0.053075 3.000000
-0.466955 -0.050953 0.080123 3.000000
-0.466955 -0.013988 -0.036862 3.000000
-0.466955 -0.036277 -0.020348 3.000000
-0.466955 0.026309 0.089533 3.000000
-0.466955 -0.054358 -0.043292 3.000000
-0.466955 0.028541 0.056159 3.000000
-0.466955 -0.090684 -0.009653 3.000000
-0.466955 0.009708 -0.048809 3.000000
-0.466955 -0.024114 -0.013341 3.000000
-0.466955 -0.044151 0.082837 3.000000
-0.466955 0.090518 -0.010399 3.000000
-0.466955 -0.038273 0.029039 3.000000
-0.466955 -0.026427 -0.040917 3.000000
-0.466955 -0.094455 -0.024813 3.000000
-0.466955 0.025350 0.005959 3.000000
-0.466955 -0.011438 0.059947 3.000000
-0.466955 0.041717 0.055030 3.000000
-0.466955 0.077480 0.047539 3.000000
-0.466955 0.036494 0.028533 3.000000
-0.466955 0.005673 0.089343 3.000000
-0.466955 0.022471 -0.045212 3.000000
-0.466955 -0.059612 0.033721 3.000000
-0.466955 -0.053434 -0.025398 3.000000
-0.466955 -0.051389 0.053516 3.000000
-0.466955 0.034988 0.078207 3.000000
-0.466955 -0.014339 0.019180 3.000000
-0.466955 -0.036458 -0.053902 3.000000
-0.466955 -0.090067 0.016280 3.000000
-0.466955 0.003568 0.000559 3.000000
-0.466955 -0.063684 0.054569 3.000000
-0.466955 -0.072889 -0.047687 3.000000
-0.466955 0.008307 0.064334 3.000000
-0.466955 -0.022402 -0.014922 3.000000
-0.466955 0.070207 0.050446 3.000000
-0.466955 -0.012406 -0.097864 3.000000
-0.466955 -0.020402 0.091438 3.000000
-0.466955 0.008971 -0.036983 3.000000
-0.466955 0.022405 -0.042929 3.000000
-0.466955 -0.058417 0.042761 3.000000
-0.466955 0.035102 0.043135 3.000000
-0.466955 0.046809 -0.038923 3.000000
-0.466955 0.063235 -0.007004 3.000000
-0.466955 -0.033285 -0.019871 3.000000
-0.466955 -0.016361 -0.042899 3.000000
-0.466955 0.066717 -0.061183 3.000000
-0.466955 -0.047170 0.088072 3.000000
-0.466955 0.072826 0.053688 3.000000
-0.466955 0.002524 0.010284 3.000000
-0.466955 0.080914 0.058297 3.000000
-0.466955 0.084987 -0.012799 3.000000
-0.466955 -0.029715 0.001317 3.000000
-0.466955 -0.033034 -0.090300 3.000000
-0.466955 0.078922 0.041582 3.000000
-0.466955 0.062543 -0.068688 3.000000
-0.466955 0.073072 0.003774 3.000000
-0.466955 -0.037891 -0.066498 3.000000
-0.466955 -0.022032 -0.052197 3.000000
-0.466955 0.058514 -0.077322 3.000000
-0.466955 -0.000633 0.051240 3.000000
-0.466955 -0.062804 -0.008206 3.000000
-0.466955 -0.048397 -0.044613 3.000000
-0.466955 -0.062188 -0.071343 3.000000
-0.466955 0.065924 0.017930 3.000000
-0.466955 -0.029838 -0.043190 3.000000
-0.466955 0.037077 0.079859 3.000000
-0.466955 -0.066294 -0.003291 3.000000
-0.466955 -0.043512 -0.087896 3.000000
-0.466955 -0.059850 0.019582 3.000000
-0.466955 -0.007881 -0.038523 3.000000
-0.466955 -0.056643 -0.018616 3.000000
-0.466955 -0.057163 -0.071884 3.000000
-0.466955 0.022999 0.017302 3.000000
-0.466955 -0.060151 -0.070991 3.000000
-0.466955 0.022976 0.075019 3.000000
-0.466955 -0.055793 -0.042307 3.000000
-0.466955 -0.052132 0.077922 3.000000
-0.466955 0.070543 0.047317 3.000000
-0.466955 -0.000326 -0.020480 3.000000
-0.466955 -0.060620 -0.062360 3.000000
-0.466955 0.017727 0.007650 3.000000
-0.466955 -0.080912 0.050835 3.000000
-0.466955 -0.012655 0.091089 3.000000
-0.466955 -0.085906 -0.000194 3.000000
-0.466955 -0.092404 0.037478 3.000000
-0.466955 0.003539 0.078020 3.000000
-0.466955 -0.007457 0.053394 3.000000
-0.466955 -0.029122 -0.031179 3.000000
-0.466955 0.054061 -0.049060 3.000000
-0.466955 -0.043904 0.080914 3.000000
-0.466955 0.015304 -0.024588 3.000000
-0.466955 0.027971 0.086859 3.000000
-0.466955 0.023688 -0.039479 3.000000
-0.466955 -0.089134 0.009912 3.000000
-0.466955 0.016220 -0.000941 3.000000
-0.466955 0.021881 -0.053917 3.000000
-0.466955 0.006165 -0.004731 3.000000
-0.466955 0.056275 -0.047784 3.000000
-0.466955 0.009472 -0.083247 3.000000
-0.466955 -0.016693 -0.033389 3.000000
-0.466955 0.070777 -0.070052 3.000000
-0.466955 -0.066435 0.059945 3.000000
-0.466955 -0.045251 -0.047993 3.000000
-0.466955 0.034807 -0.071734 3.000000
-0.466955 0.073495 -0.046023 3.000000
-0.466955 0.037363 0.000765 3.000000
-0.466955 -0.069139 -0.003957 3.000000
-0.466955 -0.016714 0.070326 3.000000
-0.466955 -0.059134 -0.029644 3.000000
-0.466955 -0.079278 -0.057670 3.000000
-0.466955 0.029852 -0.071326 3.000000
-0.466955 0.059896 0.055378 3.000000
-0.466955 0.012906 0.034275 3.000000
-0.466955 0.020545 0.062256 3.000000
-0.466955 0.075296 0.028572 3.000000
-0.466955 -0.025590 -0.074527 3.000000
-0.466955 -0.078342 -0.020376 3.000000
-0.466955 0.045967 -0.077920 3.000000
-0.466955 0.018394 -0.061568 3.000000
-0.466955 0.034450 0.072233 3.000000
-0.466955 -0.012442 0.066121 3.000000
-0.466955 -0.074395 -0.015028 3.000000
-0.466955 0.052313 0.014823 3.000000
-0.466955 0.089471 -0.005268 3.000000
-0.466955 -0.021107 0.085698 3.000000
-0.466955 0.021080 -0.012585 3.000000
-0.466955 0.090327 -0.007558 3.000000
-0.466955 0.066136 -0.042084 3.000000
-0.466955 -0.016396 0.011729 3.000000
-0.466955 0.022839 0.070271 3.000000
-0.466955 0.089100 0.034368 3.000000
-0.466955 -0.041830 -0.086854 3.000000
-0.466955 0.027186 0.092030 3.000000
-0.466955 0.011181 -0.013062 3.000000
-0.466955 0.046518 0.074580 3.000000
-0.466955 -0.058960 0.078352 3.000000
-0.466955 -0.001964 0.041497 3.000000
-0.466955 -0.052924 0.031402 3.000000
-0.466955 -0.030353 -0.008931 3.000000
-0.466955 0.007467 0.082673 3.000000
-0.466955 0.010735 -0.082728 3.000000
-0.466955 0.030690 -0.009555 3.000000
-0.466955 -0.000632 0.042317 3.000000
-0.466955 -0.092013 0.022385 3.000000
-0.466955 0.002397 0.092073 3.000000
-0.466955 -0.010838 0.047934 3.000000
-0.466955 0.022387 0.061182 3.000000
-0.466955 -0.065461 -0.009368 3.000000
-0.466955 0.024971 -0.052897 3.000000
-0.466955 0.071240 0.006235 3.000000
-0.466955 0.042773 0.083740 3.000000
-0.466955 0.019426 -0.034475 3.000000
-0.466955 -0.016007 -0.086589 3.000000
-0.466955 0.028311 0.007836 3.000000
-0.466955 0.092213 -0.035735 3.000000
-0.466955 0.057007 0.045727 3.000000
-0.466955 0.086196 -0.038219 3.000000
-0.466955 -0.073300 -0.004372 3.000000
-0.466955 -0.068038 -0.057187 3.000000
-0.466955 0.034132 -0.089177 3.000000
-0.466955 0.004149 -0.073233 3.000000
-0.466955 0.017336 0.035299 3.000000
-0.466955 -0.003997 0.056716 3.000000
-0.466955 -0.061425 -0.041769 3.000000
-0.466955 -0.045820 -0.056597 3.000000
-0.466955 -0.070445 0.062745 3.000000
-0.466955 0.085558 0.043375 3.000000
-0.466955 -0.058580 -0.071693 3.000000
-0.466955 0.006947 -0.049687 3.000000
-0.466955 0.024189 -0.049496 3.000000
-0.466955 -0.044620 0.011342 3.000000
-0.466955 0.011604 -0.036775 3.000000
-0.466955 -0.034958 0.084033 3.000000
-0.466955 -0.015645 -0.004158 3.000000
-0.466955 -0.008265 0.019594 3.000000
-0.466955 0.040788 0.005487 3.000000
-0.466955 0.089559 0.037128 3.000000
-0.466955 0.037946 -0.043301 3.000000
-0.466955 0.001289 -0.095553 3.000000
-0.466955 0.051344 -0.010814 3.000000
-0.466955 -0.026609 0.047762 3.000000
-0.466955 -0.072175 -0.060371 3.000000
-0.466955 0.004230 -0.029666 3.000000
-0.466955 0.057363 0.019743 3.000000
-0.466955 0.060429 0.019142 3.000000
-0.466955 0.054560 -0.045271 3.000000
-0.466955 0.001098 0.020351 3.000000
-0.466955 -0.001761 -0.042275 3.000000
-0.466955 0.009314 0.085359 3.000000
-0.466955 0.025800 -0.077551 3.000000
-0.466955 -0.071140 -0.063888 3.000000
-0.466955 -0.075776 0.027704 3.000000
-0.466955 0.038623 0.024198 3.000000
-0.466955 0.046106 0.008189 3.000000
-0.466955 0.028373 0.044185 3.000000
-0.466955 0.045485 0.078146 3.000000
-0.466955 0.051131 0.007080 3.000000
-0.466955 -0.063316 0.041077 3.000000
-0.466955 -0.068302 -0.068059 3.000000
-0.466955 0.039651 0.083985 3.000000
-0.466955 0.033048 -0.067754 3.000000
-0.466955 -0.028274 -0.011777 3.000000
-0.466955 -0.003570 -0.003341 3.000000
-0.466955 -0.018166 0.076796 3.000000
-0.466955 -0.011747 -0.056055 3.000000
-0.466955 -0.043317 -0.053393 3.000000
-0.466955 0.019409 0.009373 3.000000
-0.466955 0.055724 -0.009032 3.000000
-0.466955 -0.084132 -0.030336 3.000000
-0.466955 0.050430 0.025064 3.000000
-0.466955 -0.042870 -0.008306 3.000000
-0.466955 0.046895 -0.055790 3.000000
-0.466955 -0.073127 0.023839 3.000000
-0.466955 0.072336 -0.012710 3.000000
-0.466955 0.022012 -0.079902 3.000000
-0.466955 -0.013321 -0.044460 3.000000
-0.466955 0.088106 0.026522 3.000000
-0.466955 0.017436 0.024486 3.000000
-0.466955 -0.057323 -0.058172 3.000000
-0.466955 -0.031452 -0.067700 3.000000
-0.466955 0.042500 0.015905 3.000000
-0.466955 0.017429 0.085040 3.000000
-0.466955 0.048785 0.035257 3.000000
-0.466955 -0.072962 -0.017223 3.000000
-0.466955 0.054016 -0.031507 3.000000
-0.466955 -0.002148 0.001015 3.000000
-0.466955 -0.076870 0.056088 3.000000
-0.466955 0.062838 -0.070153 3.000000
-0.466955 -0.027497 0.012169 3.000000
-0.466955 0.050925 0.015566 3.000000
-0.466955 0.014374 0.003723 3.000000
-0.466955 0.060930 -0.071838 3.000000
-0.466955 -0.013839 -0.083745 3.000000
-0.466955 0.000957 -0.076877 3.000000
-0.466955 0.066082 0.015453 3.000000
-0.466955 0.009981 -0.005082 3.000000
-0.466955 0.053688 0.022878 3.000000
-0.466955 0.010045 0.024878 3.000000
-0.466955 -0.003746 0.085730 3.000000
-0.466955 0.033646 -0.031367 3.000000
-0.466955 0.019721 -0.027573 3.000000
-0.466955 -0.038939 0.064772 3.000000
-0.466955 0.057856 -0.062964 3.000000
-0.466955 -0.078251 -0.046700 3.000000
-0.466955 0.068860 0.042884 3.000000
-0.466955 -0.034994 0.030279 3.000000
-0.466955 -0.024049 0.088151 3.000000
-0.466955 0.004870 -0.021132 3.000000
-0.466955 -0.007310 0.048494 3.000000
-0.466955 -0.056133 -0.003405 3.000000
-0.466955 -0.086426 0.031674 3.000000
-0.466955 -0.069070 -0.009551 3.000000
-0.466955 -0.080244 0.008223 3.000000
-0.466955 -0.020175 0.021433 3.000000
-0.466955 -0.051022 0.006319 3.000000
-0.466955 0.017612 0.004915 3.000000
-0.466955 0.068437 0.000962 3.000000
-0.466955 0.092031 -0.025448 3.000000
-0.466955 0.082791 -0.029995 3.000000
-0.466955 0.013874 0.018125 3.000000
-0.466955 0.077377 0.001738 3.000000
-0.466955 -0.006721 0.000439 3.000000
-0.466955 -0.033476 -0.017274 3.000000
-0.466955 0.053803 0.038285 3.000000
-0.466955 0.063042 -0.019901 3.000000
-0.466955 0.092678 0.003484 3.000000
-0.466955 -0.007967 -0.071276 3.000000
-0.466955 0.035181 0.044761 3.000000
-0.466955 0.001493 0.072770 3.000000
-0.466955 0.024103 0.047164 3.000000
-0.466955 -0.021142 -0.054817 3.000000
-0.466955 0.073807 -0.021902 3.000000
-0.466955 -0.026297 -0.079337 3.000000
-0.466955 -0.044174 0.026431 3.000000
-0.466955 0.013568 0.077335 3.000000
-0.466955 -0.019325 -0.040082 3.000000
-0.466955 -0.064478 -0.043238 3.000000
-0.466955 0.004014 -0.033018 3.000000
-0.466955 0.028227 0.062665 3.000000
-0.466955 0.053297 0.000725 3.000000
-0.466955 0.042208 -0.004997 3.000000
-0.466955 -0.041542 -0.040379 3.000000
-0.466955 0.070361 0.041043 3.000000
-0.466955 -0.012720 0.030126 3.000000
-0.466955 0.016870 0.010574 3.000000
-0.466955 -0.019400 -0.015309 3.000000
-0.466955 0.005506 -0.044601 3.000000
-0.466955 -0.009249 -0.024233 3.000000
-0.466955 0.023155 0.027078 3.000000
-0.466955 -0.068715 -0.022192 3.000000
-0.466955 -0.007639 -0.079420 3.000000
-0.466955 0.085113 -0.041253 3.000000
-0.466955 0.079587 0.015873 3.000000
-0.466955 0.041231 -0.024307 3.000000
-0.466955 -0.063659 -0.063425 3.000000
-0.466955 -0.031712 0.073944 3.000000
-0.466955 0.091156 -0.040599 3.000000
-0.466955 0.011649 -0.091128 3.000000
-0.466955 0.032181 0.071013 3.000000
-0.466955 -0.029658 0.071033 3.000000
-0.466955 0.084116 -0.030730 3.000000
-0.466955 -0.063651 -0.059782 3.000000
-0.466955 0.052072 0.016638 3.000000
-0.466955 0.083895 0.035225 3.000000
-0.466955 -0.056583 0.035980 3.000000
-0.466955 0.024252 0.075795 3.000000
-0.466955 0.057096 0.066152 3.000000
-0.466955 -0.070114 -0.005437 3.000000
-0.466955 0.076852 -0.034001 3.000000
-0.466955 -0.083874 -0.015875 3.000000
-0.466955 -0.040508 0.087766 3.000000
-0.466955 0.053499 0.054534 3.000000
-0.466955 0.080994 -0.031308 3.000000
-0.466955 -0.017997 0.010586 3.000000
-0.466955 -0.048147 0.006622 3.000000
-0.466955 0.051468 -0.045629 3.000000
-0.466955 0.001804 0.086009 3.000000
-0.466955 0.041234 0.053742 3.000000
-0.466955 -0.015784 -0.078392 3.000000
-0.466955 0.059746 -0.021545 3.000000
-0.466955 0.057128 0.001233 3.000000
-0.466955 0.031501 0.081930 3.000000
-0.466955 0.089598 -0.044101 3.000000
-0.466955 -0.075871 -0.064494 3.000000
-0.466955 -0.001039 -0.046277 3.000000
-0.466955 0.033879 0.014060 3.000000
-0.466955 -0.070550 -0.053486 3.000000
-0.466955 -0.098001 0.003412 3.000000
-0.466955 -0.095709 -0.005930 3.000000
-0.466955 0.082344 0.051264 3.000000
-0.466955 0.037034 0.081647 3.000000
-0.466955 0.019072 -0.036697 3.000000
-0.466955 0.052634 -0.010064 3.000000
-0.466955 0.054627 -0.020135 3.000000
-0.466955 -0.000539 -0.060544 3.000000
-0.466955 0.053205 -0.061336 3.000000
