-0.466955 -0.024672 -0.094937 3.000000
-0.466955 -0.022831 0.062245 3.000000
-0.466955 -0.087072 -0.031602 3.000000
-0.466955 0.087235 -0.044743 3.000000
-0.466955 -0.019564 0.003373 3.000000
-0.466955 0.016220 0.008060 3.000000
-0.466955 0.032958 0.018417 3.000000
-0.466955 0.062927 0.037394 3.000000
-0.466955 -0.038460 -0.051301 3.000000
-0.466955 0.039149 0.010970 3.000000
-0.466955 0.063744 -0.030088 3.000000
-0.466955 0.039735 -0.072291 3.000000
-0.466955 -0.014699 0.071289 3.000000
-0.466955 -0.032051 0.068657 3.000000
-0.466955 0.022786 0.077665 3.000000
-0.466955 0.007207 0.060268 3.000000
-0.466955 0.006089 0.053550 3.000000
-0.466955 -0.020092 -0.001221 3.000000
-0.466955 -0.091574 0.034556 3.000000
-0.466955 0.070251 0.057301 3.000000
-0.466955 0.025088 0.069804 3.000000
-0.466955 0.021421 -0.014770 3.000000
-0.466955 0.013268 -0.092299 3.000000
-0.466955 0.063217 -0.062571 3.000000
-0.466955 -0.091495 0.003085 3.000000
-0.466955 -0.050517 0.052636 3.000000
-0.466955 0.026799 -0.061265 3.000000
-0.466955 0.064558 0.010956 3.000000
-0.466955 0.085586 0.032796 3.000000
-0.466955 0.029267 -0.044048 3.000000
-0.466955 0.061947 0.056035 3.000000
-0.466955 -0.038035 0.068345 3.000000
-0.466955 0.042953 0.026165 3.000000
-0.466955 0.089002 0.000419 3.000000
-0.466955 -0.044961 0.064887 3.000000
-0.466955 0.019137 -0.021026 3.000000
-0.466955 -0.069971 0.003571 3.000000
-0.466955 -0.062461 -0.026710 3.000000
-0.466955 -0.037023 0.065033 3.000000
-0.466955 0.007517 -0.030814 3.000000
-0.466955 -0.048137 -0.070023 3.000000
-0.466955 -0.001857 0.006294 3.000000
-0.466955 -0.080315 -0.014058 3.000000
-0.466955 0.019864 0.004922 3.000000
-0.466955 0.005651 0.013977 3.000000
-0.466955 -0.084626 -0.048330 3.000000
-0.466955 0.026103 0.008389 3.000000
-0.466955 -0.016922 -0.031628 3.000000
-0.466955 -0.093640 0.005187 3.000000
-0.466955 -0.012517 0.019842 3.000000
-0.466955 0.063681 -0.011899 3.000000
-0.466955 -0.035606 0.069438 3.000000
-0.466955 0.004219 0.090260 3.000000
-0.466955 -0.077643 0.031383 3.000000
-0.466955 -0.063523 -0.032778 3.000000
-0.466955 0.076266 -0.044156 3.000000
-0.466955 0.081154 0.011140 3.000000
-0.466955 -0.080985 -0.008028 3.000000
-0.466955 0.014707 0.055847 3.000000
-0.466955 0.029066 0.006049 3.000000
-0.466955 -0.018001 0.053215 3.000000
-0.466955 -0.021467 0.029662 3.000000
-0.466955 -0.007701 0.092622 3.000000
-0.466955 0.022475 0.094317 3.000000
-0.466955 -0.080415 0.035999 3.000000
-0.466955 0.020507 0.006431 3.000000
-0.466955 -0.041338 0.028828 3.000000
-0.466955 -0.019136 0.097916 3.000000
-0.466955 0.031749 0.068460 3.000000
-0.466955 -0.090063 -0.021900 3.000000
-0.466955 -0.050436 0.018434 3.000000
-0.466955 -0.031416 -0.090542 3.000000
-0.466955 -0.087679 -0.037952 3.000000
-0.466955 -0.068247 -0.044356 3.000000
-0.466955 -0.025161 -0.062363 3.000000
-0.466955 0.007322 0.012931 3.000000
-0.466955 -0.092083 0.010936 3.000000
-0.466955 -0.032847 -0.000161 3.000000
-0.466955 0.018994 -0.070951 3.000000
-0.466955 0.072909 0.056620 3.000000
-0.466955 0.020947 -0.043709 3.000000
-0.466955 0.032258 -0.056447 3.000000
-0.466955 -0.013360 -0.088691 3.000000
-0.466955 -0.014197 -0.051233 3.000000
-0.466955 -0.018114 -0.015243 3.000000
-0.466955 -0.075398 -0.061195 3.000000
-0.466955 0.073136 0.041288 3.000000
-0.466955 -0.067418 -0.050870 3.000000
-0.466955 -0.007864 0.027419 3.000000
-0.466955 -0.070966 -0.047921 3.000000
-0.466955 -0.009660 -0.083943 3.000000
-0.466955 0.005654 -0.005785 3.000000
-0.466955 0.066605 -0.025870 3.000000
-0.466955 -0.003456 -0.041527 3.000000
-0.466955 0.050239 0.018775 3.000000
-0.466955 -0.009436 0.011663 3.000000
-0.466955 -0.053169 -0.082486 3.000000
-0.466955 -0.064676 -0.007431 3.000000
-0.466955 -0.050790 0.006699 3.000000
-0.466955 -0.066195 0.034736 3.000000
-0.466955 0.023819 0.068438 3.000000
-0.466955 -0.040556 -0.015167 3.000000
-0.466955 -0.019845 0.009954 3.000000
-0.466955 -0.040213 -0.063838 3.000000
-0.466955 -0.011520 -0.060242 3.000000
-0.466955 -0.034822 -0.033167 3.000000
-0.466955 -0.022467 0.097074 3.000000
-0.466955 0.075338 -0.028331 3.000000
-0.466955 -0.031608 -0.016032 3.000000
-0.466955 0.087512 -0.013698 3.000000
-0.466955 0.024319 -0.052539 3.000000
-0.466955 -0.080096 0.018380 3.000000
-0.466955 0.027305 0.032537 3.000000
-0.466955 0.059029 0.076852 3.000000
-0.466955 -0.041918 0.069543 3.000000
-0.466955 0.013160 0.040382 3.000000
-0.466955 -0.033637 -0.093462 3.000000
-0.466955 -0.036913 0.089073 3.000000
-0.466955 -0.026623 -0.085543 3.000000
-0.466955 0.050703 -0.053578 3.000000
-0.466955 -0.080541 0.058450 3.000000
-0.466955 0.065666 0.036330 3.000000
-0.466955 0.033681 0.028975 3.000000
-0.466955 -0.047034 0.036763 3.000000
-0.466955 0.016781 0.015860 3.000000
-0.466955 -0.056731 0.025057 3.000000
-0.466955 -0.043952 -0.042440 3.000000
-0.466955 0.010188 0.078132 3.000000
-0.466955 0.078900 -0.057348 3.000000
-0.466955 -0.045618 -0.040439 3.000000
-0.466955 0.037628 -0.068465 3.000000
-0.466955 0.074768 0.012313 3.000000
-0.466955 -0.070717 -0.007753 3.000000
-0.466955 0.063525 -0.021791 3.000000
-0.466955 -0.007597 -0.084240 3.000000
-0.466955 -0.064083 0.067496 3.000000
-0.466955 -0.053249 0.034099 3.000000
-0.466955 0.013996 -0.054508 3.000000
-0.466955 0.081711 -0.051553 3.000000
-0.466955 0.032714 0.050426 3.000000
-0.466955 -0.076817 -0.044068 3.000000
-0.466955 -0.017119 -0.080798 3.000000
-0.466955 0.032291 -0.010780 3.000000
-0.466955 0.026701 0.012308 3.000000
-0.466955 -0.086439 -0.010825 3.000000
-0.466955 -0.056205 0.059324 3.000000
-0.466955 -0.042376 -0.029500 3.000000
-0.466955 -0.059166 -0.057103 3.000000
-0.466955 0.001058 0.002815 3.000000
-0.466955 0.043498 0.065143 3.000000
-0.466955 -0.062573 0.075862 3.000000
-0.466955 0.038226 0.001644 3.000000
-0.466955 -0.056071 -0.026457 3.000000
-0.466955 0.014308 -0.018187 3.000000
-0.466955 -0.040360 0.041317 3.000000
-0.466955 0.081882 -0.009959 3.000000
-0.466955 0.075753 -0.000624 3.000000
-0.466955 0.029449 -0.057156 3.000000
-0.466955 -0.021775 0.010210 3.000000
-0.466955 -0.032803 -0.062223 3.000000
-0.466955 -0.060844 -0.023442 3.000000
-0.466955 0.022226 0.017855 3.000000
-0.466955 -0.056316 -0.023381 3.000000
-0.466955 0.072386 -0.002971 3.000000
-0.466955 0.073309 0.045393 3.000000
-0.466955 0.068733 -0.008053 3.000000
-0.466955 0.004404 0.092917 3.000000
-0.466955 0.043626 0.033675 3.000000
-0.466955 0.031018 0.039165 3.000000
-0.466955 0.021547 0.063475 3.000000
-0.466955 0.051661 0.085211 3.000000
-0.466955 -0.021055 0.002767 3.000000
-0.466955 -0.004666 -0.067966 3.000000
-0.466955 -0.049847 -0.010491 3.000000
-0.466955 -0.034256 0.022690 3.000000
-0.466955 0.019193 0.019381 3.000000
-0.466955 -0.078264 0.018218 3.000000
-0.466955 -0.028017 0.094010 3.000000
-0.466955 -0.048537 0.034298 3.000000
-0.466955 0.048669 0.061076 3.000000
-0.466955 0.058954 -0.026444 3.000000
-0.466955 0.064073 -0.004024 3.000000
-0.466955 0.026050 -0.026748 3.000000
-0.466955 -0.072025 0.043820 3.000000
-0.466955 0.013120 0.066879 3.000000
-0.466955 0.002708 0.014432 3.000000
-0.466955 0.016452 -0.087088 3.000000
-0.466955 0.025272 -0.020589 3.000000
-0.466955 0.031014 0.048591 3.000000
-0.466955 -0.030368 0.062856 3.000000
-0.466955 -0.031821 -0.050458 3.000000
-0.466955 -0.035079 0.052208 3.000000
-0.466955 -0.031281 -0.037308 3.000000
-0.466955 -0.034387 -0.087468 3.000000
-0.466955 0.039132 0.062974 3.000000
-0.466955 0.067957 0.001900 3.000000
-0.466955 0.038737 -0.031325 3.000000
-0.466955 -0.021022 -0.051434 3.000000
-0.466955 0.038132 -0.052217 3.000000
-0.466955 0.050637 0.067231 3.000000
-0.466955 0.076800 -0.025197 3.000000
-0.466955 -0.042886 0.004463 3.000000
-0.466955 -0.036770 -0.085128 3.000000
-0.466955 -0.082071 -0.030595 3.000000
-0.466955 -0.029647 0.091240 3.000000
-0.466955 -0.062444 0.070819 3.000000
-0.466955 -0.057518 0.072817 3.000000
-0.466955 0.037299 0.014771 3.000000
-0.466955 -0.079154 -0.013212 3.000000
-0.466955 0.007303 -0.077529 3.000000
-0.466955 -0.031473 0.063748 3.000000
-0.466955 -0.023491 -0.023872 3.000000
-0.466955 0.068637 0.017852 3.000000
-0.466955 0.078603 -0.031296 3.000000
-0.466955 -0.054009 0.035415 3.000000
-0.466955 0.037875 -0.027880 3.000000
-0.466955 -0.033109 -0.086383 3.000000
-0.466955 0.007837 0.058360 3.000000
-0.466955 0.019560 0.092429 3.000000
-0.466955 0.016207 -0.065670 3.000000
-0.466955 -0.016949 -0.039120 3.000000
-0.466955 -0.005079 -0.038908 3.000000
-0.466955 0.073398 0.054867 3.000000
-0.466955 -0.095431 -0.009214 3.000000
-0.466955 -0.063188 0.004810 3.000000
-0.466955 0.000132 -0.034481 3.000000
-0.466955 0.044494 -0.049540 3.000000
-0.466955 0.059018 0.020068 3.000000
-0.466955 0.007062 0.084561 3.000000
-0.466955 -0.015541 -0.091684 3.000000
-0.466955 0.001485 -0.041806 3.000000
-0.466955 0.011661 0.056805 3.000000
-0.466955 0.034382 0.031401 3.000000
-0.466955 -0.000380 0.017326 3.000000
-0.466955 0.035942 -0.087160 3.000000
-0.466955 -0.092905 -0.035993 3.000000
-0.466955 0.089060 -0.038422 3.000000
-0.466955 0.023143 0.007925 3.000000
-0.466955 0.090193 0.010613 3.000000
-0.466955 -0.003870 -0.014696 3.000000
-0.466955 0.009775 -0.073589 3.000000
-0.466955 -0.031487 -0.069705 3.000000
-0.466955 -0.006495 0.086005 3.000000
-0.466955 0.080071 -0.046721 3.000000
-0.466955 -0.008508 0.062650 3.000000
-0.466955 0.005500 -0.098840 3.000000
-0.466955 0.066668 -0.009819 3.000000
-0.466955 -0.041724 0.060160 3.000000
-0.466955 -0.075648 -0.000447 3.000000
-0.466955 0.027140 0.006728 3.000000
-0.466955 0.077719 0.032295 3.000000
-0.466955 0.021750 0.025850 3.000000
-0.466955 -0.071547 -0.059746 3.000000
-0.466955 0.063759 -0.050365 3.000000
-0.466955 -0.035323 0.060998 3.000000
-0.466955 -0.090516 0.006812 3.000000
-0.466955 -0.010876 0.098226 3.000000
-0.466955 0.018211 0.035829 3.000000
-0.466955 -0.025095 -0.038873 3.000000
-0.466955 -0.037126 -0.091952 3.000000
-0.466955 0.076810 0.024289 3.000000
-0.466955 0.030710 0.085499 3.000000
-0.466955 -0.043255 0.041048 3.000000
-0.466955 0.069043 -0.032282 3.000000
-0.466955 -0.091547 0.015470 3.000000
-0.466955 0.027240 0.083405 3.000000
-0.466955 0.015644 0.006631 3.000000
-0.466955 0.050255 0.051892 3.000000
-0.466955 -0.053789 0.061460 3.000000
-0.466955 0.030133 0.056849 3.000000
-0.466955 0.039692 -0.078392 3.000000
-0.466955 -0.049183 0.042129 3.000000
-0.466955 0.055240 0.055151 3.000000
-0.466955 -0.027486 0.046937 3.000000
-0.466955 -0.065187 -0.061513 3.000000
-0.466955 -0.053120 -0.035542 3.000000
-0.466955 0.024236 0.083828 3.000000
-0.466955 0.078774 0.008555 3.000000
-0.466955 -0.095004 0.003991 3.000000
-0.466955 0.043296 0.089897 3.000000
-0.466955 0.096193 0.000517 3.000000
-0.466955 0.027317 0.040519 3.000000
-0.466955 -0.072397 -0.048162 3.000000
-0.466955 -0.044006 -0.075224 3.000000
-0.466955 0.015284 0.068246 3.000000
-0.466955 -0.007094 -0.024204 3.000000
-0.466955 -0.013748 -0.078024 3.000000
-0.466955 -0.015841 0.056160 3.000000
-0.466955 0.064193 0.007889 3.000000
-0.466955 -0.013257 0.049269 3.000000
-0.466955 -0.032728 0.076654 3.000000
-0.466955 0.003802 -0.066588 3.000000
-0.466955 -0.050526 0.042829 3.000000
-0.466955 0.004148 -0.027695 3.000000
-0.466955 0.009332 -0.070915 3.000000
-0.466955 -0.049476 -0.061960 3.000000
-0.466955 -0.076116 0.051761 3.000000
-0.466955 -0.045345 0.043217 3.000000
-0.466955 -0.019287 0.017400 3.000000
-0.466955 -0.029235 0.049848 3.000000
-0.466955 -0.016612 0.063680 3.000000
-0.466955 0.002554 0.043226 3.000000
-0.466955 0.000654 0.083344 3.000000
-0.466955 0.045070 -0.070978 3.000000
-0.466955 0.035234 0.053003 3.000000
-0.466955 -0.070224 0.024431 3.000000
-0.466955 0.068998 0.039640 3.000000
-0.466955 0.080637 0.041094 3.000000
-0.466955 0.040516 -0.037387 3.000000
-0.466955 -0.091915 0.000151 3.000000
-0.466955 0.063216 0.043742 3.000000
-0.466955 -0.052644 0.064223 3.000000
-0.466955 0.080421 -0.044852 3.000000
-0.466955 0.048939 0.027301 3.000000
-0.466955 0.087443 0.032367 3.000000
-0.466955 -0.062429 -0.016033 3.000000
-0.466955 -0.048184 0.053808 3.000000
-0.466955 -0.094449 -0.012917 3.000000
-0.466955 -0.033093 -0.090198 3.000000
-0.466955 0.038635 0.003155 3.000000
-0.466955 -0.043201 0.058764 3.000000
-0.466955 -0.033470 -0.041345 3.000000
-0.466955 -0.000309 0.015576 3.000000
-0.466955 0.071545 0.006483 3.000000
-0.466955 -0.051793 0.005539 3.000000
-0.466955 0.048508 -0.006425 3.000000
-0.466955 0.062642 -0.010480 3.000000
-0.466955 -0.013845 -0.093906 3.000000
-0.466955 -0.079723 0.049364 3.000000
-0.466955 -0.011446 -0.061829 3.000000
-0.466955 -0.013071 0.047368 3.000000
-0.466955 -0.011412 -0.026117 3.000000
-0.466955 -0.086442 0.016431 3.000000
-0.466955 -0.042647 0.075047 3.000000
-0.466955 0.063359 0.077455 3.000000
-0.466955 -0.025889 0.005078 3.000000
-0.466955 0.018635 -0.030227 3.000000
-0.466955 -0.003667 0.044344 3.000000
-0.466955 0.035394 0.038539 3.000000
-0.466955 -0.071855 -0.012898 3.000000
-0.466955 0.001787 -0.026009 3.000000
-0.466955 -0.058424 -0.000782 3.000000
-0.466955 0.032022 0.094242 3.000000
-0.466955 0.045211 -0.006713 3.000000
-0.466955 0.019167 0.023078 3.000000
-0.466955 0.026882 0.050808 3.000000
-0.466955 -0.003759 -0.078037 3.000000
-0.466955 0.037771 0.084474 3.000000
-0.466955 0.082806 0.018965 3.000000
-0.466955 0.046549 -0.063763 3.000000
-0.466955 0.005118 0.082415 3.000000
-0.466955 0.044971 0.047799 3.000000
-0.466955 -0.063319 0.064370 3.000000
-0.466955 0.030318 0.002082 3.000000
-0.466955 -0.035271 0.016057 3.000000
-0.466955 -0.057994 -0.031699 3.000000
-0.466955 -0.022027 0.093765 3.000000
-0.466955 0.054489 -0.013148 3.000000
-0.466955 0.019486 0.096144 3.000000
-0.466955 -0.048947 0.052470 3.000000
-0.466955 -0.089616 -0.034574 3.000000
-0.466955 0.015381 0.092978 3.000000
-0.466955 -0.042964 0.072713 3.000000
-0.466955 -0.017585 -0.010505 3.000000
-0.466955 -0.042062 -0.000210 3.000000
-0.466955 0.044249 -0.031166 3.000000
-0.466955 -0.067409 0.029734 3.000000
-0.466955 -0.020372 0.015316 3.000000
-0.466955 -0.063450 0.016940 3.000000
-0.466955 -0.005352 -0.009560 3.000000
-0.466955 0.091610 0.020851 3.000000
-0.466955 0.051191 0.063748 3.000000
-0.466955 0.067881 0.031661 3.000000
-0.466955 -0.004648 0.078543 3.000000
-0.466955 -0.060305 -0.021090 3.000000
-0.466955 -0.007124 0.028818 3.000000
-0.466955 0.059051 -0.051076 3.000000
-0.466955 0.052333 -0.001313 3.000000
-0.466955 -0.053922 -0.020955 3.000000
-0.466955 0.074998 -0.023295 3.000000
-0.466955 -0.015448 0.035680 3.000000
-0.466955 0.062384 -0.052033 3.000000
-0.466955 0.000925 0.076437 3.000000
-0.466955 -0.082940 -0.002652 3.000000
-0.466955 0.049612 -0.082424 3.000000
-0.466955 -0.044657 -0.071380 3.000000
-0.466955 0.028525 0.086167 3.000000
-0.466955 -0.055969 -0.073896 3.000000
-0.466955 -0.076676 -0.002822 3.000000
-0.466955 0.057847 -0.012328 3.000000
-0.466955 0.062942 -0.038659 3.000000
-0.466955 0.004431 -0.079994 3.000000
-0.466955 0.060759 0.049276 3.000000
-0.466955 0.019428 -0.046375 3.000000
-0.466955 0.082078 0.045243 3.000000
-0.466955 0.012590 -0.059782 3.000000
-0.466955 -0.000743 -0.027266 3.000000
-0.466955 0.047713 -0.047639 3.000000
-0.466955 -0.038603 0.030666 3.000000
-0.466955 -0.010209 0.059439 3.000000
-0.466955 -0.018795 0.037305 3.000000
-0.466955 0.005019 0.074473 3.000000
-0.466955 -0.002247 -0.078488 3.000000
-0.466955 -0.062014 0.003445 3.000000
-0.466955 0.051717 0.017744 3.000000
-0.466955 -0.071293 -0.052354 3.000000
-0.466955 0.043834 0.056734 3.000000
-0.466955 0.022093 -0.055327 3.000000
-0.466955 -0.004277 0.069503 3.000000
-0.466955 0.049433 -0.066784 3.000000
-0.466955 -0.014254 -0.033808 3.000000
-0.466955 -0.046261 -0.046325 3.000000
-0.466955 -0.076148 0.013109 3.000000
-0.466955 0.072432 -0.032079 3.000000
-0.466955 -0.017926 -0.029148 3.000000
-0.466955 -0.047017 0.052633 3.000000
-0.466955 0.052572 0.053339 3.000000
-0.466955 0.040885 0.049906 3.000000
-0.466955 0.022152 0.097292 3.000000
-0.466955 -0.000496 0.022707 3.000000
-0.466955 -0.091734 -0.023682 3.000000
-0.466955 0.070069 -0.017065 3.000000
-0.466955 -0.066797 0.001212 3.000000
-0.466955 0.080849 -0.037318 3.000000
-0.466955 0.009705 -0.054959 3.000000
-0.466955 0.077919 0.012559 3.000000
-0.466955 -0.043589 -0.088746 3.000000
-0.466955 0.011655 0.078767 3.000000
-0.466955 0.035114 0.024758 3.000000
-0.466955 -0.035271 0.011307 3.000000
-0.466955 0.047933 -0.070212 3.000000
-0.466955 0.042083 -0.073110 3.000000
-0.466955 -0.016795 0.001540 3.000000
-0.466955 0.042059 0.064320 3.000000
-0.466955 -0.046721 0.000962 3.000000
-0.466955 -0.039230 -0.038586 3.000000
-0.466955 -0.002558 0.097272 3.000000
-0.466955 0.079323 -0.051723 3.000000
-0.466955 -0.022354 -0.090568 3.000000
-0.466955 0.077040 -0.054163 3.000000
-0.466955 -0.010735 0.000856 3.000000
-0.466955 0.082416 0.004275 3.000000
-0.466955 -0.020464 0.090237 3.000000
-0.466955 0.034917 0.059797 3.000000
-0.466955 0.041569 0.019343 3.000000
-0.466955 -0.020980 0.068525 3.000000
-0.466955 0.018003 0.038406 3.000000
-0.466955 0.012904 -0.000310 3.000000
-0.466955 0.039365 -0.075172 3.000000
-0.466955 -0.042003 -0.024934 3.000000
-0.466955 0.027941 -0.031138 3.000000
-0.466955 0.056048 -0.057823 3.000000
-0.466955 -0.049401 -0.043822 3.000000
-0.466955 -0.018939 -0.052938 3.000000
-0.466955 0.037623 -0.074035 3.000000
-0.466955 0.026730 -0.037870 3.000000
-0.466955 0.057143 -0.004175 3.000000
-0.466955 -0.072528 0.064065 3.000000
-0.466955 -0.031872 -0.028222 3.000000
-0.466955 0.061608 -0.011698 3.000000
-0.466955 0.052663 -0.003096 3.000000
-0.466955 0.037801 0.075514 3.000000
-0.466955 -0.091343 -0.027959 3.000000
-0.466955 -0.040622 -0.053831 3.000000
-0.466955 0.014178 -0.085178 3.000000
-0.466955 -0.037868 0.090197 3.000000
-0.466955 0.049228 0.045259 3.000000
-0.466955 0.067264 0.066440 3.000000
-0.466955 0.051163 0.053261 3.000000
-0.466955 -0.066575 -0.060338 3.000000
-0.466955 0.043428 -0.006490 3.000000
-0.466955 -0.044572 0.088977 3.000000
-0.466955 -0.016479 -0.060866 3.000000
-0.466955 0.044126 0.017800 3.000000
-0.466955 0.053452 0.017079 3.000000
-0.466955 -0.064893 0.014832 3.000000
-0.466955 -0.022172 0.061011 3.000000
-0.466955 0.018570 0.016067 3.000000
-0.466955 -0.052934 -0.037910 3.000000
-0.466955 0.076301 -0.060272 3.000000
-0.466955 -0.025345 -0.033695 3.000000
-0.466955 0.015905 -0.003004 3.000000
-0.466955 -0.006414 0.078028 3.000000
-0.466955 -0.041743 0.043906 3.000000
-0.466955 -0.064513 -0.011110 3.000000
-0.466955 -0.016101 -0.008866 3.000000
-0.466955 0.048865 -0.031258 3.000000
-0.466955 0.023577 -0.088428 3.000000
-0.466955 0.096321 -0.015404 3.000000
-0.466955 0.044428 -0.082187 3.000000
-0.466955 -0.090631 -0.038266 3.000000
-0.466955 0.004211 0.058602 3.000000
-0.466955 0.074329 0.010871 3.000000
-0.466955 0.044685 0.054097 3.000000
-0.466955 0.001965 -0.020121 3.000000
-0.466955 -0.078174 0.036478 3.000000
-0.466955 0.069391 0.048618 3.000000
-0.466955 -0.015220 -0.058124 3.000000
-0.466955 0.038813 0.027714 3.000000
-0.466955 0.018181 -0.085524 3.000000
-0.466955 0.007596 -0.093860 3.000000
-0.466955 -0.014332 0.005587 3.000000
-0.466955 -0.032682 0.055823 3.000000
-0.466955 -0.010602 0.039610 3.000000
-0.466955 0.022508 -0.005818 3.000000
-0.466955 0.017340 -0.046444 3.000000
-0.466955 0.066401 -0.045570 3.000000
-0.466955 0.080766 0.038701 3.000000
-0.466955 0.082213 0.012116 3.000000
-0.466955 -0.071776 0.009116 3.000000
-0.466955 -0.061305 -0.009224 3.000000
-0.466955 0.035138 0.018735 3.000000
-0.466955 0.002642 0.062442 3.000000
-0.466955 -0.074154 -0.012608 3.000000
-0.466955 0.065923 0.031399 3.000000
-0.466955 0.017762 -0.091471 3.000000
-0.466955 0.014372 -0.050785 3.000000
-0.466955 0.059105 0.000420 3.000000
-0.466955 -0.089532 0.039838 3.000000
-0.466955 0.090915 -0.038119 3.000000
-0.466955 -0.031905 0.048121 3.000000
-0.466955 -0.091242 -0.005126 3.000000
-0.466955 -0.032820 0.081014 3.000000
-0.466955 -0.030707 -0.008167 3.000000
-0.466955 -0.042056 0.021047 3.000000
-0.466955 -0.006287 0.092692 3.000000
-0.466955 0.085747 0.034372 3.000000
-0.466955 0.032020 0.044935 3.000000
-0.466955 0.057872 -0.044210 3.000000
-0.466955 -0.033798 0.062744 3.000000
-0.466955 0.054113 0.076848 3.000000
-0.466955 0.037578 -0.084012 3.000000
-0.466955 -0.013692 -0.064641 3.000000
-0.466955 -0.024336 0.022633 3.000000
-0.466955 0.089605 -0.035462 3.000000
-0.466955 0.009556 -0.052986 3.000000
-0.466955 -0.062335 -0.003374 3.000000
-0.466955 0.096843 0.021960 3.000000
-0.466955 0.020552 0.022107 3.000000
-0.466955 0.095054 -0.016416 3.000000
-0.466955 -0.068129 0.017066 3.000000
-0.466955 0.029781 0.015628 3.000000
-0.466955 -0.055423 -0.000301 3.000000
-0.466955 0.096955 0.007948 3.000000
-0.466955 -0.026128 -0.000876 3.000000
-0.466955 0.052611 -0.022419 3.000000
-0.466955 0.065815 0.015256 3.000000
-0.466955 -0.080776 0.034696 3.000000
-0.466955 -0.006221 0.021826 3.000000
-0.466955 0.019328 0.045350 3.000000
-0.466955 0.069084 0.062319 3.000000
-0.466955 -0.037067 -0.059078 3.000000
-0.466955 -0.028655 -0.037747 3.000000
-0.466955 -0.058278 -0.034402 3.000000
-0.466955 0.016718 -0.001575 3.000000
-0.466955 -0.078936 -0.026052 3.000000
-0.466955 -0.081869 -0.000307 3.000000
-0.466955 -0.036965 -0.062336 3.000000
-0.466955 0.079234 -0.058658 3.000000
-0.466955 -0.041095 -0.059723 3.000000
-0.466955 -0.002854 0.069101 3.000000
-0.466955 -0.013953 0.035881 3.000000
-0.466955 0.096088 0.010522 3.000000
-0.466955 -0.037355 -0.086508 3.000000
-0.466955 -0.013329 -0.032276 3.000000
-0.466955 -0.039286 -0.027448 3.000000
-0.466955 -0.053386 0.006098 3.000000
-0.466955 0.054997 -0.007015 3.000000
-0.466955 -0.078704 0.004808 3.000000
-0.466955 -0.089370 0.002949 3.000000
-0.466955 0.007722 0.098782 3.000000
-0.466955 0.075939 -0.034891 3.000000
-0.466955 -0.085708 -0.027120 3.000000
-0.466955 0.037968 -0.018704 3.000000
-0.466955 -0.001536 0.047889 3.000000
-0.466955 -0.064967 -0.069962 3.000000
-0.466955 0.036284 -0.088769 3.000000
-0.466955 -0.004884 -0.046138 3.000000
-0.466955 0.054983 -0.082542 3.000000
-0.466955 0.031649 0.092099 3.000000
-0.466955 -0.057332 -0.001677 3.000000
-0.466955 0.055789 0.075721 3.000000
-0.466955 0.021370 0.074681 3.000000
-0.466955 0.002779 -0.077066 3.000000
-0.466955 0.024511 -0.004159 3.000000
-0.466955 0.087776 0.029210 3.000000
-0.466955 0.067318 -0.039418 3.000000
-0.466955 -0.031257 0.046856 3.000000
-0.466955 0.091915 0.022167 3.000000
-0.466955 -0.097082 -0.019210 3.000000
-0.466955 0.003107 0.052285 3.000000
-0.466955 -0.018443 0.079896 3.000000
-0.466955 -0.068356 -0.062618 3.000000
-0.466955 0.039718 -0.026890 3.000000
-0.466955 0.038472 -0.036343 3.000000
-0.466955 0.055863 -0.071640 3.000000
-0.466955 -0.094801 -0.004222 3.000000
-0.466955 -0.093234 0.034974 3.000000
-0.466955 -0.006645 -0.076860 3.000000
-0.466955 -0.019606 -0.019401 3.000000
-0.466955 -0.034923 0.056124 3.000000
-0.466955 -0.064416 -0.035152 3.000000
-0.466955 -0.066537 -0.039568 3.000000
-0.466955 0.018522 0.048194 3.000000
-0.466955 -0.037428 -0.038962 3.000000
-0.466955 -0.026035 0.060987 3.000000
-0.466955 -0.026664 0.041426 3.000000
-0.466955 -0.053557 -0.031669 3.000000
-0.466955 -0.069322 0.035535 3.000000
-0.466955 0.036736 -0.012633 3.000000
-0.466955 -0.017455 0.033980 3.000000
-0.466955 -0.026754 -0.032143 3.000000
-0.466955 0.011072 0.081200 3.000000
-0.466955 0.062333 0.063359 3.000000
-0.466955 -0.011362 -0.017235 3.000000
-0.466955 0.077655 -0.039640 3.000000
-0.466955 0.035603 -0.077105 3.000000
-0.466955 0.077589 -0.033112 3.000000
-0.466955 -0.018691 -0.097731 3.000000
-0.466955 -0.044814 0.038327 3.000000
-0.466955 -0.000101 0.064051 3.000000
-0.466955 -0.015870 -0.010291 3.000000
-0.466955 -0.087876 0.013790 3.000000
-0.466955 -0.027140 0.077487 3.000000
-0.466955 0.051939 0.080597 3.000000
-0.466955 -0.032802 0.018867 3.000000
-0.466955 0.015925 0.040311 3.000000
-0.466955 0.039957 0.074834 3.000000
-0.466955 0.064434 -0.047882 3.000000
-0.466955 0.049017 0.013786 3.000000
-0.466955 0.051699 0.051852 3.000000
-0.466955 -0.058010 0.024582 3.000000
-0.466955 0.002536 0.029057 3.000000
-0.466955 -0.044345 0.082604 3.000000
-0.466955 -0.026463 -0.015744 3.000000
-0.466955 -0.037919 -0.032300 3.000000
-0.466955 0.024413 0.041826 3.000000
-0.466955 0.018672 -0.023104 3.000000
-0.466955 -0.057922 0.065750 3.000000
-0.466955 0.030791 0.070596 3.000000
-0.466955 0.023493 0.025757 3.000000
-0.466955 0.006165 -0.062141 3.000000
-0.466955 0.002337 -0.053885 3.000000
-0.466955 -0.048254 -0.001177 3.000000
-0.466955 -0.058591 0.078378 3.000000
-0.466955 -0.061986 -0.001883 3.000000
-0.466955 -0.009126 0.053362 3.000000
-0.466955 -0.029977 0.080667 3.000000
-0.466955 -0.038536 -0.077792 3.000000
-0.466955 -0.015707 0.011867 3.000000
-0.466955 -0.079457 -0.010489 3.000000
-0.466955 0.048010 -0.049293 3.000000
-0.466955 -0.076748 0.018034 3.000000
-0.466955 0.040564 0.002934 3.000000
-0.466955 0.006758 -0.004557 3.000000
-0.466955 0.059169 -0.022514 3.000000
-0.466955 -0.081755 0.042578 3.000000
-0.466955 0.036401 0.036181 3.000000
-0.466955 0.034786 -0.069692 3.000000
-0.466955 0.048172 -0.066149 3.000000
-0.466955 0.069977 0.015492 3.000000
-0.466955 -0.084128 0.018817 3.000000
-0.466955 -0.020132 -0.028660 3.000000
-0.466955 -0.061962 0.061040 3.000000
-0.466955 0.041450 0.048023 3.000000
-0.466955 0.009107 -0.062292 3.000000
-0.466955 -0.056272 0.063492 3.000000
-0.466955 -0.051536 0.074059 3.000000
-0.466955 -0.012911 0.095297 3.000000
-0.466955 0.014343 -0.005239 3.000000
-0.466955 -0.022295 0.065187 3.000000
-0.466955 0.077422 -0.012695 3.000000
-0.466955 -0.094032 0.010393 3.000000
-0.466955 0.088918 0.026052 3.000000
-0.466955 0.059539 -0.008159 3.000000
-0.466955 0.003185 -0.056635 3.000000
-0.466955 -0.049632 -0.042224 3.000000
-0.466955 -0.058467 0.036261 3.000000
-0.466955 0.050490 -0.001461 3.000000
-0.466955 0.088427 0.024412 3.000000
-0.466955 0.000927 0.006093 3.000000
-0.466955 -0.019818 0.072056 3.000000
-0.466955 0.006145 -0.018790 3.000000
-0.466955 -0.015284 -0.062189 3.000000
-0.466955 0.049338 0.039846 3.000000
-0.466955 -0.059837 -0.016277 3.000000
-0.466955 -0.046908 0.033701 3.000000
-0.466955 0.052227 -0.011639 3.000000
-0.466955 -0.025411 0.068769 3.000000
-0.466955 -0.030570 -0.026772 3.000000
-0.466955 0.028106 0.038181 3.000000
-0.466955 -0.024023 -0.010696 3.000000
-0.466955 0.062367 0.003139 3.000000
-0.466955 0.004744 -0.059801 3.000000
-0.466955 -0.046717 -0.084133 3.000000
-0.466955 -0.066149 0.062123 3.000000
-0.466955 0.067793 0.007637 3.000000
-0.466955 -0.067697 -0.003206 3.000000
-0.466955 0.058288 -0.030348 3.000000
-0.466955 0.089370 0.039716 3.000000
-0.466955 0.015276 0.042927 3.000000
-0.466955 0.061622 0.006276 3.000000
-0.466955 -0.043875 -0.056916 3.000000
-0.466955 -0.088426 0.000121 3.000000
-0.466955 -0.031007 -0.056691 3.000000
-0.466955 0.086770 0.001853 3.000000
-0.466955 -0.073769 -0.023582 3.000000
-0.466955 0.051500 -0.078826 3.000000
-0.466955 0.021494 0.078936 3.000000
-0.466955 -0.044358 -0.050962 3.000000
-0.466955 -0.044265 0.012116 3.000000
-0.466955 0.032164 -0.050168 3.000000
-0.466955 -0.050752 0.075713 3.000000
-0.466955 0.083583 -0.009693 3.000000
-0.466955 0.023045 0.042053 3.000000
-0.466955 0.004177 -0.005359 3.000000
-0.466955 -0.041928 -0.055068 3.000000
-0.466955 0.056068 -0.075553 3.000000
-0.466955 0.053033 0.035727 3.000000
-0.466955 -0.032853 0.014458 3.000000
-0.466955 0.001938 -0.087153 3.000000
-0.466955 -0.026036 0.088251 3.000000
-0.466955 -0.029363 -0.046872 3.000000
-0.466955 0.000368 -0.023313 3.000000
-0.466955 0.091617 0.010618 3.000000
-0.466955 -0.049906 -0.060657 3.000000
-0.466955 0.045018 0.074080 3.000000
-0.466955 -0.008763 -0.050520 3.000000
-0.466955 0.079917 0.059940 3.000000
-0.466955 0.013848 0.009227 3.000000
-0.466955 -0.042373 0.018074 3.000000
-0.466955 0.011283 -0.079514 3.000000
-0.466955 -0.045508 0.061769 3.000000
-0.466955 0.003729 0.045102 3.000000
-0.466955 -0.013497 -0.074721 3.000000
-0.466955 -0.072276 0.060156 3.000000
-0.466955 0.001395 -0.044195 3.000000
-0.466955 0.078633 -0.054379 3.000000
-0.466955 -0.020036 -0.037952 3.000000
-0.466955 0.052910 -0.028591 3.000000
-0.466955 0.066601 -0.032979 3.000000
-0.466955 -0.029469 -0.010764 3.000000
-0.466955 -0.035379 -0.057944 3.000000
-0.466955 -0.070710 -0.045196 3.000000
-0.466955 0.021101 -0.075305 3.000000
-0.466955 0.036821 -0.054326 3.000000
-0.466955 0.023017 -0.065696 3.000000
-0.466955 -0.062982 -0.061995 3.000000
-0.466955 0.073303 -0.052210 3.000000
-0.466955 0.017085 -0.013165 3.000000
-0.466955 0.089099 0.004147 3.000000
-0.466955 0.006689 0.051470 3.000000
-0.466955 -0.034543 -0.054522 3.000000
-0.466955 -0.027155 0.073176 3.000000
-0.466955 -0.021644 -0.038178 3.000000
-0.466955 0.026206 -0.050400 3.000000
-0.466955 0.041157 0.015923 3.000000
-0.466955 -0.046899 -0.065003 3.000000
-0.466955 -0.069459 0.029326 3.000000
-0.466955 0.014724 0.005470 3.000000
-0.466955 0.002202 0.095058 3.000000
-0.466955 -0.006327 -0.061144 3.000000
-0.466955 0.041630 -0.045065 3.000000
-0.466955 0.002996 0.007182 3.000000
-0.466955 -0.029551 0.010906 3.000000
-0.466955 -0.045199 -0.081714 3.000000
-0.466955 0.001492 0.015272 3.000000
-0.466955 -0.038719 -0.040257 3.000000
-0.466955 -0.076165 -0.035914 3.000000
-0.466955 -0.083000 -0.015125 3.000000
-0.466955 0.015767 -0.076423 3.000000
-0.466955 0.037920 0.032716 3.000000
-0.466955 -0.096981 0.020895 3.000000
-0.466955 -0.073384 -0.014710 3.000000
-0.466955 0.022811 -0.014139 3.000000
-0.466955 0.045790 0.031802 3.000000
-0.466955 -0.075376 -0.002463 3.000000
-0.466955 0.012380 0.064307 3.000000
-0.466955 0.036484 0.056542 3.000000
-0.466955 -0.019046 0.041734 3.000000
-0.466955 0.081328 0.023888 3.000000
-0.466955 -0.009190 0.006749 3.000000
-0.466955 0.022644 -0.003753 3.000000
-0.466955 0.078558 -0.017063 3.000000
-0.466955 -0.029672 0.044030 3.000000
-0.466955 -0.044996 -0.084626 3.000000
-0.466955 -0.074767 -0.042127 3.000000
-0.466955 0.043171 -0.079912 3.000000
-0.466955 -0.041790 0.078534 3.000000
-0.466955 -0.034483 -0.016104 3.000000
-0.466955 0.005392 0.043501 3.000000
-0.466955 -0.047650 0.006511 3.000000
-0.466955 -0.033039 0.091861 3.000000
-0.466955 -0.092002 0.031104 3.000000
-0.466955 0.039634 0.077806 3.000000
-0.466955 0.044749 0.045811 3.000000
-0.466955 0.016339 -0.014475 3.000000
-0.466955 0.049673 -0.055792 3.000000
-0.466955 -0.089657 -0.027161 3.000000
-0.466955 -0.017767 0.072641 3.000000
-0.466955 -0.025360 0.079712 3.000000
-0.466955 -0.044616 -0.028372 3.000000
-0.466955 -0.072192 -0.022192 3.000000
-0.466955 0.064972 0.016916 3.000000
-0.466955 0.046218 -0.022199 3.000000
-0.466955 0.054764 -0.019165 3.000000
-0.466955 0.015056 0.062873 3.000000
-0.466955 0.040278 0.091306 3.000000
-0.466955 0.057579 0.041523 3.000000
-0.466955 0.078113 0.045248 3.000000
-0.466955 0.071105 -0.060108 3.000000
-0.466955 0.011530 -0.091806 3.000000
-0.466955 -0.018877 0.077377 3.000000
-0.466955 0.059672 -0.037531 3.000000
-0.466955 0.032064 0.052101 3.000000
-0.466955 0.010478 0.014091 3.000000
-0.466955 0.053164 0.048690 3.000000
-0.466955 -0.048860 0.038129 3.000000
-0.466955 0.024177 -0.001551 3.000000
-0.466955 -0.008438 0.029616 3.000000
-0.466955 0.045008 0.033144 3.000000
-0.466955 0.025003 0.090168 3.000000
-0.466955 -0.072702 0.045538 3.000000
-0.466955 -0.031457 0.015137 3.000000
-0.466955 0.043209 0.070454 3.000000
-0.466955 -0.049138 0.062478 3.000000
-0.466955 -0.052997 -0.051307 3.000000
-0.466955 0.072436 -0.065329 3.000000
-0.466955 -0.029274 -0.088987 3.000000
-0.466955 0.086392 -0.040882 3.000000
-0.466955 -0.029412 0.017170 3.000000
-0.466955 -0.023315 0.059665 3.000000
-0.466955 0.015456 -0.055577 3.000000
-0.466955 0.000774 0.085091 3.000000
-0.466955 0.048693 0.076560 3.000000
-0.466955 -0.031766 0.029167 3.000000
-0.466955 0.033692 0.019737 3.000000
-0.466955 -0.035464 -0.073041 3.000000
-0.466955 -0.041709 -0.016464 3.000000
-0.466955 0.061333 0.025948 3.000000
-0.466955 0.004154 0.035761 3.000000
-0.466955 -0.058023 -0.016408 3.000000
-0.466955 0.094519 -0.009235 3.000000
-0.466955 -0.021709 0.086213 3.000000
-0.466955 -0.056162 0.046698 3.000000
-0.466955 -0.005021 0.065208 3.000000
-0.466955 -0.060479 -0.059392 3.000000
-0.466955 0.041343 0.083729 3.000000
-0.466955 0.089418 -0.002832 3.000000
-0.466955 0.072291 0.027429 3.000000
-0.466955 0.016281 0.036071 3.000000
-0.466955 0.029891 0.025350 3.000000
-0.466955 -0.029739 0.005358 3.000000
-0.466955 0.013224 0.060578 3.000000
-0.466955 -0.069856 -0.019967 3.000000
-0.466955 0.051895 -0.005476 3.000000
-0.466955 -0.066011 0.046229 3.000000
-0.466955 -0.074005 -0.027640 3.000000
-0.466955 0.064086 0.006293 3.000000
-0.466955 0.025933 -0.090075 3.000000
-0.466955 0.044334 0.004006 3.000000
-0.466955 -0.077788 -0.062128 3.000000
-0.466955 -0.013257 0.051305 3.000000
-0.466955 0.017296 -0.096807 3.000000
-0.466955 -0.004415 -0.070740 3.000000
-0.466955 -0.021035 0.080688 3.000000
-0.466955 -0.064349 0.039473 3.000000
-0.466955 -0.036601 0.068183 3.000000
-0.466955 0.077940 0.049965 3.000000
-0.466955 -0.022694 0.037994 3.000000
-0.466955 0.024442 -0.005878 3.000000
-0.466955 0.030929 -0.077815 3.000000
-0.466955 -0.001762 0.030597 3.000000
-0.466955 -0.014853 -0.056722 3.000000
-0.466955 0.021502 -0.011898 3.000000
-0.466955 -0.027020 0.019513 3.000000
-0.466955 0.005605 0.032870 3.000000
-0.466955 -0.020631 0.017137 3.000000
-0.466955 -0.087314 0.003195 3.000000
-0.466955 0.049648 0.033550 3.000000
-0.466955 0.021583 -0.023464 3.000000
-0.466955 -0.056247 0.011738 3.000000
-0.466955 0.028604 0.001224 3.000000
-0.466955 -0.054095 0.079022 3.000000
-0.466955 -0.088719 -0.014898 3.000000
-0.466955 0.010921 -0.015607 3.000000
-0.466955 -0.022189 -0.096529 3.000000
-0.466955 -0.047295 0.021519 3.000000
-0.466955 -0.004847 0.021932 3.000000
-0.466955 -0.037072 0.027423 3.000000
-0.466955 -0.016034 0.096765 3.000000
-0.466955 -0.029112 -0.002118 3.000000
-0.466955 0.035994 -0.063522 3.000000
-0.466955 0.034126 0.057000 3.000000
-0.466955 0.009396 0.030633 3.000000
-0.466955 -0.094194 0.006964 3.000000
-0.466955 0.008898 0.055184 3.000000
-0.466955 -0.023639 0.076842 3.000000
-0.466955 -0.015030 0.082682 3.000000
-0.466955 -0.074075 -0.011195 3.000000
-0.466955 0.072187 -0.061180 3.000000
-0.466955 0.084499 -0.032393 3.000000
-0.466955 0.010611 -0.095483 3.000000
-0.466955 0.061319 -0.045603 3.000000
-0.466955 -0.000078 -0.076604 3.000000
-0.466955 -0.067737 0.021782 3.000000
-0.466955 0.052404 0.047421 3.000000
-0.466955 0.003234 0.064075 3.000000
-0.466955 -0.036096 -0.034675 3.000000
-0.466955 -0.068244 0.010997 3.000000
-0.466955 -0.027959 0.027514 3.000000
-0.466955 -0.010140 -0.073036 3.000000
-0.466955 -0.019646 0.029483 3.000000
-0.466955 0.010285 -0.041873 3.000000
-0.466955 0.003995 0.012608 3.000000
-0.466955 0.044735 -0.032872 3.000000
-0.466955 0.056942 0.036139 3.000000
-0.466955 0.015907 0.011910 3.000000
-0.466955 0.072833 0.059193 3.000000
-0.466955 0.016162 -0.061669 3.000000
-0.466955 -0.001358 0.019937 3.000000
-0.466955 -0.009158 -0.087945 3.000000
-0.466955 0.089119 -0.017837 3.000000
-0.466955 0.040017 -0.061556 3.000000
-0.466955 0.017873 -0.078331 3.000000
-0.466955 0.027262 -0.074962 3.000000
-0.466955 -0.021793 0.040392 3.000000
-0.466955 -0.018260 -0.077471 3.000000
-0.466955 -0.048912 0.082821 3.000000
-0.466955 -0.067897 -0.017828 3.000000
-0.466955 -0.007062 -0.012619 3.000000
-0.466955 -0.089058 0.001551 3.000000
-0.466955 0.076622 0.059288 3.000000
-0.466955 -0.056802 0.075155 3.000000
-0.466955 0.037020 0.087415 3.000000
-0.466955 0.067307 -0.062586 3.000000
-0.466955 -0.047210 -0.026413 3.000000
-0.466955 -0.000978 -0.040150 3.000000
-0.466955 0.053024 -0.076330 3.000000
-0.466955 -0.032655 0.008226 3.000000
-0.466955 0.080182 -0.001407 3.000000
-0.466955 -0.047628 -0.059473 3.000000
-0.466955 -0.088608 -0.041077 3.000000
-0.466955 0.063526 0.009751 3.000000
-0.466955 -0.051405 -0.027017 3.000000
-0.466955 -0.001623 -0.083480 3.000000
-0.466955 -0.088657 0.020850 3.000000
-0.466955 0.034154 -0.092523 3.000000
-0.466955 -0.042629 0.025384 3.000000
-0.466955 0.072491 -0.024854 3.000000
-0.466955 0.036517 0.002307 3.000000
-0.466955 -0.076486 0.063851 3.000000
-0.466955 0.097592 0.015794 3.000000
-0.466955 -0.056168 -0.051956 3.000000
-0.466955 -0.054518 -0.069310 3.000000
-0.466955 0.004470 -0.012939 3.000000
-0.466955 0.045905 -0.036491 3.000000
-0.466955 0.088990 0.037858 3.000000
-0.466955 0.083597 -0.020660 3.000000
-0.466955 -0.001941 0.094942 3.000000
-0.466955 -0.024246 -0.022771 3.000000
-0.466955 0.057880 -0.074996 3.000000
-0.466955 0.026851 -0.015779 3.000000
-0.466955 -0.047490 0.019002 3.000000
-0.466955 0.020274 -0.067574 3.000000
-0.466955 0.068070 -0.042075 3.000000
-0.466955 -0.020817 0.025975 3.000000
-0.466955 0.025024 -0.077847 3.000000
-0.466955 0.000244 -0.078484 3.000000
-0.466955 -0.080738 0.027005 3.000000
-0.466955 -0.046274 -0.024647 3.000000
-0.466955 -0.036992 -0.005105 3.000000
-0.466955 -0.028391 -0.086372 3.000000
-0.466955 0.018551 0.003067 3.000000
-0.466955 0.008486 -0.001943 3.000000
-0.466955 -0.089572 0.034221 3.000000
-0.466955 -0.026797 0.029762 3.000000
-0.466955 -0.078275 0.023166 3.000000
-0.466955 -0.035449 -0.022428 3.000000
-0.466955 0.055415 0.026107 3.000000
-0.466955 -0.044307 0.009744 3.000000
-0.466955 -0.031288 0.025900 3.000000
-0.466955 -0.024723 0.049503 3.000000
-0.466955 -0.030677 -0.078628 3.000000
-0.466955 0.010611 -0.007577 3.000000
-0.466955 -0.008862 -0.012939 3.000000
-0.466955 0.023778 -0.019352 3.000000
-0.466955 0.051259 -0.042769 3.000000
-0.466955 0.049830 -0.012557 3.000000
-0.466955 -0.097551 0.005832 3.000000
-0.466955 -0.016435 0.071398 3.000000
-0.466955 -0.073885 -0.017807 3.000000
-0.466955 -0.028995 -0.026384 3.000000
-0.466955 -0.000980 0.081185 3.000000
-0.466955 -0.086697 -0.005709 3.000000
-0.466955 -0.005101 -0.037530 3.000000
-0.466955 -0.043271 -0.015711 3.000000
-0.466955 0.011721 0.052324 3.000000
-0.466955 0.023176 0.054256 3.000000
-0.466955 0.028994 -0.051367 3.000000
-0.466955 0.003463 0.020872 3.000000
-0.466955 -0.033428 0.054305 3.000000
-0.466955 -0.068087 -0.038545 3.000000
-0.466955 0.069402 -0.071529 3.000000
-0.466955 -0.056048 0.052871 3.000000
-0.466955 0.010263 0.040573 3.000000
-0.466955 0.080609 0.001838 3.000000
-0.466955 0.046379 0.021754 3.000000
-0.466955 0.088775 -0.029492 3.000000
-0.466955 0.025624 0.084140 3.000000
-0.466955 -0.030485 0.076547 3.000000
-0.466955 -0.079464 -0.047565 3.000000
-0.466955 0.027985 0.061415 3.000000
-0.466955 -0.007543 -0.037352 3.000000
-0.466955 0.003679 0.037505 3.000000
-0.466955 -0.088720 -0.003686 3.000000
-0.466955 0.073783 -0.023963 3.000000
-0.466955 -0.064257 -0.063451 3.000000
-0.466955 -0.075266 -0.058626 3.000000
-0.466955 0.070004 0.045003 3.000000
-0.466955 -0.038100 -0.012084 3.000000
-0.466955 -0.079349 -0.015235 3.000000
-0.466955 -0.053611 -0.061669 3.000000
-0.466955 -0.049747 -0.020601 3.000000
-0.466955 -0.095125 -0.007157 3.000000
-0.466955 -0.057323 -0.075432 3.000000
-0.466955 0.062498 0.070977 3.000000
-0.466955 0.094690 -0.025232 3.000000
-0.466955 -0.061744 -0.044275 3.000000
-0.466955 0.082612 0.036088 3.000000
-0.466955 -0.045467 -0.080294 3.000000
-0.466955 0.084785 -0.021533 3.000000
-0.466955 -0.069600 -0.037384 3.000000
-0.466955 -0.074963 0.044025 3.000000
-0.466955 0.036062 -0.056317 3.000000
-0.466955 0.018980 0.086319 3.000000
-0.466955 -0.065451 -0.066832 3.000000
-0.466955 0.022503 0.040566 3.000000
-0.466955 -0.044948 -0.069480 3.000000
-0.466955 -0.059980 -0.005009 3.000000
-0.466955 0.017029 -0.030626 3.000000
-0.466955 -0.036324 0.009316 3.000000
-0.466955 0.016417 0.017233 3.000000
-0.466955 -0.044216 0.071647 3.000000
-0.466955 -0.048371 -0.040020 3.000000
-0.466955 0.018740 0.071383 3.000000
-0.466955 -0.057207 0.054116 3.000000
-0.466955 0.026240 -0.070274 3.000000
-0.466955 -0.004924 -0.026640 3.000000
-0.466955 -0.007298 -0.031278 3.000000
-0.466955 0.073466 0.033070 3.000000
-0.466955 -0.078311 0.056941 3.000000
-0.466955 0.025927 0.015389 3.000000
-0.466955 -0.020581 -0.090109 3.000000
-0.466955 0.013760 -0.075123 3.000000
-0.466955 0.031822 0.038018 3.000000
-0.466955 0.012264 0.008340 3.000000
-0.466955 0.023988 0.058006 3.000000
-0.466955 -0.034735 -0.059401 3.000000
-0.466955 -0.009518 -0.075660 3.000000
-0.466955 -0.039631 0.086630 3.000000
-0.466955 -0.041991 -0.003515 3.000000
-0.466955 -0.004861 0.020328 3.000000
-0.466955 0.001151 0.021801 3.000000
-0.466955 0.001148 -0.018516 3.000000
-0.466955 -0.001111 0.066143 3.000000
-0.466955 -0.042010 0.087849 3.000000
-0.466955 0.008415 -0.091959 3.000000
-0.466955 -0.050613 0.064709 3.000000
-0.466955 -0.059714 0.014243 3.000000
-0.466955 0.029875 0.081316 3.000000
-0.466955 0.012852 0.089222 3.000000
-0.466955 -0.064687 0.065686 3.000000
-0.466955 -0.012618 0.043801 3.000000
-0.466955 0.044611 -0.017730 3.000000
-0.466955 -0.001092 0.012464 3.000000
-0.466955 0.042814 -0.048106 3.000000
-0.466955 -0.065999 0.008542 3.000000
-0.466955 -0.012521 -0.035960 3.000000
-0.466955 0.066014 -0.048269 3.000000
-0.466955 -0.050496 0.040945 3.000000
-0.466955 -0.057650 0.037596 3.000000
-0.466955 0.018098 0.050598 3.000000
-0.466955 0.054964 -0.036045 3.000000
-0.466955 0.039770 -0.045616 3.000000
-0.466955 -0.053234 -0.022661 3.000000
-0.466955 -0.013568 -0.073192 3.000000
-0.466955 -0.067697 0.035808 3.000000
-0.466955 0.060686 -0.069003 3.000000
-0.466955 -0.022078 0.014878 3.000000
-0.466955 0.017595 -0.002944 3.000000
-0.466955 -0.038451 0.056353 3.000000
-0.466955 0.062412 -0.043759 3.000000
-0.466955 -0.080077 -0.024999 3.000000
-0.466955 0.058186 -0.065000 3.000000
-0.466955 -0.039936 0.006793 3.000000
-0.466955 0.063110 -0.048597 3.000000
-0.466955 0.071852 -0.066891 3.000000
-0.466955 -0.034019 0.026952 3.000000
-0.466955 -0.027050 -0.026397 3.000000
-0.466955 -0.079956 0.042903 3.000000
-0.466955 -0.045081 -0.017337 3.000000
-0.466955 0.043681 -0.011034 3.000000
-0.466955 -0.051627 -0.006068 3.000000
-0.466955 0.068110 0.044730 3.000000
-0.466955 0.000419 -0.015945 3.000000
-0.466955 -0.065600 0.050986 3.000000
-0.466955 0.073721 -0.039950 3.000000
-0.466955 0.056275 0.005805 3.000000
-0.466955 -0.008023 -0.011601 3.000000
-0.466955 -0.098937 0.011135 3.000000
-0.466955 -0.000841 0.053838 3.000000
-0.466955 0.078002 -0.060736 3.000000
-0.466955 -0.059109 -0.067463 3.000000
-0.466955 -0.073370 0.043348 3.000000
-0.466955 -0.063835 0.025500 3.000000
-0.466955 -0.013318 -0.086657 3.000000
-0.466955 -0.077923 0.014646 3.000000
-0.466955 0.021520 -0.039890 3.000000
-0.466955 -0.004639 -0.094572 3.000000
-0.466955 0.037894 -0.087171 3.000000
-0.466955 -0.049680 -0.082169 3.000000
-0.466955 -0.028253 0.048692 3.000000
-0.466955 -0.004678 -0.013567 3.000000
-0.466955 -0.071334 -0.026416 3.000000
-0.466955 0.003712 0.078987 3.000000
-0.466955 0.051011 -0.073222 3.000000
-0.466955 -0.076508 0.030283 3.000000
-0.466955 -0.085504 -0.031514 3.000000
-0.466955 0.050351 0.047360 3.000000
-0.466955 -0.023595 -0.081077 3.000000
-0.466955 0.084336 -0.044795 3.000000
-0.466955 -0.021897 -0.026105 3.000000
-0.466955 -0.024124 -0.090995 3.000000
-0.466955 -0.009176 0.000814 3.000000
-0.466955 -0.045346 -0.003423 3.000000
-0.466955 -0.005242 0.088692 3.000000
-0.466955 0.015963 0.020533 3.000000
-0.466955 -0.018189 0.009325 3.000000
-0.466955 0.044524 -0.072467 3.000000
-0.466955 0.055846 0.042876 3.000000
-0.466955 0.015541 -0.085974 3.000000
-0.466955 -0.038845 -0.064124 3.000000
-0.466955 0.023925 -0.069203 3.000000
-0.466955 -0.038297 0.022267 3.000000
-0.466955 0.017286 -0.021652 3.000000
-0.466955 0.017885 0.021794 3.000000
-0.466955 -0.059820 -0.050391 3.000000
-0.466955 0.079418 -0.060146 3.000000
-0.466955 0.017205 0.055612 3.000000
-0.466955 -0.027535 0.057627 3.000000
-0.466955 -0.042018 -0.066912 3.000000
-0.466955 0.027137 0.065238 3.000000
-0.466955 -0.063416 -0.050566 3.000000
-0.466955 -0.066968 0.003218 3.000000
-0.466955 -0.044085 0.017073 3.000000
-0.466955 -0.053424 0.007964 3.000000
-0.466955 -0.061718 0.015390 3.000000
-0.466955 0.071537 0.023204 3.000000
-0.466955 -0.036606 -0.046904 3.000000
-0.466955 -0.089281 0.035989 3.000000
-0.466955 0.017712 -0.094994 3.000000
-0.466955 -0.024777 0.071957 3.000000
-0.466955 0.051813 0.065382 3.000000
-0.466955 -0.018838 -0.071896 3.000000
-0.466955 -0.025408 0.094448 3.000000
-0.466955 0.021741 0.051632 3.000000
-0.466955 -0.048684 -0.077594 3.000000
-0.466955 -0.038071 -0.017539 3.000000
-0.466955 0.057245 -0.078882 3.000000
-0.466955 0.025083 -0.040881 3.000000
-0.466955 0.037929 -0.010025 3.000000
-0.466955 0.018687 0.090358 3.000000
-0.466955 -0.013745 0.004256 3.000000
-0.466955 -0.065203 -0.039972 3.000000
-0.466955 0.073093 -0.036250 3.000000
-0.466955 -0.024507 0.035013 3.000000
-0.466955 0.051259 0.020037 3.000000
-0.466955 -0.078834 -0.040846 3.000000
-0.466955 -0.059945 0.040824 3.000000
-0.466955 -0.033776 0.011981 3.000000
-0.466955 0.027563 -0.052592 3.000000
-0.466955 0.031707 -0.060957 3.000000
-0.466955 -0.049260 0.024559 3.000000
-0.466955 -0.056343 0.049165 3.000000
-0.466955 -0.043633 -0.086879 3.000000
-0.466955 -0.058049 0.014010 3.000000
-0.466955 0.002105 -0.002887 3.000000
-0.466955 0.064124 0.050310 3.000000
-0.466955 -0.046475 0.068929 3.000000
-0.466955 -0.045783 -0.035774 3.000000
-0.466955 0.020932 0.009332 3.000000
-0.466955 0.042220 0.006457 3.000000
-0.466955 0.079387 0.046773 3.000000
-0.466955 -0.023198 0.029826 3.000000
-0.466955 -0.038430 0.017990 3.000000
-0.466955 0.027281 0.052519 3.000000
-0.466955 0.029148 -0.065227 3.000000
-0.466955 0.039713 -0.016944 3.000000
-0.466955 -0.003385 0.094834 3.000000
-0.466955 0.055551 -0.055278 3.000000
-0.466955 -0.058069 -0.061083 3.000000
-0.466955 -0.076181 -0.005341 3.000000
-0.466955 0.089919 0.013518 3.000000
-0.466955 0.033643 0.083439 3.000000
-0.466955 0.087227 0.010586 3.000000
-0.466955 -0.018963 -0.017713 3.000000
-0.466955 -0.058737 0.073863 3.000000
-0.466955 -0.065700 -0.006252 3.000000
-0.466955 0.087249 0.047631 3.000000
-0.466955 -0.059596 0.076463 3.000000
-0.466955 0.009356 0.090478 3.000000
-0.466955 -0.032551 -0.070874 3.000000
-0.466955 0.046205 -0.037938 3.000000
-0.466955 -0.069760 -0.040481 3.000000
-0.466955 -0.059706 -0.012498 3.000000
-0.466955 0.038273 -0.062178 3.000000
-0.466955 0.053888 0.079255 3.000000
-0.466955 0.033401 0.000467 3.000000
-0.466955 -0.031955 0.016423 3.000000
-0.466955 -0.015431 -0.001216 3.000000
-0.466955 -0.075572 0.024822 3.000000
-0.466955 -0.097298 0.002519 3.000000
-0.466955 -0.056921 -0.013090 3.000000
-0.466955 0.060223 -0.046718 3.000000
-0.466955 -0.089776 0.000310 3.000000
-0.466955 -0.010148 0.023993 3.000000
-0.466955 -0.039532 0.029346 3.000000
-0.466955 0.022178 0.001917 3.000000
-0.466955 -0.043738 0.002928 3.000000
-0.466955 -0.056830 0.004818 3.000000
-0.466955 -0.035363 0.032103 3.000000
-0.466955 0.062346 -0.072434 3.000000
-0.466955 -0.007623 0.090279 3.000000
-0.466955 0.063979 -0.035911 3.000000
-0.466955 0.081716 0.057421 3.000000
-0.466955 0.037058 -0.082270 3.000000
-0.466955 -0.022586 -0.086345 3.000000
-0.466955 -0.041067 -0.021814 3.000000
-0.466955 0.093740 0.004930 3.000000
-0.466955 -0.031328 -0.074732 3.000000
-0.466955 0.060206 0.064278 3.000000
-0.466955 -0.089500 0.005850 3.000000
-0.466955 0.041808 -0.079003 3.000000
-0.466955 0.087807 -0.018231 3.000000
-0.466955 -0.042258 -0.060941 3.000000
-0.466955 0.062163 -0.019691 3.000000
-0.466955 0.066066 0.058576 3.000000
-0.466955 -0.087612 0.047848 3.000000
-0.466955 -0.053293 -0.055213 3.000000
-0.466955 0.030541 -0.018055 3.000000
-0.466955 -0.019337 0.081656 3.000000
-0.466955 0.069834 0.070542 3.000000
-0.466955 0.011087 -0.051835 3.000000
-0.466955 0.031572 -0.001772 3.000000
-0.466955 -0.056902 -0.078224 3.000000
-0.466955 -0.079360 0.032375 3.000000
-0.466955 -0.023307 -0.076723 3.000000
-0.466955 -0.059782 0.070575 3.000000
-0.466955 -0.045383 0.000453 3.000000
-0.466955 -0.035447 -0.092621 3.000000
-0.466955 0.067628 -0.058396 3.000000
-0.466955 0.017253 -0.083781 3.000000
