0.465339 -0.012401 0.078717 2.000000
0.465339 0.042471 0.087828 2.000000
0.465339 0.071462 -0.053335 2.000000
0.465339 -0.052733 0.060352 2.000000
0.465339 0.060530 0.001043 2.000000
0.465339 0.073563 0.058550 2.000000
0.465339 0.052664 0.031406 2.000000
0.465339 -0.071133 0.011411 2.000000
0.465339 -0.037410 -0.072153 2.000000
0.465339 0.078539 -0.056741 2.000000
0.465339 -0.041699 -0.012767 2.000000
0.465339 0.046332 -0.056511 2.000000
0.465339 0.043965 0.043232 2.000000
0.465339 -0.032728 0.009425 2.000000
0.465339 0.085481 -0.037503 2.000000
0.465339 -0.032967 -0.009314 2.000000
0.465339 0.011122 0.050425 2.000000
0.465339 0.020757 0.066842 2.000000
0.465339 0.022360 -0.026341 2.000000
0.465339 0.045795 -0.067975 2.000000
0.465339 0.095749 0.027360 2.000000
0.465339 0.030106 -0.051687 2.000000
0.465339 -0.031450 0.063340 2.000000
0.465339 0.071327 -0.018204 2.000000
0.465339 0.027759 0.050355 2.000000
0.465339 -0.054602 0.074864 2.000000
0.465339 0.001176 -0.024949 2.000000
0.465339 -0.030304 -0.022995 2.000000
0.465339 -0.005245 0.070865 2.000000
0.465339 0.012401 0.042208 2.000000
0.465339 0.024646 -0.036879 2.000000
0.465339 0.090091 -0.020985 2.000000
0.465339 0.079452 0.042285 2.000000
0.465339 -0.068430 0.039374 2.000000
0.465339 0.083757 0.034792 2.000000
0.465339 -0.077847 0.006205 2.000000
0.465339 0.062313 -0.051359 2.000000
0.465339 0.013543 0.014906 2.000000
0.465339 -0.030335 -0.044544 2.000000
0.465339 -0.038141 0.030589 2.000000
0.465339 -0.095300 0.016586 2.000000
0.465339 0.028070 -0.066338 2.000000
0.465339 0.026019 -0.073610 2.000000
0.465339 0.045542 -0.002814 2.000000
0.465339 0.010194 -0.004657 2.000000
0.465339 -0.053581 0.047035 2.000000
0.465339 0.038398 0.016588 2.000000
0.465339 0.023833 0.021088 2.000000
0.465339 -0.069803 0.051507 2.000000
0.465339 0.046530 -0.046737 2.000000
0.465339 0.012920 0.000218 2.000000
0.465339 0.089271 -0.033513 2.000000
0.465339 0.011729 0.014132 2.000000
0.465339 -0.010850 0.060362 2.000000
0.465339 0.020565 -0.031177 2.000000
0.465339 -0.022942 -0.040109 2.000000
0.465339 0.078693 0.024393 2.000000
0.465339 -0.036823 0.047980 2.000000
0.465339 0.009670 -0.048544 2.000000
0.465339 -0.062584 0.051660 2.000000
0.465339 -0.041024 0.019445 2.000000
0.465339 -0.007039 -0.053847 2.000000
0.465339 -0.045275 0.070868 2.000000
0.465339 -0.021166 0.096146 2.000000
0.465339 0.000960 0.026448 2.000000
0.465339 -0.034638 0.075085 2.000000
0.465339 0.081461 -0.035196 2.000000
0.465339 -0.020464 0.060448 2.000000
0.465339 0.057588 -0.057866 2.000000
0.465339 -0.037138 0.031900 2.000000
0.465339 0.075744 0.024271 2.000000
0.465339 -0.037915 -0.068747 2.000000
0.465339 -0.084639 0.006177 2.000000
0.465339 0.072759 -0.008352 2.000000
0.465339 -0.036717 0.079350 2.000000
0.465339 0.010421 0.085575 2.000000
0.465339 0.012756 -0.074836 2.000000
0.465339 0.040576 0.071389 2.000000
0.465339 0.060343 -0.050237 2.000000
0.465339 0.091681 -0.015654 2.000000
0.465339 0.031640 -0.051535 2.000000
0.465339 -0.049396 -0.009734 2.000000
0.465339 0.085943 -0.044152 2.000000
0.465339 -0.021670 -0.000171 2.000000
0.465339 0.070877 0.040987 2.000000
0.465339 0.003314 -0.058448 2.000000
0.465339 -0.066187 0.053160 2.000000
0.465339 0.060803 0.067346 2.000000
0.465339 0.075063 -0.011417 2.000000
0.465339 -0.060901 0.071193 2.000000
0.465339 -0.067887 -0.049672 2.000000
0.465339 0.067025 0.065224 2.000000
0.465339 0.011987 -0.055290 2.000000
0.465339 -0.010725 0.000556 2.000000
0.465339 -0.007603 -0.058005 2.000000
0.465339 -0.069056 0.055877 2.000000
0.465339 -0.058560 -0.079666 2.000000
0.465339 -0.068177 0.015770 2.000000
0.465339 0.028325 0.076602 2.000000
0.465339 -0.046061 -0.054919 2.000000
0.465339 -0.020596 -0.020007 2.000000
0.465339 0.067794 -0.044136 2.000000
0.465339 -0.021383 0.077461 2.000000
0.465339 -0.003105 0.075984 2.000000
0.465339 0.011046 0.027889 2.000000
0.465339 0.087164 -0.018322 2.000000
0.465339 0.042693 0.067279 2.000000
0.465339 -0.050515 0.046241 2.000000
0.465339 -0.048598 0.065748 2.000000
0.465339 0.098467 0.016342 2.000000
0.465339 0.039386 -0.071835 2.000000
0.465339 -0.047961 -0.012604 2.000000
0.465339 -0.023380 -0.009620 2.000000
0.465339 -0.078807 0.015738 2.000000
0.465339 -0.008286 -0.032012 2.000000
0.465339 0.082869 -0.005396 2.000000
0.465339 -0.046267 -0.022094 2.000000
0.465339 -0.052572 0.084760 2.000000
0.465339 -0.013187 -0.032213 2.000000
0.465339 0.026481 0.023041 2.000000
0.465339 0.037811 0.066295 2.000000
0.465339 0.051434 -0.041539 2.000000
0.465339 -0.019669 -0.093583 2.000000
0.465339 0.021844 -0.041294 2.000000
0.465339 -0.054397 0.071170 2.000000
0.465339 -0.077120 -0.047044 2.000000
0.465339 -0.079164 -0.051746 2.000000
0.465339 -0.054013 -0.002350 2.000000
0.465339 -0.024358 0.064861 2.000000
0.465339 -0.010392 0.036505 2.000000
0.465339 0.018048 0.013524 2.000000
0.465339 0.089970 -0.008269 2.000000
0.465339 -0.025182 -0.085391 2.000000
0.465339 -0.078323 0.021541 2.000000
0.465339 -0.011561 0.083200 2.000000
0.465339 -0.015321 -0.060297 2.000000
0.465339 0.018732 0.096708 2.000000
0.465339 -0.034465 0.002614 2.000000
0.465339 -0.007390 -0.028372 2.000000
0.465339 0.044335 0.013816 2.000000
0.465339 -0.062373 0.033871 2.000000
0.465339 0.010672 -0.088885 2.000000
0.465339 -0.018675 -0.011393 2.000000
0.465339 0.025593 0.092463 2.000000
0.465339 -0.024179 -0.031145 2.000000
0.465339 -0.052237 -0.081274 2.000000
0.465339 0.066938 -0.016870 2.000000
0.465339 -0.087987 -0.039655 2.000000
0.465339 -0.009293 0.074154 2.000000
0.465339 0.085762 -0.015469 2.000000
0.465339 -0.037023 -0.073726 2.000000
0.465339 0.000776 0.060536 2.000000
0.465339 0.027133 -0.086764 2.000000
0.465339 0.081386 0.008354 2.000000
0.465339 0.008007 0.051288 2.000000
0.465339 0.021949 -0.006364 2.000000
0.465339 0.004472 -0.014069 2.000000
0.465339 -0.010703 -0.043542 2.000000
0.465339 -0.044973 0.053512 2.000000
0.465339 0.002666 0.002468 2.000000
0.465339 0.029169 -0.036182 2.000000
0.465339 -0.026888 -0.041359 2.000000
0.465339 -0.057707 0.045380 2.000000
0.465339 -0.089284 0.027905 2.000000
0.465339 0.088155 0.027629 2.000000
0.465339 -0.056947 0.081702 2.000000
0.465339 0.045390 0.086267 2.000000
0.465339 0.071917 0.009539 2.000000
0.465339 0.046402 -0.086326 2.000000
0.465339 -0.053905 0.045514 2.000000
0.465339 -0.009410 -0.021783 2.000000
0.465339 -0.033322 -0.029378 2.000000
0.465339 0.008426 -0.041317 2.000000
0.465339 0.018384 0.055219 2.000000
0.465339 -0.088258 -0.034952 2.000000
0.465339 0.003678 -0.077572 2.000000
0.465339 -0.028894 -0.000781 2.000000
0.465339 -0.074969 -0.045406 2.000000
0.465339 -0.032875 0.057466 2.000000
0.465339 0.011677 0.024489 2.000000
0.465339 0.060595 -0.045334 2.000000
0.465339 0.007199 0.080265 2.000000
0.465339 0.015232 0.054077 2.000000
0.465339 -0.090490 0.023538 2.000000
0.465339 -0.054878 0.022104 2.000000
0.465339 -0.003819 0.079528 2.000000
0.465339 0.068041 0.030335 2.000000
0.465339 -0.033797 -0.027031 2.000000
0.465339 -0.039400 0.064994 2.000000
0.465339 -0.023339 -0.018638 2.000000
0.465339 0.076195 0.019195 2.000000
0.465339 0.062634 0.046852 2.000000
0.465339 0.045669 -0.019523 2.000000
0.465339 0.015354 0.055717 2.000000
0.465339 -0.009686 0.063115 2.000000
0.465339 -0.029248 -0.012090 2.000000
0.465339 0.047729 -0.072113 2.000000
0.465339 -0.008279 0.005261 2.000000
0.465339 0.019835 0.020459 2.000000
0.465339 -0.088599 0.003806 2.000000
0.465339 -0.069231 0.033926 2.000000
0.465339 -0.012651 0.047842 2.000000
0.465339 0.063495 0.032195 2.000000
0.465339 -0.007350 -0.049990 2.000000
0.465339 0.085365 0.044282 2.000000
0.465339 -0.072114 0.038492 2.000000
0.465339 0.072407 -0.048007 2.000000
0.465339 -0.060069 -0.057283 2.000000
0.465339 -0.039730 -0.091198 2.000000
0.465339 0.049977 -0.083588 2.000000
0.465339 0.073925 -0.034811 2.000000
0.465339 0.002733 0.013151 2.000000
0.465339 0.010428 -0.016297 2.000000
0.465339 0.010576 -0.068462 2.000000
0.465339 -0.012955 0.084250 2.000000
0.465339 0.088887 -0.035670 2.000000
0.465339 0.051134 0.037836 2.000000
0.465339 -0.021855 -0.043382 2.000000
0.465339 0.015752 -0.051459 2.000000
0.465339 0.057799 0.000210 2.000000
0.465339 0.013016 0.062035 2.000000
0.465339 0.051113 -0.011810 2.000000
0.465339 -0.001810 0.066548 2.000000
0.465339 -0.003492 -0.068295 2.000000
0.465339 0.069883 -0.052544 2.000000
0.465339 -0.055997 0.036880 2.000000
0.465339 -0.018377 0.078961 2.000000
0.465339 0.049339 0.059377 2.000000
0.465339 0.031213 -0.000142 2.000000
0.465339 0.080963 -0.040524 2.000000
0.465339 -0.047459 0.003254 2.000000
0.465339 -0.065843 0.072256 2.000000
0.465339 -0.085590 -0.033656 2.000000
0.465339 -0.043288 -0.064646 2.000000
0.465339 -0.016195 0.042321 2.000000
0.465339 0.025759 0.083008 2.000000
0.465339 -0.040536 0.018009 2.000000
0.465339 -0.056699 0.057526 2.000000
0.465339 -0.065628 -0.032716 2.000000
0.465339 -0.004752 -0.005979 2.000000
0.465339 0.018795 0.088287 2.000000
0.465339 -0.048910 0.012236 2.000000
0.465339 -0.026308 0.068228 2.000000
0.465339 -0.019153 0.093992 2.000000
0.465339 -0.045202 -0.082239 2.000000
0.465339 -0.079134 -0.003820 2.000000
0.465339 0.082606 -0.008414 2.000000
0.465339 0.004839 0.032966 2.000000
0.465339 -0.033456 -0.025339 2.000000
0.465339 0.055735 -0.068169 2.000000
0.465339 -0.071416 -0.039053 2.000000
0.465339 0.006420 0.085399 2.000000
0.465339 -0.050800 0.021249 2.000000
0.465339 -0.059610 -0.053439 2.000000
0.465339 0.013678 0.027543 2.000000
0.465339 0.000742 -0.080523 2.000000
0.465339 0.034763 0.090454 2.000000
0.465339 0.002826 -0.087243 2.000000
0.465339 0.026694 -0.075060 2.000000
0.465339 -0.014553 -0.029631 2.000000
0.465339 -0.069926 -0.042014 2.000000
0.465339 0.021509 0.019754 2.000000
0.465339 -0.084125 -0.044855 2.000000
0.465339 -0.023133 0.090409 2.000000
0.465339 -0.016596 0.063372 2.000000
0.465339 -0.025318 -0.015778 2.000000
0.465339 0.035531 0.019600 2.000000
0.465339 0.013406 -0.023826 2.000000
0.465339 0.005374 -0.016045 2.000000
0.465339 -0.048774 0.059222 2.000000
0.465339 0.030098 0.016006 2.000000
0.465339 -0.017330 0.025744 2.000000
0.465339 -0.064266 0.023639 2.000000
0.465339 0.005267 0.035082 2.000000
0.465339 -0.012311 0.095425 2.000000
0.465339 -0.024705 0.054919 2.000000
0.465339 -0.034370 0.091662 2.000000
0.465339 0.001261 -0.062210 2.000000
0.465339 -0.043720 -0.071053 2.000000
0.465339 -0.006008 -0.058204 2.000000
0.465339 -0.001116 -0.049009 2.000000
0.465339 0.056627 0.006559 2.000000
0.465339 0.005606 -0.054557 2.000000
0.465339 -0.058526 -0.004905 2.000000
0.465339 0.009510 -0.078114 2.000000
0.465339 0.015145 0.004088 2.000000
0.465339 -0.065546 -0.028331 2.000000
0.465339 -0.021154 0.041439 2.000000
0.465339 0.053986 -0.045141 2.000000
0.465339 -0.035051 -0.079421 2.000000
0.465339 -0.054287 0.033986 2.000000
0.465339 0.025809 0.007094 2.000000
0.465339 -0.041802 0.078280 2.000000
0.465339 0.061661 0.062025 2.000000
0.465339 -0.031332 -0.041144 2.000000
0.465339 0.041140 -0.035129 2.000000
0.465339 0.007482 -0.071054 2.000000
0.465339 -0.016132 -0.081453 2.000000
0.465339 -0.000135 0.092666 2.000000
0.465339 -0.038020 -0.003858 2.000000
0.465339 -0.044850 -0.074922 2.000000
0.465339 -0.002291 0.073114 2.000000
0.465339 -0.024968 0.096574 2.000000
0.465339 0.048589 0.020850 2.000000
0.465339 0.055143 0.009039 2.000000
0.465339 -0.016895 0.097644 2.000000
0.465339 -0.006211 0.020482 2.000000
0.465339 -0.044178 0.038489 2.000000
0.465339 0.030557 -0.055898 2.000000
0.465339 -0.040262 -0.071018 2.000000
0.465339 0.057294 0.004821 2.000000
0.465339 0.000692 -0.089840 2.000000
0.465339 0.063325 0.021660 2.000000
0.465339 0.071503 -0.068913 2.000000
0.465339 -0.038637 -0.040874 2.000000
0.465339 -0.072121 0.041206 2.000000
0.465339 0.018406 0.018289 2.000000
0.465339 -0.007430 0.060679 2.000000
0.465339 0.074847 -0.057135 2.000000
0.465339 -0.069780 0.024055 2.000000
0.465339 0.072249 0.063930 2.000000
0.465339 0.011712 0.075568 2.000000
0.465339 -0.092917 0.011397 2.000000
0.465339 -0.027867 0.053239 2.000000
0.465339 -0.024173 0.026680 2.000000
0.465339 0.079885 0.044241 2.000000
0.465339 0.014950 -0.022680 2.000000
0.465339 -0.066358 -0.008236 2.000000
0.465339 0.004149 -0.099395 2.000000
0.465339 -0.059335 0.076586 2.000000
0.465339 -0.028670 -0.006088 2.000000
0.465339 -0.025512 -0.046430 2.000000
0.465339 0.087876 0.007583 2.000000
0.465339 -0.044995 -0.049822 2.000000
0.465339 0.053721 0.004768 2.000000
0.465339 -0.032184 0.066507 2.000000
0.465339 -0.040516 -0.045842 2.000000
0.465339 0.007482 0.025028 2.000000
0.465339 -0.045929 0.024820 2.000000
0.465339 -0.066519 -0.034700 2.000000
0.465339 -0.056715 -0.070210 2.000000
0.465339 0.007530 0.000299 2.000000
0.465339 0.065801 0.041950 2.000000
0.465339 -0.090393 0.019318 2.000000
0.465339 0.048675 -0.051966 2.000000
0.465339 0.061692 -0.012301 2.000000
0.465339 -0.012446 -0.017470 2.000000
0.465339 -0.016528 0.019372 2.000000
0.465339 -0.012950 -0.064496 2.000000
0.465339 -0.067474 0.055917 2.000000
0.465339 -0.065878 0.059087 2.000000
0.465339 0.020880 0.077525 2.000000
0.465339 -0.047633 0.012819 2.000000
0.465339 -0.073751 0.064529 2.000000
0.465339 -0.085111 0.016693 2.000000
0.465339 -0.003708 0.074470 2.000000
0.465339 -0.061339 -0.002523 2.000000
0.465339 0.057211 -0.079429 2.000000
0.465339 -0.064632 0.026876 2.000000
0.465339 0.021909 0.091552 2.000000
0.465339 0.044556 -0.015438 2.000000
0.465339 -0.052764 -0.079851 2.000000
0.465339 0.031645 0.094838 2.000000
0.465339 -0.075682 -0.033764 2.000000
0.465339 0.059285 0.078004 2.000000
0.465339 0.069935 -0.008038 2.000000
0.465339 -0.003280 -0.073132 2.000000
0.465339 -0.036372 -0.021446 2.000000
0.465339 -0.060870 0.058305 2.000000
0.465339 -0.010830 0.016297 2.000000
0.465339 -0.026610 -0.078348 2.000000
0.465339 -0.034754 -0.072144 2.000000
0.465339 0.008037 -0.074573 2.000000
0.465339 0.037098 0.036392 2.000000
0.465339 0.044173 -0.076850 2.000000
0.465339 -0.054270 0.060094 2.000000
0.465339 0.057751 0.058411 2.000000
0.465339 0.010195 0.064459 2.000000
0.465339 -0.073149 -0.055418 2.000000
0.465339 0.069952 -0.065016 2.000000
0.465339 0.052579 0.059228 2.000000
0.465339 -0.059383 -0.050709 2.000000
0.465339 -0.071850 -0.040626 2.000000
0.465339 -0.067747 -0.063870 2.000000
0.465339 0.037663 0.050616 2.000000
0.465339 0.046737 0.049429 2.000000
0.465339 -0.065998 0.027696 2.000000
0.465339 0.000741 0.079384 2.000000
0.465339 -0.023544 -0.075562 2.000000
0.465339 0.016972 -0.094998 2.000000
0.465339 -0.053321 -0.019047 2.000000
0.465339 0.054586 0.051576 2.000000
0.465339 -0.011607 0.054471 2.000000
0.465339 0.017399 0.046820 2.000000
0.465339 0.084819 -0.033469 2.000000
0.465339 -0.000206 0.045512 2.000000
0.465339 -0.014312 -0.009061 2.000000
0.465339 -0.093473 0.027715 2.000000
0.465339 0.082170 -0.041371 2.000000
0.465339 -0.044091 0.042472 2.000000
0.465339 -0.004136 0.023752 2.000000
0.465339 0.007486 0.063758 2.000000
0.465339 -0.038676 0.042391 2.000000
0.465339 -0.027953 -0.016575 2.000000
0.465339 0.071260 -0.063934 2.000000
0.465339 0.081081 0.043310 2.000000
0.465339 0.007409 -0.061411 2.000000
0.465339 -0.031833 0.078016 2.000000
0.465339 0.012050 -0.013460 2.000000
0.465339 -0.035646 -0.004409 2.000000
0.465339 -0.038310 -0.055594 2.000000
0.465339 0.010390 0.061606 2.000000
0.465339 -0.021053 -0.006333 2.000000
0.465339 -0.078639 -0.057901 2.000000
0.465339 0.009635 -0.028985 2.000000
0.465339 0.053706 0.032654 2.000000
0.465339 -0.072894 0.017115 2.000000
0.465339 0.044441 -0.003997 2.000000
0.465339 -0.029538 -0.038358 2.000000
0.465339 -0.031408 0.079683 2.000000
0.465339 0.080879 0.030940 2.000000
0.465339 0.063230 -0.008584 2.000000
0.465339 -0.019955 0.062217 2.000000
0.465339 -0.076648 0.035608 2.000000
0.465339 0.014626 0.000523 2.000000
0.465339 -0.060136 0.046333 2.000000
0.465339 0.029459 -0.089895 2.000000
0.465339 0.010866 -0.021302 2.000000
0.465339 0.067608 -0.022569 2.000000
0.465339 0.013728 0.006809 2.000000
0.465339 -0.012773 -0.058358 2.000000
0.465339 0.060524 0.022547 2.000000
0.465339 -0.052287 -0.009248 2.000000
0.465339 -0.068279 -0.044045 2.000000
0.465339 -0.084031 -0.039484 2.000000
0.465339 -0.055897 -0.029448 2.000000
0.465339 -0.001234 0.060899 2.000000
0.465339 -0.080296 -0.055341 2.000000
0.465339 0.051417 -0.065664 2.000000
0.465339 -0.003645 -0.033488 2.000000
0.465339 -0.007593 -0.033622 2.000000
0.465339 -0.009701 -0.036668 2.000000
0.465339 0.054794 -0.076868 2.000000
0.465339 0.028849 0.081278 2.000000
0.465339 -0.008746 0.090778 2.000000
0.465339 0.077301 0.053352 2.000000
0.465339 0.011976 0.069902 2.000000
0.465339 0.083387 0.052641 2.000000
0.465339 0.014347 0.002311 2.000000
0.465339 -0.072147 0.010388 2.000000
0.465339 0.071997 0.000069 2.000000
0.465339 -0.033866 -0.089944 2.000000
0.465339 -0.026455 0.095878 2.000000
0.465339 -0.015291 -0.055264 2.000000
0.465339 -0.060144 -0.026479 2.000000
0.465339 -0.030131 -0.013567 2.000000
0.465339 0.006920 0.042105 2.000000
0.465339 -0.006737 -0.093652 2.000000
0.465339 -0.005992 0.087167 2.000000
0.465339 0.043042 0.027538 2.000000
0.465339 -0.069865 -0.019077 2.000000
0.465339 0.077595 -0.019652 2.000000
0.465339 0.053934 0.079258 2.000000
0.465339 0.009586 -0.032386 2.000000
0.465339 0.027758 -0.031332 2.000000
0.465339 0.080138 0.045655 2.000000
0.465339 0.024385 0.053569 2.000000
0.465339 -0.088697 -0.038028 2.000000
0.465339 -0.019162 0.071367 2.000000
0.465339 -0.009023 -0.007793 2.000000
0.465339 -0.022460 -0.046031 2.000000
0.465339 -0.035224 0.017468 2.000000
0.465339 0.008470 0.056079 2.000000
0.465339 0.052990 -0.042365 2.000000
0.465339 -0.041813 -0.078089 2.000000
0.465339 -0.019476 0.038811 2.000000
0.465339 0.057920 -0.013848 2.000000
0.465339 0.041210 0.052236 2.000000
0.465339 0.029412 -0.020733 2.000000
0.465339 -0.004201 0.032371 2.000000
0.465339 -0.040176 0.084159 2.000000
0.465339 0.027633 -0.032805 2.000000
0.465339 -0.079879 -0.011601 2.000000
0.465339 -0.062640 0.004585 2.000000
0.465339 -0.041876 -0.023454 2.000000
0.465339 0.060295 -0.075336 2.000000
0.465339 0.069731 0.029631 2.000000
0.465339 0.069940 -0.013267 2.000000
0.465339 -0.035868 -0.024171 2.000000
0.465339 -0.008630 0.097220 2.000000
0.465339 -0.091956 -0.024890 2.000000
0.465339 -0.063058 0.054992 2.000000
0.465339 -0.061184 -0.075638 2.000000
0.465339 0.067064 -0.052390 2.000000
0.465339 -0.092029 0.024408 2.000000
0.465339 0.009019 0.043948 2.000000
0.465339 0.021132 -0.036859 2.000000
0.465339 -0.052282 0.030471 2.000000
0.465339 -0.006720 -0.036142 2.000000
0.465339 0.066354 -0.000376 2.000000
0.465339 -0.073929 -0.003167 2.000000
0.465339 0.051026 0.001576 2.000000
0.465339 0.055781 0.036076 2.000000
0.465339 -0.014355 0.060465 2.000000
0.465339 0.001986 0.037749 2.000000
0.465339 0.022183 0.067016 2.000000
0.465339 -0.052801 0.044670 2.000000
0.465339 -0.064448 0.073030 2.000000
0.465339 0.037196 0.073380 2.000000
0.465339 -0.020195 0.031858 2.000000
0.465339 -0.085665 -0.007575 2.000000
0.465339 -0.065152 -0.001140 2.000000
0.465339 -0.022711 0.023570 2.000000
0.465339 0.022360 0.078493 2.000000
0.465339 -0.042846 -0.089510 2.000000
0.465339 -0.044032 0.083737 2.000000
0.465339 0.042584 0.086471 2.000000
0.465339 0.015818 -0.006761 2.000000
0.465339 -0.016210 0.033015 2.000000
0.465339 -0.049110 0.018858 2.000000
0.465339 -0.088431 -0.041350 2.000000
0.465339 -0.071849 -0.055868 2.000000
0.465339 -0.092981 -0.012459 2.000000
0.465339 0.010368 0.013164 2.000000
0.465339 -0.006403 0.011109 2.000000
0.465339 -0.096667 0.010113 2.000000
0.465339 0.030921 0.067044 2.000000
0.465339 -0.057778 0.018030 2.000000
0.465339 0.036242 -0.057274 2.000000
0.465339 -0.071143 -0.067198 2.000000
0.465339 -0.008531 0.077067 2.000000
0.465339 -0.040068 0.089674 2.000000
0.465339 -0.056238 0.033481 2.000000
0.465339 -0.004264 0.096615 2.000000
0.465339 0.064861 0.015619 2.000000
0.465339 0.059661 -0.057372 2.000000
0.465339 -0.090571 -0.010439 2.000000
0.465339 -0.010873 0.006731 2.000000
0.465339 -0.019298 0.077595 2.000000
0.465339 0.005331 -0.082456 2.000000
0.465339 -0.068555 -0.004869 2.000000
0.465339 -0.019797 0.009770 2.000000
0.465339 0.018749 -0.000005 2.000000
0.465339 -0.059401 -0.065951 2.000000
0.465339 -0.007346 -0.052129 2.000000
0.465339 -0.000677 0.038873 2.000000
0.465339 -0.040493 0.008621 2.000000
0.465339 -0.000145 -0.015925 2.000000
0.465339 -0.012884 0.010818 2.000000
0.465339 -0.049767 -0.012838 2.000000
0.465339 -0.010678 0.039366 2.000000
0.465339 -0.098379 -0.015706 2.000000
0.465339 -0.039569 0.057958 2.000000
0.465339 0.043740 0.038741 2.000000
0.465339 -0.083023 0.024766 2.000000
0.465339 -0.058341 0.052850 2.000000
0.465339 -0.045678 0.066446 2.000000
0.465339 -0.033525 0.054735 2.000000
0.465339 0.034086 0.083574 2.000000
0.465339 0.022331 0.028497 2.000000
0.465339 0.036859 0.068652 2.000000
0.465339 0.076174 -0.043210 2.000000
0.465339 0.029435 -0.052950 2.000000
0.465339 -0.003214 -0.051941 2.000000
0.465339 0.058835 0.060377 2.000000
0.465339 0.010884 0.056615 2.000000
0.465339 0.033686 0.078812 2.000000
0.465339 -0.037934 -0.050312 2.000000
0.465339 0.063003 -0.017378 2.000000
0.465339 0.060749 -0.052142 2.000000
0.465339 0.091276 -0.030794 2.000000
0.465339 -0.028787 -0.028720 2.000000
0.465339 0.053656 -0.021340 2.000000
0.465339 0.069031 0.055701 2.000000
0.465339 0.052465 0.057827 2.000000
0.465339 -0.029525 -0.052435 2.000000
0.465339 -0.008493 0.095630 2.000000
0.465339 -0.008677 0.061316 2.000000
0.465339 0.005124 -0.038861 2.000000
0.465339 0.020331 0.005303 2.000000
0.465339 0.070322 0.066330 2.000000
0.465339 -0.073065 0.024991 2.000000
0.465339 0.016092 0.001444 2.000000
0.465339 0.010782 0.046849 2.000000
0.465339 0.026879 -0.056691 2.000000
0.465339 0.009942 -0.041947 2.000000
0.465339 -0.045144 -0.052271 2.000000
0.465339 0.009947 0.096961 2.000000
0.465339 0.087174 -0.027640 2.000000
0.465339 -0.005178 0.059506 2.000000
0.465339 -0.023661 0.057528 2.000000
0.465339 0.013746 -0.092085 2.000000
0.465339 -0.020628 0.055432 2.000000
0.465339 0.039141 -0.021461 2.000000
0.465339 0.023392 -0.032038 2.000000
0.465339 0.092137 -0.032160 2.000000
0.465339 0.031502 0.058230 2.000000
0.465339 -0.001899 -0.085569 2.000000
0.465339 0.046552 0.016355 2.000000
0.465339 -0.052910 -0.043244 2.000000
0.465339 0.020041 -0.048789 2.000000
0.465339 -0.048738 -0.031346 2.000000
0.465339 0.064823 -0.073125 2.000000
0.465339 0.026805 0.053110 2.000000
0.465339 0.057874 -0.019962 2.000000
0.465339 -0.028175 0.057548 2.000000
0.465339 0.036881 0.004087 2.000000
0.465339 0.041603 0.041152 2.000000
0.465339 0.056781 -0.067051 2.000000
0.465339 -0.038268 -0.042418 2.000000
0.465339 0.024438 -0.033242 2.000000
0.465339 -0.025066 -0.022598 2.000000
0.465339 0.060248 0.060455 2.000000
0.465339 -0.083081 0.050947 2.000000
0.465339 -0.061831 0.060903 2.000000
0.465339 -0.067773 -0.023869 2.000000
0.465339 0.064072 0.051147 2.000000
0.465339 0.043232 -0.078081 2.000000
0.465339 -0.019936 -0.097210 2.000000
0.465339 -0.034296 -0.014967 2.000000
0.465339 -0.008716 0.018572 2.000000
0.465339 -0.075398 -0.000387 2.000000
0.465339 -0.011818 0.096674 2.000000
0.465339 -0.032015 -0.044232 2.000000
0.465339 -0.014743 -0.021692 2.000000
0.465339 0.058721 -0.025570 2.000000
0.465339 -0.079751 -0.048072 2.000000
0.465339 0.030775 0.035076 2.000000
0.465339 -0.032192 -0.010859 2.000000
0.465339 0.000502 0.058548 2.000000
0.465339 0.016500 0.028201 2.000000
0.465339 -0.093629 0.013044 2.000000
0.465339 0.036484 -0.089885 2.000000
0.465339 0.075192 0.058932 2.000000
0.465339 -0.002231 0.062468 2.000000
0.465339 -0.027239 0.049471 2.000000
0.465339 0.050654 -0.082200 2.000000
0.465339 0.052092 0.068153 2.000000
0.465339 -0.040642 -0.066571 2.000000
0.465339 -0.042302 -0.001819 2.000000
0.465339 -0.096664 0.011777 2.000000
0.465339 0.075156 0.010969 2.000000
0.465339 0.010851 -0.059100 2.000000
0.465339 0.083231 -0.011500 2.000000
0.465339 0.057189 -0.015496 2.000000
0.465339 0.013482 -0.042662 2.000000
0.465339 -0.002657 -0.037188 2.000000
0.465339 -0.008882 -0.059323 2.000000
0.465339 -0.044896 0.085285 2.000000
0.465339 -0.047441 -0.067721 2.000000
0.465339 0.082545 0.028621 2.000000
0.465339 -0.085361 -0.005323 2.000000
0.465339 -0.009139 0.014979 2.000000
0.465339 0.069898 -0.050595 2.000000
0.465339 0.025584 0.016071 2.000000
0.465339 0.075264 0.025980 2.000000
0.465339 0.041996 0.073095 2.000000
0.465339 -0.010480 -0.081007 2.000000
0.465339 -0.017030 0.007481 2.000000
0.465339 -0.000368 0.007318 2.000000
0.465339 0.025562 0.025261 2.000000
0.465339 0.000626 -0.072849 2.000000
0.465339 0.020119 0.002795 2.000000
0.465339 -0.084215 -0.021911 2.000000
0.465339 0.070435 -0.026067 2.000000
0.465339 0.049513 0.057293 2.000000
0.465339 0.081396 0.041832 2.000000
0.465339 0.071152 0.017322 2.000000
0.465339 0.069034 -0.045315 2.000000
0.465339 0.060293 -0.060454 2.000000
0.465339 0.054187 0.002358 2.000000
0.465339 -0.006870 -0.040166 2.000000
0.465339 0.005453 -0.009043 2.000000
0.465339 -0.075845 -0.053197 2.000000
0.465339 0.048987 0.045937 2.000000
0.465339 0.044411 0.058512 2.000000
0.465339 -0.031357 0.026219 2.000000
0.465339 0.040328 -0.089351 2.000000
0.465339 0.011743 0.019096 2.000000
0.465339 0.020125 0.045167 2.000000
0.465339 -0.025340 0.015777 2.000000
0.465339 0.023237 -0.065691 2.000000
0.465339 -0.051095 0.011614 2.000000
0.465339 0.039618 -0.046272 2.000000
0.465339 -0.019937 -0.044692 2.000000
0.465339 0.092350 0.018280 2.000000
0.465339 0.029437 -0.084802 2.000000
0.465339 0.054274 -0.011161 2.000000
0.465339 -0.002664 -0.038998 2.000000
0.465339 0.011160 -0.006281 2.000000
0.465339 0.047712 0.029465 2.000000
0.465339 -0.044258 -0.031454 2.000000
0.465339 0.070884 -0.020430 2.000000
0.465339 0.031577 -0.032280 2.000000
0.465339 0.072393 0.065477 2.000000
0.465339 -0.005508 -0.041087 2.000000
0.465339 -0.088679 -0.004648 2.000000
0.465339 -0.002709 -0.008494 2.000000
0.465339 -0.005331 -0.019553 2.000000
0.465339 -0.039735 -0.047230 2.000000
0.465339 0.019308 -0.037159 2.000000
0.465339 -0.008634 -0.056282 2.000000
0.465339 0.065436 -0.035061 2.000000
0.465339 -0.084639 0.009568 2.000000
0.465339 0.001692 -0.093189 2.000000
0.465339 -0.001624 0.003322 2.000000
0.465339 -0.035020 -0.050035 2.000000
0.465339 0.058992 0.025001 2.000000
0.465339 -0.030602 -0.066505 2.000000
0.465339 -0.001006 -0.074425 2.000000
0.465339 -0.019824 -0.092068 2.000000
0.465339 0.069407 -0.066625 2.000000
0.465339 0.095093 0.026079 2.000000
0.465339 -0.021957 -0.080270 2.000000
0.465339 0.085201 0.007079 2.000000
0.465339 -0.064958 -0.040617 2.000000
0.465339 -0.049431 -0.044139 2.000000
0.465339 -0.062334 -0.055659 2.000000
0.465339 0.061649 0.007600 2.000000
0.465339 0.030655 0.079008 2.000000
0.465339 -0.014863 0.098855 2.000000
0.465339 0.028199 -0.049161 2.000000
0.465339 0.054306 0.027734 2.000000
0.465339 0.013643 0.072172 2.000000
0.465339 -0.021463 -0.003593 2.000000
0.465339 -0.023865 -0.017082 2.000000
0.465339 -0.049049 -0.062061 2.000000
0.465339 0.065986 -0.046882 2.000000
0.465339 0.091184 0.025570 2.000000
0.465339 0.058285 0.075506 2.000000
0.465339 -0.060872 0.048443 2.000000
0.465339 0.062018 -0.037988 2.000000
0.465339 0.020630 0.065321 2.000000
0.465339 0.067920 0.023106 2.000000
0.465339 0.052016 0.029993 2.000000
0.465339 0.026825 0.017869 2.000000
0.465339 0.029752 0.065894 2.000000
0.465339 -0.005648 -0.043908 2.000000
0.465339 -0.089229 -0.010622 2.000000
0.465339 -0.073183 0.067623 2.000000
0.465339 -0.003510 0.030122 2.000000
0.465339 -0.016057 -0.014314 2.000000
0.465339 -0.022330 -0.022494 2.000000
0.465339 0.077899 -0.033872 2.000000
0.465339 0.076730 -0.061250 2.000000
0.465339 0.012150 -0.049222 2.000000
0.465339 0.029247 -0.070596 2.000000
0.465339 0.039439 0.051324 2.000000
0.465339 0.028406 -0.017002 2.000000
0.465339 0.023458 0.084947 2.000000
0.465339 -0.029522 0.051626 2.000000
0.465339 0.002224 -0.097142 2.000000
0.465339 -0.059810 -0.014677 2.000000
0.465339 0.057369 -0.017535 2.000000
0.465339 0.050584 0.018303 2.000000
0.465339 -0.078107 0.047370 2.000000
0.465339 -0.048801 0.013862 2.000000
0.465339 0.071024 0.039252 2.000000
0.465339 -0.006012 -0.099475 2.000000
0.465339 0.055511 0.075717 2.000000
0.465339 0.018952 -0.041909 2.000000
0.465339 0.054012 0.060424 2.000000
0.465339 -0.049059 -0.083962 2.000000
0.465339 -0.084460 0.025443 2.000000
0.465339 0.094377 0.013642 2.000000
0.465339 0.006040 0.064066 2.000000
0.465339 0.055884 0.079350 2.000000
0.465339 0.052808 -0.058236 2.000000
0.465339 0.050929 0.076986 2.000000
0.465339 0.069786 -0.017021 2.000000
0.465339 0.053376 -0.019831 2.000000
0.465339 0.003620 -0.018498 2.000000
0.465339 0.068078 -0.057058 2.000000
0.465339 0.063279 0.016588 2.000000
0.465339 0.029557 0.091172 2.000000
0.465339 -0.042634 0.067034 2.000000
0.465339 0.028944 -0.027388 2.000000
0.465339 0.077160 0.044581 2.000000
0.465339 0.007133 0.031742 2.000000
0.465339 0.057372 -0.041067 2.000000
0.465339 -0.043359 0.005312 2.000000
0.465339 0.002494 0.081023 2.000000
0.465339 -0.021941 -0.017443 2.000000
0.465339 -0.076367 -0.027020 2.000000
0.465339 0.038633 -0.035938 2.000000
0.465339 -0.033167 -0.052108 2.000000
0.465339 0.055419 0.043208 2.000000
0.465339 0.063179 0.071008 2.000000
0.465339 0.025504 -0.025925 2.000000
0.465339 0.051857 -0.036401 2.000000
0.465339 -0.001245 0.099121 2.000000
0.465339 0.027766 -0.002979 2.000000
0.465339 -0.049826 0.026297 2.000000
0.465339 0.008217 -0.090615 2.000000
0.465339 -0.049361 0.050958 2.000000
0.465339 -0.033350 -0.091271 2.000000
0.465339 -0.066940 -0.031775 2.000000
0.465339 0.037207 0.014317 2.000000
0.465339 -0.088628 0.012223 2.000000
0.465339 0.013646 -0.019820 2.000000
0.465339 0.046683 0.025234 2.000000
0.465339 -0.080083 0.004552 2.000000
0.465339 0.052692 -0.044443 2.000000
0.465339 -0.022582 0.045694 2.000000
0.465339 -0.085643 -0.045662 2.000000
0.465339 0.013165 -0.059975 2.000000
0.465339 -0.032269 0.055963 2.000000
0.465339 0.071503 -0.013561 2.000000
0.465339 0.016078 0.095742 2.000000
0.465339 0.089776 0.024562 2.000000
0.465339 -0.015119 0.040145 2.000000
0.465339 -0.046755 -0.037805 2.000000
0.465339 -0.024557 -0.028423 2.000000
0.465339 -0.057586 -0.053964 2.000000
0.465339 -0.019025 -0.046602 2.000000
0.465339 -0.059560 -0.048753 2.000000
0.465339 0.064771 -0.004343 2.000000
0.465339 0.002926 -0.042470 2.000000
0.465339 -0.056141 -0.006922 2.000000
0.465339 0.008707 -0.004049 2.000000
0.465339 0.002344 -0.019394 2.000000
0.465339 0.066043 0.046638 2.000000
0.465339 0.016809 -0.043637 2.000000
0.465339 0.052133 -0.073014 2.000000
0.465339 -0.030258 -0.028780 2.000000
0.465339 0.002595 -0.050661 2.000000
0.465339 0.041438 0.044921 2.000000
0.465339 -0.017122 -0.011155 2.000000
0.465339 0.016138 -0.066335 2.000000
0.465339 0.038554 0.025599 2.000000
0.465339 -0.028523 -0.082073 2.000000
0.465339 -0.006113 -0.082034 2.000000
0.465339 0.092755 0.036688 2.000000
0.465339 0.090951 0.027160 2.000000
0.465339 -0.006076 0.046303 2.000000
0.465339 0.063570 -0.070497 2.000000
0.465339 -0.060947 -0.048698 2.000000
0.465339 0.033211 -0.022704 2.000000
0.465339 -0.074341 0.041787 2.000000
0.465339 -0.076324 0.009678 2.000000
0.465339 -0.034806 -0.051614 2.000000
0.465339 -0.043677 -0.009848 2.000000
0.465339 -0.086560 0.017394 2.000000
0.465339 -0.068047 -0.045812 2.000000
0.465339 0.015371 0.066189 2.000000
0.465339 -0.095467 -0.028157 2.000000
0.465339 -0.016496 -0.042748 2.000000
0.465339 0.035765 -0.026973 2.000000
0.465339 -0.070665 0.006480 2.000000
0.465339 0.014233 -0.098301 2.000000
0.465339 0.011151 0.054731 2.000000
0.465339 -0.005476 0.008488 2.000000
0.465339 -0.066196 -0.070203 2.000000
0.465339 -0.048902 0.082785 2.000000
0.465339 0.009866 0.095481 2.000000
0.465339 -0.055039 0.073021 2.000000
0.465339 -0.057666 0.069774 2.000000
0.465339 0.078989 -0.013847 2.000000
0.465339 0.056538 -0.048575 2.000000
0.465339 0.007971 -0.084418 2.000000
0.465339 0.012328 -0.026362 2.000000
0.465339 0.002899 0.076178 2.000000
0.465339 -0.000919 0.049771 2.000000
0.465339 -0.069771 0.008491 2.000000
0.465339 0.047949 0.004009 2.000000
0.465339 -0.096239 0.022015 2.000000
0.465339 0.083745 0.012648 2.000000
0.465339 -0.015249 -0.028348 2.000000
0.465339 -0.096319 -0.021920 2.000000
0.465339 0.039453 -0.091582 2.000000
0.465339 0.051438 -0.061928 2.000000
0.465339 0.036745 0.082991 2.000000
0.465339 0.046110 -0.059116 2.000000
0.465339 -0.060723 0.056575 2.000000
0.465339 0.004575 -0.034725 2.000000
0.465339 -0.036017 -0.085297 2.000000
0.465339 -0.082810 -0.012644 2.000000
0.465339 0.087186 -0.007213 2.000000
0.465339 -0.012843 -0.072507 2.000000
0.465339 0.003176 -0.066777 2.000000
0.465339 0.077143 0.023692 2.000000
0.465339 -0.077773 0.026672 2.000000
0.465339 -0.072767 -0.032238 2.000000
0.465339 -0.052621 0.082237 2.000000
0.465339 -0.057168 -0.020142 2.000000
0.465339 0.039145 0.047115 2.000000
0.465339 0.011303 0.065280 2.000000
0.465339 0.039903 0.032105 2.000000
0.465339 0.012400 -0.034244 2.000000
0.465339 0.021447 -0.038642 2.000000
0.465339 -0.067640 0.073209 2.000000
0.465339 -0.007692 -0.066268 2.000000
0.465339 -0.059861 0.039297 2.000000
0.465339 0.055870 0.065730 2.000000
0.465339 0.029902 0.050667 2.000000
0.465339 -0.059549 -0.047197 2.000000
0.465339 0.051732 0.040467 2.000000
0.465339 -0.070150 -0.063214 2.000000
0.465339 0.057796 0.056861 2.000000
0.465339 -0.040585 0.005733 2.000000
0.465339 -0.069425 -0.029541 2.000000
0.465339 0.008107 0.001940 2.000000
0.465339 0.027482 -0.028498 2.000000
0.465339 -0.046928 0.065937 2.000000
0.465339 0.065931 0.045074 2.000000
0.465339 0.036110 -0.007260 2.000000
0.465339 0.003852 -0.081665 2.000000
0.465339 0.031081 -0.019053 2.000000
0.465339 -0.081504 0.025027 2.000000
0.465339 0.042554 -0.063746 2.000000
0.465339 -0.036090 0.001992 2.000000
0.465339 0.067397 0.073622 2.000000
0.465339 0.000583 -0.074501 2.000000
0.465339 -0.052820 -0.058983 2.000000
0.465339 -0.044706 -0.067288 2.000000
0.465339 -0.057540 0.059103 2.000000
0.465339 0.043536 -0.017166 2.000000
0.465339 0.024263 0.066506 2.000000
0.465339 -0.084131 0.039220 2.000000
0.465339 -0.071025 0.000248 2.000000
0.465339 0.012522 0.043833 2.000000
0.465339 -0.002414 -0.064643 2.000000
0.465339 -0.038146 0.044330 2.000000
0.465339 0.019038 -0.067138 2.000000
0.465339 -0.035961 0.072379 2.000000
0.465339 0.019384 -0.029210 2.000000
0.465339 -0.031573 -0.094440 2.000000
0.465339 -0.036991 -0.025699 2.000000
0.465339 0.022253 0.086067 2.000000
0.465339 -0.050325 -0.071613 2.000000
0.465339 -0.008806 -0.067226 2.000000
0.465339 -0.015587 0.051739 2.000000
0.465339 -0.035120 0.066550 2.000000
0.465339 -0.039379 -0.073900 2.000000
0.465339 -0.024998 0.094910 2.000000
0.465339 0.017674 -0.086061 2.000000
0.465339 0.050051 0.027276 2.000000
0.465339 0.053135 0.077986 2.000000
0.465339 -0.038404 -0.081690 2.000000
0.465339 -0.018787 -0.001552 2.000000
0.465339 0.090380 0.041903 2.000000
0.465339 0.042906 -0.057843 2.000000
0.465339 -0.059557 -0.010296 2.000000
0.465339 0.029669 0.055473 2.000000
0.465339 -0.003184 0.091628 2.000000
0.465339 0.043957 0.009572 2.000000
0.465339 -0.069292 -0.034201 2.000000
0.465339 -0.005671 0.063249 2.000000
0.465339 0.014315 0.067764 2.000000
0.465339 -0.081596 -0.028574 2.000000
0.465339 0.059241 0.034017 2.000000
0.465339 -0.057969 -0.043560 2.000000
0.465339 -0.020949 0.089216 2.000000
0.465339 0.012403 0.001866 2.000000
0.465339 0.014409 -0.058948 2.000000
0.465339 0.018768 -0.063969 2.000000
0.465339 -0.052023 -0.040819 2.000000
0.465339 -0.017266 0.036870 2.000000
0.465339 -0.021552 -0.035692 2.000000
0.465339 0.071164 -0.009029 2.000000
0.465339 -0.067938 -0.008108 2.000000
0.465339 0.055538 -0.060281 2.000000
0.465339 0.042042 -0.038240 2.000000
0.465339 -0.075556 0.004677 2.000000
0.465339 -0.060296 0.053649 2.000000
0.465339 -0.040481 -0.086954 2.000000
0.465339 0.012914 -0.016249 2.000000
0.465339 0.035845 0.092838 2.000000
0.465339 -0.010008 -0.034727 2.000000
0.465339 0.053694 0.073595 2.000000
0.465339 -0.079783 -0.015456 2.000000
0.465339 -0.057293 -0.009597 2.000000
0.465339 -0.011107 0.019207 2.000000
0.465339 -0.008677 0.093189 2.000000
0.465339 -0.038005 0.023208 2.000000
0.465339 -0.027857 -0.076727 2.000000
0.465339 0.050666 -0.047045 2.000000
0.465339 -0.034494 -0.009614 2.000000
0.465339 0.062761 0.043815 2.000000
0.465339 -0.055139 0.081103 2.000000
0.465339 0.085308 0.019263 2.000000
0.465339 -0.027926 0.091804 2.000000
0.465339 -0.037146 0.054584 2.000000
0.465339 -0.038603 -0.079719 2.000000
0.465339 -0.088951 -0.003041 2.000000
0.465339 -0.030435 0.005075 2.000000
0.465339 -0.039825 0.039025 2.000000
0.465339 0.049443 -0.054111 2.000000
0.465339 0.056202 0.016526 2.000000
0.465339 0.061660 -0.022913 2.000000
0.465339 0.077857 -0.044533 2.000000
0.465339 -0.011424 -0.023001 2.000000
0.465339 -0.066058 0.056363 2.000000
0.465339 -0.041653 0.082552 2.000000
0.465339 0.028726 0.012665 2.000000
0.465339 -0.008829 0.070980 2.000000
0.465339 -0.026858 0.015573 2.000000
0.465339 0.031585 -0.014631 2.000000
0.465339 0.059719 -0.043217 2.000000
0.465339 0.046341 0.003628 2.000000
0.465339 0.086548 0.045100 2.000000
0.465339 0.009058 0.027250 2.000000
0.465339 -0.022588 0.067877 2.000000
0.465339 0.069495 0.019896 2.000000
0.465339 -0.092871 -0.033671 2.000000
0.465339 0.033849 -0.043418 2.000000
0.465339 -0.020076 0.011434 2.000000
0.465339 -0.025816 0.025972 2.000000
0.465339 -0.072500 -0.001362 2.000000
0.465339 -0.015469 0.082424 2.000000
0.465339 -0.021826 0.018036 2.000000
0.465339 0.026359 -0.035947 2.000000
0.465339 -0.009097 0.044033 2.000000
0.465339 -0.028315 0.080110 2.000000
0.465339 -0.064694 0.034415 2.000000
0.465339 0.048771 0.031640 2.000000
0.465339 0.007318 -0.025309 2.000000
0.465339 -0.061104 0.006070 2.000000
0.465339 -0.002211 0.050636 2.000000
0.465339 -0.069771 -0.061509 2.000000
0.465339 0.051209 0.067013 2.000000
0.465339 0.041053 -0.055051 2.000000
0.465339 -0.043445 -0.075920 2.000000
0.465339 0.036351 0.071754 2.000000
0.465339 0.050529 0.042048 2.000000
0.465339 0.020634 -0.008672 2.000000
0.465339 -0.050851 0.060250 2.000000
0.465339 -0.019962 -0.000537 2.000000
0.465339 -0.025316 0.019575 2.000000
0.465339 -0.097627 -0.000525 2.000000
0.465339 -0.028552 -0.007572 2.000000
0.465339 -0.043946 0.022828 2.000000
0.465339 0.047415 0.050899 2.000000
0.465339 -0.000846 -0.080975 2.000000
0.465339 -0.025200 -0.096407 2.000000
0.465339 -0.012954 -0.023333 2.000000
0.465339 0.027397 -0.001223 2.000000
0.465339 -0.089696 -0.013512 2.000000
0.465339 -0.022590 -0.054758 2.000000
0.465339 -0.037257 -0.045643 2.000000
0.465339 0.077252 0.004783 2.000000
0.465339 -0.074576 -0.030872 2.000000
0.465339 0.046457 0.061391 2.000000
0.465339 0.064126 0.074669 2.000000
0.465339 0.024447 -0.007775 2.000000
0.465339 -0.035143 -0.066343 2.000000
0.465339 -0.060266 0.064163 2.000000
0.465339 0.061667 0.011923 2.000000
0.465339 -0.050284 -0.073064 2.000000
0.465339 -0.089431 0.032249 2.000000
0.465339 -0.041203 -0.039471 2.000000
0.465339 0.046159 -0.043429 2.000000
0.465339 -0.085369 0.035773 2.000000
0.465339 -0.034294 0.008136 2.000000
0.465339 0.032659 0.000500 2.000000
0.465339 0.009407 -0.059237 2.000000
0.465339 0.074772 -0.043342 2.000000
0.465339 -0.063747 0.071681 2.000000
0.465339 -0.050707 0.083256 2.000000
0.465339 0.012447 -0.098389 2.000000
0.465339 -0.017870 0.012160 2.000000
0.465339 0.087900 -0.021894 2.000000
0.465339 0.001387 -0.031771 2.000000
0.465339 0.061642 0.065402 2.000000
0.465339 0.080079 -0.025107 2.000000
0.465339 -0.070451 -0.051453 2.000000
0.465339 0.095806 -0.000895 2.000000
0.465339 -0.058736 -0.069213 2.000000
0.465339 0.088531 -0.017435 2.000000
0.465339 -0.093786 0.016917 2.000000
0.465339 0.069986 0.012992 2.000000
0.465339 0.032323 0.082405 2.000000
0.465339 -0.093281 0.034787 2.000000
0.465339 0.035216 0.031802 2.000000
0.465339 0.007973 0.012285 2.000000
0.465339 0.000610 0.048050 2.000000
0.465339 -0.088307 0.045880 2.000000
0.465339 0.081861 0.044601 2.000000
0.465339 0.054068 -0.017577 2.000000
0.465339 0.029872 -0.088442 2.000000
0.465339 -0.003306 0.026648 2.000000
0.465339 -0.084710 0.032803 2.000000
0.465339 0.055956 0.020700 2.000000
0.465339 -0.034611 -0.070178 2.000000
0.465339 -0.025406 -0.037547 2.000000
0.465339 -0.030582 -0.039760 2.000000
0.465339 -0.052317 0.028846 2.000000
0.465339 -0.074062 -0.001155 2.000000
0.465339 0.054979 -0.029414 2.000000
0.465339 0.027103 -0.009732 2.000000
0.465339 -0.005758 0.079140 2.000000
0.465339 -0.025211 0.083710 2.000000
0.465339 0.005903 -0.014792 2.000000
0.465339 0.060499 0.032788 2.000000
0.465339 -0.026631 -0.015470 2.000000
0.465339 -0.014139 0.029180 2.000000
0.465339 0.056750 0.074969 2.000000
0.465339 0.097372 0.022303 2.000000
0.465339 0.009361 -0.079525 2.000000
0.465339 0.013815 -0.037979 2.000000
0.465339 -0.070231 -0.007955 2.000000
0.465339 -0.094485 0.011163 2.000000
0.465339 -0.044871 -0.022596 2.000000
0.465339 0.053185 0.034393 2.000000
0.465339 0.042700 0.069459 2.000000
0.465339 -0.014366 -0.024312 2.000000
0.465339 0.003962 -0.056932 2.000000
0.465339 -0.062517 -0.028195 2.000000
0.465339 -0.044201 0.002414 2.000000
0.465339 -0.020186 0.073754 2.000000
0.465339 0.013036 0.051996 2.000000
0.465339 0.065557 0.014201 2.000000
0.465339 -0.070470 0.019491 2.000000
0.465339 0.042868 -0.067511 2.000000
0.465339 0.049656 0.065008 2.000000
0.465339 -0.000601 0.016025 2.000000
0.465339 0.092973 -0.011632 2.000000
0.465339 -0.042968 -0.055459 2.000000
0.465339 0.041906 -0.068875 2.000000
0.465339 0.027054 0.025286 2.000000
0.465339 -0.050266 0.075233 2.000000
0.465339 0.037104 0.042671 2.000000
0.465339 0.016331 0.060733 2.000000
0.465339 0.044160 -0.031532 2.000000
0.465339 0.033888 -0.049461 2.000000
0.465339 -0.029985 0.033044 2.000000
0.465339 -0.026629 -0.036459 2.000000
0.465339 0.043249 -0.043014 2.000000
0.465339 -0.035121 -0.039750 2.000000
0.465339 0.065239 0.040436 2.000000
0.465339 -0.093744 0.020180 2.000000
0.465339 -0.076786 0.034018 2.000000
0.465339 0.023072 -0.045267 2.000000
0.465339 -0.056013 -0.026809 2.000000
0.465339 0.023889 0.035242 2.000000
0.465339 0.084625 -0.005717 2.000000
0.465339 0.049363 -0.073387 2.000000
0.465339 0.076722 -0.032835 2.000000
0.465339 -0.080459 -0.057996 2.000000
0.465339 0.032238 -0.071492 2.000000
0.465339 0.098297 -0.003195 2.000000
0.465339 0.044072 -0.045543 2.000000
0.465339 0.013453 0.077724 2.000000
0.465339 0.033599 0.004423 2.000000
0.465339 0.024999 -0.022317 2.000000
0.465339 -0.073824 0.066248 2.000000
0.465339 0.058937 -0.018808 2.000000
0.465339 -0.015286 -0.031661 2.000000
0.465339 -0.077940 0.024503 2.000000
0.465339 -0.053880 -0.000695 2.000000
0.465339 0.006620 -0.067193 2.000000
0.465339 -0.047012 -0.014086 2.000000
0.465339 0.025509 -0.086295 2.000000
0.465339 0.046530 -0.020900 2.000000
0.465339 -0.068210 -0.006672 2.000000
0.465339 -0.081599 0.015489 2.000000
0.465339 0.008326 0.003604 2.000000
0.465339 -0.071118 0.020800 2.000000
0.465339 -0.026678 -0.061265 2.000000
0.465339 0.025806 -0.005321 2.000000
0.465339 -0.016473 0.002774 2.000000
0.465339 0.042633 0.065879 2.000000
0.465339 0.006504 -0.073207 2.000000
0.465339 0.095194 -0.012063 2.000000
0.465339 -0.016626 0.058597 2.000000
0.465339 0.075708 0.006979 2.000000
0.465339 -0.041775 -0.079782 2.000000
0.465339 0.044634 -0.064440 2.000000
0.465339 -0.060569 0.026657 2.000000
0.465339 -0.092802 -0.000358 2.000000
0.465339 0.011951 0.053349 2.000000
0.465339 -0.064308 -0.065278 2.000000
0.465339 -0.061543 -0.025911 2.000000
0.465339 0.084818 -0.028946 2.000000
0.465339 0.098352 0.010277 2.000000
0.465339 0.086689 0.024139 2.000000
0.465339 0.008681 0.092586 2.000000
0.465339 -0.050543 0.006683 2.000000
0.465339 0.096686 -0.021245 2.000000
0.465339 0.045725 -0.001379 2.000000
0.465339 0.027249 0.095507 2.000000
0.465339 0.034188 -0.072165 2.000000
0.465339 0.002010 0.023324 2.000000
0.465339 -0.059654 -0.064394 2.000000
0.465339 -0.074397 -0.039032 2.000000
0.465339 0.065470 -0.042114 2.000000
0.465339 -0.013161 0.003603 2.000000
0.465339 0.057268 0.051600 2.000000
0.465339 0.032606 -0.053917 2.000000
0.465339 -0.046463 -0.041348 2.000000
0.465339 0.091536 0.035954 2.000000
0.465339 0.050251 -0.064387 2.000000
0.465339 0.017324 0.031519 2.000000
0.465339 -0.026471 0.084826 2.000000
0.465339 -0.043669 0.056591 2.000000
0.465339 -0.020092 -0.004778 2.000000
0.465339 -0.035658 0.076401 2.000000
0.465339 -0.070427 -0.028071 2.000000
0.465339 0.051119 -0.070817 2.000000
0.465339 0.024975 -0.081609 2.000000
0.465339 -0.094593 0.003828 2.000000
0.465339 -0.031017 -0.082437 2.000000
0.465339 0.037863 0.064634 2.000000
0.465339 -0.004628 -0.014065 2.000000
0.465339 0.090468 -0.019046 2.000000
0.465339 -0.046751 -0.042969 2.000000
0.465339 0.051923 -0.060273 2.000000
0.465339 -0.066748 -0.045285 2.000000
0.465339 0.021859 -0.085668 2.000000
0.465339 -0.012456 0.043392 2.000000
0.465339 0.011122 -0.064806 2.000000
0.465339 0.067460 0.009400 2.000000
0.465339 0.006242 -0.005739 2.000000
0.465339 -0.038397 0.008992 2.000000
0.465339 -0.051124 -0.049328 2.000000
0.465339 -0.052990 0.067372 2.000000
0.465339 0.034903 0.057636 2.000000
0.465339 -0.005086 0.000709 2.000000
0.465339 0.077191 -0.062970 2.000000
0.465339 0.021350 0.034314 2.000000
0.465339 0.083359 0.020275 2.000000
0.465339 -0.028887 0.030077 2.000000
0.465339 0.069545 0.007882 2.000000
0.465339 -0.024129 0.066797 2.000000
0.465339 0.008395 -0.080516 2.000000
0.465339 -0.064464 0.064675 2.000000
0.465339 0.053266 0.070220 2.000000
0.465339 -0.037184 -0.027720 2.000000
0.465339 0.080880 0.040230 2.000000
0.465339 0.063964 -0.067300 2.000000
0.465339 -0.042381 0.020492 2.000000
0.465339 -0.027133 -0.034927 2.000000
0.465339 -0.026986 -0.067867 2.000000
0.465339 -0.049022 -0.055358 2.000000
0.465339 0.089191 -0.038025 2.000000
0.465339 0.028537 0.083356 2.000000
0.465339 0.035720 0.018017 2.000000
0.465339 -0.003725 -0.060009 2.000000
0.465339 -0.011126 0.067167 2.000000
0.465339 -0.073453 0.050040 2.000000
0.465339 -0.010591 -0.077650 2.000000
0.465339 -0.016437 -0.039190 2.000000
0.465339 -0.022546 0.040863 2.000000
0.465339 -0.078800 -0.012544 2.000000
0.465339 0.024872 -0.046160 2.000000
0.465339 0.030178 -0.057873 2.000000
0.465339 0.033060 0.080424 2.000000
0.465339 0.026755 0.036906 2.000000
0.465339 -0.080227 -0.053496 2.000000
0.465339 0.017710 0.053980 2.000000
0.465339 0.038116 -0.045202 2.000000
0.465339 0.022463 -0.066962 2.000000
0.465339 0.063044 0.054706 2.000000
0.465339 0.046432 -0.022511 2.000000
0.465339 0.004317 0.050473 2.000000
0.465339 -0.077412 0.004626 2.000000
0.465339 -0.079271 0.040053 2.000000
0.465339 0.023899 -0.006474 2.000000
0.465339 -0.068494 0.061568 2.000000
0.465339 -0.007773 0.037356 2.000000
0.465339 0.031697 0.050474 2.000000
0.465339 0.005763 0.003745 2.000000
0.465339 0.061190 0.070048 2.000000
0.465339 0.081261 -0.008369 2.000000
0.465339 -0.051167 -0.062501 2.000000
0.465339 -0.046281 -0.072981 2.000000
0.465339 -0.042504 0.038791 2.000000
0.465339 -0.028822 0.043735 2.000000
0.465339 -0.010398 0.046881 2.000000
0.465339 0.021469 -0.096576 2.000000
0.465339 -0.032902 -0.035026 2.000000
0.465339 0.062689 0.006376 2.000000
0.465339 0.068955 0.050529 2.000000
0.465339 -0.008943 -0.028919 2.000000
0.465339 -0.050894 -0.044203 2.000000
0.465339 -0.000789 -0.055447 2.000000
0.465339 -0.002875 -0.071565 2.000000
0.465339 -0.045612 0.039693 2.000000
0.465339 0.040141 0.039075 2.000000
0.465339 -0.036918 0.026064 2.000000
0.465339 -0.074190 0.003692 2.000000
0.465339 0.000003 -0.095349 2.000000
0.465339 -0.070825 0.053551 2.000000
0.465339 -0.053190 -0.028909 2.000000
0.465339 -0.056930 -0.032121 2.000000
0.465339 -0.031040 0.058502 2.000000
0.465339 -0.055673 -0.073439 2.000000
0.465339 0.000620 0.055382 2.000000
0.465339 0.099549 -0.004036 2.000000
0.465339 0.084047 -0.042615 2.000000
0.465339 -0.070050 0.058819 2.000000
0.465339 -0.077223 -0.055842 2.000000
0.465339 0.061996 0.031742 2.000000
0.465339 0.018719 -0.006736 2.000000
0.465339 0.023461 -0.069149 2.000000
0.465339 -0.061902 0.036277 2.000000
0.465339 0.017225 0.089381 2.000000
