0.465339 -0.015364 -0.001123 2.000000
0.465339 0.027355 0.065493 2.000000
0.465339 0.041808 -0.086979 2.000000
0.465339 0.047848 -0.059025 2.000000
0.465339 0.014855 0.057071 2.000000
0.465339 0.076048 -0.012477 2.000000
0.465339 -0.038720 -0.042845 2.000000
0.465339 -0.038785 0.070816 2.000000
0.465339 -0.055336 0.061193 2.000000
0.465339 -0.058394 0.063399 2.000000
0.465339 0.049640 -0.065956 2.000000
0.465339 -0.042260 -0.028231 2.000000
0.465339 0.048368 0.070334 2.000000
0.465339 -0.019206 0.036979 2.000000
0.465339 -0.028435 0.072578 2.000000
0.465339 0.053228 -0.002911 2.000000
0.465339 0.059047 0.007547 2.000000
0.465339 0.014441 -0.076310 2.000000
0.465339 -0.056162 0.024747 2.000000
0.465339 0.020693 -0.030852 2.000000
0.465339 -0.029439 0.018502 2.000000
0.465339 -0.059470 0.044191 2.000000
0.465339 -0.013088 -0.076928 2.000000
0.465339 0.024398 -0.096362 2.000000
0.465339 0.035568 0.068825 2.000000
0.465339 -0.080780 -0.051960 2.000000
0.465339 0.072251 0.031450 2.000000
0.465339 -0.090144 0.018952 2.000000
0.465339 -0.001970 -0.040976 2.000000
0.465339 0.025185 0.084738 2.000000
0.465339 -0.051607 -0.061545 2.000000
0.465339 -0.013695 0.022704 2.000000
0.465339 -0.055783 -0.074005 2.000000
0.465339 -0.059524 0.067814 2.000000
0.465339 0.089772 0.020052 2.000000
0.465339 -0.077901 -0.045468 2.000000
0.465339 -0.009776 0.078733 2.000000
0.465339 -0.041214 -0.024768 2.000000
0.465339 -0.025944 -0.065791 2.000000
0.465339 -0.061247 0.025250 2.000000
0.465339 -0.000959 -0.048687 2.000000
0.465339 -0.021885 0.058684 2.000000
0.465339 -0.043798 0.051707 2.000000
0.465339 0.034872 -0.017809 2.000000
0.465339 0.071467 -0.056734 2.000000
0.465339 0.083498 -0.041014 2.000000
0.465339 -0.038824 0.058466 2.000000
0.465339 0.004117 -0.052538 2.000000
0.465339 0.081275 -0.008630 2.000000
0.465339 0.009037 -0.015171 2.000000
0.465339 -0.052474 0.029178 2.000000
0.465339 0.014390 -0.018219 2.000000
0.465339 -0.023160 0.026998 2.000000
0.465339 0.026350 -0.007341 2.000000
0.465339 0.012277 -0.094228 2.000000
0.465339 0.022799 0.043575 2.000000
0.465339 -0.005321 -0.017767 2.000000
0.465339 0.031678 0.054409 2.000000
0.465339 -0.078311 0.028696 2.000000
0.465339 0.045823 0.077473 2.000000
0.465339 -0.078674 0.034417 2.000000
0.465339 0.075382 -0.064207 2.000000
0.465339 -0.054847 0.056598 2.000000
0.465339 -0.037930 -0.000666 2.000000
0.465339 -0.056786 0.060895 2.000000
0.465339 0.011124 0.093188 2.000000
0.465339 -0.095134 0.015536 2.000000
0.465339 -0.034015 0.093995 2.000000
0.465339 0.083073 0.055737 2.000000
0.465339 0.069642 0.006217 2.000000
0.465339 0.009610 0.062153 2.000000
0.465339 0.023176 -0.072998 2.000000
0.465339 -0.007200 0.079596 2.000000
0.465339 0.033513 0.086830 2.000000
0.465339 0.053068 0.036322 2.000000
0.465339 -0.000537 0.037433 2.000000
0.465339 -0.094413 0.004077 2.000000
0.465339 0.087028 0.013972 2.000000
0.465339 -0.063769 0.032939 2.000000
0.465339 0.098323 -0.004324 2.000000
0.465339 -0.086427 0.003659 2.000000
0.465339 -0.025941 0.074068 2.000000
0.465339 0.006912 -0.093880 2.000000
0.465339 0.070814 0.041566 2.000000
0.465339 -0.080957 0.014694 2.000000
0.465339 0.032938 0.037654 2.000000
0.465339 0.096315 -0.009905 2.000000
0.465339 0.026956 0.070522 2.000000
0.465339 0.045537 -0.024634 2.000000
0.465339 0.081148 -0.050632 2.000000
0.465339 0.001492 -0.049853 2.000000
0.465339 -0.060113 0.070833 2.000000
0.465339 0.053690 -0.044726 2.000000
0.465339 -0.004259 -0.048861 2.000000
0.465339 0.019428 -0.078510 2.000000
0.465339 -0.011242 0.069672 2.000000
0.465339 0.010808 0.076980 2.000000
0.465339 0.055904 -0.073013 2.000000
0.465339 -0.065165 -0.057614 2.000000
0.465339 -0.026873 -0.058166 2.000000
0.465339 0.031681 0.036773 2.000000
0.465339 -0.083244 0.031148 2.000000
0.465339 0.019493 0.030080 2.000000
0.465339 0.083194 -0.010805 2.000000
0.465339 0.030605 -0.089642 2.000000
0.465339 0.061764 -0.034483 2.000000
0.465339 0.008176 0.015652 2.000000
0.465339 -0.041910 -0.074705 2.000000
0.465339 -0.060386 -0.009690 2.000000
0.465339 -0.055322 0.070566 2.000000
0.465339 0.096190 0.005286 2.000000
0.465339 -0.017771 0.013995 2.000000
0.465339 0.058596 0.074555 2.000000
0.465339 0.046286 -0.085263 2.000000
0.465339 0.055441 -0.063014 2.000000
0.465339 -0.041069 -0.026457 2.000000
0.465339 0.065922 0.013977 2.000000
0.465339 0.039510 -0.028220 2.000000
0.465339 -0.023651 0.057345 2.000000
0.465339 0.049500 0.064299 2.000000
0.465339 -0.061864 0.033917 2.000000
0.465339 -0.095531 0.002753 2.000000
0.465339 0.008077 -0.068190 2.000000
0.465339 0.042386 -0.023507 2.000000
0.465339 0.003413 0.075380 2.000000
0.465339 -0.080111 -0.000650 2.000000
0.465339 0.016508 -0.043119 2.000000
0.465339 -0.059398 -0.004629 2.000000
0.465339 -0.038948 0.045063 2.000000
0.465339 -0.085537 0.034206 2.000000
0.465339 0.001319 0.088003 2.000000
0.465339 0.026721 -0.079975 2.000000
0.465339 0.048341 0.022306 2.000000
0.465339 -0.092301 -0.018984 2.000000
0.465339 -0.075782 0.003408 2.000000
0.465339 -0.045009 -0.039548 2.000000
0.465339 -0.035362 0.072903 2.000000
0.465339 0.088245 0.022639 2.000000
0.465339 0.040485 -0.021278 2.000000
0.465339 0.040604 0.045609 2.000000
0.465339 0.047434 -0.081729 2.000000
0.465339 -0.081305 0.012607 2.000000
0.465339 0.026986 0.046237 2.000000
0.465339 -0.046647 0.058960 2.000000
0.465339 0.042210 0.090276 2.000000
0.465339 0.019537 -0.094521 2.000000
0.465339 0.058005 -0.016446 2.000000
0.465339 -0.003207 0.059737 2.000000
0.465339 -0.037370 -0.024912 2.000000
0.465339 0.042716 -0.033743 2.000000
0.465339 -0.009513 -0.090834 2.000000
0.465339 -0.060926 0.032628 2.000000
0.465339 -0.023838 -0.053914 2.000000
0.465339 0.067282 -0.062253 2.000000
0.465339 0.075604 -0.023839 2.000000
0.465339 -0.036086 -0.048983 2.000000
0.465339 0.027973 -0.041986 2.000000
0.465339 0.002772 0.079299 2.000000
0.465339 0.034751 -0.051652 2.000000
0.465339 -0.000469 0.081410 2.000000
0.465339 0.057089 -0.045824 2.000000
0.465339 -0.058099 0.006289 2.000000
0.465339 -0.016232 -0.095534 2.000000
0.465339 -0.039874 0.030637 2.000000
0.465339 -0.047921 -0.042118 2.000000
0.465339 0.006209 -0.023613 2.000000
0.465339 -0.050740 -0.085617 2.000000
0.465339 0.044489 0.055777 2.000000
0.465339 0.074804 -0.001458 2.000000
0.465339 0.014550 0.082921 2.000000
0.465339 -0.067294 -0.070937 2.000000
0.465339 0.061549 -0.025391 2.000000
0.465339 0.041624 0.061630 2.000000
0.465339 0.012417 -0.050963 2.000000
0.465339 0.000779 0.059442 2.000000
0.465339 0.044996 0.024635 2.000000
0.465339 -0.084160 -0.019630 2.000000
0.465339 -0.045347 0.071226 2.000000
0.465339 0.045740 -0.047661 2.000000
0.465339 0.052114 -0.001775 2.000000
0.465339 -0.049108 0.010832 2.000000
0.465339 -0.013071 0.087029 2.000000
0.465339 0.024176 -0.080233 2.000000
0.465339 -0.073435 -0.042113 2.000000
0.465339 0.033748 -0.031586 2.000000
0.465339 -0.025612 -0.085305 2.000000
0.465339 -0.037953 -0.077060 2.000000
0.465339 -0.011872 0.067211 2.000000
0.465339 -0.064425 0.061071 2.000000
0.465339 0.081397 0.049034 2.000000
0.465339 -0.014333 -0.004451 2.000000
0.465339 0.014130 0.063977 2.000000
0.465339 -0.033669 -0.090757 2.000000
0.465339 0.014343 0.053960 2.000000
0.465339 -0.067978 -0.061133 2.000000
0.465339 -0.092587 0.013517 2.000000
0.465339 -0.001582 0.008564 2.000000
0.465339 -0.032783 -0.017787 2.000000
0.465339 -0.049463 -0.060954 2.000000
0.465339 -0.025770 0.036338 2.000000
0.465339 -0.097075 0.021547 2.000000
0.465339 -0.003118 -0.072499 2.000000
0.465339 0.064088 0.038831 2.000000
0.465339 0.021708 0.081234 2.000000
0.465339 -0.027073 0.005888 2.000000
0.465339 -0.013021 0.075476 2.000000
0.465339 -0.027286 -0.027974 2.000000
0.465339 -0.012245 0.048002 2.000000
0.465339 -0.072474 0.061851 2.000000
0.465339 0.029391 0.074137 2.000000
0.465339 -0.012470 -0.035833 2.000000
0.465339 0.003262 -0.090396 2.000000
0.465339 0.020858 -0.054387 2.000000
0.465339 0.051255 0.010493 2.000000
0.465339 0.043170 -0.072534 2.000000
0.465339 0.012030 0.029069 2.000000
0.465339 -0.032339 0.001225 2.000000
0.465339 0.000264 0.071821 2.000000
0.465339 -0.001904 -0.034075 2.000000
0.465339 0.033822 -0.016437 2.000000
0.465339 -0.040288 0.020437 2.000000
0.465339 0.071581 -0.032002 2.000000
0.465339 0.070872 -0.023757 2.000000
0.465339 0.068234 -0.053591 2.000000
0.465339 -0.028160 -0.091615 2.000000
0.465339 0.007528 0.006115 2.000000
0.465339 0.016766 -0.005449 2.000000
0.465339 0.043630 -0.053546 2.000000
0.465339 -0.075850 -0.054090 2.000000
0.465339 0.028962 -0.029376 2.000000
0.465339 0.069000 -0.004404 2.000000
0.465339 0.028733 0.065354 2.000000
0.465339 -0.058465 0.072461 2.000000
0.465339 0.041771 -0.047480 2.000000
0.465339 -0.021465 0.037347 2.000000
0.465339 -0.054410 -0.006672 2.000000
0.465339 0.010211 0.081273 2.000000
0.465339 0.033729 0.049721 2.000000
0.465339 0.042135 -0.019232 2.000000
0.465339 0.083248 0.015930 2.000000
0.465339 -0.061399 0.019948 2.000000
0.465339 0.057885 0.013088 2.000000
0.465339 0.001710 0.040134 2.000000
0.465339 -0.071568 -0.019866 2.000000
0.465339 -0.034482 -0.048603 2.000000
0.465339 0.010618 -0.025442 2.000000
0.465339 0.005163 -0.010472 2.000000
0.465339 0.027966 -0.047627 2.000000
0.465339 -0.074133 -0.000863 2.000000
0.465339 0.013440 0.051994 2.000000
0.465339 0.038233 -0.055237 2.000000
0.465339 -0.056666 0.000126 2.000000
0.465339 0.024800 -0.039089 2.000000
0.465339 0.056130 0.038564 2.000000
0.465339 0.030718 -0.024677 2.000000
0.465339 0.000422 -0.042950 2.000000
0.465339 -0.077304 -0.046817 2.000000
0.465339 0.044042 0.080419 2.000000
0.465339 0.043090 -0.065649 2.000000
0.465339 -0.022744 0.036462 2.000000
0.465339 -0.031269 0.039242 2.000000
0.465339 -0.011126 0.002726 2.000000
0.465339 -0.079465 -0.009172 2.000000
0.465339 0.053660 0.052271 2.000000
0.465339 -0.009193 -0.062068 2.000000
0.465339 -0.066609 0.035057 2.000000
0.465339 0.009668 -0.065129 2.000000
0.465339 0.043068 0.000818 2.000000
0.465339 -0.071419 0.008916 2.000000
0.465339 0.006464 0.023870 2.000000
0.465339 0.007146 -0.013807 2.000000
0.465339 -0.015187 -0.021604 2.000000
0.465339 0.001147 0.084525 2.000000
0.465339 -0.042825 -0.044982 2.000000
0.465339 0.005376 0.044329 2.000000
0.465339 -0.066740 -0.013078 2.000000
0.465339 -0.060061 0.028778 2.000000
0.465339 0.017129 -0.052194 2.000000
0.465339 0.059800 0.065931 2.000000
0.465339 0.065909 0.016768 2.000000
0.465339 0.025569 -0.019277 2.000000
0.465339 -0.090358 -0.001078 2.000000
0.465339 -0.001966 -0.005488 2.000000
0.465339 0.059980 0.069028 2.000000
0.465339 0.014816 -0.069339 2.000000
0.465339 -0.025495 0.067219 2.000000
0.465339 0.035659 0.019225 2.000000
0.465339 -0.086800 -0.022012 2.000000
0.465339 -0.005066 0.077319 2.000000
0.465339 -0.006998 0.037485 2.000000
0.465339 0.025721 -0.036307 2.000000
0.465339 -0.077023 -0.015731 2.000000
0.465339 0.004859 -0.016096 2.000000
0.465339 -0.078111 -0.006694 2.000000
0.465339 0.039267 0.065020 2.000000
0.465339 -0.088179 -0.029626 2.000000
0.465339 0.033578 0.058200 2.000000
0.465339 -0.002976 0.023413 2.000000
0.465339 -0.048267 0.060128 2.000000
0.465339 -0.036522 0.079637 2.000000
0.465339 0.012511 0.044791 2.000000
0.465339 0.059567 0.036773 2.000000
0.465339 0.007738 -0.097419 2.000000
0.465339 0.087482 0.027909 2.000000
0.465339 -0.042750 0.080104 2.000000
0.465339 -0.025302 -0.026767 2.000000
0.465339 0.041829 -0.066531 2.000000
0.465339 0.025157 0.053119 2.000000
0.465339 0.073103 -0.053413 2.000000
0.465339 -0.036386 0.031820 2.000000
0.465339 -0.055779 -0.026890 2.000000
0.465339 0.025995 0.075953 2.000000
0.465339 -0.046066 0.039146 2.000000
0.465339 -0.005215 -0.086737 2.000000
0.465339 -0.057716 0.071036 2.000000
0.465339 0.042579 0.010909 2.000000
0.465339 -0.084285 -0.014487 2.000000
0.465339 -0.054306 -0.012219 2.000000
0.465339 0.011314 0.058759 2.000000
0.465339 0.016479 -0.045762 2.000000
0.465339 0.012731 0.030818 2.000000
0.465339 0.058687 0.057163 2.000000
0.465339 0.024482 0.086292 2.000000
0.465339 -0.001180 0.090072 2.000000
0.465339 0.059544 -0.044554 2.000000
0.465339 0.051280 -0.030965 2.000000
0.465339 0.046698 0.049224 2.000000
0.465339 -0.000504 0.096891 2.000000
0.465339 0.022841 -0.059577 2.000000
0.465339 -0.017826 0.012293 2.000000
0.465339 -0.052262 -0.038804 2.000000
0.465339 -0.020679 0.072435 2.000000
0.465339 0.058665 0.016138 2.000000
0.465339 -0.016090 -0.027682 2.000000
0.465339 -0.045115 -0.081356 2.000000
0.465339 0.014774 0.078010 2.000000
0.465339 0.038720 0.020837 2.000000
0.465339 0.057735 -0.033633 2.000000
0.465339 -0.025559 0.092872 2.000000
0.465339 -0.011085 0.042220 2.000000
0.465339 0.060415 -0.070732 2.000000
0.465339 -0.031069 0.063976 2.000000
0.465339 -0.061519 -0.025265 2.000000
0.465339 -0.059602 0.002793 2.000000
0.465339 -0.052251 0.020882 2.000000
0.465339 -0.046541 -0.015976 2.000000
0.465339 -0.003893 0.073164 2.000000
0.465339 -0.002090 -0.015250 2.000000
0.465339 -0.067029 -0.039413 2.000000
0.465339 -0.006602 -0.072989 2.000000
0.465339 0.056720 0.074629 2.000000
0.465339 -0.080805 -0.007952 2.000000
0.465339 0.020833 0.073736 2.000000
0.465339 0.022333 -0.093614 2.000000
0.465339 -0.071480 -0.064993 2.000000
0.465339 0.008438 0.086833 2.000000
0.465339 0.089802 -0.013132 2.000000
0.465339 0.015512 -0.090684 2.000000
0.465339 -0.013350 0.037182 2.000000
0.465339 -0.012156 0.006617 2.000000
0.465339 0.025498 -0.028407 2.000000
0.465339 -0.027570 -0.010064 2.000000
0.465339 -0.007238 0.074486 2.000000
0.465339 -0.074538 -0.034332 2.000000
0.465339 -0.052547 0.024474 2.000000
0.465339 0.043382 -0.014123 2.000000
0.465339 -0.074753 0.057287 2.000000
0.465339 0.051972 0.081129 2.000000
0.465339 0.013073 -0.049390 2.000000
0.465339 0.031976 0.073212 2.000000
0.465339 -0.018004 -0.074817 2.000000
0.465339 -0.016006 0.002389 2.000000
0.465339 0.002978 0.049103 2.000000
0.465339 0.071174 0.046596 2.000000
0.465339 -0.032858 0.088557 2.000000
0.465339 -0.072532 -0.005557 2.000000
0.465339 -0.008429 0.093995 2.000000
0.465339 0.025455 -0.094873 2.000000
0.465339 0.093570 -0.012655 2.000000
0.465339 -0.060751 0.073607 2.000000
0.465339 -0.049551 0.056763 2.000000
0.465339 0.019984 0.037983 2.000000
0.465339 -0.029613 0.043446 2.000000
0.465339 -0.032763 0.083656 2.000000
0.465339 -0.001358 0.014430 2.000000
0.465339 0.060090 0.038443 2.000000
0.465339 0.004942 -0.023086 2.000000
0.465339 0.021872 0.050670 2.000000
0.465339 -0.034702 -0.074769 2.000000
0.465339 0.036779 -0.081639 2.000000
0.465339 -0.009861 0.060927 2.000000
0.465339 -0.056285 0.055885 2.000000
0.465339 0.060725 0.001576 2.000000
0.465339 -0.011894 -0.071687 2.000000
0.465339 -0.003756 0.045245 2.000000
0.465339 0.043180 -0.002404 2.000000
0.465339 -0.032545 0.069907 2.000000
0.465339 -0.064802 -0.056006 2.000000
0.465339 -0.056943 -0.065908 2.000000
0.465339 0.030756 0.042397 2.000000
0.465339 0.035680 0.087382 2.000000
0.465339 -0.066032 -0.035399 2.000000
0.465339 0.027488 0.063956 2.000000
0.465339 -0.061957 -0.060180 2.000000
0.465339 0.065355 -0.001184 2.000000
0.465339 -0.025197 0.020507 2.000000
0.465339 -0.014320 0.080631 2.000000
0.465339 0.074542 0.066252 2.000000
0.465339 -0.083784 0.015496 2.000000
0.465339 0.050777 -0.021403 2.000000
0.465339 0.004369 0.022054 2.000000
0.465339 -0.038948 -0.037263 2.000000
0.465339 0.039016 -0.067156 2.000000
0.465339 -0.009766 -0.025963 2.000000
0.465339 -0.038379 0.020424 2.000000
0.465339 0.076816 0.025667 2.000000
0.465339 0.014141 0.001635 2.000000
0.465339 -0.006622 -0.013856 2.000000
0.465339 -0.019213 -0.038377 2.000000
0.465339 0.001839 0.093387 2.000000
0.465339 0.026348 -0.003295 2.000000
0.465339 -0.017800 0.058152 2.000000
0.465339 0.058428 -0.018840 2.000000
0.465339 0.012008 0.019825 2.000000
0.465339 0.013577 0.024203 2.000000
0.465339 0.062834 0.067517 2.000000
0.465339 -0.087008 -0.013232 2.000000
0.465339 0.004113 -0.073697 2.000000
0.465339 -0.011772 -0.007189 2.000000
0.465339 0.009278 0.024840 2.000000
0.465339 -0.016953 -0.086919 2.000000
0.465339 -0.082027 0.055486 2.000000
0.465339 0.040132 0.047203 2.000000
0.465339 0.052276 -0.004152 2.000000
0.465339 0.041940 -0.000760 2.000000
0.465339 0.034684 0.040455 2.000000
0.465339 0.006526 -0.045272 2.000000
0.465339 -0.092720 -0.000464 2.000000
0.465339 0.031816 0.068517 2.000000
0.465339 -0.015828 0.080645 2.000000
0.465339 0.087891 0.006383 2.000000
0.465339 0.069748 -0.009974 2.000000
0.465339 0.018869 0.045670 2.000000
0.465339 -0.091220 -0.003701 2.000000
0.465339 -0.060237 -0.019558 2.000000
0.465339 0.069946 -0.056114 2.000000
0.465339 -0.060454 -0.070920 2.000000
0.465339 0.084963 -0.038937 2.000000
0.465339 -0.040455 0.022707 2.000000
0.465339 0.015823 -0.027104 2.000000
0.465339 0.056561 0.061716 2.000000
0.465339 -0.033644 -0.073591 2.000000
0.465339 0.014357 -0.003894 2.000000
0.465339 -0.004886 0.052598 2.000000
0.465339 -0.033544 0.017707 2.000000
0.465339 0.045750 0.073781 2.000000
0.465339 0.025459 -0.048510 2.000000
0.465339 -0.046960 -0.081779 2.000000
0.465339 -0.093452 -0.032126 2.000000
0.465339 0.087023 -0.037963 2.000000
0.465339 -0.052621 0.043364 2.000000
0.465339 -0.039064 0.082108 2.000000
0.465339 0.063006 0.048009 2.000000
0.465339 0.059764 -0.030401 2.000000
0.465339 0.027561 0.080474 2.000000
0.465339 -0.028389 0.091724 2.000000
0.465339 -0.009133 0.011438 2.000000
0.465339 0.038220 -0.072286 2.000000
0.465339 0.057417 -0.015014 2.000000
0.465339 -0.045928 0.040763 2.000000
0.465339 0.060663 0.007531 2.000000
0.465339 -0.017311 -0.062424 2.000000
0.465339 0.045398 -0.043399 2.000000
0.465339 0.055442 -0.019162 2.000000
0.465339 0.047935 -0.085730 2.000000
0.465339 -0.021637 -0.082063 2.000000
0.465339 -0.021841 -0.090140 2.000000
0.465339 -0.006018 -0.070947 2.000000
0.465339 0.044631 -0.084843 2.000000
0.465339 0.023838 -0.051389 2.000000
0.465339 -0.089243 0.015025 2.000000
0.465339 0.013906 -0.042732 2.000000
0.465339 -0.006024 -0.078867 2.000000
0.465339 -0.002473 -0.038946 2.000000
0.465339 0.061590 -0.070013 2.000000
0.465339 0.046104 -0.042160 2.000000
0.465339 -0.064252 0.028142 2.000000
0.465339 0.071587 0.024843 2.000000
0.465339 -0.083760 -0.036528 2.000000
0.465339 0.017723 0.082832 2.000000
0.465339 0.015655 -0.030557 2.000000
0.465339 -0.037262 0.072089 2.000000
0.465339 0.080364 -0.034867 2.000000
0.465339 0.068831 -0.061006 2.000000
0.465339 0.082655 -0.048967 2.000000
0.465339 -0.024472 0.096906 2.000000
0.465339 0.020961 0.066207 2.000000
0.465339 -0.002230 -0.046656 2.000000
0.465339 -0.040311 -0.031544 2.000000
0.465339 -0.055515 -0.035159 2.000000
0.465339 0.035652 -0.086140 2.000000
0.465339 -0.031131 0.005292 2.000000
0.465339 -0.071786 0.015785 2.000000
0.465339 -0.008484 0.015029 2.000000
0.465339 -0.060571 0.021885 2.000000
0.465339 0.025571 -0.082786 2.000000
0.465339 -0.079868 -0.040112 2.000000
0.465339 0.070436 0.055274 2.000000
0.465339 -0.005414 -0.005846 2.000000
0.465339 -0.028659 -0.088208 2.000000
0.465339 -0.041257 -0.050147 2.000000
0.465339 0.057804 0.054106 2.000000
0.465339 0.032872 0.024373 2.000000
0.465339 -0.026767 0.017990 2.000000
0.465339 -0.016174 0.061420 2.000000
0.465339 -0.010653 0.037172 2.000000
0.465339 0.063166 0.040098 2.000000
0.465339 -0.044580 0.077316 2.000000
0.465339 -0.008561 0.068166 2.000000
0.465339 -0.056575 -0.038812 2.000000
0.465339 -0.086644 0.020483 2.000000
0.465339 0.012695 -0.001467 2.000000
0.465339 0.065890 0.021723 2.000000
0.465339 0.063298 0.058547 2.000000
0.465339 0.074927 0.042260 2.000000
0.465339 -0.022908 -0.072841 2.000000
0.465339 -0.026391 0.078806 2.000000
0.465339 -0.001894 -0.042499 2.000000
0.465339 -0.034924 -0.037976 2.000000
0.465339 -0.099667 -0.001340 2.000000
0.465339 0.081863 -0.024030 2.000000
0.465339 -0.056490 0.003017 2.000000
0.465339 0.038305 0.026032 2.000000
0.465339 0.076364 -0.056770 2.000000
0.465339 0.086438 -0.031424 2.000000
0.465339 0.062917 0.018612 2.000000
0.465339 -0.053836 0.033912 2.000000
0.465339 -0.052992 0.014163 2.000000
0.465339 -0.001703 -0.050124 2.000000
0.465339 0.045643 -0.081565 2.000000
0.465339 0.003849 0.084458 2.000000
0.465339 -0.045920 0.004258 2.000000
0.465339 -0.037169 -0.012962 2.000000
0.465339 -0.009406 0.070292 2.000000
0.465339 -0.011078 0.023905 2.000000
0.465339 -0.021121 -0.021905 2.000000
0.465339 -0.003284 -0.017008 2.000000
0.465339 -0.060508 -0.012738 2.000000
0.465339 -0.032883 0.067058 2.000000
0.465339 -0.018295 -0.041358 2.000000
0.465339 -0.035682 0.061191 2.000000
0.465339 -0.090111 -0.020314 2.000000
0.465339 0.046782 -0.017148 2.000000
0.465339 -0.054995 -0.033092 2.000000
0.465339 0.089113 -0.028712 2.000000
0.465339 -0.065045 -0.073168 2.000000
0.465339 -0.060000 -0.048900 2.000000
0.465339 -0.020657 0.050482 2.000000
0.465339 0.024915 0.082696 2.000000
0.465339 0.068058 -0.013057 2.000000
0.465339 -0.035521 -0.090615 2.000000
0.465339 -0.079747 0.009659 2.000000
0.465339 0.071262 0.053313 2.000000
0.465339 -0.035780 -0.042372 2.000000
0.465339 0.078016 0.018309 2.000000
0.465339 -0.044287 -0.018330 2.000000
0.465339 0.054125 -0.014174 2.000000
0.465339 0.027902 -0.016591 2.000000
0.465339 -0.004728 -0.099277 2.000000
0.465339 0.036178 0.046292 2.000000
0.465339 0.065185 0.069382 2.000000
0.465339 0.037591 -0.078861 2.000000
0.465339 0.018477 0.081439 2.000000
0.465339 0.047848 -0.060508 2.000000
0.465339 -0.020296 0.082424 2.000000
0.465339 -0.016261 -0.031219 2.000000
0.465339 0.002004 -0.010150 2.000000
0.465339 -0.066348 -0.072192 2.000000
0.465339 0.086142 -0.005652 2.000000
0.465339 0.020638 -0.025750 2.000000
0.465339 0.062276 -0.057642 2.000000
0.465339 -0.038750 0.012651 2.000000
0.465339 -0.053526 0.006183 2.000000
0.465339 -0.028237 -0.051981 2.000000
0.465339 0.061764 -0.005702 2.000000
0.465339 -0.065803 0.053366 2.000000
0.465339 -0.032762 0.092985 2.000000
0.465339 0.000919 -0.004162 2.000000
0.465339 -0.065297 -0.017178 2.000000
0.465339 0.068981 -0.038572 2.000000
0.465339 -0.039599 0.032164 2.000000
0.465339 0.065103 0.036302 2.000000
0.465339 -0.029759 -0.073477 2.000000
0.465339 0.056838 -0.031367 2.000000
0.465339 -0.066878 0.016043 2.000000
0.465339 0.021795 -0.028789 2.000000
0.465339 0.005472 -0.030340 2.000000
0.465339 -0.048712 -0.078998 2.000000
0.465339 0.026886 -0.023509 2.000000
0.465339 -0.096429 -0.018114 2.000000
0.465339 -0.050770 0.011789 2.000000
0.465339 -0.057954 -0.070173 2.000000
0.465339 0.044648 0.062045 2.000000
0.465339 -0.039572 -0.008622 2.000000
0.465339 -0.073565 -0.032678 2.000000
0.465339 0.067574 0.031536 2.000000
0.465339 -0.003364 -0.018600 2.000000
0.465339 0.088566 0.026230 2.000000
0.465339 0.017790 0.064539 2.000000
0.465339 0.097564 -0.008688 2.000000
0.465339 -0.082435 0.044035 2.000000
0.465339 -0.092426 0.011910 2.000000
0.465339 0.008049 0.017075 2.000000
0.465339 0.028575 0.035154 2.000000
0.465339 0.049733 -0.047630 2.000000
0.465339 -0.004664 0.003002 2.000000
0.465339 -0.018005 -0.039569 2.000000
0.465339 0.068515 -0.056101 2.000000
0.465339 -0.008305 0.018459 2.000000
0.465339 -0.045157 0.084398 2.000000
0.465339 0.034126 0.011594 2.000000
0.465339 -0.046585 0.029310 2.000000
0.465339 -0.004434 -0.029457 2.000000
0.465339 0.068960 -0.040510 2.000000
0.465339 -0.034477 -0.010023 2.000000
0.465339 -0.033925 0.002915 2.000000
0.465339 0.058044 -0.056105 2.000000
0.465339 0.016978 0.085963 2.000000
0.465339 -0.068756 -0.044786 2.000000
0.465339 -0.043481 0.086915 2.000000
0.465339 0.025537 0.096505 2.000000
0.465339 -0.055040 -0.072730 2.000000
0.465339 0.045240 -0.051958 2.000000
0.465339 -0.051711 0.078380 2.000000
0.465339 0.052819 0.015072 2.000000
0.465339 -0.034423 0.028235 2.000000
0.465339 0.017870 0.002451 2.000000
0.465339 -0.097457 0.003124 2.000000
0.465339 0.084730 0.017660 2.000000
0.465339 -0.025468 0.076889 2.000000
0.465339 -0.063997 0.007395 2.000000
0.465339 0.064113 0.059834 2.000000
0.465339 0.004866 -0.077183 2.000000
0.465339 0.029119 0.026421 2.000000
0.465339 0.027115 -0.073690 2.000000
0.465339 -0.068785 -0.018480 2.000000
0.465339 0.011740 -0.065305 2.000000
0.465339 0.054316 -0.073644 2.000000
0.465339 0.063902 -0.042501 2.000000
0.465339 -0.012606 -0.005833 2.000000
0.465339 -0.002137 0.012137 2.000000
0.465339 0.024830 0.049755 2.000000
0.465339 0.010561 -0.022767 2.000000
0.465339 -0.027906 0.052278 2.000000
0.465339 0.044604 -0.048497 2.000000
0.465339 -0.021801 -0.031411 2.000000
0.465339 -0.022797 -0.079714 2.000000
0.465339 0.050981 -0.057242 2.000000
0.465339 0.046868 -0.036260 2.000000
0.465339 -0.064636 -0.010387 2.000000
0.465339 -0.010157 -0.031262 2.000000
0.465339 0.006296 -0.036965 2.000000
0.465339 0.033892 0.082765 2.000000
0.465339 -0.013838 -0.008991 2.000000
0.465339 -0.035613 -0.032300 2.000000
0.465339 -0.013385 -0.097118 2.000000
0.465339 0.067340 -0.031235 2.000000
0.465339 -0.037333 0.054422 2.000000
0.465339 0.028044 0.072750 2.000000
0.465339 -0.059250 0.004877 2.000000
0.465339 -0.064029 0.038332 2.000000
0.465339 0.049600 -0.015904 2.000000
0.465339 -0.023040 0.093060 2.000000
0.465339 -0.033944 0.034231 2.000000
0.465339 -0.052910 -0.022936 2.000000
0.465339 -0.081898 -0.050559 2.000000
0.465339 -0.012557 0.068654 2.000000
0.465339 -0.070887 -0.024872 2.000000
0.465339 -0.042390 -0.011724 2.000000
0.465339 0.031568 -0.080853 2.000000
0.465339 -0.037370 0.042994 2.000000
0.465339 -0.074992 -0.045201 2.000000
0.465339 -0.072738 0.006496 2.000000
0.465339 0.088772 0.028354 2.000000
0.465339 0.074664 -0.066050 2.000000
0.465339 -0.015465 0.047400 2.000000
0.465339 -0.067144 0.059187 2.000000
0.465339 0.062558 -0.019540 2.000000
0.465339 -0.032653 0.054857 2.000000
0.465339 -0.019244 0.061327 2.000000
0.465339 -0.067585 -0.015369 2.000000
0.465339 0.057061 0.049813 2.000000
0.465339 -0.038895 -0.075594 2.000000
0.465339 -0.010688 0.054307 2.000000
0.465339 0.065212 0.053690 2.000000
0.465339 -0.011269 0.084726 2.000000
0.465339 0.034954 0.067252 2.000000
0.465339 -0.002094 0.001534 2.000000
0.465339 -0.032417 0.010672 2.000000
0.465339 0.032418 -0.083410 2.000000
0.465339 -0.023299 -0.048301 2.000000
0.465339 -0.091124 0.005054 2.000000
0.465339 0.010673 -0.085033 2.000000
0.465339 0.019045 -0.084948 2.000000
0.465339 0.010401 -0.070673 2.000000
0.465339 -0.007647 -0.046173 2.000000
0.465339 -0.048206 -0.038349 2.000000
0.465339 0.009746 -0.044448 2.000000
0.465339 0.007417 0.039853 2.000000
0.465339 -0.054216 -0.040816 2.000000
0.465339 0.081522 0.031769 2.000000
0.465339 0.019299 -0.011116 2.000000
0.465339 0.033141 0.078014 2.000000
0.465339 -0.087735 -0.040601 2.000000
0.465339 0.052402 0.001948 2.000000
0.465339 -0.083777 0.002208 2.000000
0.465339 0.078938 0.058829 2.000000
0.465339 -0.009624 0.059331 2.000000
0.465339 0.026912 -0.059634 2.000000
0.465339 -0.051749 0.047856 2.000000
0.465339 -0.018519 -0.083032 2.000000
0.465339 -0.065417 -0.005622 2.000000
0.465339 0.043998 -0.043853 2.000000
0.465339 0.043392 0.058007 2.000000
0.465339 0.035132 0.034137 2.000000
0.465339 0.060952 -0.017383 2.000000
0.465339 -0.088472 -0.024909 2.000000
0.465339 -0.054280 -0.010554 2.000000
0.465339 0.075651 0.065010 2.000000
0.465339 0.050555 -0.055739 2.000000
0.465339 0.013576 -0.039683 2.000000
0.465339 -0.007238 0.065999 2.000000
0.465339 0.025077 -0.076935 2.000000
0.465339 -0.019397 -0.054082 2.000000
0.465339 0.002086 -0.022083 2.000000
0.465339 0.041895 0.057454 2.000000
0.465339 0.091405 -0.004429 2.000000
0.465339 0.023639 -0.067495 2.000000
0.465339 0.082777 0.022147 2.000000
0.465339 0.091649 -0.011827 2.000000
0.465339 0.028940 -0.080517 2.000000
0.465339 0.034435 0.050951 2.000000
0.465339 0.017873 0.097528 2.000000
0.465339 -0.027362 -0.086130 2.000000
0.465339 -0.008867 -0.039223 2.000000
0.465339 -0.037833 -0.065645 2.000000
0.465339 0.046044 0.008774 2.000000
0.465339 -0.046593 -0.005540 2.000000
0.465339 -0.006871 0.056851 2.000000
0.465339 -0.014842 0.033718 2.000000
0.465339 -0.051179 0.042237 2.000000
0.465339 -0.036556 -0.038508 2.000000
0.465339 0.075384 0.020462 2.000000
0.465339 -0.026356 -0.040027 2.000000
0.465339 -0.053609 -0.071817 2.000000
0.465339 -0.023964 0.030074 2.000000
0.465339 0.025745 -0.056558 2.000000
0.465339 0.014137 -0.031185 2.000000
0.465339 0.019297 0.088140 2.000000
0.465339 0.068821 0.056056 2.000000
0.465339 -0.089797 -0.025696 2.000000
0.465339 -0.036878 -0.041310 2.000000
0.465339 -0.006431 0.047803 2.000000
0.465339 -0.055307 0.012087 2.000000
0.465339 0.079690 0.029626 2.000000
0.465339 0.037668 0.047606 2.000000
0.465339 -0.013530 0.006148 2.000000
0.465339 -0.036351 0.088352 2.000000
0.465339 0.003419 0.029212 2.000000
0.465339 0.065888 -0.067701 2.000000
0.465339 -0.022742 0.086871 2.000000
0.465339 -0.045040 -0.026608 2.000000
0.465339 -0.029392 0.032577 2.000000
0.465339 0.011715 0.069887 2.000000
0.465339 0.092483 0.036823 2.000000
0.465339 -0.020824 -0.076818 2.000000
0.465339 0.029533 0.038359 2.000000
0.465339 -0.077298 0.022982 2.000000
0.465339 0.049858 0.075099 2.000000
0.465339 -0.009303 0.002518 2.000000
0.465339 0.040058 -0.007910 2.000000
0.465339 0.006344 -0.000987 2.000000
0.465339 0.090165 0.021540 2.000000
0.465339 -0.084236 -0.042866 2.000000
0.465339 0.019581 0.052591 2.000000
0.465339 -0.070403 -0.055856 2.000000
0.465339 -0.018617 -0.089896 2.000000
0.465339 -0.089710 0.043237 2.000000
0.465339 0.049041 -0.067685 2.000000
0.465339 0.074093 0.013308 2.000000
0.465339 0.081390 -0.027992 2.000000
0.465339 -0.004827 0.060354 2.000000
0.465339 -0.038891 0.074628 2.000000
0.465339 -0.031446 -0.024558 2.000000
0.465339 -0.054537 -0.014098 2.000000
0.465339 -0.002253 0.079310 2.000000
0.465339 -0.098542 -0.012183 2.000000
0.465339 -0.051565 -0.045638 2.000000
0.465339 -0.039920 -0.069671 2.000000
0.465339 -0.003896 0.000997 2.000000
0.465339 0.020256 -0.055953 2.000000
0.465339 -0.086780 -0.047414 2.000000
0.465339 0.000595 0.075564 2.000000
0.465339 -0.007649 0.020161 2.000000
0.465339 0.028121 -0.043993 2.000000
0.465339 -0.086488 0.008564 2.000000
0.465339 0.008127 -0.074700 2.000000
0.465339 0.048253 -0.050149 2.000000
0.465339 -0.018588 0.047259 2.000000
0.465339 0.001209 -0.082005 2.000000
0.465339 -0.011457 0.008355 2.000000
0.465339 -0.019350 -0.069305 2.000000
0.465339 0.011811 0.034672 2.000000
0.465339 0.045323 0.021277 2.000000
0.465339 -0.007812 0.028720 2.000000
0.465339 0.094767 -0.024821 2.000000
0.465339 -0.000793 -0.043820 2.000000
0.465339 0.095971 -0.008136 2.000000
0.465339 -0.003043 0.004346 2.000000
0.465339 0.043160 0.012827 2.000000
0.465339 0.006087 0.059452 2.000000
0.465339 -0.011884 0.050936 2.000000
0.465339 0.001654 -0.098234 2.000000
0.465339 -0.066367 0.006160 2.000000
0.465339 -0.001611 0.088227 2.000000
0.465339 0.067364 0.004077 2.000000
0.465339 0.098911 0.008308 2.000000
0.465339 0.004775 0.092058 2.000000
0.465339 0.080945 0.030480 2.000000
0.465339 -0.037514 -0.062816 2.000000
0.465339 0.051996 0.033314 2.000000
0.465339 0.083042 0.025461 2.000000
0.465339 -0.049899 0.066696 2.000000
0.465339 0.090480 0.008481 2.000000
0.465339 -0.015226 0.015814 2.000000
0.465339 -0.031747 -0.054706 2.000000
0.465339 -0.079583 0.043823 2.000000
0.465339 -0.036616 -0.076610 2.000000
0.465339 -0.063957 -0.040327 2.000000
0.465339 0.016901 -0.092563 2.000000
0.465339 -0.015861 -0.038772 2.000000
0.465339 0.050321 0.007933 2.000000
0.465339 -0.077312 -0.058824 2.000000
0.465339 -0.071970 0.034996 2.000000
0.465339 0.009025 0.066893 2.000000
0.465339 0.039722 -0.071950 2.000000
0.465339 -0.049188 -0.065838 2.000000
0.465339 0.072912 0.004540 2.000000
0.465339 0.017476 -0.021843 2.000000
0.465339 -0.000918 0.012893 2.000000
0.465339 0.015120 -0.071210 2.000000
0.465339 -0.074833 -0.036668 2.000000
0.465339 0.002147 -0.076151 2.000000
0.465339 0.036965 0.003257 2.000000
0.465339 0.014529 -0.050562 2.000000
0.465339 0.057711 0.033992 2.000000
0.465339 -0.065173 0.024860 2.000000
0.465339 -0.075661 -0.043476 2.000000
0.465339 -0.044106 0.009234 2.000000
0.465339 0.004222 -0.036196 2.000000
0.465339 0.027319 0.034078 2.000000
0.465339 0.024108 0.024081 2.000000
0.465339 0.030677 -0.073367 2.000000
0.465339 -0.093820 0.012568 2.000000
0.465339 0.073572 0.051083 2.000000
0.465339 -0.005013 -0.001483 2.000000
0.465339 0.099117 0.006567 2.000000
0.465339 0.050347 -0.010966 2.000000
0.465339 -0.039052 -0.012455 2.000000
0.465339 0.022403 -0.084199 2.000000
0.465339 -0.002163 0.005889 2.000000
0.465339 0.007691 -0.072671 2.000000
0.465339 -0.051352 0.069635 2.000000
0.465339 0.004575 0.099854 2.000000
0.465339 -0.063045 -0.074429 2.000000
0.465339 0.029337 -0.047317 2.000000
0.465339 0.073605 0.040432 2.000000
0.465339 -0.054103 -0.073955 2.000000
0.465339 -0.079321 0.059061 2.000000
0.465339 -0.047104 0.004899 2.000000
0.465339 -0.072197 0.054898 2.000000
0.465339 -0.000552 0.029467 2.000000
0.465339 -0.039692 0.087641 2.000000
0.465339 -0.018924 0.088748 2.000000
0.465339 0.024507 0.074103 2.000000
0.465339 -0.051655 0.006805 2.000000
0.465339 0.027293 0.036640 2.000000
0.465339 0.070322 0.013518 2.000000
0.465339 0.009162 0.048291 2.000000
0.465339 -0.003149 0.067135 2.000000
0.465339 -0.001330 -0.069950 2.000000
0.465339 -0.037838 0.027646 2.000000
0.465339 -0.022664 -0.087369 2.000000
0.465339 0.008514 -0.010960 2.000000
0.465339 0.020960 -0.002102 2.000000
0.465339 -0.023856 0.088517 2.000000
0.465339 -0.039639 -0.074062 2.000000
0.465339 0.062725 -0.044977 2.000000
0.465339 -0.012035 -0.093280 2.000000
0.465339 -0.079238 -0.022544 2.000000
0.465339 0.023194 0.015369 2.000000
0.465339 0.035347 0.003840 2.000000
0.465339 0.034778 0.028979 2.000000
0.465339 0.085498 0.028460 2.000000
0.465339 -0.007199 0.060860 2.000000
0.465339 -0.001971 0.021595 2.000000
0.465339 -0.051335 0.013558 2.000000
0.465339 -0.041468 -0.006702 2.000000
0.465339 0.022638 -0.033764 2.000000
0.465339 -0.043636 0.059596 2.000000
0.465339 0.041715 0.036629 2.000000
0.465339 -0.017743 -0.035265 2.000000
0.465339 -0.081652 0.020221 2.000000
0.465339 -0.071765 -0.035247 2.000000
0.465339 -0.022045 -0.061112 2.000000
0.465339 -0.084763 0.024029 2.000000
0.465339 0.006815 -0.059900 2.000000
0.465339 0.057609 -0.069261 2.000000
0.465339 0.067808 -0.039582 2.000000
0.465339 0.023198 -0.039353 2.000000
0.465339 -0.016913 -0.077671 2.000000
0.465339 -0.036570 0.010502 2.000000
0.465339 -0.023856 0.055477 2.000000
0.465339 0.068416 0.053903 2.000000
0.465339 -0.001725 -0.018923 2.000000
0.465339 0.023809 0.085124 2.000000
0.465339 -0.005678 0.066438 2.000000
0.465339 0.072271 0.021356 2.000000
0.465339 -0.012672 0.085223 2.000000
0.465339 -0.072831 0.025914 2.000000
0.465339 -0.088705 0.033218 2.000000
0.465339 -0.016943 -0.073597 2.000000
0.465339 -0.029223 -0.004041 2.000000
0.465339 -0.048447 0.001572 2.000000
0.465339 0.024427 0.065023 2.000000
0.465339 0.030086 0.016122 2.000000
0.465339 -0.077647 0.005119 2.000000
0.465339 -0.058418 -0.065995 2.000000
0.465339 0.068516 -0.048581 2.000000
0.465339 -0.045145 0.016941 2.000000
0.465339 0.077069 0.049160 2.000000
0.465339 0.055860 -0.024981 2.000000
0.465339 -0.041044 -0.012891 2.000000
0.465339 -0.022795 -0.006282 2.000000
0.465339 -0.083239 0.036695 2.000000
0.465339 -0.025516 -0.020787 2.000000
0.465339 0.036634 0.035316 2.000000
0.465339 0.008977 -0.087967 2.000000
0.465339 0.042873 0.033042 2.000000
0.465339 -0.037749 0.073493 2.000000
0.465339 0.063805 0.049144 2.000000
0.465339 0.061648 -0.010533 2.000000
0.465339 -0.032204 0.008517 2.000000
0.465339 -0.033644 -0.036907 2.000000
0.465339 0.019531 -0.007425 2.000000
0.465339 -0.004185 -0.085180 2.000000
0.465339 0.054822 -0.031943 2.000000
0.465339 -0.009343 0.052016 2.000000
0.465339 0.044575 0.022842 2.000000
0.465339 0.048722 0.048120 2.000000
0.465339 -0.060877 -0.067899 2.000000
0.465339 -0.006377 0.021737 2.000000
0.465339 0.030427 -0.018107 2.000000
0.465339 0.030466 0.094235 2.000000
0.465339 -0.047601 -0.080329 2.000000
0.465339 0.041456 0.000554 2.000000
0.465339 0.081465 -0.047306 2.000000
0.465339 -0.073606 -0.010880 2.000000
0.465339 0.075752 -0.050567 2.000000
0.465339 0.086688 0.008140 2.000000
0.465339 0.035733 -0.069305 2.000000
0.465339 -0.063519 -0.058890 2.000000
0.465339 0.097112 0.006595 2.000000
0.465339 0.089361 -0.027258 2.000000
0.465339 -0.050553 0.008121 2.000000
0.465339 0.055069 -0.007669 2.000000
0.465339 0.091176 0.004840 2.000000
0.465339 0.054146 0.054314 2.000000
0.465339 -0.097652 0.014433 2.000000
0.465339 0.084208 0.032309 2.000000
0.465339 0.078240 0.051645 2.000000
0.465339 0.092160 -0.010179 2.000000
0.465339 0.001345 -0.089070 2.000000
0.465339 -0.055628 -0.021035 2.000000
0.465339 -0.024714 -0.015911 2.000000
0.465339 0.054017 0.026818 2.000000
0.465339 0.002889 0.017697 2.000000
0.465339 -0.033355 -0.002133 2.000000
0.465339 -0.086357 -0.037378 2.000000
0.465339 -0.017517 -0.028006 2.000000
0.465339 -0.055739 -0.052627 2.000000
0.465339 0.074270 -0.002901 2.000000
0.465339 0.008838 0.064464 2.000000
0.465339 -0.014126 -0.000657 2.000000
0.465339 0.019475 0.044204 2.000000
0.465339 -0.046145 -0.009429 2.000000
0.465339 -0.059753 -0.050233 2.000000
0.465339 -0.002876 0.031922 2.000000
0.465339 -0.004872 0.011539 2.000000
0.465339 -0.014534 -0.043380 2.000000
0.465339 0.002360 0.019055 2.000000
0.465339 0.066829 0.070330 2.000000
0.465339 0.000715 0.082913 2.000000
0.465339 0.042922 -0.007892 2.000000
0.465339 -0.039454 0.072704 2.000000
0.465339 -0.040060 0.040525 2.000000
0.465339 0.076653 0.036775 2.000000
0.465339 0.018320 -0.067129 2.000000
0.465339 -0.012151 0.034215 2.000000
0.465339 0.022486 -0.050161 2.000000
0.465339 0.058679 0.011122 2.000000
0.465339 0.088875 0.014637 2.000000
0.465339 -0.073426 0.051836 2.000000
0.465339 0.025979 0.045221 2.000000
0.465339 -0.045869 -0.000915 2.000000
0.465339 -0.012779 0.063331 2.000000
0.465339 -0.018760 -0.052825 2.000000
0.465339 -0.038874 0.068819 2.000000
0.465339 0.029160 0.087060 2.000000
0.465339 -0.033793 0.021257 2.000000
0.465339 0.045754 0.068568 2.000000
0.465339 0.076829 -0.021056 2.000000
0.465339 0.038962 0.060465 2.000000
0.465339 -0.070474 -0.005579 2.000000
0.465339 -0.069675 0.038580 2.000000
0.465339 0.071741 -0.038836 2.000000
0.465339 -0.020055 -0.088446 2.000000
0.465339 0.053948 0.045771 2.000000
0.465339 -0.001837 -0.085904 2.000000
0.465339 -0.070682 -0.004013 2.000000
0.465339 -0.014399 0.070086 2.000000
0.465339 -0.019156 0.044726 2.000000
0.465339 0.036324 -0.090659 2.000000
0.465339 -0.088492 -0.021640 2.000000
0.465339 0.025265 0.036860 2.000000
0.465339 -0.076407 -0.021328 2.000000
0.465339 -0.059976 -0.024091 2.000000
0.465339 0.021931 0.077365 2.000000
0.465339 0.070445 0.063335 2.000000
0.465339 -0.049284 -0.017838 2.000000
0.465339 -0.089701 -0.014069 2.000000
0.465339 0.053183 -0.082083 2.000000
0.465339 -0.047700 -0.050732 2.000000
0.465339 0.072620 0.012065 2.000000
0.465339 -0.063581 0.015628 2.000000
0.465339 -0.016490 -0.089603 2.000000
0.465339 0.012623 0.022448 2.000000
0.465339 -0.083285 0.003587 2.000000
0.465339 -0.064160 -0.035812 2.000000
0.465339 0.075402 -0.040194 2.000000
0.465339 -0.059947 -0.072361 2.000000
0.465339 0.068671 0.037359 2.000000
0.465339 -0.014506 0.030591 2.000000
0.465339 0.018816 -0.034725 2.000000
0.465339 -0.034112 -0.014148 2.000000
0.465339 0.080930 -0.017044 2.000000
0.465339 -0.083557 -0.000081 2.000000
0.465339 -0.048567 0.074512 2.000000
0.465339 0.036027 0.009476 2.000000
0.465339 0.036456 -0.058432 2.000000
0.465339 -0.029700 0.061753 2.000000
0.465339 -0.017795 -0.095870 2.000000
0.465339 0.009438 0.012420 2.000000
0.465339 -0.039067 0.043475 2.000000
0.465339 -0.067838 -0.027670 2.000000
0.465339 -0.033056 -0.011390 2.000000
0.465339 -0.046566 0.084603 2.000000
0.465339 0.071901 0.008205 2.000000
0.465339 0.087148 -0.034938 2.000000
0.465339 -0.057070 -0.017074 2.000000
0.465339 -0.011098 -0.026482 2.000000
0.465339 0.041545 -0.037665 2.000000
0.465339 0.034469 0.060529 2.000000
0.465339 0.013454 0.070826 2.000000
0.465339 -0.019575 0.087496 2.000000
0.465339 0.010100 0.002577 2.000000
0.465339 0.035125 -0.046389 2.000000
0.465339 -0.024855 -0.000819 2.000000
0.465339 -0.031819 -0.015815 2.000000
0.465339 0.066581 0.036937 2.000000
0.465339 0.002385 -0.070732 2.000000
0.465339 0.090398 0.014479 2.000000
0.465339 -0.066944 0.030566 2.000000
0.465339 0.075981 -0.031817 2.000000
0.465339 -0.042451 -0.025881 2.000000
0.465339 -0.012293 0.026025 2.000000
0.465339 0.085044 -0.008727 2.000000
0.465339 0.045013 0.057434 2.000000
0.465339 0.032638 0.021882 2.000000
0.465339 -0.077566 0.055388 2.000000
0.465339 0.017440 0.080477 2.000000
0.465339 0.011084 -0.008427 2.000000
0.465339 -0.044274 -0.045965 2.000000
0.465339 -0.076318 0.050513 2.000000
0.465339 -0.066936 -0.060003 2.000000
0.465339 0.079169 -0.044062 2.000000
0.465339 -0.084578 -0.026509 2.000000
0.465339 0.016115 0.048899 2.000000
0.465339 0.056275 -0.006270 2.000000
0.465339 0.079715 -0.015108 2.000000
0.465339 0.050512 0.022066 2.000000
0.465339 0.027251 -0.018089 2.000000
0.465339 -0.070000 0.013144 2.000000
0.465339 0.087464 0.002268 2.000000
0.465339 0.052827 -0.080098 2.000000
0.465339 -0.017741 0.044371 2.000000
0.465339 0.024210 0.042712 2.000000
0.465339 -0.060922 0.010837 2.000000
0.465339 -0.026881 0.080587 2.000000
0.465339 -0.079521 -0.016412 2.000000
0.465339 -0.044338 0.078934 2.000000
0.465339 -0.022609 0.045494 2.000000
0.465339 -0.028778 0.085831 2.000000
0.465339 0.017353 -0.034669 2.000000
0.465339 -0.078108 0.014150 2.000000
0.465339 0.051300 0.035968 2.000000
0.465339 0.023748 0.077395 2.000000
0.465339 -0.009588 -0.021167 2.000000
0.465339 0.024542 0.080475 2.000000
0.465339 -0.002024 0.020088 2.000000
0.465339 0.057415 -0.012812 2.000000
0.465339 -0.047136 0.026053 2.000000
0.465339 0.089169 -0.044646 2.000000
0.465339 0.008610 -0.079033 2.000000
0.465339 -0.058088 0.077676 2.000000
0.465339 0.021637 0.091589 2.000000
0.465339 0.051710 0.018582 2.000000
0.465339 0.069830 -0.030209 2.000000
0.465339 -0.033141 -0.012720 2.000000
0.465339 -0.027192 -0.020557 2.000000
0.465339 -0.015976 -0.080620 2.000000
0.465339 -0.012204 -0.030771 2.000000
0.465339 -0.017643 -0.092643 2.000000
0.465339 -0.005696 0.015660 2.000000
0.465339 -0.044075 -0.052742 2.000000
0.465339 -0.009380 -0.058941 2.000000
0.465339 0.082347 0.037195 2.000000
0.465339 -0.026184 0.042182 2.000000
0.465339 -0.020378 -0.027640 2.000000
0.465339 -0.004997 0.004851 2.000000
0.465339 -0.048330 -0.015950 2.000000
0.465339 0.066729 0.074388 2.000000
0.465339 0.067855 -0.050674 2.000000
0.465339 -0.032524 0.061787 2.000000
0.465339 -0.040072 0.033615 2.000000
0.465339 0.087199 -0.042487 2.000000
0.465339 -0.046594 -0.007008 2.000000
0.465339 -0.056299 -0.078626 2.000000
0.465339 -0.078873 0.039734 2.000000
0.465339 -0.063705 0.017799 2.000000
0.465339 -0.056998 0.018146 2.000000
0.465339 -0.012812 -0.058346 2.000000
0.465339 -0.000495 -0.041830 2.000000
0.465339 -0.000558 -0.004670 2.000000
0.465339 0.030548 0.079195 2.000000
0.465339 -0.077748 0.051486 2.000000
0.465339 -0.007828 -0.099281 2.000000
0.465339 0.077222 0.019767 2.000000
0.465339 0.002317 -0.066427 2.000000
0.465339 -0.045442 0.010140 2.000000
0.465339 -0.037515 0.070072 2.000000
0.465339 -0.030817 0.075089 2.000000
0.465339 0.010572 -0.082713 2.000000
0.465339 0.037911 -0.056935 2.000000
0.465339 0.045119 -0.014418 2.000000
0.465339 -0.018181 -0.018369 2.000000
0.465339 -0.048165 -0.046763 2.000000
0.465339 0.005541 -0.028858 2.000000
0.465339 0.021298 -0.065640 2.000000
0.465339 0.001197 -0.074857 2.000000
0.465339 -0.005210 -0.014345 2.000000
0.465339 -0.020721 0.094901 2.000000
0.465339 0.077730 -0.004371 2.000000
0.465339 0.042588 0.077621 2.000000
0.465339 -0.029142 -0.084767 2.000000
0.465339 -0.045236 0.060011 2.000000
0.465339 0.075247 -0.011260 2.000000
0.465339 0.052509 -0.016566 2.000000
0.465339 -0.079571 -0.017969 2.000000
0.465339 -0.025167 -0.051928 2.000000
0.465339 0.063022 -0.004787 2.000000
0.465339 -0.018975 -0.047321 2.000000
0.465339 -0.069600 0.056738 2.000000
0.465339 0.002961 -0.028783 2.000000
0.465339 0.068262 0.040163 2.000000
0.465339 0.073597 0.007298 2.000000
0.465339 -0.024369 0.079326 2.000000
0.465339 0.081264 0.028713 2.000000
0.465339 0.057101 -0.052397 2.000000
0.465339 -0.004156 0.081959 2.000000
0.465339 -0.038190 -0.014103 2.000000
0.465339 -0.037391 0.067622 2.000000
0.465339 -0.053274 0.027342 2.000000
0.465339 0.019727 0.095604 2.000000
0.465339 0.076253 -0.008133 2.000000
0.465339 -0.011233 -0.059128 2.000000
0.465339 -0.085440 -0.004947 2.000000
0.465339 0.000652 0.013062 2.000000
0.465339 -0.048667 -0.002827 2.000000
0.465339 0.006483 -0.069342 2.000000
0.465339 0.016512 -0.075992 2.000000
0.465339 -0.030858 -0.092256 2.000000
0.465339 0.007480 -0.033652 2.000000
0.465339 0.008477 0.042343 2.000000
0.465339 0.096258 0.021396 2.000000
0.465339 0.074421 -0.006357 2.000000
0.465339 0.074356 -0.047628 2.000000
0.465339 -0.007019 -0.034535 2.000000
0.465339 0.062549 0.031267 2.000000
0.465339 -0.025324 -0.025152 2.000000
0.465339 0.002006 -0.017224 2.000000
0.465339 0.094267 0.027998 2.000000
0.465339 -0.048645 0.007910 2.000000
0.465339 0.057583 -0.035358 2.000000
0.465339 -0.055998 0.078764 2.000000
0.465339 -0.083047 0.039857 2.000000
0.465339 0.003351 0.001788 2.000000
0.465339 0.021665 -0.068953 2.000000
0.465339 -0.025428 -0.094069 2.000000
0.465339 -0.085543 -0.034842 2.000000
0.465339 0.012947 -0.080183 2.000000
0.465339 -0.039774 0.090773 2.000000
0.465339 -0.037171 -0.064234 2.000000
0.465339 -0.044249 0.003941 2.000000
0.465339 0.065071 0.020464 2.000000
0.465339 0.019359 -0.044590 2.000000
0.465339 -0.039406 0.029255 2.000000
0.465339 0.092916 -0.008103 2.000000
0.465339 -0.032109 0.075765 2.000000
0.465339 0.037091 0.082599 2.000000
0.465339 0.000424 -0.010082 2.000000
0.465339 -0.067206 0.010118 2.000000
0.465339 -0.030471 -0.066520 2.000000
0.465339 0.088065 0.039988 2.000000
0.465339 -0.030020 -0.091165 2.000000
0.465339 -0.043612 -0.040318 2.000000
0.465339 0.020963 0.012239 2.000000
0.465339 0.028263 0.020757 2.000000
0.465339 -0.058246 -0.047830 2.000000
0.465339 -0.022124 0.014571 2.000000
0.465339 -0.074020 -0.060122 2.000000
0.465339 0.076704 -0.027711 2.000000
0.465339 -0.028730 0.093115 2.000000
0.465339 0.000920 -0.066333 2.000000
0.465339 0.084978 0.021604 2.000000
0.465339 0.035779 0.077320 2.000000
0.465339 -0.067670 -0.031683 2.000000
0.465339 -0.009752 -0.040916 2.000000
0.465339 0.080401 0.035179 2.000000
0.465339 -0.056360 0.067854 2.000000
0.465339 0.062319 -0.000802 2.000000
0.465339 -0.082117 -0.052356 2.000000
0.465339 0.070956 -0.035483 2.000000
0.465339 0.039089 0.048551 2.000000
0.465339 0.062642 -0.050493 2.000000
0.465339 -0.045508 0.026261 2.000000
0.465339 -0.001946 0.091584 2.000000
0.465339 0.052858 0.074969 2.000000
0.465339 0.079578 0.023684 2.000000
0.465339 -0.059035 0.059328 2.000000
0.465339 0.026003 -0.045761 2.000000
0.465339 0.030422 0.011510 2.000000
0.465339 0.081345 0.045085 2.000000
0.465339 0.037394 0.032036 2.000000
0.465339 -0.022457 -0.013880 2.000000
0.465339 -0.027687 0.078067 2.000000
0.465339 0.091315 0.006669 2.000000
0.465339 0.091288 0.011306 2.000000
0.465339 -0.066851 0.033122 2.000000
0.465339 -0.005431 0.069546 2.000000
0.465339 0.064585 -0.012364 2.000000
0.465339 0.055712 -0.015028 2.000000
0.465339 -0.018985 -0.085133 2.000000
0.465339 -0.034380 0.077954 2.000000
0.465339 0.080032 -0.010060 2.000000
0.465339 0.041074 -0.068355 2.000000
0.465339 -0.072367 -0.013696 2.000000
0.465339 -0.091470 0.018472 2.000000
0.465339 -0.014476 -0.048033 2.000000
0.465339 0.001651 0.076704 2.000000
0.465339 -0.089716 0.041667 2.000000
0.465339 0.061619 0.078647 2.000000
0.465339 -0.088597 -0.023135 2.000000
0.465339 -0.096310 0.012317 2.000000
0.465339 -0.056805 0.031847 2.000000
0.465339 -0.038646 -0.054470 2.000000
0.465339 0.020399 -0.072223 2.000000
0.465339 0.009148 -0.013448 2.000000
0.465339 -0.038638 0.018540 2.000000
0.465339 -0.009067 -0.050287 2.000000
0.465339 -0.058429 -0.074923 2.000000
0.465339 0.034336 -0.091188 2.000000
0.465339 -0.013705 0.029346 2.000000
0.465339 -0.051350 0.039068 2.000000
0.465339 -0.083444 -0.041408 2.000000
0.465339 0.053219 -0.036534 2.000000
