0.465339 0.014449 -0.026770 2.000000
0.465339 -0.056732 -0.077604 2.000000
0.465339 0.010913 0.051157 2.000000
0.465339 0.089302 0.000324 2.000000
0.465339 0.047670 0.043834 2.000000
0.465339 0.022908 -0.069103 2.000000
0.465339 -0.039874 0.046616 2.000000
0.465339 -0.094673 0.000128 2.000000
0.465339 -0.061056 -0.071054 2.000000
0.465339 -0.075969 0.023726 2.000000
0.465339 0.082148 0.015043 2.000000
0.465339 -0.038177 0.065046 2.000000
0.465339 -0.036404 0.062410 2.000000
0.465339 -0.002585 -0.042352 2.000000
0.465339 -0.088755 -0.024590 2.000000
0.465339 0.047345 0.045895 2.000000
0.465339 0.030181 -0.063294 2.000000
0.465339 0.040470 0.064881 2.000000
0.465339 -0.032497 -0.074609 2.000000
0.465339 -0.057057 0.002780 2.000000
0.465339 0.051897 0.009763 2.000000
0.465339 -0.035576 -0.019432 2.000000
0.465339 0.044300 -0.056871 2.000000
0.465339 -0.052514 -0.042652 2.000000
0.465339 -0.015113 -0.095457 2.000000
0.465339 0.098188 0.000326 2.000000
0.465339 0.061301 0.032972 2.000000
0.465339 0.090285 0.028553 2.000000
0.465339 -0.013002 0.030902 2.000000
0.465339 -0.063767 -0.017951 2.000000
0.465339 -0.026457 0.077003 2.000000
0.465339 0.065731 0.021391 2.000000
0.465339 -0.008570 0.030366 2.000000
0.465339 0.044903 -0.081778 2.000000
0.465339 0.025787 0.080656 2.000000
0.465339 -0.026304 0.068736 2.000000
0.465339 0.076428 0.054530 2.000000
0.465339 0.058976 -0.029846 2.000000
0.465339 0.040578 0.026791 2.000000
0.465339 -0.003463 0.064612 2.000000
0.465339 -0.004983 0.011566 2.000000
0.465339 -0.052734 -0.031115 2.000000
0.465339 0.048192 -0.044987 2.000000
0.465339 -0.043630 0.012080 2.000000
0.465339 -0.074092 0.037105 2.000000
0.465339 0.063938 -0.055802 2.000000
0.465339 -0.010535 0.006030 2.000000
0.465339 0.016926 -0.073972 2.000000
0.465339 -0.032549 -0.067548 2.000000
0.465339 0.037986 0.083128 2.000000
0.465339 0.061299 -0.014771 2.000000
0.465339 0.048647 0.039260 2.000000
0.465339 0.096116 0.027244 2.000000
0.465339 -0.048910 -0.044090 2.000000
0.465339 0.066577 -0.003972 2.000000
0.465339 0.018413 0.028751 2.000000
0.465339 -0.019244 -0.068684 2.000000
0.465339 0.005460 -0.096891 2.000000
0.465339 -0.064281 -0.075583 2.000000
0.465339 -0.053495 -0.074110 2.000000
0.465339 -0.095228 0.002549 2.000000
0.465339 -0.061253 -0.039986 2.000000
0.465339 0.041151 0.069953 2.000000
0.465339 0.001491 0.019054 2.000000
0.465339 -0.040946 -0.082035 2.000000
0.465339 -0.092498 0.017042 2.000000
0.465339 -0.017134 0.074079 2.000000
0.465339 0.042596 -0.009794 2.000000
0.465339 -0.024001 -0.072237 2.000000
0.465339 -0.018936 0.017998 2.000000
0.465339 -0.078433 -0.027237 2.000000
0.465339 -0.087391 0.047795 2.000000
0.465339 -0.053275 0.034124 2.000000
0.465339 -0.071922 -0.038814 2.000000
0.465339 0.089777 -0.009912 2.000000
0.465339 0.053559 0.060424 2.000000
0.465339 0.092664 0.004184 2.000000
0.465339 0.019564 0.048039 2.000000
0.465339 0.036558 -0.031074 2.000000
0.465339 -0.025059 -0.005193 2.000000
0.465339 -0.069257 0.057834 2.000000
0.465339 -0.013669 0.076563 2.000000
0.465339 0.029360 -0.064546 2.000000
0.465339 0.025000 -0.024324 2.000000
0.465339 -0.070516 -0.001816 2.000000
0.465339 0.014838 0.085964 2.000000
0.465339 -0.055250 0.076159 2.000000
0.465339 0.017268 -0.018108 2.000000
0.465339 0.019173 0.080530 2.000000
0.465339 -0.035758 0.042688 2.000000
0.465339 0.078794 0.024245 2.000000
0.465339 -0.086427 -0.013313 2.000000
0.465339 -0.016823 0.095086 2.000000
0.465339 -0.060326 -0.074969 2.000000
0.465339 -0.057532 0.045700 2.000000
0.465339 0.051437 0.069722 2.000000
0.465339 0.016088 -0.022453 2.000000
0.465339 -0.085115 -0.004787 2.000000
0.465339 0.060757 0.071415 2.000000
0.465339 0.077191 -0.006604 2.000000
0.465339 -0.040403 -0.008827 2.000000
0.465339 -0.004804 -0.003962 2.000000
0.465339 0.018962 0.074393 2.000000
0.465339 -0.053563 -0.070902 2.000000
0.465339 -0.008213 0.025711 2.000000
0.465339 0.040868 -0.051986 2.000000
0.465339 -0.066917 0.024888 2.000000
0.465339 -0.019380 0.022316 2.000000
0.465339 -0.002223 0.065238 2.000000
0.465339 -0.001937 0.056856 2.000000
0.465339 0.061154 0.052570 2.000000
0.465339 -0.042691 0.081136 2.000000
0.465339 -0.088198 0.030958 2.000000
0.465339 -0.000879 0.006683 2.000000
0.465339 -0.010654 -0.089861 2.000000
0.465339 0.075319 -0.018693 2.000000
0.465339 0.058294 -0.039543 2.000000
0.465339 0.087182 -0.006336 2.000000
0.465339 0.026998 0.060311 2.000000
0.465339 -0.081111 0.056820 2.000000
0.465339 -0.052224 -0.067141 2.000000
0.465339 0.003698 0.088161 2.000000
0.465339 0.009426 0.006946 2.000000
0.465339 0.069927 -0.067498 2.000000
0.465339 0.041632 -0.047300 2.000000
0.465339 -0.002416 0.012515 2.000000
0.465339 -0.061323 0.057076 2.000000
0.465339 0.065238 -0.068696 2.000000
0.465339 0.016138 0.087789 2.000000
0.465339 0.006896 -0.020935 2.000000
0.465339 -0.024632 -0.059035 2.000000
0.465339 0.047648 -0.002524 2.000000
0.465339 0.030716 -0.054725 2.000000
0.465339 -0.075499 0.060760 2.000000
0.465339 -0.042478 -0.089456 2.000000
0.465339 -0.006081 -0.073050 2.000000
0.465339 -0.082038 -0.053864 2.000000
0.465339 0.037880 -0.085347 2.000000
0.465339 0.072503 -0.063320 2.000000
0.465339 0.064234 0.019991 2.000000
0.465339 -0.078379 0.042079 2.000000
0.465339 0.081202 -0.040230 2.000000
0.465339 -0.001686 -0.035519 2.000000
0.465339 0.054533 0.006512 2.000000
0.465339 0.044341 -0.066633 2.000000
0.465339 -0.019246 -0.002470 2.000000
0.465339 -0.044887 0.005405 2.000000
0.465339 0.016381 0.036020 2.000000
0.465339 -0.017028 0.066235 2.000000
0.465339 -0.056230 -0.027784 2.000000
0.465339 0.048292 0.018899 2.000000
0.465339 -0.024381 -0.013762 2.000000
0.465339 -0.071367 -0.013955 2.000000
0.465339 -0.046022 -0.053882 2.000000
0.465339 0.009797 -0.058220 2.000000
0.465339 0.014787 0.032035 2.000000
0.465339 -0.074701 0.000302 2.000000
0.465339 0.031855 -0.076413 2.000000
0.465339 -0.062630 0.035807 2.000000
0.465339 -0.072615 0.068455 2.000000
0.465339 0.080548 0.013659 2.000000
0.465339 0.067457 -0.045476 2.000000
0.465339 0.053335 0.058999 2.000000
0.465339 -0.002762 0.053601 2.000000
0.465339 0.021457 0.024986 2.000000
0.465339 -0.024790 0.085246 2.000000
0.465339 0.030442 0.002579 2.000000
0.465339 0.045365 0.006001 2.000000
0.465339 -0.002748 0.008256 2.000000
0.465339 -0.005461 0.035341 2.000000
0.465339 -0.050908 -0.075060 2.000000
0.465339 0.079545 -0.028966 2.000000
0.465339 0.020404 -0.008496 2.000000
0.465339 -0.008394 0.008546 2.000000
0.465339 -0.012502 -0.019055 2.000000
0.465339 -0.015219 0.094448 2.000000
0.465339 0.034255 -0.078190 2.000000
0.465339 -0.029726 0.023808 2.000000
0.465339 -0.020682 0.048912 2.000000
0.465339 -0.023623 0.019660 2.000000
0.465339 -0.078027 0.054968 2.000000
0.465339 -0.018708 -0.030390 2.000000
0.465339 -0.062282 0.069466 2.000000
0.465339 0.046764 0.064994 2.000000
0.465339 -0.078264 0.037094 2.000000
0.465339 -0.055167 -0.060066 2.000000
0.465339 0.056098 0.018001 2.000000
0.465339 -0.039683 -0.026513 2.000000
0.465339 0.021121 0.043806 2.000000
0.465339 -0.027387 -0.002535 2.000000
0.465339 0.023186 0.043944 2.000000
0.465339 -0.074952 0.030539 2.000000
0.465339 -0.085970 0.002675 2.000000
0.465339 0.067900 0.033479 2.000000
0.465339 0.043201 -0.019817 2.000000
0.465339 0.088220 -0.029789 2.000000
0.465339 0.025621 0.024590 2.000000
0.465339 -0.059103 0.069069 2.000000
0.465339 0.030779 0.011324 2.000000
0.465339 0.048928 -0.011341 2.000000
0.465339 -0.025552 0.044201 2.000000
0.465339 0.088960 -0.008528 2.000000
0.465339 0.075286 -0.024121 2.000000
0.465339 0.005328 -0.017357 2.000000
0.465339 -0.063620 -0.059448 2.000000
0.465339 -0.007422 -0.013368 2.000000
0.465339 0.022178 -0.029216 2.000000
0.465339 0.046303 0.018597 2.000000
0.465339 0.003691 0.061183 2.000000
0.465339 0.091828 0.029928 2.000000
0.465339 0.005435 0.093416 2.000000
0.465339 -0.060031 0.017007 2.000000
0.465339 0.036122 -0.075052 2.000000
0.465339 0.044748 0.000361 2.000000
0.465339 0.065497 -0.072065 2.000000
0.465339 0.066874 -0.065816 2.000000
0.465339 0.004241 0.044622 2.000000
0.465339 0.076544 -0.049811 2.000000
0.465339 -0.076801 0.002317 2.000000
0.465339 0.018912 0.007935 2.000000
0.465339 0.026307 0.032862 2.000000
0.465339 -0.066970 0.055336 2.000000
0.465339 -0.037778 -0.083731 2.000000
0.465339 0.076263 -0.025402 2.000000
0.465339 0.011804 -0.031932 2.000000
0.465339 -0.002705 0.072729 2.000000
0.465339 -0.019037 -0.020241 2.000000
0.465339 -0.026737 -0.083866 2.000000
0.465339 -0.041419 0.015892 2.000000
0.465339 -0.009753 0.061631 2.000000
0.465339 0.065740 0.012370 2.000000
0.465339 0.080469 -0.001846 2.000000
0.465339 0.012994 -0.035646 2.000000
0.465339 0.085594 -0.030622 2.000000
0.465339 -0.031226 0.062006 2.000000
0.465339 -0.051291 0.046532 2.000000
0.465339 0.018973 -0.085187 2.000000
0.465339 0.009783 -0.086337 2.000000
0.465339 -0.023975 0.046819 2.000000
0.465339 -0.040248 -0.041179 2.000000
0.465339 0.098713 0.015757 2.000000
0.465339 0.082633 0.053581 2.000000
0.465339 0.045759 0.049264 2.000000
0.465339 0.089416 -0.035787 2.000000
0.465339 -0.076299 0.014367 2.000000
0.465339 -0.005746 0.045751 2.000000
0.465339 -0.049159 0.082414 2.000000
0.465339 0.001970 -0.068756 2.000000
0.465339 0.022406 -0.040372 2.000000
0.465339 0.040825 -0.017816 2.000000
0.465339 0.003535 0.022998 2.000000
0.465339 -0.030009 0.044289 2.000000
0.465339 -0.023363 0.065845 2.000000
0.465339 -0.008596 -0.066150 2.000000
0.465339 -0.052817 -0.027868 2.000000
0.465339 -0.028327 0.023928 2.000000
0.465339 0.008069 -0.087154 2.000000
0.465339 -0.067977 0.072609 2.000000
0.465339 -0.053425 -0.019907 2.000000
0.465339 -0.049834 0.025679 2.000000
0.465339 -0.039263 -0.081562 2.000000
0.465339 0.028165 -0.053019 2.000000
0.465339 0.008168 0.023062 2.000000
0.465339 -0.060948 0.055603 2.000000
0.465339 -0.046321 -0.007797 2.000000
0.465339 -0.030040 0.001233 2.000000
0.465339 -0.055456 0.078281 2.000000
0.465339 0.005540 0.066064 2.000000
0.465339 0.070830 -0.003696 2.000000
0.465339 0.032120 -0.080607 2.000000
0.465339 -0.054494 0.073329 2.000000
0.465339 0.039860 0.079497 2.000000
0.465339 0.012956 -0.010586 2.000000
0.465339 -0.019441 -0.009159 2.000000
0.465339 -0.022471 -0.085308 2.000000
0.465339 0.054443 -0.018565 2.000000
0.465339 0.058659 0.038366 2.000000
0.465339 -0.055282 -0.054046 2.000000
0.465339 -0.062706 0.018522 2.000000
0.465339 -0.021054 0.059581 2.000000
0.465339 -0.065309 0.024918 2.000000
0.465339 -0.004637 -0.059321 2.000000
0.465339 -0.014982 0.019546 2.000000
0.465339 0.001986 0.096439 2.000000
0.465339 -0.067961 0.058805 2.000000
0.465339 -0.030056 -0.007555 2.000000
0.465339 -0.055424 0.000382 2.000000
0.465339 0.022218 0.063840 2.000000
0.465339 0.093199 0.022764 2.000000
0.465339 0.016794 -0.056800 2.000000
0.465339 0.072037 -0.024930 2.000000
0.465339 -0.049076 -0.070956 2.000000
0.465339 -0.021896 -0.078130 2.000000
0.465339 0.011531 0.059722 2.000000
0.465339 -0.067667 -0.036703 2.000000
0.465339 0.088926 0.014582 2.000000
0.465339 -0.013946 0.053257 2.000000
0.465339 -0.009939 -0.034945 2.000000
0.465339 0.036673 -0.071471 2.000000
0.465339 0.043615 -0.089323 2.000000
0.465339 -0.012129 0.065728 2.000000
0.465339 -0.005206 -0.057437 2.000000
0.465339 0.042501 0.047250 2.000000
0.465339 -0.019360 -0.048412 2.000000
0.465339 -0.009284 0.012445 2.000000
0.465339 -0.047853 -0.017760 2.000000
0.465339 -0.064216 0.056379 2.000000
0.465339 0.045406 0.008369 2.000000
0.465339 0.076162 0.014528 2.000000
0.465339 0.090733 -0.041645 2.000000
0.465339 0.072639 0.054517 2.000000
0.465339 -0.030911 -0.078321 2.000000
0.465339 0.017235 -0.043408 2.000000
0.465339 0.068859 0.055257 2.000000
0.465339 -0.074754 0.024797 2.000000
0.465339 0.073661 -0.023742 2.000000
0.465339 0.032861 -0.028349 2.000000
0.465339 0.050637 -0.001429 2.000000
0.465339 -0.028574 0.050064 2.000000
0.465339 0.004685 0.035576 2.000000
0.465339 0.056793 0.060539 2.000000
0.465339 -0.085736 0.010774 2.000000
0.465339 0.014675 0.046018 2.000000
0.465339 0.008837 -0.008008 2.000000
0.465339 0.077647 -0.057434 2.000000
0.465339 0.061668 0.000858 2.000000
0.465339 0.059218 0.060792 2.000000
0.465339 -0.092957 -0.027650 2.000000
0.465339 -0.000922 0.004930 2.000000
0.465339 0.080324 -0.052145 2.000000
0.465339 0.055109 -0.053768 2.000000
0.465339 -0.017637 -0.079763 2.000000
0.465339 -0.014803 0.068515 2.000000
0.465339 -0.015760 -0.062904 2.000000
0.465339 0.003658 0.077069 2.000000
0.465339 0.017032 0.018841 2.000000
0.465339 -0.017258 -0.033426 2.000000
0.465339 -0.083340 0.041350 2.000000
0.465339 -0.086569 0.046231 2.000000
0.465339 0.052938 -0.079214 2.000000
0.465339 -0.024322 0.080943 2.000000
0.465339 0.062118 -0.061052 2.000000
0.465339 0.073656 0.012686 2.000000
0.465339 0.009279 -0.005961 2.000000
0.465339 -0.062349 0.005006 2.000000
0.465339 0.025438 0.020980 2.000000
0.465339 -0.077608 0.012493 2.000000
0.465339 -0.051209 -0.051025 2.000000
0.465339 0.075195 -0.047548 2.000000
0.465339 0.066054 0.058812 2.000000
0.465339 0.015252 -0.095940 2.000000
0.465339 -0.061467 0.066794 2.000000
0.465339 0.048485 -0.009320 2.000000
0.465339 -0.034481 0.093458 2.000000
0.465339 0.050183 0.036022 2.000000
0.465339 0.015340 0.067587 2.000000
0.465339 -0.028505 -0.049782 2.000000
0.465339 -0.098584 0.011328 2.000000
0.465339 0.083512 0.043442 2.000000
0.465339 -0.008542 0.081885 2.000000
0.465339 0.020306 0.073327 2.000000
0.465339 -0.083462 -0.048257 2.000000
0.465339 -0.029157 0.032718 2.000000
0.465339 -0.008892 0.085557 2.000000
0.465339 -0.077866 0.031506 2.000000
0.465339 -0.096167 -0.012846 2.000000
0.465339 -0.068684 0.069417 2.000000
0.465339 0.063169 0.046786 2.000000
0.465339 0.002526 0.078703 2.000000
0.465339 -0.082515 0.016844 2.000000
0.465339 0.019493 0.069051 2.000000
0.465339 0.028041 -0.038617 2.000000
0.465339 -0.027261 0.039110 2.000000
0.465339 0.034770 -0.050286 2.000000
0.465339 -0.019726 0.012668 2.000000
0.465339 -0.014717 0.051789 2.000000
0.465339 -0.067883 -0.004424 2.000000
0.465339 -0.074073 0.051585 2.000000
0.465339 -0.018690 0.086341 2.000000
0.465339 0.039884 0.052204 2.000000
0.465339 -0.042694 0.036927 2.000000
0.465339 0.078966 -0.051493 2.000000
0.465339 -0.084599 -0.022823 2.000000
0.465339 0.061510 -0.029464 2.000000
0.465339 -0.023686 -0.068398 2.000000
0.465339 0.031888 -0.090086 2.000000
0.465339 -0.034341 0.060138 2.000000
0.465339 -0.065665 0.068685 2.000000
0.465339 0.027621 0.030722 2.000000
0.465339 -0.020690 0.065862 2.000000
0.465339 0.058171 -0.031897 2.000000
0.465339 -0.089670 0.036557 2.000000
0.465339 0.017500 -0.030345 2.000000
0.465339 -0.034551 0.068219 2.000000
0.465339 0.054121 0.021175 2.000000
0.465339 -0.010851 -0.065566 2.000000
0.465339 0.038099 -0.022974 2.000000
0.465339 0.081170 -0.043834 2.000000
0.465339 -0.036383 -0.058760 2.000000
0.465339 0.084909 0.015919 2.000000
0.465339 -0.064872 0.017736 2.000000
0.465339 0.039653 0.043436 2.000000
0.465339 -0.001640 -0.044369 2.000000
0.465339 -0.051303 -0.030115 2.000000
0.465339 -0.086300 0.042891 2.000000
0.465339 0.008480 -0.039665 2.000000
0.465339 -0.052492 -0.055212 2.000000
0.465339 -0.021240 -0.062516 2.000000
0.465339 -0.062849 -0.006319 2.000000
0.465339 -0.091860 0.024933 2.000000
0.465339 0.055941 -0.011372 2.000000
0.465339 0.043670 -0.015053 2.000000
0.465339 0.042179 -0.022479 2.000000
0.465339 0.030365 -0.085190 2.000000
0.465339 0.079891 0.027706 2.000000
0.465339 -0.042761 -0.064041 2.000000
0.465339 0.030501 0.031891 2.000000
0.465339 0.091509 -0.010356 2.000000
0.465339 -0.037399 -0.087371 2.000000
0.465339 0.025643 0.000401 2.000000
0.465339 0.084796 -0.029449 2.000000
0.465339 -0.055362 -0.036513 2.000000
0.465339 0.014129 0.041202 2.000000
0.465339 -0.050519 0.015233 2.000000
0.465339 0.001367 0.075032 2.000000
0.465339 0.019971 -0.040259 2.000000
0.465339 0.070532 -0.026760 2.000000
0.465339 0.072374 0.050160 2.000000
0.465339 0.073596 -0.036408 2.000000
0.465339 -0.027293 -0.000801 2.000000
0.465339 0.013179 -0.040430 2.000000
0.465339 0.077271 -0.051585 2.000000
0.465339 -0.006358 -0.053829 2.000000
0.465339 -0.095296 0.013766 2.000000
0.465339 0.027800 0.079362 2.000000
0.465339 0.045718 -0.061316 2.000000
0.465339 0.078043 -0.047871 2.000000
0.465339 0.094285 -0.002139 2.000000
0.465339 -0.048886 -0.031745 2.000000
0.465339 -0.070741 -0.029648 2.000000
0.465339 0.031026 -0.017647 2.000000
0.465339 0.080663 -0.022164 2.000000
0.465339 0.000190 -0.056678 2.000000
0.465339 0.011354 -0.001880 2.000000
0.465339 0.056738 -0.077351 2.000000
0.465339 0.047539 -0.058242 2.000000
0.465339 -0.076789 0.041800 2.000000
0.465339 -0.037597 0.039056 2.000000
0.465339 0.009005 0.087233 2.000000
0.465339 -0.055982 -0.016318 2.000000
0.465339 -0.066855 -0.041420 2.000000
0.465339 0.072984 0.024748 2.000000
0.465339 -0.010246 -0.024896 2.000000
0.465339 0.024803 0.037916 2.000000
0.465339 -0.034037 0.039791 2.000000
0.465339 -0.032963 0.069194 2.000000
0.465339 0.015231 -0.030154 2.000000
0.465339 0.002892 0.080883 2.000000
0.465339 -0.059479 0.065114 2.000000
0.465339 0.041108 -0.025828 2.000000
0.465339 -0.081484 -0.037057 2.000000
0.465339 -0.059112 0.028096 2.000000
0.465339 -0.026346 0.065342 2.000000
0.465339 0.033056 0.013714 2.000000
0.465339 0.070895 -0.068416 2.000000
0.465339 0.035150 -0.053411 2.000000
0.465339 -0.045234 0.031544 2.000000
0.465339 -0.033154 0.001045 2.000000
0.465339 0.028883 0.094834 2.000000
0.465339 0.001575 0.035610 2.000000
0.465339 -0.067112 0.073980 2.000000
0.465339 -0.019522 -0.018715 2.000000
0.465339 -0.047102 -0.073108 2.000000
0.465339 -0.026162 0.086477 2.000000
0.465339 0.014083 0.019253 2.000000
0.465339 0.038169 0.092011 2.000000
0.465339 0.023769 -0.042999 2.000000
0.465339 -0.084420 0.014920 2.000000
0.465339 0.003628 -0.081223 2.000000
0.465339 0.077462 0.010906 2.000000
0.465339 -0.091109 -0.014810 2.000000
0.465339 0.064409 -0.041439 2.000000
0.465339 -0.083659 -0.012456 2.000000
0.465339 0.031961 0.048193 2.000000
0.465339 0.008945 -0.091750 2.000000
0.465339 -0.045445 -0.078035 2.000000
0.465339 -0.043505 -0.025243 2.000000
0.465339 0.040638 -0.046295 2.000000
0.465339 0.079747 -0.040089 2.000000
0.465339 0.030814 0.094324 2.000000
0.465339 0.045650 0.058839 2.000000
0.465339 0.036489 0.000299 2.000000
0.465339 0.022141 0.071921 2.000000
0.465339 0.049217 0.029430 2.000000
0.465339 -0.023272 -0.084068 2.000000
0.465339 -0.012919 0.003176 2.000000
0.465339 0.051163 -0.074379 2.000000
0.465339 -0.051647 -0.058413 2.000000
0.465339 0.026710 0.018431 2.000000
0.465339 -0.088219 -0.000429 2.000000
0.465339 -0.028565 0.078044 2.000000
0.465339 0.010816 0.020457 2.000000
0.465339 0.011521 0.015045 2.000000
0.465339 0.079341 -0.017668 2.000000
0.465339 0.006623 -0.065010 2.000000
0.465339 0.093960 -0.017896 2.000000
0.465339 0.073654 0.009295 2.000000
0.465339 0.034007 0.030404 2.000000
0.465339 0.094052 -0.025538 2.000000
0.465339 -0.016393 -0.021195 2.000000
0.465339 -0.035830 -0.052171 2.000000
0.465339 -0.093723 0.004100 2.000000
0.465339 0.060841 -0.004544 2.000000
0.465339 -0.011785 0.013792 2.000000
0.465339 -0.040109 0.069044 2.000000
0.465339 -0.006102 -0.003105 2.000000
0.465339 -0.075712 -0.006904 2.000000
0.465339 0.035993 -0.033081 2.000000
0.465339 -0.049033 -0.011365 2.000000
0.465339 -0.037806 -0.047067 2.000000
0.465339 0.055345 0.055690 2.000000
0.465339 -0.040715 0.065723 2.000000
0.465339 0.002339 0.088624 2.000000
0.465339 -0.014644 0.079575 2.000000
0.465339 -0.074976 0.010404 2.000000
0.465339 -0.039725 0.066808 2.000000
0.465339 0.093420 0.029460 2.000000
0.465339 0.095344 -0.022670 2.000000
0.465339 -0.079582 0.045889 2.000000
0.465339 0.046531 -0.085448 2.000000
0.465339 -0.045213 -0.088048 2.000000
0.465339 -0.040020 0.042857 2.000000
0.465339 -0.008100 0.013301 2.000000
0.465339 0.052063 0.040945 2.000000
0.465339 0.049380 0.045814 2.000000
0.465339 0.033058 0.010022 2.000000
0.465339 0.045971 -0.066302 2.000000
0.465339 -0.046489 -0.078997 2.000000
0.465339 -0.064881 -0.043759 2.000000
0.465339 -0.033784 0.028949 2.000000
0.465339 -0.010430 0.013308 2.000000
0.465339 0.055535 -0.050583 2.000000
0.465339 0.017681 -0.025955 2.000000
0.465339 -0.002947 -0.068398 2.000000
0.465339 -0.034146 0.017884 2.000000
0.465339 -0.019891 0.000865 2.000000
0.465339 -0.040597 -0.069593 2.000000
0.465339 0.044927 -0.004020 2.000000
0.465339 -0.014492 -0.092636 2.000000
0.465339 0.012104 -0.047977 2.000000
0.465339 -0.017242 -0.039290 2.000000
0.465339 -0.071817 0.023635 2.000000
0.465339 0.092810 0.006988 2.000000
0.465339 -0.080028 0.059051 2.000000
0.465339 -0.026110 -0.085429 2.000000
0.465339 0.055188 0.031064 2.000000
0.465339 -0.015166 -0.005680 2.000000
0.465339 0.004018 0.057050 2.000000
0.465339 -0.021772 -0.064288 2.000000
0.465339 0.023672 0.079174 2.000000
0.465339 -0.047513 -0.021613 2.000000
0.465339 0.099806 -0.005921 2.000000
0.465339 -0.011983 -0.091891 2.000000
0.465339 0.060079 0.051588 2.000000
0.465339 0.041925 -0.011104 2.000000
0.465339 -0.028562 0.092604 2.000000
0.465339 0.051384 0.037480 2.000000
0.465339 -0.069745 -0.035294 2.000000
0.465339 0.033331 -0.061308 2.000000
0.465339 -0.069499 -0.002905 2.000000
0.465339 0.071578 0.036375 2.000000
0.465339 -0.021991 -0.091592 2.000000
0.465339 -0.069531 -0.018327 2.000000
0.465339 -0.046417 0.019117 2.000000
0.465339 -0.005507 0.087496 2.000000
0.465339 0.022114 -0.008528 2.000000
0.465339 -0.038473 0.078666 2.000000
0.465339 -0.016601 -0.023776 2.000000
0.465339 -0.025448 -0.000444 2.000000
0.465339 0.060404 -0.013676 2.000000
0.465339 -0.090327 -0.008147 2.000000
0.465339 0.091947 0.016222 2.000000
0.465339 0.001360 0.041658 2.000000
0.465339 -0.093423 0.018654 2.000000
0.465339 0.030574 0.055544 2.000000
0.465339 -0.058059 -0.059306 2.000000
0.465339 0.061752 -0.040704 2.000000
0.465339 0.003086 -0.084978 2.000000
0.465339 0.041804 0.020044 2.000000
0.465339 -0.056373 0.080805 2.000000
0.465339 0.042243 0.041802 2.000000
0.465339 0.040107 0.077822 2.000000
0.465339 0.081657 -0.052576 2.000000
0.465339 -0.027079 -0.093174 2.000000
0.465339 0.039378 0.067392 2.000000
0.465339 -0.021785 0.095754 2.000000
0.465339 -0.073075 -0.065575 2.000000
0.465339 0.045749 0.062239 2.000000
0.465339 0.076735 -0.055228 2.000000
0.465339 0.039112 0.039782 2.000000
0.465339 0.025705 -0.077823 2.000000
0.465339 0.035229 -0.046519 2.000000
0.465339 -0.049205 0.006701 2.000000
0.465339 -0.080637 0.032639 2.000000
0.465339 -0.043490 -0.013430 2.000000
0.465339 0.057656 -0.013267 2.000000
0.465339 -0.028560 0.058656 2.000000
0.465339 -0.065397 -0.039517 2.000000
0.465339 0.050470 0.066146 2.000000
0.465339 0.083124 0.044869 2.000000
0.465339 0.083534 -0.030307 2.000000
0.465339 0.036278 0.063062 2.000000
0.465339 0.045165 0.001728 2.000000
0.465339 -0.035985 0.061042 2.000000
0.465339 0.045721 0.022187 2.000000
0.465339 0.020313 -0.083905 2.000000
0.465339 0.013041 0.086648 2.000000
0.465339 -0.052181 0.084682 2.000000
0.465339 0.077373 0.056049 2.000000
0.465339 -0.018755 -0.064299 2.000000
0.465339 -0.039757 -0.018837 2.000000
0.465339 0.018289 -0.033543 2.000000
0.465339 0.061916 0.050969 2.000000
0.465339 0.053711 -0.023224 2.000000
0.465339 -0.074636 -0.028285 2.000000
0.465339 -0.069989 0.070943 2.000000
0.465339 0.005884 -0.036549 2.000000
0.465339 -0.079371 0.012468 2.000000
0.465339 -0.023316 0.022671 2.000000
0.465339 0.035849 -0.073648 2.000000
0.465339 -0.036525 -0.068729 2.000000
0.465339 0.020631 -0.077420 2.000000
0.465339 0.085261 0.042493 2.000000
0.465339 0.002753 -0.040382 2.000000
0.465339 -0.015356 0.073770 2.000000
0.465339 -0.042344 -0.020730 2.000000
0.465339 -0.000514 0.048480 2.000000
0.465339 0.084097 0.049251 2.000000
0.465339 0.024425 0.032026 2.000000
0.465339 -0.016407 -0.053089 2.000000
0.465339 -0.009051 0.028910 2.000000
0.465339 -0.076332 -0.047465 2.000000
0.465339 0.006397 -0.030292 2.000000
0.465339 -0.085752 -0.020311 2.000000
0.465339 0.021483 0.093032 2.000000
0.465339 -0.073712 -0.025921 2.000000
0.465339 0.027421 -0.064688 2.000000
0.465339 0.029776 -0.093292 2.000000
0.465339 0.008271 0.017744 2.000000
0.465339 -0.096779 0.016461 2.000000
0.465339 -0.011115 -0.042282 2.000000
0.465339 -0.068630 0.046464 2.000000
0.465339 -0.057722 -0.076309 2.000000
0.465339 0.015932 -0.046709 2.000000
0.465339 -0.041802 0.013816 2.000000
0.465339 -0.051216 0.043008 2.000000
0.465339 0.001516 -0.075077 2.000000
0.465339 -0.057739 -0.073298 2.000000
0.465339 -0.051044 0.028504 2.000000
0.465339 0.027296 0.001622 2.000000
0.465339 -0.091872 -0.025950 2.000000
0.465339 0.067858 -0.054650 2.000000
0.465339 -0.067980 0.033259 2.000000
0.465339 -0.001142 -0.041279 2.000000
0.465339 0.042431 -0.025609 2.000000
0.465339 -0.025097 -0.020400 2.000000
0.465339 0.035672 0.033020 2.000000
0.465339 0.016852 -0.054100 2.000000
0.465339 -0.015334 0.040658 2.000000
0.465339 0.090404 0.026973 2.000000
0.465339 0.088353 -0.028240 2.000000
0.465339 -0.063370 0.065088 2.000000
0.465339 -0.059111 -0.016828 2.000000
0.465339 0.049582 -0.036621 2.000000
0.465339 0.039996 0.009448 2.000000
0.465339 0.070264 -0.042466 2.000000
0.465339 0.009332 -0.055465 2.000000
0.465339 -0.083662 0.037783 2.000000
0.465339 -0.091092 0.032412 2.000000
0.465339 0.050336 -0.073028 2.000000
0.465339 0.025086 0.071099 2.000000
0.465339 0.042279 0.069091 2.000000
0.465339 -0.072141 -0.059887 2.000000
0.465339 -0.005990 -0.027295 2.000000
0.465339 0.090042 0.013615 2.000000
0.465339 -0.054139 -0.067723 2.000000
0.465339 -0.043892 -0.007111 2.000000
0.465339 -0.084832 0.021654 2.000000
0.465339 -0.025086 0.018918 2.000000
0.465339 0.058026 -0.063979 2.000000
0.465339 0.046955 -0.069747 2.000000
0.465339 -0.017717 -0.006318 2.000000
0.465339 -0.072924 0.033222 2.000000
0.465339 0.034985 -0.063375 2.000000
0.465339 -0.009546 0.063824 2.000000
0.465339 0.023152 0.039222 2.000000
0.465339 -0.075267 0.027743 2.000000
0.465339 0.006515 -0.087314 2.000000
0.465339 -0.026474 -0.004336 2.000000
0.465339 0.033072 -0.032128 2.000000
0.465339 0.014908 -0.084539 2.000000
0.465339 -0.051862 -0.002549 2.000000
0.465339 0.055363 0.069704 2.000000
0.465339 0.073786 0.014037 2.000000
0.465339 -0.029407 -0.069590 2.000000
0.465339 -0.040420 0.003940 2.000000
0.465339 0.015788 -0.031660 2.000000
0.465339 -0.016536 0.070040 2.000000
0.465339 0.007795 -0.009617 2.000000
0.465339 0.000229 -0.027906 2.000000
0.465339 -0.037922 0.003115 2.000000
0.465339 -0.064916 -0.014667 2.000000
0.465339 0.046158 -0.007676 2.000000
0.465339 -0.045750 -0.044588 2.000000
0.465339 -0.046342 0.085874 2.000000
0.465339 -0.046321 0.045889 2.000000
0.465339 0.013877 0.091526 2.000000
0.465339 -0.024814 0.096803 2.000000
0.465339 0.001578 -0.043197 2.000000
0.465339 -0.000510 -0.036905 2.000000
0.465339 -0.044540 0.087657 2.000000
0.465339 0.033419 -0.085027 2.000000
0.465339 0.015400 -0.056116 2.000000
0.465339 0.040449 -0.043518 2.000000
0.465339 -0.015477 0.075595 2.000000
0.465339 -0.062450 -0.025579 2.000000
0.465339 0.017004 0.089757 2.000000
0.465339 0.086770 0.015575 2.000000
0.465339 0.041536 0.084562 2.000000
0.465339 -0.060906 0.053759 2.000000
0.465339 0.076037 0.060612 2.000000
0.465339 -0.038817 -0.007558 2.000000
0.465339 0.084630 0.009050 2.000000
0.465339 0.093356 -0.016386 2.000000
0.465339 0.008160 0.006247 2.000000
0.465339 -0.060156 -0.005943 2.000000
0.465339 -0.009832 -0.084388 2.000000
0.465339 0.059733 0.021834 2.000000
0.465339 -0.023151 -0.080947 2.000000
0.465339 -0.014752 -0.008893 2.000000
0.465339 0.018827 -0.022840 2.000000
0.465339 0.022230 -0.015719 2.000000
0.465339 -0.051662 0.021189 2.000000
0.465339 0.074519 -0.016155 2.000000
0.465339 -0.058708 -0.035815 2.000000
0.465339 0.010014 -0.054025 2.000000
0.465339 0.002037 0.067163 2.000000
0.465339 0.024881 -0.094908 2.000000
0.465339 0.066241 -0.037614 2.000000
0.465339 0.070963 -0.017210 2.000000
0.465339 -0.070404 -0.037559 2.000000
0.465339 -0.060623 -0.064916 2.000000
0.465339 0.017382 0.006927 2.000000
0.465339 -0.072912 -0.032165 2.000000
0.465339 0.031241 -0.024717 2.000000
0.465339 -0.001546 -0.056703 2.000000
0.465339 -0.024668 0.095276 2.000000
0.465339 -0.068197 0.029519 2.000000
0.465339 0.020437 0.039104 2.000000
0.465339 -0.073526 -0.045996 2.000000
0.465339 -0.085183 -0.012633 2.000000
0.465339 0.056865 0.040003 2.000000
0.465339 -0.012776 -0.074475 2.000000
0.465339 0.016384 0.079149 2.000000
0.465339 0.009513 -0.072065 2.000000
0.465339 -0.049062 -0.024868 2.000000
0.465339 -0.034780 0.084322 2.000000
0.465339 0.029932 -0.006325 2.000000
0.465339 -0.068184 0.050268 2.000000
0.465339 0.052634 0.036321 2.000000
0.465339 0.087665 0.006214 2.000000
0.465339 0.013038 0.090151 2.000000
0.465339 0.002272 0.005816 2.000000
0.465339 -0.006948 0.030619 2.000000
0.465339 -0.045549 0.007053 2.000000
0.465339 0.028573 -0.010679 2.000000
0.465339 -0.044486 0.041749 2.000000
0.465339 0.065420 -0.026760 2.000000
0.465339 -0.077475 -0.059168 2.000000
0.465339 -0.021299 -0.088881 2.000000
0.465339 0.018344 -0.016124 2.000000
0.465339 -0.030543 0.011024 2.000000
0.465339 0.026916 -0.043301 2.000000
0.465339 0.025957 -0.069083 2.000000
0.465339 0.040408 0.040918 2.000000
0.465339 -0.086794 -0.036045 2.000000
0.465339 0.053902 0.055960 2.000000
0.465339 0.016443 -0.040140 2.000000
0.465339 0.005323 0.078988 2.000000
0.465339 -0.060921 0.078441 2.000000
0.465339 0.014632 -0.092601 2.000000
0.465339 0.026677 -0.053768 2.000000
0.465339 -0.054819 -0.049881 2.000000
0.465339 -0.022522 -0.001828 2.000000
0.465339 -0.072898 0.029384 2.000000
0.465339 -0.083101 0.009596 2.000000
0.465339 -0.000223 -0.086011 2.000000
0.465339 0.054717 0.054212 2.000000
0.465339 -0.072105 0.062606 2.000000
0.465339 0.049486 -0.029358 2.000000
0.465339 0.078852 0.029913 2.000000
0.465339 -0.051482 0.018823 2.000000
0.465339 0.007628 -0.033674 2.000000
0.465339 -0.045362 -0.086155 2.000000
0.465339 0.002014 -0.038735 2.000000
0.465339 0.082996 -0.039649 2.000000
0.465339 0.011953 -0.070251 2.000000
0.465339 -0.013542 0.023644 2.000000
0.465339 0.020893 0.049086 2.000000
0.465339 -0.081228 0.051488 2.000000
0.465339 0.007469 0.046877 2.000000
0.465339 0.006485 -0.051431 2.000000
0.465339 0.053854 -0.083408 2.000000
0.465339 -0.003286 -0.066906 2.000000
0.465339 -0.092550 -0.021903 2.000000
0.465339 0.011321 0.079124 2.000000
0.465339 -0.026252 0.087967 2.000000
0.465339 -0.037657 0.041932 2.000000
0.465339 -0.062403 0.022499 2.000000
0.465339 -0.030080 0.075796 2.000000
0.465339 -0.010796 0.009524 2.000000
0.465339 -0.038885 -0.087104 2.000000
0.465339 0.082148 -0.055822 2.000000
0.465339 -0.040883 -0.068121 2.000000
0.465339 0.054100 -0.016227 2.000000
0.465339 -0.015222 -0.065994 2.000000
0.465339 -0.061532 0.044445 2.000000
0.465339 -0.021168 -0.010053 2.000000
0.465339 0.060085 0.073807 2.000000
0.465339 0.059975 -0.051327 2.000000
0.465339 -0.075402 -0.030058 2.000000
0.465339 0.018164 0.086400 2.000000
0.465339 0.033502 0.045763 2.000000
0.465339 -0.041119 0.060713 2.000000
0.465339 0.048220 0.000690 2.000000
0.465339 -0.015475 -0.070991 2.000000
0.465339 -0.087397 -0.030605 2.000000
0.465339 -0.034991 0.030544 2.000000
0.465339 0.013819 -0.042933 2.000000
0.465339 0.025062 -0.055796 2.000000
0.465339 -0.047471 0.052618 2.000000
0.465339 0.035213 0.061675 2.000000
0.465339 -0.050757 -0.034568 2.000000
0.465339 -0.016357 -0.036258 2.000000
0.465339 0.025823 0.083832 2.000000
0.465339 0.053174 -0.031612 2.000000
0.465339 0.050244 0.015492 2.000000
0.465339 -0.002528 0.090171 2.000000
0.465339 0.092253 -0.021617 2.000000
0.465339 0.004098 0.082296 2.000000
0.465339 0.034889 0.005007 2.000000
0.465339 -0.009239 -0.036487 2.000000
0.465339 -0.039246 -0.043449 2.000000
0.465339 0.046802 -0.026867 2.000000
0.465339 -0.078539 0.059509 2.000000
0.465339 0.086194 0.016872 2.000000
0.465339 -0.084237 0.053333 2.000000
0.465339 0.084239 0.041532 2.000000
0.465339 0.032123 0.046573 2.000000
0.465339 0.003814 0.093166 2.000000
0.465339 -0.074421 0.032088 2.000000
0.465339 0.000332 0.030447 2.000000
0.465339 0.083061 0.002613 2.000000
0.465339 -0.021931 0.067051 2.000000
0.465339 0.039111 -0.065866 2.000000
0.465339 0.046308 -0.049511 2.000000
0.465339 -0.007406 0.080854 2.000000
0.465339 0.002351 -0.057047 2.000000
0.465339 -0.054432 -0.052458 2.000000
0.465339 -0.063731 0.043516 2.000000
0.465339 -0.035983 -0.005610 2.000000
0.465339 0.034601 -0.066277 2.000000
0.465339 0.000343 -0.030737 2.000000
0.465339 -0.077809 -0.006545 2.000000
0.465339 -0.090524 0.002735 2.000000
0.465339 -0.007635 -0.082602 2.000000
0.465339 0.016905 -0.088561 2.000000
0.465339 -0.051087 0.030225 2.000000
0.465339 -0.061121 0.049190 2.000000
0.465339 -0.072127 -0.030484 2.000000
0.465339 0.042053 -0.089244 2.000000
0.465339 0.029749 -0.078956 2.000000
0.465339 -0.022056 -0.037664 2.000000
0.465339 -0.076176 -0.057563 2.000000
0.465339 0.063654 -0.046221 2.000000
0.465339 0.026084 -0.096211 2.000000
0.465339 0.081167 -0.035303 2.000000
0.465339 0.053452 -0.008164 2.000000
0.465339 0.066224 -0.019933 2.000000
0.465339 -0.089615 0.014700 2.000000
0.465339 0.024864 0.087527 2.000000
0.465339 0.074538 -0.058592 2.000000
0.465339 0.031136 -0.012956 2.000000
0.465339 0.032377 0.057806 2.000000
0.465339 -0.005950 0.040509 2.000000
0.465339 0.013910 0.078209 2.000000
0.465339 -0.085369 0.026281 2.000000
0.465339 0.001587 -0.076827 2.000000
0.465339 0.086303 0.000813 2.000000
0.465339 0.020898 0.084343 2.000000
0.465339 0.046218 0.035757 2.000000
0.465339 -0.035853 0.003589 2.000000
0.465339 0.000549 0.093264 2.000000
0.465339 0.050530 0.079311 2.000000
0.465339 -0.012599 -0.032080 2.000000
0.465339 -0.041146 0.028772 2.000000
0.465339 0.078018 0.018487 2.000000
0.465339 0.017274 -0.013829 2.000000
0.465339 -0.080913 -0.028805 2.000000
0.465339 0.027004 0.004427 2.000000
0.465339 0.006803 -0.031742 2.000000
0.465339 -0.091577 0.015873 2.000000
0.465339 -0.011280 -0.077373 2.000000
0.465339 0.052712 0.034130 2.000000
0.465339 0.020994 0.082312 2.000000
0.465339 0.084438 -0.007536 2.000000
0.465339 -0.033515 0.008896 2.000000
0.465339 0.029915 -0.041603 2.000000
0.465339 0.019199 -0.062055 2.000000
0.465339 -0.090811 -0.022733 2.000000
0.465339 0.079188 -0.038465 2.000000
0.465339 -0.003562 0.070052 2.000000
0.465339 -0.045720 0.029623 2.000000
0.465339 0.044991 0.069731 2.000000
0.465339 0.030134 -0.019477 2.000000
0.465339 -0.071853 0.032134 2.000000
0.465339 0.078572 0.040547 2.000000
0.465339 -0.094804 -0.023712 2.000000
0.465339 0.067108 0.049729 2.000000
0.465339 0.027260 0.033988 2.000000
0.465339 -0.021294 0.056122 2.000000
0.465339 0.031225 -0.067318 2.000000
0.465339 -0.013859 -0.057804 2.000000
0.465339 -0.042898 0.015519 2.000000
0.465339 -0.049076 0.068055 2.000000
0.465339 0.025572 -0.020465 2.000000
0.465339 -0.012608 0.021774 2.000000
0.465339 0.077241 0.004441 2.000000
0.465339 0.062717 -0.030460 2.000000
0.465339 -0.051073 -0.068571 2.000000
0.465339 -0.003039 -0.078166 2.000000
0.465339 0.079837 -0.048707 2.000000
0.465339 -0.061526 -0.061798 2.000000
0.465339 0.067415 0.011913 2.000000
0.465339 0.063319 0.014087 2.000000
0.465339 0.033671 -0.009401 2.000000
0.465339 0.076331 0.001280 2.000000
0.465339 -0.064138 -0.061682 2.000000
0.465339 -0.006657 0.063011 2.000000
0.465339 0.048699 0.022505 2.000000
0.465339 0.005237 0.038965 2.000000
0.465339 -0.018547 0.066232 2.000000
0.465339 0.009052 -0.033337 2.000000
0.465339 -0.064163 -0.065407 2.000000
0.465339 0.087601 -0.003172 2.000000
0.465339 0.001332 -0.035094 2.000000
0.465339 -0.025005 0.065851 2.000000
0.465339 0.027260 0.046517 2.000000
0.465339 0.013283 0.030385 2.000000
0.465339 0.053057 0.002944 2.000000
0.465339 -0.079107 -0.041872 2.000000
0.465339 -0.053115 -0.025648 2.000000
0.465339 0.008987 0.046334 2.000000
0.465339 -0.012151 0.024492 2.000000
0.465339 0.041835 0.086169 2.000000
0.465339 0.005051 0.040474 2.000000
0.465339 -0.076208 0.018979 2.000000
0.465339 0.064531 0.034375 2.000000
0.465339 0.079674 0.058530 2.000000
0.465339 -0.013151 -0.082403 2.000000
0.465339 -0.051229 -0.080076 2.000000
0.465339 -0.073155 -0.044398 2.000000
0.465339 -0.022176 -0.067816 2.000000
0.465339 -0.003713 0.091748 2.000000
0.465339 0.050258 0.032811 2.000000
0.465339 -0.045989 -0.062158 2.000000
0.465339 0.029431 0.007325 2.000000
0.465339 0.095220 -0.027563 2.000000
0.465339 0.008994 -0.041046 2.000000
0.465339 0.011671 -0.046544 2.000000
0.465339 -0.098279 -0.015959 2.000000
0.465339 0.056632 -0.040230 2.000000
0.465339 0.025746 0.030532 2.000000
0.465339 0.025841 0.003237 2.000000
0.465339 -0.051303 -0.036857 2.000000
0.465339 -0.066412 -0.003902 2.000000
0.465339 0.030368 -0.034945 2.000000
0.465339 -0.040063 0.078317 2.000000
0.465339 -0.020980 -0.025029 2.000000
0.465339 0.018212 0.000899 2.000000
0.465339 0.028351 -0.042938 2.000000
0.465339 -0.023655 -0.075954 2.000000
0.465339 -0.074995 -0.056302 2.000000
0.465339 -0.005105 -0.029674 2.000000
0.465339 0.055863 -0.000921 2.000000
0.465339 0.058691 0.073060 2.000000
0.465339 0.034439 -0.020331 2.000000
0.465339 0.035220 -0.031793 2.000000
0.465339 0.002923 0.033518 2.000000
0.465339 -0.009615 -0.050811 2.000000
0.465339 0.021947 0.033345 2.000000
0.465339 0.063143 0.034350 2.000000
0.465339 -0.053044 0.000189 2.000000
0.465339 -0.010623 -0.044093 2.000000
0.465339 0.021267 -0.007346 2.000000
0.465339 0.061534 0.076283 2.000000
0.465339 -0.051965 -0.069890 2.000000
0.465339 0.037116 -0.035281 2.000000
0.465339 0.064471 0.017054 2.000000
0.465339 -0.090067 0.013023 2.000000
0.465339 0.027533 -0.081125 2.000000
0.465339 -0.004983 -0.046600 2.000000
0.465339 0.046807 0.010888 2.000000
0.465339 0.006424 0.007236 2.000000
0.465339 0.027649 0.012271 2.000000
0.465339 0.067204 -0.042867 2.000000
0.465339 0.055937 0.008382 2.000000
0.465339 -0.042429 -0.086313 2.000000
0.465339 -0.062050 -0.059640 2.000000
0.465339 0.050987 -0.025370 2.000000
0.465339 -0.021222 -0.058669 2.000000
0.465339 -0.052064 0.080959 2.000000
0.465339 0.014462 -0.017718 2.000000
0.465339 0.015587 0.010527 2.000000
0.465339 -0.055570 -0.039908 2.000000
0.465339 0.002973 0.018553 2.000000
0.465339 0.022902 0.057508 2.000000
0.465339 0.019600 0.036222 2.000000
0.465339 -0.024999 -0.082840 2.000000
0.465339 -0.033360 0.019519 2.000000
0.465339 0.044072 0.018405 2.000000
0.465339 0.003630 0.091344 2.000000
0.465339 0.062735 -0.019946 2.000000
0.465339 0.016830 0.001457 2.000000
0.465339 -0.042462 -0.019150 2.000000
0.465339 -0.040193 -0.039131 2.000000
0.465339 0.070797 -0.032959 2.000000
0.465339 -0.031340 0.043236 2.000000
0.465339 0.061278 0.054059 2.000000
0.465339 0.078496 0.005881 2.000000
0.465339 -0.024213 0.093059 2.000000
0.465339 -0.090508 -0.009940 2.000000
0.465339 -0.058041 -0.022835 2.000000
0.465339 -0.070331 -0.068667 2.000000
0.465339 -0.067051 -0.016948 2.000000
0.465339 -0.032348 -0.040697 2.000000
0.465339 0.033765 0.073905 2.000000
0.465339 -0.047143 -0.016362 2.000000
0.465339 -0.003605 0.086140 2.000000
0.465339 -0.050180 -0.015720 2.000000
0.465339 -0.031566 0.056821 2.000000
0.465339 0.055183 -0.049199 2.000000
0.465339 -0.001730 -0.014325 2.000000
0.465339 -0.023157 -0.092952 2.000000
0.465339 0.001220 0.038345 2.000000
0.465339 -0.031988 -0.071439 2.000000
0.465339 0.049872 -0.048304 2.000000
0.465339 -0.058972 0.015817 2.000000
0.465339 0.065402 0.026737 2.000000
0.465339 0.062649 -0.017050 2.000000
0.465339 -0.051180 0.041545 2.000000
0.465339 -0.061853 -0.069891 2.000000
0.465339 0.051761 -0.081519 2.000000
0.465339 0.025502 0.011455 2.000000
0.465339 0.016370 -0.041898 2.000000
0.465339 -0.017093 -0.088975 2.000000
0.465339 0.049847 0.010552 2.000000
0.465339 -0.033932 -0.019203 2.000000
0.465339 -0.011768 0.020336 2.000000
0.465339 -0.038962 -0.059632 2.000000
0.465339 0.073322 -0.006495 2.000000
0.465339 0.050710 0.062248 2.000000
0.465339 0.051042 -0.045471 2.000000
0.465339 -0.035547 -0.090925 2.000000
0.465339 0.072323 -0.003770 2.000000
0.465339 -0.032053 0.012339 2.000000
0.465339 -0.025729 -0.023710 2.000000
0.465339 -0.074803 -0.058255 2.000000
0.465339 0.033590 0.076534 2.000000
0.465339 0.080210 0.004335 2.000000
0.465339 0.009104 -0.029096 2.000000
0.465339 0.058386 0.068242 2.000000
0.465339 -0.056050 0.060201 2.000000
0.465339 0.074173 -0.014260 2.000000
0.465339 0.050315 -0.003288 2.000000
0.465339 -0.028744 0.064058 2.000000
0.465339 -0.062860 0.052121 2.000000
0.465339 0.065530 -0.011013 2.000000
0.465339 -0.030681 0.030544 2.000000
0.465339 0.054696 -0.061096 2.000000
0.465339 0.068747 0.006676 2.000000
0.465339 -0.052360 0.024912 2.000000
0.465339 -0.037143 0.081241 2.000000
0.465339 0.076540 0.048251 2.000000
0.465339 -0.044466 0.051372 2.000000
0.465339 0.022170 0.015564 2.000000
0.465339 0.034163 0.037548 2.000000
0.465339 0.007961 0.043666 2.000000
0.465339 -0.098967 -0.004163 2.000000
0.465339 0.005518 -0.068676 2.000000
0.465339 -0.015871 0.092288 2.000000
0.465339 -0.068504 -0.026991 2.000000
0.465339 -0.060167 -0.035020 2.000000
0.465339 0.005704 0.067803 2.000000
0.465339 0.012822 0.042291 2.000000
0.465339 -0.045471 0.036195 2.000000
0.465339 0.096880 -0.014544 2.000000
0.465339 -0.011094 0.060357 2.000000
0.465339 -0.054309 -0.030583 2.000000
0.465339 -0.090761 0.017669 2.000000
0.465339 -0.021048 -0.011502 2.000000
0.465339 0.008578 0.019090 2.000000
0.465339 -0.068219 0.031808 2.000000
0.465339 -0.022419 -0.060253 2.000000
0.465339 0.001335 0.094482 2.000000
0.465339 -0.026347 -0.043055 2.000000
0.465339 -0.034841 0.079569 2.000000
0.465339 -0.070654 0.042884 2.000000
0.465339 0.016644 -0.016441 2.000000
0.465339 0.050029 -0.051841 2.000000
0.465339 -0.035295 0.038923 2.000000
0.465339 -0.007665 -0.068984 2.000000
0.465339 -0.039677 0.007446 2.000000
0.465339 0.007098 0.032425 2.000000
0.465339 -0.031486 0.019841 2.000000
0.465339 0.023160 -0.088673 2.000000
0.465339 -0.088126 0.013300 2.000000
0.465339 0.043297 -0.033006 2.000000
0.465339 0.080382 -0.003773 2.000000
0.465339 0.054071 -0.074889 2.000000
0.465339 -0.042079 -0.030041 2.000000
0.465339 -0.075575 0.022080 2.000000
0.465339 0.008328 -0.014634 2.000000
0.465339 -0.079027 -0.024155 2.000000
0.465339 -0.071169 -0.055602 2.000000
0.465339 0.005142 0.072525 2.000000
0.465339 -0.050234 -0.033282 2.000000
0.465339 0.050493 -0.041470 2.000000
0.465339 -0.008184 0.096390 2.000000
0.465339 0.074954 0.063476 2.000000
0.465339 0.071188 0.047426 2.000000
0.465339 0.078471 0.009433 2.000000
0.465339 0.031640 -0.063952 2.000000
0.465339 -0.054645 -0.065915 2.000000
0.465339 0.033925 0.093150 2.000000
0.465339 -0.072650 -0.011268 2.000000
0.465339 -0.038042 -0.008880 2.000000
0.465339 0.010171 -0.075843 2.000000
0.465339 0.069426 0.014131 2.000000
0.465339 -0.045775 0.037861 2.000000
0.465339 0.038158 0.019858 2.000000
0.465339 0.026068 -0.035752 2.000000
0.465339 0.037997 0.003301 2.000000
0.465339 -0.096741 -0.020410 2.000000
0.465339 -0.031501 -0.033210 2.000000
0.465339 0.052461 0.008227 2.000000
0.465339 0.013557 -0.003572 2.000000
0.465339 0.061674 -0.033487 2.000000
0.465339 0.018169 -0.007329 2.000000
0.465339 -0.085046 0.005954 2.000000
0.465339 0.058567 -0.022789 2.000000
0.465339 -0.057139 0.015226 2.000000
0.465339 0.030623 0.081999 2.000000
0.465339 0.040671 -0.036448 2.000000
0.465339 -0.062348 -0.020969 2.000000
0.465339 -0.007363 0.027309 2.000000
0.465339 -0.007335 0.046228 2.000000
0.465339 -0.026202 0.023245 2.000000
0.465339 -0.029436 0.090443 2.000000
0.465339 -0.073928 0.060565 2.000000
0.465339 0.003744 0.008005 2.000000
0.465339 -0.023119 0.076040 2.000000
0.465339 -0.048510 -0.015509 2.000000
0.465339 0.050909 -0.069930 2.000000
0.465339 0.085443 -0.023948 2.000000
0.465339 0.059231 -0.006087 2.000000
0.465339 -0.000816 0.021554 2.000000
0.465339 0.044704 -0.083198 2.000000
0.465339 0.087333 -0.008755 2.000000
0.465339 -0.045581 -0.002441 2.000000
0.465339 -0.093988 -0.013000 2.000000
0.465339 0.085868 -0.037619 2.000000
0.465339 -0.069947 -0.060341 2.000000
0.465339 -0.076038 0.017401 2.000000
0.465339 -0.027061 0.095976 2.000000
0.465339 -0.020288 -0.095614 2.000000
0.465339 0.026587 -0.031378 2.000000
0.465339 0.073111 0.045061 2.000000
0.465339 0.071158 0.051246 2.000000
0.465339 0.015136 0.015800 2.000000
0.465339 -0.020817 0.062035 2.000000
0.465339 0.046620 -0.068419 2.000000
0.465339 -0.029410 0.035216 2.000000
0.465339 -0.093674 0.034009 2.000000
0.465339 0.008345 -0.025968 2.000000
0.465339 0.074852 0.052178 2.000000
0.465339 0.062117 -0.074401 2.000000
0.465339 0.034131 -0.089823 2.000000
0.465339 0.049341 0.077974 2.000000
0.465339 -0.021326 0.034948 2.000000
0.465339 0.004081 0.020814 2.000000
0.465339 0.020922 -0.027140 2.000000
0.465339 -0.009378 0.046216 2.000000
0.465339 -0.045189 -0.012839 2.000000
0.465339 -0.079897 0.003431 2.000000
0.465339 -0.086346 -0.000145 2.000000
0.465339 -0.098330 -0.013105 2.000000
0.465339 0.026643 0.064681 2.000000
0.465339 -0.013977 -0.028385 2.000000
0.465339 0.050888 -0.058819 2.000000
0.465339 -0.032048 0.037660 2.000000
0.465339 -0.016112 0.080470 2.000000
0.465339 -0.041772 -0.032294 2.000000
0.465339 0.023671 0.011654 2.000000
0.465339 -0.041776 -0.034401 2.000000
0.465339 0.045074 -0.063807 2.000000
0.465339 -0.008492 0.031804 2.000000
0.465339 0.033483 0.018313 2.000000
0.465339 -0.024575 0.040128 2.000000
0.465339 -0.063796 -0.056717 2.000000
0.465339 -0.096481 0.025046 2.000000
0.465339 0.053465 -0.062237 2.000000
0.465339 0.054155 0.065401 2.000000
0.465339 -0.056051 0.016212 2.000000
0.465339 -0.012541 -0.096101 2.000000
0.465339 -0.001453 -0.050087 2.000000
0.465339 -0.057862 -0.000814 2.000000
0.465339 -0.081811 0.034011 2.000000
0.465339 0.058379 0.074376 2.000000
0.465339 0.020993 -0.075823 2.000000
0.465339 -0.047083 0.080222 2.000000
0.465339 -0.075090 0.056654 2.000000
0.465339 0.071787 0.001324 2.000000
0.465339 -0.016715 -0.054616 2.000000
0.465339 -0.008963 0.037206 2.000000
0.465339 0.052275 -0.023991 2.000000
0.465339 0.061396 -0.031310 2.000000
0.465339 -0.073948 -0.030313 2.000000
0.465339 0.022251 0.089896 2.000000
0.465339 0.005066 -0.063020 2.000000
0.465339 0.026625 -0.092729 2.000000
0.465339 -0.047117 -0.057229 2.000000
0.465339 -0.001846 -0.015740 2.000000
0.465339 0.095327 0.003158 2.000000
0.465339 -0.089877 0.008994 2.000000
0.465339 0.067658 -0.064636 2.000000
0.465339 -0.042625 0.020102 2.000000
0.465339 -0.009785 0.049673 2.000000
0.465339 -0.055142 0.002385 2.000000
0.465339 0.059077 -0.011516 2.000000
0.465339 0.007226 0.002360 2.000000
0.465339 0.051245 -0.035664 2.000000
0.465339 -0.004023 -0.089425 2.000000
0.465339 -0.082979 0.013725 2.000000
0.465339 -0.063157 0.003627 2.000000
0.465339 0.015719 -0.051588 2.000000
0.465339 -0.035429 0.052870 2.000000
0.465339 0.047725 -0.066731 2.000000
0.465339 -0.010525 0.018506 2.000000
0.465339 0.043799 0.064143 2.000000
0.465339 0.068334 0.058891 2.000000
0.465339 0.060887 -0.047184 2.000000
0.465339 -0.012632 -0.029445 2.000000
0.465339 0.072244 -0.039622 2.000000
0.465339 -0.074209 0.054408 2.000000
0.465339 0.039794 -0.020514 2.000000
0.465339 0.051898 0.049142 2.000000
0.465339 -0.056703 -0.012711 2.000000
0.465339 -0.030849 0.089963 2.000000
0.465339 0.061199 -0.065051 2.000000
0.465339 -0.091082 0.035631 2.000000
0.465339 0.018107 0.052680 2.000000
0.465339 0.054736 0.046641 2.000000
0.465339 0.038440 -0.077887 2.000000
0.465339 0.042641 -0.060151 2.000000
0.465339 0.034720 -0.022342 2.000000
0.465339 0.048788 0.086542 2.000000
0.465339 0.029048 0.045775 2.000000
0.465339 -0.050028 0.063127 2.000000
0.465339 -0.027538 -0.062636 2.000000
0.465339 -0.039002 -0.073753 2.000000
0.465339 -0.006899 0.061191 2.000000
0.465339 0.080915 -0.018302 2.000000
0.465339 0.060419 0.009427 2.000000
0.465339 0.040050 0.031718 2.000000
0.465339 0.014787 -0.076468 2.000000
0.465339 -0.017327 0.013600 2.000000
0.465339 0.003144 -0.062839 2.000000
0.465339 -0.021775 -0.042006 2.000000
0.465339 -0.022807 -0.055965 2.000000
0.465339 -0.022612 0.044289 2.000000
0.465339 0.026511 -0.091271 2.000000
0.465339 0.066486 -0.009494 2.000000
0.465339 0.010294 -0.039262 2.000000
0.465339 0.075944 0.046205 2.000000
0.465339 0.039606 -0.009568 2.000000
0.465339 0.075463 0.026702 2.000000
