0.465339 -0.070294 0.035933 2.000000
0.465339 0.011202 0.053185 2.000000
0.465339 0.055268 -0.009645 2.000000
0.465339 -0.039330 -0.068373 2.000000
0.465339 -0.068092 -0.032406 2.000000
0.465339 -0.001158 0.026457 2.000000
0.465339 -0.074669 0.004652 2.000000
0.465339 0.016019 0.011446 2.000000
0.465339 -0.054029 -0.051157 2.000000
0.465339 -0.019595 0.056571 2.000000
0.465339 -0.003822 -0.033426 2.000000
0.465339 -0.033090 -0.038811 2.000000
0.465339 -0.046599 -0.034410 2.000000
0.465339 0.087545 0.044011 2.000000
0.465339 -0.045542 -0.016030 2.000000
0.465339 0.049719 0.001056 2.000000
0.465339 0.010218 0.097181 2.000000
0.465339 0.005549 0.094287 2.000000
0.465339 -0.003733 0.073722 2.000000
0.465339 0.012802 -0.046288 2.000000
0.465339 0.059541 -0.061300 2.000000
0.465339 -0.000350 -0.036923 2.000000
0.465339 -0.042325 -0.079117 2.000000
0.465339 -0.036391 -0.010543 2.000000
0.465339 -0.007114 -0.032618 2.000000
0.465339 -0.044128 -0.040056 2.000000
0.465339 0.068399 0.028788 2.000000
0.465339 -0.024109 -0.044669 2.000000
0.465339 0.032666 0.059633 2.000000
0.465339 -0.069941 0.056771 2.000000
0.465339 0.053222 0.069979 2.000000
0.465339 0.000031 0.074636 2.000000
0.465339 0.027094 0.084921 2.000000
0.465339 0.058463 -0.009809 2.000000
0.465339 0.023513 0.017100 2.000000
0.465339 -0.056555 -0.023630 2.000000
0.465339 0.057872 0.078285 2.000000
0.465339 0.074521 -0.006753 2.000000
0.465339 -0.017752 0.034963 2.000000
0.465339 -0.057693 -0.034323 2.000000
0.465339 0.049740 0.027589 2.000000
0.465339 -0.026688 -0.050582 2.000000
0.465339 -0.023681 -0.028082 2.000000
0.465339 0.056434 0.006194 2.000000
0.465339 -0.004853 0.052938 2.000000
0.465339 0.065287 0.049416 2.000000
0.465339 -0.053196 -0.063463 2.000000
0.465339 -0.059232 -0.074399 2.000000
0.465339 -0.033034 -0.037186 2.000000
0.465339 -0.019120 -0.045445 2.000000
0.465339 -0.064887 -0.003970 2.000000
0.465339 -0.086000 0.009689 2.000000
0.465339 -0.052699 -0.047021 2.000000
0.465339 -0.072045 -0.067959 2.000000
0.465339 0.005070 -0.090311 2.000000
0.465339 0.075217 -0.008835 2.000000
0.465339 0.002797 -0.083554 2.000000
0.465339 0.026196 0.021246 2.000000
0.465339 -0.029072 -0.073956 2.000000
0.465339 -0.066976 0.025931 2.000000
0.465339 0.044297 0.089485 2.000000
0.465339 0.007132 0.019655 2.000000
0.465339 -0.061947 0.077805 2.000000
0.465339 -0.082045 0.040141 2.000000
0.465339 -0.071484 0.050560 2.000000
0.465339 0.080670 0.050293 2.000000
0.465339 -0.081609 -0.044724 2.000000
0.465339 -0.065688 -0.029923 2.000000
0.465339 0.045580 0.041413 2.000000
0.465339 -0.021754 -0.066988 2.000000
0.465339 -0.070676 0.066107 2.000000
0.465339 -0.074229 0.023610 2.000000
0.465339 0.057944 -0.024766 2.000000
0.465339 -0.000846 0.051181 2.000000
0.465339 0.069179 0.049059 2.000000
0.465339 0.055382 -0.035685 2.000000
0.465339 -0.008531 0.017740 2.000000
0.465339 -0.034431 -0.046673 2.000000
0.465339 -0.043199 0.060760 2.000000
0.465339 0.006544 -0.019198 2.000000
0.465339 0.081951 0.025479 2.000000
0.465339 -0.051817 0.041365 2.000000
0.465339 0.019400 -0.029838 2.000000
0.465339 0.077653 0.024460 2.000000
0.465339 -0.015758 0.020324 2.000000
0.465339 -0.044851 0.024020 2.000000
0.465339 -0.035933 0.068024 2.000000
0.465339 -0.052090 0.060158 2.000000
0.465339 -0.029314 0.090393 2.000000
0.465339 -0.025820 0.014202 2.000000
0.465339 0.044632 -0.072167 2.000000
0.465339 0.001352 -0.066937 2.000000
0.465339 0.009496 -0.085733 2.000000
0.465339 -0.046780 0.003562 2.000000
0.465339 -0.022995 0.026881 2.000000
0.465339 -0.020385 -0.087300 2.000000
0.465339 0.024578 -0.001988 2.000000
0.465339 0.075995 0.018506 2.000000
0.465339 0.030456 0.049082 2.000000
0.465339 0.029528 0.066582 2.000000
0.465339 -0.052456 -0.031992 2.000000
0.465339 0.088382 0.004067 2.000000
0.465339 -0.000500 0.060516 2.000000
0.465339 0.062055 -0.054899 2.000000
0.465339 0.063805 -0.039128 2.000000
0.465339 -0.059382 0.025399 2.000000
0.465339 -0.083108 -0.020426 2.000000
0.465339 -0.018905 -0.076176 2.000000
0.465339 0.032256 0.008041 2.000000
0.465339 0.014849 0.074354 2.000000
0.465339 0.083659 0.051552 2.000000
0.465339 0.021390 -0.062800 2.000000
0.465339 0.011131 -0.026089 2.000000
0.465339 0.066713 -0.073426 2.000000
0.465339 0.036831 -0.064913 2.000000
0.465339 -0.083058 -0.035256 2.000000
0.465339 0.036965 0.064739 2.000000
0.465339 0.089932 -0.004749 2.000000
0.465339 0.001856 0.016972 2.000000
0.465339 0.071705 -0.051380 2.000000
0.465339 -0.093636 -0.009510 2.000000
0.465339 -0.018822 -0.019679 2.000000
0.465339 -0.053399 0.041326 2.000000
0.465339 -0.042110 0.030629 2.000000
0.465339 0.062615 0.002920 2.000000
0.465339 -0.053133 -0.060241 2.000000
0.465339 0.039292 -0.069311 2.000000
0.465339 -0.025858 -0.036067 2.000000
0.465339 -0.049249 0.021818 2.000000
0.465339 0.046599 0.010169 2.000000
0.465339 -0.049820 -0.006226 2.000000
0.465339 -0.011155 0.044761 2.000000
0.465339 0.068722 -0.000199 2.000000
0.465339 -0.060721 0.020866 2.000000
0.465339 0.051287 0.085775 2.000000
0.465339 0.025870 -0.057707 2.000000
0.465339 -0.016155 0.012715 2.000000
0.465339 0.020632 -0.061506 2.000000
0.465339 0.057974 -0.038774 2.000000
0.465339 -0.020976 0.043313 2.000000
0.465339 -0.087274 0.031456 2.000000
0.465339 0.023729 0.095080 2.000000
0.465339 -0.091121 0.019007 2.000000
0.465339 0.070634 -0.042042 2.000000
0.465339 -0.066530 -0.049715 2.000000
0.465339 0.031601 -0.058337 2.000000
0.465339 -0.010427 0.053324 2.000000
0.465339 -0.053634 -0.041617 2.000000
0.465339 -0.013143 0.003575 2.000000
0.465339 -0.062964 -0.077083 2.000000
0.465339 0.002568 0.039231 2.000000
0.465339 -0.012795 -0.007404 2.000000
0.465339 0.046579 -0.013299 2.000000
0.465339 0.005288 0.017191 2.000000
0.465339 -0.038605 0.074565 2.000000
0.465339 -0.029411 0.092179 2.000000
0.465339 -0.092086 -0.006463 2.000000
0.465339 -0.086687 0.002968 2.000000
0.465339 0.013737 -0.062068 2.000000
0.465339 -0.079647 -0.048192 2.000000
0.465339 -0.049631 0.018245 2.000000
0.465339 0.019725 -0.065269 2.000000
0.465339 0.025100 -0.044315 2.000000
0.465339 0.043440 -0.031875 2.000000
0.465339 -0.065777 0.004187 2.000000
0.465339 0.012384 -0.001827 2.000000
0.465339 0.014827 -0.075480 2.000000
0.465339 0.074940 -0.041077 2.000000
0.465339 -0.013182 -0.090514 2.000000
0.465339 -0.066600 -0.018356 2.000000
0.465339 0.066368 -0.054714 2.000000
0.465339 -0.090551 0.020534 2.000000
0.465339 -0.081722 0.034884 2.000000
0.465339 -0.026939 -0.021008 2.000000
0.465339 0.049502 -0.036433 2.000000
0.465339 0.021523 -0.023710 2.000000
0.465339 -0.080453 -0.043382 2.000000
0.465339 0.011716 -0.023313 2.000000
0.465339 0.002240 0.061801 2.000000
0.465339 0.086232 0.000002 2.000000
0.465339 -0.036153 -0.039430 2.000000
0.465339 -0.012923 0.019752 2.000000
0.465339 0.041762 -0.067419 2.000000
0.465339 0.041991 -0.023849 2.000000
0.465339 -0.048717 0.048851 2.000000
0.465339 -0.023237 -0.080869 2.000000
0.465339 0.054292 -0.078032 2.000000
0.465339 0.001615 -0.073375 2.000000
0.465339 -0.062710 -0.002309 2.000000
0.465339 -0.011321 -0.017753 2.000000
0.465339 0.013002 0.023091 2.000000
0.465339 0.021601 0.019700 2.000000
0.465339 0.022885 -0.009993 2.000000
0.465339 0.054235 0.078591 2.000000
0.465339 0.021333 0.010151 2.000000
0.465339 0.079618 0.030581 2.000000
0.465339 0.023280 0.044541 2.000000
0.465339 -0.059858 -0.070899 2.000000
0.465339 -0.003500 -0.065435 2.000000
0.465339 -0.074827 -0.062473 2.000000
0.465339 0.089352 -0.018915 2.000000
0.465339 0.078362 0.054343 2.000000
0.465339 0.034606 0.023839 2.000000
0.465339 -0.079692 0.014995 2.000000
0.465339 -0.017144 -0.002875 2.000000
0.465339 0.046499 0.012741 2.000000
0.465339 0.018193 -0.039965 2.000000
0.465339 -0.073256 -0.019293 2.000000
0.465339 0.027101 -0.016807 2.000000
0.465339 -0.055665 -0.040937 2.000000
0.465339 -0.068171 -0.046140 2.000000
0.465339 -0.090528 -0.019618 2.000000
0.465339 0.060577 0.053680 2.000000
0.465339 0.040883 -0.070576 2.000000
0.465339 0.014816 -0.041551 2.000000
0.465339 0.006087 -0.083206 2.000000
0.465339 0.010101 -0.023588 2.000000
0.465339 -0.065838 -0.035278 2.000000
0.465339 0.022223 0.018282 2.000000
0.465339 -0.064377 -0.047816 2.000000
0.465339 0.073017 -0.053960 2.000000
0.465339 -0.024928 0.015501 2.000000
0.465339 -0.093138 0.000310 2.000000
0.465339 0.019466 0.030450 2.000000
0.465339 -0.018766 0.031754 2.000000
0.465339 0.044275 -0.023740 2.000000
0.465339 -0.003929 0.023593 2.000000
0.465339 -0.027702 0.081673 2.000000
0.465339 0.034587 -0.068085 2.000000
0.465339 0.029107 0.011053 2.000000
0.465339 -0.049130 0.007150 2.000000
0.465339 -0.014902 -0.093490 2.000000
0.465339 -0.013262 -0.021853 2.000000
0.465339 0.062714 0.021589 2.000000
0.465339 0.032485 0.003082 2.000000
0.465339 0.070281 0.001428 2.000000
0.465339 0.029521 -0.090470 2.000000
0.465339 -0.014917 -0.048336 2.000000
0.465339 -0.031830 -0.062521 2.000000
0.465339 0.058623 -0.080308 2.000000
0.465339 -0.017369 0.032550 2.000000
0.465339 0.079600 -0.018308 2.000000
0.465339 0.044813 0.020807 2.000000
0.465339 0.061987 0.060186 2.000000
0.465339 -0.033700 -0.075241 2.000000
0.465339 -0.049979 0.046183 2.000000
0.465339 0.037523 0.025436 2.000000
0.465339 -0.071208 0.023340 2.000000
0.465339 0.018669 -0.074107 2.000000
0.465339 -0.023727 -0.010356 2.000000
0.465339 -0.035736 0.066572 2.000000
0.465339 -0.000040 -0.047158 2.000000
0.465339 -0.076778 0.010165 2.000000
0.465339 0.044257 0.022807 2.000000
0.465339 0.041421 -0.062786 2.000000
0.465339 0.013277 0.076575 2.000000
0.465339 0.041487 0.040376 2.000000
0.465339 0.028134 -0.095526 2.000000
0.465339 0.002287 -0.012054 2.000000
0.465339 0.019116 -0.085142 2.000000
0.465339 -0.037467 0.011073 2.000000
0.465339 -0.050676 0.062704 2.000000
0.465339 -0.035766 0.019623 2.000000
0.465339 -0.049747 -0.040492 2.000000
0.465339 0.077691 -0.056709 2.000000
0.465339 -0.051962 -0.054742 2.000000
0.465339 0.074227 -0.064609 2.000000
0.465339 -0.084494 -0.000070 2.000000
0.465339 0.023684 0.029583 2.000000
0.465339 0.007840 0.096299 2.000000
0.465339 -0.040829 0.022616 2.000000
0.465339 0.012003 -0.031005 2.000000
0.465339 -0.015039 0.004339 2.000000
0.465339 0.031467 -0.056782 2.000000
0.465339 0.045764 0.013963 2.000000
0.465339 0.001768 -0.089786 2.000000
0.465339 -0.081370 0.050439 2.000000
0.465339 0.024472 0.067154 2.000000
0.465339 0.068903 -0.015961 2.000000
0.465339 0.036849 0.021808 2.000000
0.465339 -0.041390 -0.011682 2.000000
0.465339 -0.007338 -0.068078 2.000000
0.465339 -0.025801 0.030041 2.000000
0.465339 -0.045799 -0.064990 2.000000
0.465339 0.010468 0.009586 2.000000
0.465339 0.021453 0.081251 2.000000
0.465339 -0.020579 -0.034296 2.000000
0.465339 -0.024377 0.046717 2.000000
0.465339 0.062496 -0.047439 2.000000
0.465339 -0.025471 -0.037643 2.000000
0.465339 -0.060163 0.058635 2.000000
0.465339 -0.048161 0.056964 2.000000
0.465339 0.018536 0.009390 2.000000
0.465339 -0.033881 -0.043896 2.000000
0.465339 0.073034 0.046586 2.000000
0.465339 0.024129 -0.080318 2.000000
0.465339 -0.088994 0.029360 2.000000
0.465339 0.014295 0.015909 2.000000
0.465339 -0.026891 -0.040205 2.000000
0.465339 0.079466 0.048798 2.000000
0.465339 -0.033539 0.053904 2.000000
0.465339 0.076460 -0.001927 2.000000
0.465339 -0.003717 0.057874 2.000000
0.465339 0.010482 0.078346 2.000000
0.465339 0.061224 -0.060558 2.000000
0.465339 0.089409 -0.017133 2.000000
0.465339 -0.004130 0.056225 2.000000
0.465339 0.015812 0.085643 2.000000
0.465339 -0.027386 0.050013 2.000000
0.465339 -0.079964 0.049341 2.000000
0.465339 -0.094304 -0.029479 2.000000
0.465339 -0.019035 0.044705 2.000000
0.465339 -0.033916 -0.052402 2.000000
0.465339 0.023201 0.076690 2.000000
0.465339 0.085761 0.040464 2.000000
0.465339 0.027606 0.091469 2.000000
0.465339 0.032126 -0.080400 2.000000
0.465339 -0.081658 0.047619 2.000000
0.465339 0.032247 -0.047841 2.000000
0.465339 -0.053365 -0.034438 2.000000
0.465339 0.053588 0.016109 2.000000
0.465339 -0.011826 -0.091073 2.000000
0.465339 -0.042929 -0.025336 2.000000
0.465339 -0.009031 0.000012 2.000000
0.465339 -0.015832 -0.081622 2.000000
0.465339 -0.031483 -0.014133 2.000000
0.465339 -0.010353 -0.020382 2.000000
0.465339 0.025357 0.073421 2.000000
0.465339 -0.085808 -0.049952 2.000000
0.465339 0.057588 -0.074514 2.000000
0.465339 -0.073802 -0.066838 2.000000
0.465339 -0.033451 0.028593 2.000000
0.465339 0.064566 0.003091 2.000000
0.465339 -0.044467 -0.044547 2.000000
0.465339 -0.020812 0.012180 2.000000
0.465339 -0.035566 -0.027556 2.000000
0.465339 0.051695 0.061685 2.000000
0.465339 0.048497 -0.021693 2.000000
0.465339 -0.008244 0.006174 2.000000
0.465339 -0.045464 0.039810 2.000000
0.465339 -0.046632 0.009772 2.000000
0.465339 0.000193 0.052069 2.000000
0.465339 0.070524 -0.004377 2.000000
0.465339 0.065152 -0.049177 2.000000
0.465339 0.011603 -0.034240 2.000000
0.465339 -0.055757 0.009138 2.000000
0.465339 -0.063367 -0.032864 2.000000
0.465339 -0.008156 0.056295 2.000000
0.465339 -0.036446 -0.048155 2.000000
0.465339 0.079763 0.059847 2.000000
0.465339 0.045726 0.004975 2.000000
0.465339 0.037945 -0.072704 2.000000
0.465339 0.041564 -0.019829 2.000000
0.465339 -0.009237 0.090377 2.000000
0.465339 -0.037059 0.039900 2.000000
0.465339 0.035396 -0.077755 2.000000
0.465339 0.010242 0.075459 2.000000
0.465339 0.077275 0.001532 2.000000
0.465339 -0.031925 -0.031540 2.000000
0.465339 0.036530 -0.014582 2.000000
0.465339 -0.064105 -0.034722 2.000000
0.465339 -0.051558 0.080276 2.000000
0.465339 0.025000 -0.072851 2.000000
0.465339 0.041461 -0.035137 2.000000
0.465339 0.005689 0.078899 2.000000
0.465339 -0.062579 0.073257 2.000000
0.465339 -0.034131 0.016824 2.000000
0.465339 0.009704 0.040982 2.000000
0.465339 -0.071991 0.048471 2.000000
0.465339 -0.078841 -0.014563 2.000000
0.465339 -0.090203 0.010078 2.000000
0.465339 -0.074980 -0.045382 2.000000
0.465339 -0.013417 0.071544 2.000000
0.465339 0.004109 0.059546 2.000000
0.465339 -0.025336 -0.028276 2.000000
0.465339 -0.048001 -0.001264 2.000000
0.465339 0.071730 -0.016860 2.000000
0.465339 -0.033443 0.003205 2.000000
0.465339 -0.022322 -0.021009 2.000000
0.465339 0.035085 -0.089428 2.000000
0.465339 -0.039121 -0.022814 2.000000
0.465339 -0.066168 -0.009322 2.000000
0.465339 -0.023886 -0.072139 2.000000
0.465339 0.052339 0.063176 2.000000
0.465339 -0.008696 0.070602 2.000000
0.465339 0.049594 -0.068744 2.000000
0.465339 0.046626 -0.057735 2.000000
0.465339 -0.072614 0.068489 2.000000
0.465339 0.033880 0.081347 2.000000
0.465339 -0.020314 -0.012337 2.000000
0.465339 -0.032277 0.090498 2.000000
0.465339 -0.069318 -0.038749 2.000000
0.465339 -0.032589 0.008635 2.000000
0.465339 0.041475 -0.027374 2.000000
0.465339 -0.039269 0.002352 2.000000
0.465339 -0.028125 0.015847 2.000000
0.465339 0.056945 0.013937 2.000000
0.465339 -0.067482 0.007854 2.000000
0.465339 -0.004472 0.037512 2.000000
0.465339 0.041273 -0.058952 2.000000
0.465339 0.007320 -0.011446 2.000000
0.465339 0.081095 -0.009052 2.000000
0.465339 -0.095653 -0.017842 2.000000
0.465339 -0.025407 -0.031239 2.000000
0.465339 -0.056972 0.062613 2.000000
0.465339 -0.024250 0.030537 2.000000
0.465339 0.004995 0.027311 2.000000
0.465339 -0.007606 0.043817 2.000000
0.465339 0.060637 -0.000466 2.000000
0.465339 -0.084159 0.033727 2.000000
0.465339 -0.035332 0.053823 2.000000
0.465339 0.027887 -0.093866 2.000000
0.465339 0.024108 0.001790 2.000000
0.465339 0.091147 -0.022517 2.000000
0.465339 -0.047094 0.001665 2.000000
0.465339 -0.007333 0.099185 2.000000
0.465339 0.092204 0.030603 2.000000
0.465339 -0.073951 -0.007186 2.000000
0.465339 -0.031906 0.044650 2.000000
0.465339 0.093010 -0.011714 2.000000
0.465339 -0.093664 -0.006271 2.000000
0.465339 -0.072213 0.065654 2.000000
0.465339 0.049185 -0.029642 2.000000
0.465339 0.088402 0.016480 2.000000
0.465339 0.086410 -0.016025 2.000000
0.465339 0.030683 -0.044010 2.000000
0.465339 0.069774 0.055683 2.000000
0.465339 -0.019382 -0.048065 2.000000
0.465339 0.008643 -0.040252 2.000000
0.465339 -0.069487 -0.052334 2.000000
0.465339 -0.031814 0.030581 2.000000
0.465339 -0.015061 -0.076463 2.000000
0.465339 -0.017874 -0.079665 2.000000
0.465339 0.050266 -0.005318 2.000000
0.465339 0.030964 0.088099 2.000000
0.465339 -0.031081 -0.081410 2.000000
0.465339 -0.071922 0.062969 2.000000
0.465339 0.018798 -0.097031 2.000000
0.465339 0.019057 0.096368 2.000000
0.465339 -0.050653 0.005363 2.000000
0.465339 -0.067530 0.004586 2.000000
0.465339 -0.009912 -0.087707 2.000000
0.465339 -0.084979 -0.005545 2.000000
0.465339 0.027067 -0.015136 2.000000
0.465339 -0.030154 -0.079895 2.000000
0.465339 -0.051274 0.056718 2.000000
0.465339 -0.035588 0.015524 2.000000
0.465339 -0.018424 -0.085030 2.000000
0.465339 0.007606 -0.052658 2.000000
0.465339 -0.004919 0.082512 2.000000
0.465339 0.069495 0.019156 2.000000
0.465339 -0.038199 0.066277 2.000000
0.465339 -0.022386 -0.044921 2.000000
0.465339 0.042812 0.064644 2.000000
0.465339 0.029115 0.077418 2.000000
0.465339 0.038356 -0.074750 2.000000
0.465339 0.000932 -0.044553 2.000000
0.465339 0.012535 -0.025538 2.000000
0.465339 0.067776 -0.012975 2.000000
0.465339 0.016009 0.009787 2.000000
0.465339 -0.080382 -0.009667 2.000000
0.465339 -0.028988 -0.036861 2.000000
0.465339 0.044824 -0.054532 2.000000
0.465339 0.056124 -0.044933 2.000000
0.465339 -0.047597 0.041611 2.000000
0.465339 0.081740 -0.019735 2.000000
0.465339 -0.003691 0.015692 2.000000
0.465339 -0.053104 0.068480 2.000000
0.465339 -0.082377 -0.006858 2.000000
0.465339 0.033735 0.041748 2.000000
0.465339 0.034633 -0.076528 2.000000
0.465339 0.012068 0.072075 2.000000
0.465339 0.008791 -0.057415 2.000000
0.465339 0.077601 -0.010847 2.000000
0.465339 0.081161 -0.002315 2.000000
0.465339 -0.034040 0.040254 2.000000
0.465339 -0.081584 0.007343 2.000000
0.465339 -0.074260 0.053696 2.000000
0.465339 -0.011285 -0.073298 2.000000
0.465339 -0.042037 -0.006595 2.000000
0.465339 0.012352 0.082450 2.000000
0.465339 -0.005011 -0.066171 2.000000
0.465339 0.073946 0.059048 2.000000
0.465339 -0.031156 0.015572 2.000000
0.465339 0.059505 -0.052958 2.000000
0.465339 0.020878 -0.015400 2.000000
0.465339 -0.038498 0.016797 2.000000
0.465339 0.017559 0.060965 2.000000
0.465339 -0.079235 0.039351 2.000000
0.465339 -0.074080 -0.054222 2.000000
0.465339 0.009943 0.007395 2.000000
0.465339 0.072151 -0.045889 2.000000
0.465339 -0.041256 -0.064622 2.000000
0.465339 0.048141 0.025162 2.000000
0.465339 0.067003 0.074117 2.000000
0.465339 0.015205 0.006153 2.000000
0.465339 -0.044656 0.056338 2.000000
0.465339 -0.043607 -0.005653 2.000000
0.465339 -0.021472 -0.022261 2.000000
0.465339 0.026961 -0.033268 2.000000
0.465339 0.018023 -0.022164 2.000000
0.465339 -0.021012 0.056215 2.000000
0.465339 -0.046675 -0.080200 2.000000
0.465339 -0.008418 0.007645 2.000000
0.465339 0.027927 0.058069 2.000000
0.465339 -0.031316 0.068535 2.000000
0.465339 -0.051522 -0.082109 2.000000
0.465339 0.002629 0.021290 2.000000
0.465339 0.082726 -0.052605 2.000000
0.465339 -0.057008 -0.041656 2.000000
0.465339 0.024670 0.012460 2.000000
0.465339 -0.018578 0.083129 2.000000
0.465339 0.005218 -0.029669 2.000000
0.465339 0.057404 0.039059 2.000000
0.465339 -0.080543 -0.037087 2.000000
0.465339 0.046511 0.072902 2.000000
0.465339 -0.040185 0.077281 2.000000
0.465339 0.044114 0.010503 2.000000
0.465339 0.048834 0.030903 2.000000
0.465339 -0.046836 0.040269 2.000000
0.465339 -0.037832 -0.084190 2.000000
0.465339 0.065255 0.022978 2.000000
0.465339 0.024879 0.045280 2.000000
0.465339 0.076739 -0.052483 2.000000
0.465339 0.044874 0.043142 2.000000
0.465339 0.045535 0.063966 2.000000
0.465339 0.020919 0.024869 2.000000
0.465339 -0.050794 0.021715 2.000000
0.465339 -0.084491 0.025832 2.000000
0.465339 0.045880 -0.023482 2.000000
0.465339 0.022049 -0.056396 2.000000
0.465339 -0.079970 0.007080 2.000000
0.465339 0.074465 -0.053895 2.000000
0.465339 -0.050215 0.054277 2.000000
0.465339 0.043540 0.008381 2.000000
0.465339 -0.021143 0.078412 2.000000
0.465339 -0.082640 0.006240 2.000000
0.465339 0.047412 0.030393 2.000000
0.465339 0.030645 0.006442 2.000000
0.465339 0.085931 0.030011 2.000000
0.465339 0.019150 0.000223 2.000000
0.465339 0.002677 -0.077578 2.000000
0.465339 0.069158 0.032076 2.000000
0.465339 0.020071 -0.051873 2.000000
0.465339 -0.055475 -0.048585 2.000000
0.465339 0.054976 -0.040929 2.000000
0.465339 0.073490 0.003015 2.000000
0.465339 -0.001724 -0.072647 2.000000
0.465339 -0.009333 0.094912 2.000000
0.465339 -0.094457 -0.000073 2.000000
0.465339 0.050627 -0.027037 2.000000
0.465339 0.019249 -0.001261 2.000000
0.465339 0.079339 -0.011423 2.000000
0.465339 -0.004947 -0.005983 2.000000
0.465339 0.004032 -0.092152 2.000000
0.465339 -0.087105 -0.043368 2.000000
0.465339 -0.017097 0.086287 2.000000
0.465339 -0.044551 -0.081028 2.000000
0.465339 0.095434 -0.002911 2.000000
0.465339 0.095989 0.000623 2.000000
0.465339 -0.007169 -0.026074 2.000000
0.465339 -0.060045 -0.014520 2.000000
0.465339 -0.053780 0.029445 2.000000
0.465339 -0.025167 0.094715 2.000000
0.465339 0.058086 0.074957 2.000000
0.465339 0.027589 0.014803 2.000000
0.465339 -0.008437 -0.091758 2.000000
0.465339 -0.007599 0.062727 2.000000
0.465339 -0.036824 -0.055716 2.000000
0.465339 0.005222 -0.067323 2.000000
0.465339 0.051367 0.008698 2.000000
0.465339 -0.006521 0.096664 2.000000
0.465339 0.084908 -0.001835 2.000000
0.465339 -0.031445 0.010559 2.000000
0.465339 0.040527 -0.072208 2.000000
0.465339 -0.026347 0.077536 2.000000
0.465339 0.048665 -0.025356 2.000000
0.465339 0.049732 0.061460 2.000000
0.465339 0.023158 -0.034473 2.000000
0.465339 0.008166 0.018532 2.000000
0.465339 0.086695 -0.022313 2.000000
0.465339 -0.043099 -0.055727 2.000000
0.465339 0.001311 0.051235 2.000000
0.465339 0.090715 0.006183 2.000000
0.465339 -0.017573 0.018586 2.000000
0.465339 0.053665 0.011949 2.000000
0.465339 0.045247 0.008936 2.000000
0.465339 0.062270 -0.029097 2.000000
0.465339 -0.000226 -0.000013 2.000000
0.465339 -0.042218 -0.060366 2.000000
0.465339 0.033367 -0.068700 2.000000
0.465339 -0.049451 -0.035155 2.000000
0.465339 0.013092 -0.034001 2.000000
0.465339 0.051981 -0.067203 2.000000
0.465339 -0.070628 0.039265 2.000000
0.465339 -0.031089 -0.044057 2.000000
0.465339 0.004896 0.080717 2.000000
0.465339 -0.050440 -0.015310 2.000000
0.465339 -0.034442 -0.033122 2.000000
0.465339 -0.046591 0.026985 2.000000
0.465339 0.082732 -0.037235 2.000000
0.465339 0.084782 -0.021473 2.000000
0.465339 -0.013838 0.070098 2.000000
0.465339 -0.003828 -0.096167 2.000000
0.465339 -0.089179 -0.020182 2.000000
0.465339 -0.053745 0.009399 2.000000
0.465339 -0.094616 0.008587 2.000000
0.465339 -0.013629 -0.083695 2.000000
0.465339 -0.097968 0.001752 2.000000
0.465339 0.044521 0.057543 2.000000
0.465339 0.019923 -0.073410 2.000000
0.465339 0.006773 -0.088423 2.000000
0.465339 -0.043788 -0.023557 2.000000
0.465339 0.017636 -0.098068 2.000000
0.465339 0.035481 0.048916 2.000000
0.465339 -0.029772 0.015135 2.000000
0.465339 -0.021940 0.084637 2.000000
0.465339 -0.064028 -0.016683 2.000000
0.465339 0.076794 0.060957 2.000000
0.465339 -0.009172 -0.004413 2.000000
0.465339 -0.062469 0.017973 2.000000
0.465339 -0.071868 -0.061891 2.000000
0.465339 -0.044299 0.033480 2.000000
0.465339 0.024536 0.050459 2.000000
0.465339 -0.095813 0.023678 2.000000
0.465339 0.076688 -0.009443 2.000000
0.465339 0.028576 -0.015841 2.000000
0.465339 0.043775 -0.020138 2.000000
0.465339 -0.074896 -0.022037 2.000000
0.465339 -0.066097 0.051173 2.000000
0.465339 0.049410 0.036752 2.000000
0.465339 -0.035352 -0.085095 2.000000
0.465339 0.094269 0.026136 2.000000
0.465339 -0.069897 -0.003989 2.000000
0.465339 -0.040079 -0.057846 2.000000
0.465339 0.047079 -0.004911 2.000000
0.465339 0.041193 0.025376 2.000000
0.465339 0.083324 0.038764 2.000000
0.465339 0.042830 -0.059809 2.000000
0.465339 -0.021824 0.028631 2.000000
0.465339 -0.077800 -0.000223 2.000000
0.465339 0.037703 0.052866 2.000000
0.465339 -0.003064 -0.029990 2.000000
0.465339 0.020390 0.064473 2.000000
0.465339 -0.002570 -0.048786 2.000000
0.465339 0.073766 0.015947 2.000000
0.465339 0.023447 0.046547 2.000000
0.465339 0.059357 -0.064985 2.000000
0.465339 0.061692 -0.052057 2.000000
0.465339 0.036575 0.071933 2.000000
0.465339 0.023039 0.068161 2.000000
0.465339 -0.026196 0.083222 2.000000
0.465339 0.070489 0.035742 2.000000
0.465339 0.012421 0.058044 2.000000
0.465339 0.050733 0.079438 2.000000
0.465339 -0.075428 0.039707 2.000000
0.465339 -0.077993 0.026864 2.000000
0.465339 -0.027492 0.060741 2.000000
0.465339 -0.057910 0.056195 2.000000
0.465339 0.039829 0.070535 2.000000
0.465339 0.022406 0.061806 2.000000
0.465339 0.004819 0.073380 2.000000
0.465339 0.072827 -0.005442 2.000000
0.465339 -0.004006 -0.025746 2.000000
0.465339 -0.054347 0.083091 2.000000
0.465339 0.000144 0.025839 2.000000
0.465339 0.081239 -0.014993 2.000000
0.465339 -0.070374 0.030537 2.000000
0.465339 0.055441 0.076243 2.000000
0.465339 0.050072 -0.044349 2.000000
0.465339 0.015215 0.095984 2.000000
0.465339 0.095007 -0.001452 2.000000
0.465339 -0.010857 0.006624 2.000000
0.465339 0.002469 0.074120 2.000000
0.465339 -0.081875 -0.021373 2.000000
0.465339 -0.036737 -0.024852 2.000000
0.465339 -0.019356 -0.032012 2.000000
0.465339 -0.073554 -0.008645 2.000000
0.465339 -0.048279 -0.080454 2.000000
0.465339 -0.065788 -0.071164 2.000000
0.465339 0.063306 0.039139 2.000000
0.465339 -0.004951 -0.080177 2.000000
0.465339 -0.012903 -0.019428 2.000000
0.465339 0.066181 0.002862 2.000000
0.465339 0.010619 -0.088491 2.000000
0.465339 0.080378 -0.057163 2.000000
0.465339 -0.042923 0.079385 2.000000
0.465339 0.012802 -0.010151 2.000000
0.465339 0.010380 -0.078899 2.000000
0.465339 -0.022723 0.052633 2.000000
0.465339 -0.070761 0.037341 2.000000
0.465339 0.034517 0.083447 2.000000
0.465339 0.031616 -0.073733 2.000000
0.465339 0.075526 0.008299 2.000000
0.465339 -0.053023 0.032290 2.000000
0.465339 -0.008192 -0.071035 2.000000
0.465339 -0.018105 -0.093208 2.000000
0.465339 0.070020 0.061170 2.000000
0.465339 -0.067711 0.019039 2.000000
0.465339 -0.068451 -0.005317 2.000000
0.465339 -0.020209 -0.091729 2.000000
0.465339 0.000376 0.013124 2.000000
0.465339 -0.083713 0.028648 2.000000
0.465339 0.087748 -0.019410 2.000000
0.465339 0.076520 -0.011918 2.000000
0.465339 0.063709 -0.054214 2.000000
0.465339 -0.064900 -0.023468 2.000000
0.465339 -0.039883 -0.038036 2.000000
0.465339 -0.054765 0.050065 2.000000
0.465339 -0.017838 0.043323 2.000000
0.465339 0.089431 -0.013291 2.000000
0.465339 -0.030221 -0.088452 2.000000
0.465339 -0.012754 0.077847 2.000000
0.465339 -0.047854 -0.029132 2.000000
0.465339 0.021726 0.051253 2.000000
0.465339 0.028125 -0.079970 2.000000
0.465339 0.059855 -0.012818 2.000000
0.465339 0.029914 0.089727 2.000000
0.465339 -0.082678 0.014465 2.000000
0.465339 0.091045 0.000219 2.000000
0.465339 0.056884 0.044911 2.000000
0.465339 0.006368 0.028441 2.000000
0.465339 -0.016540 0.003760 2.000000
0.465339 -0.078438 0.034374 2.000000
0.465339 0.048543 -0.077938 2.000000
0.465339 0.002903 -0.006398 2.000000
0.465339 -0.075384 0.054775 2.000000
0.465339 0.058738 0.005024 2.000000
0.465339 -0.020451 0.027792 2.000000
0.465339 0.007850 -0.001230 2.000000
0.465339 -0.067636 0.065892 2.000000
0.465339 0.083134 0.007314 2.000000
0.465339 -0.022726 -0.059719 2.000000
0.465339 0.071863 -0.038159 2.000000
0.465339 0.015883 -0.031758 2.000000
0.465339 -0.031862 -0.019774 2.000000
0.465339 -0.043580 0.025062 2.000000
0.465339 -0.010798 -0.023798 2.000000
0.465339 0.039116 0.045832 2.000000
0.465339 -0.004832 -0.089412 2.000000
0.465339 0.064101 -0.065488 2.000000
0.465339 0.029108 0.006037 2.000000
0.465339 0.082804 -0.015016 2.000000
0.465339 0.025227 0.043787 2.000000
0.465339 -0.051253 0.038099 2.000000
0.465339 -0.064150 -0.059075 2.000000
0.465339 -0.031331 0.073050 2.000000
0.465339 0.073154 -0.016249 2.000000
0.465339 -0.029783 -0.056063 2.000000
0.465339 0.037291 0.040081 2.000000
0.465339 -0.024914 -0.076899 2.000000
0.465339 -0.002261 0.084121 2.000000
0.465339 0.023838 -0.052828 2.000000
0.465339 -0.057933 0.048323 2.000000
0.465339 0.021437 -0.018064 2.000000
0.465339 0.088140 -0.021186 2.000000
0.465339 0.018571 -0.010238 2.000000
0.465339 -0.038042 0.045073 2.000000
0.465339 -0.006777 0.028520 2.000000
0.465339 -0.009678 0.081138 2.000000
0.465339 0.017420 -0.029912 2.000000
0.465339 0.010300 -0.057333 2.000000
0.465339 0.019249 -0.048900 2.000000
0.465339 -0.037829 -0.048156 2.000000
0.465339 -0.058266 -0.037996 2.000000
0.465339 -0.002265 0.053386 2.000000
0.465339 0.070172 -0.062320 2.000000
0.465339 0.003153 0.050853 2.000000
0.465339 0.063449 0.072381 2.000000
0.465339 0.067116 0.041052 2.000000
0.465339 -0.021833 -0.058615 2.000000
0.465339 -0.025049 0.001568 2.000000
0.465339 -0.056218 0.044864 2.000000
0.465339 -0.076900 0.037253 2.000000
0.465339 -0.041352 -0.088816 2.000000
0.465339 0.036796 -0.070902 2.000000
0.465339 -0.064929 -0.006718 2.000000
0.465339 -0.007660 -0.047862 2.000000
0.465339 0.002129 0.037298 2.000000
0.465339 0.034912 -0.014407 2.000000
0.465339 0.056664 -0.026199 2.000000
0.465339 0.069266 -0.005541 2.000000
0.465339 -0.062156 0.006361 2.000000
0.465339 -0.008709 -0.036139 2.000000
0.465339 -0.054536 0.068270 2.000000
0.465339 0.033522 -0.053217 2.000000
0.465339 0.066685 -0.003917 2.000000
0.465339 0.008468 0.004688 2.000000
0.465339 0.029132 -0.074935 2.000000
0.465339 0.033803 -0.093426 2.000000
0.465339 -0.048813 0.062576 2.000000
0.465339 0.057777 -0.071815 2.000000
0.465339 -0.028339 -0.046743 2.000000
0.465339 -0.052901 0.082168 2.000000
0.465339 0.052765 0.047688 2.000000
0.465339 0.003467 -0.047098 2.000000
0.465339 -0.017062 -0.019586 2.000000
0.465339 0.054162 -0.037319 2.000000
0.465339 -0.000092 -0.034597 2.000000
0.465339 0.035150 -0.090904 2.000000
0.465339 0.062270 -0.011166 2.000000
0.465339 0.080744 -0.011473 2.000000
0.465339 0.047371 0.086764 2.000000
0.465339 -0.074277 -0.035702 2.000000
0.465339 -0.052995 0.039432 2.000000
0.465339 -0.001235 -0.041170 2.000000
0.465339 0.066835 0.029039 2.000000
0.465339 -0.068214 -0.003263 2.000000
0.465339 -0.042427 0.022377 2.000000
0.465339 0.079802 -0.021904 2.000000
0.465339 0.064597 -0.053202 2.000000
0.465339 -0.017676 0.077934 2.000000
0.465339 -0.066520 0.067641 2.000000
0.465339 0.053282 0.044852 2.000000
0.465339 -0.089085 -0.036904 2.000000
0.465339 -0.064630 -0.069136 2.000000
0.465339 -0.026586 -0.018495 2.000000
0.465339 0.060629 -0.062380 2.000000
0.465339 0.073215 0.008677 2.000000
0.465339 -0.019228 0.030395 2.000000
0.465339 -0.045726 0.019705 2.000000
0.465339 -0.072216 0.003834 2.000000
0.465339 -0.019849 -0.085387 2.000000
0.465339 0.012713 -0.042390 2.000000
0.465339 0.057646 -0.019590 2.000000
0.465339 0.028212 -0.067028 2.000000
0.465339 0.052578 0.004575 2.000000
0.465339 -0.033833 0.018353 2.000000
0.465339 -0.023419 -0.064452 2.000000
0.465339 0.066168 0.008945 2.000000
0.465339 -0.039129 0.067664 2.000000
0.465339 0.006082 -0.034489 2.000000
0.465339 -0.090829 -0.007994 2.000000
0.465339 -0.038737 0.028610 2.000000
0.465339 0.070600 0.065906 2.000000
0.465339 0.003814 0.028654 2.000000
0.465339 0.033807 -0.034344 2.000000
0.465339 0.073400 0.060728 2.000000
0.465339 -0.076518 0.032738 2.000000
0.465339 -0.083150 0.035168 2.000000
0.465339 -0.062892 0.002596 2.000000
0.465339 -0.030186 -0.032123 2.000000
0.465339 0.049874 -0.031597 2.000000
0.465339 0.045636 -0.056411 2.000000
0.465339 0.007397 0.066925 2.000000
0.465339 -0.059361 0.073464 2.000000
0.465339 0.003810 -0.040283 2.000000
0.465339 -0.062295 0.039186 2.000000
0.465339 0.051857 -0.060716 2.000000
0.465339 0.075962 0.049379 2.000000
0.465339 -0.010981 -0.076827 2.000000
0.465339 -0.027845 0.008902 2.000000
0.465339 -0.059030 -0.002181 2.000000
0.465339 0.090188 0.029122 2.000000
0.465339 0.017221 0.019602 2.000000
0.465339 -0.021220 0.066738 2.000000
0.465339 0.014487 -0.077235 2.000000
0.465339 0.027489 -0.052008 2.000000
0.465339 0.033161 -0.060207 2.000000
0.465339 -0.027387 -0.089075 2.000000
0.465339 -0.028132 0.051650 2.000000
0.465339 0.061901 0.068764 2.000000
0.465339 -0.066657 -0.039582 2.000000
0.465339 0.030746 -0.039637 2.000000
0.465339 -0.065752 0.034168 2.000000
0.465339 0.029674 0.012415 2.000000
0.465339 0.067213 0.070160 2.000000
0.465339 0.027278 -0.057350 2.000000
0.465339 -0.008103 0.021224 2.000000
0.465339 0.067146 -0.051280 2.000000
0.465339 -0.080360 -0.040400 2.000000
0.465339 0.025020 -0.017129 2.000000
0.465339 -0.053308 0.045111 2.000000
0.465339 0.070386 0.059210 2.000000
0.465339 0.063570 0.028400 2.000000
0.465339 0.001999 -0.024549 2.000000
0.465339 -0.043191 0.034831 2.000000
0.465339 0.016296 0.089189 2.000000
0.465339 -0.062601 0.057409 2.000000
0.465339 0.031719 -0.084377 2.000000
0.465339 -0.047979 0.017973 2.000000
0.465339 -0.003678 -0.072902 2.000000
0.465339 -0.074668 0.064856 2.000000
0.465339 0.038521 0.088366 2.000000
0.465339 0.021079 0.011770 2.000000
0.465339 -0.069624 0.017847 2.000000
0.465339 -0.001366 0.075347 2.000000
0.465339 -0.045550 0.035360 2.000000
0.465339 0.019840 0.044916 2.000000
0.465339 -0.072791 -0.050527 2.000000
0.465339 -0.047652 -0.032276 2.000000
0.465339 0.039693 -0.086306 2.000000
0.465339 -0.023424 -0.066407 2.000000
0.465339 -0.060745 -0.035482 2.000000
0.465339 -0.037149 -0.043500 2.000000
0.465339 0.017515 0.077855 2.000000
0.465339 0.033152 0.057830 2.000000
0.465339 0.019940 -0.057964 2.000000
0.465339 0.027771 0.044468 2.000000
0.465339 -0.044091 0.001180 2.000000
0.465339 -0.063031 0.025303 2.000000
0.465339 0.088886 -0.027100 2.000000
0.465339 -0.030892 -0.053550 2.000000
0.465339 0.092581 0.037792 2.000000
0.465339 0.008587 -0.017379 2.000000
0.465339 -0.079756 0.000220 2.000000
0.465339 -0.030319 -0.000922 2.000000
0.465339 0.045616 -0.005644 2.000000
0.465339 0.047743 -0.053008 2.000000
0.465339 0.068514 -0.054907 2.000000
0.465339 -0.001045 -0.042508 2.000000
0.465339 0.069869 -0.044073 2.000000
0.465339 0.047934 -0.006634 2.000000
0.465339 -0.083737 -0.032865 2.000000
0.465339 -0.033915 0.090815 2.000000
0.465339 0.034251 -0.063826 2.000000
0.465339 -0.088147 0.040737 2.000000
0.465339 0.073791 0.027447 2.000000
0.465339 0.086534 -0.024156 2.000000
0.465339 0.030958 -0.052747 2.000000
0.465339 0.077660 -0.031604 2.000000
0.465339 0.008321 0.012726 2.000000
0.465339 0.004347 0.063326 2.000000
0.465339 0.062181 -0.039863 2.000000
0.465339 -0.027788 0.063936 2.000000
0.465339 -0.009023 0.092058 2.000000
0.465339 0.064015 0.030896 2.000000
0.465339 -0.079123 0.012898 2.000000
0.465339 -0.038300 0.084282 2.000000
0.465339 -0.092589 -0.008005 2.000000
0.465339 0.005468 -0.049659 2.000000
0.465339 -0.044605 0.079662 2.000000
0.465339 0.051593 0.073109 2.000000
0.465339 0.005501 -0.036506 2.000000
0.465339 -0.054303 -0.059438 2.000000
0.465339 0.067672 0.039631 2.000000
0.465339 -0.001196 -0.009045 2.000000
0.465339 0.009732 0.083740 2.000000
0.465339 0.026008 -0.011748 2.000000
0.465339 -0.096216 0.004133 2.000000
0.465339 -0.047698 0.013773 2.000000
0.465339 -0.011965 -0.014812 2.000000
0.465339 0.002514 -0.093779 2.000000
0.465339 -0.059120 0.051526 2.000000
0.465339 -0.013854 0.030111 2.000000
0.465339 0.044014 0.039444 2.000000
0.465339 -0.015954 0.035696 2.000000
0.465339 -0.082591 0.046452 2.000000
0.465339 -0.060543 0.032965 2.000000
0.465339 0.001798 0.080583 2.000000
0.465339 0.022496 0.030941 2.000000
0.465339 0.031893 0.063721 2.000000
0.465339 0.045557 0.069567 2.000000
0.465339 -0.027445 -0.062173 2.000000
0.465339 -0.049720 0.020425 2.000000
0.465339 -0.078327 -0.049636 2.000000
0.465339 0.089323 0.033383 2.000000
0.465339 0.096364 -0.007831 2.000000
0.465339 -0.035542 -0.012081 2.000000
0.465339 0.046332 -0.069778 2.000000
0.465339 0.023240 -0.036002 2.000000
0.465339 0.062663 -0.012760 2.000000
0.465339 -0.039630 0.083168 2.000000
0.465339 0.015499 0.021804 2.000000
0.465339 0.081731 0.032678 2.000000
0.465339 -0.069696 0.068989 2.000000
0.465339 -0.045429 0.025622 2.000000
0.465339 -0.005396 0.044988 2.000000
0.465339 0.004462 -0.084003 2.000000
0.465339 -0.021542 -0.096529 2.000000
-0.466955 0.034166 0.034108 3.000000
-0.466955 0.044344 -0.038205 3.000000
-0.466955 0.019214 0.061338 3.000000
-0.466955 0.026071 -0.011400 3.000000
-0.466955 -0.065444 -0.001680 3.000000
-0.466955 -0.071659 -0.057546 3.000000
-0.466955 0.011371 -0.080338 3.000000
-0.466955 0.061368 0.045868 3.000000
-0.466955 -0.047078 -0.087303 3.000000
-0.466955 0.036837 -0.063700 3.000000
-0.466955 0.058380 -0.067007 3.000000
-0.466955 0.093142 0.004273 3.000000
-0.466955 -0.037703 0.074841 3.000000
-0.466955 -0.049853 -0.001203 3.000000
-0.466955 0.056240 -0.067829 3.000000
-0.466955 0.087405 -0.030536 3.000000
-0.466955 -0.011926 0.031427 3.000000
-0.466955 0.040462 0.044582 3.000000
-0.466955 -0.086297 -0.007615 3.000000
-0.466955 0.004624 0.054205 3.000000
-0.466955 0.053675 0.084481 3.000000
-0.466955 -0.079080 0.007159 3.000000
-0.466955 -0.036092 0.071730 3.000000
-0.466955 0.054967 -0.029110 3.000000
-0.466955 0.059120 -0.015919 3.000000
-0.466955 -0.038572 0.048419 3.000000
-0.466955 0.082553 0.000704 3.000000
-0.466955 -0.070360 0.034755 3.000000
-0.466955 -0.042283 -0.064800 3.000000
-0.466955 0.069410 0.043463 3.000000
-0.466955 0.030884 -0.023280 3.000000
-0.466955 0.052728 0.023892 3.000000
-0.466955 0.039773 0.090915 3.000000
-0.466955 0.026131 0.050953 3.000000
-0.466955 0.035191 0.010899 3.000000
-0.466955 0.006551 -0.040676 3.000000
-0.466955 0.021817 -0.065321 3.000000
-0.466955 0.041459 -0.087778 3.000000
-0.466955 -0.075590 -0.003263 3.000000
-0.466955 -0.062156 -0.068192 3.000000
-0.466955 -0.065897 -0.038685 3.000000
-0.466955 -0.083328 0.033762 3.000000
-0.466955 -0.009911 0.084885 3.000000
-0.466955 0.054553 0.050372 3.000000
-0.466955 0.085176 -0.032214 3.000000
-0.466955 0.011830 -0.018780 3.000000
-0.466955 0.079594 0.034442 3.000000
-0.466955 -0.001329 -0.037447 3.000000
-0.466955 -0.036215 0.062228 3.000000
-0.466955 -0.029852 0.016008 3.000000
-0.466955 0.061542 0.023684 3.000000
-0.466955 0.029611 0.005054 3.000000
-0.466955 -0.082494 0.036463 3.000000
-0.466955 -0.054023 -0.028927 3.000000
-0.466955 0.009804 0.081532 3.000000
-0.466955 0.040187 0.054598 3.000000
-0.466955 -0.031935 0.044584 3.000000
-0.466955 0.007288 0.009174 3.000000
-0.466955 0.079934 0.044281 3.000000
-0.466955 0.014682 0.042212 3.000000
-0.466955 0.035682 -0.029765 3.000000
-0.466955 0.030732 -0.084904 3.000000
-0.466955 -0.045141 -0.069929 3.000000
-0.466955 -0.034040 0.025140 3.000000
-0.466955 0.010273 0.061061 3.000000
-0.466955 -0.018667 -0.038881 3.000000
-0.466955 -0.065955 -0.003971 3.000000
-0.466955 0.016901 -0.084229 3.000000
-0.466955 -0.038815 0.005915 3.000000
-0.466955 0.035581 -0.039864 3.000000
-0.466955 -0.071879 0.003552 3.000000
-0.466955 -0.050694 0.014686 3.000000
-0.466955 -0.014059 -0.082490 3.000000
-0.466955 0.042905 -0.034170 3.000000
-0.466955 -0.044889 -0.067528 3.000000
-0.466955 0.036666 0.078687 3.000000
-0.466955 0.011859 -0.056212 3.000000
-0.466955 0.026086 -0.077647 3.000000
-0.466955 0.059913 0.022103 3.000000
-0.466955 0.059752 0.063473 3.000000
-0.466955 -0.006539 0.047507 3.000000
-0.466955 0.026345 0.096355 3.000000
-0.466955 0.059869 -0.054946 3.000000
-0.466955 0.017363 -0.064075 3.000000
-0.466955 0.063425 0.010401 3.000000
-0.466955 -0.029442 -0.051309 3.000000
-0.466955 -0.087782 -0.035567 3.000000
-0.466955 0.013186 -0.080665 3.000000
-0.466955 -0.079196 -0.013379 3.000000
-0.466955 0.025359 -0.008098 3.000000
-0.466955 -0.025875 0.081481 3.000000
-0.466955 -0.049176 0.019151 3.000000
-0.466955 -0.038178 -0.023231 3.000000
-0.466955 -0.072588 -0.013067 3.000000
-0.466955 0.016158 0.066280 3.000000
-0.466955 0.005896 -0.096982 3.000000
-0.466955 -0.073145 -0.038041 3.000000
-0.466955 -0.048129 0.075997 3.000000
-0.466955 0.038731 0.054691 3.000000
-0.466955 0.013027 -0.057446 3.000000
-0.466955 -0.045773 -0.016555 3.000000
-0.466955 -0.084835 0.003290 3.000000
-0.466955 0.027787 0.084470 3.000000
-0.466955 0.053707 -0.038933 3.000000
-0.466955 0.017159 0.098275 3.000000
-0.466955 -0.000623 0.076334 3.000000
-0.466955 -0.004845 -0.028136 3.000000
-0.466955 -0.003469 0.014965 3.000000
-0.466955 0.071675 0.020906 3.000000
-0.466955 0.032475 -0.085632 3.000000
-0.466955 0.030687 -0.002744 3.000000
-0.466955 0.026961 -0.038064 3.000000
-0.466955 -0.032179 -0.083623 3.000000
-0.466955 -0.020447 0.048694 3.000000
-0.466955 -0.062364 -0.043308 3.000000
-0.466955 0.073416 -0.027500 3.000000
-0.466955 0.066043 -0.029006 3.000000
-0.466955 -0.003408 0.029240 3.000000
-0.466955 -0.039260 0.057553 3.000000
-0.466955 0.068691 0.067187 3.000000
-0.466955 -0.022624 -0.078791 3.000000
-0.466955 -0.061168 -0.051646 3.000000
-0.466955 -0.073852 -0.015655 3.000000
-0.466955 0.066703 -0.054009 3.000000
-0.466955 0.022951 -0.037335 3.000000
-0.466955 -0.006313 -0.039730 3.000000
-0.466955 -0.053602 0.059630 3.000000
-0.466955 -0.039259 -0.021008 3.000000
-0.466955 -0.072627 0.025478 3.000000
-0.466955 -0.026779 -0.094456 3.000000
-0.466955 0.085845 0.045543 3.000000
-0.466955 -0.036063 0.014954 3.000000
-0.466955 0.080819 -0.021002 3.000000
-0.466955 -0.015960 0.021797 3.000000
-0.466955 0.033886 -0.045470 3.000000
-0.466955 0.023811 -0.080160 3.000000
-0.466955 0.023564 -0.038731 3.000000
-0.466955 0.094712 0.000133 3.000000
-0.466955 -0.048940 0.021883 3.000000
-0.466955 -0.065589 0.061263 3.000000
-0.466955 -0.018071 0.027098 3.000000
-0.466955 0.005715 0.061802 3.000000
-0.466955 -0.081252 -0.016469 3.000000
-0.466955 -0.061672 -0.003106 3.000000
-0.466955 0.011812 0.092935 3.000000
-0.466955 -0.086012 0.018787 3.000000
-0.466955 0.016243 -0.049447 3.000000
-0.466955 0.092460 0.022942 3.000000
-0.466955 0.026652 0.017243 3.000000
-0.466955 0.006420 0.067562 3.000000
-0.466955 -0.040211 0.065441 3.000000
-0.466955 -0.032333 0.000892 3.000000
-0.466955 0.008091 0.068073 3.000000
-0.466955 -0.063064 -0.008401 3.000000
-0.466955 0.001354 0.014297 3.000000
-0.466955 -0.079643 0.056902 3.000000
-0.466955 -0.036182 -0.006047 3.000000
-0.466955 -0.076875 0.048311 3.000000
-0.466955 -0.042762 0.075997 3.000000
-0.466955 -0.013060 -0.005220 3.000000
-0.466955 0.014664 0.046523 3.000000
-0.466955 0.003003 -0.096274 3.000000
-0.466955 -0.067953 0.038205 3.000000
-0.466955 0.057757 0.026422 3.000000
-0.466955 0.017756 -0.054006 3.000000
-0.466955 -0.042240 0.005668 3.000000
-0.466955 0.032932 -0.055925 3.000000
-0.466955 0.041741 0.060998 3.000000
-0.466955 -0.038877 -0.026881 3.000000
-0.466955 -0.061983 0.035595 3.000000
-0.466955 -0.045382 0.033593 3.000000
-0.466955 0.000290 -0.086253 3.000000
-0.466955 0.039423 -0.075814 3.000000
-0.466955 0.038956 -0.009456 3.000000
-0.466955 -0.028214 -0.016789 3.000000
-0.466955 -0.011310 -0.092556 3.000000
-0.466955 0.008946 -0.074248 3.000000
-0.466955 -0.018984 0.095517 3.000000
-0.466955 0.062361 -0.022343 3.000000
-0.466955 0.055233 0.006963 3.000000
-0.466955 0.046677 -0.037329 3.000000
-0.466955 0.073661 0.006336 3.000000
-0.466955 -0.076913 0.041303 3.000000
-0.466955 0.034105 0.084366 3.000000
-0.466955 -0.051802 -0.038302 3.000000
-0.466955 0.077672 0.006487 3.000000
-0.466955 -0.024605 -0.075301 3.000000
-0.466955 -0.075201 0.048997 3.000000
-0.466955 0.052485 0.055520 3.000000
-0.466955 -0.065416 0.051996 3.000000
-0.466955 -0.000219 0.067290 3.000000
-0.466955 0.029477 0.059598 3.000000
-0.466955 -0.004189 0.047495 3.000000
-0.466955 -0.080241 -0.042551 3.000000
-0.466955 0.050033 -0.013460 3.000000
-0.466955 0.065708 0.028770 3.000000
-0.466955 0.043275 0.083854 3.000000
-0.466955 0.091638 0.034510 3.000000
-0.466955 -0.041412 0.009534 3.000000
-0.466955 -0.018784 -0.060956 3.000000
-0.466955 0.074401 -0.040023 3.000000
-0.466955 0.024844 0.004613 3.000000
-0.466955 0.076401 -0.035263 3.000000
-0.466955 0.009631 -0.040252 3.000000
-0.466955 -0.049708 0.009673 3.000000
-0.466955 0.012512 0.053520 3.000000
-0.466955 -0.057656 0.021527 3.000000
-0.466955 0.023127 -0.007959 3.000000
-0.466955 -0.057246 0.040889 3.000000
-0.466955 0.028787 0.042722 3.000000
-0.466955 0.003262 0.017740 3.000000
-0.466955 -0.003298 -0.016806 3.000000
-0.466955 -0.022769 -0.028290 3.000000
-0.466955 -0.067823 -0.000281 3.000000
-0.466955 0.087547 0.041081 3.000000
-0.466955 0.057713 0.057769 3.000000
-0.466955 0.030745 0.070725 3.000000
-0.466955 0.029764 0.055434 3.000000
-0.466955 0.075774 0.064752 3.000000
-0.466955 0.010400 -0.067066 3.000000
-0.466955 -0.024272 0.003334 3.000000
-0.466955 -0.034860 0.032121 3.000000
-0.466955 -0.080520 0.038485 3.000000
-0.466955 -0.013614 -0.098239 3.000000
-0.466955 -0.046182 0.015727 3.000000
-0.466955 -0.021518 0.026006 3.000000
-0.466955 0.086489 -0.037772 3.000000
-0.466955 -0.058854 -0.065420 3.000000
-0.466955 0.035779 -0.022156 3.000000
-0.466955 0.056602 -0.061763 3.000000
-0.466955 -0.091426 -0.032524 3.000000
-0.466955 0.043852 0.047885 3.000000
-0.466955 0.047592 0.029226 3.000000
-0.466955 -0.041091 -0.007986 3.000000
-0.466955 0.030767 -0.026495 3.000000
-0.466955 0.078474 -0.056739 3.000000
-0.466955 0.008159 -0.067077 3.000000
-0.466955 -0.052648 -0.052874 3.000000
-0.466955 -0.088348 -0.024658 3.000000
-0.466955 -0.076420 0.004393 3.000000
-0.466955 -0.057459 0.013346 3.000000
-0.466955 -0.051018 0.019261 3.000000
-0.466955 -0.071747 -0.002689 3.000000
-0.466955 0.048030 0.008037 3.000000
-0.466955 -0.009745 0.058680 3.000000
-0.466955 -0.073273 0.009514 3.000000
-0.466955 -0.041580 0.055947 3.000000
-0.466955 0.015151 -0.032378 3.000000
-0.466955 -0.007673 -0.062412 3.000000
-0.466955 -0.000425 -0.032332 3.000000
-0.466955 -0.060650 -0.011465 3.000000
-0.466955 -0.072919 -0.000158 3.000000
-0.466955 -0.074462 -0.063405 3.000000
-0.466955 0.085684 0.004958 3.000000
-0.466955 -0.031471 -0.071170 3.000000
-0.466955 0.053017 0.037786 3.000000
-0.466955 -0.080855 -0.026296 3.000000
-0.466955 0.028031 0.026530 3.000000
-0.466955 0.025939 0.034129 3.000000
-0.466955 -0.011303 0.090408 3.000000
-0.466955 0.084444 0.017571 3.000000
-0.466955 0.070433 0.015309 3.000000
-0.466955 -0.002160 -0.004368 3.000000
-0.466955 0.038347 0.010387 3.000000
-0.466955 -0.088360 0.016383 3.000000
-0.466955 -0.071874 0.062311 3.000000
-0.466955 -0.092866 0.034010 3.000000
-0.466955 -0.002923 0.050207 3.000000
-0.466955 -0.013695 -0.045563 3.000000
-0.466955 0.043756 -0.064667 3.000000
-0.466955 0.003744 -0.028387 3.000000
-0.466955 0.052280 -0.057913 3.000000
-0.466955 -0.017179 -0.042117 3.000000
-0.466955 -0.020073 -0.089994 3.000000
-0.466955 -0.045301 0.085648 3.000000
-0.466955 0.003650 -0.022083 3.000000
-0.466955 -0.018749 -0.042956 3.000000
-0.466955 0.016271 0.039284 3.000000
-0.466955 0.047725 -0.064186 3.000000
-0.466955 0.046454 0.069274 3.000000
-0.466955 -0.001002 0.029694 3.000000
-0.466955 0.024059 0.047558 3.000000
-0.466955 0.017480 0.036217 3.000000
-0.466955 0.032748 -0.064489 3.000000
-0.466955 -0.015588 -0.064389 3.000000
-0.466955 -0.042960 -0.007704 3.000000
-0.466955 0.019281 0.030605 3.000000
-0.466955 -0.048146 -0.039016 3.000000
-0.466955 0.006541 0.064665 3.000000
-0.466955 -0.006656 0.062619 3.000000
-0.466955 -0.063666 0.013458 3.000000
-0.466955 0.093092 0.010402 3.000000
-0.466955 -0.046782 0.054100 3.000000
-0.466955 -0.051504 0.070209 3.000000
-0.466955 -0.026816 0.086169 3.000000
-0.466955 -0.077644 -0.010407 3.000000
-0.466955 -0.036200 0.066539 3.000000
-0.466955 0.011240 0.051964 3.000000
-0.466955 0.035571 -0.071447 3.000000
-0.466955 0.054906 0.060802 3.000000
-0.466955 -0.000309 0.037664 3.000000
-0.466955 0.017415 -0.012402 3.000000
-0.466955 -0.078683 -0.054712 3.000000
-0.466955 -0.057239 0.072597 3.000000
-0.466955 0.042500 0.022547 3.000000
-0.466955 0.067175 -0.030353 3.000000
-0.466955 0.014307 -0.005720 3.000000
-0.466955 0.012337 -0.000224 3.000000
-0.466955 -0.078259 0.020609 3.000000
-0.466955 -0.045418 -0.080372 3.000000
-0.466955 -0.077219 -0.046263 3.000000
-0.466955 -0.018469 -0.047866 3.000000
-0.466955 0.034863 -0.013865 3.000000
-0.466955 -0.040369 -0.058160 3.000000
-0.466955 -0.054473 -0.067342 3.000000
-0.466955 -0.017771 -0.001129 3.000000
-0.466955 -0.003462 -0.072509 3.000000
-0.466955 -0.060485 -0.066752 3.000000
