0.465339 -0.047296 0.084091 2.000000
0.465339 0.055424 0.014525 2.000000
0.465339 -0.052224 -0.084428 2.000000
0.465339 0.063132 -0.070002 2.000000
0.465339 -0.055747 -0.054559 2.000000
0.465339 -0.065788 -0.005022 2.000000
0.465339 0.020068 -0.029608 2.000000
0.465339 0.021474 -0.031101 2.000000
0.465339 -0.024411 -0.085052 2.000000
0.465339 -0.038867 0.090113 2.000000
0.465339 -0.076139 -0.024142 2.000000
0.465339 -0.067136 -0.026291 2.000000
0.465339 -0.036544 -0.025776 2.000000
0.465339 -0.036526 0.031658 2.000000
0.465339 -0.018219 -0.059930 2.000000
0.465339 -0.049052 0.079901 2.000000
0.465339 0.082238 -0.043562 2.000000
0.465339 0.013251 0.069858 2.000000
0.465339 -0.010642 0.016420 2.000000
0.465339 0.018587 0.040598 2.000000
0.465339 -0.059450 -0.054804 2.000000
0.465339 -0.000195 -0.020400 2.000000
0.465339 0.025547 -0.035679 2.000000
0.465339 0.091134 0.008827 2.000000
0.465339 0.058011 0.010851 2.000000
0.465339 -0.018005 -0.043607 2.000000
0.465339 -0.013580 0.020880 2.000000
0.465339 -0.012328 -0.067940 2.000000
0.465339 0.054810 -0.053331 2.000000
0.465339 -0.005503 -0.009232 2.000000
0.465339 0.066765 0.045951 2.000000
0.465339 -0.013417 0.089273 2.000000
0.465339 -0.069233 0.016128 2.000000
0.465339 0.014590 -0.007923 2.000000
0.465339 -0.049185 0.083047 2.000000
0.465339 -0.014065 -0.088073 2.000000
0.465339 -0.085506 0.030478 2.000000
0.465339 0.090806 0.035129 2.000000
0.465339 -0.030135 0.033496 2.000000
0.465339 0.001679 0.068790 2.000000
0.465339 -0.071789 0.008062 2.000000
0.465339 0.013249 0.098054 2.000000
0.465339 0.056021 -0.029699 2.000000
0.465339 -0.025741 0.092389 2.000000
0.465339 -0.056202 -0.000965 2.000000
0.465339 -0.036610 0.092814 2.000000
0.465339 -0.035035 -0.015609 2.000000
0.465339 0.037649 0.016543 2.000000
0.465339 -0.014715 -0.096208 2.000000
0.465339 -0.075625 -0.015679 2.000000
0.465339 0.024272 0.031932 2.000000
0.465339 -0.015748 0.031394 2.000000
0.465339 0.027547 -0.084224 2.000000
0.465339 -0.084300 -0.010169 2.000000
0.465339 -0.020529 0.026956 2.000000
0.465339 0.034407 0.056599 2.000000
0.465339 0.079438 -0.015961 2.000000
0.465339 0.093958 -0.016103 2.000000
0.465339 -0.014055 -0.033235 2.000000
0.465339 -0.049734 -0.067365 2.000000
0.465339 0.051786 -0.068986 2.000000
0.465339 0.091875 -0.013295 2.000000
0.465339 -0.074145 -0.011620 2.000000
0.465339 0.014169 -0.097009 2.000000
0.465339 -0.029685 -0.060278 2.000000
0.465339 0.035932 0.068328 2.000000
0.465339 0.070488 0.033208 2.000000
0.465339 -0.001227 0.057005 2.000000
0.465339 0.008885 -0.061486 2.000000
0.465339 -0.011559 -0.045583 2.000000
0.465339 -0.021357 -0.073155 2.000000
0.465339 -0.071178 0.000548 2.000000
0.465339 0.072369 -0.037508 2.000000
0.465339 0.019892 -0.060133 2.000000
0.465339 -0.050261 -0.068846 2.000000
0.465339 0.071068 0.066099 2.000000
0.465339 -0.001053 -0.097312 2.000000
0.465339 0.027622 0.084463 2.000000
0.465339 0.056003 -0.035804 2.000000
0.465339 0.021814 0.024778 2.000000
0.465339 0.044180 0.057745 2.000000
0.465339 -0.034972 -0.020175 2.000000
0.465339 0.038104 -0.033896 2.000000
0.465339 -0.005140 -0.061372 2.000000
0.465339 -0.027234 0.037984 2.000000
0.465339 -0.064805 0.035512 2.000000
0.465339 -0.069752 0.030453 2.000000
0.465339 0.014853 -0.059001 2.000000
0.465339 -0.036259 -0.036872 2.000000
0.465339 -0.046910 -0.051969 2.000000
0.465339 0.047404 -0.002375 2.000000
0.465339 -0.067574 0.061524 2.000000
0.465339 0.090766 -0.012178 2.000000
0.465339 0.059604 -0.003026 2.000000
0.465339 -0.066718 -0.046970 2.000000
0.465339 0.010583 -0.029570 2.000000
0.465339 -0.053876 0.003758 2.000000
0.465339 -0.008779 0.093970 2.000000
0.465339 0.092024 0.027779 2.000000
0.465339 -0.085839 -0.040394 2.000000
0.465339 -0.052699 -0.019303 2.000000
0.465339 0.011878 0.055928 2.000000
0.465339 0.036894 -0.043567 2.000000
0.465339 0.019431 -0.022117 2.000000
0.465339 0.059187 0.053676 2.000000
0.465339 -0.076516 0.035927 2.000000
0.465339 0.069814 0.067556 2.000000
0.465339 0.001137 -0.066488 2.000000
0.465339 -0.037124 -0.044320 2.000000
0.465339 -0.036184 0.074185 2.000000
0.465339 -0.010528 0.005924 2.000000
0.465339 0.018310 0.067852 2.000000
0.465339 -0.028170 -0.067839 2.000000
0.465339 0.088968 -0.041014 2.000000
0.465339 0.080860 0.021871 2.000000
0.465339 0.054317 -0.026023 2.000000
0.465339 0.017110 0.033414 2.000000
0.465339 0.041496 -0.068250 2.000000
0.465339 0.015104 0.078603 2.000000
0.465339 0.067610 -0.072889 2.000000
0.465339 -0.034830 -0.081083 2.000000
0.465339 -0.091023 -0.015629 2.000000
0.465339 0.030969 0.006801 2.000000
0.465339 0.018352 0.002263 2.000000
0.465339 -0.015369 0.059955 2.000000
0.465339 -0.046932 -0.078002 2.000000
0.465339 0.040185 -0.078271 2.000000
0.465339 0.067189 0.038826 2.000000
0.465339 -0.077324 -0.037417 2.000000
0.465339 -0.031186 0.006985 2.000000
0.465339 -0.042437 -0.017061 2.000000
0.465339 -0.041553 -0.039698 2.000000
0.465339 0.002824 0.069885 2.000000
0.465339 -0.043050 -0.039976 2.000000
0.465339 0.012407 -0.001421 2.000000
0.465339 -0.034841 -0.059176 2.000000
0.465339 -0.098806 -0.012749 2.000000
0.465339 -0.004320 0.054129 2.000000
0.465339 -0.046230 0.043930 2.000000
0.465339 -0.070188 -0.024526 2.000000
0.465339 -0.033519 -0.019855 2.000000
0.465339 -0.045101 -0.011329 2.000000
0.465339 -0.020545 -0.014339 2.000000
0.465339 -0.039430 0.082099 2.000000
0.465339 -0.061007 -0.023409 2.000000
0.465339 0.092241 -0.028909 2.000000
0.465339 0.090243 -0.039752 2.000000
0.465339 0.038768 -0.071155 2.000000
0.465339 0.060191 0.030297 2.000000
0.465339 -0.031523 -0.032286 2.000000
0.465339 -0.036781 0.041719 2.000000
0.465339 0.077747 0.020328 2.000000
0.465339 -0.046563 0.017682 2.000000
0.465339 0.004717 0.042795 2.000000
0.465339 -0.001246 0.052137 2.000000
0.465339 0.048997 0.057855 2.000000
0.465339 -0.042153 -0.029924 2.000000
0.465339 -0.061839 -0.031882 2.000000
0.465339 -0.057985 -0.005409 2.000000
0.465339 -0.012853 -0.057000 2.000000
0.465339 0.012335 0.043289 2.000000
0.465339 0.009793 -0.094940 2.000000
0.465339 0.039087 0.040983 2.000000
0.465339 0.006482 0.066955 2.000000
0.465339 0.021837 -0.067433 2.000000
0.465339 -0.024997 -0.012444 2.000000
0.465339 0.025539 -0.060535 2.000000
0.465339 -0.069788 0.003771 2.000000
0.465339 -0.019009 -0.084753 2.000000
0.465339 0.047216 -0.006848 2.000000
0.465339 -0.084137 -0.024897 2.000000
0.465339 -0.089363 0.013565 2.000000
0.465339 -0.077144 0.001225 2.000000
0.465339 0.036903 0.066322 2.000000
0.465339 0.030379 -0.028261 2.000000
0.465339 -0.016806 -0.092190 2.000000
0.465339 -0.022185 -0.091552 2.000000
0.465339 0.010746 -0.033972 2.000000
0.465339 -0.014346 0.007784 2.000000
0.465339 -0.012918 0.081060 2.000000
0.465339 -0.027492 -0.069837 2.000000
0.465339 -0.058321 0.077009 2.000000
0.465339 0.010079 -0.097772 2.000000
0.465339 -0.075147 0.058316 2.000000
0.465339 0.043294 0.056547 2.000000
0.465339 -0.070897 0.029552 2.000000
0.465339 -0.082079 0.013680 2.000000
0.465339 0.072027 0.030793 2.000000
0.465339 0.023142 0.039613 2.000000
0.465339 0.030179 -0.057374 2.000000
0.465339 -0.003131 0.086040 2.000000
0.465339 0.034536 -0.053911 2.000000
0.465339 -0.074359 0.029299 2.000000
0.465339 0.079661 -0.014592 2.000000
0.465339 0.059334 -0.054648 2.000000
0.465339 0.034897 -0.079325 2.000000
0.465339 0.028691 0.054456 2.000000
0.465339 -0.086946 -0.042961 2.000000
0.465339 0.026706 -0.075248 2.000000
0.465339 0.077434 0.048533 2.000000
0.465339 0.032538 -0.091632 2.000000
0.465339 -0.007906 -0.019241 2.000000
0.465339 -0.003987 0.083169 2.000000
0.465339 0.050209 -0.007168 2.000000
0.465339 0.048234 0.009986 2.000000
0.465339 -0.012816 0.094338 2.000000
0.465339 -0.046064 0.047912 2.000000
0.465339 0.063982 0.020094 2.000000
0.465339 -0.039753 -0.087115 2.000000
0.465339 0.071294 -0.052051 2.000000
0.465339 -0.029109 -0.066522 2.000000
0.465339 -0.081155 0.012561 2.000000
0.465339 -0.005830 0.050056 2.000000
0.465339 0.067681 0.051884 2.000000
0.465339 0.085824 0.034188 2.000000
0.465339 0.082822 0.055154 2.000000
0.465339 -0.071075 0.042489 2.000000
0.465339 -0.039198 0.033098 2.000000
0.465339 -0.010438 -0.078897 2.000000
0.465339 0.057078 0.027558 2.000000
0.465339 0.069936 0.031535 2.000000
0.465339 -0.060833 -0.048662 2.000000
0.465339 -0.015117 0.082652 2.000000
0.465339 -0.062960 0.035805 2.000000
0.465339 -0.012083 -0.032377 2.000000
0.465339 -0.009284 0.073803 2.000000
0.465339 -0.027653 0.094268 2.000000
0.465339 0.024473 -0.068965 2.000000
0.465339 -0.039489 -0.033796 2.000000
0.465339 -0.020766 -0.041857 2.000000
0.465339 -0.001850 0.046633 2.000000
0.465339 0.081460 -0.055372 2.000000
0.465339 -0.017061 -0.029877 2.000000
0.465339 0.069851 0.008452 2.000000
0.465339 -0.027915 0.066493 2.000000
0.465339 -0.030434 -0.086207 2.000000
0.465339 -0.081680 0.006011 2.000000
0.465339 0.027166 0.028458 2.000000
0.465339 -0.062277 0.019424 2.000000
0.465339 0.009352 0.063491 2.000000
0.465339 0.017014 -0.083253 2.000000
0.465339 -0.000463 -0.072861 2.000000
0.465339 0.017734 -0.022404 2.000000
0.465339 0.026978 0.025412 2.000000
0.465339 0.035983 -0.009077 2.000000
0.465339 -0.071574 0.058387 2.000000
0.465339 -0.000799 -0.028557 2.000000
0.465339 0.053528 -0.007699 2.000000
0.465339 -0.006157 -0.050209 2.000000
0.465339 0.013457 0.049769 2.000000
0.465339 -0.029848 0.053679 2.000000
0.465339 -0.076275 0.025523 2.000000
0.465339 0.041634 0.086717 2.000000
0.465339 0.041154 -0.046401 2.000000
0.465339 -0.056431 -0.037792 2.000000
0.465339 0.096946 0.023617 2.000000
0.465339 0.039196 0.067714 2.000000
0.465339 0.033052 -0.008253 2.000000
0.465339 0.078621 0.043747 2.000000
0.465339 -0.082955 -0.040675 2.000000
0.465339 0.025292 0.024401 2.000000
0.465339 -0.050853 0.024748 2.000000
0.465339 -0.002944 -0.050026 2.000000
0.465339 0.024561 -0.032799 2.000000
0.465339 -0.019016 0.069644 2.000000
0.465339 0.060937 -0.004223 2.000000
0.465339 0.021297 0.053018 2.000000
0.465339 0.051278 0.004598 2.000000
0.465339 0.032223 -0.064803 2.000000
0.465339 0.043620 -0.074832 2.000000
0.465339 -0.012254 0.037569 2.000000
0.465339 0.048165 -0.084164 2.000000
0.465339 0.055881 0.024641 2.000000
0.465339 0.087940 -0.008847 2.000000
0.465339 0.060582 0.025134 2.000000
0.465339 -0.014984 0.020509 2.000000
0.465339 0.063271 0.025784 2.000000
0.465339 -0.017641 0.076105 2.000000
0.465339 0.083118 -0.020492 2.000000
0.465339 -0.043977 0.040891 2.000000
0.465339 -0.053006 0.010076 2.000000
0.465339 0.009842 -0.088889 2.000000
0.465339 0.079181 -0.027457 2.000000
0.465339 -0.000289 -0.040206 2.000000
0.465339 0.014921 0.072856 2.000000
0.465339 0.089956 -0.018222 2.000000
0.465339 -0.063221 -0.050216 2.000000
0.465339 -0.045625 0.056315 2.000000
0.465339 -0.078116 0.050851 2.000000
0.465339 0.049056 -0.014041 2.000000
0.465339 -0.053461 0.071274 2.000000
0.465339 -0.016906 0.058407 2.000000
0.465339 0.057065 0.041523 2.000000
0.465339 -0.051824 -0.017727 2.000000
0.465339 -0.025009 0.022469 2.000000
0.465339 -0.085894 -0.007513 2.000000
0.465339 0.013039 -0.059359 2.000000
0.465339 -0.047989 0.042817 2.000000
0.465339 0.009803 -0.064508 2.000000
0.465339 -0.048944 -0.057061 2.000000
0.465339 0.065995 0.008923 2.000000
0.465339 -0.080557 0.048941 2.000000
0.465339 -0.073023 -0.042023 2.000000
0.465339 -0.042320 -0.076800 2.000000
0.465339 -0.022383 0.000526 2.000000
0.465339 0.019347 0.006169 2.000000
0.465339 0.017090 -0.037835 2.000000
0.465339 -0.039744 -0.022182 2.000000
0.465339 0.031568 0.060972 2.000000
0.465339 0.000174 -0.087838 2.000000
0.465339 0.059117 0.055532 2.000000
0.465339 0.070442 0.002972 2.000000
0.465339 0.088576 -0.028256 2.000000
0.465339 -0.043933 -0.036170 2.000000
0.465339 -0.039622 -0.045198 2.000000
0.465339 0.086784 -0.038314 2.000000
0.465339 0.043977 -0.045336 2.000000
0.465339 -0.074883 0.065815 2.000000
0.465339 -0.040420 -0.038682 2.000000
0.465339 -0.052611 -0.052151 2.000000
0.465339 0.027079 0.016831 2.000000
0.465339 0.008532 -0.018915 2.000000
0.465339 0.049600 0.062825 2.000000
0.465339 -0.025469 0.081147 2.000000
0.465339 0.047714 0.074716 2.000000
0.465339 0.024046 0.046584 2.000000
0.465339 -0.005984 0.026807 2.000000
0.465339 -0.045603 -0.071612 2.000000
0.465339 -0.046575 0.071795 2.000000
0.465339 -0.094594 -0.012920 2.000000
0.465339 -0.079651 0.012811 2.000000
0.465339 -0.072725 -0.036786 2.000000
0.465339 0.033956 0.091439 2.000000
0.465339 0.059349 0.059245 2.000000
0.465339 0.027505 0.049461 2.000000
0.465339 0.023996 -0.013116 2.000000
0.465339 -0.028608 0.047831 2.000000
0.465339 0.049281 0.008957 2.000000
0.465339 -0.060867 -0.063809 2.000000
0.465339 -0.007433 0.078887 2.000000
0.465339 -0.079368 0.028198 2.000000
0.465339 0.059343 -0.060236 2.000000
0.465339 0.064026 0.048713 2.000000
0.465339 -0.046671 0.062641 2.000000
0.465339 -0.038469 0.001910 2.000000
0.465339 -0.057198 0.060709 2.000000
0.465339 0.028291 0.032439 2.000000
0.465339 -0.027332 0.056645 2.000000
0.465339 -0.065376 -0.064829 2.000000
0.465339 0.005855 -0.032994 2.000000
0.465339 -0.019348 0.036140 2.000000
0.465339 -0.034923 0.006340 2.000000
0.465339 0.071361 0.058186 2.000000
0.465339 -0.011392 -0.044026 2.000000
0.465339 0.015386 -0.011790 2.000000
0.465339 0.084419 -0.010073 2.000000
0.465339 -0.012688 0.049638 2.000000
0.465339 -0.006892 -0.013131 2.000000
0.465339 0.002911 0.043301 2.000000
0.465339 -0.002726 0.040203 2.000000
0.465339 0.015347 -0.043650 2.000000
0.465339 -0.076423 -0.017766 2.000000
0.465339 -0.014215 -0.031741 2.000000
0.465339 -0.002692 0.002552 2.000000
0.465339 -0.007574 -0.086543 2.000000
0.465339 0.008448 -0.045769 2.000000
0.465339 0.002681 -0.090038 2.000000
0.465339 -0.018719 -0.024408 2.000000
0.465339 -0.049612 0.003661 2.000000
0.465339 -0.050595 -0.046143 2.000000
0.465339 -0.037908 -0.063207 2.000000
0.465339 0.055278 0.017756 2.000000
0.465339 -0.078268 0.061324 2.000000
0.465339 0.033992 0.010704 2.000000
0.465339 0.072698 0.034992 2.000000
0.465339 0.031200 -0.001607 2.000000
0.465339 -0.073860 0.013118 2.000000
0.465339 0.076778 0.031760 2.000000
0.465339 0.090073 0.001900 2.000000
0.465339 0.032395 -0.067916 2.000000
0.465339 0.073048 0.037918 2.000000
0.465339 0.008978 -0.008423 2.000000
0.465339 -0.041916 0.070792 2.000000
0.465339 -0.031607 0.010884 2.000000
0.465339 -0.087848 -0.016862 2.000000
0.465339 -0.031101 0.061630 2.000000
0.465339 -0.016261 0.066554 2.000000
0.465339 0.035680 -0.002595 2.000000
0.465339 -0.047416 0.030849 2.000000
0.465339 -0.044702 0.051109 2.000000
0.465339 0.058297 -0.006202 2.000000
0.465339 0.043494 0.031445 2.000000
0.465339 -0.024281 0.032111 2.000000
0.465339 0.069197 -0.045988 2.000000
0.465339 -0.008584 -0.087960 2.000000
0.465339 -0.010968 0.091170 2.000000
0.465339 -0.077438 -0.049234 2.000000
0.465339 0.001697 0.009218 2.000000
0.465339 -0.049138 0.034201 2.000000
0.465339 -0.029451 0.071150 2.000000
0.465339 -0.081901 0.025911 2.000000
0.465339 -0.018721 -0.026448 2.000000
0.465339 0.018428 -0.088544 2.000000
0.465339 0.069225 0.027583 2.000000
0.465339 0.045766 -0.043512 2.000000
0.465339 0.034694 -0.001557 2.000000
0.465339 0.050403 0.070822 2.000000
0.465339 0.039184 -0.053863 2.000000
0.465339 -0.030899 0.092091 2.000000
0.465339 0.083314 0.045175 2.000000
0.465339 -0.018271 -0.086076 2.000000
0.465339 0.076907 -0.055553 2.000000
0.465339 0.001974 0.007505 2.000000
0.465339 -0.093297 0.023290 2.000000
0.465339 -0.077149 -0.005970 2.000000
0.465339 -0.018917 0.075002 2.000000
0.465339 -0.079747 0.020957 2.000000
0.465339 -0.022319 -0.086924 2.000000
0.465339 -0.070437 0.006875 2.000000
0.465339 0.063150 0.033215 2.000000
0.465339 -0.040276 0.016749 2.000000
0.465339 0.036977 -0.001696 2.000000
0.465339 -0.061486 0.010131 2.000000
0.465339 -0.018561 -0.031497 2.000000
0.465339 -0.016084 -0.085093 2.000000
0.465339 -0.007555 0.084592 2.000000
0.465339 0.074620 0.043055 2.000000
0.465339 -0.047072 0.016173 2.000000
0.465339 -0.012863 0.079665 2.000000
0.465339 0.015811 -0.018721 2.000000
0.465339 0.011892 -0.095007 2.000000
0.465339 -0.092006 -0.029090 2.000000
0.465339 -0.063665 0.031042 2.000000
0.465339 -0.009063 -0.077395 2.000000
0.465339 -0.007545 0.089327 2.000000
0.465339 -0.025658 0.068448 2.000000
0.465339 0.029876 -0.061498 2.000000
0.465339 -0.045320 -0.066069 2.000000
0.465339 0.014178 -0.018609 2.000000
0.465339 -0.015514 0.042373 2.000000
0.465339 0.032007 0.066638 2.000000
0.465339 0.038503 -0.026565 2.000000
0.465339 -0.011491 -0.020647 2.000000
0.465339 0.008116 -0.015267 2.000000
0.465339 -0.010274 -0.038616 2.000000
0.465339 -0.004853 0.087919 2.000000
0.465339 -0.001246 0.007842 2.000000
0.465339 -0.053759 0.038806 2.000000
0.465339 -0.020276 -0.046212 2.000000
0.465339 0.068113 -0.050356 2.000000
0.465339 -0.011367 0.047643 2.000000
0.465339 -0.007664 0.035148 2.000000
0.465339 0.005992 0.069518 2.000000
0.465339 -0.038191 0.071868 2.000000
0.465339 -0.052550 -0.074456 2.000000
0.465339 -0.017921 -0.080580 2.000000
0.465339 0.009159 0.006881 2.000000
0.465339 -0.006970 0.043539 2.000000
0.465339 0.065202 0.052422 2.000000
0.465339 0.011134 -0.038019 2.000000
0.465339 -0.069978 0.039224 2.000000
0.465339 -0.061202 -0.076191 2.000000
0.465339 0.010554 -0.017412 2.000000
0.465339 -0.015438 0.095699 2.000000
0.465339 0.050290 0.048850 2.000000
0.465339 0.019633 0.086326 2.000000
0.465339 -0.054533 -0.015582 2.000000
0.465339 -0.011673 0.043159 2.000000
0.465339 -0.015850 -0.034482 2.000000
0.465339 0.054225 0.061569 2.000000
0.465339 -0.078502 -0.010416 2.000000
0.465339 0.047596 -0.077660 2.000000
0.465339 -0.019058 -0.058578 2.000000
0.465339 0.068569 0.066599 2.000000
0.465339 -0.026762 0.035634 2.000000
0.465339 -0.050971 0.051305 2.000000
0.465339 0.021163 0.004880 2.000000
0.465339 -0.000188 0.073788 2.000000
0.465339 -0.006501 -0.032435 2.000000
0.465339 0.093349 -0.022491 2.000000
0.465339 -0.029753 -0.011998 2.000000
0.465339 0.061642 -0.010778 2.000000
0.465339 0.090182 0.015165 2.000000
0.465339 0.015856 0.062098 2.000000
0.465339 -0.037499 0.030416 2.000000
0.465339 -0.069676 -0.053016 2.000000
0.465339 -0.082112 -0.033523 2.000000
0.465339 0.032893 -0.021206 2.000000
0.465339 0.001668 0.011718 2.000000
0.465339 -0.043971 0.071337 2.000000
0.465339 0.086336 0.048932 2.000000
0.465339 -0.020050 -0.049994 2.000000
0.465339 -0.033635 0.085128 2.000000
0.465339 0.036961 0.075736 2.000000
0.465339 -0.085545 0.028908 2.000000
0.465339 0.040036 0.012951 2.000000
0.465339 -0.017828 -0.090819 2.000000
0.465339 -0.046415 -0.045010 2.000000
0.465339 -0.051893 0.038578 2.000000
0.465339 0.089019 -0.030458 2.000000
0.465339 -0.020792 0.069321 2.000000
0.465339 -0.097536 0.008795 2.000000
0.465339 -0.073668 0.039190 2.000000
0.465339 -0.052144 0.032182 2.000000
0.465339 -0.048751 -0.040910 2.000000
0.465339 -0.019975 0.091189 2.000000
0.465339 0.058015 0.060537 2.000000
0.465339 -0.046198 0.011672 2.000000
0.465339 0.058661 -0.001079 2.000000
0.465339 0.009155 -0.051100 2.000000
0.465339 0.006495 0.062215 2.000000
0.465339 0.063025 0.063465 2.000000
0.465339 0.084832 0.035387 2.000000
0.465339 0.069779 0.010103 2.000000
0.465339 -0.040719 -0.030677 2.000000
0.465339 0.063109 -0.005194 2.000000
0.465339 0.081138 -0.013945 2.000000
0.465339 -0.073606 0.025655 2.000000
0.465339 0.086285 0.020720 2.000000
0.465339 0.065085 0.062419 2.000000
0.465339 0.080142 -0.057353 2.000000
0.465339 0.013039 0.077000 2.000000
0.465339 0.015470 -0.082839 2.000000
0.465339 -0.015404 0.047463 2.000000
0.465339 0.013038 -0.027830 2.000000
0.465339 0.033983 0.058242 2.000000
0.465339 0.020923 0.000637 2.000000
0.465339 0.022791 -0.050527 2.000000
0.465339 -0.011838 -0.037729 2.000000
0.465339 -0.061753 0.046205 2.000000
0.465339 -0.048962 0.045842 2.000000
0.465339 0.001075 0.077516 2.000000
0.465339 0.056461 -0.002074 2.000000
0.465339 -0.066882 0.022266 2.000000
0.465339 -0.094666 0.006328 2.000000
0.465339 0.014052 -0.072262 2.000000
0.465339 -0.032314 -0.011003 2.000000
0.465339 0.006920 -0.013981 2.000000
0.465339 -0.015748 -0.000027 2.000000
0.465339 -0.019524 0.030806 2.000000
0.465339 -0.033586 -0.028530 2.000000
0.465339 -0.080588 -0.003876 2.000000
0.465339 -0.071847 -0.012239 2.000000
0.465339 -0.026880 0.081603 2.000000
0.465339 -0.056221 -0.048602 2.000000
0.465339 -0.039305 0.075019 2.000000
0.465339 -0.089178 -0.036133 2.000000
0.465339 -0.029463 -0.089096 2.000000
0.465339 0.027532 0.091713 2.000000
0.465339 0.038039 0.068868 2.000000
0.465339 -0.065126 -0.015404 2.000000
0.465339 0.064818 0.063770 2.000000
0.465339 0.022670 0.070995 2.000000
0.465339 0.076898 0.058203 2.000000
0.465339 0.050302 -0.060969 2.000000
0.465339 -0.000488 0.006278 2.000000
0.465339 0.030448 0.059628 2.000000
0.465339 -0.031463 0.093699 2.000000
0.465339 0.018241 0.037243 2.000000
0.465339 -0.035913 -0.073539 2.000000
0.465339 -0.084738 -0.013866 2.000000
0.465339 -0.011126 -0.083298 2.000000
0.465339 0.049553 0.056352 2.000000
0.465339 0.057871 -0.051267 2.000000
0.465339 0.005942 -0.042839 2.000000
0.465339 0.011505 -0.082894 2.000000
0.465339 -0.037257 -0.038247 2.000000
0.465339 -0.088188 0.046147 2.000000
0.465339 -0.012880 -0.017722 2.000000
0.465339 0.002597 0.055722 2.000000
0.465339 0.081888 0.004801 2.000000
0.465339 -0.095367 0.021438 2.000000
0.465339 0.036932 0.015173 2.000000
0.465339 -0.017736 0.080428 2.000000
0.465339 0.058543 -0.055851 2.000000
0.465339 -0.090078 -0.027503 2.000000
0.465339 0.094751 -0.018923 2.000000
0.465339 -0.093039 0.013148 2.000000
0.465339 0.069361 0.063071 2.000000
0.465339 -0.008902 -0.058805 2.000000
0.465339 0.047093 -0.013332 2.000000
0.465339 -0.099070 0.007106 2.000000
0.465339 -0.077702 -0.044800 2.000000
0.465339 -0.013212 -0.097150 2.000000
0.465339 0.031583 0.057763 2.000000
0.465339 0.064897 0.002683 2.000000
0.465339 -0.015445 -0.060987 2.000000
0.465339 0.049886 -0.035352 2.000000
0.465339 -0.034968 -0.083859 2.000000
0.465339 -0.019516 -0.077265 2.000000
0.465339 0.035260 0.034986 2.000000
0.465339 0.029095 -0.013651 2.000000
0.465339 -0.000274 0.043037 2.000000
0.465339 -0.048690 -0.063475 2.000000
0.465339 0.044806 0.007756 2.000000
0.465339 -0.018455 -0.039278 2.000000
0.465339 0.046009 0.059935 2.000000
0.465339 0.044934 0.020300 2.000000
0.465339 0.010363 0.018881 2.000000
0.465339 0.009434 0.068630 2.000000
0.465339 0.066087 -0.026825 2.000000
0.465339 -0.043566 -0.030406 2.000000
0.465339 0.000564 -0.017226 2.000000
0.465339 -0.004776 0.055672 2.000000
0.465339 0.066885 -0.024931 2.000000
0.465339 0.055170 -0.065158 2.000000
0.465339 0.017255 -0.039945 2.000000
0.465339 -0.021668 0.039129 2.000000
0.465339 0.015516 0.060060 2.000000
0.465339 -0.041379 0.059833 2.000000
0.465339 0.061814 0.070443 2.000000
0.465339 -0.057752 0.032973 2.000000
0.465339 0.045964 -0.077140 2.000000
0.465339 -0.027393 0.070876 2.000000
0.465339 0.043140 0.002516 2.000000
0.465339 0.066005 -0.040048 2.000000
0.465339 -0.056653 -0.066678 2.000000
0.465339 0.083024 -0.037039 2.000000
0.465339 -0.026978 -0.033368 2.000000
0.465339 0.042375 0.061506 2.000000
0.465339 -0.021666 -0.020024 2.000000
0.465339 0.007267 -0.036989 2.000000
0.465339 0.042886 0.059930 2.000000
0.465339 0.035285 -0.033505 2.000000
0.465339 0.039821 -0.042911 2.000000
0.465339 0.017447 0.087469 2.000000
0.465339 0.084449 0.043924 2.000000
0.465339 0.050684 -0.050759 2.000000
0.465339 -0.002136 -0.060745 2.000000
0.465339 0.005117 0.047352 2.000000
0.465339 -0.006155 0.035665 2.000000
0.465339 0.026781 0.015294 2.000000
0.465339 0.053507 -0.037254 2.000000
0.465339 -0.091831 0.006856 2.000000
0.465339 -0.071738 -0.041416 2.000000
0.465339 0.040143 0.042630 2.000000
0.465339 0.004160 0.083856 2.000000
0.465339 0.028053 -0.057977 2.000000
0.465339 0.052133 0.078958 2.000000
0.465339 0.037919 -0.007621 2.000000
0.465339 -0.077347 0.058028 2.000000
0.465339 0.094325 0.011846 2.000000
0.465339 0.005251 -0.044072 2.000000
0.465339 0.094338 0.024430 2.000000
0.465339 0.091034 0.003249 2.000000
0.465339 -0.038337 -0.008758 2.000000
0.465339 -0.047253 -0.006514 2.000000
0.465339 0.023328 0.081113 2.000000
0.465339 0.058786 -0.007688 2.000000
0.465339 -0.050605 0.045117 2.000000
0.465339 0.074602 -0.024869 2.000000
0.465339 0.019910 -0.034917 2.000000
0.465339 -0.007589 -0.089802 2.000000
0.465339 0.043271 0.010126 2.000000
0.465339 0.023844 -0.001309 2.000000
0.465339 -0.078490 -0.024987 2.000000
0.465339 0.088658 -0.020782 2.000000
0.465339 0.079531 0.028777 2.000000
0.465339 -0.007054 -0.014646 2.000000
0.465339 0.066002 -0.035135 2.000000
0.465339 -0.067103 -0.069576 2.000000
0.465339 0.052605 -0.004466 2.000000
0.465339 0.026622 0.018539 2.000000
0.465339 -0.033913 0.013081 2.000000
0.465339 0.094532 -0.011513 2.000000
0.465339 -0.045923 -0.003069 2.000000
0.465339 0.063938 -0.054341 2.000000
0.465339 -0.064004 -0.039330 2.000000
0.465339 -0.030516 0.041503 2.000000
0.465339 0.019233 0.008186 2.000000
0.465339 0.011313 0.044588 2.000000
0.465339 0.006207 0.030795 2.000000
0.465339 0.001298 -0.021460 2.000000
0.465339 -0.063967 -0.016759 2.000000
0.465339 0.004857 0.061758 2.000000
0.465339 0.018273 -0.041335 2.000000
0.465339 0.076778 0.047214 2.000000
0.465339 -0.071509 -0.001161 2.000000
0.465339 0.022520 0.064426 2.000000
0.465339 0.060803 0.064622 2.000000
0.465339 0.084138 0.008553 2.000000
0.465339 -0.013209 -0.070193 2.000000
0.465339 0.073901 0.046530 2.000000
0.465339 0.011215 0.071818 2.000000
0.465339 0.020323 0.011419 2.000000
0.465339 -0.082244 0.022185 2.000000
0.465339 0.092033 0.031431 2.000000
0.465339 -0.049332 -0.074030 2.000000
0.465339 -0.072557 -0.006644 2.000000
0.465339 -0.016823 -0.021066 2.000000
0.465339 0.043227 0.077302 2.000000
0.465339 0.019735 0.084856 2.000000
0.465339 -0.054121 0.054537 2.000000
0.465339 0.038713 -0.031607 2.000000
0.465339 0.082896 0.051706 2.000000
0.465339 -0.047828 0.011279 2.000000
0.465339 0.071574 -0.034329 2.000000
0.465339 0.081103 -0.005933 2.000000
0.465339 0.002874 -0.080899 2.000000
0.465339 -0.047921 -0.044390 2.000000
0.465339 0.055280 -0.047655 2.000000
0.465339 -0.023589 -0.013675 2.000000
0.465339 0.086616 0.002335 2.000000
0.465339 -0.077452 0.024645 2.000000
0.465339 0.000355 0.093086 2.000000
0.465339 0.014733 0.083339 2.000000
0.465339 0.055187 0.081688 2.000000
0.465339 -0.045493 -0.035070 2.000000
0.465339 -0.074889 -0.025611 2.000000
0.465339 0.064664 -0.027230 2.000000
0.465339 -0.079921 0.002586 2.000000
0.465339 0.038366 0.030682 2.000000
0.465339 0.073745 0.034158 2.000000
0.465339 -0.005432 -0.007740 2.000000
0.465339 -0.027251 0.061900 2.000000
0.465339 0.030403 -0.062924 2.000000
0.465339 0.065205 -0.038268 2.000000
0.465339 0.014922 0.089442 2.000000
0.465339 0.027501 0.026809 2.000000
0.465339 -0.061293 0.074332 2.000000
0.465339 -0.091892 -0.027047 2.000000
0.465339 -0.079370 0.046004 2.000000
0.465339 -0.000976 0.044349 2.000000
0.465339 -0.061729 0.028631 2.000000
0.465339 -0.061931 -0.012007 2.000000
0.465339 -0.080006 0.005083 2.000000
0.465339 -0.060431 -0.032934 2.000000
0.465339 0.090805 -0.034636 2.000000
0.465339 0.002977 0.093995 2.000000
0.465339 -0.028308 -0.031953 2.000000
0.465339 0.078379 0.007742 2.000000
0.465339 0.074380 0.066665 2.000000
0.465339 -0.027910 -0.054835 2.000000
0.465339 -0.080424 0.045105 2.000000
0.465339 0.093329 -0.010673 2.000000
0.465339 -0.002299 -0.030269 2.000000
0.465339 0.043901 -0.057313 2.000000
0.465339 0.004262 0.021730 2.000000
0.465339 -0.096274 -0.010648 2.000000
0.465339 -0.020317 0.067811 2.000000
0.465339 -0.003751 0.048480 2.000000
0.465339 -0.086558 -0.030428 2.000000
0.465339 0.076767 0.055080 2.000000
0.465339 -0.075105 -0.064467 2.000000
0.465339 0.072797 -0.016885 2.000000
0.465339 -0.025849 0.018200 2.000000
0.465339 0.042378 0.050213 2.000000
0.465339 -0.025811 0.074209 2.000000
0.465339 -0.045961 -0.026952 2.000000
0.465339 -0.087581 -0.000116 2.000000
0.465339 -0.022236 -0.055359 2.000000
0.465339 -0.030870 0.049725 2.000000
0.465339 -0.065361 -0.070065 2.000000
0.465339 -0.006267 0.064100 2.000000
0.465339 -0.041284 -0.061837 2.000000
0.465339 0.021464 0.077757 2.000000
0.465339 0.067516 0.042420 2.000000
0.465339 0.015703 -0.010258 2.000000
0.465339 -0.009357 -0.071229 2.000000
0.465339 -0.009663 -0.021652 2.000000
0.465339 0.039863 -0.052589 2.000000
0.465339 -0.063667 -0.067002 2.000000
0.465339 0.028310 0.041855 2.000000
0.465339 -0.087082 -0.041551 2.000000
0.465339 -0.032803 0.082127 2.000000
0.465339 0.084434 0.037219 2.000000
0.465339 0.061877 -0.056479 2.000000
0.465339 0.046996 0.050510 2.000000
0.465339 0.084750 -0.004158 2.000000
0.465339 0.075503 0.011661 2.000000
0.465339 -0.052556 0.021591 2.000000
0.465339 0.076003 0.019915 2.000000
0.465339 -0.022076 -0.066873 2.000000
0.465339 0.007957 -0.082604 2.000000
0.465339 0.055161 0.058551 2.000000
0.465339 0.072947 0.055613 2.000000
0.465339 -0.087562 -0.027614 2.000000
0.465339 0.052938 -0.077887 2.000000
0.465339 -0.083863 0.018356 2.000000
0.465339 0.008017 0.085178 2.000000
0.465339 0.032286 0.024697 2.000000
0.465339 -0.052831 0.000493 2.000000
0.465339 0.026230 -0.038873 2.000000
0.465339 -0.043141 0.046044 2.000000
0.465339 -0.051054 0.052958 2.000000
0.465339 -0.047246 -0.041725 2.000000
0.465339 0.019277 -0.068462 2.000000
0.465339 0.003240 0.012212 2.000000
0.465339 -0.046269 -0.028963 2.000000
0.465339 -0.035353 -0.067757 2.000000
0.465339 -0.055517 0.031653 2.000000
0.465339 0.070071 0.055091 2.000000
0.465339 -0.039285 0.039057 2.000000
0.465339 -0.030408 0.026383 2.000000
0.465339 -0.013960 0.075234 2.000000
0.465339 -0.057519 -0.027909 2.000000
0.465339 -0.039900 -0.073355 2.000000
0.465339 0.022535 0.061223 2.000000
0.465339 0.019544 -0.097627 2.000000
0.465339 0.013581 0.059586 2.000000
0.465339 -0.046011 -0.069522 2.000000
0.465339 0.058857 0.071346 2.000000
0.465339 -0.051776 0.006753 2.000000
0.465339 0.039982 0.037738 2.000000
0.465339 0.068930 -0.013842 2.000000
0.465339 0.005819 0.054278 2.000000
0.465339 -0.088498 -0.041720 2.000000
0.465339 -0.024339 -0.086550 2.000000
0.465339 0.056386 -0.058968 2.000000
0.465339 -0.067798 0.065567 2.000000
0.465339 -0.088407 -0.005690 2.000000
0.465339 0.009095 0.003871 2.000000
0.465339 -0.067018 -0.002299 2.000000
0.465339 -0.043277 -0.082179 2.000000
0.465339 -0.008295 0.044328 2.000000
0.465339 0.081184 0.008876 2.000000
0.465339 -0.035313 -0.086737 2.000000
0.465339 -0.050288 0.028676 2.000000
0.465339 0.013788 -0.029766 2.000000
0.465339 0.043558 0.071604 2.000000
0.465339 -0.093819 -0.026933 2.000000
0.465339 0.033614 0.086564 2.000000
0.465339 0.096560 -0.019176 2.000000
0.465339 -0.037642 -0.071758 2.000000
0.465339 -0.085656 0.025569 2.000000
0.465339 -0.079014 -0.021727 2.000000
0.465339 -0.060271 0.013919 2.000000
0.465339 -0.075764 -0.031140 2.000000
0.465339 -0.064528 0.044480 2.000000
0.465339 0.042463 0.024683 2.000000
0.465339 -0.003878 -0.075253 2.000000
0.465339 0.034173 -0.015130 2.000000
0.465339 -0.051393 -0.070758 2.000000
0.465339 0.047613 -0.040564 2.000000
0.465339 -0.087831 0.022146 2.000000
0.465339 0.015024 0.081236 2.000000
0.465339 -0.002435 -0.044098 2.000000
0.465339 0.031984 0.011272 2.000000
0.465339 -0.038178 0.025389 2.000000
0.465339 0.075868 -0.017594 2.000000
0.465339 0.073885 0.005762 2.000000
0.465339 -0.026086 -0.075341 2.000000
0.465339 0.069329 -0.051766 2.000000
0.465339 0.061469 -0.018565 2.000000
0.465339 0.030945 0.062771 2.000000
0.465339 -0.047784 0.069036 2.000000
0.465339 -0.086032 0.033132 2.000000
0.465339 -0.012944 0.070334 2.000000
0.465339 -0.012244 0.090201 2.000000
0.465339 0.093548 -0.029654 2.000000
0.465339 0.048734 -0.046798 2.000000
0.465339 0.009742 -0.052810 2.000000
0.465339 -0.025836 -0.089304 2.000000
0.465339 -0.058378 -0.040714 2.000000
0.465339 0.027146 0.075982 2.000000
0.465339 -0.008954 0.095567 2.000000
0.465339 0.054506 0.068011 2.000000
0.465339 -0.000336 0.054908 2.000000
0.465339 -0.061870 -0.045854 2.000000
0.465339 -0.016180 0.073644 2.000000
0.465339 0.026533 -0.092536 2.000000
0.465339 -0.008169 0.047528 2.000000
0.465339 -0.009012 0.019159 2.000000
0.465339 -0.085090 0.000180 2.000000
0.465339 -0.049486 -0.038744 2.000000
0.465339 0.007126 -0.009824 2.000000
0.465339 -0.040782 0.076423 2.000000
0.465339 -0.002190 -0.018371 2.000000
0.465339 0.011713 -0.027629 2.000000
0.465339 0.088116 -0.046066 2.000000
0.465339 0.011983 0.010559 2.000000
0.465339 0.028019 0.038780 2.000000
0.465339 -0.002343 -0.084426 2.000000
0.465339 -0.052411 -0.076115 2.000000
0.465339 -0.026347 -0.000458 2.000000
0.465339 0.058511 -0.013797 2.000000
0.465339 0.000126 0.045291 2.000000
0.465339 -0.013387 0.001936 2.000000
0.465339 -0.027268 0.007838 2.000000
0.465339 0.069956 0.029878 2.000000
0.465339 0.059368 -0.022243 2.000000
0.465339 0.047304 -0.052324 2.000000
0.465339 0.034867 0.003439 2.000000
0.465339 0.088038 0.007146 2.000000
0.465339 0.044272 -0.005280 2.000000
0.465339 0.044000 -0.027326 2.000000
0.465339 0.081379 -0.010264 2.000000
0.465339 -0.026168 -0.029201 2.000000
0.465339 0.063921 -0.042897 2.000000
0.465339 -0.062036 -0.064979 2.000000
0.465339 0.022351 -0.001919 2.000000
0.465339 0.096430 0.007508 2.000000
0.465339 0.040455 0.021351 2.000000
0.465339 0.073420 0.045048 2.000000
0.465339 0.075396 0.034484 2.000000
0.465339 0.043385 0.007798 2.000000
0.465339 -0.016822 0.044625 2.000000
0.465339 0.083921 0.048732 2.000000
0.465339 -0.031161 -0.004535 2.000000
0.465339 0.034388 0.088906 2.000000
0.465339 0.002881 -0.022728 2.000000
0.465339 0.068445 0.009007 2.000000
0.465339 0.036777 0.036058 2.000000
0.465339 -0.048695 0.059932 2.000000
0.465339 -0.001512 -0.095445 2.000000
0.465339 -0.021774 0.066959 2.000000
0.465339 0.039411 0.049788 2.000000
0.465339 0.007628 0.044745 2.000000
0.465339 -0.013001 -0.036668 2.000000
0.465339 -0.052113 -0.005724 2.000000
0.465339 -0.016733 0.015998 2.000000
0.465339 0.063046 -0.075014 2.000000
0.465339 -0.059892 0.047051 2.000000
0.465339 -0.014607 0.022068 2.000000
0.465339 -0.056149 0.070639 2.000000
0.465339 -0.034505 0.091794 2.000000
0.465339 0.047277 0.071082 2.000000
0.465339 -0.044992 0.017106 2.000000
0.465339 0.049489 0.025412 2.000000
0.465339 -0.096264 0.010073 2.000000
0.465339 -0.047836 -0.086741 2.000000
0.465339 -0.061195 -0.068105 2.000000
0.465339 0.084946 0.032090 2.000000
0.465339 0.063293 0.015966 2.000000
0.465339 0.033812 -0.065483 2.000000
0.465339 -0.068568 0.058725 2.000000
0.465339 0.005408 -0.058006 2.000000
0.465339 -0.046699 -0.053493 2.000000
0.465339 0.051973 0.025290 2.000000
0.465339 -0.030066 -0.039041 2.000000
0.465339 0.008336 -0.053023 2.000000
0.465339 -0.007825 0.020412 2.000000
0.465339 0.037269 0.033031 2.000000
0.465339 0.020123 0.041677 2.000000
0.465339 -0.040783 -0.090903 2.000000
0.465339 0.002455 0.002467 2.000000
0.465339 -0.017577 0.000021 2.000000
0.465339 -0.095372 -0.003766 2.000000
0.465339 -0.048349 0.028210 2.000000
0.465339 -0.027031 0.046905 2.000000
0.465339 -0.042385 0.004913 2.000000
0.465339 -0.063822 0.050724 2.000000
0.465339 0.044078 -0.024228 2.000000
0.465339 -0.051517 0.033663 2.000000
0.465339 -0.061669 0.056980 2.000000
0.465339 0.037913 0.065404 2.000000
0.465339 -0.039234 -0.001960 2.000000
0.465339 -0.047901 0.044268 2.000000
0.465339 -0.050432 0.071845 2.000000
0.465339 -0.037992 0.055912 2.000000
0.465339 0.027393 0.065317 2.000000
0.465339 -0.009382 0.038732 2.000000
0.465339 0.043893 -0.001409 2.000000
0.465339 0.099742 0.006411 2.000000
0.465339 0.026946 -0.049184 2.000000
0.465339 -0.065231 -0.050411 2.000000
0.465339 -0.042535 0.061984 2.000000
0.465339 0.073543 0.009024 2.000000
0.465339 0.038476 0.090582 2.000000
0.465339 -0.018164 0.095220 2.000000
0.465339 0.056021 0.001020 2.000000
0.465339 -0.087171 0.029674 2.000000
0.465339 0.004139 -0.092761 2.000000
0.465339 0.068318 0.072969 2.000000
0.465339 -0.057861 -0.076337 2.000000
0.465339 0.008788 -0.030355 2.000000
0.465339 0.019360 -0.010807 2.000000
0.465339 0.025711 -0.088136 2.000000
0.465339 -0.022274 0.031096 2.000000
0.465339 0.074449 -0.022236 2.000000
0.465339 -0.042458 0.034062 2.000000
0.465339 -0.074409 -0.047289 2.000000
0.465339 -0.006841 0.030220 2.000000
0.465339 0.068258 0.014276 2.000000
0.465339 -0.029714 0.011027 2.000000
0.465339 -0.001469 -0.027227 2.000000
0.465339 -0.065642 -0.045452 2.000000
0.465339 0.047231 -0.032623 2.000000
0.465339 -0.057458 0.075434 2.000000
0.465339 -0.010755 0.037550 2.000000
0.465339 -0.000840 0.003652 2.000000
0.465339 -0.048426 0.085134 2.000000
0.465339 0.062093 0.078128 2.000000
0.465339 -0.092516 0.018150 2.000000
0.465339 0.092942 -0.036282 2.000000
0.465339 -0.037627 -0.026743 2.000000
0.465339 -0.016796 -0.062524 2.000000
0.465339 -0.039123 -0.058680 2.000000
0.465339 0.074055 -0.053036 2.000000
0.465339 -0.060368 -0.014519 2.000000
0.465339 -0.010281 -0.091311 2.000000
0.465339 -0.042958 0.020285 2.000000
0.465339 -0.090445 -0.006983 2.000000
0.465339 0.072137 -0.047883 2.000000
0.465339 -0.003582 -0.099288 2.000000
0.465339 0.060115 0.015664 2.000000
0.465339 0.005378 0.048721 2.000000
0.465339 -0.003872 -0.067036 2.000000
0.465339 -0.026745 -0.022366 2.000000
0.465339 0.090366 0.025764 2.000000
0.465339 -0.022654 0.019132 2.000000
0.465339 -0.048229 -0.059423 2.000000
0.465339 0.083033 -0.013703 2.000000
0.465339 0.059676 0.011072 2.000000
0.465339 -0.041975 -0.018717 2.000000
0.465339 0.080141 -0.037019 2.000000
0.465339 0.095374 -0.005976 2.000000
0.465339 0.090691 0.033290 2.000000
0.465339 -0.010968 -0.080317 2.000000
0.465339 0.058900 0.074967 2.000000
0.465339 -0.042844 -0.002445 2.000000
0.465339 -0.063598 -0.047587 2.000000
0.465339 0.013791 0.084584 2.000000
0.465339 0.019383 -0.006894 2.000000
0.465339 0.054185 -0.055469 2.000000
0.465339 -0.060967 0.052874 2.000000
0.465339 0.088355 -0.006555 2.000000
0.465339 -0.056505 0.003173 2.000000
0.465339 -0.031886 -0.073717 2.000000
0.465339 0.007744 -0.095366 2.000000
0.465339 -0.007985 -0.049354 2.000000
0.465339 0.057431 0.036712 2.000000
0.465339 -0.065543 0.027188 2.000000
0.465339 -0.054907 -0.055738 2.000000
0.465339 0.022272 0.026194 2.000000
0.465339 0.050725 -0.047751 2.000000
0.465339 0.029724 -0.025410 2.000000
0.465339 0.044932 0.067578 2.000000
0.465339 0.016923 0.024695 2.000000
0.465339 0.071733 -0.011818 2.000000
0.465339 0.026309 0.029898 2.000000
0.465339 0.000946 -0.057824 2.000000
0.465339 0.087757 -0.031375 2.000000
0.465339 -0.070913 0.024729 2.000000
0.465339 0.030505 0.012955 2.000000
0.465339 -0.028175 0.024122 2.000000
0.465339 0.025367 -0.030295 2.000000
0.465339 0.012203 0.018530 2.000000
0.465339 0.045335 0.013326 2.000000
0.465339 0.028113 -0.026884 2.000000
0.465339 0.007112 0.033147 2.000000
0.465339 -0.051364 -0.051115 2.000000
0.465339 -0.022990 0.010017 2.000000
0.465339 0.024032 -0.073958 2.000000
0.465339 -0.022862 0.079807 2.000000
0.465339 0.001653 0.015086 2.000000
0.465339 -0.028132 -0.043516 2.000000
0.465339 0.016326 0.070228 2.000000
0.465339 0.065549 0.001270 2.000000
0.465339 0.006768 -0.020883 2.000000
0.465339 0.017788 -0.016220 2.000000
0.465339 0.048911 0.071670 2.000000
0.465339 -0.030253 -0.000495 2.000000
0.465339 0.073480 -0.050725 2.000000
0.465339 -0.014403 0.081299 2.000000
0.465339 -0.014000 0.095937 2.000000
0.465339 0.045870 -0.050188 2.000000
0.465339 -0.072061 -0.055724 2.000000
0.465339 -0.051010 0.070240 2.000000
0.465339 -0.061750 0.011998 2.000000
0.465339 -0.070536 -0.011392 2.000000
0.465339 0.083039 -0.030909 2.000000
0.465339 0.022681 -0.053737 2.000000
0.465339 0.017748 -0.058177 2.000000
0.465339 0.061363 0.052735 2.000000
0.465339 -0.083904 0.053757 2.000000
0.465339 -0.004522 -0.050480 2.000000
0.465339 0.030175 0.025002 2.000000
0.465339 0.081114 0.001435 2.000000
0.465339 -0.027455 0.060153 2.000000
0.465339 -0.062506 0.062094 2.000000
0.465339 -0.031565 -0.009481 2.000000
0.465339 -0.019644 0.029412 2.000000
0.465339 -0.061266 0.040210 2.000000
0.465339 -0.030164 0.077284 2.000000
0.465339 0.075991 0.000036 2.000000
0.465339 -0.053821 -0.044643 2.000000
0.465339 0.087092 0.025778 2.000000
0.465339 0.060998 0.004111 2.000000
0.465339 -0.013775 -0.023575 2.000000
0.465339 0.055691 -0.055748 2.000000
0.465339 0.033112 0.049937 2.000000
0.465339 0.017655 -0.049939 2.000000
0.465339 0.052688 0.084411 2.000000
0.465339 -0.021009 -0.059412 2.000000
0.465339 0.087123 -0.017539 2.000000
0.465339 -0.043870 0.068076 2.000000
0.465339 -0.027490 -0.018398 2.000000
0.465339 -0.000823 0.032250 2.000000
0.465339 0.056511 0.011827 2.000000
0.465339 0.084687 0.025377 2.000000
0.465339 0.024991 -0.025083 2.000000
0.465339 -0.030875 -0.046578 2.000000
0.465339 0.094489 0.014543 2.000000
0.465339 -0.039128 0.043482 2.000000
0.465339 -0.018322 0.051256 2.000000
0.465339 0.035600 -0.049339 2.000000
0.465339 -0.065700 0.011104 2.000000
0.465339 -0.062323 -0.036126 2.000000
0.465339 0.061229 0.050985 2.000000
0.465339 0.003243 0.076668 2.000000
0.465339 -0.040407 0.030769 2.000000
0.465339 0.020620 0.088400 2.000000
0.465339 -0.069630 0.063301 2.000000
0.465339 -0.018849 0.073491 2.000000
0.465339 0.050711 0.024344 2.000000
0.465339 0.009120 0.057710 2.000000
0.465339 -0.025667 -0.063121 2.000000
0.465339 -0.033765 -0.034194 2.000000
0.465339 -0.044318 -0.062227 2.000000
0.465339 -0.011646 -0.025942 2.000000
0.465339 0.043646 -0.036994 2.000000
0.465339 -0.041483 -0.087353 2.000000
0.465339 -0.042263 0.024342 2.000000
0.465339 0.029536 -0.046694 2.000000
0.465339 -0.049104 -0.045431 2.000000
0.465339 0.081810 0.047852 2.000000
0.465339 -0.000567 0.062920 2.000000
0.465339 0.053990 0.032880 2.000000
0.465339 0.025599 -0.018074 2.000000
0.465339 0.097216 -0.015302 2.000000
0.465339 -0.014144 -0.042669 2.000000
0.465339 -0.021298 -0.012899 2.000000
0.465339 -0.066478 0.014599 2.000000
0.465339 -0.046172 -0.025270 2.000000
0.465339 -0.015367 -0.032782 2.000000
0.465339 -0.083158 -0.052253 2.000000
0.465339 -0.048675 -0.005096 2.000000
0.465339 0.006373 -0.060029 2.000000
0.465339 -0.033876 -0.052470 2.000000
0.465339 0.041719 -0.008173 2.000000
0.465339 0.056623 0.005740 2.000000
0.465339 0.076308 0.049855 2.000000
-0.466955 0.038117 -0.069880 3.000000
-0.466955 0.058908 -0.063605 3.000000
-0.466955 -0.023257 0.013608 3.000000
-0.466955 -0.017982 -0.004318 3.000000
-0.466955 0.092274 0.003827 3.000000
-0.466955 0.057729 0.011928 3.000000
-0.466955 0.001743 -0.066035 3.000000
-0.466955 0.050465 0.051517 3.000000
-0.466955 -0.036148 0.042079 3.000000
-0.466955 0.040639 -0.027282 3.000000
-0.466955 -0.009789 -0.077649 3.000000
-0.466955 0.060875 -0.019918 3.000000
-0.466955 0.045935 -0.064436 3.000000
-0.466955 -0.032326 0.066770 3.000000
-0.466955 -0.069417 0.020751 3.000000
-0.466955 -0.044537 0.066201 3.000000
-0.466955 0.049436 0.070207 3.000000
-0.466955 0.039271 0.033612 3.000000
-0.466955 0.003942 0.068563 3.000000
-0.466955 -0.076454 0.010806 3.000000
-0.466955 0.085827 -0.003377 3.000000
-0.466955 0.006117 0.046562 3.000000
-0.466955 -0.066069 0.040908 3.000000
-0.466955 0.041003 0.039112 3.000000
-0.466955 -0.070526 -0.001195 3.000000
-0.466955 -0.032443 0.055162 3.000000
-0.466955 0.040786 0.072422 3.000000
-0.466955 0.031300 0.019977 3.000000
-0.466955 -0.026667 -0.035652 3.000000
-0.466955 0.054821 0.038310 3.000000
-0.466955 -0.036985 -0.066894 3.000000
-0.466955 0.036927 0.036415 3.000000
-0.466955 0.093714 -0.000730 3.000000
-0.466955 0.031294 -0.040698 3.000000
-0.466955 0.006056 0.059677 3.000000
-0.466955 0.091946 0.016964 3.000000
-0.466955 -0.007931 0.025620 3.000000
-0.466955 -0.045706 0.040144 3.000000
-0.466955 -0.030871 0.060224 3.000000
-0.466955 -0.066542 -0.059360 3.000000
-0.466955 0.008154 0.074082 3.000000
-0.466955 -0.012411 0.001627 3.000000
-0.466955 0.087672 -0.014558 3.000000
-0.466955 -0.005764 0.058468 3.000000
-0.466955 -0.004914 0.044945 3.000000
-0.466955 0.015163 0.065018 3.000000
-0.466955 0.002718 0.023246 3.000000
-0.466955 0.008669 -0.071373 3.000000
-0.466955 -0.033251 0.081925 3.000000
-0.466955 -0.005996 0.013282 3.000000
-0.466955 0.000457 0.082943 3.000000
-0.466955 -0.044242 0.067687 3.000000
-0.466955 -0.023135 -0.044404 3.000000
-0.466955 0.008675 0.041828 3.000000
-0.466955 -0.008558 -0.021592 3.000000
-0.466955 -0.053806 0.059619 3.000000
-0.466955 -0.070383 0.070603 3.000000
-0.466955 -0.030720 -0.062404 3.000000
-0.466955 -0.022999 -0.086715 3.000000
-0.466955 -0.024979 0.047466 3.000000
-0.466955 0.029686 -0.069865 3.000000
-0.466955 0.052792 0.028927 3.000000
-0.466955 0.070355 0.049983 3.000000
-0.466955 0.055971 -0.001759 3.000000
-0.466955 0.072754 -0.006219 3.000000
-0.466955 0.080359 0.052897 3.000000
-0.466955 -0.039508 -0.052545 3.000000
-0.466955 -0.019242 -0.075958 3.000000
-0.466955 -0.035369 0.003371 3.000000
-0.466955 0.023104 0.037963 3.000000
-0.466955 -0.048874 -0.026878 3.000000
-0.466955 -0.073953 0.014446 3.000000
-0.466955 -0.026020 0.077379 3.000000
-0.466955 0.082705 -0.015063 3.000000
-0.466955 0.059195 0.001761 3.000000
-0.466955 0.036001 -0.083022 3.000000
-0.466955 0.072646 -0.016463 3.000000
-0.466955 -0.004649 -0.057729 3.000000
-0.466955 -0.098559 0.012619 3.000000
-0.466955 0.025439 -0.015171 3.000000
-0.466955 0.099102 0.004259 3.000000
-0.466955 -0.020826 -0.005041 3.000000
-0.466955 -0.086370 0.034119 3.000000
-0.466955 0.006782 -0.072737 3.000000
-0.466955 -0.019256 -0.018948 3.000000
-0.466955 -0.033449 -0.083227 3.000000
-0.466955 -0.099248 -0.006947 3.000000
-0.466955 -0.052747 -0.057536 3.000000
-0.466955 0.030924 -0.012307 3.000000
-0.466955 0.084293 -0.034245 3.000000
-0.466955 -0.076333 0.007443 3.000000
-0.466955 0.097754 -0.008921 3.000000
-0.466955 0.012285 0.084225 3.000000
-0.466955 0.014043 0.048367 3.000000
-0.466955 0.072313 -0.055409 3.000000
-0.466955 -0.010914 -0.085333 3.000000
-0.466955 0.001254 -0.030550 3.000000
-0.466955 0.043010 -0.058678 3.000000
-0.466955 0.016472 0.061515 3.000000
-0.466955 0.015763 -0.015629 3.000000
-0.466955 -0.038839 0.046540 3.000000
-0.466955 0.009697 0.076701 3.000000
-0.466955 0.006116 -0.097835 3.000000
-0.466955 -0.042378 0.068437 3.000000
-0.466955 -0.014738 0.073202 3.000000
-0.466955 0.031425 -0.017858 3.000000
-0.466955 -0.041045 0.077289 3.000000
-0.466955 0.025060 -0.027251 3.000000
-0.466955 -0.088476 0.041863 3.000000
-0.466955 0.082665 -0.050076 3.000000
-0.466955 -0.080001 -0.055903 3.000000
-0.466955 0.006298 0.012550 3.000000
-0.466955 0.010024 -0.022991 3.000000
-0.466955 0.031999 -0.006748 3.000000
-0.466955 -0.029000 -0.093356 3.000000
-0.466955 0.010022 0.067404 3.000000
-0.466955 0.025819 0.046810 3.000000
-0.466955 -0.001286 -0.037002 3.000000
-0.466955 -0.082974 -0.008377 3.000000
-0.466955 -0.087852 -0.005104 3.000000
-0.466955 -0.068376 -0.056940 3.000000
-0.466955 -0.072349 0.040962 3.000000
-0.466955 -0.084390 -0.003248 3.000000
-0.466955 0.045555 0.074998 3.000000
-0.466955 -0.094766 0.022590 3.000000
-0.466955 -0.040741 0.007008 3.000000
-0.466955 0.067104 0.074075 3.000000
-0.466955 -0.031708 -0.011228 3.000000
-0.466955 -0.067145 0.031991 3.000000
-0.466955 0.086840 0.000712 3.000000
-0.466955 -0.080473 0.006457 3.000000
-0.466955 0.038170 0.043292 3.000000
-0.466955 -0.044024 0.017441 3.000000
-0.466955 0.053327 -0.057147 3.000000
-0.466955 -0.004758 0.012698 3.000000
-0.466955 -0.074851 -0.002455 3.000000
-0.466955 -0.028088 -0.011900 3.000000
-0.466955 -0.036448 0.057179 3.000000
-0.466955 -0.038161 0.052132 3.000000
-0.466955 -0.027318 -0.007857 3.000000
-0.466955 0.046523 0.071921 3.000000
-0.466955 0.000936 -0.094627 3.000000
-0.466955 0.029562 -0.036694 3.000000
-0.466955 0.012553 -0.063796 3.000000
-0.466955 -0.002879 -0.037087 3.000000
-0.466955 0.039515 -0.006315 3.000000
-0.466955 -0.051358 -0.020333 3.000000
-0.466955 -0.048007 -0.041822 3.000000
-0.466955 -0.039071 -0.005639 3.000000
-0.466955 -0.003544 -0.081966 3.000000
-0.466955 -0.074902 -0.051811 3.000000
-0.466955 0.005880 -0.091218 3.000000
-0.466955 0.080024 -0.022533 3.000000
-0.466955 -0.038280 -0.090103 3.000000
-0.466955 -0.064256 -0.066146 3.000000
-0.466955 -0.000812 -0.071076 3.000000
-0.466955 -0.002824 -0.089128 3.000000
-0.466955 0.049331 -0.021964 3.000000
-0.466955 0.014201 -0.081565 3.000000
