-0.202524 0.026639 -0.096081 1.000000
-0.030497 -0.005252 0.099901 1.000000
-0.038192 -0.099684 0.002980 1.000000
-0.248714 -0.088886 -0.045055 1.000000
-0.202052 0.082945 -0.055565 1.000000
-0.443649 -0.096560 0.025277 3.000000
0.223099 -0.097081 0.023022 1.000000
0.389925 -0.099748 0.000938 1.000000
0.305265 -0.003382 -0.099597 1.000000
-0.153470 -0.057819 0.081521 1.000000
-0.444553 -0.029727 0.095478 3.000000
-0.000266 0.086612 -0.049695 1.000000
0.161474 -0.097257 0.022234 1.000000
-0.436686 -0.067703 -0.073127 3.000000
-0.042179 0.099358 0.011219 1.000000
-0.104866 -0.027850 -0.095661 1.000000
0.176367 0.084051 0.054299 1.000000
0.293727 0.062859 -0.077505 1.000000
-0.408856 0.072418 -0.068711 1.000000
-0.029553 -0.017526 -0.098108 1.000000
-0.404342 -0.068248 -0.072646 1.000000
-0.077166 0.098625 0.016442 1.000000
0.021982 -0.017697 0.098444 1.000000
-0.451964 -0.038430 -0.091925 3.000000
-0.017359 -0.003315 0.099962 1.000000
-0.270822 0.090562 0.042565 1.000000
-0.315239 -0.011196 0.099396 1.000000
-0.060231 -0.098539 -0.015150 1.000000
-0.247470 0.038372 0.092413 1.000000
0.320596 0.038337 -0.092066 1.000000
0.322974 0.073249 0.068201 1.000000
-0.025141 0.056752 0.082405 1.000000
0.236610 0.020557 -0.097553 1.000000
0.451814 0.000876 -0.099683 2.000000
-0.422443 0.028250 0.095975 1.000000
0.173042 0.096591 -0.025610 1.000000
-0.117179 0.053528 0.084586 1.000000
0.348258 0.098408 -0.017450 1.000000
0.017645 -0.049005 -0.086760 1.000000
-0.341494 0.080180 0.059859 1.000000
0.291383 -0.034440 0.093853 1.000000
0.409742 0.005626 -0.099534 1.000000
-0.264946 -0.077703 0.062752 1.000000
-0.067588 0.009257 0.099602 1.000000
-0.036223 -0.004700 -0.099556 1.000000
0.357182 0.088884 0.045880 1.000000
-0.123536 0.099979 0.001006 1.000000
-0.163380 0.097422 0.022540 1.000000
0.152444 0.099586 -0.008439 1.000000
0.354055 -0.099436 -0.007555 1.000000
-0.232330 0.073663 -0.067369 1.000000
0.419556 0.094063 0.033973 1.000000
0.187114 0.046954 -0.088006 1.000000
0.026302 0.047428 -0.087765 1.000000
0.241764 -0.099759 -0.000235 1.000000
0.222384 0.074977 0.066241 1.000000
0.162765 0.061354 0.079035 1.000000
-0.028256 0.063368 -0.077110 1.000000
0.031766 -0.051319 0.085755 1.000000
0.048627 -0.086526 -0.049446 1.000000
0.248553 -0.078811 0.061323 1.000000
-0.115201 -0.088123 -0.046553 1.000000
-0.184390 0.099712 -0.007103 1.000000
-0.422643 -0.034378 -0.093512 1.000000
-0.310772 0.097721 0.021202 1.000000
0.433611 -0.098325 -0.016502 2.000000
-0.213726 -0.079922 -0.059528 1.000000
-0.236292 -0.003083 -0.099607 1.000000
-0.106401 0.098393 -0.017545 1.000000
0.040366 -0.002558 -0.099623 1.000000
0.257155 0.012258 -0.098955 1.000000
0.352995 0.046533 -0.088221 1.000000
0.187576 -0.055467 0.083120 1.000000
-0.332957 0.043554 -0.089738 1.000000
0.303426 -0.033508 0.094188 1.000000
0.447451 0.098734 0.015755 2.000000
0.442979 0.048618 -0.087127 2.000000
-0.378363 -0.061507 0.078735 1.000000
0.348507 0.079481 -0.060397 1.000000
0.364358 -0.095220 0.029888 1.000000
0.122625 0.007161 -0.099437 1.000000
-0.151604 0.031342 -0.094689 1.000000
0.177892 -0.025583 -0.096320 1.000000
-0.385465 -0.062556 -0.077559 1.000000
0.384415 0.044340 -0.089338 1.000000
0.414310 0.043500 0.090129 1.000000
0.365752 0.076523 -0.064124 1.000000
-0.171079 0.097669 -0.021071 1.000000
-0.266988 0.032881 -0.094135 1.000000
0.009483 -0.099199 0.010429 1.000000
-0.325100 -0.062024 -0.077971 1.000000
-0.098630 0.045006 -0.088999 1.000000
-0.224719 0.048868 0.087342 1.000000
-0.444055 0.074558 0.066716 3.000000
-0.050673 -0.098679 -0.014268 1.000000
-0.228308 -0.065528 -0.075045 1.000000
0.092926 0.081503 0.058049 1.000000
-0.307509 0.004060 0.099946 1.000000
-0.110164 -0.080530 -0.058745 1.000000
0.203212 0.081638 -0.057487 1.000000
0.204718 -0.054434 -0.083459 1.000000
0.127811 0.026607 -0.096090 1.000000
-0.406670 0.093237 -0.035906 1.000000
0.433960 0.066263 -0.074602 1.000000
0.369920 -0.056652 0.082315 1.000000
-0.439256 0.065693 -0.075104 3.000000
0.086343 0.027515 -0.095826 1.000000
-0.057336 0.046978 -0.087994 1.000000
-0.317441 -0.090253 -0.042373 1.000000
-0.458032 0.026122 0.096594 3.000000
-0.451999 0.077423 0.063414 3.000000
-0.436619 -0.035225 0.093570 3.000000
-0.450628 -0.026475 -0.096061 3.000000
-0.350093 -0.053017 -0.084388 1.000000
-0.038584 0.006958 -0.099456 1.000000
0.134699 0.076817 -0.063791 1.000000
0.369981 0.057615 0.081818 1.000000
0.003221 -0.097548 0.020930 1.000000
0.318645 0.058333 0.081331 1.000000
-0.221995 0.010289 0.099504 1.000000
0.366463 0.087438 0.048661 1.000000
-0.003570 0.080099 -0.059601 1.000000
-0.249672 -0.025144 0.096810 1.000000
0.446473 -0.046375 0.088545 2.000000
-0.388103 0.087509 0.048541 1.000000
0.083634 -0.003855 -0.099582 1.000000
0.123514 0.061479 -0.078575 1.000000
0.204917 0.030968 0.095186 1.000000
-0.193932 -0.093338 -0.034978 1.000000
0.336829 0.095902 0.028343 1.000000
0.399095 0.099842 0.005373 1.000000
0.199766 -0.084318 0.053542 1.000000
-0.247849 -0.099635 -0.004174 1.000000
0.268226 -0.099723 0.001751 1.000000
-0.383039 0.075505 -0.065280 1.000000
-0.188964 -0.066940 -0.073799 1.000000
0.294849 -0.061479 0.078757 1.000000
-0.004139 0.083412 -0.054876 1.000000
0.379879 -0.093218 -0.035311 1.000000
-0.438466 0.099980 -0.000634 3.000000
-0.387545 0.073520 0.067893 1.000000
0.246148 -0.043866 -0.089460 1.000000
0.022775 0.096742 0.025455 1.000000
0.395563 -0.046327 0.088569 1.000000
-0.071363 -0.017083 0.098541 1.000000
-0.416102 0.074940 0.066283 1.000000
-0.368025 0.016342 0.098695 1.000000
0.276071 0.021250 0.097761 1.000000
0.355618 0.005158 -0.099549 1.000000
0.417074 0.097877 0.020503 1.000000
-0.252796 -0.057564 0.081694 1.000000
-0.146160 -0.082897 0.055654 1.000000
-0.403919 0.015056 0.098899 1.000000
0.312782 -0.038360 0.092318 1.000000
0.030371 -0.021444 -0.097302 1.000000
0.399623 0.080801 0.059059 1.000000
-0.215593 -0.071677 -0.069219 1.000000
-0.166818 -0.076242 -0.064178 1.000000
-0.222827 0.060813 0.079455 1.000000
0.222321 -0.059998 0.079905 1.000000
-0.233686 -0.041772 -0.090478 1.000000
0.033105 -0.099755 0.000720 1.000000
-0.284729 0.001002 0.100042 1.000000
-0.193258 0.030799 -0.094872 1.000000
-0.393856 0.099798 -0.006194 1.000000
-0.333170 -0.063854 0.076883 1.000000
0.254480 0.077567 -0.062865 1.000000
0.336694 -0.088266 -0.046273 1.000000
0.351645 -0.048431 0.087462 1.000000
-0.428348 -0.092679 -0.036771 1.000000
-0.247130 0.085031 0.052730 1.000000
-0.095705 0.032491 -0.094276 1.000000
-0.147959 0.076872 -0.063729 1.000000
-0.028055 0.051291 -0.085547 1.000000
-0.155832 0.092067 0.039088 1.000000
-0.162144 -0.065441 -0.075121 1.000000
-0.304987 0.042316 0.090707 1.000000
-0.103519 0.027590 -0.095804 1.000000
-0.189210 -0.044547 -0.089114 1.000000
-0.242735 0.042552 -0.090242 1.000000
-0.369658 -0.025166 0.096803 1.000000
-0.213909 0.010133 0.099519 1.000000
0.111060 0.016791 0.098624 1.000000
-0.209670 0.088273 -0.046716 1.000000
-0.280252 0.096028 0.027912 1.000000
0.012737 -0.054092 0.084054 1.000000
0.161207 -0.065970 0.075017 1.000000
-0.419393 -0.022719 -0.097017 1.000000
0.066727 -0.098131 -0.017724 1.000000
-0.151719 0.090063 0.043567 1.000000
-0.000700 -0.051114 0.085876 1.000000
-0.041582 -0.058156 0.081292 1.000000
-0.076429 0.089313 0.045039 1.000000
0.164314 -0.044949 0.089272 1.000000
0.045537 -0.099700 0.002474 1.000000
0.425921 0.067660 0.073734 2.000000
-0.134256 0.099856 0.004922 1.000000
0.302474 -0.082349 0.056460 1.000000
-0.250002 0.051805 -0.085242 1.000000
-0.003559 0.015771 0.098786 1.000000
-0.466868 0.098782 -0.015087 3.000000
-0.419684 -0.099085 0.011632 1.000000
-0.359155 0.085484 0.051965 1.000000
-0.170370 -0.045872 0.088801 1.000000
-0.404672 0.021409 0.097725 1.000000
0.227875 0.098858 0.014971 1.000000
0.392979 0.069693 -0.071436 1.000000
-0.346876 0.099933 0.002466 1.000000
0.346854 -0.099126 -0.010842 1.000000
-0.293395 -0.098289 -0.016727 1.000000
-0.040821 0.041145 0.091213 1.000000
-0.239450 -0.038711 -0.091803 1.000000
0.063482 0.090741 -0.041790 1.000000
-0.308746 0.080449 0.059512 1.000000
0.375291 -0.088876 0.045439 1.000000
0.199982 -0.055459 0.083125 1.000000
0.050117 0.081888 0.057482 1.000000
-0.213531 0.070872 -0.070258 1.000000
0.198152 -0.099735 0.001369 1.000000
-0.155793 -0.077872 0.062533 1.000000
-0.243269 -0.057058 -0.081676 1.000000
-0.376983 -0.099722 0.001770 1.000000
0.181353 0.087792 -0.047661 1.000000
0.098641 -0.092051 0.038586 1.000000
-0.093315 0.052272 0.085329 1.000000
-0.410304 0.016741 0.098632 1.000000
-0.294809 -0.099293 0.009438 1.000000
-0.009699 -0.069465 0.071794 1.000000
-0.442393 -0.016280 0.098668 3.000000
0.394617 0.093374 0.035888 1.000000
-0.286218 0.088519 0.046597 1.000000
-0.042836 0.098465 -0.017088 1.000000
0.452055 -0.012906 0.099203 2.000000
0.463515 0.012833 -0.098888 2.000000
0.116681 0.006292 -0.099513 1.000000
-0.401091 0.096846 0.025096 1.000000
0.060675 -0.068842 -0.072054 1.000000
-0.285569 0.085184 0.052473 1.000000
0.081107 0.067869 0.073549 1.000000
-0.445685 0.097148 -0.023403 3.000000
0.009488 -0.099688 0.002842 1.000000
0.126629 -0.039007 -0.091675 1.000000
-0.366305 -0.099579 0.006311 1.000000
-0.086334 -0.055539 -0.082708 1.000000
-0.283331 -0.059387 -0.080017 1.000000
0.244313 0.095303 0.030406 1.000000
-0.289439 -0.022728 0.097378 1.000000
-0.261981 -0.065665 -0.074923 1.000000
-0.096951 -0.098077 -0.018065 1.000000
0.094274 0.078266 -0.061964 1.000000
-0.241383 0.021677 0.097665 1.000000
0.388705 0.090952 0.041665 1.000000
-0.238486 0.093029 0.036845 1.000000
-0.338268 -0.077621 -0.062495 1.000000
-0.237014 -0.076863 -0.063472 1.000000
0.388296 -0.098705 0.014464 1.000000
0.135536 -0.031933 -0.094392 1.000000
-0.443613 0.059815 -0.079866 3.000000
0.019293 -0.087274 -0.048180 1.000000
-0.183048 -0.022586 0.097410 1.000000
0.060764 -0.099515 -0.006721 1.000000
0.180730 0.099357 -0.010868 1.000000
0.416577 -0.074431 -0.066232 1.000000
0.389444 -0.080842 -0.058316 1.000000
-0.355083 0.005956 0.099886 1.000000
0.408035 0.037031 -0.092631 1.000000
-0.163852 0.073234 0.068218 1.000000
0.095607 0.050934 0.086120 1.000000
0.149504 0.031738 -0.094547 1.000000
0.386573 -0.099441 0.007873 1.000000
-0.152455 0.068013 -0.073059 1.000000
0.357104 0.050311 0.086488 1.000000
-0.376082 0.075343 -0.065463 1.000000
0.360803 0.090253 -0.042832 1.000000
-0.141896 -0.080380 0.059300 1.000000
-0.451881 -0.057638 -0.081282 3.000000
0.325742 0.092396 0.038327 1.000000
-0.071224 0.089287 -0.044727 1.000000
-0.166170 0.019232 0.098212 1.000000
-0.258080 -0.099614 0.005215 1.000000
0.429633 0.056040 0.082889 2.000000
-0.075853 0.082405 0.056722 1.000000
-0.322499 0.006225 0.099878 1.000000
0.041539 0.092022 -0.038828 1.000000
-0.150705 0.062255 -0.077974 1.000000
-0.444632 -0.081241 0.058091 3.000000
0.251125 0.069602 -0.071527 1.000000
-0.361178 -0.092042 0.038607 1.000000
-0.395176 0.027683 -0.095777 1.000000
-0.267837 -0.065845 0.075127 1.000000
0.352190 0.013827 -0.098731 1.000000
0.266332 0.090199 0.043301 1.000000
-0.074510 0.099423 -0.010165 1.000000
0.172930 0.056786 0.082382 1.000000
-0.171621 0.013437 -0.098793 1.000000
-0.342318 0.067898 0.073524 1.000000
0.204333 0.077563 -0.062870 1.000000
-0.106089 0.085185 0.052470 1.000000
-0.281281 0.022967 0.097377 1.000000
0.238718 0.097316 -0.022651 1.000000
-0.131675 0.002654 -0.099627 1.000000
0.064775 -0.062609 -0.077518 1.000000
-0.250467 -0.068217 -0.072674 1.000000
0.205751 -0.099693 -0.002336 1.000000
-0.204660 -0.015956 0.098719 1.000000
0.079537 0.035634 0.093507 1.000000
-0.284756 0.099287 0.011970 1.000000
-0.108044 0.099536 -0.008968 1.000000
-0.216310 -0.099643 0.004291 1.000000
0.309818 0.076873 0.064091 1.000000
0.344894 0.065424 0.075704 1.000000
-0.252837 -0.044342 0.089581 1.000000
-0.253936 0.068421 0.073062 1.000000
0.325384 -0.033281 0.094270 1.000000
-0.324699 0.004691 -0.099563 1.000000
-0.418760 -0.077411 -0.062765 1.000000
-0.212523 0.036579 0.093167 1.000000
-0.064088 -0.028999 0.095690 1.000000
0.085217 -0.097949 -0.018775 1.000000
-0.344009 0.030110 -0.095072 1.000000
0.461781 -0.093811 -0.033664 2.000000
-0.299170 0.074083 -0.066891 1.000000
0.302977 0.054546 -0.083542 1.000000
0.208777 -0.012645 -0.098881 1.000000
0.249882 0.064577 -0.076088 1.000000
0.203975 -0.010833 0.099431 1.000000
-0.176496 -0.031236 -0.094644 1.000000
0.134676 -0.016120 0.098694 1.000000
-0.191914 0.091012 -0.041163 1.000000
-0.150145 -0.060311 -0.079300 1.000000
0.420931 0.074592 -0.066315 1.000000
0.268790 -0.039896 0.091653 1.000000
0.054924 0.082997 -0.055487 1.000000
0.314450 -0.097107 -0.022542 1.000000
0.039194 0.098761 -0.015222 1.000000
-0.033607 -0.097050 0.023159 1.000000
0.384590 -0.036970 0.092919 1.000000
-0.293224 0.007137 -0.099439 1.000000
-0.282055 -0.069326 -0.071570 1.000000
-0.077137 -0.096565 0.025260 1.000000
-0.278824 -0.046944 -0.087892 1.000000
0.326415 0.010827 -0.099090 1.000000
-0.022680 0.013421 -0.098795 1.000000
-0.103736 -0.099554 -0.006310 1.000000
0.332148 0.060347 -0.079453 1.000000
0.464642 0.098419 -0.017382 2.000000
-0.057951 -0.097085 0.023005 1.000000
-0.114319 0.058923 -0.080558 1.000000
-0.264986 -0.093751 0.034194 1.000000
-0.226207 0.097067 0.024129 1.000000
-0.453516 0.092220 -0.038371 3.000000
0.437431 -0.099725 -0.001315 2.000000
-0.374489 0.066403 -0.074478 1.000000
0.113942 -0.043263 -0.089768 1.000000
-0.042553 0.097445 0.022436 1.000000
0.458656 -0.078992 -0.060727 2.000000
0.262453 0.043200 0.090281 1.000000
-0.322396 0.100000 0.000349 1.000000
0.071649 0.098201 -0.018691 1.000000
-0.067024 -0.050184 0.086426 1.000000
-0.452658 -0.093346 0.035317 3.000000
-0.395050 0.077382 0.063467 1.000000
-0.319520 -0.077106 0.063521 1.000000
0.221505 0.097559 0.021926 1.000000
0.337949 0.090669 -0.041954 1.000000
-0.216113 -0.005076 0.099907 1.000000
-0.355445 -0.057279 -0.081525 1.000000
0.045354 -0.086988 0.049027 1.000000
-0.210349 0.018206 0.098400 1.000000
-0.349494 0.092963 0.037016 1.000000
-0.290786 -0.032423 0.094579 1.000000
0.079684 -0.093312 0.035412 1.000000
0.343378 -0.086677 -0.049191 1.000000
0.207981 -0.060311 0.079663 1.000000
-0.466203 -0.099686 0.002918 3.000000
0.163158 0.027778 -0.095750 1.000000
0.286988 -0.087458 -0.047859 1.000000
0.030809 -0.077482 0.063037 1.000000
-0.001375 0.093897 -0.034073 1.000000
-0.374517 -0.098808 0.013816 1.000000
0.055959 0.069289 -0.071841 1.000000
-0.275626 -0.085117 -0.051828 1.000000
-0.432317 0.026188 0.096574 1.000000
-0.407967 -0.023612 -0.096818 1.000000
0.434072 -0.079816 -0.059665 1.000000
-0.237167 0.077712 -0.062678 1.000000
0.265610 -0.011742 0.099345 1.000000
0.118702 0.099928 0.002651 1.000000
0.314874 -0.037273 -0.092425 1.000000
0.387604 -0.097184 0.022563 1.000000
0.390523 -0.003702 -0.099587 1.000000
0.346116 0.026464 0.096494 1.000000
0.063579 -0.095560 0.028717 1.000000
0.357083 0.086435 -0.049995 1.000000
-0.291377 0.070972 -0.070157 1.000000
0.310202 0.019852 0.098073 1.000000
0.341757 -0.089851 -0.043162 1.000000
0.270136 -0.027861 0.096021 1.000000
0.099685 0.098907 0.014665 1.000000
0.336879 -0.077808 -0.062253 1.000000
-0.124589 -0.091351 -0.039840 1.000000
0.298800 -0.097363 0.021758 1.000000
0.371292 0.006691 0.099844 1.000000
0.135097 -0.099687 0.002880 1.000000
0.188345 0.013540 0.099139 1.000000
-0.285776 -0.009860 -0.099160 1.000000
0.219773 0.001104 0.100039 1.000000
-0.203889 -0.098187 -0.017371 1.000000
0.311613 -0.018043 0.098389 1.000000
-0.204753 0.038741 0.092254 1.000000
-0.349507 0.013949 -0.098712 1.000000
0.368579 -0.097750 -0.019666 1.000000
0.242167 0.099892 0.003783 1.000000
-0.405181 0.051534 0.085766 1.000000
-0.231355 0.087963 -0.047325 1.000000
-0.042788 -0.028388 0.095867 1.000000
0.137305 -0.098005 -0.018520 1.000000
-0.075548 0.099947 -0.001656 1.000000
0.329484 0.092216 -0.038381 1.000000
0.192008 0.091036 -0.041107 1.000000
-0.160504 -0.001045 0.100033 1.000000
-0.081928 0.002093 -0.099645 1.000000
-0.050971 0.098936 -0.014113 1.000000
-0.196658 -0.026213 -0.096137 1.000000
-0.009928 0.089996 -0.043335 1.000000
-0.142516 0.013016 0.099222 1.000000
-0.127643 -0.050862 0.086025 1.000000
-0.099932 -0.060817 -0.078907 1.000000
-0.181024 -0.097991 0.018952 1.000000
0.344978 0.099418 0.010580 1.000000
-0.127931 0.069894 0.071598 1.000000
-0.374586 0.020377 -0.097593 1.000000
-0.368332 -0.001513 -0.099656 1.000000
-0.244039 -0.095798 -0.027538 1.000000
-0.194693 -0.077876 -0.062165 1.000000
-0.196746 -0.050635 0.086159 1.000000
0.178291 -0.061938 -0.078038 1.000000
0.383415 0.094748 -0.031710 1.000000
0.235933 0.099918 0.002960 1.000000
-0.279961 -0.040916 0.091211 1.000000
-0.347013 0.002056 -0.099646 1.000000
-0.019715 -0.088097 0.046968 1.000000
-0.447880 0.024168 0.097108 3.000000
0.310641 -0.086071 0.050577 1.000000
-0.072436 0.045760 -0.088615 1.000000
0.109436 0.099752 0.007044 1.000000
0.362609 -0.095017 -0.030226 1.000000
-0.254135 -0.036972 -0.092555 1.000000
0.389184 0.049040 0.087240 1.000000
-0.097529 0.084671 0.053340 1.000000
0.140114 -0.002447 0.099989 1.000000
-0.248110 0.027309 0.096249 1.000000
0.103830 0.099334 -0.011104 1.000000
-0.003807 -0.095546 -0.028403 1.000000
-0.131479 0.086969 -0.049091 1.000000
-0.203725 0.061574 0.078865 1.000000
-0.046794 0.011517 0.099388 1.000000
-0.017121 0.010672 0.099468 1.000000
-0.364345 -0.072553 0.068705 1.000000
0.398210 0.010630 -0.099109 1.000000
0.087247 0.062457 0.078179 1.000000
0.435526 -0.075881 -0.064588 1.000000
0.093749 0.063714 -0.076842 1.000000
-0.155291 0.093265 -0.035828 1.000000
-0.270163 0.079734 -0.060071 1.000000
-0.297185 0.046926 -0.088020 1.000000
0.219695 0.089704 0.044272 1.000000
-0.201654 -0.096798 -0.023925 1.000000
-0.398805 0.053036 0.084877 1.000000
-0.362194 -0.099533 -0.006534 1.000000
0.266620 0.098471 -0.017052 1.000000
0.130633 -0.087544 -0.047690 1.000000
-0.211725 -0.068344 -0.072552 1.000000
0.285337 0.074104 -0.066868 1.000000
-0.036936 -0.029511 -0.095178 1.000000
0.138950 -0.016097 -0.098334 1.000000
0.077436 -0.037959 0.092491 1.000000
-0.096365 0.094600 -0.032121 1.000000
-0.134233 -0.034046 0.093995 1.000000
-0.259236 -0.060229 0.079726 1.000000
-0.210094 0.067239 -0.073741 1.000000
0.101791 -0.055762 -0.082556 1.000000
-0.324279 -0.099529 -0.006575 1.000000
0.423620 0.062435 -0.077833 1.000000
0.308026 -0.099508 -0.006793 1.000000
-0.384090 -0.045898 0.088788 1.000000
-0.148930 -0.098519 0.015637 1.000000
-0.153704 -0.099654 0.003926 1.000000
0.030404 -0.030102 -0.095007 1.000000
-0.300068 0.097824 -0.020378 1.000000
0.011008 -0.074787 -0.065829 1.000000
0.080532 0.075132 -0.065702 1.000000
-0.297362 -0.047862 0.087787 1.000000
0.262199 -0.048322 0.087527 1.000000
-0.079184 -0.046308 0.088579 1.000000
-0.057935 0.021474 0.097711 1.000000
0.282035 -0.034114 -0.093607 1.000000
-0.015550 -0.038663 0.092186 1.000000
0.157212 -0.035704 -0.093035 1.000000
-0.054690 0.093667 -0.034711 1.000000
-0.066627 0.098651 0.016276 1.000000
-0.312056 0.031306 0.095065 1.000000
0.031603 0.076915 -0.063680 1.000000
-0.241233 0.083814 0.054648 1.000000
0.266857 0.097701 0.021294 1.000000
0.149821 0.040351 0.091557 1.000000
0.188073 -0.099704 -0.001975 1.000000
0.075848 -0.015305 -0.098460 1.000000
-0.120689 -0.012403 -0.098919 1.000000
-0.188536 -0.097657 -0.020081 1.000000
-0.399628 -0.086089 0.050547 1.000000
0.344677 -0.099656 0.003860 1.000000
-0.388966 -0.035494 0.093473 1.000000
0.446462 0.072854 0.068638 2.000000
-0.049460 -0.066137 -0.074508 1.000000
-0.331971 -0.062905 -0.077288 1.000000
-0.085850 -0.099224 0.010169 1.000000
0.044688 0.099557 -0.008750 1.000000
0.081477 -0.081127 -0.057896 1.000000
0.283648 0.031386 0.095036 1.000000
0.139045 -0.099498 0.007270 1.000000
0.330412 0.098219 0.018977 1.000000
-0.313782 0.090519 -0.042302 1.000000
0.295448 -0.024852 0.096895 1.000000
-0.200191 -0.046061 -0.088342 1.000000
0.243555 0.029812 0.095522 1.000000
-0.403506 0.089838 0.044008 1.000000
0.047384 0.011894 -0.098990 1.000000
-0.438040 -0.056849 -0.081817 3.000000
0.244116 -0.016809 0.098584 1.000000
-0.220717 -0.096038 0.027075 1.000000
0.182841 -0.031089 -0.094696 1.000000
0.001640 -0.094364 -0.032129 1.000000
0.423445 -0.064751 -0.075729 1.000000
-0.005992 0.090142 0.043412 1.000000
-0.437970 -0.083632 0.054573 3.000000
-0.415943 0.059102 -0.080419 1.000000
-0.324303 0.099835 -0.005241 1.000000
0.411487 -0.098527 -0.015226 1.000000
-0.337493 0.007625 0.099756 1.000000
-0.383509 0.056361 -0.082308 1.000000
0.428347 -0.029103 -0.095297 1.000000
0.119507 0.041128 -0.090858 1.000000
-0.211098 0.096460 -0.026060 1.000000
0.264739 0.064503 0.076517 1.000000
-0.356531 0.099243 0.012433 1.000000
-0.281320 0.006920 0.099823 1.000000
0.438131 0.019011 -0.097898 1.000000
0.041659 0.080096 0.059967 1.000000
0.377670 -0.076896 -0.063429 1.000000
-0.264640 0.024210 0.097099 1.000000
0.161473 -0.040921 -0.090846 1.000000
0.282616 0.015363 -0.098488 1.000000
0.189885 -0.001088 -0.099669 1.000000
-0.290841 -0.095547 0.028763 1.000000
0.019084 0.098747 0.015672 1.000000
-0.132013 0.068119 -0.072966 1.000000
0.281309 0.011714 0.099370 1.000000
0.252154 0.087394 -0.048373 1.000000
-0.440071 0.079194 0.061131 3.000000
-0.027849 0.096749 -0.025066 1.000000
0.214323 -0.090652 -0.041456 1.000000
-0.054838 0.024029 -0.096777 1.000000
-0.030043 0.030174 0.095417 1.000000
-0.214938 0.077466 -0.062996 1.000000
-0.200740 0.090755 -0.041756 1.000000
-0.081079 -0.026545 0.096403 1.000000
-0.259539 0.062462 0.078175 1.000000
0.170884 0.086302 0.050581 1.000000
0.068508 0.028921 0.095780 1.000000
-0.291432 -0.097104 0.022920 1.000000
0.038204 0.055057 0.083557 1.000000
-0.084202 0.081797 -0.057254 1.000000
-0.165520 0.085747 0.051521 1.000000
0.405484 -0.008202 -0.099317 1.000000
-0.180037 -0.015437 -0.098439 1.000000
0.102706 -0.005571 0.099891 1.000000
-0.273470 0.034464 -0.093565 1.000000
-0.334292 -0.022834 0.097354 1.000000
-0.443740 -0.090787 0.041505 3.000000
-0.265376 -0.074642 -0.065993 1.000000
0.134077 -0.022912 0.097337 1.000000
-0.271148 0.048418 -0.087245 1.000000
-0.093470 -0.063777 0.076951 1.000000
0.269195 -0.045810 0.088833 1.000000
0.004332 0.083023 -0.055450 1.000000
0.159359 -0.014353 -0.098611 1.000000
-0.024463 0.061519 0.078907 1.000000
0.249508 -0.097272 -0.021805 1.000000
0.197753 -0.099341 -0.008568 1.000000
0.156824 -0.094036 -0.033038 1.000000
0.017018 0.043950 -0.089537 1.000000
-0.097117 -0.066229 -0.074427 1.000000
0.253130 -0.053314 0.084575 1.000000
-0.349197 0.099345 0.011349 1.000000
0.315065 -0.098856 0.013509 1.000000
0.413673 -0.099755 -0.000353 1.000000
-0.238005 -0.092269 -0.037718 1.000000
0.380441 0.087342 -0.048460 1.000000
-0.305478 0.081858 -0.057164 1.000000
0.047274 0.094399 0.033042 1.000000
0.004033 -0.071787 0.069472 1.000000
0.171489 -0.093343 -0.034963 1.000000
0.289391 -0.084070 -0.053565 1.000000
0.419227 0.086631 0.050025 1.000000
0.105888 -0.083820 -0.053933 1.000000
0.233991 -0.075847 0.064989 1.000000
-0.421773 -0.096110 -0.026463 1.000000
0.183668 -0.068116 -0.072762 1.000000
-0.411417 -0.061357 -0.078489 1.000000
0.398276 -0.058927 -0.080374 1.000000
-0.206990 0.045158 0.089284 1.000000
-0.414831 -0.034733 -0.093384 1.000000
0.146285 0.085424 0.052067 1.000000
-0.398618 -0.052155 0.085260 1.000000
0.225895 0.071824 -0.069305 1.000000
-0.052535 -0.084046 -0.053601 1.000000
-0.129176 0.037537 -0.092412 1.000000
0.088219 0.086713 -0.049524 1.000000
-0.136117 0.099289 0.011943 1.000000
-0.261674 -0.099109 0.011381 1.000000
-0.166714 0.026438 0.096502 1.000000
0.154475 0.094541 0.032647 1.000000
-0.094833 0.000668 0.100053 1.000000
-0.461762 0.066855 0.074443 3.000000
0.080100 0.045582 0.089068 1.000000
-0.264439 -0.070720 0.070539 1.000000
-0.194316 0.031070 0.095150 1.000000
0.152541 0.057688 0.081769 1.000000
0.372774 -0.001055 0.100033 1.000000
0.423417 -0.094538 -0.031644 1.000000
-0.412156 0.046343 0.088680 1.000000
-0.260423 0.035391 -0.093232 1.000000
-0.144149 0.082090 0.057186 1.000000
-0.144753 -0.096032 -0.026729 1.000000
0.155418 -0.088050 -0.046697 1.000000
-0.237377 0.064685 -0.075994 1.000000
-0.433062 -0.008253 0.099675 3.000000
0.149979 -0.078645 0.061537 1.000000
0.174545 -0.046561 -0.088087 1.000000
0.312875 0.032212 -0.094376 1.000000
-0.260710 0.099852 -0.004691 1.000000
-0.300962 0.087966 -0.047319 1.000000
0.193143 0.097342 -0.022536 1.000000
-0.321917 0.082882 -0.055657 1.000000
0.349498 0.065602 -0.075185 1.000000
-0.238558 -0.081629 0.057520 1.000000
-0.416354 -0.099602 0.005579 1.000000
-0.152430 -0.022571 0.097413 1.000000
-0.323755 -0.056066 -0.082350 1.000000
-0.072988 -0.018375 -0.097974 1.000000
-0.033482 0.075084 0.066120 1.000000
-0.367974 -0.033808 0.094080 1.000000
0.240549 0.058127 -0.081108 1.000000
0.163004 -0.056260 0.082581 1.000000
0.025733 -0.008502 -0.099288 1.000000
0.419142 -0.069388 -0.071508 1.000000
-0.397687 -0.091929 -0.038504 1.000000
0.342330 -0.031237 0.095006 1.000000
-0.290776 0.013825 -0.098731 1.000000
0.380570 0.092030 0.039172 1.000000
0.463513 -0.075897 -0.064569 2.000000
-0.426404 -0.076036 -0.064412 1.000000
0.407490 0.032131 0.094768 1.000000
0.037043 0.085849 -0.050985 1.000000
0.104188 0.018691 -0.097961 1.000000
0.311353 -0.094890 0.031024 1.000000
0.368371 -0.029706 -0.095122 1.000000
0.036325 0.013408 0.099160 1.000000
-0.343116 0.014395 0.099004 1.000000
0.028644 -0.098351 -0.016338 1.000000
-0.017107 0.002856 0.099984 1.000000
-0.256921 0.046462 -0.088257 1.000000
-0.186231 0.087535 0.048497 1.000000
0.420750 -0.081150 -0.057862 1.000000
-0.443978 0.093128 -0.036209 3.000000
-0.207430 -0.072734 -0.068157 1.000000
-0.079292 0.050744 0.086233 1.000000
0.283247 0.070786 0.070706 1.000000
-0.447363 0.057843 0.081663 3.000000
-0.338913 -0.098619 -0.014647 1.000000
-0.085713 -0.092452 0.037659 1.000000
-0.038868 0.089674 0.044331 1.000000
0.150848 0.099646 0.008164 1.000000
-0.219065 0.069941 0.071551 1.000000
0.085144 -0.091852 0.039044 1.000000
-0.050206 0.058302 0.081352 1.000000
-0.354855 -0.033726 0.094110 1.000000
-0.465784 -0.012514 -0.098902 3.000000
0.365272 -0.042226 -0.090282 1.000000
0.285181 -0.099384 -0.008113 1.000000
0.115923 0.012283 0.099316 1.000000
-0.061754 0.063095 0.077684 1.000000
0.248789 -0.090226 0.042789 1.000000
0.105289 -0.083744 0.054407 1.000000
-0.195992 0.059385 -0.080200 1.000000
-0.397123 0.015200 0.098876 1.000000
-0.306290 -0.031545 -0.094532 1.000000
0.061735 0.063355 0.077483 1.000000
0.033596 0.003925 -0.099588 1.000000
0.159980 -0.064989 -0.075520 1.000000
0.463898 -0.091163 -0.040273 2.000000
0.194103 -0.097736 -0.019730 1.000000
0.216184 -0.092817 -0.036425 1.000000
-0.005460 -0.023256 0.097260 1.000000
0.117990 0.099510 0.009604 1.000000
0.296553 0.097939 0.020228 1.000000
-0.281546 0.092034 -0.038801 1.000000
0.165530 0.098304 0.018468 1.000000
-0.418839 0.084784 0.053148 1.000000
-0.156363 -0.099722 -0.001405 1.000000
0.229924 -0.013357 0.099131 1.000000
-0.114531 -0.014093 -0.098652 1.000000
0.090299 -0.031954 0.094748 1.000000
0.180250 -0.095008 0.030619 1.000000
-0.132420 0.089718 0.044243 1.000000
0.178342 -0.056409 -0.082116 1.000000
0.200017 -0.088404 -0.046001 1.000000
0.172324 -0.082959 0.055563 1.000000
-0.426276 0.003566 0.099962 1.000000
0.098854 -0.099584 -0.005783 1.000000
0.343133 -0.047692 0.087874 1.000000
-0.055308 0.007966 -0.099361 1.000000
0.106843 -0.046555 -0.088091 1.000000
-0.368403 0.024131 0.097117 1.000000
-0.399456 -0.002076 -0.099638 1.000000
-0.146295 0.048531 0.087541 1.000000
0.306740 -0.023241 -0.096901 1.000000
0.379824 -0.088179 -0.046444 1.000000
-0.146255 0.088056 -0.047143 1.000000
-0.341474 0.063708 -0.076846 1.000000
-0.094457 -0.077923 0.062468 1.000000
0.406623 0.098069 0.019644 1.000000
0.356871 0.093403 0.035809 1.000000
0.125950 -0.078438 -0.061441 1.000000
-0.465843 -0.099304 0.009315 3.000000
0.337369 -0.084174 -0.053412 1.000000
-0.061890 -0.084176 -0.053409 1.000000
-0.358043 0.089896 -0.043531 1.000000
-0.284263 0.091609 0.040146 1.000000
0.325255 -0.051563 0.085610 1.000000
-0.465253 -0.098782 -0.013615 3.000000
-0.065777 0.027681 -0.095778 1.000000
0.062769 -0.092477 0.037601 1.000000
0.420856 0.096439 -0.026132 1.000000
0.251714 0.032325 -0.094336 1.000000
-0.152130 -0.096094 0.026880 1.000000
0.203453 0.051759 0.085633 1.000000
-0.349974 0.058926 0.080919 1.000000
0.451267 0.099986 -0.000445 2.000000
-0.390109 -0.097033 0.023238 1.000000
0.216984 0.006375 -0.099511 1.000000
0.071445 -0.043810 -0.089489 1.000000
0.074671 -0.093137 -0.035534 1.000000
-0.447942 -0.074691 -0.065938 3.000000
0.172165 -0.003209 0.099965 1.000000
-0.301464 -0.053278 -0.084233 1.000000
-0.308803 0.063843 0.077098 1.000000
-0.230097 0.078785 -0.061294 1.000000
-0.079414 0.085150 0.052530 1.000000
0.029924 0.092886 -0.036833 1.000000
0.310696 0.004462 0.099933 1.000000
0.214535 0.079819 0.060324 1.000000
-0.320460 0.097081 0.024068 1.000000
0.396009 0.037012 -0.092639 1.000000
0.343826 -0.075055 0.065888 1.000000
-0.365829 -0.067497 -0.073308 1.000000
0.041815 0.075039 0.066170 1.000000
0.116699 -0.099546 -0.006391 1.000000
-0.138051 0.019231 0.098212 1.000000
-0.350406 0.072908 0.068584 1.000000
0.388125 0.074710 -0.066181 1.000000
0.195791 -0.013209 -0.098792 1.000000
0.104442 -0.063223 0.077404 1.000000
0.142030 -0.061827 -0.078124 1.000000
0.043867 0.090374 0.042957 1.000000
0.200764 -0.045104 0.089193 1.000000
0.372875 0.096743 -0.025086 1.000000
0.174076 0.032269 0.094719 1.000000
-0.421884 -0.088177 0.046811 3.000000
-0.224428 -0.071897 -0.068999 1.000000
0.259739 0.077101 0.063829 1.000000
0.065841 -0.097502 0.021138 1.000000
0.247606 0.096337 -0.026485 1.000000
-0.234935 0.093320 -0.035675 1.000000
0.264299 0.034578 0.093887 1.000000
-0.047777 -0.005162 -0.099541 1.000000
0.346292 0.088432 0.046768 1.000000
0.430726 0.071196 -0.069933 1.000000
0.201764 -0.081652 -0.057123 1.000000
-0.038849 -0.077887 -0.062151 1.000000
-0.198585 -0.001340 0.100024 1.000000
0.216049 -0.077389 0.063156 1.000000
0.071365 0.084537 0.053567 1.000000
0.056291 0.074001 0.067348 1.000000
0.212557 -0.033628 0.094145 1.000000
0.079221 0.098666 0.016184 1.000000
-0.318170 -0.096950 0.023606 1.000000
0.249363 -0.087284 -0.048163 1.000000
0.120557 -0.041371 -0.090652 1.000000
-0.429576 0.099899 0.003563 1.000000
-0.145920 0.055046 -0.083202 1.000000
0.054581 -0.051637 0.085566 1.000000
-0.354528 -0.091710 -0.039009 1.000000
0.157950 0.079217 -0.060737 1.000000
-0.306339 0.031869 -0.094500 1.000000
-0.280697 0.041748 0.090953 1.000000
0.324438 0.098647 0.016301 1.000000
-0.288459 0.099901 -0.003141 1.000000
-0.265830 -0.037617 0.092639 1.000000
0.187932 0.099951 0.001918 1.000000
-0.170175 0.099887 -0.003594 1.000000
0.234528 -0.046240 -0.088251 1.000000
-0.238028 0.082172 -0.056701 1.000000
0.418306 -0.095141 0.030160 1.000000
0.245152 -0.064807 -0.075680 1.000000
-0.223159 0.097822 -0.020390 1.000000
0.261877 0.099134 -0.012868 1.000000
-0.231333 -0.008828 0.099620 1.000000
-0.180160 -0.091658 -0.039131 1.000000
-0.228123 0.002964 0.099980 1.000000
0.419918 0.033229 0.094373 2.000000
-0.384549 0.016880 0.098610 1.000000
0.154069 0.095015 -0.030968 1.000000
0.026274 0.060835 -0.079075 1.000000
-0.384648 -0.073872 -0.066867 1.000000
-0.352960 -0.024561 0.096968 1.000000
-0.025230 -0.079521 0.060408 1.000000
-0.277725 -0.055779 0.082908 1.000000
0.426141 -0.042718 -0.090045 1.000000
0.253605 0.079059 0.061304 1.000000
0.167057 0.067369 0.073990 1.000000
-0.141240 -0.050278 0.086370 1.000000
-0.187796 0.035362 -0.093242 1.000000
0.297262 0.039722 -0.091466 1.000000
0.325306 -0.099127 0.011190 1.000000
-0.428792 0.049289 0.087093 1.000000
0.184878 -0.063034 -0.077188 1.000000
-0.298645 -0.034721 0.093752 1.000000
-0.086061 -0.064436 0.076370 1.000000
-0.224349 0.018614 0.098336 1.000000
0.094499 0.044256 -0.089381 1.000000
0.385050 0.002366 -0.099636 1.000000
0.324817 0.085962 -0.050793 1.000000
-0.434503 -0.020069 -0.097610 3.000000
0.267535 0.028663 -0.095493 1.000000
0.114264 0.099689 -0.007353 1.000000
0.254164 -0.044177 -0.089302 1.000000
-0.155705 0.046813 0.088440 1.000000
0.306800 -0.008045 0.099694 1.000000
-0.018563 0.083698 -0.054457 1.000000
-0.090793 -0.046180 -0.088282 1.000000
-0.072139 0.053668 0.084501 1.000000
0.337984 0.087024 0.049361 1.000000
-0.006813 0.050616 -0.085946 1.000000
0.342079 0.035573 0.093529 1.000000
-0.363002 -0.075033 -0.065549 1.000000
-0.459099 -0.072499 -0.068397 3.000000
0.125661 -0.021237 -0.097349 1.000000
-0.192326 0.086635 0.050018 1.000000
0.339461 0.073521 0.067892 1.000000
-0.244179 0.099828 -0.005457 1.000000
-0.423072 0.066837 -0.074096 3.000000
-0.158756 -0.085720 -0.050808 1.000000
-0.392535 -0.045111 -0.088826 1.000000
0.272601 -0.098885 -0.012967 1.000000
-0.232908 -0.019237 -0.097796 1.000000
0.319636 0.020209 0.097993 1.000000
-0.146916 -0.086942 -0.048742 1.000000
-0.058879 -0.048726 -0.086925 1.000000
0.218422 0.084024 -0.053977 1.000000
-0.331490 -0.014980 -0.098511 1.000000
-0.189568 -0.019246 0.098156 1.000000
0.187162 0.098599 0.016608 1.000000
-0.125148 0.070109 -0.071021 1.000000
0.342865 0.097334 0.022936 1.000000
-0.065173 -0.055077 0.083384 1.000000
-0.288088 -0.090747 0.041599 1.000000
0.048567 0.087945 0.047724 1.000000
-0.229570 -0.092237 0.038156 1.000000
0.137377 -0.023962 -0.096739 1.000000
-0.015962 0.096383 -0.026325 1.000000
0.329439 -0.087620 -0.047540 1.000000
-0.046411 -0.070502 -0.070394 1.000000
-0.392945 -0.091967 0.038779 1.000000
-0.333861 0.039721 0.091829 1.000000
0.294650 0.069214 -0.071916 1.000000
-0.406038 0.092082 0.039052 1.000000
0.337656 -0.092591 0.037338 1.000000
0.262855 -0.097930 0.019225 1.000000
0.398943 -0.029403 -0.095210 1.000000
-0.423349 0.064843 0.076217 1.000000
-0.115282 -0.097886 0.019419 1.000000
0.283536 0.095662 -0.028808 1.000000
0.025006 0.078342 -0.061866 1.000000
0.147868 -0.098076 0.018434 1.000000
0.218902 -0.008207 -0.099316 1.000000
-0.125689 0.063937 0.077016 1.000000
-0.421612 0.084778 -0.052796 3.000000
0.366938 0.006600 -0.099490 1.000000
-0.466165 -0.013683 0.099080 3.000000
-0.053383 -0.087565 -0.047649 1.000000
0.035654 -0.093811 -0.033662 1.000000
-0.342545 0.049386 0.087036 1.000000
-0.029604 -0.071909 -0.068987 1.000000
0.411843 -0.019325 0.098139 1.000000
0.288661 0.079650 0.060543 1.000000
-0.279080 -0.084443 0.053330 1.000000
-0.310664 0.054480 -0.083586 1.000000
0.196638 -0.091083 0.040823 1.000000
-0.276863 0.078519 -0.061638 1.000000
-0.369941 0.092490 -0.037746 1.000000
-0.335752 0.000224 0.100067 1.000000
0.012648 -0.068350 0.072909 1.000000
0.278430 -0.081652 -0.057123 1.000000
-0.245783 -0.064375 -0.076061 1.000000
0.102531 0.001520 0.100026 1.000000
-0.340633 -0.088625 0.045930 1.000000
0.077548 -0.061797 -0.078148 1.000000
0.018342 -0.019371 -0.097766 1.000000
-0.385684 -0.070877 0.070381 1.000000
0.181773 -0.075307 -0.065239 1.000000
0.168977 -0.096457 -0.025267 1.000000
-0.005029 -0.098030 0.018727 1.000000
0.129785 0.005592 -0.099535 1.000000
0.103887 -0.070835 -0.070061 1.000000
-0.070624 0.027339 0.096240 1.000000
0.102276 -0.023621 0.097179 1.000000
0.369476 0.088211 -0.046838 1.000000
0.228836 -0.006703 0.099821 1.000000
0.015682 0.081857 0.057528 1.000000
0.398202 0.090416 0.042873 1.000000
-0.280323 0.054325 -0.083692 1.000000
-0.099818 -0.054826 0.083555 1.000000
-0.270532 -0.076639 -0.063728 1.000000
-0.242711 -0.068146 -0.072736 1.000000
0.216731 -0.011903 0.099330 1.000000
-0.292985 -0.091698 -0.039038 1.000000
0.230809 0.048407 0.087614 1.000000
-0.206277 -0.009849 0.099524 1.000000
-0.154387 -0.079594 -0.059950 1.000000
0.196113 -0.023630 0.097177 1.000000
0.391330 -0.069995 0.071264 1.000000
0.161753 0.013857 0.099089 1.000000
0.446052 -0.061497 -0.078380 2.000000
-0.270396 0.070717 0.070776 1.000000
0.460479 -0.071727 -0.069169 2.000000
0.004369 -0.005832 -0.099520 1.000000
0.395537 -0.051381 0.085718 1.000000
-0.383703 -0.099686 0.002924 1.000000
-0.149517 -0.026774 -0.095974 1.000000
0.048376 -0.025519 0.096701 1.000000
0.132103 0.088177 0.047268 1.000000
-0.202699 -0.039432 0.091854 1.000000
0.419844 0.098841 0.015078 1.000000
-0.358265 -0.085263 0.051944 1.000000
-0.094568 -0.099076 0.011725 1.000000
-0.272064 0.022813 0.097411 1.000000
-0.252903 -0.099402 -0.007919 1.000000
-0.159235 0.077871 0.062836 1.000000
0.329686 -0.099013 -0.012035 1.000000
-0.222192 -0.021495 0.097654 1.000000
-0.289008 0.078003 0.062666 1.000000
0.284175 -0.093782 -0.033745 1.000000
-0.337719 0.094972 -0.031086 1.000000
-0.257789 0.017228 0.098555 1.000000
-0.213858 -0.053498 -0.084095 1.000000
0.345301 -0.025646 0.096664 1.000000
0.040220 -0.059604 0.080212 1.000000
0.432835 -0.085781 -0.050705 1.000000
-0.420618 -0.084036 -0.053615 1.000000
-0.376119 -0.079523 -0.060043 1.000000
0.322539 -0.074533 0.066480 1.000000
0.454949 -0.011625 -0.098993 2.000000
0.159194 -0.095706 -0.027853 1.000000
0.349009 0.041042 -0.090895 1.000000
0.092246 0.023704 -0.096849 1.000000
-0.348629 -0.035780 -0.093007 1.000000
0.020493 0.040882 0.091327 1.000000
-0.306165 0.036142 0.093324 1.000000
-0.314529 -0.041495 -0.090598 1.000000
-0.278756 -0.099756 -0.000340 1.000000
-0.057575 0.074341 0.066963 1.000000
0.003525 0.062944 -0.077439 1.000000
-0.304623 -0.056779 0.082228 1.000000
0.133224 0.042311 -0.090346 1.000000
-0.050683 -0.080431 0.059235 1.000000
-0.354155 -0.030354 -0.094933 1.000000
0.225594 0.005049 0.099915 1.000000
-0.217236 -0.070566 0.070693 1.000000
0.179118 0.041050 -0.090892 1.000000
-0.119160 -0.064983 -0.075525 1.000000
-0.045860 0.098637 0.016364 1.000000
-0.320098 -0.014378 0.098969 1.000000
0.414583 0.025849 -0.096310 1.000000
-0.054751 0.052300 0.085312 1.000000
-0.006100 0.009227 0.099605 1.000000
-0.448690 0.093230 0.036287 3.000000
0.093467 0.000583 0.100055 1.000000
-0.334333 -0.043940 0.089786 1.000000
0.313978 0.044795 -0.089106 1.000000
-0.351736 -0.061837 0.078480 1.000000
0.280110 -0.063866 0.076873 1.000000
0.109406 -0.035329 -0.093170 1.000000
0.433144 -0.013887 -0.098684 1.000000
0.056456 0.052042 -0.085102 1.000000
0.188803 0.077655 -0.062751 1.000000
0.092850 0.090097 0.043500 1.000000
-0.015888 -0.070719 0.070540 1.000000
-0.180579 -0.069404 0.071855 1.000000
-0.183371 -0.015513 0.098790 1.000000
0.216307 0.014290 -0.098658 1.000000
-0.373574 0.099512 -0.009226 1.000000
-0.213309 -0.030250 0.095326 1.000000
-0.192874 0.098784 -0.015078 1.000000
0.438409 0.079842 0.060295 2.000000
0.333527 -0.062200 0.078198 1.000000
-0.261021 0.011037 -0.099071 1.000000
-0.236542 0.046048 -0.088468 1.000000
0.329953 -0.097487 -0.020841 1.000000
-0.170970 -0.068301 -0.072595 1.000000
0.281889 0.049961 0.086696 1.000000
0.366003 0.095594 -0.029042 1.000000
-0.082969 0.087113 -0.048848 1.000000
-0.341914 0.084683 0.053320 1.000000
0.307158 0.071101 0.070392 1.000000
-0.007006 -0.099601 0.005631 1.000000
-0.385870 0.078120 0.062515 1.000000
0.366694 0.093310 -0.035703 1.000000
-0.455824 0.084583 0.053488 3.000000
-0.121259 -0.033467 -0.093840 1.000000
-0.410902 -0.065428 0.075495 1.000000
-0.431531 0.037234 0.092906 1.000000
-0.179749 -0.094115 0.033181 1.000000
-0.341527 0.036808 0.093084 1.000000
-0.380914 0.023287 0.097305 1.000000
0.097958 -0.016745 0.098595 1.000000
-0.386926 -0.088934 0.045325 1.000000
-0.424066 -0.047659 0.087891 1.000000
-0.272183 -0.027992 -0.095620 1.000000
-0.147279 -0.099664 0.003619 1.000000
-0.466383 -0.099463 -0.007274 3.000000
0.012113 0.097525 -0.021719 1.000000
0.218354 -0.026491 -0.096056 1.000000
-0.299521 0.013568 -0.098772 1.000000
0.206097 0.080748 0.059127 1.000000
0.236762 -0.020437 0.097890 1.000000
0.012460 0.089797 -0.043725 1.000000
-0.375364 -0.066173 0.074839 1.000000
-0.114285 0.064049 0.076917 1.000000
-0.318775 -0.053314 0.084574 1.000000
-0.429795 -0.090049 0.043135 3.000000
-0.460171 0.081588 -0.057561 3.000000
0.435176 0.095120 0.031036 2.000000
0.193226 0.019159 0.098228 1.000000
0.136449 -0.035271 0.093554 1.000000
0.001913 0.083044 0.055781 1.000000
-0.332551 0.087850 0.047911 1.000000
0.216323 0.024224 0.097096 1.000000
0.168060 -0.087069 -0.048527 1.000000
-0.274991 0.007097 0.099806 1.000000
-0.358285 0.047951 -0.087498 1.000000
-0.162474 0.089653 -0.044009 1.000000
0.058629 0.099543 -0.008896 1.000000
0.243716 -0.093649 0.034477 1.000000
-0.102365 -0.013156 0.099163 1.000000
-0.213356 -0.075183 0.065742 1.000000
0.419562 0.001338 0.100032 2.000000
-0.184056 -0.024185 -0.096690 1.000000
0.136093 -0.055538 0.083071 1.000000
0.414223 0.009744 -0.099193 1.000000
0.121942 -0.099681 -0.002712 1.000000
0.185730 0.095832 -0.028222 1.000000
-0.055435 -0.044736 0.089380 1.000000
-0.453087 0.099924 -0.002413 3.000000
0.013075 0.009314 -0.099234 1.000000
0.370674 0.084746 0.053213 1.000000
0.382874 -0.098175 -0.017446 1.000000
0.039506 0.098391 0.017921 1.000000
0.006612 -0.015471 0.098796 1.000000
-0.205697 -0.095022 -0.030207 1.000000
0.021701 -0.088757 0.045672 1.000000
0.015077 0.099413 0.010635 1.000000
-0.317353 0.079855 0.060278 1.000000
-0.072541 0.081377 -0.057871 1.000000
0.154661 0.035949 0.093394 1.000000
-0.388597 0.021926 0.097609 1.000000
-0.337726 -0.050829 0.086044 1.000000
0.381244 0.079816 0.060328 1.000000
0.029882 0.063275 0.077545 1.000000
0.074854 0.012719 0.099269 1.000000
-0.036826 -0.000686 0.100045 1.000000
-0.328386 0.068620 -0.072510 1.000000
0.226886 0.002534 -0.099631 1.000000
0.129901 0.093031 -0.036480 1.000000
0.152847 0.047558 0.088061 1.000000
-0.070101 -0.035613 0.093430 1.000000
-0.464449 -0.087820 -0.047147 3.000000
-0.373369 0.020044 0.098030 1.000000
-0.018371 -0.090976 -0.040706 1.000000
-0.282061 -0.023305 0.097249 1.000000
-0.281106 -0.097325 0.021931 1.000000
0.036520 0.039864 0.091768 1.000000
-0.294797 -0.099666 0.003558 1.000000
-0.266386 -0.044421 0.089540 1.000000
0.360262 0.099487 -0.009484 1.000000
-0.430779 0.078516 0.062005 1.000000
-0.200127 0.063263 -0.077191 1.000000
0.394487 0.052428 0.085237 1.000000
0.300759 -0.038838 -0.091748 1.000000
0.274292 0.012458 0.099299 1.000000
-0.411609 0.002416 -0.099635 1.000000
0.330329 -0.085913 0.050846 1.000000
0.286285 -0.028836 -0.095375 1.000000
0.156856 0.003046 0.099978 1.000000
0.099810 0.074383 -0.066552 1.000000
-0.251833 0.099718 0.007412 1.000000
0.362266 0.043032 0.090367 1.000000
-0.174547 -0.098121 0.018149 1.000000
-0.193975 -0.097042 -0.022832 1.000000
-0.294135 0.053227 -0.084401 1.000000
0.147205 0.095618 0.029323 1.000000
-0.058024 0.099240 -0.012105 1.000000
0.018251 0.097280 -0.022812 1.000000
0.426741 0.098146 -0.018937 1.000000
-0.020737 -0.099662 -0.003313 1.000000
-0.121972 -0.049983 -0.086182 1.000000
0.415442 -0.025189 0.096797 2.000000
0.246429 -0.095308 0.029586 1.000000
0.182552 -0.070445 0.070813 1.000000
0.276528 0.030620 0.095287 1.000000
0.277852 0.056350 0.082678 1.000000
0.376373 0.019520 0.098147 1.000000
0.198738 -0.035516 -0.093102 1.000000
0.268533 0.023342 0.097293 1.000000
0.122508 0.013745 -0.098744 1.000000
0.213650 0.006265 0.099877 1.000000
0.245617 0.097951 0.020175 1.000000
0.283690 0.090023 -0.043283 1.000000
-0.121126 0.087894 0.047824 1.000000
0.090072 -0.097037 0.023220 1.000000
0.302858 -0.016470 0.098638 1.000000
-0.284502 0.040959 -0.090931 1.000000
-0.369345 0.052009 -0.085122 1.000000
-0.162627 0.091376 0.040685 1.000000
-0.145145 0.059835 -0.079851 1.000000
-0.269845 0.087160 -0.048768 1.000000
-0.166547 -0.099211 0.010305 1.000000
0.263566 -0.001137 0.100031 1.000000
-0.348824 0.099838 -0.005136 1.000000
0.168066 -0.099543 -0.006432 1.000000
-0.399712 0.044032 0.089858 1.000000
0.007819 -0.086566 -0.049378 1.000000
0.439473 -0.061834 -0.078119 1.000000
-0.459233 0.099250 0.012357 3.000000
-0.465397 0.008122 0.099709 3.000000
0.387036 0.099821 0.006056 1.000000
-0.360030 0.098351 -0.017812 1.000000
-0.293000 0.074551 0.066724 1.000000
-0.385235 0.099605 0.008601 1.000000
-0.447158 -0.033031 -0.093997 3.000000
0.098750 0.010520 -0.099120 1.000000
0.389798 0.039149 -0.091714 1.000000
-0.162328 0.061606 -0.078477 1.000000
-0.283955 -0.064530 -0.075925 1.000000
-0.127469 -0.089518 0.044179 1.000000
0.155695 0.011860 -0.098993 1.000000
-0.249251 -0.084476 -0.052912 1.000000
0.075318 0.099988 -0.000358 1.000000
-0.427954 0.009986 0.099533 1.000000
0.051212 0.099847 0.005224 1.000000
0.331217 0.083578 0.054995 1.000000
-0.213945 -0.016516 -0.098268 1.000000
0.195826 0.078389 -0.061806 1.000000
0.079670 0.029760 0.095537 1.000000
0.459541 0.068278 0.073188 2.000000
-0.129649 -0.012075 -0.098951 1.000000
-0.105385 -0.068252 -0.072643 1.000000
0.107493 -0.054542 0.083748 1.000000
0.264518 -0.098975 0.012762 1.000000
0.176417 0.090592 0.042496 1.000000
-0.319803 -0.047720 0.087859 1.000000
0.278912 0.084795 0.053131 1.000000
0.424085 -0.091807 0.039149 2.000000
0.041238 -0.033749 0.094102 1.000000
-0.261091 -0.057152 -0.081612 1.000000
-0.448156 0.016246 0.098710 3.000000
0.281543 0.061199 -0.078793 1.000000
-0.370189 -0.078585 0.061615 1.000000
0.029792 -0.092523 -0.037131 1.000000
0.419346 0.098006 -0.019565 1.000000
0.322235 -0.026976 0.096278 1.000000
-0.405427 -0.087712 0.047724 1.000000
0.412191 -0.094107 0.033204 1.000000
-0.270255 0.001805 0.100017 1.000000
-0.187996 -0.092003 -0.038334 1.000000
-0.431292 0.008442 -0.099316 3.000000
0.173865 -0.072187 -0.068709 1.000000
-0.178264 0.020330 0.097966 1.000000
0.074930 0.096830 -0.024788 1.000000
0.332665 0.088321 -0.046623 1.000000
-0.177327 0.096192 0.027347 1.000000
-0.384126 -0.091263 0.040406 1.000000
-0.153477 0.053871 -0.084000 1.000000
0.186172 -0.049826 0.086638 1.000000
-0.381892 -0.099667 -0.003160 1.000000
-0.201343 -0.026923 0.096293 1.000000
-0.258915 -0.099029 -0.011870 1.000000
-0.088835 0.016123 -0.098367 1.000000
-0.215509 -0.044941 0.089276 1.000000
-0.297940 0.098495 0.017266 1.000000
-0.322260 0.090556 0.042580 1.000000
-0.456911 0.078014 -0.062289 3.000000
0.178622 -0.053366 0.084544 1.000000
-0.089355 -0.098622 0.014987 1.000000
0.412264 0.077119 0.063805 1.000000
-0.384601 0.043758 -0.089635 1.000000
0.036439 -0.039763 0.091710 1.000000
-0.122593 0.098732 -0.015406 1.000000
0.266622 -0.097713 -0.019832 1.000000
0.063629 0.099839 -0.005114 1.000000
-0.265027 0.091988 0.039271 1.000000
-0.152158 -0.037436 0.092717 1.000000
-0.169279 0.082632 0.056388 1.000000
-0.186216 -0.017266 -0.098149 1.000000
-0.191401 -0.081232 -0.057741 1.000000
0.179316 0.075169 0.066023 1.000000
0.322161 -0.021644 -0.097258 1.000000
-0.179415 0.051770 -0.085263 1.000000
0.320906 0.098920 -0.014217 1.000000
-0.263549 -0.083421 -0.054520 1.000000
-0.242250 -0.043969 -0.089408 1.000000
0.349566 0.095079 -0.030790 1.000000
-0.415925 0.089815 -0.043691 1.000000
-0.362806 0.052130 -0.085050 1.000000
0.063229 0.069143 -0.071986 1.000000
-0.410617 -0.083934 0.054129 1.000000
0.335924 0.065012 -0.075705 1.000000
-0.201122 -0.084182 -0.053401 1.000000
0.048331 0.099962 -0.001180 1.000000
-0.099061 -0.099541 0.006815 1.000000
0.286993 0.063957 -0.076635 1.000000
0.354914 0.015658 0.098804 1.000000
0.261467 -0.096218 0.026453 1.000000
-0.342084 -0.098856 0.013513 1.000000
0.125103 -0.098881 0.013350 1.000000
0.124413 -0.086084 -0.050193 1.000000
-0.396976 -0.065509 0.075424 1.000000
0.349348 0.095894 0.028371 1.000000
-0.311073 0.007189 -0.099435 1.000000
0.205650 -0.071152 0.070107 1.000000
0.225100 0.032648 0.094582 1.000000
0.148365 -0.092234 -0.037800 1.000000
0.052164 -0.066497 -0.074190 1.000000
-0.244975 -0.092198 -0.037882 1.000000
-0.046417 -0.077899 0.062499 1.000000
-0.031181 -0.040688 -0.090947 1.000000
-0.176414 0.086432 0.050362 1.000000
-0.339875 0.046026 -0.088479 1.000000
-0.022940 -0.065508 -0.075062 1.000000
0.364546 -0.080856 -0.058294 1.000000
0.343712 0.050970 0.086099 1.000000
0.233100 0.070756 0.070736 1.000000
0.261244 -0.093532 -0.034437 1.000000
0.196421 0.098948 0.014400 1.000000
-0.156333 0.081261 0.058405 1.000000
0.450662 0.051807 0.085604 2.000000
0.215733 -0.099563 -0.006213 1.000000
0.156515 -0.069198 -0.071698 1.000000
0.255538 0.073459 -0.067600 1.000000
-0.024891 0.099172 -0.012625 1.000000
-0.328337 0.025554 -0.096396 1.000000
-0.082949 -0.072196 -0.068700 1.000000
-0.421013 0.088002 -0.047249 1.000000
-0.179535 0.058191 -0.081064 1.000000
0.330034 -0.010738 -0.099077 1.000000
-0.099485 0.066173 -0.074681 1.000000
-0.266131 0.045344 -0.088826 1.000000
0.055313 0.079306 -0.060623 1.000000
