0.267216 0.090523 0.042656 1.000000
-0.393155 0.079244 -0.060703 1.000000
-0.412146 0.059436 0.080522 1.000000
0.457892 -0.086620 0.049650 2.000000
0.061612 -0.063514 -0.076815 1.000000
0.014661 -0.013328 0.099136 1.000000
0.016490 0.050069 0.086632 1.000000
0.384241 -0.095783 -0.027588 1.000000
0.079398 -0.094184 -0.032628 1.000000
0.147282 -0.096622 0.025063 1.000000
-0.065555 -0.095708 -0.027845 1.000000
-0.026233 0.079299 0.060995 1.000000
-0.332449 -0.091861 -0.038661 1.000000
0.246110 -0.062809 0.077726 1.000000
-0.466391 -0.025683 -0.096291 3.000000
-0.426625 -0.068009 0.073220 3.000000
0.319175 -0.079722 0.060148 1.000000
0.430666 -0.028289 0.095896 2.000000
-0.059485 0.054877 0.083679 1.000000
-0.224226 -0.084287 0.053595 1.000000
-0.350647 -0.037205 0.092817 1.000000
0.307980 -0.090698 -0.041349 1.000000
0.320434 -0.099750 0.000889 1.000000
-0.157210 0.052741 0.085052 1.000000
0.352357 -0.055754 0.082925 1.000000
0.196200 0.060133 -0.079619 1.000000
-0.432912 0.023698 -0.096851 3.000000
-0.123531 0.091438 -0.040179 1.000000
-0.040493 0.025052 -0.096542 1.000000
0.229418 0.048544 0.087534 1.000000
-0.130635 0.030966 0.095186 1.000000
0.040409 0.053908 -0.083975 1.000000
0.279496 0.037080 0.092972 1.000000
-0.407770 -0.074339 -0.066337 1.000000
0.137940 -0.098624 -0.014611 1.000000
0.273581 0.093506 -0.035158 1.000000
-0.419095 0.092563 -0.037579 1.000000
0.245977 -0.091185 -0.040223 1.000000
0.319631 -0.013083 0.099175 1.000000
0.286937 -0.043298 -0.089750 1.000000
0.192022 -0.077329 0.063234 1.000000
0.414076 0.061453 -0.078595 1.000000
-0.037855 -0.027871 0.096018 1.000000
0.227524 0.038073 -0.092180 1.000000
0.053057 0.020909 0.097837 1.000000
0.251307 0.059377 -0.080205 1.000000
0.132139 0.097600 0.021745 1.000000
-0.388360 0.095106 0.031077 1.000000
-0.255491 0.076854 0.064112 1.000000
0.217174 0.089583 0.044509 1.000000
0.157411 0.099976 -0.000737 1.000000
0.130530 0.057497 0.081899 1.000000
0.170683 -0.076892 0.063797 1.000000
-0.430298 -0.001128 -0.099668 3.000000
0.084404 -0.080533 -0.058740 1.000000
0.296830 0.025652 -0.096367 1.000000
-0.010675 0.040631 0.091436 1.000000
0.297714 0.086523 -0.049845 1.000000
-0.253909 0.022910 -0.097027 1.000000
0.196112 -0.038842 -0.091746 1.000000
0.309090 0.017476 -0.098153 1.000000
0.195302 -0.046670 -0.088032 1.000000
0.123703 -0.051972 -0.085005 1.000000
-0.067393 0.087592 0.048401 1.000000
-0.348735 -0.065995 0.074996 1.000000
-0.188627 -0.046605 0.088428 1.000000
0.189818 -0.073800 0.067310 1.000000
0.086584 0.049978 -0.086323 1.000000
0.234230 -0.014847 -0.098532 1.000000
-0.069247 0.067575 0.073808 1.000000
-0.087552 -0.095441 -0.028764 1.000000
-0.203094 0.098263 -0.018366 1.000000
-0.102558 -0.096097 -0.026508 1.000000
0.352133 -0.062211 0.078190 1.000000
-0.365668 0.079884 0.060240 1.000000
0.315390 0.099809 0.006422 1.000000
-0.160677 -0.096561 -0.024911 1.000000
0.190816 -0.012896 -0.098841 1.000000
-0.166759 -0.007491 -0.099384 1.000000
-0.337850 0.022667 -0.097081 1.000000
0.009077 -0.047636 -0.087540 1.000000
-0.438178 -0.095967 0.027317 3.000000
-0.065103 0.022539 0.097473 1.000000
0.116367 -0.065179 -0.075352 1.000000
-0.206848 -0.094226 -0.032511 1.000000
-0.154079 -0.045094 0.089198 1.000000
0.207463 -0.088313 -0.046180 1.000000
-0.100411 -0.076055 -0.064390 1.000000
0.119517 -0.083871 0.054221 1.000000
0.086246 0.003774 0.099955 1.000000
-0.412611 0.094167 0.033687 1.000000
-0.331284 0.091163 0.041177 1.000000
0.271024 0.085962 -0.050793 1.000000
0.002834 -0.046968 -0.087880 1.000000
0.133428 -0.099577 0.006380 1.000000
-0.167647 0.066733 0.074550 1.000000
-0.330511 0.000086 0.100069 1.000000
0.343219 0.099870 0.004473 1.000000
0.365923 -0.061378 -0.078473 1.000000
0.264679 0.099775 -0.006444 1.000000
-0.452906 -0.080871 -0.058273 3.000000
-0.019461 0.074849 -0.066023 1.000000
0.423628 0.065347 -0.075410 1.000000
-0.398210 0.097362 -0.022447 1.000000
0.082785 0.092888 0.037191 1.000000
0.260414 -0.024493 -0.096621 1.000000
0.285167 0.068052 -0.073025 1.000000
-0.413771 -0.038266 -0.091995 1.000000
0.051895 0.032609 -0.094233 1.000000
-0.108700 0.073189 0.068269 1.000000
-0.463195 -0.094348 0.032534 3.000000
-0.249919 0.056329 0.082693 1.000000
0.190162 -0.073104 -0.067738 1.000000
-0.137886 -0.061989 0.078361 1.000000
0.350904 -0.099587 0.006056 1.000000
0.388437 0.096000 0.028006 1.000000
-0.337130 -0.016815 -0.098221 1.000000
0.416459 -0.082725 0.055908 2.000000
-0.344428 0.057524 0.081881 1.000000
0.409071 -0.009101 0.099595 1.000000
0.166191 -0.099747 -0.000604 1.000000
0.419084 -0.023053 0.097305 2.000000
0.182839 0.055693 0.083125 1.000000
-0.466407 -0.059203 0.080522 3.000000
0.158477 -0.048699 -0.086941 1.000000
-0.318747 -0.090778 0.041527 1.000000
-0.141525 -0.081454 0.057777 1.000000
0.005641 0.024150 0.097112 1.000000
0.315309 -0.099627 -0.004418 1.000000
-0.250794 -0.020221 -0.097576 1.000000
0.441435 0.041581 -0.090662 1.000000
-0.117084 0.009189 0.099608 1.000000
0.159321 -0.095381 0.029334 1.000000
0.286629 -0.002346 -0.099630 1.000000
0.019647 -0.097993 0.018940 1.000000
-0.074117 0.099917 0.002981 1.000000
-0.005056 -0.099369 -0.008266 1.000000
-0.214179 0.099430 -0.010096 1.000000
-0.087638 0.052722 -0.084700 1.000000
-0.071882 0.099563 0.009046 1.000000
0.241077 0.099590 0.008757 1.000000
-0.238178 -0.030319 -0.094944 1.000000
-0.115705 -0.061156 0.079007 1.000000
0.269140 0.021692 0.097662 1.000000
-0.123960 -0.098065 -0.018140 1.000000
-0.350500 0.005057 -0.099552 1.000000
0.437711 0.017366 -0.098170 1.000000
0.362515 0.098055 -0.019347 1.000000
-0.117638 0.092511 0.038061 1.000000
0.259031 0.076168 0.064890 1.000000
-0.435561 0.036251 0.093285 1.000000
-0.440346 0.093982 -0.033836 3.000000
-0.368410 0.075920 0.065171 1.000000
0.190515 -0.035293 -0.093183 1.000000
-0.118766 -0.096961 0.023559 1.000000
-0.212512 -0.083607 0.054609 1.000000
-0.459090 0.090174 0.043349 3.000000
-0.235393 -0.056895 -0.081786 1.000000
-0.222512 -0.012704 0.099235 1.000000
0.306070 -0.087496 0.048146 1.000000
-0.231198 -0.095851 -0.027355 1.000000
-0.408417 -0.030161 -0.094990 1.000000
-0.354900 -0.020989 -0.097404 1.000000
0.224915 0.089248 -0.044804 1.000000
-0.418486 0.005406 0.099904 1.000000
0.142259 -0.095802 0.027886 1.000000
-0.408479 -0.099150 0.010948 1.000000
0.261963 0.051430 0.085827 1.000000
0.337592 0.092165 -0.038498 1.000000
0.316841 -0.093078 0.036062 1.000000
0.318353 0.098848 0.015034 1.000000
-0.349386 -0.088294 0.046580 1.000000
-0.028808 -0.099054 0.011963 1.000000
0.463229 -0.076129 0.064670 2.000000
0.026161 0.087483 -0.048222 1.000000
-0.382804 -0.091859 -0.038666 1.000000
-0.149317 0.098032 0.019813 1.000000
-0.311918 0.094740 -0.031731 1.000000
-0.140984 0.075501 0.065646 1.000000
0.242832 0.098403 0.017845 1.000000
0.285354 -0.022740 -0.097013 1.000000
0.072392 -0.090389 -0.042063 1.000000
0.025196 -0.099415 -0.007782 1.000000
0.150293 -0.087972 -0.046850 1.000000
0.303332 0.082642 0.056372 1.000000
-0.302359 -0.019885 -0.097651 1.000000
0.351311 0.035210 0.093659 1.000000
0.008207 0.099137 -0.012845 1.000000
0.241050 -0.039363 -0.091520 1.000000
-0.432622 0.064326 0.076673 1.000000
-0.308407 0.042961 0.090403 1.000000
-0.104283 0.097698 0.021308 1.000000
0.074758 -0.092385 0.037814 1.000000
-0.459045 -0.026705 0.096356 3.000000
-0.220440 -0.069314 -0.071582 1.000000
-0.103042 -0.098629 0.014941 1.000000
0.233299 -0.058704 0.080909 1.000000
-0.047198 -0.062722 0.077793 1.000000
0.183848 0.082302 0.056873 1.000000
-0.320300 0.002288 -0.099639 1.000000
0.464259 -0.090100 0.043036 2.000000
0.010022 -0.087637 0.047869 1.000000
-0.191398 0.079484 -0.060394 1.000000
-0.214626 0.094792 0.031951 1.000000
0.146229 0.036735 -0.092748 1.000000
-0.395806 0.031488 0.095000 1.000000
0.363069 0.064461 0.076554 1.000000
0.113834 -0.043669 -0.089561 1.000000
-0.452919 0.067599 0.073787 3.000000
0.121698 0.086031 0.051040 1.000000
-0.429258 0.088993 -0.045305 3.000000
0.201902 -0.016324 0.098661 1.000000
-0.129695 0.091494 -0.040049 1.000000
-0.104738 0.078398 -0.061794 1.000000
-0.428857 0.093005 -0.036550 3.000000
0.170819 -0.034212 -0.093572 1.000000
-0.172617 0.042709 0.090532 1.000000
0.263318 -0.051166 -0.085482 1.000000
-0.278410 -0.017827 -0.098060 1.000000
0.251557 -0.053795 0.084256 1.000000
0.312590 -0.099474 0.007523 1.000000
0.398936 -0.032148 -0.094315 1.000000
0.303798 -0.098975 -0.012397 1.000000
0.016921 0.023301 -0.096939 1.000000
0.464348 -0.030782 0.095170 2.000000
-0.034718 0.095260 0.030553 1.000000
0.421676 0.091648 0.040057 1.000000
-0.351304 0.073194 -0.067901 1.000000
0.015578 -0.030409 0.095280 1.000000
-0.416434 0.069733 0.071759 1.000000
0.373270 -0.017249 0.098515 1.000000
0.461602 -0.008297 0.099670 2.000000
-0.440945 -0.083213 0.055190 3.000000
-0.412669 0.099531 0.009390 1.000000
-0.356175 -0.097076 -0.022681 1.000000
0.380904 -0.098498 -0.015407 1.000000
0.143585 0.084550 0.053545 1.000000
0.420081 0.031971 0.094826 2.000000
-0.449258 -0.073488 0.067664 3.000000
0.149565 0.026581 0.096460 1.000000
-0.239339 -0.012406 -0.098919 1.000000
-0.314649 0.052543 0.085169 1.000000
0.069384 -0.083436 -0.054498 1.000000
-0.054401 0.067326 0.074028 1.000000
-0.164452 0.099931 0.002543 1.000000
0.289636 0.097029 -0.023937 1.000000
0.404249 -0.035669 -0.093048 1.000000
0.328078 0.043308 0.090227 1.000000
0.209209 -0.091210 -0.040165 1.000000
-0.454758 -0.094263 -0.032408 3.000000
0.228749 0.071844 -0.069286 1.000000
-0.126556 -0.099002 -0.012145 1.000000
0.422817 0.022009 -0.097228 1.000000
-0.302248 -0.071020 0.070239 1.000000
0.001300 0.054273 -0.083727 1.000000
0.117038 0.077473 0.063348 1.000000
0.293030 0.096993 0.024459 1.000000
0.402339 0.028570 0.095882 1.000000
0.350086 -0.021928 -0.097194 1.000000
0.294352 0.095416 -0.029654 1.000000
0.134280 -0.082829 -0.055391 1.000000
0.371697 -0.029779 0.095463 1.000000
-0.433574 0.084089 0.054244 1.000000
-0.034885 0.099854 0.004978 1.000000
-0.275582 0.079552 0.060668 1.000000
-0.159135 -0.069867 0.071392 1.000000
0.160737 0.040732 -0.091029 1.000000
-0.458235 0.065576 0.075570 3.000000
-0.408311 -0.059290 -0.080092 1.000000
-0.343501 0.099594 -0.008359 1.000000
0.327167 0.012951 -0.098870 1.000000
-0.255400 -0.099572 -0.006124 1.000000
-0.102360 -0.022555 -0.097054 1.000000
-0.146902 0.085046 0.052706 1.000000
0.170614 -0.088359 0.046452 1.000000
0.042364 -0.057835 -0.081148 1.000000
0.091561 -0.098331 0.016825 1.000000
0.458636 0.049193 0.087150 2.000000
0.354411 0.085576 0.051810 1.000000
-0.383456 0.098312 0.018419 1.000000
0.320020 0.089968 0.043753 1.000000
0.071803 0.057092 -0.081811 1.000000
-0.242325 -0.082109 -0.056451 1.000000
0.201905 -0.089232 -0.044376 1.000000
-0.082068 0.095940 -0.027849 1.000000
-0.116833 0.014401 -0.098640 1.000000
-0.293840 -0.048973 -0.086779 1.000000
0.356542 0.062619 0.078053 1.000000
0.196240 -0.022994 0.097319 1.000000
-0.377783 -0.067367 -0.073423 1.000000
-0.178541 0.096689 0.025637 1.000000
0.366620 0.084884 0.052979 1.000000
0.239100 0.099663 -0.007626 1.000000
0.293601 0.063730 0.077192 1.000000
-0.240345 -0.015626 0.098772 1.000000
0.148781 -0.069809 0.071450 1.000000
0.395046 -0.069368 -0.071528 1.000000
0.405817 -0.096456 0.025634 1.000000
-0.034863 -0.090283 -0.042309 1.000000
-0.334547 0.021327 0.097743 1.000000
0.451325 0.037577 0.092757 2.000000
-0.453730 0.060952 -0.078984 3.000000
0.377322 0.053375 -0.084314 1.000000
-0.457313 -0.020680 0.097836 3.000000
0.319507 -0.086172 0.050407 1.000000
-0.156696 -0.044191 -0.089295 1.000000
0.335435 -0.022568 -0.097051 1.000000
0.138805 0.020126 -0.097649 1.000000
-0.365682 -0.018954 -0.097859 1.000000
0.016279 0.096144 -0.027150 1.000000
-0.157079 -0.099043 0.012082 1.000000
0.355266 0.097149 0.023761 1.000000
-0.286693 0.053814 -0.084039 1.000000
-0.440621 -0.068294 -0.072602 3.000000
-0.146654 0.068042 -0.073034 1.000000
0.383905 -0.099717 0.001922 1.000000
-0.277605 0.099340 0.011402 1.000000
0.136864 -0.083346 0.054993 1.000000
0.163442 0.093763 0.034807 1.000000
-0.273082 0.076518 -0.064130 1.000000
0.344966 0.036412 0.093227 1.000000
0.326979 -0.077250 0.063336 1.000000
-0.335721 0.059670 0.080341 1.000000
0.433072 0.064641 0.076395 2.000000
-0.002701 -0.042372 0.090581 1.000000
0.430109 0.041244 -0.090808 1.000000
-0.261185 -0.027145 0.096229 1.000000
0.153643 -0.001292 0.100026 1.000000
0.463899 0.093811 0.034675 2.000000
-0.200715 0.095863 0.028479 1.000000
0.005863 -0.056815 0.082203 1.000000
0.398019 -0.091591 0.039649 1.000000
-0.312422 0.091496 0.040407 1.000000
-0.079642 0.072817 -0.068312 1.000000
-0.390109 0.004332 0.099937 1.000000
-0.318837 0.094253 -0.033084 1.000000
-0.011445 0.054521 -0.083558 1.000000
0.140102 0.000385 -0.099699 1.000000
0.068136 0.098998 -0.013726 1.000000
-0.037357 0.074952 0.066269 1.000000
0.275830 -0.093783 0.034104 1.000000
-0.355810 0.089404 -0.044498 1.000000
-0.280373 0.060866 -0.079051 1.000000
0.003456 0.068582 0.072910 1.000000
0.329902 -0.041153 -0.090746 1.000000
-0.446298 -0.089909 -0.043049 3.000000
0.053492 0.041691 0.090977 1.000000
0.289400 -0.045013 0.089239 1.000000
0.418395 0.093727 0.034908 1.000000
0.054077 0.020935 -0.097468 1.000000
-0.084230 -0.081934 0.057072 1.000000
0.383563 -0.065586 0.075356 1.000000
-0.453231 -0.032275 0.094632 3.000000
-0.042785 0.002645 -0.099628 1.000000
-0.358813 0.055964 -0.082578 1.000000
0.377582 0.023693 0.097215 1.000000
0.203834 -0.040993 0.091178 1.000000
0.072689 0.065208 0.075895 1.000000
-0.285086 -0.082910 -0.055273 1.000000
0.267522 0.096318 0.026913 1.000000
-0.106037 -0.031858 0.094782 1.000000
-0.447472 0.089456 -0.044395 3.000000
0.062726 -0.096126 0.026770 1.000000
0.434834 0.057649 0.081795 2.000000
-0.220468 0.094387 0.033075 1.000000
-0.208572 -0.061403 0.078816 1.000000
-0.275778 -0.022753 0.097373 1.000000
-0.227887 -0.019871 -0.097654 1.000000
0.323804 0.090815 -0.041618 1.000000
0.269564 0.095171 -0.030498 1.000000
0.028742 -0.085776 -0.050714 1.000000
0.198854 -0.094391 -0.032054 1.000000
0.367564 -0.099289 0.009473 1.000000
-0.120659 -0.093324 0.035378 1.000000
-0.430276 0.093951 0.034287 1.000000
-0.404870 0.033083 -0.094063 1.000000
-0.102687 -0.079580 0.060331 1.000000
-0.439002 -0.060115 -0.079452 3.000000
0.110571 -0.084522 0.053197 1.000000
-0.099939 0.068122 -0.072963 1.000000
0.208773 -0.032787 0.094448 1.000000
-0.356249 -0.092145 0.038368 1.000000
-0.209884 0.043764 0.089994 1.000000
0.040736 -0.094481 0.032166 1.000000
-0.179113 0.055671 0.083139 1.000000
-0.055090 0.084620 -0.053064 1.000000
-0.302740 -0.032659 0.094494 1.000000
-0.086812 -0.065983 -0.074644 1.000000
0.006675 -0.065512 0.075421 1.000000
0.182894 0.001538 -0.099663 1.000000
0.420904 -0.061817 -0.078132 1.000000
-0.337858 -0.098237 -0.017053 1.000000
0.201084 0.026775 -0.096041 1.000000
-0.466196 0.078436 -0.061744 3.000000
-0.320757 -0.076409 -0.063989 1.000000
-0.437539 -0.099231 0.010093 3.000000
0.204097 -0.077693 -0.062402 1.000000
-0.012060 0.013967 0.099072 1.000000
0.090389 -0.002108 -0.099637 1.000000
0.433721 -0.071054 0.070205 2.000000
-0.321070 -0.051821 -0.085095 1.000000
-0.258437 0.036720 0.093116 1.000000
0.065112 -0.093203 0.035716 1.000000
-0.057816 -0.098311 0.016952 1.000000
0.239628 0.003776 0.099955 1.000000
0.238908 -0.075756 0.065092 1.000000
0.098242 -0.075241 0.065677 1.000000
-0.261175 0.042178 0.090766 1.000000
0.292884 0.077060 -0.063515 1.000000
-0.387163 -0.007291 0.099766 1.000000
0.001861 -0.090004 -0.042861 1.000000
-0.308104 0.002571 -0.099630 1.000000
-0.039760 0.094634 -0.032026 1.000000
-0.413183 0.081958 0.057379 1.000000
-0.035647 -0.084495 -0.052881 1.000000
0.068436 0.004705 -0.099563 1.000000
-0.340001 -0.038786 -0.091770 1.000000
0.007314 -0.002367 0.099992 1.000000
-0.379528 -0.098326 0.016854 1.000000
0.270098 -0.036772 -0.092642 1.000000
0.032143 -0.037839 0.092543 1.000000
0.116171 -0.098360 0.016641 1.000000
0.440919 0.099894 -0.003355 2.000000
-0.437893 -0.079615 0.060287 3.000000
0.298396 0.052138 -0.085045 1.000000
-0.052278 0.078174 0.062446 1.000000
-0.385776 -0.040927 0.091207 1.000000
0.257157 0.015043 0.098901 1.000000
-0.302695 0.078114 0.062523 1.000000
0.210572 -0.099589 0.006014 1.000000
-0.203179 0.098749 0.015661 1.000000
-0.430791 -0.072029 -0.068867 3.000000
-0.262229 -0.015173 -0.098481 1.000000
0.089467 0.072644 0.068848 1.000000
0.458125 0.062458 0.078178 2.000000
0.033609 -0.098617 -0.014657 1.000000
-0.200424 -0.071575 0.069684 1.000000
0.159651 -0.046503 0.088480 1.000000
0.341375 0.081288 0.058365 1.000000
0.347448 -0.080189 0.059546 1.000000
-0.030551 -0.013557 0.099099 1.000000
0.002528 -0.099641 -0.004000 1.000000
-0.112422 0.090998 0.041559 1.000000
0.149316 -0.062624 -0.077506 1.000000
-0.311299 0.029522 -0.095243 1.000000
-0.451747 -0.024222 -0.096681 3.000000
0.436210 -0.053134 0.084681 2.000000
0.362130 0.032054 0.094796 1.000000
-0.277841 -0.064892 -0.075605 1.000000
-0.052375 0.085812 0.051411 1.000000
-0.189671 0.056982 -0.081886 1.000000
0.414227 -0.091418 -0.039686 1.000000
0.407120 0.073476 -0.067581 1.000000
0.271545 -0.049746 -0.086322 1.000000
0.063373 -0.045306 0.089089 1.000000
-0.433123 -0.023952 0.097104 3.000000
-0.000387 -0.059910 -0.079611 1.000000
-0.417066 -0.093689 -0.034003 1.000000
-0.181735 0.092386 0.038351 1.000000
-0.356442 -0.056386 0.082495 1.000000
-0.144690 0.099734 -0.006872 1.000000
-0.178958 -0.090962 -0.040738 1.000000
0.222372 -0.099216 -0.009882 1.000000
0.178710 0.084870 -0.052640 1.000000
0.227226 0.098749 0.015658 1.000000
0.261220 -0.080555 -0.058712 1.000000
-0.036641 0.088912 -0.045462 1.000000
-0.169775 -0.077505 -0.062645 1.000000
0.454272 -0.084378 -0.053078 2.000000
-0.049316 0.099150 0.013130 1.000000
-0.232981 -0.075431 -0.065099 1.000000
-0.042626 -0.097390 -0.021275 1.000000
-0.331596 -0.028267 -0.095540 1.000000
0.213073 -0.059368 0.080394 1.000000
0.105395 0.068016 0.073420 1.000000
0.321140 0.018195 -0.098039 1.000000
-0.444633 -0.021217 0.097716 3.000000
0.184423 0.086722 -0.049510 1.000000
0.226488 -0.076531 0.064214 1.000000
-0.164229 -0.099061 -0.011531 1.000000
0.174750 -0.016343 0.098658 1.000000
0.296385 0.026841 0.096385 1.000000
0.454165 0.029738 -0.095180 2.000000
-0.113142 0.098652 -0.015912 1.000000
-0.282414 -0.099250 -0.009529 1.000000
-0.428723 -0.091953 -0.038449 1.000000
0.211975 -0.090487 0.042200 1.000000
-0.466056 0.098126 -0.019027 3.000000
-0.012794 0.030589 -0.094933 1.000000
0.196915 0.080653 -0.058887 1.000000
0.006809 0.066359 -0.074517 1.000000
-0.118738 0.024983 0.096925 1.000000
-0.283337 -0.084427 0.053357 1.000000
0.112295 0.067623 0.073766 1.000000
0.435958 0.044608 -0.089202 1.000000
-0.021756 -0.082880 -0.055317 1.000000
-0.245029 0.066875 0.074426 1.000000
0.288689 -0.099309 -0.008906 1.000000
0.083227 0.098655 -0.015893 1.000000
0.152538 0.017185 0.098562 1.000000
-0.155227 0.097719 0.021210 1.000000
-0.223627 -0.098862 0.013472 1.000000
-0.413139 0.098502 0.017221 1.000000
0.318430 0.086702 -0.049542 1.000000
-0.279284 0.096201 0.027317 1.000000
-0.265994 -0.095874 0.027636 1.000000
0.373824 0.099985 0.000811 1.000000
0.451840 -0.048555 0.087389 2.000000
-0.001012 0.066748 -0.074175 1.000000
0.259810 0.040021 0.091700 1.000000
0.025055 -0.056941 -0.081755 1.000000
0.328233 -0.097680 -0.019978 1.000000
-0.237322 -0.029853 0.095442 1.000000
0.147055 0.067992 -0.073078 1.000000
-0.091294 0.035628 -0.093146 1.000000
-0.462919 0.053681 0.084492 3.000000
0.166344 0.054112 -0.083836 1.000000
0.157292 -0.083180 -0.054875 1.000000
0.400787 0.067162 -0.073810 1.000000
0.085000 0.096973 0.024548 1.000000
0.051317 -0.048001 0.087717 1.000000
-0.260882 -0.019088 0.098192 1.000000
0.351286 0.036334 -0.092892 1.000000
-0.218657 -0.006664 0.099825 1.000000
0.220182 0.098382 0.017976 1.000000
-0.215015 -0.072173 -0.068723 1.000000
0.165462 -0.074646 0.066352 1.000000
-0.074050 0.041066 0.091248 1.000000
-0.336718 0.094556 -0.032244 1.000000
-0.219954 -0.053906 0.084180 1.000000
-0.144382 -0.009902 0.099519 1.000000
0.417556 -0.099344 -0.008538 1.000000
-0.373180 0.012453 0.099300 1.000000
0.398152 0.092699 -0.037264 1.000000
-0.210083 0.068967 0.072526 1.000000
0.046847 -0.062079 0.078291 1.000000
-0.017787 0.020298 0.097973 1.000000
0.056821 -0.024237 -0.096678 1.000000
0.088228 0.076203 -0.064487 1.000000
-0.295482 0.014801 0.098939 1.000000
0.012559 0.005549 -0.099537 1.000000
0.080609 0.085732 -0.051183 1.000000
-0.393458 0.099819 0.006110 1.000000
-0.426804 0.086322 -0.050185 3.000000
0.293570 -0.071656 0.069603 1.000000
0.203738 -0.071304 0.069955 1.000000
0.221950 0.099814 -0.005889 1.000000
-0.360215 0.098765 0.015555 1.000000
0.460665 -0.098613 -0.014680 2.000000
0.319084 -0.075826 0.065012 1.000000
0.000062 0.091451 0.040511 1.000000
-0.442491 -0.012753 -0.098864 3.000000
-0.104937 -0.062722 -0.077430 1.000000
0.013414 -0.054713 0.083632 1.000000
0.295218 -0.057789 0.081541 1.000000
0.068987 -0.099246 -0.009571 1.000000
-0.092874 0.091618 -0.039762 1.000000
0.355017 0.031070 -0.094787 1.000000
0.100822 -0.057085 -0.081657 1.000000
0.386937 -0.005995 0.099878 1.000000
0.444022 0.096060 0.027801 2.000000
0.345641 -0.086548 0.049772 1.000000
-0.184429 -0.093623 -0.034187 1.000000
0.059121 0.096591 -0.025610 1.000000
-0.289760 0.075435 -0.065358 1.000000
-0.063827 0.058487 0.081226 1.000000
0.228199 -0.094915 -0.030575 1.000000
-0.371605 -0.099379 -0.008160 1.000000
0.041106 0.039947 -0.091369 1.000000
-0.298852 -0.096159 -0.026294 1.000000
-0.388457 -0.098445 -0.015741 1.000000
-0.075044 -0.086984 -0.048672 1.000000
-0.109916 0.083679 -0.054485 1.000000
0.055848 0.097790 0.020892 1.000000
-0.075038 0.030464 0.095332 1.000000
0.274161 -0.060210 -0.079378 1.000000
-0.239237 0.096338 0.026843 1.000000
-0.465636 0.092435 0.038236 3.000000
0.462199 0.091052 0.041433 2.000000
-0.056445 0.034740 -0.093466 1.000000
0.024954 0.027695 -0.095774 1.000000
0.368472 -0.097467 0.021293 1.000000
0.135606 -0.065549 -0.075026 1.000000
-0.208987 -0.098433 -0.015817 1.000000
-0.457364 0.037816 0.092654 3.000000
0.050793 -0.079529 0.060398 1.000000
-0.295303 -0.060739 0.079331 1.000000
-0.376426 0.081744 0.057694 1.000000
-0.446417 0.098805 0.015307 3.000000
0.395894 -0.090275 -0.042327 1.000000
0.065036 0.099286 0.011981 1.000000
-0.240253 0.099557 0.009109 1.000000
-0.124836 -0.081166 -0.057839 1.000000
-0.031726 -0.055023 -0.083059 1.000000
-0.274668 0.025891 0.096661 1.000000
0.228479 0.054345 -0.083678 1.000000
-0.226385 -0.099652 0.003988 1.000000
0.332627 0.081448 0.058129 1.000000
0.093930 0.099955 0.001792 1.000000
0.074783 -0.087480 -0.047815 1.000000
0.416629 0.099728 0.007305 1.000000
-0.343373 -0.033870 0.094058 1.000000
0.130082 0.066586 -0.074318 1.000000
0.295659 -0.065547 -0.075027 1.000000
0.335248 -0.098046 -0.018264 1.000000
0.409169 0.023876 0.097174 1.000000
0.136224 -0.071369 0.069889 1.000000
-0.205771 0.032504 0.094634 1.000000
-0.290393 0.020247 0.097985 1.000000
-0.064226 0.073606 -0.067433 1.000000
-0.004813 0.078134 0.062497 1.000000
0.080979 -0.036363 -0.092798 1.000000
-0.310820 0.048185 -0.087379 1.000000
-0.097876 0.088437 0.046759 1.000000
-0.362050 -0.037093 0.092866 1.000000
0.150178 0.046318 0.088693 1.000000
0.345884 -0.018748 0.098268 1.000000
-0.061057 -0.099645 -0.003847 1.000000
0.006841 0.051081 -0.085670 1.000000
-0.252790 0.089713 -0.043891 1.000000
0.230676 -0.032392 0.094590 1.000000
-0.207844 0.085833 0.051374 1.000000
-0.341537 -0.099670 -0.003064 1.000000
-0.075151 -0.056521 -0.082041 1.000000
0.095529 -0.012679 0.099238 1.000000
0.018787 -0.093228 -0.035283 1.000000
0.360145 0.084308 0.053922 1.000000
-0.152779 -0.071386 0.069873 1.000000
0.390716 -0.093187 -0.035396 1.000000
-0.334578 0.008346 -0.099325 1.000000
0.217287 0.005880 -0.099526 1.000000
-0.050160 0.081552 -0.057614 1.000000
-0.194737 0.074981 0.066236 1.000000
0.146251 0.078179 0.062439 1.000000
0.446743 0.052598 0.085136 2.000000
0.164179 0.084555 0.053536 1.000000
-0.193040 -0.071770 0.069489 1.000000
-0.003392 -0.098533 0.015549 1.000000
0.119671 -0.015744 0.098753 1.000000
0.387363 0.096099 -0.027305 1.000000
0.357735 -0.093861 0.033887 1.000000
-0.380284 -0.005415 -0.099533 1.000000
0.383576 -0.020551 0.097865 1.000000
-0.304802 -0.095180 -0.029664 1.000000
0.425389 0.088950 0.045751 2.000000
0.177858 -0.010902 -0.099061 1.000000
-0.342411 -0.083965 -0.053720 1.000000
-0.139919 -0.094898 -0.030634 1.000000
0.426337 -0.012725 -0.098868 1.000000
-0.279574 -0.053638 -0.084000 1.000000
-0.192461 -0.042606 -0.090103 1.000000
-0.240645 0.094505 0.032746 1.000000
0.113390 0.092307 0.038533 1.000000
0.306561 -0.098026 -0.018389 1.000000
-0.222935 -0.013784 -0.098701 1.000000
-0.272158 0.083272 0.055446 1.000000
0.309002 0.099511 -0.009233 1.000000
-0.004824 0.061898 -0.078250 1.000000
-0.108246 0.019794 0.098086 1.000000
0.079811 -0.090529 -0.041740 1.000000
0.229643 -0.057632 -0.081286 1.000000
0.185240 -0.035760 0.093378 1.000000
0.065249 -0.000382 0.100054 1.000000
0.441872 0.060357 -0.079445 2.000000
-0.420264 -0.087576 -0.047628 1.000000
0.008929 0.081446 -0.057769 1.000000
0.156987 0.012763 0.099262 1.000000
-0.223011 0.083380 0.055287 1.000000
-0.333244 -0.088996 0.045203 1.000000
-0.416500 0.017287 0.098546 1.000000
-0.123411 -0.096309 -0.025777 1.000000
-0.197009 -0.085296 -0.051525 1.000000
0.273258 -0.012372 0.099285 1.000000
0.266807 0.093005 -0.036552 1.000000
0.346339 -0.093512 0.034856 1.000000
-0.368599 -0.029572 -0.095161 1.000000
0.027854 -0.075974 0.064845 1.000000
0.217477 -0.038780 -0.091773 1.000000
-0.166595 -0.097216 0.022416 1.000000
0.161968 -0.030389 -0.094923 1.000000
0.238932 -0.071300 -0.069596 1.000000
-0.447465 -0.045152 0.089168 3.000000
0.449913 -0.066676 -0.074032 2.000000
0.416868 -0.065632 0.075316 2.000000
-0.453162 -0.096984 0.023456 3.000000
-0.194237 0.020607 0.097904 1.000000
0.345288 -0.066556 0.074501 1.000000
-0.282140 0.046814 0.088440 1.000000
-0.095934 -0.080987 0.058465 1.000000
-0.009683 -0.088959 -0.044913 1.000000
-0.461750 0.009021 0.099624 3.000000
-0.283931 0.093053 -0.036417 1.000000
0.456469 -0.099310 0.009250 2.000000
0.219927 -0.079381 0.060588 1.000000
0.215780 0.029502 -0.095249 1.000000
0.241430 0.079469 -0.060413 1.000000
0.096898 0.095209 0.030729 1.000000
-0.072271 0.087766 -0.047713 1.000000
-0.420453 -0.076381 -0.064021 1.000000
0.286225 -0.033128 0.094325 1.000000
0.454521 -0.098507 -0.015349 2.000000
-0.111160 -0.074249 0.066802 1.000000
-0.353311 -0.094135 0.033126 1.000000
0.275690 -0.033775 0.094092 1.000000
-0.443041 -0.099720 0.001821 3.000000
0.385058 -0.023866 -0.096761 1.000000
-0.091186 -0.097153 0.022700 1.000000
-0.183268 0.080906 0.058924 1.000000
0.049443 0.099853 0.005032 1.000000
-0.138844 -0.099655 0.003886 1.000000
-0.404652 0.095636 -0.028899 1.000000
-0.160170 -0.087349 0.048417 1.000000
0.189754 0.096347 0.026814 1.000000
0.245908 -0.057522 0.081723 1.000000
0.452986 0.053944 -0.083951 2.000000
-0.457398 -0.078452 -0.061423 3.000000
-0.329769 0.052393 0.085257 1.000000
-0.228194 0.002977 -0.099617 1.000000
-0.249498 0.062080 0.078472 1.000000
0.174659 0.040766 0.091377 1.000000
0.366715 0.049053 0.087233 1.000000
-0.029456 0.097889 0.020449 1.000000
-0.159858 -0.010399 -0.099109 1.000000
-0.239578 0.092380 0.038364 1.000000
0.008776 -0.017741 0.098437 1.000000
-0.093503 0.029044 0.095745 1.000000
0.098720 0.074593 0.066677 1.000000
0.313116 -0.043143 0.090192 1.000000
-0.466071 -0.098149 -0.017610 3.000000
0.361298 0.097081 0.024066 1.000000
0.245465 -0.068392 0.072867 1.000000
-0.080510 0.077981 0.062694 1.000000
0.302736 -0.055052 -0.083039 1.000000
-0.153076 0.095814 0.028648 1.000000
-0.383255 -0.054654 -0.083309 1.000000
-0.145706 -0.096234 -0.026036 1.000000
0.301728 -0.003234 -0.099602 1.000000
0.402012 -0.043446 0.090037 1.000000
0.240794 -0.050381 -0.085946 1.000000
0.198642 -0.077370 0.063181 1.000000
0.065197 0.065983 0.075212 1.000000
-0.339457 0.044739 0.089498 1.000000
0.089132 -0.013111 -0.098807 1.000000
0.132713 0.010384 -0.099132 1.000000
-0.357236 0.068387 -0.072730 1.000000
0.004354 0.077930 0.062760 1.000000
0.239551 -0.000764 -0.099680 1.000000
0.124759 0.004908 -0.099557 1.000000
0.185477 -0.028444 -0.095488 1.000000
0.391603 -0.013305 0.099139 1.000000
-0.034995 0.032199 0.094744 1.000000
-0.071407 0.005357 -0.099543 1.000000
0.229526 -0.080321 0.059377 1.000000
-0.140691 0.014394 -0.098641 1.000000
0.010953 0.086706 0.049899 1.000000
-0.432321 0.099912 -0.002798 1.000000
-0.175578 -0.096130 0.026756 1.000000
0.235275 0.030746 0.095250 1.000000
-0.331384 -0.084855 -0.052271 1.000000
-0.294053 0.074184 0.067141 1.000000
0.459032 -0.086475 -0.049532 2.000000
-0.465574 0.099826 0.005883 3.000000
-0.419020 -0.092680 0.037131 3.000000
0.086801 -0.090167 -0.042541 1.000000
-0.004552 0.035607 0.093517 1.000000
0.112838 -0.029554 0.095529 1.000000
0.357193 -0.080588 -0.058669 1.000000
0.028068 0.060416 0.079762 1.000000
0.182734 -0.092896 -0.036204 1.000000
0.456358 -0.062240 0.078167 2.000000
-0.451929 -0.049718 0.086701 3.000000
0.176263 0.091210 -0.040704 1.000000
-0.146240 0.074299 -0.066647 1.000000
-0.232437 -0.044871 0.089311 1.000000
-0.044439 0.053360 0.084686 1.000000
-0.134641 -0.047037 0.088208 1.000000
-0.227781 -0.037361 -0.092387 1.000000
-0.193422 0.093006 -0.036548 1.000000
-0.465728 -0.031651 0.094857 3.000000
0.318419 0.061036 -0.078918 1.000000
0.216103 0.077793 -0.062573 1.000000
0.096496 -0.029794 -0.095096 1.000000
0.407898 0.065948 -0.074880 1.000000
-0.068333 0.063076 0.077699 1.000000
0.078431 -0.026863 0.096311 1.000000
0.354145 0.085711 -0.051219 1.000000
-0.241957 0.021058 -0.097441 1.000000
0.452185 0.069099 0.072393 2.000000
0.044700 -0.031039 0.095077 1.000000
-0.066752 -0.004742 -0.099555 1.000000
-0.289955 -0.003365 0.099961 1.000000
0.073437 0.075645 0.065483 1.000000
0.157798 -0.079645 0.060248 1.000000
0.166394 0.091843 0.039605 1.000000
-0.453920 0.032311 0.094703 3.000000
0.162070 0.058704 -0.080716 1.000000
0.227307 0.097919 -0.019954 1.000000
-0.390373 -0.088074 -0.046649 1.000000
-0.007189 -0.053858 0.084213 1.000000
-0.277424 -0.099426 0.008031 1.000000
-0.024804 0.063100 -0.077318 1.000000
-0.097783 0.084555 0.053536 1.000000
0.336614 -0.091270 0.040390 1.000000
-0.209935 -0.042404 -0.090205 1.000000
-0.318737 0.041461 -0.090714 1.000000
-0.346056 0.077255 -0.063267 1.000000
0.185177 0.036030 0.093364 1.000000
-0.133656 -0.044545 -0.089115 1.000000
0.178094 0.046033 0.088838 1.000000
-0.392160 -0.095797 -0.027540 1.000000
0.314415 0.077117 -0.063446 1.000000
0.249664 0.053146 -0.084449 1.000000
-0.045077 -0.068463 0.072796 1.000000
-0.364692 -0.095203 -0.029585 1.000000
0.413470 -0.047408 -0.087656 1.000000
0.197847 -0.078845 -0.060917 1.000000
0.108368 0.003115 -0.099613 1.000000
-0.264170 0.058507 -0.080849 1.000000
0.150051 0.094058 0.033990 1.000000
-0.187621 -0.083319 0.055033 1.000000
0.200184 0.024602 0.097011 1.000000
-0.230907 0.093311 0.036063 1.000000
-0.277919 0.098353 -0.017797 1.000000
0.449864 -0.091665 0.039478 2.000000
0.101152 0.091013 0.041523 1.000000
-0.459003 -0.008930 -0.099248 3.000000
-0.281985 -0.071248 -0.069648 1.000000
0.399114 0.047392 0.088146 1.000000
-0.317430 0.057024 0.082220 1.000000
-0.415634 -0.030149 0.095356 1.000000
0.287551 -0.099733 -0.001053 1.000000
0.008665 -0.099693 0.002683 1.000000
-0.257759 -0.045499 -0.088628 1.000000
-0.106135 -0.057071 -0.081667 1.000000
0.291301 -0.089659 -0.043538 1.000000
0.272765 -0.079245 0.060764 1.000000
-0.065448 -0.027514 -0.095759 1.000000
-0.370424 -0.080272 0.059440 1.000000
0.223678 0.081683 -0.057422 1.000000
0.025467 0.053832 -0.084027 1.000000
0.082384 0.057979 0.081571 1.000000
0.031409 -0.099389 -0.008057 1.000000
-0.440152 -0.090567 0.042015 3.000000
0.336118 0.094583 -0.032167 1.000000
0.071959 0.064993 -0.075722 1.000000
0.018412 0.099044 0.013799 1.000000
0.191441 -0.065720 -0.074875 1.000000
0.363029 0.099089 0.013511 1.000000
-0.289868 -0.086383 -0.049687 1.000000
-0.131240 0.067282 0.074066 1.000000
-0.320728 0.068810 -0.072319 1.000000
0.022469 0.086712 0.049890 1.000000
0.464453 -0.099480 0.007460 2.000000
0.231874 0.097736 0.021135 1.000000
0.357291 0.088688 -0.045902 1.000000
0.033183 -0.086328 0.050143 1.000000
-0.422678 -0.035700 0.093399 1.000000
-0.281190 -0.043811 0.089851 1.000000
0.451860 -0.071668 0.069591 2.000000
-0.418289 -0.080925 0.058556 1.000000
0.320534 0.032284 0.094713 1.000000
0.004625 0.087429 0.048676 1.000000
-0.435657 0.071118 0.070374 1.000000
0.272359 0.014621 -0.098605 1.000000
0.424438 0.099852 0.005046 1.000000
-0.345267 0.094713 0.032168 1.000000
-0.137657 -0.096915 0.023762 1.000000
-0.025500 0.031877 0.094859 1.000000
-0.189275 0.045827 -0.088580 1.000000
0.019617 -0.099150 0.010945 1.000000
-0.459987 0.095142 -0.030597 3.000000
-0.237351 -0.095138 -0.029807 1.000000
0.370064 0.095464 -0.029489 1.000000
-0.019354 0.071135 0.070357 1.000000
-0.206393 -0.044536 0.089482 1.000000
-0.008710 0.081480 0.058082 1.000000
0.076084 -0.058360 -0.080791 1.000000
0.462168 0.097998 -0.019600 2.000000
0.180217 -0.052060 -0.084953 1.000000
-0.351288 -0.007972 0.099701 1.000000
0.464397 -0.077400 -0.062779 2.000000
-0.191463 -0.094579 0.031894 1.000000
0.397367 -0.017375 0.098495 1.000000
-0.449354 -0.035556 -0.093088 3.000000
0.281823 -0.082795 -0.055442 1.000000
-0.343341 -0.015167 -0.098482 1.000000
0.340279 -0.038385 0.092307 1.000000
0.146163 -0.092943 -0.036074 1.000000
0.001502 0.096878 -0.024612 1.000000
-0.360528 0.081541 -0.057630 1.000000
-0.352476 0.047141 0.088274 1.000000
-0.257498 -0.098435 -0.015807 1.000000
-0.244364 0.084875 -0.052632 1.000000
-0.172638 0.082941 0.055933 1.000000
0.430818 0.097557 0.021937 1.000000
-0.183596 -0.015091 0.098857 1.000000
-0.065353 -0.091934 0.038855 1.000000
0.460273 0.029366 -0.095288 2.000000
-0.210841 0.081016 -0.058403 1.000000
0.190513 -0.099486 -0.007026 1.000000
-0.006833 0.097438 0.022468 1.000000
0.362143 0.069104 0.072388 1.000000
0.400341 0.062417 0.078210 1.000000
0.319038 0.041616 0.091010 1.000000
0.139575 0.036223 -0.092932 1.000000
-0.015613 -0.080694 -0.058533 1.000000
-0.207005 0.067255 -0.073728 1.000000
0.339635 0.008229 -0.099336 1.000000
-0.166113 -0.053693 -0.083962 1.000000
-0.076340 -0.044189 0.089659 1.000000
-0.252805 0.081000 -0.058426 1.000000
0.346026 -0.035441 -0.093130 1.000000
-0.066418 -0.032695 0.094481 1.000000
0.255903 -0.012626 0.099247 1.000000
-0.183581 0.015317 0.098858 1.000000
-0.292208 0.098857 0.014975 1.000000
-0.434916 -0.024470 -0.096626 3.000000
0.328448 -0.077874 -0.062168 1.000000
-0.367417 -0.083248 0.055138 1.000000
0.173900 -0.073940 -0.066790 1.000000
-0.246908 0.091556 -0.039905 1.000000
0.385872 -0.046532 0.088465 1.000000
0.306590 -0.040991 -0.090816 1.000000
0.164714 -0.003575 -0.099591 1.000000
0.057977 -0.068365 0.072894 1.000000
0.322228 -0.008479 -0.099290 1.000000
0.338458 -0.070732 0.070527 1.000000
-0.168162 -0.035700 -0.093036 1.000000
-0.102258 -0.081318 -0.057615 1.000000
-0.027692 0.037545 0.092771 1.000000
-0.124252 -0.088608 0.045965 1.000000
0.422804 -0.048220 0.087587 2.000000
0.077706 -0.099057 0.011929 1.000000
0.306091 0.016712 0.098637 1.000000
-0.446281 -0.082128 -0.056422 3.000000
-0.415130 0.099978 0.001045 1.000000
-0.123830 0.096580 -0.025649 1.000000
-0.154552 -0.098197 0.017674 1.000000
0.408628 0.078718 0.061744 1.000000
-0.069291 0.098835 0.015118 1.000000
0.387937 -0.061895 0.078434 1.000000
-0.418962 0.084287 -0.053589 1.000000
0.118031 -0.073772 -0.066980 1.000000
0.238265 -0.080766 0.058789 1.000000
0.325215 0.098887 -0.014422 1.000000
-0.207879 0.092266 -0.038265 1.000000
-0.349834 0.092579 0.037904 1.000000
-0.407420 -0.097929 0.019227 1.000000
0.271788 -0.030891 -0.094768 1.000000
-0.436287 -0.099149 -0.010594 3.000000
0.164660 0.098334 -0.017916 1.000000
-0.397424 0.094675 -0.031911 1.000000
0.058321 -0.053471 -0.084113 1.000000
0.379849 -0.041716 -0.090503 1.000000
0.211399 0.088738 0.046167 1.000000
-0.346063 -0.090665 -0.041426 1.000000
-0.103531 -0.091198 -0.040194 1.000000
0.443533 -0.099770 0.000241 2.000000
0.146298 -0.087906 0.047343 1.000000
0.177840 0.006119 0.099881 1.000000
0.309642 -0.099759 -0.000246 1.000000
-0.303932 0.010661 -0.099106 1.000000
-0.239179 -0.069665 -0.071231 1.000000
-0.435288 -0.086811 0.049326 3.000000
0.009523 -0.079836 0.060001 1.000000
0.021486 -0.037026 0.092895 1.000000
0.359371 0.093512 0.035504 1.000000
0.252210 0.086319 0.050553 1.000000
-0.089836 -0.099612 0.005258 1.000000
-0.330101 0.096696 -0.025250 1.000000
0.023562 0.037305 -0.092512 1.000000
-0.252961 -0.040777 -0.090909 1.000000
0.053308 0.089365 0.044936 1.000000
-0.030094 -0.076641 -0.063726 1.000000
0.208766 0.075454 0.065700 1.000000
0.048267 -0.062022 -0.077973 1.000000
-0.216396 -0.048957 0.087151 1.000000
-0.175570 -0.086847 0.049265 1.000000
-0.182080 0.028025 -0.095678 1.000000
0.181431 -0.068259 0.073000 1.000000
0.285364 -0.087494 -0.047787 1.000000
0.256807 0.092070 -0.038717 1.000000
-0.144625 -0.060555 0.079473 1.000000
-0.125265 -0.024231 -0.096679 1.000000
0.014521 -0.096162 0.026645 1.000000
-0.084093 -0.099717 0.001922 1.000000
-0.055653 0.027711 -0.095769 1.000000
-0.441200 -0.014892 0.098888 3.000000
0.259149 0.098079 -0.019239 1.000000
0.383588 -0.084561 -0.052768 1.000000
-0.084349 0.024427 -0.096688 1.000000
0.296066 -0.027650 -0.095719 1.000000
-0.286343 -0.030133 -0.094998 1.000000
-0.316090 -0.073596 -0.067180 1.000000
-0.040944 -0.017374 -0.098132 1.000000
0.422298 -0.093233 0.035631 1.000000
0.301252 -0.092035 0.038622 1.000000
-0.167716 0.091273 -0.040560 1.000000
0.406095 -0.013735 -0.098708 1.000000
0.079321 -0.055518 0.083085 1.000000
0.332939 0.068274 -0.072829 1.000000
-0.413649 -0.021464 -0.097298 1.000000
-0.107007 0.087044 -0.048964 1.000000
0.316850 0.017946 0.098441 1.000000
-0.253444 0.044840 -0.089083 1.000000
-0.004253 -0.046741 -0.087996 1.000000
0.386378 0.050961 -0.085741 1.000000
-0.396339 -0.022378 0.097456 1.000000
0.029184 0.016492 -0.098309 1.000000
-0.068754 0.065693 -0.075105 1.000000
-0.008780 0.094573 0.032557 1.000000
-0.326454 -0.093215 0.035682 1.000000
-0.115983 0.085745 -0.051161 1.000000
-0.386234 0.014176 -0.098676 1.000000
-0.091717 -0.055569 -0.082687 1.000000
0.238398 -0.078761 -0.061025 1.000000
0.290595 -0.094214 0.032908 1.000000
-0.136503 0.099446 -0.009920 1.000000
0.402810 -0.061241 0.078942 1.000000
-0.381326 -0.095692 0.028264 1.000000
0.454311 -0.043211 0.090157 2.000000
0.433170 -0.057781 0.081547 2.000000
-0.360666 0.090072 0.043548 1.000000
0.073321 -0.059685 0.080148 1.000000
-0.301293 0.046693 0.088502 1.000000
0.037607 0.002571 0.099993 1.000000
0.363461 0.016882 0.098610 1.000000
-0.007367 -0.001231 -0.099665 1.000000
-0.337615 -0.023559 -0.096830 1.000000
0.106911 0.003169 0.099974 1.000000
0.389482 -0.083895 -0.053823 1.000000
-0.378847 -0.073729 0.067392 1.000000
-0.313578 0.071195 -0.069935 1.000000
-0.176527 0.048162 0.087753 1.000000
0.335991 0.030757 0.095247 1.000000
0.234351 0.016020 0.098746 1.000000
0.113313 0.083285 0.055427 1.000000
0.409477 -0.025862 -0.096239 1.000000
-0.039474 0.086912 0.049550 1.000000
-0.007043 0.091959 0.039336 1.000000
-0.264830 -0.046232 0.088618 1.000000
-0.247421 -0.057101 0.082009 1.000000
0.442123 0.077339 0.063522 2.000000
0.299973 -0.003201 0.099966 1.000000
-0.238543 -0.098182 0.017764 1.000000
-0.330871 -0.053329 -0.084203 1.000000
0.097753 0.046466 0.088618 1.000000
-0.335248 -0.073301 -0.067514 1.000000
0.277907 -0.094181 -0.032636 1.000000
0.194618 -0.070252 -0.070643 1.000000
0.201126 0.066814 0.074479 1.000000
-0.417529 0.088875 0.045898 1.000000
0.434306 0.095043 -0.030889 2.000000
-0.451208 0.033279 -0.093992 3.000000
-0.347248 -0.000931 0.100037 1.000000
-0.220611 0.043845 -0.089590 1.000000
0.183730 -0.020361 0.097907 1.000000
-0.411050 -0.078074 0.062273 1.000000
-0.252094 -0.076003 -0.064449 1.000000
0.181810 -0.085257 -0.051592 1.000000
0.173918 -0.067058 -0.073696 1.000000
-0.324681 0.083809 0.054656 1.000000
0.207469 0.081144 0.058577 1.000000
-0.329241 -0.097041 0.023202 1.000000
-0.102178 -0.068782 -0.072114 1.000000
-0.346578 0.082225 0.056986 1.000000
0.252192 -0.006271 -0.099499 1.000000
-0.215955 0.010923 -0.099081 1.000000
-0.176766 -0.051528 0.085631 1.000000
-0.155634 0.089361 0.044945 1.000000
-0.378716 0.037451 -0.092449 1.000000
0.273408 0.070467 -0.070662 1.000000
-0.349839 0.098251 -0.018442 1.000000
-0.250684 -0.027074 -0.095886 1.000000
-0.137095 -0.081574 -0.057237 1.000000
-0.426128 -0.014880 -0.098527 1.000000
0.146600 -0.064916 0.075947 1.000000
-0.162576 -0.016746 0.098594 1.000000
0.418584 0.091321 -0.040449 1.000000
0.095502 -0.099602 -0.005220 1.000000
0.345327 -0.024914 0.096877 1.000000
-0.074157 -0.094818 -0.030865 1.000000
0.425054 0.003215 0.099973 2.000000
-0.370669 0.098849 0.015031 1.000000
0.390942 0.094141 -0.033395 1.000000
-0.463559 0.041271 -0.090796 3.000000
0.371499 0.098988 0.014150 1.000000
-0.372787 -0.097574 -0.020453 1.000000
-0.237618 -0.020965 -0.097410 1.000000
-0.318719 0.072275 0.069217 1.000000
-0.312230 0.077117 0.063808 1.000000
0.340103 -0.097411 0.021544 1.000000
0.049129 0.055838 -0.082663 1.000000
0.414555 0.098643 0.016332 1.000000
0.463716 0.099441 0.010340 2.000000
-0.220932 -0.093239 0.035615 1.000000
-0.299452 0.071205 0.070288 1.000000
-0.410144 0.040150 0.091644 1.000000
-0.439855 0.065301 0.075813 3.000000
-0.209129 -0.049401 -0.086526 1.000000
-0.045909 -0.055431 0.083144 1.000000
-0.014120 -0.056658 -0.081948 1.000000
0.126062 0.011806 0.099361 1.000000
-0.339150 -0.056900 -0.081783 1.000000
0.296345 -0.063634 0.077077 1.000000
-0.104634 0.064718 -0.075964 1.000000
0.397950 -0.087780 -0.047227 1.000000
0.048234 -0.056028 0.082738 1.000000
0.266403 -0.019598 0.098078 1.000000
-0.382229 0.044192 -0.089413 1.000000
-0.387101 0.090336 0.043031 1.000000
-0.006532 0.099887 -0.003579 1.000000
0.241089 -0.027665 -0.095715 1.000000
-0.099727 -0.016241 -0.098312 1.000000
-0.213431 -0.015382 -0.098448 1.000000
0.318102 -0.081274 -0.057680 1.000000
0.346395 0.085296 0.052284 1.000000
0.390541 -0.038866 0.092099 1.000000
0.046767 -0.019554 0.098087 1.000000
0.178267 0.071983 -0.069146 1.000000
0.375744 -0.078745 -0.061046 1.000000
-0.082703 -0.086916 -0.048787 1.000000
-0.450257 0.021880 0.097620 3.000000
0.002246 0.099962 0.001568 1.000000
-0.203380 -0.083104 -0.054987 1.000000
-0.269651 0.091073 0.041385 1.000000
-0.211029 -0.029963 -0.095047 1.000000
0.260682 -0.075333 0.065572 1.000000
-0.361203 -0.094044 0.033378 1.000000
-0.451679 -0.061861 -0.078098 3.000000
-0.063235 0.066336 0.074900 1.000000
-0.325333 0.091879 0.039523 1.000000
-0.076716 -0.085891 0.050882 1.000000
-0.210336 0.018145 -0.098047 1.000000
0.376032 -0.064153 0.076619 1.000000
-0.365322 -0.047774 0.087832 1.000000
0.308059 -0.083431 -0.054506 1.000000
-0.017282 -0.096807 -0.023884 1.000000
-0.265584 -0.010480 0.099464 1.000000
-0.098539 -0.090212 0.042816 1.000000
0.348835 -0.083935 0.054126 1.000000
0.218696 0.098071 -0.019275 1.000000
0.416941 0.000803 -0.099686 1.000000
-0.245611 -0.007248 -0.099407 1.000000
0.049087 0.053235 0.084759 1.000000
-0.314894 -0.044018 0.089746 1.000000
-0.381606 -0.098376 -0.016178 1.000000
-0.096128 0.079712 -0.060100 1.000000
-0.406769 0.087764 0.048079 1.000000
-0.074600 -0.096966 0.023537 1.000000
-0.150580 0.057753 -0.081362 1.000000
0.221888 -0.080513 -0.058767 1.000000
0.171119 -0.077981 -0.062030 1.000000
-0.403285 -0.077164 -0.063084 1.000000
0.064733 0.020256 -0.097620 1.000000
-0.446229 0.042555 0.090603 3.000000
-0.377645 0.067698 -0.073337 1.000000
-0.352417 -0.082418 0.056359 1.000000
0.014339 -0.082586 0.056112 1.000000
0.125914 -0.071173 -0.069723 1.000000
-0.251754 -0.095713 0.028193 1.000000
0.431037 0.051670 -0.085322 1.000000
-0.447576 0.060312 0.079843 3.000000
0.168668 -0.091167 0.040629 1.000000
-0.186670 -0.031785 0.094809 1.000000
0.307315 0.049950 -0.086340 1.000000
-0.053272 -0.099519 0.007048 1.000000
0.019951 -0.068595 0.072663 1.000000
-0.182931 0.049481 0.086979 1.000000
-0.249265 -0.005110 0.099906 1.000000
-0.061294 -0.096971 -0.023152 1.000000
0.005704 -0.051166 0.085845 1.000000
-0.286893 0.009691 0.099561 1.000000
0.252909 0.038082 0.092539 1.000000
0.434926 -0.002192 0.099997 2.000000
0.345785 -0.014123 -0.098647 1.000000
-0.414662 -0.074498 -0.066156 1.000000
0.263545 -0.034713 0.093754 1.000000
0.462287 -0.047249 -0.087737 2.000000
0.442039 0.028515 -0.095536 2.000000
0.357016 0.004247 0.099940 1.000000
0.154443 -0.064319 0.076473 1.000000
0.383659 -0.091644 0.039525 1.000000
-0.043520 0.025587 0.096749 1.000000
-0.150643 0.071550 -0.069579 1.000000
-0.416952 -0.053327 -0.084204 1.000000
-0.343430 -0.098090 0.018344 1.000000
0.462378 -0.097960 0.019087 2.000000
0.229220 -0.091854 0.039041 1.000000
0.137057 -0.097070 -0.022709 1.000000
0.028867 0.098630 -0.016048 1.000000
-0.196459 -0.080465 0.059191 1.000000
0.320487 0.044909 -0.089048 1.000000
0.415716 0.068560 0.072932 1.000000
0.290698 -0.098090 0.018345 1.000000
0.337851 -0.065663 0.075288 1.000000
-0.230056 0.099782 0.006734 1.000000
0.348561 0.089348 0.044971 1.000000
0.027596 -0.064575 -0.075884 1.000000
0.268815 0.075983 -0.064737 1.000000
0.266466 -0.074301 -0.066380 1.000000
0.416740 -0.041315 -0.090676 1.000000
-0.256798 0.096816 -0.024837 1.000000
-0.035483 0.028341 -0.095586 1.000000
0.215052 0.057525 0.081880 1.000000
-0.224614 0.099866 -0.004254 1.000000
0.022387 -0.051558 -0.085251 1.000000
0.202135 0.099473 0.010004 1.000000
-0.072159 -0.023012 -0.096952 1.000000
-0.457991 -0.061803 -0.078143 3.000000
-0.237991 0.048673 0.087457 1.000000
-0.329091 0.030731 -0.094892 1.000000
0.333999 0.092241 0.038686 1.000000
0.181108 -0.096802 0.024269 1.000000
0.160151 -0.040808 0.091258 1.000000
-0.274118 0.059324 -0.080247 1.000000
0.006665 -0.081053 -0.058005 1.000000
0.122069 0.076616 -0.064019 1.000000
-0.452569 -0.099745 -0.000668 3.000000
-0.425397 0.082878 -0.055663 3.000000
0.234337 0.073344 0.068093 1.000000
0.406844 0.010131 -0.099156 1.000000
-0.286760 -0.042897 -0.089954 1.000000
0.154740 0.006085 0.099882 1.000000
0.157325 0.046786 0.088454 1.000000
0.013357 -0.003430 -0.099596 1.000000
-0.456180 -0.072824 0.068418 3.000000
-0.004264 -0.018863 -0.097879 1.000000
0.157149 -0.096362 -0.025596 1.000000
-0.122746 0.048802 0.087381 1.000000
-0.175635 0.031990 0.094819 1.000000
0.363382 0.096418 -0.026204 1.000000
0.332983 -0.062548 0.077928 1.000000
0.401282 0.087162 0.049128 1.000000
0.313411 0.097577 -0.021485 1.000000
0.166753 -0.092387 -0.037445 1.000000
0.445896 -0.098755 0.014146 2.000000
0.296020 -0.097060 0.023115 1.000000
0.213920 0.083180 0.055582 1.000000
0.088216 0.083447 -0.054825 1.000000
0.109707 -0.098913 0.013152 1.000000
0.250212 0.023098 0.097348 1.000000
-0.089229 -0.000538 0.100049 1.000000
0.159106 -0.091443 -0.039627 1.000000
0.236187 0.048492 0.087564 1.000000
-0.246456 -0.096925 0.023718 1.000000
0.052452 -0.035555 -0.093089 1.000000
-0.131178 -0.015571 -0.098418 1.000000
-0.311814 0.041720 -0.090602 1.000000
-0.131015 0.039263 0.092028 1.000000
0.284407 -0.094488 0.032147 1.000000
-0.359989 0.066350 0.074888 1.000000
-0.251699 0.066765 0.074522 1.000000
0.365984 0.098046 0.019751 1.000000
0.056268 -0.098980 0.012726 1.000000
0.343607 -0.095666 0.028355 1.000000
0.251009 0.068572 -0.072557 1.000000
0.457181 0.089066 0.045523 2.000000
0.463913 -0.067520 0.073651 2.000000
0.333691 0.086514 0.050224 1.000000
0.271108 -0.016520 -0.098267 1.000000
-0.003504 0.086133 -0.050506 1.000000
0.396869 0.031899 0.094852 1.000000
-0.013780 0.097423 0.022537 1.000000
-0.436849 -0.030340 -0.094938 3.000000
0.246494 0.029295 -0.095309 1.000000
-0.412318 -0.044121 -0.089331 1.000000
0.395343 0.080885 0.058950 1.000000
0.133750 0.024802 -0.096604 1.000000
0.158647 -0.054392 0.083850 1.000000
0.119992 -0.099664 -0.003266 1.000000
-0.040357 0.012100 0.099333 1.000000
0.366836 -0.084869 0.052610 1.000000
-0.000946 -0.072675 0.068583 1.000000
-0.014610 -0.063899 -0.076480 1.000000
0.440624 -0.077860 0.062550 2.000000
-0.146100 -0.014473 -0.098592 1.000000
0.269517 0.038147 -0.092148 1.000000
-0.206677 0.011971 -0.098982 1.000000
0.080799 -0.020736 0.097823 1.000000
