0.465339 0.034064 -0.067400 2.000000
0.465339 -0.031801 0.022324 2.000000
0.465339 -0.028294 -0.058631 2.000000
0.465339 -0.092838 -0.029961 2.000000
0.465339 0.056850 -0.029212 2.000000
0.465339 0.099462 -0.008768 2.000000
0.465339 0.046874 0.072613 2.000000
0.465339 -0.053568 -0.058288 2.000000
0.465339 0.033750 0.051817 2.000000
0.465339 0.062207 0.071599 2.000000
0.465339 -0.087297 0.042802 2.000000
0.465339 -0.018376 0.005532 2.000000
0.465339 -0.026617 0.041984 2.000000
0.465339 -0.051934 -0.058691 2.000000
0.465339 0.020993 0.044396 2.000000
0.465339 0.014937 0.078981 2.000000
0.465339 0.029071 -0.073447 2.000000
0.465339 -0.065722 0.057678 2.000000
0.465339 -0.029147 -0.067871 2.000000
0.465339 -0.038110 -0.058220 2.000000
0.465339 0.050530 -0.056314 2.000000
0.465339 -0.062059 -0.010788 2.000000
0.465339 -0.061429 0.057902 2.000000
0.465339 0.037744 0.018510 2.000000
0.465339 -0.069554 -0.025648 2.000000
0.465339 0.021086 -0.049942 2.000000
0.465339 0.001703 0.046469 2.000000
0.465339 0.028825 0.011776 2.000000
0.465339 -0.057052 0.074487 2.000000
0.465339 0.038772 0.057124 2.000000
0.465339 0.060943 0.047872 2.000000
0.465339 -0.007468 0.021252 2.000000
0.465339 0.078721 -0.060981 2.000000
0.465339 -0.024627 0.085235 2.000000
0.465339 -0.019155 -0.048541 2.000000
0.465339 0.054759 -0.026996 2.000000
0.465339 -0.023814 -0.049113 2.000000
0.465339 0.009371 -0.035969 2.000000
0.465339 0.086531 -0.047333 2.000000
0.465339 -0.005664 0.019596 2.000000
0.465339 0.013397 -0.060668 2.000000
0.465339 0.025150 -0.022457 2.000000
0.465339 0.040827 0.062153 2.000000
0.465339 0.006136 -0.007376 2.000000
0.465339 0.003296 -0.043586 2.000000
0.465339 0.061420 -0.050224 2.000000
0.465339 0.037001 -0.088425 2.000000
0.465339 -0.081612 -0.016805 2.000000
0.465339 -0.024195 0.000277 2.000000
0.465339 -0.036777 0.008036 2.000000
0.465339 -0.026888 -0.053159 2.000000
0.465339 -0.064502 0.030515 2.000000
0.465339 0.058483 0.063013 2.000000
0.465339 -0.094257 -0.029391 2.000000
0.465339 0.047539 -0.031968 2.000000
0.465339 -0.032133 0.054460 2.000000
0.465339 0.078128 -0.036624 2.000000
0.465339 0.005156 -0.051265 2.000000
0.465339 -0.085771 -0.023992 2.000000
0.465339 -0.059114 0.063699 2.000000
0.465339 -0.079196 -0.060314 2.000000
0.465339 0.081837 0.010064 2.000000
0.465339 -0.064208 -0.076079 2.000000
0.465339 -0.001574 0.069470 2.000000
0.465339 0.082880 0.051781 2.000000
0.465339 0.049906 0.067949 2.000000
0.465339 -0.034008 -0.011509 2.000000
0.465339 0.005876 -0.015928 2.000000
0.465339 -0.014104 -0.076034 2.000000
0.465339 -0.000236 0.051823 2.000000
0.465339 0.009105 0.088923 2.000000
0.465339 -0.065894 0.031428 2.000000
0.465339 0.004947 0.001373 2.000000
0.465339 0.037191 0.075902 2.000000
0.465339 0.027735 -0.019999 2.000000
0.465339 -0.097208 -0.009099 2.000000
0.465339 0.068731 -0.036816 2.000000
0.465339 -0.094326 -0.023543 2.000000
0.465339 0.012308 -0.063276 2.000000
0.465339 0.065578 -0.051729 2.000000
0.465339 -0.021529 0.070692 2.000000
0.465339 0.076018 -0.062943 2.000000
0.465339 -0.024063 0.087293 2.000000
0.465339 -0.039831 0.048554 2.000000
0.465339 -0.084567 -0.022859 2.000000
0.465339 0.070124 0.046821 2.000000
0.465339 0.054829 -0.038663 2.000000
0.465339 0.083538 0.033389 2.000000
0.465339 -0.055000 -0.006055 2.000000
0.465339 0.000139 -0.017608 2.000000
0.465339 -0.014305 0.087402 2.000000
0.465339 -0.093234 0.001079 2.000000
0.465339 -0.006440 0.069741 2.000000
0.465339 0.003145 0.034992 2.000000
0.465339 0.065486 0.012675 2.000000
0.465339 0.087036 0.043101 2.000000
0.465339 0.056049 0.019752 2.000000
0.465339 0.047268 0.020759 2.000000
0.465339 0.007451 -0.004514 2.000000
0.465339 0.007681 -0.070448 2.000000
0.465339 0.038216 -0.008867 2.000000
0.465339 -0.032409 -0.027060 2.000000
0.465339 0.025643 -0.079239 2.000000
0.465339 0.028593 0.003056 2.000000
0.465339 0.064073 -0.066288 2.000000
0.465339 -0.038198 -0.063915 2.000000
0.465339 0.086865 -0.014119 2.000000
0.465339 -0.038414 -0.069631 2.000000
0.465339 -0.057610 0.033241 2.000000
0.465339 0.036642 0.053840 2.000000
0.465339 0.076547 0.061199 2.000000
0.465339 -0.093432 -0.024902 2.000000
0.465339 -0.062733 0.030022 2.000000
0.465339 -0.014672 0.016992 2.000000
0.465339 -0.027073 -0.095403 2.000000
0.465339 0.084291 -0.004702 2.000000
0.465339 0.002911 -0.066228 2.000000
0.465339 0.028812 0.040808 2.000000
0.465339 0.020761 0.023193 2.000000
0.465339 0.022391 -0.026757 2.000000
0.465339 0.027794 0.073562 2.000000
0.465339 -0.074033 -0.019250 2.000000
0.465339 -0.060284 0.051543 2.000000
0.465339 -0.020850 0.045083 2.000000
0.465339 -0.034356 0.022794 2.000000
0.465339 0.042052 0.031139 2.000000
0.465339 0.072208 0.013514 2.000000
0.465339 -0.079084 -0.011113 2.000000
0.465339 0.063623 -0.062434 2.000000
0.465339 0.046571 -0.059679 2.000000
0.465339 0.045485 -0.074801 2.000000
0.465339 -0.030127 -0.027153 2.000000
0.465339 0.060214 0.046310 2.000000
0.465339 -0.042770 -0.060567 2.000000
0.465339 0.083501 0.026939 2.000000
0.465339 -0.039847 -0.034515 2.000000
0.465339 0.063629 0.012654 2.000000
0.465339 -0.017055 0.088124 2.000000
0.465339 -0.091536 0.025085 2.000000
0.465339 0.043974 -0.009605 2.000000
0.465339 -0.062818 0.060488 2.000000
0.465339 0.064816 -0.075294 2.000000
0.465339 -0.019271 0.011571 2.000000
0.465339 -0.036762 0.009653 2.000000
0.465339 0.033491 -0.077882 2.000000
0.465339 0.072815 -0.030646 2.000000
0.465339 -0.001292 0.066470 2.000000
0.465339 0.070202 -0.070616 2.000000
0.465339 -0.010845 0.071218 2.000000
0.465339 -0.040199 -0.057880 2.000000
0.465339 -0.029170 0.072732 2.000000
0.465339 -0.071647 -0.004201 2.000000
0.465339 -0.037518 0.013321 2.000000
0.465339 -0.050866 0.077304 2.000000
0.465339 -0.001340 0.029212 2.000000
0.465339 -0.034078 -0.014754 2.000000
0.465339 -0.047710 -0.037728 2.000000
0.465339 0.000676 0.001015 2.000000
0.465339 -0.061341 0.030611 2.000000
0.465339 -0.047987 0.059390 2.000000
0.465339 0.044397 -0.024613 2.000000
0.465339 0.021632 -0.009541 2.000000
0.465339 0.049103 -0.069070 2.000000
0.465339 0.022663 0.078483 2.000000
0.465339 0.080848 0.037112 2.000000
0.465339 -0.046592 0.079105 2.000000
0.465339 0.054398 -0.078379 2.000000
0.465339 0.033599 0.011573 2.000000
0.465339 0.041086 -0.013123 2.000000
0.465339 0.021637 0.034993 2.000000
0.465339 -0.081036 -0.022376 2.000000
0.465339 0.054601 0.081926 2.000000
0.465339 0.044439 -0.067867 2.000000
0.465339 0.048443 0.053962 2.000000
0.465339 -0.066363 -0.032503 2.000000
0.465339 0.017441 -0.039210 2.000000
0.465339 0.041851 0.006404 2.000000
0.465339 -0.026846 -0.014205 2.000000
0.465339 0.082306 0.054240 2.000000
0.465339 -0.036282 0.081896 2.000000
0.465339 -0.002528 -0.012811 2.000000
0.465339 -0.043289 0.014204 2.000000
0.465339 0.093910 -0.023004 2.000000
0.465339 0.027333 -0.028335 2.000000
0.465339 -0.049679 -0.005176 2.000000
0.465339 0.037917 0.067386 2.000000
0.465339 0.065388 -0.007252 2.000000
0.465339 0.071320 -0.052295 2.000000
0.465339 -0.024827 0.041509 2.000000
0.465339 0.042358 -0.074985 2.000000
0.465339 0.069812 -0.014788 2.000000
0.465339 -0.083649 0.037559 2.000000
0.465339 -0.023427 -0.094576 2.000000
0.465339 0.012051 -0.073874 2.000000
0.465339 0.014104 0.025700 2.000000
0.465339 0.017766 0.006327 2.000000
0.465339 0.012549 0.055452 2.000000
0.465339 0.022735 -0.031042 2.000000
0.465339 0.008996 -0.071438 2.000000
0.465339 0.006464 -0.086856 2.000000
0.465339 0.035838 0.020743 2.000000
0.465339 0.037056 0.028533 2.000000
0.465339 0.083796 0.008367 2.000000
0.465339 -0.021019 -0.095793 2.000000
0.465339 0.011797 0.057296 2.000000
0.465339 0.027630 0.006894 2.000000
0.465339 -0.074742 -0.004770 2.000000
0.465339 -0.025251 0.030426 2.000000
0.465339 -0.003196 0.084697 2.000000
0.465339 0.097875 -0.003518 2.000000
0.465339 -0.077199 0.024594 2.000000
0.465339 0.086951 -0.045534 2.000000
0.465339 -0.020072 -0.055440 2.000000
0.465339 0.010157 0.060560 2.000000
0.465339 0.029406 0.005001 2.000000
0.465339 0.033293 -0.092179 2.000000
0.465339 0.001424 0.070669 2.000000
0.465339 0.040472 -0.005537 2.000000
0.465339 0.013696 0.081526 2.000000
0.465339 -0.023646 -0.092204 2.000000
0.465339 -0.039797 0.058082 2.000000
0.465339 0.073647 -0.028892 2.000000
0.465339 0.086866 0.044536 2.000000
0.465339 -0.046041 -0.065381 2.000000
0.465339 0.091781 -0.030018 2.000000
0.465339 -0.025780 -0.000501 2.000000
0.465339 0.015707 0.083779 2.000000
0.465339 0.012011 -0.092644 2.000000
0.465339 0.082524 -0.028050 2.000000
0.465339 0.004646 0.096932 2.000000
0.465339 0.055698 0.080449 2.000000
0.465339 0.057912 -0.075734 2.000000
0.465339 -0.002059 -0.074867 2.000000
0.465339 -0.055278 -0.076668 2.000000
0.465339 -0.051790 0.003654 2.000000
0.465339 -0.013484 -0.007330 2.000000
0.465339 -0.050186 0.046488 2.000000
0.465339 0.083429 0.050301 2.000000
0.465339 -0.071629 0.037918 2.000000
0.465339 -0.079620 0.030111 2.000000
0.465339 -0.055482 0.055070 2.000000
0.465339 -0.091985 -0.023520 2.000000
0.465339 -0.066765 -0.000374 2.000000
0.465339 0.036938 -0.023096 2.000000
0.465339 -0.032178 0.004955 2.000000
0.465339 0.013332 -0.084069 2.000000
0.465339 0.047660 -0.058413 2.000000
0.465339 -0.001534 0.088522 2.000000
0.465339 -0.019144 -0.019219 2.000000
0.465339 0.013814 -0.009956 2.000000
0.465339 -0.037463 0.066262 2.000000
0.465339 0.022396 -0.049352 2.000000
0.465339 -0.053330 0.014239 2.000000
0.465339 -0.002948 0.015266 2.000000
0.465339 0.054033 -0.055181 2.000000
0.465339 -0.022376 -0.048803 2.000000
0.465339 -0.053050 -0.068692 2.000000
0.465339 -0.048241 -0.042149 2.000000
0.465339 0.008447 -0.024635 2.000000
0.465339 -0.055607 0.079776 2.000000
0.465339 -0.076235 -0.040747 2.000000
0.465339 0.023465 0.064644 2.000000
0.465339 0.039666 -0.062937 2.000000
0.465339 -0.083937 0.053940 2.000000
0.465339 0.064276 -0.052427 2.000000
0.465339 0.022185 0.019229 2.000000
0.465339 -0.043719 -0.036843 2.000000
0.465339 -0.088256 -0.002771 2.000000
0.465339 -0.030701 -0.039668 2.000000
0.465339 -0.008268 0.022473 2.000000
0.465339 0.022742 -0.079311 2.000000
0.465339 0.042697 0.070343 2.000000
0.465339 -0.030510 -0.068443 2.000000
0.465339 -0.002488 0.058759 2.000000
0.465339 -0.081731 0.008008 2.000000
0.465339 -0.034634 0.013777 2.000000
0.465339 0.002177 -0.076891 2.000000
0.465339 0.008127 -0.061931 2.000000
0.465339 -0.006616 0.082938 2.000000
0.465339 -0.016048 -0.032883 2.000000
0.465339 0.018264 0.049174 2.000000
0.465339 -0.038420 0.089592 2.000000
0.465339 0.014412 0.027391 2.000000
0.465339 0.019234 0.062121 2.000000
0.465339 -0.001376 0.084099 2.000000
0.465339 -0.000123 -0.086088 2.000000
0.465339 -0.018885 0.039338 2.000000
0.465339 0.088774 -0.027740 2.000000
0.465339 0.065280 -0.073573 2.000000
0.465339 -0.085704 0.026645 2.000000
0.465339 0.044702 -0.011084 2.000000
0.465339 -0.073595 0.003625 2.000000
0.465339 0.011573 -0.022023 2.000000
0.465339 0.084346 0.002076 2.000000
0.465339 -0.060048 0.037290 2.000000
0.465339 0.050451 0.005572 2.000000
0.465339 0.028657 0.001543 2.000000
0.465339 0.089247 0.044789 2.000000
0.465339 -0.020081 0.071334 2.000000
0.465339 -0.050687 0.056856 2.000000
0.465339 -0.088495 0.004978 2.000000
0.465339 -0.069775 0.029929 2.000000
0.465339 -0.027550 -0.056458 2.000000
0.465339 0.097944 0.004544 2.000000
0.465339 0.071548 -0.043958 2.000000
0.465339 -0.028907 -0.075130 2.000000
0.465339 0.004997 -0.063385 2.000000
0.465339 0.024365 0.096593 2.000000
0.465339 0.001948 -0.098475 2.000000
0.465339 0.036407 -0.035697 2.000000
0.465339 0.033032 -0.074574 2.000000
0.465339 0.099360 -0.007226 2.000000
0.465339 -0.020189 -0.052353 2.000000
0.465339 -0.075833 -0.038497 2.000000
0.465339 -0.044238 0.008088 2.000000
0.465339 0.039982 0.036741 2.000000
0.465339 -0.017720 -0.026763 2.000000
0.465339 -0.065308 0.044030 2.000000
0.465339 0.029978 0.022163 2.000000
0.465339 -0.071203 -0.063511 2.000000
0.465339 0.031520 0.060347 2.000000
0.465339 -0.002236 -0.022201 2.000000
0.465339 -0.086136 0.015924 2.000000
0.465339 -0.080130 0.006153 2.000000
0.465339 -0.016121 -0.067168 2.000000
0.465339 -0.068495 0.040646 2.000000
0.465339 -0.021140 0.046885 2.000000
0.465339 0.030204 0.078472 2.000000
0.465339 -0.045097 0.060909 2.000000
0.465339 0.033401 -0.000692 2.000000
0.465339 0.016410 0.027735 2.000000
0.465339 -0.037802 0.049444 2.000000
0.465339 -0.050386 -0.050515 2.000000
0.465339 0.026421 0.074055 2.000000
0.465339 -0.035848 -0.057748 2.000000
0.465339 0.076112 -0.015044 2.000000
0.465339 -0.051840 -0.084244 2.000000
0.465339 -0.077841 -0.030702 2.000000
0.465339 -0.039809 0.009380 2.000000
0.465339 0.066234 0.062381 2.000000
0.465339 0.039559 -0.007992 2.000000
0.465339 0.012213 0.039001 2.000000
0.465339 -0.034940 0.048125 2.000000
0.465339 0.023599 -0.020682 2.000000
0.465339 0.064562 0.029045 2.000000
0.465339 0.001070 0.026761 2.000000
0.465339 -0.017765 -0.068745 2.000000
0.465339 0.017075 0.098160 2.000000
0.465339 0.004815 -0.081782 2.000000
0.465339 -0.004099 -0.063012 2.000000
0.465339 0.027881 0.042862 2.000000
0.465339 -0.003907 -0.095352 2.000000
0.465339 -0.077300 0.062589 2.000000
0.465339 0.092657 0.014663 2.000000
0.465339 -0.023064 -0.068704 2.000000
0.465339 -0.064417 -0.058470 2.000000
0.465339 -0.067741 -0.006460 2.000000
0.465339 0.039576 -0.011703 2.000000
0.465339 0.068730 -0.009932 2.000000
0.465339 0.024919 -0.025666 2.000000
0.465339 -0.086998 0.021565 2.000000
0.465339 0.032455 -0.043680 2.000000
0.465339 0.072269 0.055102 2.000000
0.465339 0.012739 -0.038773 2.000000
0.465339 -0.038906 0.075924 2.000000
0.465339 -0.021524 -0.044006 2.000000
0.465339 -0.026762 -0.091724 2.000000
0.465339 0.051773 -0.017947 2.000000
0.465339 -0.006312 -0.037943 2.000000
0.465339 -0.023097 -0.043896 2.000000
0.465339 -0.048217 0.023418 2.000000
0.465339 0.024691 0.093713 2.000000
0.465339 -0.027236 0.024495 2.000000
0.465339 -0.053866 -0.042624 2.000000
0.465339 -0.050948 0.004985 2.000000
0.465339 0.002009 0.076405 2.000000
0.465339 0.032118 -0.037223 2.000000
0.465339 -0.021854 -0.094389 2.000000
0.465339 0.069952 0.059186 2.000000
0.465339 0.086738 0.008672 2.000000
0.465339 0.058081 -0.063295 2.000000
0.465339 0.072485 0.015104 2.000000
0.465339 0.012855 -0.047742 2.000000
0.465339 -0.005324 -0.084028 2.000000
0.465339 -0.053749 0.079550 2.000000
0.465339 0.084265 0.015339 2.000000
0.465339 -0.036551 0.043776 2.000000
0.465339 0.078116 0.047560 2.000000
0.465339 -0.070078 -0.008360 2.000000
0.465339 -0.014408 -0.003997 2.000000
0.465339 -0.039129 -0.078098 2.000000
0.465339 -0.076953 0.031996 2.000000
0.465339 -0.052052 -0.080783 2.000000
0.465339 -0.007661 0.042538 2.000000
0.465339 -0.011104 -0.048033 2.000000
0.465339 0.041591 0.001647 2.000000
0.465339 0.012375 -0.050565 2.000000
0.465339 0.065400 -0.069722 2.000000
0.465339 -0.088521 0.021595 2.000000
0.465339 -0.035606 -0.042701 2.000000
0.465339 0.063210 -0.026788 2.000000
0.465339 0.017736 -0.082597 2.000000
0.465339 0.020900 -0.044354 2.000000
0.465339 0.074787 -0.008171 2.000000
0.465339 0.010083 0.083283 2.000000
0.465339 -0.044967 0.003956 2.000000
0.465339 0.039445 0.010586 2.000000
0.465339 0.057441 0.076778 2.000000
0.465339 -0.049150 0.035363 2.000000
0.465339 -0.006983 0.052776 2.000000
0.465339 0.019461 -0.043590 2.000000
0.465339 0.010695 0.008089 2.000000
0.465339 0.068675 -0.062960 2.000000
0.465339 -0.088923 0.037690 2.000000
0.465339 0.035006 -0.089329 2.000000
0.465339 -0.080776 -0.013001 2.000000
0.465339 -0.095445 -0.015327 2.000000
0.465339 0.015563 0.040742 2.000000
0.465339 0.055976 -0.035121 2.000000
0.465339 0.007463 0.003999 2.000000
0.465339 0.004485 -0.058269 2.000000
0.465339 0.017413 0.089709 2.000000
0.465339 0.010518 0.028390 2.000000
0.465339 0.058551 -0.033125 2.000000
0.465339 0.010444 -0.029268 2.000000
0.465339 0.007934 0.097184 2.000000
0.465339 -0.036123 -0.064596 2.000000
0.465339 -0.011974 -0.026269 2.000000
0.465339 -0.021280 0.091938 2.000000
0.465339 0.075585 0.059354 2.000000
0.465339 -0.095953 0.012804 2.000000
0.465339 -0.006260 0.051340 2.000000
0.465339 0.000409 -0.041195 2.000000
0.465339 0.074663 0.035670 2.000000
0.465339 0.019127 -0.053492 2.000000
0.465339 -0.092914 0.015524 2.000000
0.465339 -0.070337 0.031507 2.000000
0.465339 0.029784 0.048376 2.000000
0.465339 -0.057753 0.037137 2.000000
0.465339 0.025885 0.026677 2.000000
0.465339 -0.077107 -0.062963 2.000000
0.465339 0.039830 -0.024794 2.000000
0.465339 0.075284 0.002253 2.000000
0.465339 -0.084973 -0.046495 2.000000
0.465339 -0.061642 0.056538 2.000000
0.465339 -0.091029 -0.039834 2.000000
0.465339 0.027710 0.009735 2.000000
0.465339 -0.059542 0.048520 2.000000
0.465339 0.080501 0.003460 2.000000
0.465339 0.075844 0.003831 2.000000
0.465339 -0.090064 -0.024940 2.000000
0.465339 -0.021490 0.093789 2.000000
0.465339 0.011096 0.073741 2.000000
0.465339 -0.006750 -0.050188 2.000000
0.465339 0.042229 -0.009839 2.000000
0.465339 0.045101 -0.087372 2.000000
0.465339 0.017752 -0.042453 2.000000
0.465339 0.090400 0.032722 2.000000
0.465339 -0.024176 -0.063148 2.000000
0.465339 0.064957 -0.027297 2.000000
0.465339 -0.079630 -0.019801 2.000000
0.465339 -0.097017 -0.000171 2.000000
0.465339 -0.001963 0.008534 2.000000
0.465339 -0.090662 -0.017296 2.000000
0.465339 0.043911 -0.039677 2.000000
0.465339 -0.031771 0.052850 2.000000
0.465339 -0.008304 0.068511 2.000000
0.465339 0.008294 0.080643 2.000000
0.465339 -0.078480 -0.049021 2.000000
0.465339 0.026144 0.063034 2.000000
0.465339 -0.014646 -0.066615 2.000000
0.465339 0.076049 -0.024442 2.000000
0.465339 0.091457 0.011944 2.000000
0.465339 0.012432 -0.077479 2.000000
0.465339 -0.074287 -0.051552 2.000000
0.465339 0.039746 0.028941 2.000000
0.465339 -0.043672 -0.005914 2.000000
0.465339 0.086978 -0.003829 2.000000
0.465339 0.063554 -0.008504 2.000000
0.465339 -0.047070 -0.018562 2.000000
0.465339 -0.001577 0.067833 2.000000
0.465339 -0.039240 -0.066861 2.000000
0.465339 -0.009617 -0.086750 2.000000
0.465339 -0.005943 0.045673 2.000000
0.465339 0.080401 -0.044706 2.000000
0.465339 0.033234 -0.019573 2.000000
0.465339 0.094827 -0.010216 2.000000
0.465339 0.057257 -0.079024 2.000000
0.465339 0.024533 0.087327 2.000000
0.465339 -0.025850 0.046710 2.000000
0.465339 -0.033219 0.065303 2.000000
0.465339 -0.091758 0.000143 2.000000
0.465339 0.052201 0.015073 2.000000
0.465339 -0.018953 0.014909 2.000000
0.465339 -0.012604 0.035560 2.000000
0.465339 0.011568 -0.013345 2.000000
0.465339 -0.078059 -0.014807 2.000000
0.465339 0.016664 0.077827 2.000000
0.465339 -0.061534 -0.062338 2.000000
0.465339 0.003255 0.038340 2.000000
0.465339 0.014328 -0.085383 2.000000
0.465339 0.013617 0.069066 2.000000
0.465339 -0.029870 0.041349 2.000000
0.465339 -0.034663 0.041308 2.000000
0.465339 -0.054647 0.013077 2.000000
0.465339 -0.096279 -0.004903 2.000000
0.465339 0.033984 -0.085937 2.000000
0.465339 0.094104 -0.000243 2.000000
0.465339 0.074364 -0.063517 2.000000
0.465339 -0.046591 -0.006717 2.000000
0.465339 0.028767 0.091666 2.000000
0.465339 0.007782 0.046036 2.000000
0.465339 0.049240 -0.055699 2.000000
0.465339 0.043664 0.072241 2.000000
0.465339 -0.075270 0.022053 2.000000
0.465339 0.039122 0.003271 2.000000
0.465339 -0.043203 0.074075 2.000000
0.465339 0.034656 -0.073326 2.000000
0.465339 0.041087 -0.052163 2.000000
0.465339 0.022636 0.066796 2.000000
0.465339 -0.043524 0.003721 2.000000
0.465339 -0.004511 0.065252 2.000000
0.465339 -0.038525 -0.076473 2.000000
0.465339 0.031654 -0.022690 2.000000
0.465339 -0.039402 0.013805 2.000000
0.465339 -0.081468 0.022830 2.000000
0.465339 -0.091222 0.036853 2.000000
0.465339 0.089580 0.022135 2.000000
0.465339 -0.027488 0.031338 2.000000
0.465339 -0.059391 0.022045 2.000000
0.465339 -0.004599 0.067054 2.000000
0.465339 -0.018409 -0.006673 2.000000
0.465339 0.056963 -0.065651 2.000000
0.465339 0.059190 -0.041926 2.000000
0.465339 0.044172 0.050103 2.000000
0.465339 0.045771 0.007791 2.000000
0.465339 -0.005334 0.090748 2.000000
0.465339 0.072718 -0.047136 2.000000
0.465339 -0.052455 -0.067484 2.000000
0.465339 0.099052 0.012564 2.000000
0.465339 0.058719 0.044035 2.000000
0.465339 -0.013549 -0.082528 2.000000
0.465339 -0.025306 0.014942 2.000000
0.465339 -0.018021 -0.064156 2.000000
0.465339 0.077636 0.054683 2.000000
0.465339 -0.028528 0.053477 2.000000
0.465339 -0.096194 0.017707 2.000000
0.465339 -0.003963 0.030802 2.000000
0.465339 -0.039414 0.051786 2.000000
0.465339 -0.041745 -0.027600 2.000000
0.465339 0.078559 -0.043141 2.000000
0.465339 -0.063164 0.023924 2.000000
0.465339 0.029436 0.067895 2.000000
0.465339 0.007664 0.087708 2.000000
0.465339 0.033524 0.055993 2.000000
0.465339 0.086618 0.040874 2.000000
0.465339 -0.014869 0.074864 2.000000
0.465339 -0.004334 -0.035229 2.000000
0.465339 -0.074259 -0.022086 2.000000
0.465339 -0.042399 -0.000127 2.000000
0.465339 0.044483 0.005333 2.000000
0.465339 -0.035758 -0.011296 2.000000
0.465339 0.030355 -0.037443 2.000000
0.465339 0.047412 0.007751 2.000000
0.465339 0.096981 0.001426 2.000000
0.465339 -0.047569 0.044083 2.000000
0.465339 0.023300 -0.024851 2.000000
0.465339 -0.071037 -0.039447 2.000000
0.465339 -0.007135 0.099708 2.000000
0.465339 0.016884 0.096253 2.000000
0.465339 -0.061561 0.028869 2.000000
0.465339 0.013782 -0.058217 2.000000
0.465339 -0.040330 0.076240 2.000000
0.465339 -0.089030 0.033632 2.000000
0.465339 -0.055704 0.058707 2.000000
0.465339 0.094621 0.022270 2.000000
0.465339 0.006959 0.062875 2.000000
0.465339 -0.090138 -0.029967 2.000000
0.465339 -0.000396 -0.094326 2.000000
0.465339 -0.002165 0.050250 2.000000
0.465339 -0.021198 0.005610 2.000000
0.465339 -0.020098 0.020706 2.000000
0.465339 0.065280 -0.038420 2.000000
0.465339 0.014920 -0.046935 2.000000
0.465339 -0.005952 -0.048451 2.000000
0.465339 0.009331 -0.031682 2.000000
0.465339 -0.014328 -0.000355 2.000000
0.465339 0.015167 0.063082 2.000000
0.465339 0.015899 0.029959 2.000000
0.465339 0.049476 0.015369 2.000000
0.465339 -0.085173 0.033022 2.000000
0.465339 0.034494 -0.059197 2.000000
0.465339 0.029449 -0.088367 2.000000
0.465339 0.010999 0.084434 2.000000
0.465339 -0.068917 -0.028005 2.000000
0.465339 0.054836 0.007268 2.000000
0.465339 -0.043950 0.083929 2.000000
0.465339 0.025639 0.037218 2.000000
0.465339 -0.016848 -0.041189 2.000000
0.465339 0.090351 0.003939 2.000000
0.465339 0.046718 0.060277 2.000000
0.465339 0.013282 0.058454 2.000000
0.465339 0.015154 0.044835 2.000000
0.465339 0.067021 -0.048989 2.000000
0.465339 0.085579 -0.002843 2.000000
0.465339 -0.059364 0.050201 2.000000
0.465339 -0.045923 -0.060948 2.000000
0.465339 -0.040124 -0.086481 2.000000
0.465339 0.092705 -0.026691 2.000000
0.465339 -0.026852 -0.032655 2.000000
0.465339 -0.044314 -0.086860 2.000000
0.465339 -0.013190 0.059233 2.000000
0.465339 0.067623 0.065344 2.000000
0.465339 -0.055743 0.075258 2.000000
0.465339 0.064619 0.011598 2.000000
0.465339 -0.084704 -0.004039 2.000000
0.465339 0.033253 -0.012084 2.000000
0.465339 0.085389 0.018754 2.000000
0.465339 0.062779 -0.030249 2.000000
0.465339 -0.043940 0.072540 2.000000
0.465339 -0.040662 0.014479 2.000000
0.465339 -0.042074 -0.045617 2.000000
0.465339 -0.013821 0.093331 2.000000
0.465339 -0.080974 -0.053383 2.000000
0.465339 0.002449 -0.044766 2.000000
0.465339 -0.013851 -0.035937 2.000000
0.465339 -0.062633 0.039513 2.000000
0.465339 -0.071172 0.039563 2.000000
0.465339 -0.067498 0.037019 2.000000
0.465339 -0.010860 0.012336 2.000000
0.465339 0.006154 0.059224 2.000000
0.465339 -0.001928 0.090082 2.000000
0.465339 -0.068413 0.023274 2.000000
0.465339 0.049437 -0.034192 2.000000
0.465339 0.042512 -0.063112 2.000000
0.465339 -0.018494 -0.065596 2.000000
0.465339 0.023583 -0.011022 2.000000
0.465339 -0.029035 0.024255 2.000000
0.465339 0.041825 0.074643 2.000000
0.465339 0.036426 -0.006183 2.000000
0.465339 0.017108 -0.053714 2.000000
0.465339 -0.049795 -0.003352 2.000000
0.465339 0.026078 -0.011385 2.000000
0.465339 -0.045839 0.064073 2.000000
0.465339 0.001750 0.011557 2.000000
0.465339 -0.066715 -0.004875 2.000000
0.465339 0.026770 0.090046 2.000000
0.465339 0.044150 -0.037729 2.000000
0.465339 0.090812 -0.006103 2.000000
0.465339 0.055017 -0.029227 2.000000
0.465339 -0.013704 -0.085669 2.000000
0.465339 -0.024683 0.056943 2.000000
0.465339 0.064721 0.062769 2.000000
0.465339 -0.065752 0.056181 2.000000
0.465339 -0.019986 -0.097595 2.000000
0.465339 -0.077036 0.039625 2.000000
0.465339 -0.034780 0.036310 2.000000
0.465339 -0.010407 0.080006 2.000000
0.465339 -0.000529 -0.054697 2.000000
0.465339 -0.068812 0.037498 2.000000
0.465339 0.067901 0.063809 2.000000
0.465339 0.048924 0.010734 2.000000
0.465339 -0.011713 0.044499 2.000000
0.465339 -0.053279 -0.027327 2.000000
0.465339 -0.038076 0.045179 2.000000
0.465339 0.062042 -0.060709 2.000000
0.465339 0.046134 0.010806 2.000000
0.465339 0.005537 -0.083209 2.000000
0.465339 0.044862 0.086291 2.000000
0.465339 -0.076960 0.002218 2.000000
0.465339 0.033244 0.025123 2.000000
0.465339 0.038230 -0.084107 2.000000
0.465339 0.042717 0.008663 2.000000
0.465339 -0.054735 -0.059882 2.000000
0.465339 -0.069381 -0.070861 2.000000
0.465339 -0.016459 -0.017223 2.000000
0.465339 -0.005662 0.002678 2.000000
0.465339 -0.082689 0.015087 2.000000
0.465339 -0.012975 -0.005633 2.000000
0.465339 -0.049664 -0.039836 2.000000
0.465339 -0.027654 -0.045614 2.000000
0.465339 0.012343 0.032001 2.000000
0.465339 -0.039207 -0.039218 2.000000
0.465339 -0.041980 -0.077711 2.000000
0.465339 -0.062861 0.011570 2.000000
0.465339 -0.053510 -0.081710 2.000000
0.465339 -0.014877 -0.011503 2.000000
0.465339 -0.008750 0.084753 2.000000
0.465339 -0.082145 0.046958 2.000000
0.465339 -0.065411 0.069004 2.000000
0.465339 0.076009 0.019035 2.000000
0.465339 0.074239 -0.002969 2.000000
0.465339 0.028267 -0.036015 2.000000
0.465339 0.014552 0.071193 2.000000
0.465339 -0.055542 -0.029266 2.000000
0.465339 -0.002868 0.028796 2.000000
0.465339 0.062559 0.037752 2.000000
0.465339 0.029765 -0.075235 2.000000
0.465339 -0.087464 -0.009762 2.000000
0.465339 0.017405 -0.060173 2.000000
0.465339 0.050146 0.079883 2.000000
0.465339 0.030592 0.095277 2.000000
0.465339 0.059976 -0.034218 2.000000
0.465339 -0.080374 0.016976 2.000000
0.465339 0.024088 0.014407 2.000000
0.465339 0.012144 0.095492 2.000000
0.465339 -0.066240 0.026598 2.000000
0.465339 -0.047353 -0.002892 2.000000
0.465339 0.045364 0.020466 2.000000
0.465339 -0.039449 0.047161 2.000000
0.465339 -0.061296 0.034489 2.000000
0.465339 -0.063640 -0.007098 2.000000
0.465339 -0.051287 0.006575 2.000000
0.465339 0.053496 -0.000602 2.000000
0.465339 -0.054444 -0.030170 2.000000
0.465339 -0.001887 0.053889 2.000000
0.465339 -0.011121 0.047067 2.000000
0.465339 -0.016921 -0.006772 2.000000
0.465339 0.004219 0.074495 2.000000
0.465339 0.038538 -0.073941 2.000000
0.465339 -0.027551 0.049407 2.000000
0.465339 0.074005 0.062287 2.000000
0.465339 -0.088156 0.010824 2.000000
0.465339 0.015031 -0.086726 2.000000
0.465339 0.049979 -0.030105 2.000000
0.465339 0.087691 -0.028697 2.000000
0.465339 0.053296 0.009644 2.000000
0.465339 0.021815 0.045799 2.000000
0.465339 -0.001493 -0.070138 2.000000
0.465339 -0.008729 0.017597 2.000000
0.465339 0.033574 0.028598 2.000000
0.465339 0.087857 0.040214 2.000000
0.465339 -0.057344 0.060972 2.000000
0.465339 0.011072 -0.035861 2.000000
0.465339 -0.016221 0.069640 2.000000
0.465339 -0.069392 -0.050859 2.000000
0.465339 0.084374 -0.049141 2.000000
0.465339 0.063451 -0.057707 2.000000
0.465339 0.077432 0.032954 2.000000
0.465339 -0.031738 -0.055012 2.000000
0.465339 -0.029434 0.071165 2.000000
0.465339 0.000139 0.023116 2.000000
0.465339 -0.081791 0.001899 2.000000
0.465339 -0.032177 -0.081405 2.000000
0.465339 -0.087870 -0.008372 2.000000
0.465339 -0.061785 0.001248 2.000000
0.465339 -0.001969 -0.049190 2.000000
0.465339 -0.049599 -0.042712 2.000000
0.465339 -0.008171 0.063599 2.000000
0.465339 0.006994 0.040800 2.000000
0.465339 0.084093 0.025447 2.000000
0.465339 -0.053406 0.063270 2.000000
0.465339 -0.029508 -0.044985 2.000000
0.465339 0.004650 0.079519 2.000000
0.465339 -0.062527 0.035222 2.000000
0.465339 0.052081 -0.044913 2.000000
0.465339 0.048963 -0.007110 2.000000
0.465339 0.047941 -0.070351 2.000000
0.465339 0.037179 -0.034428 2.000000
0.465339 0.084855 0.013787 2.000000
0.465339 -0.018065 -0.050937 2.000000
0.465339 -0.033186 0.017901 2.000000
0.465339 0.008358 0.064208 2.000000
0.465339 0.011528 -0.016236 2.000000
0.465339 -0.003991 0.043223 2.000000
0.465339 0.065777 0.005773 2.000000
0.465339 0.013154 0.093092 2.000000
0.465339 -0.085942 0.043510 2.000000
0.465339 -0.084765 -0.013009 2.000000
0.465339 -0.002834 0.073696 2.000000
0.465339 -0.072188 -0.055146 2.000000
0.465339 -0.052463 -0.061252 2.000000
0.465339 -0.071821 0.028408 2.000000
0.465339 -0.028301 -0.032161 2.000000
0.465339 -0.007216 0.075118 2.000000
0.465339 -0.077488 -0.060164 2.000000
0.465339 0.009498 0.050505 2.000000
0.465339 0.004112 -0.045092 2.000000
0.465339 0.001837 -0.055804 2.000000
0.465339 -0.073554 0.056745 2.000000
0.465339 -0.048448 0.007893 2.000000
0.465339 -0.054615 -0.063079 2.000000
0.465339 0.054694 0.028869 2.000000
0.465339 0.079443 0.054781 2.000000
0.465339 0.045329 -0.065245 2.000000
0.465339 -0.018918 0.008870 2.000000
0.465339 -0.065354 -0.050626 2.000000
0.465339 0.099122 -0.012577 2.000000
0.465339 0.043519 -0.018011 2.000000
0.465339 0.078619 -0.025648 2.000000
0.465339 -0.001023 0.093160 2.000000
0.465339 -0.055551 -0.030939 2.000000
0.465339 -0.094794 -0.021715 2.000000
0.465339 -0.036362 -0.028377 2.000000
0.465339 0.061687 -0.005681 2.000000
0.465339 0.067190 -0.050706 2.000000
0.465339 0.008601 0.095494 2.000000
0.465339 -0.002263 0.072253 2.000000
0.465339 -0.073751 -0.015483 2.000000
0.465339 0.009346 0.037078 2.000000
0.465339 0.037060 0.092282 2.000000
0.465339 0.045989 -0.057869 2.000000
0.465339 -0.010751 0.064968 2.000000
0.465339 -0.008833 0.087003 2.000000
0.465339 0.019619 -0.058050 2.000000
0.465339 0.063861 0.076763 2.000000
0.465339 0.013060 0.041819 2.000000
0.465339 -0.006230 -0.004578 2.000000
0.465339 0.011053 -0.001256 2.000000
0.465339 0.021905 0.079737 2.000000
0.465339 -0.056376 0.023939 2.000000
0.465339 -0.008909 -0.046618 2.000000
0.465339 -0.008804 -0.074673 2.000000
0.465339 0.011277 -0.011973 2.000000
0.465339 -0.031156 0.068682 2.000000
0.465339 -0.021903 -0.059537 2.000000
0.465339 0.030840 -0.050550 2.000000
0.465339 0.002949 0.007147 2.000000
0.465339 0.034631 0.021709 2.000000
0.465339 0.088179 -0.042958 2.000000
0.465339 -0.070636 -0.032814 2.000000
0.465339 0.005833 -0.018485 2.000000
0.465339 -0.051430 0.071683 2.000000
0.465339 -0.058090 -0.007191 2.000000
0.465339 0.020752 0.066424 2.000000
0.465339 -0.018338 0.090619 2.000000
0.465339 0.050837 0.031390 2.000000
0.465339 0.046218 0.015609 2.000000
0.465339 0.020286 0.040478 2.000000
0.465339 -0.094605 0.004546 2.000000
0.465339 -0.062916 -0.021616 2.000000
0.465339 -0.048820 0.060592 2.000000
0.465339 0.017793 0.020633 2.000000
0.465339 -0.005753 0.039417 2.000000
0.465339 -0.021232 0.077629 2.000000
0.465339 0.066775 -0.016391 2.000000
0.465339 -0.037494 0.018882 2.000000
0.465339 0.028302 0.047547 2.000000
0.465339 -0.078621 0.002718 2.000000
0.465339 0.017751 -0.043921 2.000000
0.465339 -0.099585 -0.002225 2.000000
0.465339 0.038979 0.076841 2.000000
0.465339 -0.015862 0.029994 2.000000
0.465339 -0.058974 0.012079 2.000000
0.465339 0.072450 -0.009785 2.000000
0.465339 -0.058129 -0.017682 2.000000
0.465339 0.073640 0.057100 2.000000
0.465339 -0.090361 -0.037413 2.000000
0.465339 0.083527 0.003666 2.000000
0.465339 -0.064199 0.020919 2.000000
0.465339 0.085013 0.027113 2.000000
0.465339 -0.007115 0.085320 2.000000
0.465339 -0.022468 -0.088052 2.000000
0.465339 0.056665 0.067706 2.000000
0.465339 0.015908 -0.091425 2.000000
0.465339 -0.007050 0.091379 2.000000
0.465339 0.002725 0.060110 2.000000
0.465339 0.059749 -0.079889 2.000000
0.465339 0.041889 -0.061103 2.000000
0.465339 0.036047 0.086757 2.000000
0.465339 0.057748 -0.056527 2.000000
0.465339 -0.046785 -0.004528 2.000000
0.465339 0.021316 -0.057733 2.000000
0.465339 0.064144 -0.047749 2.000000
0.465339 -0.002090 0.010155 2.000000
0.465339 0.082422 -0.054404 2.000000
0.465339 0.044726 -0.042210 2.000000
0.465339 -0.004926 -0.066241 2.000000
0.465339 0.013805 -0.017996 2.000000
0.465339 0.078060 -0.009018 2.000000
0.465339 0.027342 0.088329 2.000000
0.465339 0.004397 0.094373 2.000000
0.465339 0.037673 -0.011974 2.000000
0.465339 0.030179 -0.063625 2.000000
0.465339 0.016296 -0.093314 2.000000
0.465339 0.054639 -0.036494 2.000000
0.465339 -0.018041 0.022129 2.000000
0.465339 -0.073457 -0.055808 2.000000
0.465339 0.017997 -0.087062 2.000000
0.465339 -0.098820 0.011652 2.000000
0.465339 0.077647 0.007395 2.000000
0.465339 0.040702 -0.008863 2.000000
0.465339 0.040489 0.018481 2.000000
0.465339 0.089870 -0.005019 2.000000
0.465339 0.078969 0.011724 2.000000
0.465339 0.046426 -0.070745 2.000000
0.465339 -0.005633 0.005366 2.000000
0.465339 -0.040527 0.086425 2.000000
0.465339 -0.097939 -0.002058 2.000000
0.465339 0.055489 0.021906 2.000000
0.465339 -0.020281 -0.027474 2.000000
0.465339 -0.011244 0.031155 2.000000
0.465339 0.028992 0.025360 2.000000
0.465339 -0.078482 -0.017012 2.000000
0.465339 0.092398 -0.014110 2.000000
0.465339 -0.008395 -0.062872 2.000000
0.465339 0.067069 0.043318 2.000000
0.465339 0.038005 -0.082310 2.000000
0.465339 0.009517 0.045732 2.000000
0.465339 0.072204 0.066287 2.000000
0.465339 -0.009563 0.051473 2.000000
0.465339 -0.069307 -0.061142 2.000000
0.465339 -0.028703 0.093597 2.000000
0.465339 0.048091 -0.046673 2.000000
0.465339 0.086845 -0.037299 2.000000
0.465339 0.000178 -0.074157 2.000000
0.465339 -0.001599 -0.013930 2.000000
0.465339 -0.004829 -0.049597 2.000000
0.465339 0.071390 -0.026677 2.000000
0.465339 0.038092 -0.014212 2.000000
0.465339 -0.030293 -0.000276 2.000000
0.465339 0.033483 -0.060749 2.000000
0.465339 -0.026367 0.084269 2.000000
0.465339 0.036268 0.044431 2.000000
0.465339 0.059669 0.000588 2.000000
0.465339 0.061384 -0.046866 2.000000
0.465339 0.048110 -0.060100 2.000000
0.465339 -0.014556 0.003600 2.000000
0.465339 0.035390 0.082262 2.000000
0.465339 0.074320 0.007724 2.000000
0.465339 0.085136 0.034920 2.000000
0.465339 0.015920 0.069295 2.000000
0.465339 0.046862 0.019258 2.000000
0.465339 0.067335 0.050292 2.000000
0.465339 0.063659 -0.036708 2.000000
0.465339 -0.013263 -0.084052 2.000000
0.465339 0.003956 -0.075642 2.000000
0.465339 0.042575 0.010376 2.000000
0.465339 -0.052278 -0.036488 2.000000
0.465339 -0.036943 -0.021508 2.000000
0.465339 0.092074 -0.011597 2.000000
0.465339 -0.037815 -0.059687 2.000000
0.465339 0.013753 -0.026666 2.000000
0.465339 -0.044427 -0.071657 2.000000
0.465339 -0.043755 -0.049056 2.000000
0.465339 -0.024357 0.002316 2.000000
0.465339 0.086562 0.019394 2.000000
0.465339 0.084462 -0.025218 2.000000
0.465339 -0.014265 0.067358 2.000000
0.465339 0.014905 -0.092752 2.000000
0.465339 -0.005749 0.086296 2.000000
0.465339 0.036689 0.060854 2.000000
0.465339 0.002263 0.013134 2.000000
0.465339 0.040334 -0.010424 2.000000
0.465339 0.045567 -0.076495 2.000000
0.465339 0.077720 0.030958 2.000000
0.465339 0.078539 -0.055232 2.000000
0.465339 0.044368 0.023558 2.000000
0.465339 -0.016802 0.020055 2.000000
0.465339 -0.084108 0.031705 2.000000
0.465339 0.074077 0.066470 2.000000
0.465339 -0.071584 -0.041059 2.000000
0.465339 -0.031984 -0.011615 2.000000
0.465339 0.073532 0.054165 2.000000
0.465339 -0.020353 -0.070142 2.000000
0.465339 -0.073203 -0.003733 2.000000
0.465339 0.039580 0.006069 2.000000
0.465339 0.028022 0.013117 2.000000
0.465339 0.068842 -0.042959 2.000000
0.465339 -0.083160 0.048118 2.000000
0.465339 0.021413 0.082845 2.000000
0.465339 0.066124 -0.002377 2.000000
0.465339 0.066299 -0.057323 2.000000
0.465339 0.011548 0.061374 2.000000
0.465339 0.030249 0.003575 2.000000
0.465339 -0.041874 -0.072160 2.000000
0.465339 0.077856 0.005419 2.000000
0.465339 -0.014992 0.043632 2.000000
0.465339 0.027640 0.079861 2.000000
0.465339 0.026239 -0.047929 2.000000
0.465339 -0.039993 -0.054552 2.000000
0.465339 -0.021045 -0.040510 2.000000
0.465339 -0.052795 0.038870 2.000000
0.465339 0.002931 0.096240 2.000000
0.465339 -0.022054 0.051558 2.000000
0.465339 -0.002593 -0.076308 2.000000
0.465339 -0.046670 -0.042008 2.000000
0.465339 -0.095925 -0.002727 2.000000
0.465339 -0.058760 0.004897 2.000000
0.465339 0.081044 0.040969 2.000000
0.465339 0.011468 0.041492 2.000000
0.465339 0.060302 0.043796 2.000000
0.465339 0.067073 -0.065144 2.000000
0.465339 -0.079548 -0.026032 2.000000
0.465339 -0.051510 -0.082812 2.000000
0.465339 0.084262 -0.033825 2.000000
0.465339 -0.026858 0.087456 2.000000
0.465339 -0.055516 -0.061196 2.000000
0.465339 0.067670 0.012106 2.000000
0.465339 -0.057620 -0.042754 2.000000
0.465339 0.083341 0.022250 2.000000
0.465339 0.035406 0.032673 2.000000
0.465339 -0.034270 0.012001 2.000000
0.465339 0.040964 0.025007 2.000000
0.465339 0.043679 -0.074397 2.000000
0.465339 -0.071004 0.021607 2.000000
0.465339 0.012439 0.053073 2.000000
0.465339 0.011356 0.047921 2.000000
0.465339 -0.054231 0.021164 2.000000
0.465339 0.058425 0.045660 2.000000
0.465339 -0.008597 0.059484 2.000000
0.465339 0.048187 -0.027841 2.000000
0.465339 0.034917 -0.051375 2.000000
0.465339 -0.056511 0.017222 2.000000
0.465339 -0.036128 -0.036724 2.000000
0.465339 0.055160 0.032244 2.000000
0.465339 0.088498 0.043515 2.000000
0.465339 -0.013557 0.021908 2.000000
0.465339 0.073396 -0.001525 2.000000
0.465339 0.049095 -0.010173 2.000000
0.465339 0.006365 -0.021116 2.000000
0.465339 0.035318 -0.065364 2.000000
0.465339 -0.062203 0.013289 2.000000
0.465339 0.070258 -0.051185 2.000000
0.465339 -0.030449 0.011435 2.000000
0.465339 0.072673 0.050808 2.000000
0.465339 -0.068461 0.055752 2.000000
0.465339 -0.007866 0.050624 2.000000
0.465339 0.046264 -0.011054 2.000000
0.465339 0.072434 0.059591 2.000000
0.465339 0.034553 -0.082893 2.000000
0.465339 -0.043005 0.081367 2.000000
0.465339 0.037959 0.086494 2.000000
0.465339 0.064847 -0.017281 2.000000
0.465339 -0.041299 0.057931 2.000000
0.465339 -0.002523 0.070562 2.000000
0.465339 0.044302 0.010552 2.000000
0.465339 0.083428 -0.050330 2.000000
0.465339 0.050959 0.072576 2.000000
0.465339 0.032096 0.066485 2.000000
0.465339 -0.033380 0.082849 2.000000
0.465339 -0.015752 0.001822 2.000000
0.465339 0.068491 -0.017876 2.000000
0.465339 0.018828 0.027239 2.000000
0.465339 0.054220 -0.058146 2.000000
0.465339 -0.027562 -0.003124 2.000000
0.465339 0.030636 0.023603 2.000000
0.465339 -0.025610 -0.004540 2.000000
0.465339 0.081963 -0.046842 2.000000
0.465339 0.034664 -0.063257 2.000000
0.465339 -0.019755 0.005934 2.000000
0.465339 0.080315 -0.025572 2.000000
0.465339 0.068519 -0.020625 2.000000
0.465339 0.023562 0.095446 2.000000
0.465339 0.077048 -0.026064 2.000000
0.465339 -0.040629 -0.042259 2.000000
0.465339 -0.034797 -0.087686 2.000000
0.465339 0.032926 0.006074 2.000000
0.465339 0.094584 -0.031855 2.000000
0.465339 -0.008079 0.093586 2.000000
0.465339 -0.027634 -0.000065 2.000000
0.465339 0.086266 0.017437 2.000000
0.465339 0.020689 0.000138 2.000000
0.465339 0.057945 0.048494 2.000000
0.465339 0.071830 -0.012509 2.000000
0.465339 -0.086908 -0.005890 2.000000
0.465339 0.016335 -0.074589 2.000000
0.465339 0.087374 0.030889 2.000000
0.465339 0.007045 -0.012505 2.000000
0.465339 -0.014725 -0.014682 2.000000
0.465339 -0.070427 -0.062362 2.000000
0.465339 0.004437 -0.014794 2.000000
0.465339 0.027357 0.027537 2.000000
0.465339 -0.052470 0.036231 2.000000
0.465339 -0.002444 -0.016503 2.000000
0.465339 0.021973 -0.069114 2.000000
0.465339 0.085623 0.042018 2.000000
0.465339 -0.084504 0.024368 2.000000
0.465339 -0.055906 -0.035599 2.000000
0.465339 -0.078286 0.038195 2.000000
0.465339 -0.036303 -0.010010 2.000000
0.465339 -0.023012 0.093248 2.000000
0.465339 0.071652 0.056478 2.000000
0.465339 0.033240 -0.031370 2.000000
0.465339 -0.064862 0.074738 2.000000
0.465339 -0.011783 -0.016840 2.000000
0.465339 -0.003222 0.021296 2.000000
0.465339 0.064522 0.006560 2.000000
0.465339 -0.030657 -0.009011 2.000000
0.465339 0.024695 0.002919 2.000000
0.465339 0.060609 -0.015182 2.000000
0.465339 -0.024158 -0.081076 2.000000
0.465339 -0.018123 0.050369 2.000000
0.465339 -0.062667 -0.024882 2.000000
0.465339 -0.078914 -0.033997 2.000000
0.465339 0.058087 0.007309 2.000000
0.465339 0.091811 0.013319 2.000000
0.465339 0.060867 0.074253 2.000000
0.465339 0.044357 -0.079854 2.000000
0.465339 -0.024902 0.089775 2.000000
0.465339 -0.067751 -0.071768 2.000000
0.465339 -0.018924 0.036609 2.000000
0.465339 0.037982 0.061698 2.000000
0.465339 0.051434 -0.009176 2.000000
0.465339 -0.086158 -0.011254 2.000000
0.465339 0.037571 0.010532 2.000000
0.465339 -0.074661 0.057921 2.000000
0.465339 -0.036724 0.062774 2.000000
0.465339 0.076026 0.055407 2.000000
0.465339 0.064222 -0.028621 2.000000
0.465339 0.099317 -0.000698 2.000000
0.465339 -0.074468 0.014025 2.000000
0.465339 -0.060034 0.011029 2.000000
0.465339 0.039971 -0.035010 2.000000
0.465339 -0.023708 -0.004991 2.000000
0.465339 0.074354 -0.034379 2.000000
0.465339 0.044476 0.019221 2.000000
0.465339 -0.067801 -0.046671 2.000000
0.465339 -0.018995 0.065273 2.000000
0.465339 0.043074 -0.045326 2.000000
0.465339 0.011960 -0.075729 2.000000
0.465339 0.019643 -0.090408 2.000000
0.465339 -0.058087 0.059407 2.000000
0.465339 -0.010682 -0.097404 2.000000
0.465339 -0.001604 0.040308 2.000000
0.465339 -0.057775 -0.074077 2.000000
0.465339 -0.088851 0.030279 2.000000
0.465339 0.051645 -0.065096 2.000000
0.465339 -0.038175 -0.087659 2.000000
0.465339 0.074492 -0.040742 2.000000
0.465339 -0.046856 -0.040487 2.000000
0.465339 0.014184 0.046484 2.000000
0.465339 0.089746 0.026750 2.000000
0.465339 -0.014249 -0.073385 2.000000
0.465339 -0.015012 0.094372 2.000000
0.465339 -0.085886 0.020512 2.000000
0.465339 0.025147 -0.019059 2.000000
0.465339 0.006977 -0.071674 2.000000
0.465339 0.004630 0.050776 2.000000
0.465339 0.004878 0.071722 2.000000
0.465339 -0.077863 -0.052246 2.000000
0.465339 0.003929 -0.034985 2.000000
0.465339 -0.030945 -0.043862 2.000000
0.465339 0.060363 0.016447 2.000000
0.465339 -0.081930 -0.000441 2.000000
0.465339 -0.021846 -0.081798 2.000000
0.465339 -0.080612 0.045518 2.000000
0.465339 0.013225 0.056887 2.000000
0.465339 -0.073834 0.052543 2.000000
0.465339 0.036331 -0.066854 2.000000
0.465339 0.025349 0.095224 2.000000
0.465339 -0.056611 -0.043876 2.000000
0.465339 -0.011901 0.017210 2.000000
0.465339 0.094541 -0.018302 2.000000
0.465339 -0.083030 0.017760 2.000000
0.465339 0.051466 -0.028215 2.000000
0.465339 -0.075816 0.036160 2.000000
0.465339 -0.005458 0.099754 2.000000
0.465339 0.061626 -0.010637 2.000000
0.465339 -0.077323 -0.004812 2.000000
0.465339 0.051268 -0.034630 2.000000
0.465339 -0.015178 0.026524 2.000000
0.465339 0.070866 -0.061166 2.000000
0.465339 -0.066701 -0.035116 2.000000
0.465339 0.073167 0.036359 2.000000
0.465339 -0.027152 -0.012216 2.000000
0.465339 0.066411 0.035040 2.000000
0.465339 0.032954 0.023716 2.000000
0.465339 -0.016383 -0.078113 2.000000
0.465339 -0.028032 -0.023811 2.000000
0.465339 -0.053974 0.050768 2.000000
0.465339 0.015831 -0.059527 2.000000
0.465339 0.023877 0.022791 2.000000
0.465339 -0.073360 -0.054150 2.000000
0.465339 -0.014484 0.038510 2.000000
0.465339 -0.021158 0.074443 2.000000
0.465339 0.047463 -0.013875 2.000000
0.465339 -0.033190 0.001473 2.000000
0.465339 0.013492 -0.036607 2.000000
0.465339 -0.026919 -0.069656 2.000000
0.465339 -0.087256 -0.012190 2.000000
0.465339 0.058870 -0.057756 2.000000
0.465339 0.077431 -0.045032 2.000000
0.465339 0.002427 0.049130 2.000000
0.465339 0.072311 -0.025041 2.000000
0.465339 0.041075 -0.022858 2.000000
0.465339 -0.004560 0.006772 2.000000
0.465339 -0.050993 -0.048081 2.000000
0.465339 -0.028668 -0.084854 2.000000
0.465339 0.047564 0.035810 2.000000
0.465339 0.075695 -0.047674 2.000000
0.465339 0.022421 -0.033496 2.000000
0.465339 -0.008626 0.020515 2.000000
0.465339 0.025326 0.085955 2.000000
0.465339 0.047405 -0.066103 2.000000
0.465339 0.053046 0.016213 2.000000
0.465339 -0.000387 0.091322 2.000000
0.465339 0.064493 -0.055034 2.000000
0.465339 0.059812 -0.044248 2.000000
0.465339 0.000707 -0.013971 2.000000
0.465339 0.076145 -0.059388 2.000000
0.465339 -0.008980 -0.064343 2.000000
0.465339 -0.061847 -0.036519 2.000000
0.465339 -0.007665 -0.017454 2.000000
0.465339 0.063887 0.068788 2.000000
0.465339 0.058075 -0.030574 2.000000
0.465339 -0.053874 -0.028651 2.000000
0.465339 0.043493 -0.064130 2.000000
0.465339 -0.059180 0.052320 2.000000
0.465339 0.053698 0.027564 2.000000
0.465339 -0.005383 0.034949 2.000000
0.465339 -0.045325 0.043722 2.000000
0.465339 0.036243 -0.058101 2.000000
0.465339 0.016063 0.010483 2.000000
0.465339 -0.097336 -0.007277 2.000000
0.465339 -0.005532 -0.012268 2.000000
0.465339 0.086283 -0.029708 2.000000
0.465339 -0.050040 -0.063429 2.000000
0.465339 0.052879 -0.073144 2.000000
0.465339 -0.013476 0.090651 2.000000
0.465339 0.008676 0.075236 2.000000
0.465339 0.067501 -0.061299 2.000000
0.465339 -0.078055 -0.035231 2.000000
0.465339 0.014499 -0.050449 2.000000
0.465339 0.072313 -0.057994 2.000000
0.465339 -0.078769 0.050318 2.000000
0.465339 0.028241 0.085355 2.000000
0.465339 -0.076390 0.045095 2.000000
0.465339 -0.006422 -0.020177 2.000000
0.465339 -0.061084 0.076485 2.000000
0.465339 -0.089234 -0.018707 2.000000
0.465339 -0.020980 -0.033883 2.000000
0.465339 -0.056353 -0.073735 2.000000
0.465339 0.064902 0.050817 2.000000
0.465339 0.087702 0.017971 2.000000
0.465339 0.000141 -0.030442 2.000000
0.465339 -0.072648 0.000956 2.000000
0.465339 -0.097672 0.017948 2.000000
0.465339 0.030343 -0.078017 2.000000
0.465339 0.067592 0.006592 2.000000
0.465339 0.073640 -0.038179 2.000000
0.465339 -0.007515 -0.033709 2.000000
0.465339 -0.087066 0.024845 2.000000
0.465339 0.059471 -0.010122 2.000000
0.465339 -0.063782 0.036232 2.000000
0.465339 0.058272 0.079545 2.000000
0.465339 0.018958 0.094145 2.000000
0.465339 -0.077756 -0.028420 2.000000
0.465339 0.054228 0.011089 2.000000
0.465339 0.049085 0.028315 2.000000
0.465339 0.003046 -0.095798 2.000000
0.465339 -0.006799 -0.068703 2.000000
0.465339 -0.031432 -0.066893 2.000000
0.465339 0.053261 -0.034842 2.000000
0.465339 -0.033036 -0.028994 2.000000
0.465339 -0.042819 -0.043234 2.000000
0.465339 -0.034759 -0.010222 2.000000
0.465339 -0.004576 0.041856 2.000000
0.465339 -0.068027 0.005497 2.000000
0.465339 -0.075019 0.016200 2.000000
0.465339 -0.054360 -0.055500 2.000000
0.465339 -0.013188 -0.017851 2.000000
0.465339 -0.034344 -0.064713 2.000000
0.465339 -0.022145 -0.096737 2.000000
0.465339 -0.042879 0.010523 2.000000
0.465339 0.019963 -0.028368 2.000000
0.465339 -0.057449 0.022553 2.000000
0.465339 -0.017985 -0.015832 2.000000
0.465339 -0.009087 -0.094534 2.000000
0.465339 -0.016159 0.082838 2.000000
0.465339 -0.021590 -0.030373 2.000000
0.465339 0.008579 -0.026849 2.000000
0.465339 0.082922 -0.015415 2.000000
0.465339 0.005797 0.009632 2.000000
0.465339 -0.092629 0.036880 2.000000
0.465339 -0.068481 0.015278 2.000000
0.465339 -0.041339 -0.005178 2.000000
0.465339 0.082309 -0.040460 2.000000
0.465339 0.049663 0.026423 2.000000
0.465339 -0.027080 0.032775 2.000000
0.465339 0.028031 -0.092430 2.000000
0.465339 -0.066994 0.014150 2.000000
0.465339 0.025251 0.050105 2.000000
0.465339 0.069489 0.063626 2.000000
0.465339 0.046631 -0.046508 2.000000
0.465339 -0.053459 -0.024770 2.000000
0.465339 -0.077623 0.046999 2.000000
0.465339 -0.023065 -0.057296 2.000000
0.465339 -0.022095 0.080911 2.000000
0.465339 -0.045483 0.033955 2.000000
0.465339 -0.004269 -0.036633 2.000000
0.465339 0.046753 -0.037487 2.000000
0.465339 -0.063158 0.056516 2.000000
0.465339 0.065634 -0.047856 2.000000
0.465339 0.090562 -0.013658 2.000000
0.465339 -0.009351 0.081241 2.000000
0.465339 0.047337 0.087874 2.000000
0.465339 -0.029203 -0.023024 2.000000
0.465339 0.039650 -0.022986 2.000000
0.465339 -0.063805 -0.049428 2.000000
0.465339 0.050392 0.049806 2.000000
0.465339 0.037499 -0.052432 2.000000
0.465339 -0.033004 -0.056084 2.000000
0.465339 -0.042698 0.031166 2.000000
0.465339 -0.024482 0.047858 2.000000
0.465339 -0.016395 -0.014999 2.000000
0.465339 0.022437 0.081385 2.000000
