0.219770 -0.099768 0.000293 1.000000
-0.318311 -0.077010 0.063644 1.000000
0.402052 0.016556 -0.098299 1.000000
0.316178 -0.045404 0.089040 1.000000
0.339260 0.011883 -0.098991 1.000000
-0.395569 -0.092203 -0.037872 1.000000
0.410158 -0.081996 0.056980 1.000000
-0.298601 0.083944 0.054458 1.000000
0.104713 0.034219 -0.093654 1.000000
0.457224 -0.097728 -0.019764 2.000000
-0.033829 0.099118 0.013331 1.000000
0.018386 0.064495 0.076523 1.000000
-0.268733 0.066850 -0.074085 1.000000
0.016794 -0.014494 -0.098588 1.000000
-0.173952 0.099909 -0.002866 1.000000
0.010676 -0.080219 0.059508 1.000000
-0.042079 -0.013114 0.099170 1.000000
-0.063024 0.091989 0.039268 1.000000
-0.327848 -0.037703 -0.092239 1.000000
-0.240478 0.099961 -0.001227 1.000000
-0.179730 0.057318 -0.081658 1.000000
-0.030390 0.098179 -0.018792 1.000000
0.260666 0.065201 0.075901 1.000000
-0.367973 0.002820 0.099985 1.000000
-0.238621 0.099782 0.006726 1.000000
0.038567 -0.009295 -0.099213 1.000000
0.296618 -0.090747 -0.041236 1.000000
0.032080 -0.027151 -0.095864 1.000000
-0.137388 0.098459 0.017493 1.000000
0.121224 0.095407 0.030047 1.000000
0.124965 -0.099362 -0.008338 1.000000
-0.351660 -0.005165 0.099904 1.000000
0.188024 0.054995 0.083599 1.000000
-0.430068 -0.078472 -0.061397 3.000000
-0.215414 0.070648 0.070844 1.000000
-0.081439 0.034275 0.093996 1.000000
-0.174338 0.021763 0.097646 1.000000
-0.209554 -0.000434 0.100053 1.000000
-0.450710 -0.025389 0.096739 3.000000
0.245561 0.026136 0.096589 1.000000
-0.291481 -0.089847 -0.043171 1.000000
-0.036970 0.055721 0.083106 1.000000
-0.256860 0.099459 0.010143 1.000000
0.405334 -0.064894 0.075966 1.000000
-0.259526 -0.030435 -0.094910 1.000000
0.031979 0.073342 -0.067732 1.000000
-0.108642 -0.099731 0.001482 1.000000
-0.422816 -0.098481 0.015876 1.000000
-0.048459 0.076719 0.064265 1.000000
0.339996 -0.045067 0.089211 1.000000
-0.380740 0.097720 -0.020846 1.000000
-0.021255 0.015999 -0.098387 1.000000
-0.052708 0.090023 0.043646 1.000000
-0.090103 -0.093610 -0.034221 1.000000
0.243915 -0.036389 -0.092788 1.000000
0.328264 0.099542 0.009272 1.000000
-0.311252 -0.038625 0.092203 1.000000
0.316624 -0.053488 -0.084102 1.000000
-0.274435 -0.034286 -0.093546 1.000000
-0.047742 -0.008541 -0.099285 1.000000
-0.279335 -0.084944 0.052483 1.000000
-0.132291 -0.012756 0.099226 1.000000
-0.396707 0.099005 0.014041 1.000000
0.451489 0.096107 0.027640 2.000000
0.439923 -0.095682 0.028299 2.000000
0.084551 -0.049387 0.086897 1.000000
0.453496 0.070910 0.070582 2.000000
0.129350 0.016597 0.098655 1.000000
0.007621 0.099919 0.002921 1.000000
0.126625 0.063909 0.077040 1.000000
0.099877 -0.089548 0.044120 1.000000
-0.275379 0.099353 -0.010906 1.000000
0.078978 -0.029543 -0.095169 1.000000
0.139758 -0.047470 0.087987 1.000000
0.021016 -0.035179 -0.093224 1.000000
0.324854 0.015764 0.098787 1.000000
0.200580 0.003205 0.099973 1.000000
0.017717 -0.064384 -0.076053 1.000000
-0.461681 -0.084156 -0.053439 3.000000
0.324973 -0.087520 0.048099 1.000000
0.085574 -0.029640 -0.095141 1.000000
0.051261 0.063687 -0.076863 1.000000
-0.454905 0.014361 -0.098646 3.000000
0.452423 0.031034 0.095163 2.000000
0.063811 -0.007683 0.099729 1.000000
0.208604 -0.067362 -0.073427 1.000000
-0.466751 -0.047781 0.087829 3.000000
-0.291446 -0.065674 -0.074916 1.000000
0.275859 -0.032678 0.094487 1.000000
-0.383622 0.016454 0.098678 1.000000
0.110753 -0.026670 -0.096004 1.000000
0.360823 -0.072804 0.068441 1.000000
-0.377094 0.066665 0.074610 1.000000
0.120265 0.081798 0.057615 1.000000
-0.051424 0.030474 0.095329 1.000000
0.027688 0.012493 -0.098933 1.000000
0.368346 0.091494 0.040412 1.000000
0.010027 0.097831 -0.020349 1.000000
-0.083683 0.032996 -0.094094 1.000000
-0.280713 -0.051609 0.085583 1.000000
-0.073079 -0.040715 0.091298 1.000000
-0.207352 -0.087891 0.047371 1.000000
-0.170388 -0.000603 0.100047 1.000000
0.053349 -0.097500 0.021146 1.000000
0.078659 -0.058442 0.081098 1.000000
0.274382 -0.060436 0.079566 1.000000
-0.077166 -0.073971 -0.066755 1.000000
0.413676 0.098484 0.017335 1.000000
-0.146177 0.098399 -0.017505 1.000000
-0.401344 -0.099578 0.006342 1.000000
0.059521 0.095995 -0.027661 1.000000
-0.390583 -0.083547 -0.054335 1.000000
0.419818 0.055607 -0.082820 1.000000
0.107109 0.063749 0.077177 1.000000
-0.349008 0.099779 0.006759 1.000000
-0.051890 0.063643 0.077260 1.000000
-0.344618 -0.064961 0.075907 1.000000
-0.202197 0.076198 -0.064493 1.000000
-0.124764 0.064415 0.076594 1.000000
-0.031215 0.068757 0.072735 1.000000
-0.436757 -0.089726 0.043770 3.000000
-0.264287 -0.009052 -0.099236 1.000000
0.420265 0.088419 0.046794 1.000000
0.426865 -0.031756 0.094819 2.000000
-0.337992 0.096122 0.027587 1.000000
-0.075587 0.075092 -0.065748 1.000000
-0.057749 -0.044320 0.089592 1.000000
-0.103390 -0.070645 -0.070251 1.000000
0.254278 0.002702 -0.099626 1.000000
0.060962 0.099941 0.002212 1.000000
-0.299628 0.086036 -0.050669 1.000000
-0.218063 -0.091539 0.039769 1.000000
-0.170232 0.050309 -0.086127 1.000000
0.089188 -0.016111 0.098695 1.000000
-0.184383 -0.097501 0.021142 1.000000
0.038906 -0.027179 0.096219 1.000000
0.299461 -0.097451 0.021365 1.000000
-0.163103 -0.061044 -0.078731 1.000000
0.068326 0.050108 0.086609 1.000000
0.212255 -0.023335 -0.096880 1.000000
0.150177 0.090534 -0.042268 1.000000
-0.015268 0.062612 -0.077697 1.000000
-0.138682 -0.086538 -0.049426 1.000000
-0.150408 0.055016 -0.083222 1.000000
-0.178938 -0.097051 -0.022794 1.000000
-0.263295 0.092151 0.038893 1.000000
-0.157330 -0.005706 -0.099524 1.000000
-0.010778 0.074297 -0.066649 1.000000
0.155734 -0.067312 -0.073472 1.000000
-0.101556 0.093786 0.034744 1.000000
0.412738 0.005367 0.099905 1.000000
-0.089522 0.094620 0.032428 1.000000
-0.024020 -0.077026 -0.063262 1.000000
0.372777 -0.000969 0.100036 1.000000
-0.035922 -0.095510 -0.028527 1.000000
-0.354243 -0.086933 0.049121 1.000000
-0.205987 -0.082356 -0.056088 1.000000
0.189990 -0.060544 -0.079120 1.000000
-0.230791 0.078848 0.061576 1.000000
0.457674 0.086961 0.049468 2.000000
-0.130636 0.041763 -0.090583 1.000000
-0.259606 0.085542 -0.051505 1.000000
-0.199560 -0.082061 -0.056522 1.000000
0.430829 -0.036824 0.092982 2.000000
-0.459385 0.008054 -0.099353 3.000000
0.070083 0.024211 0.097099 1.000000
-0.097405 -0.005905 -0.099518 1.000000
0.146366 0.042573 -0.090233 1.000000
-0.087966 -0.084486 0.053258 1.000000
0.137893 -0.075735 0.065116 1.000000
0.081787 0.012613 0.099284 1.000000
0.248009 -0.024866 0.096891 1.000000
0.210149 0.071926 -0.069204 1.000000
-0.143402 -0.038408 0.092297 1.000000
0.214036 0.065074 0.076014 1.000000
-0.410313 0.028808 -0.095451 1.000000
-0.380938 0.056070 0.082868 1.000000
0.332680 -0.096797 -0.023929 1.000000
-0.065317 0.047879 -0.087535 1.000000
0.184865 0.042584 0.090591 1.000000
-0.118649 -0.088725 -0.045372 1.000000
0.008799 0.061334 -0.078688 1.000000
-0.140507 0.054768 0.083753 1.000000
0.464364 0.002145 0.100006 2.000000
-0.106540 -0.099390 0.008412 1.000000
0.086619 0.066991 0.074323 1.000000
0.141251 0.091439 -0.040177 1.000000
-0.054115 0.044224 0.089760 1.000000
-0.376018 0.079998 -0.059731 1.000000
-0.223795 -0.097612 -0.020285 1.000000
-0.346817 0.022908 0.097390 1.000000
0.051593 -0.005621 0.099890 1.000000
0.369013 -0.082507 -0.055865 1.000000
0.175696 0.095588 0.029425 1.000000
-0.350457 -0.031621 -0.094505 1.000000
-0.436520 -0.068236 -0.072657 3.000000
0.269457 0.094609 0.032457 1.000000
0.456407 -0.037223 0.092809 2.000000
-0.104352 0.088030 0.047556 1.000000
-0.348338 0.065795 -0.075015 1.000000
0.224738 0.075377 -0.065424 1.000000
0.085651 0.099817 0.006170 1.000000
-0.006913 -0.087805 -0.047178 1.000000
0.145230 -0.001415 0.100022 1.000000
-0.176869 -0.090616 -0.041537 1.000000
-0.293360 0.033537 0.094262 1.000000
0.075377 -0.086830 0.049294 1.000000
-0.018956 -0.097727 0.020131 1.000000
-0.397985 -0.072333 0.068926 1.000000
0.207744 0.099961 -0.001221 1.000000
0.111233 -0.065221 0.075678 1.000000
-0.307852 0.087084 -0.048896 1.000000
0.199663 0.090381 -0.042580 1.000000
-0.039511 0.087515 0.048531 1.000000
0.129048 -0.098291 -0.016712 1.000000
-0.119905 0.098736 0.015744 1.000000
-0.012164 -0.031193 0.095022 1.000000
0.299259 -0.065951 0.075034 1.000000
0.276616 0.091402 0.040623 1.000000
0.228768 -0.003945 0.099942 1.000000
0.301258 -0.081247 0.058082 1.000000
-0.365424 0.090750 0.042131 1.000000
-0.233620 0.096607 -0.025557 1.000000
0.402048 0.093548 -0.035042 1.000000
0.304204 0.075316 0.065856 1.000000
-0.425341 0.039477 -0.091572 1.000000
0.321622 -0.078565 -0.061278 1.000000
0.101088 -0.076929 0.063749 1.000000
0.152068 -0.098191 0.017709 1.000000
-0.447693 0.073570 0.067837 3.000000
0.045322 0.046862 -0.088053 1.000000
-0.167805 0.093060 -0.036398 1.000000
0.307174 -0.086003 -0.050331 1.000000
0.080641 -0.002946 0.099974 1.000000
0.008129 -0.029243 -0.095256 1.000000
0.305660 -0.020608 0.097852 1.000000
-0.078845 -0.027364 0.096165 1.000000
-0.439409 -0.092724 -0.036668 3.000000
-0.019390 -0.025939 -0.096216 1.000000
0.443527 -0.098102 0.018269 2.000000
0.240692 -0.095612 0.028540 1.000000
0.214706 -0.046094 -0.088326 1.000000
-0.266357 0.062089 -0.078102 1.000000
-0.460523 -0.059185 -0.080173 3.000000
0.396817 0.049790 -0.086434 1.000000
0.219652 -0.060608 0.079433 1.000000
0.008054 -0.002685 0.099982 1.000000
-0.318349 -0.086005 -0.050326 1.000000
0.206172 -0.070850 0.070408 1.000000
0.088226 0.073699 0.067691 1.000000
-0.302914 0.049275 0.087101 1.000000
-0.362460 0.099941 -0.001873 1.000000
0.319284 0.016889 -0.098246 1.000000
0.137627 -0.083468 -0.054451 1.000000
0.057658 0.023327 -0.096934 1.000000
-0.181600 -0.034249 -0.093559 1.000000
0.107737 0.099868 0.004536 1.000000
-0.369025 0.049362 0.087050 1.000000
-0.038061 0.052992 -0.084540 1.000000
-0.437444 -0.043642 0.089937 3.000000
0.056256 0.089121 0.045416 1.000000
-0.264731 0.089123 0.045411 1.000000
-0.059639 0.041894 -0.090527 1.000000
0.004909 -0.090490 0.042193 1.000000
0.226272 -0.063253 0.077381 1.000000
-0.242631 -0.051200 -0.085462 1.000000
-0.334448 0.065017 0.076063 1.000000
0.276922 -0.099075 0.011746 1.000000
-0.389034 0.089255 -0.044789 1.000000
-0.228055 0.051874 -0.085201 1.000000
0.194904 0.007648 -0.099391 1.000000
-0.385353 -0.054838 -0.083184 1.000000
0.292754 -0.056519 0.082405 1.000000
-0.417844 0.090476 0.042757 1.000000
0.392640 -0.063108 -0.077131 1.000000
-0.184977 -0.099109 0.011383 1.000000
-0.219022 -0.015563 0.098782 1.000000
-0.029900 -0.098563 -0.015000 1.000000
-0.288216 -0.079550 -0.060007 1.000000
-0.065049 0.057888 0.081633 1.000000
-0.368179 -0.046378 0.088543 1.000000
-0.261433 0.010238 -0.099146 1.000000
0.233605 0.031532 -0.094621 1.000000
0.052187 -0.078465 0.061769 1.000000
-0.431422 -0.078465 0.061769 3.000000
-0.078526 -0.004119 -0.099574 1.000000
-0.150409 0.044073 -0.089474 1.000000
0.037566 -0.082215 -0.056294 1.000000
-0.286882 0.041116 -0.090863 1.000000
0.039559 0.097722 -0.020834 1.000000
-0.238552 0.095265 0.030537 1.000000
0.033791 -0.058874 0.080777 1.000000
-0.059486 0.094573 0.032557 1.000000
0.428454 0.049789 0.086798 2.000000
0.091884 -0.001891 -0.099644 1.000000
0.311291 -0.048958 -0.086788 1.000000
0.093084 -0.067804 -0.073038 1.000000
-0.270215 0.092872 -0.036866 1.000000
-0.433759 0.055245 0.083429 1.000000
-0.336132 -0.099411 0.008186 1.000000
0.127569 0.024299 0.097079 1.000000
-0.235635 -0.099230 0.010096 1.000000
-0.194874 -0.099313 0.009227 1.000000
0.197200 -0.077178 0.063429 1.000000
-0.324806 0.099061 -0.013330 1.000000
0.267638 0.003000 -0.099617 1.000000
0.354998 -0.016142 0.098690 1.000000
-0.343090 0.068942 -0.072187 1.000000
0.129149 0.006779 0.099836 1.000000
0.167660 -0.099617 -0.004750 1.000000
0.058664 0.084433 0.053737 1.000000
-0.140954 -0.094534 0.032019 1.000000
-0.253250 0.079391 0.060877 1.000000
0.148228 0.005201 -0.099547 1.000000
-0.019160 -0.017570 0.098464 1.000000
-0.069531 0.089437 0.044795 1.000000
-0.436824 0.033196 -0.094022 3.000000
-0.297754 0.054229 0.084120 1.000000
0.130337 0.045428 0.089146 1.000000
-0.365442 0.096008 -0.027618 1.000000
-0.436595 0.015350 0.098852 3.000000
-0.107587 -0.087107 0.048826 1.000000
-0.226537 0.083244 0.055486 1.000000
-0.044662 0.064519 -0.076140 1.000000
-0.193328 -0.050511 -0.085870 1.000000
-0.139563 -0.097994 0.018935 1.000000
0.434078 -0.003970 -0.099579 1.000000
0.418856 0.064394 0.076613 1.000000
-0.270160 -0.077646 0.062824 1.000000
-0.053326 -0.032239 0.094645 1.000000
0.050251 0.096331 0.026867 1.000000
0.136840 -0.049710 -0.086343 1.000000
0.027756 0.081782 -0.057276 1.000000
-0.361246 -0.089246 -0.044350 1.000000
0.279497 0.043451 -0.089791 1.000000
-0.216448 -0.019558 -0.097724 1.000000
0.398895 -0.010752 0.099438 1.000000
0.324680 -0.079838 0.059999 1.000000
0.108385 0.088851 0.045945 1.000000
0.242288 0.066296 0.074936 1.000000
-0.270395 -0.018838 -0.097885 1.000000
0.083383 -0.031066 0.095067 1.000000
-0.132655 -0.098824 -0.013350 1.000000
-0.273352 0.084359 -0.053484 1.000000
0.321831 -0.032138 0.094681 1.000000
-0.341679 -0.055078 -0.083021 1.000000
-0.260976 -0.067820 0.073387 1.000000
-0.353319 -0.098653 0.014791 1.000000
0.070855 0.085293 0.052288 1.000000
-0.129896 -0.073603 0.067534 1.000000
-0.080856 -0.097996 0.018930 1.000000
-0.032460 -0.091055 0.040888 1.000000
0.280440 0.074191 -0.066769 1.000000
-0.190058 0.007026 0.099813 1.000000
0.410603 0.091376 -0.040323 1.000000
-0.358008 -0.067475 -0.073328 1.000000
-0.283101 0.097375 -0.022387 1.000000
0.275266 -0.040618 -0.090978 1.000000
0.372187 -0.019818 -0.097666 1.000000
-0.401688 -0.097448 0.021379 1.000000
0.079065 -0.093426 -0.034732 1.000000
-0.229109 -0.095595 0.028597 1.000000
-0.410047 -0.070117 0.071141 1.000000
-0.444365 -0.036967 0.092920 3.000000
-0.287262 0.029075 0.095736 1.000000
0.156525 -0.021926 -0.097195 1.000000
-0.420632 -0.099716 0.001956 1.000000
-0.144844 0.002672 -0.099627 1.000000
0.176930 0.042491 -0.090268 1.000000
-0.186510 0.093136 -0.036186 1.000000
0.366665 0.035110 0.093696 1.000000
0.454529 -0.011780 -0.098978 2.000000
0.213842 -0.096391 -0.025496 1.000000
-0.288649 -0.098465 0.015978 1.000000
-0.241059 0.058686 -0.080728 1.000000
-0.062733 -0.099402 0.008283 1.000000
-0.078475 -0.047242 -0.087741 1.000000
0.070833 -0.028191 -0.095562 1.000000
-0.361879 -0.097195 -0.022150 1.000000
0.194745 -0.037208 0.092816 1.000000
0.206575 0.036246 0.093286 1.000000
0.244538 -0.000177 -0.099698 1.000000
0.275631 -0.084119 -0.053493 1.000000
-0.124066 0.069740 0.071752 1.000000
0.000854 0.099952 -0.001517 1.000000
0.286489 -0.097609 -0.020295 1.000000
-0.302487 -0.085633 0.051319 1.000000
-0.168334 0.025379 -0.096447 1.000000
-0.225465 0.099915 0.003054 1.000000
-0.370523 0.062421 0.078207 1.000000
-0.435715 0.095780 0.028764 1.000000
0.425765 -0.099758 0.000634 1.000000
-0.174296 0.042041 -0.090463 1.000000
-0.465447 -0.099720 0.001823 3.000000
0.107607 -0.097466 0.021299 1.000000
-0.129496 0.094432 0.032949 1.000000
-0.056952 -0.093682 -0.034023 1.000000
0.051700 0.088348 -0.046570 1.000000
0.315879 0.070182 -0.070947 1.000000
0.378144 -0.023653 0.097171 1.000000
-0.285214 -0.085890 0.050884 1.000000
-0.331829 0.096879 0.024969 1.000000
-0.159017 0.094520 -0.032344 1.000000
0.320800 -0.097442 -0.021042 1.000000
-0.116005 0.066289 0.074942 1.000000
-0.063180 -0.073034 0.068179 1.000000
0.076586 -0.029948 0.095414 1.000000
0.288916 -0.056211 -0.082251 1.000000
-0.147482 0.047262 0.088212 1.000000
-0.263876 -0.099718 -0.001537 1.000000
0.459765 -0.050305 -0.085992 2.000000
-0.026726 0.031719 -0.094554 1.000000
0.137066 -0.039412 -0.091499 1.000000
0.043001 0.089843 0.043998 1.000000
-0.296615 -0.057399 -0.081444 1.000000
0.202662 -0.091263 0.040405 1.000000
0.108564 -0.070390 0.070869 1.000000
0.018364 -0.052473 0.085072 1.000000
-0.215611 -0.096280 0.026241 1.000000
-0.316129 0.036441 -0.092854 1.000000
0.187514 -0.071441 0.069817 1.000000
0.307271 -0.080682 0.058911 1.000000
-0.013599 0.099520 -0.009141 1.000000
0.217934 -0.013345 -0.098770 1.000000
0.134000 0.026732 -0.096054 1.000000
-0.466471 0.018424 -0.098003 3.000000
-0.176479 -0.056617 0.082338 1.000000
0.287276 0.025259 0.096844 1.000000
-0.106737 0.099997 -0.000086 1.000000
-0.112726 -0.076437 -0.063957 1.000000
0.101532 0.023684 0.097217 1.000000
-0.274939 -0.095093 0.030327 1.000000
0.282813 0.096365 -0.026388 1.000000
0.287878 0.045995 -0.088495 1.000000
-0.076724 -0.082004 0.056968 1.000000
0.163258 0.057042 0.082208 1.000000
-0.389916 0.079057 0.061306 1.000000
0.148543 -0.030365 0.095293 1.000000
0.399850 -0.060228 0.079727 1.000000
-0.299901 -0.099043 0.012074 1.000000
-0.409296 0.002659 -0.099627 1.000000
0.189230 0.005766 -0.099530 1.000000
-0.354403 0.014262 0.099025 1.000000
-0.109305 -0.012198 -0.098939 1.000000
0.407499 -0.069518 -0.071378 1.000000
0.162929 -0.099150 -0.010585 1.000000
0.123638 -0.036606 -0.092710 1.000000
0.168828 -0.018717 -0.097912 1.000000
0.407971 -0.086413 0.050000 1.000000
0.210908 -0.078139 -0.061826 1.000000
-0.414842 0.069354 -0.071776 1.000000
-0.126839 0.097327 -0.022603 1.000000
-0.179852 -0.099492 0.007334 1.000000
0.043933 -0.097677 -0.019991 1.000000
-0.070633 -0.070592 -0.070304 1.000000
0.379548 0.031906 0.094849 1.000000
-0.035210 0.041444 0.091084 1.000000
0.400295 0.076427 -0.064233 1.000000
-0.002411 -0.092160 0.038333 1.000000
-0.099125 -0.079864 0.059966 1.000000
-0.396350 -0.078748 0.061405 1.000000
-0.441002 0.014359 -0.098647 3.000000
0.051597 -0.088013 -0.046770 1.000000
0.448384 0.097225 -0.023060 2.000000
-0.032103 0.020500 0.097928 1.000000
0.245313 0.097400 0.022638 1.000000
0.104374 -0.066270 0.074753 1.000000
-0.299558 -0.014924 0.098883 1.000000
0.308616 -0.094243 -0.032464 1.000000
-0.286563 -0.093279 -0.035142 1.000000
0.314306 -0.004169 0.099935 1.000000
0.262119 0.034795 0.093809 1.000000
0.420963 0.016353 0.098694 2.000000
-0.297760 0.075617 -0.065152 1.000000
0.180067 -0.060439 0.079564 1.000000
0.166201 0.014978 -0.098549 1.000000
-0.175023 -0.093072 -0.035715 1.000000
0.035886 0.027001 -0.095975 1.000000
-0.132202 -0.088348 -0.046113 1.000000
-0.013576 -0.021709 0.097606 1.000000
0.420335 -0.033039 0.094357 2.000000
0.311805 -0.064536 -0.075919 1.000000
-0.269522 -0.081929 -0.056715 1.000000
-0.287030 -0.009986 0.099511 1.000000
-0.066031 -0.045861 -0.088444 1.000000
-0.345640 0.082001 0.057316 1.000000
0.297671 -0.095296 0.029628 1.000000
0.164144 0.080521 0.059419 1.000000
-0.413813 0.098519 0.017110 1.000000
0.189259 0.043713 -0.089657 1.000000
-0.192656 0.013059 0.099215 1.000000
-0.046510 0.070974 -0.070156 1.000000
0.299298 0.096716 0.025542 1.000000
-0.383363 -0.087823 0.047504 1.000000
0.018823 0.092389 -0.037980 1.000000
0.058772 0.070018 -0.071112 1.000000
0.166165 -0.064175 0.076600 1.000000
-0.178163 0.033061 0.094433 1.000000
-0.422465 0.089878 -0.043567 3.000000
0.091107 0.077299 0.063573 1.000000
0.388540 -0.013214 -0.098791 1.000000
-0.121527 -0.076535 -0.063846 1.000000
-0.083041 -0.088105 0.046951 1.000000
0.433471 0.086392 0.050429 2.000000
0.120666 -0.096199 -0.026156 1.000000
0.206312 0.097524 0.022084 1.000000
-0.342331 -0.013450 0.099116 1.000000
-0.386579 0.096167 -0.027068 1.000000
-0.456263 -0.027908 -0.095644 3.000000
0.451192 0.080122 0.059934 2.000000
-0.159940 0.002523 -0.099632 1.000000
0.428863 -0.047112 -0.087807 1.000000
0.178668 0.027287 -0.095892 1.000000
-0.120482 0.060502 0.079696 1.000000
0.118904 -0.031473 -0.094558 1.000000
0.345924 0.087441 0.048655 1.000000
0.403139 -0.016361 0.098655 1.000000
0.283003 -0.098710 -0.014067 1.000000
0.419644 0.035615 -0.093151 1.000000
-0.320030 0.098235 -0.018540 1.000000
0.039280 0.098745 0.015686 1.000000
-0.460259 -0.080054 -0.059358 3.000000
-0.092882 -0.019794 -0.097671 1.000000
-0.040074 0.099242 0.012444 1.000000
0.172586 0.048117 0.087776 1.000000
-0.228541 -0.055478 0.083112 1.000000
-0.417098 0.012313 -0.098950 1.000000
0.389168 -0.099654 0.003922 1.000000
0.352058 -0.099692 0.002740 1.000000
0.160951 0.030432 0.095342 1.000000
-0.357521 -0.003895 0.099944 1.000000
-0.455692 -0.090006 -0.042858 3.000000
-0.334537 0.089912 -0.043501 1.000000
0.256254 -0.098465 -0.015619 1.000000
0.446156 0.017868 0.098454 2.000000
-0.182410 -0.039859 0.091669 1.000000
-0.438310 0.022472 0.097487 3.000000
0.180262 0.086543 -0.049812 1.000000
0.018194 0.074975 0.066243 1.000000
-0.077020 0.036226 -0.092931 1.000000
-0.307063 -0.027252 0.096197 1.000000
-0.282828 0.050666 0.086279 1.000000
0.181597 0.071936 -0.069193 1.000000
-0.206224 -0.091318 0.040278 1.000000
-0.350370 0.039139 -0.091719 1.000000
0.007729 -0.049772 0.086669 1.000000
0.164560 -0.000920 -0.099675 1.000000
0.462569 0.090944 0.041683 2.000000
-0.392112 -0.042482 0.090528 1.000000
-0.337461 0.099151 -0.012759 1.000000
0.433328 0.064407 0.076601 2.000000
-0.122300 -0.089084 0.045029 1.000000
0.378158 -0.070493 0.070766 1.000000
0.130727 -0.008117 0.099687 1.000000
0.247520 0.090895 0.041795 1.000000
0.390008 -0.038286 0.092350 1.000000
0.450769 -0.026509 0.096413 2.000000
-0.388598 -0.080324 0.059373 1.000000
0.015930 -0.044181 0.089663 1.000000
0.462483 -0.057326 0.081856 2.000000
0.257620 -0.033928 0.094037 1.000000
0.140635 0.056133 0.082826 1.000000
-0.005173 -0.045322 -0.088719 1.000000
-0.079829 -0.099128 -0.010818 1.000000
-0.280287 0.052602 -0.084771 1.000000
0.319335 -0.091148 -0.040309 1.000000
0.360270 -0.082039 -0.056553 1.000000
-0.449016 -0.061225 -0.078591 3.000000
-0.103123 0.012175 0.099326 1.000000
0.183394 -0.065097 0.075787 1.000000
-0.321094 -0.057280 -0.081525 1.000000
0.199142 0.050622 0.086305 1.000000
-0.314364 0.090085 0.043524 1.000000
0.339851 -0.023856 -0.096763 1.000000
0.456928 0.053472 -0.084256 2.000000
-0.199941 -0.078037 -0.061958 1.000000
0.313343 0.059829 -0.079855 1.000000
0.095202 -0.016421 0.098646 1.000000
-0.109210 0.073286 -0.067796 1.000000
0.352285 -0.095713 -0.027830 1.000000
0.355674 -0.092914 0.036518 1.000000
-0.196892 -0.005075 0.099907 1.000000
-0.386641 0.099941 -0.001864 1.000000
-0.429039 0.032715 -0.094195 3.000000
-0.432053 -0.090451 -0.041920 3.000000
-0.333287 0.099414 0.010625 1.000000
0.166389 0.097150 -0.023394 1.000000
-0.229396 -0.075389 0.065508 1.000000
0.070672 -0.005099 0.099906 1.000000
-0.252503 -0.059861 0.080012 1.000000
-0.447292 0.094504 -0.032387 3.000000
0.048446 0.099939 -0.001917 1.000000
-0.354610 0.025849 -0.096310 1.000000
-0.390344 -0.087845 0.047462 1.000000
-0.130301 -0.020496 0.097877 1.000000
0.016850 0.093667 0.035075 1.000000
0.207252 -0.013446 0.099117 1.000000
-0.050957 -0.038310 0.092339 1.000000
0.454350 -0.089683 0.043853 2.000000
-0.260985 0.098173 -0.018818 1.000000
0.366006 -0.095637 0.028454 1.000000
-0.213276 -0.084451 -0.052954 1.000000
0.066414 -0.044005 0.089752 1.000000
-0.173891 -0.043792 0.089861 1.000000
0.324239 -0.050426 -0.085920 1.000000
-0.085727 -0.015035 0.098865 1.000000
-0.205216 -0.096947 -0.023258 1.000000
-0.425602 -0.045590 0.088945 1.000000
0.330826 -0.097381 0.021677 1.000000
0.457815 0.019354 -0.097822 2.000000
0.330856 0.029219 0.095694 1.000000
0.406244 0.061545 0.078886 1.000000
-0.089752 -0.050722 0.086108 1.000000
0.405564 -0.009190 0.099586 1.000000
-0.066167 0.006991 0.099816 1.000000
-0.178393 0.001999 -0.099648 1.000000
-0.274018 -0.027530 -0.095754 1.000000
0.124885 -0.030553 -0.094876 1.000000
0.240098 -0.015890 -0.098367 1.000000
0.014691 0.098840 0.015086 1.000000
-0.309962 0.001171 -0.099674 1.000000
-0.129081 -0.068342 -0.072554 1.000000
0.157630 0.082191 0.057036 1.000000
-0.425901 -0.085748 -0.050762 1.000000
0.427472 0.092978 0.036983 2.000000
0.088461 -0.096612 0.025097 1.000000
-0.405479 0.078309 -0.061909 1.000000
0.029147 0.094839 -0.031456 1.000000
-0.069361 -0.078798 0.061339 1.000000
-0.158343 -0.064763 -0.075719 1.000000
0.458856 -0.081739 -0.056996 2.000000
-0.020422 0.043454 0.090152 1.000000
0.452435 0.004938 0.099919 2.000000
-0.285500 -0.033074 0.094345 1.000000
0.202451 -0.052135 -0.084909 1.000000
-0.353818 -0.011491 0.099368 1.000000
-0.021829 -0.084311 -0.053191 1.000000
-0.413098 -0.008290 0.099671 1.000000
-0.000152 -0.035569 -0.093084 1.000000
0.196245 0.087965 -0.047322 1.000000
0.273646 0.004675 0.099927 1.000000
0.465172 -0.087698 -0.047388 2.000000
-0.146485 -0.099676 -0.002883 1.000000
-0.293974 -0.041028 0.091163 1.000000
-0.180822 -0.005920 -0.099518 1.000000
0.242188 -0.099711 -0.001748 1.000000
-0.160670 0.031914 0.094846 1.000000
-0.127736 -0.063234 -0.077033 1.000000
-0.184872 0.095075 0.031162 1.000000
-0.150816 -0.067403 0.073754 1.000000
0.212663 0.002899 0.099983 1.000000
-0.273155 -0.025983 0.096566 1.000000
-0.010012 -0.057879 -0.081118 1.000000
-0.298852 -0.099402 -0.007921 1.000000
0.142062 0.098259 0.018756 1.000000
0.043348 -0.048068 0.087677 1.000000
0.003371 0.099776 0.006798 1.000000
0.259943 -0.081569 -0.057246 1.000000
0.456322 0.099886 -0.003604 2.000000
-0.089288 0.094920 -0.031233 1.000000
0.311697 0.011814 0.099360 1.000000
-0.174611 -0.095740 -0.027737 1.000000
-0.178107 0.084772 -0.052806 1.000000
0.050361 -0.034780 0.093730 1.000000
-0.288861 0.073832 0.067539 1.000000
-0.396093 -0.097911 -0.018944 1.000000
-0.342236 0.087143 0.049160 1.000000
-0.329484 0.055796 0.083055 1.000000
0.427679 0.099828 -0.005453 1.000000
-0.232535 -0.083821 0.054294 1.000000
0.217739 0.008324 -0.099327 1.000000
-0.261501 0.068550 -0.072579 1.000000
0.405739 -0.074900 -0.065700 1.000000
0.093050 -0.078412 -0.061474 1.000000
0.168015 -0.094294 0.032685 1.000000
-0.163551 0.095412 0.030032 1.000000
-0.466653 0.001878 -0.099652 3.000000
0.314446 0.087731 0.048143 1.000000
0.040007 -0.058269 -0.080852 1.000000
0.120555 -0.096836 0.024116 1.000000
-0.070331 -0.057609 0.081664 1.000000
0.384063 -0.049075 0.087082 1.000000
-0.444728 0.084540 -0.053199 3.000000
-0.254125 -0.032899 0.094408 1.000000
-0.205478 -0.055788 0.082901 1.000000
-0.205684 0.008903 0.099635 1.000000
0.375411 0.069779 0.071714 1.000000
0.329660 -0.075394 0.065503 1.000000
-0.234623 -0.099468 -0.007219 1.000000
-0.161569 0.034274 -0.093634 1.000000
0.093822 -0.092272 0.038075 1.000000
0.290706 -0.095668 -0.027985 1.000000
0.033771 -0.018996 0.098212 1.000000
-0.135986 0.064343 0.076658 1.000000
0.009498 0.099902 -0.003116 1.000000
-0.461306 -0.088945 -0.044941 3.000000
-0.318350 -0.067536 0.073637 1.000000
-0.424383 0.084434 0.053736 1.000000
-0.151001 0.021801 -0.097275 1.000000
0.389157 0.015404 0.098844 1.000000
-0.391432 -0.074894 0.066070 1.000000
0.237336 -0.092338 0.037923 1.000000
-0.079232 0.095239 0.030627 1.000000
-0.193380 -0.086941 -0.048744 1.000000
-0.346071 0.002522 0.099994 1.000000
0.064089 -0.058856 0.080792 1.000000
-0.186772 -0.058121 0.081316 1.000000
-0.196396 0.099177 -0.012592 1.000000
-0.333128 0.059630 0.080372 1.000000
0.266130 -0.098707 -0.014087 1.000000
0.294359 0.023962 0.097154 1.000000
-0.017105 -0.047144 0.088153 1.000000
-0.203174 0.099086 -0.013169 1.000000
-0.077280 0.099037 0.013843 1.000000
0.266341 -0.047632 0.087904 1.000000
0.242057 -0.075080 0.065859 1.000000
0.027093 -0.039241 -0.091573 1.000000
0.357709 -0.048860 -0.086846 1.000000
-0.318141 0.061974 0.078554 1.000000
-0.351184 0.019380 -0.097816 1.000000
0.004836 -0.097877 0.019461 1.000000
-0.174420 0.077380 -0.063107 1.000000
0.162016 -0.032388 -0.094229 1.000000
-0.266729 -0.055985 -0.082405 1.000000
-0.180883 0.060236 0.079902 1.000000
-0.094553 0.045060 0.089334 1.000000
0.151149 0.047034 -0.087966 1.000000
0.440573 0.058830 -0.080630 1.000000
-0.187867 -0.074918 -0.065680 1.000000
-0.028474 0.052518 -0.084821 1.000000
0.362233 -0.080606 0.059008 1.000000
-0.283103 0.072588 -0.068541 1.000000
-0.285981 0.062688 0.078000 1.000000
-0.365212 -0.090997 0.041021 1.000000
0.036333 -0.098158 -0.017555 1.000000
0.371367 0.099781 0.006736 1.000000
0.252355 -0.099583 0.006202 1.000000
-0.243620 -0.099242 0.009969 1.000000
-0.052293 0.035924 -0.093040 1.000000
-0.462284 -0.097823 -0.019339 3.000000
0.028639 -0.088923 -0.044984 1.000000
0.406363 0.077999 0.062671 1.000000
0.451588 0.093952 0.034282 2.000000
-0.007987 0.061156 -0.078826 1.000000
-0.084649 -0.097313 -0.021620 1.000000
-0.127820 0.062174 -0.078036 1.000000
-0.102840 0.030959 -0.094826 1.000000
0.403687 0.090706 -0.041871 1.000000
0.419914 0.091635 0.040085 1.000000
-0.024061 -0.089353 0.044502 1.000000
-0.465356 -0.065508 0.075425 3.000000
-0.363761 0.063342 0.077493 1.000000
0.217118 -0.090066 0.043103 1.000000
0.291795 -0.028362 -0.095512 1.000000
0.453389 0.093957 -0.033906 2.000000
-0.024729 0.047187 0.088250 1.000000
-0.198014 0.031219 -0.094734 1.000000
0.310447 -0.079437 -0.060153 1.000000
0.058555 -0.081266 -0.057691 1.000000
0.342815 0.078085 -0.062198 1.000000
-0.224204 0.098319 -0.018013 1.000000
-0.131631 0.087595 -0.048032 1.000000
-0.455294 0.022381 0.097508 3.000000
-0.312104 0.089396 -0.044513 1.000000
0.265181 0.009304 -0.099234 1.000000
-0.082646 -0.042890 -0.089958 1.000000
-0.457818 -0.068767 -0.072129 3.000000
-0.306844 -0.067152 0.073975 1.000000
0.331594 0.095876 0.028435 1.000000
0.234449 0.057736 0.081737 1.000000
0.135426 0.099500 0.009713 1.000000
-0.028173 -0.099409 -0.007843 1.000000
-0.411977 -0.096865 0.023988 1.000000
0.196626 0.076964 -0.063624 1.000000
-0.136689 0.093605 0.035248 1.000000
-0.328922 0.075659 0.065467 1.000000
-0.159130 0.096613 -0.025536 1.000000
0.206956 0.096867 -0.024659 1.000000
-0.376959 0.051159 0.085987 1.000000
-0.002900 0.088396 -0.046476 1.000000
0.037535 -0.099268 -0.009333 1.000000
-0.248095 -0.039516 -0.091454 1.000000
0.070567 -0.055587 -0.082675 1.000000
-0.190990 -0.000283 0.100057 1.000000
-0.348908 0.097447 -0.022064 1.000000
-0.025726 0.094122 -0.033448 1.000000
-0.454825 0.093862 -0.034171 3.000000
0.097006 0.012685 0.099275 1.000000
-0.296731 -0.099736 -0.000958 1.000000
-0.310608 -0.000473 0.100051 1.000000
-0.100281 -0.035366 0.093519 1.000000
0.057619 0.015607 -0.098449 1.000000
-0.129987 0.034540 -0.093538 1.000000
0.382673 -0.014101 -0.098651 1.000000
-0.184146 0.088094 -0.047068 1.000000
0.380843 0.007278 -0.099426 1.000000
-0.263342 0.045774 0.088970 1.000000
0.083337 0.098197 0.019074 1.000000
0.436559 -0.086292 -0.049841 2.000000
0.314126 -0.098071 -0.018107 1.000000
-0.436812 -0.079003 -0.060713 3.000000
-0.057880 -0.067563 -0.073250 1.000000
0.367091 0.086246 0.050677 1.000000
-0.135981 -0.062109 -0.077906 1.000000
0.428211 0.059985 0.080097 2.000000
0.397844 -0.001505 -0.099656 1.000000
0.371949 0.043339 -0.089848 1.000000
0.463807 0.061278 -0.078731 2.000000
-0.028620 0.052701 0.085075 1.000000
0.091596 -0.009966 0.099513 1.000000
0.317123 0.097267 0.023234 1.000000
0.306355 -0.093300 0.035445 1.000000
0.448528 -0.092735 -0.036642 2.000000
-0.252029 0.099907 -0.002944 1.000000
0.050391 -0.072463 -0.068433 1.000000
0.157419 0.042698 0.090538 1.000000
0.216502 -0.075699 -0.064794 1.000000
-0.234354 -0.068444 -0.072452 1.000000
-0.114826 -0.093771 -0.033775 1.000000
0.031602 -0.064430 0.076376 1.000000
-0.142943 -0.083260 0.055119 1.000000
0.369656 -0.087328 -0.048089 1.000000
0.387705 -0.042448 -0.090183 1.000000
0.369257 -0.034918 -0.093318 1.000000
-0.222273 0.073273 -0.067811 1.000000
-0.058900 0.030378 0.095357 1.000000
-0.063541 0.078241 -0.061997 1.000000
0.425216 0.099063 0.013680 1.000000
-0.079587 -0.094238 -0.032477 1.000000
0.440578 0.069322 -0.071808 1.000000
-0.320710 0.060004 -0.079719 1.000000
-0.082713 -0.046220 0.088624 1.000000
-0.190456 -0.007656 0.099731 1.000000
0.356832 0.076752 -0.063865 1.000000
-0.332279 -0.092100 0.038472 1.000000
-0.243476 -0.025578 0.096684 1.000000
0.338105 -0.093522 -0.034467 1.000000
-0.154811 0.086022 0.051056 1.000000
-0.102445 0.039099 -0.091736 1.000000
0.130858 0.072289 0.069203 1.000000
-0.189367 -0.030842 0.095148 1.000000
0.317941 -0.099493 -0.006956 1.000000
0.111612 0.040896 -0.090958 1.000000
-0.096256 0.099970 -0.000929 1.000000
-0.200166 0.029171 0.095708 1.000000
-0.248541 0.008855 0.099640 1.000000
0.233710 0.011900 -0.098989 1.000000
-0.446343 0.030696 0.095265 3.000000
-0.151195 -0.097071 0.023064 1.000000
-0.197530 -0.051929 0.085394 1.000000
0.023197 0.085553 0.051848 1.000000
0.151769 0.098485 0.017323 1.000000
0.426117 -0.010026 -0.099144 1.000000
0.158781 0.097077 -0.023721 1.000000
-0.280260 -0.096642 0.024987 1.000000
-0.349719 0.054506 0.083931 1.000000
-0.207228 0.036056 -0.092992 1.000000
0.031830 0.095807 0.028670 1.000000
0.420419 -0.001188 -0.099666 1.000000
-0.415349 0.084238 0.054024 1.000000
-0.077325 -0.056879 0.082160 1.000000
-0.035115 0.098182 0.019142 1.000000
-0.128126 -0.093232 -0.035272 1.000000
0.380920 -0.097715 -0.019822 1.000000
0.009910 0.099538 0.009308 1.000000
-0.099530 -0.057710 -0.081233 1.000000
-0.274913 -0.093113 0.035966 1.000000
0.187475 -0.017579 -0.098100 1.000000
0.333729 -0.082807 -0.055424 1.000000
-0.372831 -0.017585 0.098462 1.000000
-0.171792 0.013083 -0.098849 1.000000
-0.352898 -0.034807 0.093721 1.000000
0.405625 -0.097681 -0.019975 1.000000
-0.138523 -0.050990 0.085949 1.000000
0.389586 -0.032844 0.094427 1.000000
-0.451417 0.051465 0.085806 3.000000
0.228583 -0.032326 0.094614 1.000000
-0.454419 0.066332 -0.074542 3.000000
-0.166891 0.099173 0.012985 1.000000
-0.365213 -0.003623 0.099952 1.000000
-0.274849 0.099697 0.007632 1.000000
0.279393 0.015798 0.098782 1.000000
0.256401 -0.067549 0.073625 1.000000
-0.342224 0.098473 -0.017040 1.000000
0.154062 0.006402 -0.099509 1.000000
0.017370 -0.073919 0.067175 1.000000
0.307291 0.007658 0.099753 1.000000
-0.214709 -0.064894 -0.075603 1.000000
-0.093328 0.074188 0.067135 1.000000
0.129931 0.099244 0.012423 1.000000
0.227653 0.067040 0.074280 1.000000
0.336017 -0.095337 -0.029122 1.000000
-0.187742 -0.094642 -0.031355 1.000000
-0.225525 0.014962 0.098914 1.000000
-0.085368 0.017602 -0.098133 1.000000
0.250053 -0.003239 -0.099602 1.000000
-0.402643 -0.068494 -0.072402 1.000000
0.087014 -0.086238 0.050295 1.000000
-0.007152 0.028411 -0.095566 1.000000
0.075977 -0.086280 -0.049862 1.000000
0.210218 -0.082009 0.056961 1.000000
-0.222717 -0.000002 -0.099703 1.000000
0.090788 -0.072084 0.069175 1.000000
-0.110805 0.072757 0.068735 1.000000
-0.193510 -0.001924 -0.099643 1.000000
-0.460587 0.031006 -0.094810 3.000000
0.160317 0.082905 -0.055622 1.000000
-0.441157 -0.071008 0.070251 3.000000
-0.108499 0.048659 -0.087103 1.000000
-0.370667 -0.084308 0.053559 1.000000
-0.247893 0.000055 0.100068 1.000000
0.265444 0.061028 0.079288 1.000000
0.293246 0.085482 0.051968 1.000000
-0.188436 -0.043844 0.089834 1.000000
0.249582 0.050584 -0.085965 1.000000
0.051535 -0.010892 -0.099062 1.000000
-0.030057 -0.016483 0.098636 1.000000
0.147814 -0.085026 -0.051982 1.000000
-0.384959 0.062973 0.077779 1.000000
0.443755 -0.040455 0.091411 2.000000
-0.106900 0.042417 0.090663 1.000000
0.002285 -0.004061 0.099939 1.000000
-0.218489 -0.087982 -0.046831 1.000000
-0.106358 -0.079094 -0.060596 1.000000
0.176146 -0.044168 -0.089307 1.000000
0.177093 -0.049037 0.087104 1.000000
-0.249315 -0.074078 -0.066633 1.000000
-0.279109 0.085840 -0.051000 1.000000
0.303335 0.009404 -0.099225 1.000000
0.038170 0.004366 0.099936 1.000000
-0.197138 -0.099683 0.003014 1.000000
0.427321 0.074348 0.066955 2.000000
0.298543 -0.072078 0.069181 1.000000
-0.285261 -0.074233 -0.066457 1.000000
0.173409 -0.097976 -0.018653 1.000000
0.112126 0.070180 -0.070950 1.000000
0.268766 -0.035967 0.093303 1.000000
0.140812 0.051224 0.085949 1.000000
0.261336 -0.016039 -0.098344 1.000000
0.134032 -0.043239 0.090143 1.000000
0.079543 -0.012686 -0.098875 1.000000
0.031816 0.017811 0.098463 1.000000
0.085081 0.000793 -0.099686 1.000000
0.105136 0.093556 0.035382 1.000000
0.433046 0.074099 -0.066874 1.000000
0.087324 -0.037234 0.092805 1.000000
0.206289 0.099256 -0.011929 1.000000
0.202389 -0.063221 -0.077043 1.000000
-0.324731 0.059704 0.080314 1.000000
0.341546 0.045877 -0.088555 1.000000
0.239966 0.098084 0.019580 1.000000
0.009292 0.029283 0.095675 1.000000
0.043721 -0.070036 -0.070860 1.000000
0.428547 0.083236 -0.055136 1.000000
0.251657 -0.038303 0.092342 1.000000
-0.379259 -0.083667 0.054520 1.000000
-0.112521 0.078691 0.061779 1.000000
0.370224 -0.056600 -0.081987 1.000000
0.071641 -0.025564 0.096688 1.000000
0.125221 0.052721 0.085064 1.000000
0.393546 0.068748 -0.072382 1.000000
-0.054913 0.073318 -0.067760 1.000000
-0.394715 -0.032109 0.094692 1.000000
0.285821 -0.083343 0.054997 1.000000
0.374432 0.074826 0.066413 1.000000
0.180457 0.068884 0.072609 1.000000
-0.316751 -0.042257 0.090631 1.000000
0.344888 -0.017369 0.098496 1.000000
-0.149209 0.008530 -0.099308 1.000000
-0.185283 0.013711 0.099112 1.000000
-0.251906 0.012228 -0.098958 1.000000
0.188181 -0.024355 -0.096652 1.000000
-0.230960 -0.092987 0.036315 1.000000
0.016908 0.009790 -0.099189 1.000000
0.199502 -0.026200 -0.096140 1.000000
-0.041769 -0.091433 0.040014 1.000000
0.463879 0.046395 0.088654 2.000000
0.361193 0.061701 -0.078403 1.000000
-0.329287 0.045093 -0.088954 1.000000
0.008371 0.092812 0.037366 1.000000
0.036050 0.049481 -0.086617 1.000000
-0.457404 -0.006664 0.099825 3.000000
-0.157078 0.074473 0.066813 1.000000
-0.348170 0.016746 0.098631 1.000000
0.184402 0.091777 0.039759 1.000000
0.121741 -0.084932 0.052504 1.000000
0.090908 0.086813 0.049718 1.000000
-0.175482 0.081294 -0.057993 1.000000
0.035623 -0.069371 -0.071525 1.000000
-0.271620 -0.007578 -0.099376 1.000000
0.187454 0.062417 -0.077848 1.000000
-0.215057 0.098604 0.016573 1.000000
0.417539 -0.085251 -0.051601 1.000000
0.090859 0.036879 -0.092696 1.000000
-0.348519 0.098867 -0.014551 1.000000
0.100809 -0.034935 -0.093312 1.000000
-0.342838 0.099585 0.008816 1.000000
0.081693 0.099316 0.011662 1.000000
-0.038196 0.074580 0.066691 1.000000
0.134614 0.099409 -0.010314 1.000000
0.383130 -0.035055 -0.093268 1.000000
-0.300803 0.057345 -0.081639 1.000000
0.066103 -0.042080 -0.090345 1.000000
0.240943 0.057185 0.082111 1.000000
-0.368008 0.021957 0.097603 1.000000
0.217592 0.055253 0.083424 1.000000
-0.054176 -0.075619 -0.064885 1.000000
-0.082171 0.083961 -0.054068 1.000000
0.123626 -0.088109 -0.046581 1.000000
0.100558 -0.097015 0.023316 1.000000
-0.382203 0.038262 0.092461 1.000000
-0.307107 0.052426 -0.084875 1.000000
-0.098752 0.091024 -0.041134 1.000000
0.339081 0.062257 -0.077971 1.000000
-0.341318 -0.065937 -0.074684 1.000000
0.060749 -0.035357 -0.093160 1.000000
-0.200728 0.099924 0.002751 1.000000
-0.035557 -0.099074 -0.011388 1.000000
0.385803 0.096224 0.027235 1.000000
-0.376809 -0.096305 -0.025792 1.000000
0.098594 -0.060468 0.079541 1.000000
0.261137 -0.073186 -0.067645 1.000000
0.101143 -0.023382 0.097232 1.000000
-0.338540 0.022994 0.097371 1.000000
-0.418075 0.023917 0.097165 1.000000
0.100417 0.007603 0.099758 1.000000
0.283138 -0.072766 -0.068120 1.000000
-0.262729 -0.047476 0.087984 1.000000
0.178456 0.098726 -0.015444 1.000000
-0.105109 0.098491 -0.016928 1.000000
-0.246283 -0.096214 0.026467 1.000000
0.075702 0.082461 0.056640 1.000000
-0.441904 0.029227 -0.095329 3.000000
-0.348086 -0.023377 0.097233 1.000000
-0.294943 -0.041139 -0.090752 1.000000
-0.114281 -0.043723 -0.089533 1.000000
-0.427355 -0.022682 0.097388 1.000000
-0.343314 0.099488 -0.009481 1.000000
-0.056909 -0.006623 0.099829 1.000000
-0.373572 -0.009918 -0.099154 1.000000
-0.228692 0.044243 0.089750 1.000000
0.157259 0.027364 -0.095870 1.000000
-0.102885 -0.098072 -0.018094 1.000000
0.131405 0.090384 0.042936 1.000000
0.177838 -0.069778 0.071481 1.000000
-0.411115 -0.034327 0.093894 1.000000
-0.417763 0.087227 -0.048655 1.000000
0.464552 0.093357 0.035935 2.000000
-0.297264 0.032405 -0.094307 1.000000
-0.147975 -0.085645 0.051299 1.000000
-0.110433 0.081241 -0.058071 1.000000
0.441619 -0.020180 0.097948 2.000000
-0.035100 -0.025664 0.096659 1.000000
-0.432858 0.091027 0.041490 1.000000
-0.133522 -0.098014 0.018827 1.000000
0.265211 -0.099589 0.006012 1.000000
0.450331 -0.041728 0.090860 2.000000
-0.071638 -0.099579 -0.005946 1.000000
0.310912 -0.024770 0.096919 1.000000
-0.378646 0.010194 -0.099150 1.000000
-0.153494 0.001585 -0.099661 1.000000
-0.159348 -0.012269 0.099295 1.000000
-0.106328 0.099755 0.007017 1.000000
0.407503 -0.095529 0.028826 1.000000
0.199963 0.015749 -0.098426 1.000000
0.108588 -0.099314 -0.008855 1.000000
0.450607 0.052937 -0.084573 2.000000
-0.079777 0.004582 0.099930 1.000000
-0.037057 -0.018707 0.098277 1.000000
0.462665 -0.012040 -0.098954 2.000000
0.396007 -0.084940 -0.052127 1.000000
0.395792 0.006122 -0.099518 1.000000
0.150229 0.096793 -0.024916 1.000000
-0.383340 0.068565 0.072927 1.000000
0.187221 0.074109 -0.066862 1.000000
-0.278558 -0.070327 0.070932 1.000000
0.318581 0.049223 -0.086769 1.000000
-0.180866 0.070716 0.070776 1.000000
0.261462 -0.069770 0.071489 1.000000
0.414015 0.053018 -0.084525 1.000000
0.416270 0.054820 0.083718 1.000000
-0.286215 0.084942 -0.052519 1.000000
-0.047927 0.038320 0.092436 1.000000
0.463233 -0.090183 0.042874 2.000000
0.096813 0.040651 -0.091064 1.000000
0.252379 0.056522 0.082562 1.000000
-0.237336 0.026767 -0.096043 1.000000
0.302776 0.088675 -0.045929 1.000000
-0.031589 -0.045566 -0.088594 1.000000
-0.187120 -0.087188 -0.048326 1.000000
0.306327 -0.073464 0.067692 1.000000
0.007595 0.003634 -0.099597 1.000000
-0.199877 -0.058188 0.081271 1.000000
-0.422106 -0.071646 0.069613 1.000000
0.399800 0.051960 0.085513 1.000000
0.112089 -0.099465 0.007613 1.000000
0.378595 -0.010412 0.099471 1.000000
0.204314 0.008008 0.099720 1.000000
-0.074681 -0.010970 -0.099055 1.000000
-0.195429 0.048032 -0.087457 1.000000
0.298873 0.095594 -0.029042 1.000000
-0.174298 0.095133 -0.030628 1.000000
0.400838 -0.099731 -0.001136 1.000000
-0.455314 0.012686 0.099274 3.000000
-0.006878 -0.078052 -0.061938 1.000000
0.198090 -0.099679 0.003145 1.000000
-0.107848 -0.030913 0.095123 1.000000
-0.279813 -0.095783 -0.027588 1.000000
0.178347 -0.072712 -0.068182 1.000000
-0.296031 0.089126 0.045406 1.000000
-0.193383 -0.090576 0.041994 1.000000
-0.360181 0.051150 0.085992 1.000000
0.008254 -0.058413 -0.080755 1.000000
0.449632 0.058293 0.081358 2.000000
-0.207847 0.094466 0.032856 1.000000
-0.353556 0.050428 0.086419 1.000000
-0.223632 -0.080060 -0.059350 1.000000
-0.425548 -0.098182 -0.017401 1.000000
0.126499 -0.007917 -0.099344 1.000000
-0.201033 -0.017921 -0.098046 1.000000
0.298753 -0.083693 -0.054120 1.000000
-0.138039 -0.036208 0.093216 1.000000
0.188833 -0.048535 -0.087038 1.000000
0.203764 0.085118 -0.052221 1.000000
-0.312017 -0.014283 -0.098622 1.000000
-0.414632 0.012868 0.099246 1.000000
-0.020014 0.028957 0.095770 1.000000
0.134552 0.057228 0.082082 1.000000
0.128805 0.093024 -0.036497 1.000000
0.462819 0.099897 0.003620 2.000000
0.140413 0.005302 0.099907 1.000000
-0.263163 0.073534 -0.067515 1.000000
-0.363169 0.018084 -0.098057 1.000000
0.237115 0.075210 -0.065614 1.000000
-0.217546 0.067182 -0.073792 1.000000
0.165920 -0.099712 0.002078 1.000000
-0.010058 -0.002445 0.099989 1.000000
0.340628 0.058940 0.080908 1.000000
0.450362 0.016257 -0.098346 2.000000
-0.144083 -0.048314 -0.087169 1.000000
-0.042208 -0.021693 0.097609 1.000000
0.094468 -0.047805 0.087816 1.000000
-0.084301 -0.009360 -0.099207 1.000000
0.335269 -0.003081 0.099970 1.000000
0.433939 0.048137 -0.087403 1.000000
0.122193 0.052749 -0.084684 1.000000
-0.418263 -0.097632 0.020555 1.000000
0.392143 0.095487 0.029773 1.000000
-0.414678 -0.080642 -0.058600 1.000000
-0.300141 -0.029175 0.095639 1.000000
-0.296843 0.066717 -0.074202 1.000000
0.299472 0.078644 0.061840 1.000000
-0.146550 0.035650 0.093501 1.000000
-0.398618 -0.087506 -0.047765 1.000000
-0.036464 0.080291 -0.059353 1.000000
0.133220 -0.081096 -0.057941 1.000000
-0.019356 -0.056672 -0.081938 1.000000
-0.340624 0.080726 -0.058792 1.000000
-0.235536 -0.026590 0.096390 1.000000
0.403203 -0.065841 -0.074769 1.000000
0.040916 0.087362 -0.048426 1.000000
0.016109 0.057712 0.081753 1.000000
0.381501 0.050906 -0.085774 1.000000
0.233758 -0.025106 0.096821 1.000000
-0.296012 -0.059645 0.080179 1.000000
0.118563 0.020971 -0.097460 1.000000
-0.229520 -0.021053 0.097752 1.000000
-0.172890 -0.092718 0.037044 1.000000
-0.266931 -0.091123 -0.040367 1.000000
-0.075227 0.087543 0.048483 1.000000
-0.336857 0.071935 -0.069195 1.000000
0.170746 0.003046 -0.099615 1.000000
-0.279254 0.085861 0.051328 1.000000
0.074173 0.098922 -0.014203 1.000000
0.088085 0.059595 0.080399 1.000000
0.176200 0.077116 0.063809 1.000000
-0.228475 -0.028002 -0.095617 1.000000
0.039038 -0.080707 0.058876 1.000000
-0.231777 0.039216 0.092048 1.000000
0.233450 0.076547 0.064460 1.000000
0.107376 -0.081019 -0.058055 1.000000
-0.027728 0.047381 -0.087788 1.000000
-0.191781 0.099981 -0.000587 1.000000
0.185622 -0.064257 -0.076165 1.000000
-0.382529 -0.094166 0.033040 1.000000
-0.313506 -0.054281 -0.083563 1.000000
-0.061039 -0.064955 0.075912 1.000000
-0.459283 0.017348 0.098536 3.000000
0.090549 -0.098394 -0.016066 1.000000
0.080103 0.050337 -0.086111 1.000000
0.424594 0.095252 -0.030217 1.000000
0.286680 -0.055955 0.082788 1.000000
0.319298 0.053490 0.084609 1.000000
-0.318886 -0.041479 -0.090605 1.000000
0.005170 -0.042037 -0.090364 1.000000
-0.273782 -0.094970 -0.030387 1.000000
0.231907 -0.067030 0.074083 1.000000
-0.387472 -0.096781 0.024365 1.000000
0.006306 0.089718 0.044244 1.000000
-0.309361 -0.071692 0.069567 1.000000
0.008045 0.048847 -0.086992 1.000000
-0.303132 0.035561 0.093533 1.000000
-0.033832 0.096013 0.027964 1.000000
0.342455 0.086961 -0.049105 1.000000
0.211761 0.027103 0.096309 1.000000
0.088275 -0.072431 -0.068465 1.000000
-0.113484 -0.067929 -0.072928 1.000000
-0.119548 0.054582 0.083880 1.000000
-0.313835 -0.059072 -0.080261 1.000000
-0.350816 0.090793 0.042033 1.000000
0.368709 -0.055926 0.082807 1.000000
0.184822 0.026333 -0.096170 1.000000
-0.025604 -0.030781 -0.094807 1.000000
0.001928 0.017033 -0.098223 1.000000
0.025131 -0.095555 0.028735 1.000000
-0.330888 -0.077682 -0.062415 1.000000
0.089941 -0.043876 0.089818 1.000000
-0.292580 -0.055061 0.083396 1.000000
0.003659 0.079929 0.060182 1.000000
-0.136760 0.039687 -0.091481 1.000000
-0.074203 -0.061854 0.078466 1.000000
-0.090120 -0.077028 -0.063259 1.000000
0.114556 0.034505 -0.093551 1.000000
0.271954 -0.045879 -0.088435 1.000000
-0.146780 0.093162 -0.036114 1.000000
-0.287338 -0.033900 -0.093685 1.000000
-0.114664 0.012260 0.099318 1.000000
0.238335 -0.017108 0.098537 1.000000
0.095365 -0.007131 -0.099418 1.000000
-0.318125 0.072162 -0.068968 1.000000
-0.448640 -0.074342 0.066696 3.000000
-0.269619 0.001748 0.100019 1.000000
-0.225302 0.096277 -0.026692 1.000000
0.006195 0.084866 0.053010 1.000000
0.091796 -0.083189 -0.054862 1.000000
-0.391732 -0.099645 -0.003862 1.000000
-0.266082 0.013043 0.099218 1.000000
-0.388358 0.041771 -0.090580 1.000000
0.178211 -0.034100 -0.093612 1.000000
-0.213319 0.008769 -0.099285 1.000000
0.183623 -0.036330 0.093172 1.000000
-0.370964 0.087019 0.049369 1.000000
0.257241 -0.063936 -0.076448 1.000000
-0.251336 -0.097677 -0.019990 1.000000
0.014435 -0.099237 0.010032 1.000000
-0.274247 -0.099085 0.011635 1.000000
0.225623 0.076643 0.064351 1.000000
0.409878 -0.072650 0.068609 1.000000
0.147148 0.094434 0.032944 1.000000
-0.301481 0.023500 0.097258 1.000000
-0.354175 0.098296 -0.018158 1.000000
0.424428 -0.092690 0.037109 2.000000
-0.068249 -0.069733 0.071526 1.000000
-0.253406 -0.032093 -0.094335 1.000000
0.146197 0.070226 0.071266 1.000000
0.005038 0.002515 0.099995 1.000000
0.422865 -0.037825 0.092549 2.000000
-0.218928 -0.074757 0.066226 1.000000
-0.002308 0.038182 0.092496 1.000000
0.255791 0.055358 -0.082990 1.000000
-0.418356 -0.000031 -0.099703 1.000000
0.388752 0.005311 -0.099544 1.000000
-0.144443 -0.095685 -0.027926 1.000000
0.011483 0.065964 -0.074865 1.000000
0.027036 0.043421 0.090169 1.000000
-0.325162 -0.057772 0.081553 1.000000
0.348066 -0.099656 -0.003497 1.000000
0.108916 0.096778 -0.024968 1.000000
0.228851 -0.071623 0.069636 1.000000
-0.237175 -0.064137 -0.076271 1.000000
-0.128061 0.056987 -0.081882 1.000000
-0.160911 -0.094258 -0.032421 1.000000
0.465339 -0.027759 -0.024626 2.000000
0.465339 0.087510 0.028959 2.000000
0.465339 0.056923 0.006751 2.000000
0.465339 0.049744 -0.053145 2.000000
0.465339 -0.095156 0.008361 2.000000
0.465339 0.040228 0.070610 2.000000
0.465339 0.047879 0.002293 2.000000
