0.465339 -0.065617 -0.073539 2.000000
0.465339 0.074841 0.048634 2.000000
0.465339 -0.005681 -0.009898 2.000000
0.465339 -0.042095 0.077189 2.000000
0.465339 0.005965 0.084799 2.000000
0.465339 0.021467 -0.071152 2.000000
0.465339 0.034930 0.017344 2.000000
0.465339 -0.045539 0.015521 2.000000
0.465339 -0.054134 0.035948 2.000000
0.465339 -0.010291 0.062535 2.000000
0.465339 -0.048177 0.046042 2.000000
0.465339 -0.071056 -0.008117 2.000000
0.465339 0.006646 -0.061157 2.000000
0.465339 -0.068346 -0.057933 2.000000
0.465339 0.032518 -0.034425 2.000000
0.465339 -0.002085 -0.032229 2.000000
0.465339 0.016283 -0.007750 2.000000
0.465339 -0.095095 -0.014781 2.000000
0.465339 -0.024790 0.004336 2.000000
0.465339 0.030475 0.060806 2.000000
0.465339 -0.011420 0.073674 2.000000
0.465339 0.007404 0.094201 2.000000
0.465339 -0.061710 0.051768 2.000000
0.465339 -0.060790 0.011997 2.000000
0.465339 -0.055435 -0.025988 2.000000
0.465339 -0.018210 -0.056410 2.000000
0.465339 -0.043886 0.061403 2.000000
0.465339 0.022240 0.045307 2.000000
0.465339 -0.085076 -0.013257 2.000000
0.465339 -0.033657 -0.036890 2.000000
0.465339 0.008151 -0.010056 2.000000
0.465339 0.047490 -0.010961 2.000000
0.465339 0.043841 0.067601 2.000000
0.465339 0.095789 0.003627 2.000000
0.465339 -0.029042 -0.083953 2.000000
0.465339 -0.025424 -0.050003 2.000000
0.465339 0.066257 0.043991 2.000000
0.465339 -0.025171 0.035346 2.000000
0.465339 0.038920 0.062756 2.000000
0.465339 -0.071678 0.007743 2.000000
0.465339 0.010842 0.008532 2.000000
0.465339 -0.073403 -0.065965 2.000000
0.465339 -0.025035 0.005882 2.000000
0.465339 0.067505 0.057821 2.000000
0.465339 -0.005183 0.026623 2.000000
0.465339 -0.079355 0.024232 2.000000
0.465339 -0.038370 0.048603 2.000000
0.465339 -0.043565 0.009838 2.000000
0.465339 -0.079866 0.031823 2.000000
0.465339 -0.009825 -0.026915 2.000000
0.465339 -0.068036 0.033775 2.000000
0.465339 0.016521 -0.068516 2.000000
0.465339 0.035023 -0.078210 2.000000
0.465339 -0.023506 0.078353 2.000000
0.465339 -0.027715 -0.016417 2.000000
0.465339 -0.015536 -0.095286 2.000000
0.465339 -0.061906 -0.071566 2.000000
0.465339 -0.027818 -0.014937 2.000000
0.465339 0.092518 -0.007707 2.000000
0.465339 -0.015241 0.042577 2.000000
0.465339 -0.032460 -0.037993 2.000000
0.465339 -0.056813 -0.050225 2.000000
0.465339 0.067772 0.069472 2.000000
0.465339 0.026110 0.023216 2.000000
0.465339 0.035852 -0.034992 2.000000
0.465339 -0.013535 -0.038171 2.000000
0.465339 0.059885 -0.012083 2.000000
0.465339 0.071785 0.034082 2.000000
0.465339 -0.003199 0.092922 2.000000
0.465339 0.013101 0.051136 2.000000
0.465339 0.053313 -0.055416 2.000000
0.465339 0.051382 -0.001981 2.000000
0.465339 -0.074592 -0.037577 2.000000
0.465339 -0.051625 -0.059281 2.000000
0.465339 0.000916 -0.065636 2.000000
0.465339 0.009960 0.057957 2.000000
0.465339 -0.089251 0.018280 2.000000
0.465339 -0.025625 0.057114 2.000000
0.465339 0.035235 0.068083 2.000000
0.465339 0.020703 -0.096211 2.000000
0.465339 0.017464 -0.033820 2.000000
0.465339 0.029771 0.019442 2.000000
0.465339 0.085957 0.025421 2.000000
0.465339 -0.086827 -0.007797 2.000000
0.465339 0.029227 -0.002933 2.000000
0.465339 0.062613 -0.054042 2.000000
0.465339 -0.036964 0.064513 2.000000
0.465339 0.041955 0.057620 2.000000
0.465339 0.069480 0.047317 2.000000
0.465339 0.063646 0.059441 2.000000
0.465339 -0.051532 0.012305 2.000000
0.465339 0.000589 0.076014 2.000000
0.465339 0.028980 0.007977 2.000000
0.465339 -0.062469 -0.059828 2.000000
0.465339 -0.007300 0.028648 2.000000
0.465339 -0.022817 0.097183 2.000000
0.465339 0.020529 -0.027598 2.000000
0.465339 0.024730 -0.020174 2.000000
0.465339 -0.032616 0.052858 2.000000
0.465339 -0.051166 -0.032624 2.000000
0.465339 0.066583 0.014812 2.000000
0.465339 -0.019906 0.054298 2.000000
0.465339 0.060571 0.052375 2.000000
0.465339 0.029287 0.053199 2.000000
0.465339 -0.013020 0.017726 2.000000
0.465339 -0.001740 -0.069692 2.000000
0.465339 -0.013706 -0.003035 2.000000
0.465339 0.026294 -0.019912 2.000000
0.465339 -0.029153 0.023523 2.000000
0.465339 -0.048487 -0.085041 2.000000
0.465339 0.032045 -0.020759 2.000000
0.465339 0.053517 0.022738 2.000000
0.465339 0.030713 -0.090610 2.000000
0.465339 0.020691 -0.020575 2.000000
0.465339 -0.058782 0.029320 2.000000
0.465339 0.053585 0.036121 2.000000
0.465339 -0.012810 0.001188 2.000000
0.465339 0.087635 -0.010868 2.000000
0.465339 0.030079 -0.018409 2.000000
0.465339 0.051749 0.075797 2.000000
0.465339 -0.087635 -0.025004 2.000000
0.465339 -0.026189 -0.079720 2.000000
0.465339 -0.036137 -0.031407 2.000000
0.465339 -0.019895 0.003126 2.000000
0.465339 -0.058902 0.008641 2.000000
0.465339 0.024319 0.074798 2.000000
0.465339 0.004831 0.092030 2.000000
0.465339 0.088480 -0.016362 2.000000
0.465339 0.081561 -0.035656 2.000000
0.465339 0.007607 -0.024282 2.000000
0.465339 -0.034712 0.070003 2.000000
0.465339 -0.012771 -0.056573 2.000000
0.465339 -0.045281 -0.043645 2.000000
0.465339 -0.063332 -0.049022 2.000000
0.465339 -0.014276 -0.060972 2.000000
0.465339 -0.056654 0.062020 2.000000
0.465339 0.046975 0.006488 2.000000
0.465339 0.062700 -0.066522 2.000000
0.465339 -0.043337 0.066708 2.000000
0.465339 -0.015118 0.023525 2.000000
0.465339 -0.076191 -0.059913 2.000000
0.465339 -0.073306 -0.058078 2.000000
0.465339 -0.034006 -0.034385 2.000000
0.465339 0.027898 0.055384 2.000000
0.465339 -0.048941 0.036123 2.000000
0.465339 -0.011424 -0.079518 2.000000
0.465339 -0.028936 0.052139 2.000000
0.465339 0.083411 -0.009321 2.000000
0.465339 -0.012072 0.050308 2.000000
0.465339 0.059872 -0.030639 2.000000
0.465339 -0.014115 -0.087977 2.000000
0.465339 -0.085210 0.026653 2.000000
0.465339 -0.045172 0.081943 2.000000
0.465339 -0.009589 0.066553 2.000000
0.465339 0.003295 0.015737 2.000000
0.465339 0.008090 -0.060417 2.000000
0.465339 -0.022834 -0.039809 2.000000
0.465339 -0.050603 -0.083188 2.000000
0.465339 0.067059 -0.045943 2.000000
0.465339 0.081866 -0.023355 2.000000
0.465339 -0.079050 -0.032647 2.000000
0.465339 0.066674 0.055403 2.000000
0.465339 0.062906 -0.056178 2.000000
0.465339 -0.082293 -0.054295 2.000000
0.465339 0.022083 0.018444 2.000000
0.465339 -0.003425 -0.080314 2.000000
0.465339 -0.043742 0.077597 2.000000
0.465339 0.032110 -0.030224 2.000000
0.465339 0.019728 -0.063739 2.000000
0.465339 0.072700 0.014286 2.000000
0.465339 -0.055627 0.063241 2.000000
0.465339 -0.046784 -0.084619 2.000000
0.465339 -0.018769 0.018865 2.000000
0.465339 -0.016554 -0.077662 2.000000
0.465339 0.061934 -0.022248 2.000000
0.465339 0.061225 0.018301 2.000000
0.465339 -0.015988 -0.037549 2.000000
0.465339 0.072211 -0.034054 2.000000
0.465339 0.022840 0.015004 2.000000
0.465339 -0.070578 -0.010891 2.000000
0.465339 -0.020555 0.073228 2.000000
0.465339 -0.037069 0.027294 2.000000
0.465339 0.022814 -0.025147 2.000000
0.465339 0.023297 -0.048175 2.000000
0.465339 0.073967 -0.002555 2.000000
0.465339 -0.004626 0.094722 2.000000
0.465339 -0.086818 0.027250 2.000000
0.465339 0.025136 0.085122 2.000000
0.465339 -0.022787 -0.077008 2.000000
0.465339 -0.017222 -0.005543 2.000000
0.465339 0.032282 0.072478 2.000000
0.465339 0.024172 -0.093224 2.000000
0.465339 0.042365 -0.036754 2.000000
0.465339 0.048031 0.054515 2.000000
0.465339 0.086420 -0.003979 2.000000
0.465339 -0.015823 -0.031585 2.000000
0.465339 0.053786 0.037680 2.000000
0.465339 -0.019744 0.038937 2.000000
0.465339 0.004158 -0.024782 2.000000
0.465339 -0.045423 -0.019755 2.000000
0.465339 0.053213 -0.035766 2.000000
0.465339 0.070662 0.070089 2.000000
0.465339 -0.007355 0.022721 2.000000
0.465339 0.043782 0.063571 2.000000
0.465339 -0.035826 0.004445 2.000000
0.465339 0.095041 0.016666 2.000000
0.465339 0.024903 0.003257 2.000000
0.465339 0.060529 -0.056984 2.000000
0.465339 -0.094036 -0.023134 2.000000
0.465339 0.035015 0.052406 2.000000
0.465339 -0.007706 -0.045433 2.000000
0.465339 0.054054 -0.045952 2.000000
0.465339 0.029558 0.073370 2.000000
0.465339 -0.066263 -0.066206 2.000000
0.465339 -0.021987 -0.047093 2.000000
0.465339 0.063100 0.073737 2.000000
0.465339 -0.002326 0.067950 2.000000
0.465339 -0.016440 0.092613 2.000000
0.465339 0.057458 0.068138 2.000000
0.465339 0.060335 0.037896 2.000000
0.465339 0.016762 -0.003369 2.000000
0.465339 -0.041577 0.000563 2.000000
0.465339 -0.062523 -0.019428 2.000000
0.465339 -0.032147 -0.008649 2.000000
0.465339 -0.021213 -0.043969 2.000000
0.465339 0.033828 -0.055058 2.000000
0.465339 -0.008750 -0.097392 2.000000
0.465339 0.036986 0.016819 2.000000
0.465339 0.059340 0.026157 2.000000
0.465339 0.033646 -0.018408 2.000000
0.465339 0.002388 -0.097986 2.000000
0.465339 0.088767 -0.006400 2.000000
0.465339 -0.049645 -0.033080 2.000000
0.465339 -0.031652 -0.081047 2.000000
0.465339 0.018288 0.015434 2.000000
0.465339 0.054929 0.043034 2.000000
0.465339 0.020010 0.028018 2.000000
0.465339 0.075770 -0.028420 2.000000
0.465339 0.000772 -0.010040 2.000000
0.465339 -0.027856 0.089514 2.000000
0.465339 -0.032187 0.077290 2.000000
0.465339 -0.005909 -0.068057 2.000000
0.465339 -0.046533 -0.016992 2.000000
0.465339 -0.061370 0.025549 2.000000
0.465339 -0.020109 0.064438 2.000000
0.465339 -0.069192 0.029547 2.000000
0.465339 0.018752 0.012464 2.000000
0.465339 0.038940 -0.006570 2.000000
0.465339 0.080260 0.004626 2.000000
0.465339 0.056085 -0.000347 2.000000
0.465339 -0.000200 -0.042779 2.000000
0.465339 0.004894 0.031446 2.000000
0.465339 -0.056681 -0.081908 2.000000
0.465339 0.002471 -0.035699 2.000000
0.465339 0.097119 0.023418 2.000000
0.465339 -0.037328 -0.077373 2.000000
0.465339 -0.074452 -0.049262 2.000000
0.465339 0.054758 0.059144 2.000000
0.465339 0.058768 -0.066797 2.000000
0.465339 -0.040616 -0.004114 2.000000
0.465339 -0.002240 -0.016670 2.000000
0.465339 0.042864 0.023850 2.000000
0.465339 -0.058087 -0.009783 2.000000
0.465339 -0.000263 -0.082088 2.000000
0.465339 -0.048767 -0.039514 2.000000
0.465339 0.055644 -0.049054 2.000000
0.465339 0.039660 -0.063913 2.000000
0.465339 -0.038902 0.043485 2.000000
0.465339 0.002885 0.083109 2.000000
0.465339 0.013089 -0.093083 2.000000
0.465339 -0.053530 -0.037537 2.000000
0.465339 0.016902 0.064084 2.000000
0.465339 -0.067023 0.030802 2.000000
0.465339 0.075539 0.026981 2.000000
0.465339 0.035921 0.043050 2.000000
0.465339 0.067156 -0.026262 2.000000
0.465339 0.090934 0.022762 2.000000
0.465339 0.024628 -0.096246 2.000000
0.465339 -0.063787 0.035048 2.000000
0.465339 -0.066261 0.002319 2.000000
0.465339 -0.057624 0.011029 2.000000
0.465339 -0.009977 0.013693 2.000000
0.465339 -0.096999 0.013934 2.000000
0.465339 0.037837 0.090063 2.000000
0.465339 0.027528 -0.069132 2.000000
0.465339 0.086350 -0.047529 2.000000
0.465339 0.062771 0.068268 2.000000
0.465339 0.007771 0.014562 2.000000
0.465339 -0.047663 -0.086351 2.000000
0.465339 0.037562 0.061151 2.000000
0.465339 -0.040467 -0.024621 2.000000
0.465339 -0.028578 0.059271 2.000000
0.465339 -0.064210 0.012066 2.000000
0.465339 0.073820 0.001460 2.000000
0.465339 0.048838 0.066516 2.000000
0.465339 -0.029058 0.071826 2.000000
0.465339 0.002555 0.031938 2.000000
0.465339 -0.011153 -0.081168 2.000000
0.465339 -0.088955 -0.036127 2.000000
0.465339 0.098698 -0.012858 2.000000
0.465339 0.035393 0.080169 2.000000
0.465339 0.052285 -0.080916 2.000000
0.465339 -0.067548 -0.016127 2.000000
0.465339 -0.040115 0.087146 2.000000
0.465339 -0.082401 -0.016046 2.000000
0.465339 0.084216 0.047997 2.000000
0.465339 0.050194 -0.060573 2.000000
0.465339 0.059696 -0.028780 2.000000
0.465339 -0.036847 -0.011784 2.000000
0.465339 0.040966 -0.023073 2.000000
0.465339 0.011452 0.075752 2.000000
0.465339 0.049401 -0.058629 2.000000
0.465339 0.037153 -0.056418 2.000000
0.465339 0.043238 -0.045839 2.000000
0.465339 0.055072 -0.013137 2.000000
0.465339 -0.060645 -0.039366 2.000000
0.465339 0.054139 -0.014260 2.000000
0.465339 -0.075587 0.065132 2.000000
0.465339 -0.011856 0.030567 2.000000
0.465339 -0.057116 0.026578 2.000000
0.465339 0.059609 0.002118 2.000000
0.465339 -0.003618 -0.016435 2.000000
0.465339 -0.010551 -0.019960 2.000000
0.465339 -0.041381 -0.040758 2.000000
0.465339 0.007855 0.020075 2.000000
0.465339 0.000306 -0.059373 2.000000
0.465339 0.004836 0.037918 2.000000
0.465339 -0.006494 -0.056470 2.000000
0.465339 -0.059011 0.080084 2.000000
0.465339 0.051038 -0.036734 2.000000
0.465339 -0.070633 -0.054679 2.000000
0.465339 -0.034878 0.063609 2.000000
0.465339 0.052242 0.085222 2.000000
0.465339 -0.068877 -0.032461 2.000000
0.465339 0.076521 -0.053925 2.000000
0.465339 0.063708 0.070086 2.000000
0.465339 0.091443 -0.021209 2.000000
0.465339 0.019780 0.069272 2.000000
0.465339 -0.061483 0.047057 2.000000
0.465339 0.007419 -0.063025 2.000000
0.465339 0.045055 -0.029523 2.000000
0.465339 -0.054316 0.065683 2.000000
0.465339 -0.058122 -0.026261 2.000000
0.465339 -0.066905 -0.002869 2.000000
0.465339 -0.032781 -0.086551 2.000000
0.465339 0.053436 0.050706 2.000000
0.465339 0.071308 0.058162 2.000000
0.465339 0.029517 -0.022905 2.000000
0.465339 0.056737 -0.046592 2.000000
0.465339 0.038093 0.038484 2.000000
0.465339 -0.060672 -0.016623 2.000000
0.465339 -0.025142 0.072510 2.000000
0.465339 -0.003340 0.033520 2.000000
0.465339 0.056639 0.072507 2.000000
0.465339 0.015027 0.068412 2.000000
0.465339 -0.068115 0.046557 2.000000
0.465339 -0.065738 0.068021 2.000000
0.465339 0.000846 -0.015943 2.000000
0.465339 -0.098040 0.015136 2.000000
0.465339 0.030843 -0.029555 2.000000
0.465339 0.025228 0.026769 2.000000
0.465339 0.069729 0.019598 2.000000
0.465339 0.074935 -0.034147 2.000000
0.465339 -0.027233 0.069198 2.000000
0.465339 0.024402 -0.027094 2.000000
0.465339 0.054629 -0.041504 2.000000
0.465339 -0.029549 -0.073636 2.000000
0.465339 -0.001310 0.024924 2.000000
0.465339 -0.007909 0.048347 2.000000
0.465339 0.045481 0.002769 2.000000
0.465339 0.027298 0.007381 2.000000
0.465339 0.013505 -0.069400 2.000000
0.465339 0.079775 -0.042728 2.000000
0.465339 -0.010795 0.044989 2.000000
0.465339 -0.036623 0.046408 2.000000
0.465339 0.099771 0.006418 2.000000
0.465339 0.012750 0.069311 2.000000
0.465339 -0.010067 -0.022945 2.000000
0.465339 0.093794 0.024187 2.000000
0.465339 -0.085296 0.041937 2.000000
0.465339 0.042171 0.063819 2.000000
0.465339 -0.004518 0.044466 2.000000
0.465339 -0.001202 -0.026258 2.000000
0.465339 -0.035952 0.078321 2.000000
0.465339 -0.094445 0.016539 2.000000
0.465339 0.047093 0.009948 2.000000
0.465339 0.041446 -0.072348 2.000000
0.465339 -0.036497 0.032068 2.000000
0.465339 -0.029720 0.063151 2.000000
0.465339 0.061436 0.042917 2.000000
0.465339 -0.006294 -0.064844 2.000000
0.465339 0.030897 0.095182 2.000000
0.465339 -0.020239 -0.092849 2.000000
0.465339 0.004888 -0.053461 2.000000
0.465339 0.028147 -0.028942 2.000000
0.465339 -0.053737 -0.039289 2.000000
0.465339 0.014706 -0.061024 2.000000
0.465339 -0.010572 0.060022 2.000000
0.465339 0.007945 0.049384 2.000000
0.465339 0.058721 0.020120 2.000000
0.465339 -0.041162 0.021228 2.000000
0.465339 -0.086829 0.041714 2.000000
0.465339 0.038384 0.033989 2.000000
0.465339 0.068704 -0.011094 2.000000
0.465339 0.077089 0.053261 2.000000
0.465339 -0.054478 -0.063464 2.000000
0.465339 0.086299 -0.021350 2.000000
0.465339 -0.015756 0.007527 2.000000
0.465339 0.028084 0.042116 2.000000
0.465339 0.090245 -0.006057 2.000000
0.465339 0.034634 -0.036841 2.000000
0.465339 -0.004548 0.058894 2.000000
0.465339 0.077050 -0.027395 2.000000
0.465339 0.054124 0.061121 2.000000
0.465339 -0.005296 -0.049567 2.000000
0.465339 0.066395 -0.040137 2.000000
0.465339 -0.086187 -0.006335 2.000000
0.465339 -0.057402 0.058375 2.000000
0.465339 0.042567 -0.006798 2.000000
0.465339 0.027217 -0.079077 2.000000
0.465339 0.012861 0.008360 2.000000
0.465339 -0.053973 -0.061069 2.000000
0.465339 0.087700 0.035434 2.000000
0.465339 -0.043507 0.045259 2.000000
0.465339 -0.038008 0.016522 2.000000
0.465339 0.034952 -0.050065 2.000000
0.465339 -0.038483 0.082014 2.000000
0.465339 0.079213 -0.034309 2.000000
0.465339 -0.066938 0.000961 2.000000
0.465339 0.064491 -0.044909 2.000000
0.465339 -0.003417 0.041094 2.000000
0.465339 -0.061595 0.005628 2.000000
0.465339 0.000188 -0.062550 2.000000
0.465339 0.027017 0.015356 2.000000
0.465339 0.026056 -0.087319 2.000000
0.465339 -0.012756 -0.067993 2.000000
0.465339 0.011739 -0.060575 2.000000
0.465339 -0.054383 -0.054531 2.000000
0.465339 -0.033200 -0.072083 2.000000
0.465339 -0.019192 -0.040231 2.000000
0.465339 -0.010644 -0.030934 2.000000
0.465339 0.081591 -0.032187 2.000000
0.465339 0.011150 0.058758 2.000000
0.465339 0.017553 0.054592 2.000000
0.465339 -0.059546 0.064630 2.000000
0.465339 0.051437 -0.021421 2.000000
0.465339 -0.066526 -0.072533 2.000000
0.465339 -0.004810 -0.089681 2.000000
0.465339 -0.013868 0.064486 2.000000
0.465339 0.078758 -0.044124 2.000000
0.465339 0.039238 0.084828 2.000000
0.465339 -0.030609 -0.047553 2.000000
0.465339 -0.053685 0.057423 2.000000
0.465339 0.048129 0.081389 2.000000
0.465339 0.081271 0.043745 2.000000
0.465339 0.079580 -0.002801 2.000000
0.465339 0.038776 -0.074942 2.000000
0.465339 0.091322 0.012290 2.000000
0.465339 0.000643 0.016470 2.000000
0.465339 0.025700 0.083076 2.000000
0.465339 0.037705 0.018575 2.000000
0.465339 -0.030274 -0.028077 2.000000
0.465339 -0.008530 0.074576 2.000000
0.465339 -0.092203 -0.036162 2.000000
0.465339 0.019154 0.096729 2.000000
0.465339 -0.076756 -0.054526 2.000000
0.465339 0.071101 0.013647 2.000000
0.465339 -0.030361 -0.043461 2.000000
0.465339 0.047096 0.067624 2.000000
0.465339 -0.030396 -0.090391 2.000000
0.465339 -0.030201 -0.010067 2.000000
0.465339 0.053248 0.073470 2.000000
0.465339 0.031845 0.091446 2.000000
0.465339 0.095132 -0.010421 2.000000
0.465339 0.035569 0.064168 2.000000
0.465339 -0.026856 -0.076866 2.000000
0.465339 -0.084891 -0.036497 2.000000
0.465339 -0.065472 -0.026118 2.000000
0.465339 0.051397 -0.032738 2.000000
0.465339 0.010018 -0.077043 2.000000
0.465339 0.088443 0.015438 2.000000
0.465339 -0.083151 0.051994 2.000000
0.465339 0.055073 0.080530 2.000000
0.465339 0.011386 0.044850 2.000000
0.465339 0.021723 0.075408 2.000000
0.465339 0.050030 -0.050107 2.000000
0.465339 -0.086650 -0.038925 2.000000
0.465339 -0.096652 -0.005732 2.000000
0.465339 0.010164 0.019128 2.000000
0.465339 0.037268 0.055504 2.000000
0.465339 -0.000905 -0.056667 2.000000
0.465339 0.015421 -0.063786 2.000000
0.465339 -0.063208 -0.047556 2.000000
0.465339 0.064159 -0.024486 2.000000
0.465339 -0.028053 0.080185 2.000000
0.465339 0.063027 0.024306 2.000000
0.465339 0.049115 0.026182 2.000000
0.465339 0.000794 -0.096677 2.000000
0.465339 0.019002 -0.049288 2.000000
0.465339 0.004634 -0.070374 2.000000
0.465339 0.078974 -0.021307 2.000000
0.465339 -0.035824 -0.065027 2.000000
0.465339 -0.049023 0.028942 2.000000
0.465339 0.041714 -0.039341 2.000000
0.465339 0.046486 -0.083322 2.000000
0.465339 -0.044336 0.005296 2.000000
0.465339 -0.028514 0.008599 2.000000
0.465339 -0.008878 -0.072533 2.000000
0.465339 -0.038708 -0.078240 2.000000
0.465339 0.045023 0.084109 2.000000
0.465339 0.002375 0.073261 2.000000
0.465339 -0.017850 0.081731 2.000000
0.465339 0.040828 -0.029833 2.000000
0.465339 0.050397 -0.079392 2.000000
0.465339 0.070228 -0.032690 2.000000
0.465339 -0.026030 -0.087698 2.000000
0.465339 0.020640 0.079820 2.000000
0.465339 -0.025739 0.065006 2.000000
0.465339 -0.025260 0.082109 2.000000
0.465339 0.058482 0.058799 2.000000
0.465339 0.011074 -0.093953 2.000000
0.465339 0.055152 0.003524 2.000000
0.465339 -0.009780 -0.018823 2.000000
0.465339 0.042823 -0.043262 2.000000
0.465339 0.062455 0.027334 2.000000
0.465339 0.019835 -0.023548 2.000000
0.465339 0.059208 -0.061887 2.000000
0.465339 0.063978 -0.030450 2.000000
0.465339 0.052150 0.066591 2.000000
0.465339 0.047045 -0.015325 2.000000
0.465339 0.014618 -0.007184 2.000000
0.465339 0.035788 -0.068857 2.000000
0.465339 0.029351 0.071204 2.000000
0.465339 -0.096846 -0.009844 2.000000
0.465339 -0.050271 -0.020824 2.000000
0.465339 -0.050045 0.022940 2.000000
0.465339 -0.091085 -0.015703 2.000000
0.465339 -0.067897 0.035534 2.000000
0.465339 -0.028849 0.039576 2.000000
0.465339 -0.032211 -0.045159 2.000000
0.465339 -0.094680 -0.012532 2.000000
0.465339 0.064063 -0.015435 2.000000
0.465339 0.036150 0.074330 2.000000
0.465339 0.010880 -0.003970 2.000000
0.465339 -0.001976 0.034230 2.000000
0.465339 0.018912 -0.065629 2.000000
0.465339 0.027244 -0.080501 2.000000
0.465339 -0.079030 0.001159 2.000000
0.465339 -0.016018 -0.040374 2.000000
0.465339 0.073414 -0.043351 2.000000
0.465339 -0.065196 -0.011348 2.000000
0.465339 -0.038215 -0.065226 2.000000
0.465339 -0.076290 0.039327 2.000000
0.465339 -0.058349 -0.036818 2.000000
0.465339 -0.059596 0.000946 2.000000
0.465339 0.063598 0.003678 2.000000
0.465339 -0.002164 -0.022106 2.000000
0.465339 0.008250 0.025567 2.000000
0.465339 0.036044 0.082473 2.000000
0.465339 -0.017659 -0.083819 2.000000
0.465339 -0.037987 -0.025158 2.000000
0.465339 0.058865 -0.039432 2.000000
0.465339 0.087920 -0.046947 2.000000
0.465339 -0.002749 0.062782 2.000000
0.465339 -0.065779 -0.007489 2.000000
0.465339 -0.091169 -0.004931 2.000000
0.465339 0.035468 -0.029089 2.000000
0.465339 -0.047378 -0.000209 2.000000
0.465339 -0.038419 -0.060252 2.000000
0.465339 -0.029943 -0.057330 2.000000
0.465339 0.059350 0.068038 2.000000
0.465339 0.071454 0.018333 2.000000
0.465339 0.026907 -0.013772 2.000000
0.465339 -0.059515 -0.021412 2.000000
0.465339 0.029101 -0.079781 2.000000
0.465339 -0.043816 -0.078321 2.000000
0.465339 0.054871 0.062576 2.000000
0.465339 -0.040578 0.018892 2.000000
0.465339 0.080919 0.005910 2.000000
0.465339 -0.037290 0.018143 2.000000
0.465339 -0.044245 -0.076656 2.000000
0.465339 -0.030766 -0.035269 2.000000
0.465339 0.032081 0.024864 2.000000
0.465339 0.010125 -0.024445 2.000000
0.465339 0.054744 -0.019388 2.000000
0.465339 -0.005958 -0.008203 2.000000
0.465339 -0.009974 0.039311 2.000000
0.465339 -0.006692 -0.082255 2.000000
0.465339 0.007873 0.059954 2.000000
0.465339 -0.043567 -0.056491 2.000000
0.465339 0.047959 0.029454 2.000000
0.465339 -0.011595 -0.072116 2.000000
0.465339 -0.074853 -0.004156 2.000000
0.465339 0.050979 0.073504 2.000000
0.465339 -0.011742 -0.086032 2.000000
0.465339 0.000677 -0.049837 2.000000
0.465339 -0.072204 0.021160 2.000000
0.465339 -0.010608 -0.054701 2.000000
0.465339 0.093301 -0.018337 2.000000
0.465339 0.073611 -0.020346 2.000000
0.465339 -0.061551 0.010693 2.000000
0.465339 0.051122 -0.061945 2.000000
0.465339 0.046627 0.012005 2.000000
0.465339 -0.021806 0.047720 2.000000
0.465339 0.027226 -0.010470 2.000000
0.465339 0.018004 0.076476 2.000000
0.465339 -0.017162 0.080320 2.000000
0.465339 0.039877 -0.019180 2.000000
0.465339 0.011344 0.060672 2.000000
0.465339 -0.036820 0.058350 2.000000
0.465339 0.089590 -0.002202 2.000000
0.465339 0.083634 0.015084 2.000000
0.465339 -0.060917 0.031345 2.000000
0.465339 -0.033865 -0.054238 2.000000
0.465339 0.026403 0.072709 2.000000
0.465339 -0.004251 -0.070761 2.000000
0.465339 0.054066 -0.049764 2.000000
0.465339 0.089646 0.028272 2.000000
0.465339 -0.033855 0.017318 2.000000
0.465339 -0.054742 0.083487 2.000000
0.465339 0.003337 -0.013801 2.000000
0.465339 -0.085008 -0.011649 2.000000
0.465339 0.001310 -0.021453 2.000000
0.465339 -0.018312 -0.078089 2.000000
0.465339 0.026467 0.021549 2.000000
0.465339 0.091431 -0.031206 2.000000
0.465339 0.090890 -0.035441 2.000000
0.465339 -0.017887 -0.070778 2.000000
0.465339 0.065349 0.042726 2.000000
0.465339 0.077986 -0.031552 2.000000
0.465339 -0.020661 -0.017948 2.000000
0.465339 0.052302 0.038803 2.000000
0.465339 0.008231 -0.086842 2.000000
0.465339 0.014490 0.053721 2.000000
0.465339 0.076642 0.059192 2.000000
0.465339 -0.076030 0.036574 2.000000
0.465339 -0.084091 0.038606 2.000000
0.465339 -0.032307 0.017990 2.000000
0.465339 0.024030 0.081727 2.000000
0.465339 -0.033804 0.067877 2.000000
0.465339 -0.045533 -0.002834 2.000000
0.465339 0.073185 0.053971 2.000000
0.465339 0.047112 0.037246 2.000000
0.465339 0.002032 0.066731 2.000000
0.465339 0.058005 0.050650 2.000000
0.465339 0.015275 -0.067088 2.000000
0.465339 -0.030444 0.022372 2.000000
0.465339 -0.054526 0.028895 2.000000
0.465339 0.042890 0.053088 2.000000
0.465339 0.012861 -0.018117 2.000000
0.465339 0.023998 -0.003753 2.000000
0.465339 -0.027158 -0.075485 2.000000
0.465339 -0.000199 0.037704 2.000000
0.465339 0.065828 -0.030157 2.000000
0.465339 -0.009812 -0.024876 2.000000
0.465339 0.068957 0.064008 2.000000
0.465339 -0.028199 -0.017760 2.000000
0.465339 0.022555 0.085950 2.000000
0.465339 0.010889 -0.013248 2.000000
0.465339 -0.035522 0.002686 2.000000
0.465339 0.094404 -0.012009 2.000000
0.465339 -0.014658 -0.073102 2.000000
0.465339 0.065721 0.067455 2.000000
0.465339 0.045027 0.086741 2.000000
0.465339 -0.059816 0.054887 2.000000
0.465339 -0.040415 -0.053378 2.000000
0.465339 -0.084049 0.030938 2.000000
0.465339 -0.043115 -0.084911 2.000000
0.465339 0.006292 -0.079265 2.000000
0.465339 -0.030410 0.075458 2.000000
0.465339 0.012331 0.032461 2.000000
0.465339 0.016971 -0.063563 2.000000
0.465339 -0.086862 0.000871 2.000000
0.465339 0.067932 -0.049465 2.000000
0.465339 0.020641 -0.077049 2.000000
0.465339 -0.016931 -0.084999 2.000000
0.465339 0.032219 0.093209 2.000000
0.465339 -0.014848 -0.062913 2.000000
0.465339 0.021115 -0.008063 2.000000
0.465339 -0.085058 -0.027196 2.000000
0.465339 -0.041710 0.074064 2.000000
0.465339 -0.018219 0.090209 2.000000
0.465339 0.051501 0.033075 2.000000
0.465339 -0.035417 -0.042861 2.000000
0.465339 0.044925 0.071690 2.000000
0.465339 0.092185 -0.011950 2.000000
0.465339 -0.031045 0.065345 2.000000
0.465339 -0.010253 -0.049573 2.000000
0.465339 0.015275 -0.090390 2.000000
0.465339 0.033413 0.010397 2.000000
0.465339 0.037161 0.079895 2.000000
0.465339 -0.018225 -0.068644 2.000000
0.465339 0.016063 0.089297 2.000000
0.465339 0.090358 0.024430 2.000000
0.465339 0.029946 -0.063652 2.000000
0.465339 0.082519 -0.026249 2.000000
0.465339 -0.061827 -0.031596 2.000000
0.465339 0.024079 0.036567 2.000000
0.465339 0.089768 -0.028945 2.000000
0.465339 -0.000371 0.077596 2.000000
0.465339 -0.010106 0.089849 2.000000
0.465339 -0.046947 -0.011449 2.000000
0.465339 0.029075 -0.092841 2.000000
0.465339 0.051823 -0.017115 2.000000
0.465339 -0.015475 0.028383 2.000000
0.465339 0.026319 -0.085977 2.000000
0.465339 0.047034 -0.081812 2.000000
0.465339 0.085550 0.015530 2.000000
0.465339 0.076873 -0.008800 2.000000
0.465339 0.055576 0.012765 2.000000
0.465339 -0.057202 -0.020549 2.000000
0.465339 -0.070010 -0.029116 2.000000
0.465339 0.032497 0.085548 2.000000
0.465339 0.031601 0.029679 2.000000
0.465339 -0.024362 -0.058665 2.000000
0.465339 -0.093545 -0.021685 2.000000
0.465339 0.082924 -0.002744 2.000000
0.465339 0.038987 -0.036856 2.000000
0.465339 0.012038 0.017916 2.000000
0.465339 0.059463 0.008767 2.000000
0.465339 -0.009160 0.081685 2.000000
0.465339 0.017535 0.094105 2.000000
0.465339 0.018055 -0.081665 2.000000
0.465339 -0.078067 0.059904 2.000000
0.465339 -0.016218 -0.008388 2.000000
0.465339 0.030710 0.072510 2.000000
0.465339 -0.020165 -0.046666 2.000000
0.465339 -0.066057 -0.046629 2.000000
0.465339 0.055084 -0.038828 2.000000
0.465339 -0.055205 -0.040145 2.000000
0.465339 -0.018267 0.005974 2.000000
0.465339 0.012489 0.079304 2.000000
0.465339 -0.028297 -0.036143 2.000000
0.465339 -0.062214 -0.036339 2.000000
0.465339 -0.065688 -0.004369 2.000000
0.465339 0.039952 0.077166 2.000000
0.465339 0.033697 -0.006019 2.000000
0.465339 -0.006463 -0.006899 2.000000
0.465339 -0.052803 -0.030936 2.000000
0.465339 0.070518 0.065184 2.000000
0.465339 -0.008513 -0.063258 2.000000
0.465339 -0.033793 -0.075412 2.000000
0.465339 -0.021481 -0.052622 2.000000
0.465339 0.040495 -0.020681 2.000000
0.465339 -0.012814 -0.047990 2.000000
0.465339 0.090644 0.002847 2.000000
0.465339 0.007500 0.065707 2.000000
0.465339 -0.063468 -0.075290 2.000000
0.465339 -0.011047 0.084120 2.000000
0.465339 0.000186 0.098402 2.000000
0.465339 0.029815 0.069676 2.000000
0.465339 0.004166 0.029352 2.000000
0.465339 0.011612 -0.024924 2.000000
0.465339 0.019947 0.056170 2.000000
0.465339 -0.028126 0.092884 2.000000
0.465339 -0.011927 -0.014494 2.000000
0.465339 0.013655 -0.078857 2.000000
0.465339 -0.049641 -0.041435 2.000000
0.465339 0.034633 0.054081 2.000000
0.465339 -0.030969 -0.089067 2.000000
0.465339 0.032517 -0.070274 2.000000
0.465339 0.088203 -0.028269 2.000000
0.465339 0.026613 0.038096 2.000000
0.465339 0.011228 -0.075566 2.000000
0.465339 -0.057480 0.053299 2.000000
0.465339 -0.061897 -0.018124 2.000000
0.465339 0.048392 -0.087116 2.000000
0.465339 -0.041363 -0.060464 2.000000
0.465339 -0.007731 0.063556 2.000000
0.465339 -0.046283 -0.058532 2.000000
0.465339 -0.039570 -0.019594 2.000000
0.465339 0.033801 0.011942 2.000000
0.465339 0.025180 0.086723 2.000000
0.465339 -0.000445 -0.037364 2.000000
0.465339 0.063082 -0.028330 2.000000
0.465339 0.002232 -0.070156 2.000000
0.465339 0.013376 0.085351 2.000000
0.465339 -0.084843 -0.038530 2.000000
0.465339 -0.094003 -0.002894 2.000000
0.465339 -0.018315 0.031546 2.000000
0.465339 0.015684 0.029392 2.000000
0.465339 0.010245 -0.097296 2.000000
0.465339 -0.027884 -0.091455 2.000000
0.465339 -0.077711 -0.033942 2.000000
0.465339 -0.015119 0.078984 2.000000
0.465339 -0.009258 0.056746 2.000000
0.465339 0.000051 0.074644 2.000000
0.465339 0.043641 0.050206 2.000000
0.465339 0.027552 -0.092840 2.000000
0.465339 0.085339 0.007082 2.000000
0.465339 -0.060030 -0.006831 2.000000
0.465339 0.025594 0.054135 2.000000
0.465339 0.017119 -0.023709 2.000000
0.465339 -0.053383 0.030775 2.000000
0.465339 0.041654 -0.070688 2.000000
0.465339 -0.014535 0.025820 2.000000
0.465339 0.011643 0.051976 2.000000
0.465339 0.012437 -0.070747 2.000000
0.465339 -0.045861 0.055262 2.000000
0.465339 0.009919 -0.086629 2.000000
0.465339 0.039933 0.057888 2.000000
0.465339 0.054727 0.076268 2.000000
0.465339 0.082648 0.043404 2.000000
0.465339 0.001243 0.083429 2.000000
0.465339 0.027356 0.025546 2.000000
0.465339 0.070284 -0.059824 2.000000
0.465339 0.072738 -0.061672 2.000000
0.465339 0.039639 -0.072586 2.000000
0.465339 -0.073775 -0.007178 2.000000
0.465339 -0.059817 0.047302 2.000000
0.465339 0.010662 -0.001680 2.000000
0.465339 -0.083329 0.028160 2.000000
0.465339 -0.067395 -0.070627 2.000000
0.465339 -0.097319 -0.003671 2.000000
0.465339 -0.030823 -0.018975 2.000000
0.465339 0.004933 0.041251 2.000000
0.465339 -0.071037 0.016720 2.000000
0.465339 0.084560 -0.011592 2.000000
0.465339 -0.002994 0.032080 2.000000
0.465339 0.028721 0.093100 2.000000
0.465339 -0.017219 0.071579 2.000000
0.465339 -0.083221 -0.011464 2.000000
0.465339 -0.020649 0.014175 2.000000
0.465339 -0.044534 0.079752 2.000000
0.465339 -0.046362 0.048724 2.000000
0.465339 0.053506 0.012337 2.000000
0.465339 0.049412 -0.012350 2.000000
0.465339 -0.019634 -0.077039 2.000000
0.465339 0.015371 0.019076 2.000000
0.465339 0.060632 -0.040076 2.000000
0.465339 0.002844 -0.099565 2.000000
0.465339 -0.048909 0.065029 2.000000
0.465339 0.055320 -0.053280 2.000000
0.465339 -0.070496 0.041465 2.000000
0.465339 0.030983 -0.007313 2.000000
0.465339 0.025810 0.036338 2.000000
0.465339 0.038373 -0.091730 2.000000
0.465339 -0.063853 -0.016839 2.000000
0.465339 -0.036414 0.076948 2.000000
0.465339 0.018232 0.038628 2.000000
0.465339 0.069070 0.068103 2.000000
0.465339 -0.018865 -0.033389 2.000000
0.465339 0.010091 0.077694 2.000000
0.465339 0.052527 0.048734 2.000000
0.465339 0.001200 -0.030315 2.000000
0.465339 0.030656 -0.035081 2.000000
0.465339 0.002764 -0.057871 2.000000
0.465339 0.034225 0.087858 2.000000
0.465339 0.042712 0.030505 2.000000
0.465339 -0.041503 -0.032191 2.000000
0.465339 -0.057395 -0.065912 2.000000
0.465339 0.089241 -0.023455 2.000000
0.465339 0.042279 -0.080751 2.000000
0.465339 -0.016519 0.015697 2.000000
0.465339 -0.030418 -0.085322 2.000000
0.465339 -0.029264 -0.086401 2.000000
0.465339 -0.085261 -0.046342 2.000000
0.465339 0.083620 -0.001144 2.000000
0.465339 0.028276 0.091222 2.000000
0.465339 0.002414 -0.009899 2.000000
0.465339 -0.064995 -0.071702 2.000000
0.465339 0.036103 0.020880 2.000000
0.465339 0.008079 -0.028597 2.000000
0.465339 0.039189 0.025585 2.000000
0.465339 -0.062048 -0.066625 2.000000
0.465339 -0.040351 -0.005814 2.000000
0.465339 0.013098 0.004653 2.000000
0.465339 -0.057669 0.002743 2.000000
0.465339 0.049399 0.035841 2.000000
0.465339 -0.038385 0.058695 2.000000
0.465339 -0.001875 -0.076449 2.000000
0.465339 0.008383 0.035973 2.000000
0.465339 -0.059085 0.022200 2.000000
0.465339 0.027568 0.011031 2.000000
0.465339 0.078455 0.010020 2.000000
0.465339 0.062636 0.016522 2.000000
0.465339 0.045656 0.059008 2.000000
0.465339 0.051950 -0.054919 2.000000
0.465339 -0.055083 0.041593 2.000000
0.465339 0.010004 0.012617 2.000000
0.465339 -0.038363 -0.001099 2.000000
0.465339 0.018349 -0.038205 2.000000
0.465339 -0.056429 -0.040887 2.000000
0.465339 0.042356 0.040324 2.000000
0.465339 0.057204 -0.039572 2.000000
0.465339 -0.073611 0.035012 2.000000
0.465339 -0.018283 0.062947 2.000000
0.465339 0.000457 0.089723 2.000000
0.465339 -0.065139 -0.063413 2.000000
0.465339 -0.025980 -0.063463 2.000000
0.465339 -0.025025 0.074477 2.000000
0.465339 0.070820 -0.007164 2.000000
0.465339 0.032526 -0.090949 2.000000
0.465339 -0.029783 0.086239 2.000000
0.465339 -0.057759 -0.058059 2.000000
0.465339 0.015085 -0.085801 2.000000
0.465339 -0.057025 -0.018698 2.000000
0.465339 -0.071097 0.038370 2.000000
0.465339 -0.080665 -0.027485 2.000000
0.465339 -0.083161 -0.048831 2.000000
0.465339 0.041089 0.005681 2.000000
0.465339 -0.089364 0.011884 2.000000
0.465339 -0.056132 0.075533 2.000000
0.465339 0.051925 -0.067731 2.000000
0.465339 0.019661 0.067392 2.000000
0.465339 0.019356 -0.046281 2.000000
0.465339 0.043277 -0.056901 2.000000
0.465339 0.084900 -0.004508 2.000000
0.465339 0.028055 0.085076 2.000000
0.465339 -0.046122 -0.026468 2.000000
0.465339 0.068171 -0.036629 2.000000
0.465339 -0.013206 0.088115 2.000000
0.465339 0.028755 0.074899 2.000000
0.465339 0.092090 0.016408 2.000000
0.465339 -0.042406 -0.030219 2.000000
0.465339 -0.021316 -0.063601 2.000000
0.465339 -0.035674 -0.075813 2.000000
0.465339 -0.090125 -0.003098 2.000000
0.465339 -0.021403 0.089155 2.000000
0.465339 -0.004696 0.038216 2.000000
0.465339 -0.041215 -0.037014 2.000000
0.465339 0.000869 0.055683 2.000000
0.465339 -0.034224 -0.013309 2.000000
0.465339 0.090105 -0.013117 2.000000
0.465339 -0.059745 -0.072458 2.000000
0.465339 -0.005376 0.015014 2.000000
0.465339 -0.030795 -0.051326 2.000000
0.465339 0.077837 0.000072 2.000000
0.465339 0.002144 -0.003500 2.000000
0.465339 -0.046482 0.050791 2.000000
0.465339 -0.068832 -0.005814 2.000000
0.465339 -0.000226 -0.073556 2.000000
0.465339 0.008425 0.011753 2.000000
0.465339 -0.082465 0.039686 2.000000
0.465339 -0.051030 -0.063807 2.000000
0.465339 -0.015256 -0.078703 2.000000
0.465339 -0.031877 0.049812 2.000000
0.465339 -0.012475 0.048621 2.000000
0.465339 0.084882 0.024403 2.000000
0.465339 0.024454 0.091749 2.000000
0.465339 0.025652 -0.066943 2.000000
0.465339 -0.005845 0.027927 2.000000
0.465339 -0.001203 -0.094297 2.000000
0.465339 0.013806 0.042654 2.000000
0.465339 -0.009847 0.037780 2.000000
0.465339 0.035393 -0.025207 2.000000
0.465339 0.017965 0.047598 2.000000
0.465339 0.071413 -0.011690 2.000000
0.465339 0.064885 -0.014342 2.000000
0.465339 0.070610 0.042006 2.000000
0.465339 -0.009892 -0.088177 2.000000
0.465339 -0.063540 -0.066223 2.000000
0.465339 -0.042931 0.026642 2.000000
0.465339 0.000697 0.091531 2.000000
0.465339 0.052172 -0.043846 2.000000
0.465339 -0.047091 0.063410 2.000000
0.465339 -0.019993 -0.005496 2.000000
0.465339 0.043965 0.061859 2.000000
0.465339 0.032492 -0.050705 2.000000
0.465339 0.089351 0.033997 2.000000
0.465339 0.001579 0.001326 2.000000
0.465339 0.025085 -0.083838 2.000000
0.465339 0.045996 0.007976 2.000000
0.465339 0.061505 -0.074690 2.000000
0.465339 0.018475 -0.014457 2.000000
0.465339 -0.021051 0.093012 2.000000
0.465339 -0.006245 0.082619 2.000000
0.465339 -0.031817 0.061385 2.000000
0.465339 -0.036827 -0.038317 2.000000
0.465339 0.060801 -0.007293 2.000000
0.465339 0.010749 -0.033668 2.000000
0.465339 0.048840 -0.060120 2.000000
0.465339 0.060394 0.074895 2.000000
0.465339 0.018470 -0.077195 2.000000
0.465339 -0.008939 -0.050831 2.000000
0.465339 -0.062048 0.018965 2.000000
0.465339 -0.032330 -0.074676 2.000000
0.465339 0.001843 -0.022827 2.000000
0.465339 0.001163 0.061205 2.000000
0.465339 0.024679 -0.073773 2.000000
0.465339 -0.029726 0.069952 2.000000
0.465339 -0.004459 -0.008047 2.000000
0.465339 -0.006044 -0.075367 2.000000
0.465339 0.013225 0.080629 2.000000
0.465339 -0.082376 0.031387 2.000000
0.465339 0.078459 -0.035758 2.000000
0.465339 -0.091812 0.015280 2.000000
0.465339 -0.048973 -0.006302 2.000000
0.465339 -0.006757 0.081089 2.000000
0.465339 0.043257 0.010137 2.000000
0.465339 0.076825 0.055410 2.000000
0.465339 0.043898 0.059464 2.000000
0.465339 -0.034690 0.082725 2.000000
0.465339 -0.087326 0.005302 2.000000
0.465339 0.082681 -0.028620 2.000000
0.465339 0.003439 -0.020043 2.000000
0.465339 0.075264 0.059308 2.000000
0.465339 -0.021994 0.000465 2.000000
0.465339 0.036155 0.036204 2.000000
0.465339 0.047348 -0.049871 2.000000
0.465339 -0.050302 0.029849 2.000000
0.465339 0.059404 0.014881 2.000000
0.465339 -0.011370 0.028821 2.000000
0.465339 -0.036256 0.083701 2.000000
0.465339 0.011596 -0.023305 2.000000
0.465339 -0.067563 -0.061507 2.000000
0.465339 0.090557 0.033321 2.000000
0.465339 0.014434 -0.042029 2.000000
0.465339 0.086882 -0.019251 2.000000
0.465339 0.055622 -0.075762 2.000000
0.465339 -0.010917 -0.089310 2.000000
0.465339 0.076371 -0.025670 2.000000
0.465339 -0.074853 0.035903 2.000000
0.465339 -0.040517 -0.055803 2.000000
0.465339 -0.050434 -0.048615 2.000000
0.465339 0.040380 -0.045610 2.000000
0.465339 0.089347 0.022455 2.000000
0.465339 0.028440 0.015591 2.000000
0.465339 -0.079466 0.044032 2.000000
0.465339 0.077424 0.024084 2.000000
0.465339 0.046372 0.035196 2.000000
0.465339 0.071909 -0.042813 2.000000
0.465339 0.028113 0.081141 2.000000
0.465339 0.021157 0.005288 2.000000
0.465339 0.053813 -0.063363 2.000000
0.465339 0.015457 0.033607 2.000000
0.465339 -0.061961 0.059128 2.000000
0.465339 -0.060741 -0.009442 2.000000
0.465339 -0.026971 -0.092497 2.000000
0.465339 0.089775 0.004511 2.000000
0.465339 -0.055128 0.049181 2.000000
0.465339 -0.069338 -0.031162 2.000000
0.465339 0.009218 -0.000771 2.000000
0.465339 -0.059194 -0.058643 2.000000
0.465339 -0.066801 0.005246 2.000000
0.465339 -0.004882 -0.023324 2.000000
0.465339 0.007065 -0.047274 2.000000
0.465339 -0.048719 0.025337 2.000000
0.465339 -0.031323 -0.092107 2.000000
0.465339 -0.021102 -0.072099 2.000000
0.465339 -0.002195 -0.002829 2.000000
0.465339 -0.016715 0.017964 2.000000
0.465339 -0.028405 -0.044293 2.000000
0.465339 -0.089476 -0.012564 2.000000
0.465339 -0.011499 -0.048275 2.000000
0.465339 0.022064 -0.065092 2.000000
0.465339 -0.026043 0.037623 2.000000
0.465339 -0.058827 -0.066621 2.000000
0.465339 -0.055692 0.057589 2.000000
0.465339 -0.023822 -0.091624 2.000000
0.465339 0.085289 -0.020400 2.000000
0.465339 0.056825 0.027742 2.000000
0.465339 -0.041563 -0.058783 2.000000
0.465339 0.001110 0.038489 2.000000
0.465339 0.018720 0.016788 2.000000
0.465339 0.040981 -0.090678 2.000000
0.465339 -0.037426 0.090292 2.000000
0.465339 -0.026002 0.090168 2.000000
0.465339 0.024242 -0.035957 2.000000
0.465339 -0.022219 0.074684 2.000000
0.465339 0.059644 0.031234 2.000000
0.465339 -0.073604 -0.036518 2.000000
0.465339 -0.057150 -0.047160 2.000000
0.465339 -0.039764 0.012285 2.000000
0.465339 0.044527 0.023554 2.000000
0.465339 0.005235 -0.026202 2.000000
0.465339 0.082370 0.017655 2.000000
0.465339 -0.062339 0.027070 2.000000
0.465339 -0.046644 0.077048 2.000000
0.465339 0.057365 -0.000972 2.000000
0.465339 0.052723 -0.004587 2.000000
0.465339 -0.027031 0.056753 2.000000
0.465339 -0.062992 0.060908 2.000000
0.465339 -0.024538 0.017752 2.000000
0.465339 0.023909 0.048542 2.000000
0.465339 -0.023484 0.076107 2.000000
0.465339 -0.011960 0.038620 2.000000
0.465339 0.040539 -0.006798 2.000000
0.465339 -0.037862 -0.058199 2.000000
0.465339 -0.000598 -0.001143 2.000000
0.465339 0.039988 0.020498 2.000000
0.465339 0.033308 0.027811 2.000000
0.465339 -0.018765 -0.018452 2.000000
0.465339 -0.014286 -0.001682 2.000000
0.465339 0.044327 -0.017678 2.000000
0.465339 -0.049218 -0.028908 2.000000
0.465339 -0.013992 -0.005124 2.000000
0.465339 -0.063537 -0.046053 2.000000
0.465339 0.069536 -0.004451 2.000000
0.465339 0.099076 0.004569 2.000000
0.465339 0.016108 0.053920 2.000000
0.465339 -0.079336 0.003050 2.000000
0.465339 0.098161 -0.007300 2.000000
0.465339 -0.037820 -0.018905 2.000000
0.465339 -0.068770 0.055698 2.000000
0.465339 -0.009567 0.072814 2.000000
0.465339 -0.018869 -0.041677 2.000000
0.465339 0.023034 0.025334 2.000000
0.465339 -0.035247 0.043765 2.000000
0.465339 -0.049873 -0.025068 2.000000
0.465339 -0.058225 -0.027917 2.000000
0.465339 0.002242 0.025771 2.000000
0.465339 0.013207 -0.061342 2.000000
0.465339 0.065226 0.002504 2.000000
0.465339 0.019230 0.077232 2.000000
0.465339 0.032643 -0.025933 2.000000
0.465339 -0.067975 -0.020280 2.000000
0.465339 0.054227 -0.031999 2.000000
0.465339 0.080463 0.000950 2.000000
0.465339 0.082914 0.052000 2.000000
0.465339 -0.007039 0.058086 2.000000
0.465339 0.052840 0.080600 2.000000
0.465339 -0.073607 -0.050329 2.000000
0.465339 0.075586 0.020036 2.000000
0.465339 0.060050 -0.073831 2.000000
0.465339 -0.029400 0.037888 2.000000
0.465339 0.061107 0.001748 2.000000
0.465339 -0.081340 -0.011488 2.000000
0.465339 0.011030 -0.080314 2.000000
0.465339 0.047754 0.075496 2.000000
0.465339 0.034288 -0.011381 2.000000
0.465339 -0.009006 -0.021857 2.000000
0.465339 0.018508 -0.021960 2.000000
0.465339 -0.063357 -0.067901 2.000000
0.465339 -0.072289 0.046928 2.000000
0.465339 -0.020297 0.004727 2.000000
0.465339 0.044486 0.052849 2.000000
0.465339 0.022180 0.058420 2.000000
0.465339 0.064852 -0.029199 2.000000
0.465339 0.097566 0.004521 2.000000
0.465339 0.041081 0.037127 2.000000
0.465339 -0.049968 0.081748 2.000000
0.465339 -0.002245 0.078990 2.000000
0.465339 -0.038384 0.083661 2.000000
0.465339 0.052814 -0.076737 2.000000
0.465339 -0.037823 0.061271 2.000000
0.465339 0.037954 0.044944 2.000000
0.465339 0.038578 -0.077917 2.000000
0.465339 0.006271 0.044826 2.000000
0.465339 0.012758 0.041077 2.000000
0.465339 0.093895 0.001573 2.000000
0.465339 -0.051888 -0.029748 2.000000
0.465339 -0.024637 0.058284 2.000000
0.465339 0.084755 -0.047521 2.000000
0.465339 -0.079616 0.053213 2.000000
0.465339 0.077601 -0.061426 2.000000
0.465339 0.048386 0.040106 2.000000
0.465339 -0.079140 0.049069 2.000000
0.465339 -0.037643 0.088804 2.000000
0.465339 0.074741 -0.047422 2.000000
0.465339 0.076755 -0.044142 2.000000
0.465339 -0.064781 0.031652 2.000000
0.465339 -0.052934 0.004936 2.000000
0.465339 -0.050193 0.027143 2.000000
0.465339 -0.057501 -0.067425 2.000000
0.465339 0.046278 0.044388 2.000000
0.465339 0.095868 -0.016696 2.000000
0.465339 0.000463 0.066638 2.000000
0.465339 -0.069355 -0.070664 2.000000
0.465339 0.052791 -0.009281 2.000000
0.465339 0.083965 0.006101 2.000000
0.465339 -0.046598 0.061940 2.000000
0.465339 -0.093413 0.034696 2.000000
0.465339 0.023058 0.030191 2.000000
0.465339 -0.090172 -0.009524 2.000000
0.465339 0.068891 0.059803 2.000000
0.465339 -0.014577 -0.035095 2.000000
0.465339 0.069700 0.014586 2.000000
0.465339 0.070140 0.007356 2.000000
0.465339 -0.095622 0.028475 2.000000
0.465339 -0.024459 -0.015342 2.000000
0.465339 -0.059034 0.005608 2.000000
0.465339 -0.034468 -0.056741 2.000000
0.465339 -0.002778 -0.048776 2.000000
0.465339 -0.014170 -0.081862 2.000000
0.465339 0.049775 -0.039883 2.000000
0.465339 -0.077597 -0.019500 2.000000
0.465339 0.008789 0.079556 2.000000
0.465339 -0.063500 -0.056980 2.000000
0.465339 -0.007820 -0.078173 2.000000
0.465339 0.057463 -0.067718 2.000000
0.465339 0.029959 -0.058747 2.000000
0.465339 0.002692 0.004342 2.000000
0.465339 -0.012448 -0.081803 2.000000
0.465339 -0.000606 -0.086968 2.000000
0.465339 -0.000818 0.027008 2.000000
0.465339 0.034930 0.075633 2.000000
0.465339 -0.033457 0.034170 2.000000
0.465339 -0.039276 -0.050877 2.000000
0.465339 -0.042663 -0.044179 2.000000
0.465339 -0.021341 -0.007079 2.000000
0.465339 0.008978 -0.084391 2.000000
0.465339 0.078866 0.052953 2.000000
0.465339 0.075227 0.013418 2.000000
0.465339 0.052635 -0.074081 2.000000
0.465339 -0.083262 0.043793 2.000000
0.465339 0.095208 -0.024186 2.000000
0.465339 0.066885 -0.050837 2.000000
0.465339 0.033027 -0.044049 2.000000
0.465339 0.066075 -0.008533 2.000000
0.465339 -0.024808 0.053125 2.000000
0.465339 0.048125 0.002086 2.000000
0.465339 0.055260 -0.010236 2.000000
0.465339 -0.014377 -0.008827 2.000000
0.465339 -0.015786 -0.060597 2.000000
0.465339 0.003956 0.072866 2.000000
0.465339 -0.022231 -0.056546 2.000000
0.465339 0.009699 -0.009189 2.000000
0.465339 0.058400 0.072231 2.000000
0.465339 0.078184 -0.005923 2.000000
0.465339 0.042765 0.086709 2.000000
0.465339 0.019078 -0.088687 2.000000
0.465339 -0.034370 -0.031530 2.000000
0.465339 0.020309 -0.043283 2.000000
0.465339 0.040272 0.000618 2.000000
0.465339 0.030520 -0.016954 2.000000
0.465339 0.005000 0.078594 2.000000
0.465339 0.037097 -0.068208 2.000000
0.465339 -0.018067 -0.097967 2.000000
0.465339 -0.091953 -0.027871 2.000000
0.465339 -0.023427 -0.061218 2.000000
0.465339 0.098767 -0.006018 2.000000
0.465339 -0.045196 -0.027976 2.000000
0.465339 -0.083929 0.012065 2.000000
0.465339 -0.075577 -0.055551 2.000000
0.465339 0.024367 -0.034176 2.000000
0.465339 0.004428 -0.074563 2.000000
0.465339 -0.024592 -0.088910 2.000000
0.465339 -0.022982 -0.006935 2.000000
0.465339 0.031136 -0.033394 2.000000
0.465339 0.004363 -0.063968 2.000000
0.465339 0.079640 -0.056437 2.000000
0.465339 -0.043343 0.032754 2.000000
0.465339 -0.065618 0.069525 2.000000
0.465339 0.076483 -0.034088 2.000000
0.465339 -0.024836 -0.066761 2.000000
0.465339 -0.085832 -0.032830 2.000000
0.465339 -0.047775 0.086891 2.000000
0.465339 0.061100 0.058255 2.000000
0.465339 0.090313 0.015827 2.000000
0.465339 0.021236 0.089619 2.000000
0.465339 0.034478 -0.058214 2.000000
0.465339 -0.032553 -0.050026 2.000000
0.465339 -0.017318 0.045711 2.000000
0.465339 -0.095285 -0.005783 2.000000
0.465339 -0.042256 -0.068975 2.000000
0.465339 -0.060418 0.021220 2.000000
0.465339 -0.030714 -0.016061 2.000000
0.465339 0.083350 0.028195 2.000000
0.465339 0.028864 0.025837 2.000000
0.465339 -0.011804 -0.090781 2.000000
0.465339 0.042146 -0.074326 2.000000
0.465339 0.010777 0.024801 2.000000
0.465339 0.014321 -0.021770 2.000000
0.465339 -0.013489 0.054113 2.000000
0.465339 -0.011104 -0.098703 2.000000
0.465339 0.035279 -0.085667 2.000000
0.465339 0.065270 0.047442 2.000000
0.465339 0.035632 -0.045626 2.000000
0.465339 0.059257 0.069656 2.000000
0.465339 0.051488 0.050242 2.000000
0.465339 -0.026275 -0.058288 2.000000
0.465339 -0.055242 0.006004 2.000000
0.465339 0.090658 0.037509 2.000000
0.465339 0.047259 -0.032776 2.000000
0.465339 -0.066238 -0.068040 2.000000
0.465339 0.012384 -0.051422 2.000000
0.465339 0.007489 0.073549 2.000000
0.465339 0.023179 -0.052816 2.000000
0.465339 -0.065964 0.071710 2.000000
0.465339 -0.012985 -0.013458 2.000000
0.465339 0.006109 0.065156 2.000000
0.465339 0.016489 0.081601 2.000000
0.465339 -0.041102 0.067347 2.000000
0.465339 0.011989 -0.000953 2.000000
0.465339 -0.072828 -0.001450 2.000000
0.465339 0.028042 -0.076613 2.000000
0.465339 -0.051102 0.014673 2.000000
0.465339 -0.018531 0.047305 2.000000
0.465339 0.060818 0.051001 2.000000
0.465339 0.086239 0.008601 2.000000
0.465339 -0.075190 0.010351 2.000000
0.465339 -0.003188 -0.050384 2.000000
0.465339 0.039235 -0.081245 2.000000
0.465339 0.071631 0.009055 2.000000
0.465339 0.068169 0.026263 2.000000
0.465339 -0.042767 -0.019640 2.000000
0.465339 0.082005 -0.017376 2.000000
0.465339 0.060582 -0.002885 2.000000
0.465339 -0.064854 0.064303 2.000000
0.465339 -0.066624 0.027758 2.000000
0.465339 -0.054950 -0.034873 2.000000
0.465339 -0.011023 -0.095315 2.000000
0.465339 0.031092 0.089343 2.000000
0.465339 0.053417 0.027966 2.000000
0.465339 0.016332 0.092532 2.000000
0.465339 0.062468 0.025931 2.000000
