-0.466955 0.007071 -0.015664 3.000000
-0.466955 -0.014084 -0.067172 3.000000
-0.466955 -0.099219 -0.002314 3.000000
-0.466955 0.030174 0.027828 3.000000
-0.466955 0.009735 -0.017308 3.000000
-0.466955 0.020925 -0.031654 3.000000
-0.466955 0.053409 0.080108 3.000000
-0.466955 -0.057679 -0.052744 3.000000
-0.466955 -0.066852 -0.041582 3.000000
-0.466955 0.006513 -0.088877 3.000000
-0.466955 -0.063184 0.063026 3.000000
-0.466955 -0.086813 0.028535 3.000000
-0.466955 0.040308 0.080676 3.000000
-0.466955 0.067165 0.047236 3.000000
-0.466955 0.053487 -0.018068 3.000000
-0.466955 -0.018868 -0.033261 3.000000
-0.466955 0.031272 -0.020237 3.000000
-0.466955 0.047352 -0.057516 3.000000
-0.466955 -0.055501 -0.060774 3.000000
-0.466955 0.024403 0.001246 3.000000
-0.466955 -0.026668 -0.011321 3.000000
-0.466955 -0.060466 -0.012582 3.000000
-0.466955 -0.025706 -0.089819 3.000000
-0.466955 0.082668 0.047794 3.000000
-0.466955 -0.018250 -0.000686 3.000000
-0.466955 0.027593 0.042530 3.000000
-0.466955 -0.072636 0.005737 3.000000
-0.466955 -0.001929 0.037471 3.000000
-0.466955 0.044920 -0.036903 3.000000
-0.466955 -0.048377 -0.035762 3.000000
-0.466955 -0.038225 0.068520 3.000000
-0.466955 0.042910 0.038595 3.000000
-0.466955 -0.006987 -0.088261 3.000000
-0.466955 0.049181 -0.024184 3.000000
-0.466955 -0.052141 -0.076125 3.000000
-0.466955 0.055372 -0.050637 3.000000
-0.466955 0.018185 0.077054 3.000000
-0.466955 0.017246 0.097330 3.000000
-0.466955 -0.006263 -0.002399 3.000000
-0.466955 -0.086083 0.029991 3.000000
-0.466955 -0.012577 -0.085431 3.000000
-0.466955 -0.078167 0.033087 3.000000
-0.466955 0.013936 -0.056698 3.000000
-0.466955 0.074152 0.002553 3.000000
-0.466955 -0.058436 -0.018733 3.000000
-0.466955 0.020476 -0.015630 3.000000
-0.466955 -0.083944 0.009153 3.000000
-0.466955 -0.066666 -0.010803 3.000000
-0.466955 -0.080203 -0.015210 3.000000
-0.466955 -0.013403 -0.063691 3.000000
-0.466955 -0.002056 0.010578 3.000000
-0.466955 0.079332 -0.018760 3.000000
-0.466955 0.089537 0.029716 3.000000
-0.466955 0.001918 -0.044849 3.000000
-0.466955 0.047733 -0.083430 3.000000
-0.466955 -0.049172 -0.059793 3.000000
-0.466955 0.051600 0.032800 3.000000
-0.466955 -0.077333 -0.004534 3.000000
-0.466955 0.005741 0.085585 3.000000
-0.466955 -0.020599 -0.038391 3.000000
-0.466955 0.068943 0.014119 3.000000
-0.466955 -0.030141 -0.066483 3.000000
-0.466955 -0.051383 -0.081042 3.000000
-0.466955 -0.054842 -0.035059 3.000000
-0.466955 0.047861 0.033306 3.000000
-0.466955 -0.010606 -0.024408 3.000000
-0.466955 -0.035515 -0.057174 3.000000
-0.466955 -0.000764 -0.032033 3.000000
-0.466955 -0.079683 0.014038 3.000000
-0.466955 0.053493 0.054355 3.000000
-0.466955 0.024015 0.003296 3.000000
-0.466955 -0.023919 0.026274 3.000000
-0.466955 -0.055365 0.054422 3.000000
-0.466955 0.076844 0.008670 3.000000
-0.466955 -0.034190 -0.075660 3.000000
-0.466955 -0.082235 -0.001913 3.000000
-0.466955 -0.051759 0.036342 3.000000
-0.466955 -0.043942 -0.041660 3.000000
-0.466955 -0.087591 0.014799 3.000000
-0.466955 -0.013744 -0.006918 3.000000
-0.466955 0.087538 -0.033753 3.000000
-0.466955 0.059333 0.012450 3.000000
-0.466955 0.019831 0.053957 3.000000
-0.466955 0.071144 -0.014621 3.000000
-0.466955 0.025223 0.012085 3.000000
-0.466955 0.066103 -0.011621 3.000000
-0.466955 0.048938 -0.051038 3.000000
-0.466955 -0.049566 -0.046558 3.000000
-0.466955 -0.062825 -0.051082 3.000000
-0.466955 0.060676 -0.027857 3.000000
-0.466955 -0.028504 -0.016090 3.000000
-0.466955 0.026371 -0.067812 3.000000
-0.466955 -0.083201 -0.019052 3.000000
-0.466955 -0.015415 0.091340 3.000000
-0.466955 0.008225 -0.060813 3.000000
-0.466955 -0.081417 0.028622 3.000000
-0.466955 -0.020286 0.016528 3.000000
-0.466955 -0.044961 0.000138 3.000000
-0.466955 0.028551 0.067985 3.000000
-0.466955 0.055522 -0.008306 3.000000
-0.466955 0.058518 0.017983 3.000000
-0.466955 -0.095365 -0.021251 3.000000
-0.466955 -0.004505 -0.004084 3.000000
-0.466955 0.038855 0.021288 3.000000
-0.466955 -0.014357 -0.076693 3.000000
-0.466955 -0.008826 0.023054 3.000000
-0.466955 -0.090474 0.001605 3.000000
-0.466955 0.026385 0.076540 3.000000
-0.466955 -0.056382 0.063161 3.000000
-0.466955 0.081936 0.014935 3.000000
-0.466955 0.028769 0.038925 3.000000
-0.466955 0.048156 0.058213 3.000000
-0.466955 -0.069888 0.003490 3.000000
-0.466955 -0.047792 0.038586 3.000000
-0.466955 -0.036196 -0.011195 3.000000
-0.466955 -0.033009 -0.031197 3.000000
-0.466955 -0.004668 -0.071999 3.000000
-0.466955 0.042655 0.010752 3.000000
-0.466955 0.023448 -0.033186 3.000000
-0.466955 -0.081733 0.050576 3.000000
-0.466955 -0.012782 -0.003594 3.000000
-0.466955 0.084978 0.040285 3.000000
-0.466955 0.035158 -0.053216 3.000000
-0.466955 0.049800 -0.075109 3.000000
-0.466955 -0.002128 -0.028345 3.000000
-0.466955 0.008394 -0.014164 3.000000
-0.466955 0.029515 -0.043432 3.000000
-0.466955 -0.045578 -0.061442 3.000000
-0.466955 -0.025501 0.032471 3.000000
-0.466955 -0.013756 -0.087990 3.000000
-0.466955 -0.013908 0.084847 3.000000
-0.466955 0.021491 0.089675 3.000000
-0.466955 0.059063 0.060797 3.000000
-0.466955 0.073987 -0.029205 3.000000
-0.466955 -0.042046 0.070860 3.000000
-0.466955 0.000358 0.081849 3.000000
-0.466955 -0.046020 0.033987 3.000000
-0.466955 0.050075 -0.070254 3.000000
-0.466955 -0.036610 0.069084 3.000000
-0.466955 0.040649 -0.082116 3.000000
-0.466955 -0.094597 0.017738 3.000000
-0.466955 0.093822 0.003580 3.000000
-0.466955 0.043385 0.034975 3.000000
-0.466955 -0.038051 -0.013036 3.000000
-0.466955 -0.062868 -0.065283 3.000000
-0.466955 -0.043930 0.081132 3.000000
-0.466955 -0.005450 0.021730 3.000000
-0.466955 0.099028 0.013192 3.000000
-0.466955 0.074598 0.035904 3.000000
-0.466955 0.073331 0.065124 3.000000
-0.466955 -0.096136 0.014994 3.000000
-0.466955 0.051786 0.041636 3.000000
-0.466955 0.005933 0.001015 3.000000
-0.466955 -0.038364 0.010447 3.000000
-0.466955 0.023746 -0.003280 3.000000
-0.466955 -0.063744 0.058338 3.000000
-0.466955 0.032860 -0.077377 3.000000
-0.466955 -0.015198 0.072297 3.000000
-0.466955 0.042860 0.080873 3.000000
-0.466955 0.014157 0.077079 3.000000
-0.466955 0.048214 -0.014232 3.000000
-0.466955 0.004766 -0.017025 3.000000
-0.466955 0.088381 -0.021087 3.000000
-0.466955 -0.051273 -0.044846 3.000000
-0.466955 -0.019141 -0.022348 3.000000
-0.466955 -0.045519 -0.041654 3.000000
-0.466955 -0.059361 -0.044261 3.000000
-0.466955 -0.036422 0.000644 3.000000
-0.466955 0.055178 0.075047 3.000000
-0.466955 0.027179 0.029160 3.000000
-0.466955 0.029802 -0.014832 3.000000
-0.466955 -0.021472 -0.018210 3.000000
-0.466955 0.022398 0.010345 3.000000
-0.466955 0.051071 0.060956 3.000000
-0.466955 0.080299 0.021063 3.000000
-0.466955 0.024075 0.048213 3.000000
-0.466955 -0.027477 -0.051854 3.000000
-0.466955 -0.040052 0.004226 3.000000
-0.466955 -0.024749 -0.037785 3.000000
-0.466955 -0.087423 0.038054 3.000000
-0.466955 0.091333 -0.031253 3.000000
-0.466955 -0.013010 -0.038532 3.000000
-0.466955 0.000267 0.059572 3.000000
-0.466955 -0.080496 0.002156 3.000000
-0.466955 -0.081148 -0.053725 3.000000
-0.466955 -0.058238 -0.060935 3.000000
-0.466955 0.014218 0.073057 3.000000
-0.466955 0.055039 -0.020084 3.000000
-0.466955 -0.048256 -0.071527 3.000000
-0.466955 0.078805 -0.022188 3.000000
-0.466955 0.006550 -0.090259 3.000000
-0.466955 -0.002448 -0.009956 3.000000
-0.466955 0.016485 -0.042803 3.000000
-0.466955 -0.052169 -0.071586 3.000000
-0.466955 0.044576 0.058996 3.000000
-0.466955 0.090042 0.012079 3.000000
-0.466955 -0.051910 0.079203 3.000000
-0.466955 0.039986 -0.043055 3.000000
-0.466955 -0.088039 0.013375 3.000000
-0.466955 0.082666 0.008056 3.000000
-0.466955 -0.070808 -0.035639 3.000000
-0.466955 -0.007206 0.020156 3.000000
-0.466955 0.003179 0.004891 3.000000
-0.466955 -0.009554 -0.035315 3.000000
-0.466955 0.020504 -0.003461 3.000000
-0.466955 -0.038566 0.084616 3.000000
-0.466955 -0.065936 -0.067682 3.000000
-0.466955 -0.055945 -0.066862 3.000000
-0.466955 -0.031498 -0.012749 3.000000
-0.466955 0.062335 0.015487 3.000000
-0.466955 0.070446 0.013585 3.000000
-0.466955 -0.045789 0.040452 3.000000
-0.466955 -0.051197 0.021677 3.000000
-0.466955 -0.070783 0.007993 3.000000
-0.466955 0.076294 -0.043458 3.000000
-0.466955 -0.061784 0.039982 3.000000
-0.466955 0.007045 0.077929 3.000000
-0.466955 0.032522 -0.086991 3.000000
-0.466955 0.017439 -0.067272 3.000000
-0.466955 -0.084705 -0.015027 3.000000
-0.466955 -0.031259 -0.003349 3.000000
-0.466955 0.022587 -0.059388 3.000000
-0.466955 0.026712 0.052922 3.000000
-0.466955 -0.009230 -0.036767 3.000000
-0.466955 -0.038256 0.071991 3.000000
-0.466955 0.042416 0.063773 3.000000
-0.466955 -0.063943 0.051928 3.000000
-0.466955 -0.016989 0.072618 3.000000
-0.466955 -0.043163 0.060239 3.000000
-0.466955 0.000447 0.019045 3.000000
-0.466955 -0.040837 0.044840 3.000000
-0.466955 0.005554 -0.019510 3.000000
-0.466955 -0.011847 -0.021806 3.000000
-0.466955 0.013027 -0.069739 3.000000
-0.466955 -0.026024 0.016804 3.000000
-0.466955 0.035104 -0.092901 3.000000
-0.466955 -0.000443 0.005032 3.000000
-0.466955 -0.091944 -0.038138 3.000000
-0.466955 0.071392 -0.054061 3.000000
-0.466955 0.040761 0.049062 3.000000
-0.466955 -0.021538 0.085260 3.000000
-0.466955 -0.038485 0.055496 3.000000
-0.466955 -0.056895 0.054728 3.000000
-0.466955 -0.021998 0.097049 3.000000
-0.466955 -0.009129 -0.044920 3.000000
-0.466955 0.071015 -0.044626 3.000000
-0.466955 -0.063390 0.029923 3.000000
-0.466955 0.037436 -0.071539 3.000000
-0.466955 0.038049 -0.000214 3.000000
-0.466955 -0.093232 0.015291 3.000000
-0.466955 0.039076 0.004332 3.000000
-0.466955 0.037390 0.024404 3.000000
-0.466955 -0.053148 0.072163 3.000000
-0.466955 0.070476 0.042495 3.000000
-0.466955 0.008238 -0.018856 3.000000
-0.466955 -0.064918 -0.006389 3.000000
-0.466955 0.000806 0.061888 3.000000
-0.466955 -0.026834 -0.090848 3.000000
-0.466955 -0.029874 0.002622 3.000000
-0.466955 0.000729 0.042724 3.000000
-0.466955 0.049233 -0.004773 3.000000
-0.466955 0.036081 0.001339 3.000000
-0.466955 -0.079859 -0.023777 3.000000
-0.466955 -0.043855 0.008026 3.000000
-0.466955 -0.086708 0.043386 3.000000
-0.466955 0.062009 0.029421 3.000000
-0.466955 0.066718 0.063098 3.000000
-0.466955 0.086407 -0.037153 3.000000
-0.466955 0.062802 -0.025780 3.000000
-0.466955 -0.096787 0.013781 3.000000
-0.466955 -0.024786 -0.011083 3.000000
-0.466955 0.049098 0.061166 3.000000
-0.466955 -0.012574 0.023194 3.000000
-0.466955 0.007573 0.034418 3.000000
-0.466955 0.038258 0.038687 3.000000
-0.466955 -0.074597 -0.041368 3.000000
-0.466955 -0.038778 -0.003209 3.000000
-0.466955 0.068332 -0.016200 3.000000
-0.466955 0.067909 -0.009422 3.000000
-0.466955 0.056523 -0.067671 3.000000
-0.466955 -0.091320 -0.014489 3.000000
-0.466955 -0.032837 -0.073562 3.000000
-0.466955 0.048378 0.071673 3.000000
-0.466955 -0.035671 -0.035883 3.000000
-0.466955 -0.044811 -0.063133 3.000000
-0.466955 -0.002691 -0.007771 3.000000
-0.466955 0.029049 0.040625 3.000000
-0.466955 0.088557 0.034009 3.000000
-0.466955 0.031134 0.060656 3.000000
-0.466955 0.070101 0.036818 3.000000
-0.466955 0.007695 0.058821 3.000000
-0.466955 0.066480 -0.033465 3.000000
-0.466955 0.076250 0.016125 3.000000
-0.466955 0.029310 -0.009675 3.000000
-0.466955 0.065919 -0.019841 3.000000
-0.466955 -0.030852 -0.008923 3.000000
-0.466955 0.030549 -0.050429 3.000000
-0.466955 0.065641 0.014599 3.000000
-0.466955 0.049666 -0.021706 3.000000
-0.466955 0.081300 0.045806 3.000000
-0.466955 -0.065658 -0.036930 3.000000
-0.466955 -0.069491 -0.040275 3.000000
-0.466955 0.095955 -0.011757 3.000000
-0.466955 0.002961 0.017503 3.000000
-0.466955 -0.069544 0.066655 3.000000
-0.466955 -0.040047 -0.015557 3.000000
-0.466955 0.012733 0.001643 3.000000
-0.466955 0.062839 0.051943 3.000000
-0.466955 0.000124 -0.030871 3.000000
-0.466955 0.065700 0.067865 3.000000
-0.466955 0.012206 -0.026404 3.000000
-0.466955 -0.044507 -0.030104 3.000000
-0.466955 0.010583 -0.020518 3.000000
-0.466955 0.017993 -0.068801 3.000000
-0.466955 0.049707 0.019238 3.000000
-0.466955 0.076435 -0.048863 3.000000
-0.466955 0.063154 0.030150 3.000000
-0.466955 -0.086781 0.006468 3.000000
-0.466955 -0.040899 -0.045520 3.000000
-0.466955 -0.002795 0.035362 3.000000
-0.466955 0.014060 0.002423 3.000000
-0.466955 -0.051909 -0.035324 3.000000
-0.466955 0.039246 0.048367 3.000000
-0.466955 0.052035 0.043417 3.000000
-0.466955 0.014293 -0.012936 3.000000
-0.466955 0.055191 -0.057957 3.000000
-0.466955 0.078294 -0.051573 3.000000
-0.466955 -0.003319 0.072060 3.000000
-0.466955 0.002805 -0.016947 3.000000
-0.466955 0.084144 0.001898 3.000000
-0.466955 -0.000354 -0.049560 3.000000
-0.466955 0.018584 -0.006498 3.000000
-0.466955 -0.064002 0.024573 3.000000
-0.466955 0.033956 -0.031249 3.000000
-0.466955 -0.022465 0.025939 3.000000
-0.466955 0.072685 -0.008087 3.000000
-0.466955 -0.058523 -0.057696 3.000000
-0.466955 0.094891 -0.008473 3.000000
-0.466955 -0.001825 -0.043044 3.000000
-0.466955 -0.069669 0.037982 3.000000
-0.466955 0.054878 0.077006 3.000000
-0.466955 0.001577 0.044330 3.000000
-0.466955 0.031898 0.049142 3.000000
-0.466955 -0.042078 0.017407 3.000000
-0.466955 0.054170 -0.032565 3.000000
-0.466955 0.073227 0.027253 3.000000
-0.466955 0.055079 -0.016390 3.000000
-0.466955 -0.052619 0.013521 3.000000
-0.466955 -0.015048 0.034824 3.000000
-0.466955 0.002678 0.047475 3.000000
-0.466955 -0.009334 0.092226 3.000000
-0.466955 0.038439 -0.042289 3.000000
-0.466955 0.081280 0.002411 3.000000
-0.466955 -0.051501 0.023616 3.000000
-0.466955 -0.033126 -0.091232 3.000000
-0.466955 -0.046301 0.045359 3.000000
-0.466955 0.027671 -0.001703 3.000000
-0.466955 0.044144 0.066471 3.000000
-0.466955 0.021471 -0.053639 3.000000
-0.466955 -0.088571 -0.000223 3.000000
-0.466955 0.089639 -0.037440 3.000000
-0.466955 0.031523 -0.042763 3.000000
-0.466955 0.022900 0.047573 3.000000
-0.466955 -0.077806 -0.024287 3.000000
-0.466955 0.021727 -0.065314 3.000000
-0.466955 0.018639 0.082493 3.000000
-0.466955 0.044035 -0.031059 3.000000
-0.466955 -0.012173 -0.012491 3.000000
-0.466955 0.014410 -0.062178 3.000000
-0.466955 -0.020284 0.023449 3.000000
-0.466955 -0.060783 -0.002180 3.000000
-0.466955 0.032052 -0.011714 3.000000
-0.466955 -0.037213 -0.066483 3.000000
-0.466955 -0.093674 -0.022395 3.000000
-0.466955 -0.054249 0.006618 3.000000
-0.466955 0.023457 0.017368 3.000000
-0.466955 -0.034476 -0.080941 3.000000
-0.466955 0.005070 -0.022185 3.000000
-0.466955 -0.056455 0.021417 3.000000
-0.466955 0.052745 0.018777 3.000000
-0.466955 0.060648 -0.016894 3.000000
-0.466955 -0.078565 0.010353 3.000000
-0.466955 -0.045679 0.083340 3.000000
-0.466955 0.026903 0.073688 3.000000
-0.466955 0.021425 -0.094283 3.000000
-0.466955 -0.083408 -0.016099 3.000000
-0.466955 -0.015772 -0.073486 3.000000
-0.466955 0.032699 -0.055172 3.000000
-0.466955 0.037383 0.039746 3.000000
-0.466955 0.077355 0.014822 3.000000
-0.466955 -0.016200 0.032270 3.000000
-0.466955 0.062408 -0.029726 3.000000
-0.466955 0.088623 -0.008341 3.000000
-0.466955 0.050023 -0.080303 3.000000
-0.466955 0.063633 -0.038246 3.000000
-0.466955 -0.011234 -0.085247 3.000000
-0.466955 -0.078698 -0.020610 3.000000
-0.466955 0.032435 -0.049558 3.000000
-0.466955 0.044484 -0.056027 3.000000
-0.466955 0.065089 -0.064085 3.000000
-0.466955 -0.030669 -0.063167 3.000000
-0.466955 -0.078545 0.039779 3.000000
-0.466955 0.041076 0.082869 3.000000
-0.466955 -0.041192 -0.023063 3.000000
-0.466955 0.058171 0.013388 3.000000
-0.466955 0.024396 0.028114 3.000000
-0.466955 -0.014042 -0.048624 3.000000
-0.466955 -0.083121 0.050398 3.000000
-0.466955 -0.038615 -0.027142 3.000000
-0.466955 -0.078769 -0.050880 3.000000
-0.466955 -0.033096 0.028030 3.000000
-0.466955 0.087163 0.012343 3.000000
-0.466955 -0.047599 -0.008925 3.000000
-0.466955 0.048326 -0.037865 3.000000
-0.466955 -0.035508 -0.032462 3.000000
-0.466955 0.071514 0.050412 3.000000
-0.466955 0.078265 0.028341 3.000000
-0.466955 -0.084691 0.014019 3.000000
-0.466955 -0.013365 0.005927 3.000000
-0.466955 0.078423 0.034300 3.000000
-0.466955 0.049869 -0.030724 3.000000
-0.466955 0.067533 -0.046055 3.000000
-0.466955 0.000210 -0.051328 3.000000
-0.466955 -0.052184 0.017193 3.000000
-0.466955 -0.032707 0.044608 3.000000
-0.466955 -0.077343 0.041037 3.000000
-0.466955 0.040140 -0.005510 3.000000
-0.466955 -0.059121 0.022337 3.000000
-0.466955 -0.015724 0.064978 3.000000
-0.466955 -0.065694 -0.015706 3.000000
-0.466955 -0.025267 0.022455 3.000000
-0.466955 0.060503 0.025689 3.000000
-0.466955 0.086781 0.002361 3.000000
-0.466955 0.033595 0.057605 3.000000
-0.466955 0.041567 -0.066450 3.000000
-0.466955 0.062520 -0.067932 3.000000
-0.466955 -0.070792 -0.042976 3.000000
-0.466955 0.057847 -0.035574 3.000000
-0.466955 -0.072006 0.057236 3.000000
-0.466955 0.026997 0.081259 3.000000
-0.466955 -0.041044 -0.075561 3.000000
-0.466955 0.038734 -0.010246 3.000000
-0.466955 -0.008525 -0.083720 3.000000
-0.466955 -0.091035 -0.020166 3.000000
-0.466955 -0.043701 -0.015096 3.000000
-0.466955 0.034089 0.068832 3.000000
-0.466955 0.005282 -0.061169 3.000000
-0.466955 0.003331 0.031859 3.000000
-0.466955 0.049039 0.055917 3.000000
-0.466955 0.050878 -0.061714 3.000000
-0.466955 0.052524 0.050938 3.000000
-0.466955 -0.041194 0.025893 3.000000
-0.466955 -0.006489 0.058060 3.000000
-0.466955 0.002400 0.081515 3.000000
-0.466955 0.001840 -0.053470 3.000000
-0.466955 0.049543 0.031559 3.000000
-0.466955 0.046207 -0.047149 3.000000
-0.466955 0.076277 -0.063808 3.000000
-0.466955 0.027270 0.054305 3.000000
-0.466955 -0.027528 0.021719 3.000000
-0.466955 0.052433 0.035146 3.000000
-0.466955 -0.092570 0.001417 3.000000
-0.466955 -0.070355 -0.044804 3.000000
-0.466955 0.019787 0.079297 3.000000
-0.466955 -0.083546 0.044153 3.000000
-0.466955 0.017425 0.083076 3.000000
-0.466955 -0.059067 0.055982 3.000000
-0.466955 0.005124 0.094999 3.000000
-0.466955 -0.049395 0.052572 3.000000
-0.466955 -0.040203 -0.032774 3.000000
-0.466955 0.060318 0.022405 3.000000
-0.466955 -0.059421 -0.054021 3.000000
-0.466955 0.022349 -0.015922 3.000000
-0.466955 -0.045468 -0.059827 3.000000
-0.466955 -0.053400 0.045565 3.000000
-0.466955 -0.060501 -0.009064 3.000000
-0.466955 -0.070450 -0.047067 3.000000
-0.466955 0.084143 0.034074 3.000000
-0.466955 0.098874 0.002325 3.000000
-0.466955 -0.024463 -0.018193 3.000000
-0.466955 -0.013737 -0.044022 3.000000
-0.466955 -0.036847 0.058168 3.000000
-0.466955 0.050788 -0.008156 3.000000
-0.466955 0.016806 -0.056902 3.000000
-0.466955 -0.036485 0.048094 3.000000
-0.466955 -0.007901 -0.064862 3.000000
-0.466955 0.076770 0.010886 3.000000
-0.466955 -0.045227 -0.014492 3.000000
-0.466955 0.069802 0.032556 3.000000
-0.466955 0.064143 -0.065286 3.000000
-0.466955 0.023359 -0.056758 3.000000
-0.466955 0.008547 0.029651 3.000000
-0.466955 0.053021 0.023252 3.000000
-0.466955 -0.047232 -0.007455 3.000000
-0.466955 -0.005663 -0.008646 3.000000
-0.466955 0.043435 0.037079 3.000000
-0.466955 0.046431 0.080928 3.000000
-0.466955 -0.042854 -0.058826 3.000000
-0.466955 -0.008751 0.007306 3.000000
-0.466955 -0.049097 0.008872 3.000000
-0.466955 -0.075028 0.009197 3.000000
-0.466955 0.025049 0.060194 3.000000
-0.466955 -0.059029 -0.020739 3.000000
-0.466955 0.050192 0.081425 3.000000
-0.466955 -0.009336 0.098965 3.000000
-0.466955 -0.023394 0.020963 3.000000
-0.466955 0.019430 -0.035718 3.000000
-0.466955 0.012965 -0.016767 3.000000
-0.466955 -0.056955 -0.000384 3.000000
-0.466955 -0.001775 0.058166 3.000000
-0.466955 0.009938 -0.080649 3.000000
-0.466955 0.007588 0.005088 3.000000
-0.466955 0.009533 -0.064524 3.000000
-0.466955 -0.016954 0.049424 3.000000
-0.466955 -0.065871 0.066604 3.000000
-0.466955 0.065993 -0.043592 3.000000
-0.466955 -0.063479 0.070036 3.000000
-0.466955 0.030110 0.076004 3.000000
-0.466955 -0.007136 0.084285 3.000000
-0.466955 0.059831 -0.059627 3.000000
-0.466955 0.098316 -0.013063 3.000000
-0.466955 -0.066008 0.003920 3.000000
-0.466955 0.004100 -0.037280 3.000000
-0.466955 -0.086390 -0.028324 3.000000
-0.466955 -0.052083 0.034929 3.000000
-0.466955 0.053978 -0.039952 3.000000
-0.466955 -0.048387 -0.030539 3.000000
-0.466955 -0.034521 -0.059394 3.000000
-0.466955 0.093744 0.033648 3.000000
-0.466955 0.003399 0.058577 3.000000
-0.466955 0.000275 -0.029311 3.000000
-0.466955 0.008496 0.037568 3.000000
-0.466955 -0.073795 -0.061932 3.000000
-0.466955 -0.031617 0.029812 3.000000
-0.466955 0.015015 0.047454 3.000000
-0.466955 -0.013993 0.019373 3.000000
-0.466955 -0.072767 -0.023836 3.000000
-0.466955 0.091927 -0.000359 3.000000
-0.466955 -0.003024 0.000696 3.000000
-0.466955 -0.069449 0.002051 3.000000
-0.466955 -0.050978 0.000088 3.000000
-0.466955 -0.098999 -0.000629 3.000000
-0.466955 -0.029655 0.039959 3.000000
-0.466955 0.030383 -0.071865 3.000000
-0.466955 0.022930 -0.081620 3.000000
-0.466955 -0.012941 0.092861 3.000000
-0.466955 -0.001553 -0.088357 3.000000
-0.466955 0.090479 -0.017235 3.000000
-0.466955 -0.061459 0.046904 3.000000
-0.466955 -0.008134 -0.015914 3.000000
-0.466955 -0.066818 0.038606 3.000000
-0.466955 0.068193 -0.019212 3.000000
-0.466955 -0.076459 0.051677 3.000000
-0.466955 -0.011789 -0.046062 3.000000
-0.466955 -0.018796 -0.002315 3.000000
-0.466955 -0.019778 -0.080589 3.000000
-0.466955 -0.070845 -0.061916 3.000000
-0.466955 -0.035573 -0.069430 3.000000
-0.466955 -0.048847 0.064207 3.000000
-0.466955 0.084589 -0.010759 3.000000
-0.466955 -0.048828 0.023986 3.000000
-0.466955 -0.041092 -0.016575 3.000000
-0.466955 -0.023819 -0.036598 3.000000
-0.466955 0.032612 -0.034020 3.000000
-0.466955 -0.087884 -0.032462 3.000000
-0.466955 0.021691 0.032667 3.000000
-0.466955 -0.025971 -0.001422 3.000000
-0.466955 -0.028666 0.004100 3.000000
-0.466955 0.058921 0.002442 3.000000
-0.466955 0.033541 0.066317 3.000000
-0.466955 -0.025768 -0.049763 3.000000
-0.466955 -0.025985 -0.079838 3.000000
-0.466955 0.031967 0.025706 3.000000
-0.466955 -0.039286 0.057034 3.000000
-0.466955 -0.001895 0.032681 3.000000
-0.466955 -0.032018 0.019236 3.000000
-0.466955 -0.059173 0.062562 3.000000
-0.466955 0.077902 -0.011546 3.000000
-0.466955 -0.045189 0.009776 3.000000
-0.466955 0.078270 0.050361 3.000000
-0.466955 -0.027164 -0.067248 3.000000
-0.466955 -0.032978 0.003960 3.000000
-0.466955 -0.006844 -0.063125 3.000000
-0.466955 -0.002278 -0.046889 3.000000
-0.466955 0.047570 0.076532 3.000000
-0.466955 -0.077631 0.042956 3.000000
-0.466955 0.053470 0.064612 3.000000
-0.466955 0.052815 -0.038527 3.000000
-0.466955 -0.035187 0.041703 3.000000
-0.466955 -0.056153 -0.024470 3.000000
-0.466955 -0.015416 -0.010196 3.000000
-0.466955 0.026486 0.002186 3.000000
-0.466955 -0.005294 0.072238 3.000000
-0.466955 0.071375 -0.025388 3.000000
-0.466955 0.034628 -0.021628 3.000000
-0.466955 -0.015414 -0.090391 3.000000
-0.466955 0.038728 -0.020415 3.000000
-0.466955 -0.038087 -0.043423 3.000000
-0.466955 0.018773 -0.097586 3.000000
-0.466955 -0.050158 0.024757 3.000000
-0.466955 -0.053328 -0.011591 3.000000
-0.466955 -0.047024 -0.066918 3.000000
-0.466955 -0.019956 -0.059655 3.000000
-0.466955 -0.055225 0.017266 3.000000
-0.466955 0.087847 -0.001108 3.000000
-0.466955 0.083057 -0.047855 3.000000
-0.466955 0.081183 0.033714 3.000000
-0.466955 0.048134 -0.063222 3.000000
-0.466955 0.033381 0.082859 3.000000
-0.466955 -0.043726 0.043706 3.000000
-0.466955 -0.075321 -0.035700 3.000000
-0.466955 0.032788 -0.083393 3.000000
-0.466955 0.053473 0.066302 3.000000
-0.466955 0.035127 0.026823 3.000000
-0.466955 -0.053220 0.009498 3.000000
-0.466955 -0.076104 -0.041601 3.000000
-0.466955 -0.078035 0.051890 3.000000
-0.466955 -0.035319 -0.034227 3.000000
-0.466955 0.003501 0.034166 3.000000
-0.466955 0.055045 0.056348 3.000000
-0.466955 0.037151 0.012638 3.000000
-0.466955 0.021559 0.087965 3.000000
-0.466955 -0.047868 0.039985 3.000000
-0.466955 0.084123 -0.021021 3.000000
-0.466955 -0.005700 0.069460 3.000000
-0.466955 -0.017464 -0.013564 3.000000
-0.466955 -0.024622 0.041450 3.000000
-0.466955 0.024178 0.065035 3.000000
-0.466955 -0.019289 0.084184 3.000000
-0.466955 -0.057519 -0.036354 3.000000
-0.466955 -0.008332 0.005009 3.000000
-0.466955 -0.002109 -0.015809 3.000000
-0.466955 0.061859 0.037800 3.000000
-0.466955 -0.036486 0.033166 3.000000
-0.466955 -0.027305 -0.042566 3.000000
-0.466955 0.078203 -0.013579 3.000000
-0.466955 -0.030107 0.052636 3.000000
-0.466955 -0.020634 0.014339 3.000000
-0.466955 0.017591 0.064487 3.000000
-0.466955 -0.090064 0.036247 3.000000
-0.466955 -0.005340 -0.007127 3.000000
-0.466955 0.054312 0.007331 3.000000
-0.466955 -0.000853 0.066271 3.000000
-0.466955 -0.005361 -0.084463 3.000000
-0.466955 -0.083878 0.042028 3.000000
-0.466955 -0.038744 -0.040876 3.000000
-0.466955 -0.047343 0.006366 3.000000
-0.466955 -0.022620 0.038868 3.000000
-0.466955 -0.035037 0.088470 3.000000
-0.466955 0.031981 -0.062162 3.000000
-0.466955 -0.059663 -0.047132 3.000000
-0.466955 -0.075065 -0.022007 3.000000
-0.466955 0.078159 0.031454 3.000000
-0.466955 0.005637 -0.005514 3.000000
-0.466955 -0.076411 0.044201 3.000000
-0.466955 0.089283 0.004735 3.000000
-0.466955 0.092158 0.015497 3.000000
-0.466955 -0.071120 0.036774 3.000000
-0.466955 -0.007285 -0.029261 3.000000
-0.466955 -0.007461 -0.061044 3.000000
-0.466955 -0.000162 0.087899 3.000000
-0.466955 0.039711 0.062325 3.000000
-0.466955 0.001169 -0.072038 3.000000
-0.466955 0.024740 0.093596 3.000000
-0.466955 -0.019891 -0.062754 3.000000
-0.466955 -0.029865 0.027794 3.000000
-0.466955 0.008671 -0.065642 3.000000
-0.466955 -0.056348 -0.056625 3.000000
-0.466955 0.096675 -0.013834 3.000000
-0.466955 0.034913 -0.063744 3.000000
-0.466955 -0.023442 0.063997 3.000000
-0.466955 -0.018072 0.030497 3.000000
-0.466955 0.095489 0.029137 3.000000
-0.466955 -0.053049 -0.080452 3.000000
-0.466955 0.031167 -0.005299 3.000000
-0.466955 0.015701 0.060628 3.000000
-0.466955 0.002855 -0.068704 3.000000
-0.466955 0.016126 -0.021284 3.000000
-0.466955 -0.096351 0.025167 3.000000
-0.466955 -0.026978 0.030206 3.000000
-0.466955 -0.021440 0.066649 3.000000
-0.466955 0.055699 0.000216 3.000000
-0.466955 -0.057893 0.027660 3.000000
-0.466955 -0.005563 -0.029453 3.000000
-0.466955 0.046776 -0.011213 3.000000
-0.466955 -0.071996 0.016826 3.000000
-0.466955 -0.038901 -0.079717 3.000000
-0.466955 0.003221 0.044073 3.000000
-0.466955 -0.076633 0.035640 3.000000
-0.466955 0.051945 0.085252 3.000000
-0.466955 -0.086794 -0.013801 3.000000
-0.466955 -0.077960 -0.018283 3.000000
-0.466955 -0.042003 -0.001798 3.000000
-0.466955 0.038975 -0.061226 3.000000
-0.466955 0.096214 -0.024180 3.000000
-0.466955 0.046729 -0.063177 3.000000
-0.466955 0.049240 0.070086 3.000000
-0.466955 -0.057161 0.008906 3.000000
-0.466955 -0.054620 0.002138 3.000000
-0.466955 -0.014336 -0.083257 3.000000
-0.466955 -0.016174 0.006655 3.000000
-0.466955 0.075226 0.000578 3.000000
-0.466955 0.038444 0.070694 3.000000
-0.466955 0.035570 -0.075335 3.000000
-0.466955 -0.000262 -0.007659 3.000000
-0.466955 -0.093407 0.028162 3.000000
-0.466955 -0.031661 0.034461 3.000000
-0.466955 0.011144 -0.070395 3.000000
-0.466955 0.029252 0.072177 3.000000
-0.466955 -0.018832 0.081523 3.000000
-0.466955 -0.030031 0.012306 3.000000
-0.466955 -0.004315 -0.081050 3.000000
-0.466955 -0.092195 0.018596 3.000000
-0.466955 -0.058747 -0.040409 3.000000
-0.466955 0.093366 0.025462 3.000000
-0.466955 0.034700 0.058518 3.000000
-0.466955 0.028892 0.037284 3.000000
-0.466955 -0.089577 0.007704 3.000000
-0.466955 0.049281 -0.002304 3.000000
-0.466955 0.039906 -0.044619 3.000000
-0.466955 0.083120 0.009916 3.000000
-0.466955 0.050035 0.026434 3.000000
-0.466955 0.014525 -0.016333 3.000000
-0.466955 0.056510 0.054966 3.000000
-0.466955 -0.024413 0.096979 3.000000
-0.466955 -0.007832 0.091718 3.000000
-0.466955 -0.030339 -0.085106 3.000000
-0.466955 -0.067638 0.022189 3.000000
-0.466955 -0.041026 0.055015 3.000000
-0.466955 0.009371 -0.027020 3.000000
-0.466955 -0.074579 0.028524 3.000000
-0.466955 0.013916 0.020160 3.000000
-0.466955 -0.041890 0.073910 3.000000
-0.466955 -0.067813 0.072082 3.000000
-0.466955 -0.046762 -0.013326 3.000000
-0.466955 0.066346 0.034001 3.000000
-0.466955 0.063588 -0.000660 3.000000
-0.466955 0.081082 -0.055218 3.000000
-0.466955 0.066268 0.022078 3.000000
-0.466955 -0.022148 -0.049330 3.000000
-0.466955 -0.086686 -0.047298 3.000000
-0.466955 0.052037 0.014262 3.000000
-0.466955 -0.016762 0.082216 3.000000
-0.466955 0.047753 -0.026300 3.000000
-0.466955 0.024629 -0.008513 3.000000
-0.466955 0.007458 -0.016928 3.000000
-0.466955 -0.086252 0.018104 3.000000
-0.466955 -0.018495 -0.089529 3.000000
-0.466955 -0.062170 0.005689 3.000000
-0.466955 0.069244 -0.062462 3.000000
-0.466955 -0.009350 0.012567 3.000000
-0.466955 0.027890 -0.020594 3.000000
-0.466955 0.088553 -0.012687 3.000000
-0.466955 -0.037299 -0.048689 3.000000
-0.466955 0.023843 -0.037304 3.000000
-0.466955 -0.038436 -0.007514 3.000000
-0.466955 0.004082 0.076908 3.000000
-0.466955 0.051462 0.027144 3.000000
-0.466955 0.030558 -0.070289 3.000000
-0.466955 -0.078261 -0.059173 3.000000
-0.466955 0.056807 -0.034675 3.000000
-0.466955 0.034466 0.045414 3.000000
-0.466955 0.031305 0.003134 3.000000
-0.466955 -0.075241 0.004511 3.000000
-0.466955 0.051997 -0.033621 3.000000
-0.466955 -0.052998 -0.067206 3.000000
-0.466955 0.045806 0.004358 3.000000
-0.466955 -0.014940 0.068825 3.000000
-0.466955 0.019243 0.089947 3.000000
-0.466955 0.021097 0.069738 3.000000
-0.466955 0.058356 -0.054971 3.000000
-0.466955 0.004274 -0.088350 3.000000
-0.466955 -0.085106 -0.026230 3.000000
-0.466955 0.044521 -0.023524 3.000000
-0.466955 -0.068752 0.034476 3.000000
-0.466955 -0.029186 -0.079761 3.000000
-0.466955 -0.011543 -0.030700 3.000000
-0.466955 0.048067 0.009229 3.000000
-0.466955 0.002562 0.061764 3.000000
-0.466955 -0.017425 0.078102 3.000000
-0.466955 -0.089973 0.039455 3.000000
-0.466955 -0.072120 0.044474 3.000000
-0.466955 -0.027295 -0.086784 3.000000
-0.466955 -0.005830 0.016322 3.000000
-0.466955 0.043094 -0.025934 3.000000
-0.466955 -0.056795 0.072877 3.000000
-0.466955 -0.022016 0.017541 3.000000
-0.466955 0.061023 0.034969 3.000000
-0.466955 -0.093804 -0.005049 3.000000
-0.466955 0.090170 0.037044 3.000000
-0.466955 -0.052311 -0.013534 3.000000
-0.466955 0.036304 -0.086307 3.000000
-0.466955 0.027638 -0.016181 3.000000
-0.466955 -0.043256 -0.016906 3.000000
-0.466955 0.088715 -0.039856 3.000000
-0.466955 0.036942 0.071844 3.000000
-0.466955 -0.073306 -0.053187 3.000000
-0.466955 -0.030519 -0.043228 3.000000
-0.466955 -0.061400 0.029132 3.000000
-0.466955 0.041402 -0.079561 3.000000
-0.466955 0.024061 -0.055216 3.000000
-0.466955 -0.022106 -0.094967 3.000000
-0.466955 -0.045184 0.076322 3.000000
-0.466955 0.020214 0.004720 3.000000
-0.466955 0.010869 -0.027801 3.000000
-0.466955 -0.052921 -0.004957 3.000000
-0.466955 0.056066 0.023524 3.000000
-0.466955 -0.064166 0.002681 3.000000
-0.466955 0.065535 0.037179 3.000000
-0.466955 -0.076687 0.030937 3.000000
-0.466955 0.031423 0.068201 3.000000
-0.466955 0.043037 0.053541 3.000000
-0.466955 0.032177 -0.039166 3.000000
-0.466955 -0.062157 0.002020 3.000000
-0.466955 0.042729 -0.085323 3.000000
-0.466955 0.016565 0.047508 3.000000
-0.466955 0.045150 0.052145 3.000000
-0.466955 0.044528 0.061233 3.000000
-0.466955 -0.033144 -0.043769 3.000000
-0.466955 -0.023512 -0.027608 3.000000
-0.466955 -0.071116 -0.048753 3.000000
-0.466955 -0.013709 -0.061776 3.000000
-0.466955 -0.012208 0.007960 3.000000
-0.466955 -0.050258 -0.065157 3.000000
-0.466955 0.021855 0.065716 3.000000
-0.466955 -0.096702 0.005774 3.000000
-0.466955 0.048584 -0.043000 3.000000
-0.466955 -0.032229 0.017090 3.000000
-0.466955 -0.049213 0.056282 3.000000
-0.466955 -0.006987 -0.059178 3.000000
-0.466955 0.063036 -0.055332 3.000000
-0.466955 -0.075744 0.061036 3.000000
-0.466955 0.041138 -0.043872 3.000000
-0.466955 0.051556 0.038485 3.000000
-0.466955 -0.004219 0.065241 3.000000
-0.466955 -0.076707 0.039268 3.000000
-0.466955 -0.031084 0.015570 3.000000
-0.466955 -0.019046 0.054245 3.000000
-0.466955 -0.019873 -0.072563 3.000000
-0.466955 0.016425 -0.087444 3.000000
-0.466955 0.003685 0.071932 3.000000
-0.466955 0.049346 0.013047 3.000000
-0.466955 -0.006995 -0.083146 3.000000
-0.466955 -0.009044 -0.047769 3.000000
-0.466955 0.047495 -0.012856 3.000000
-0.466955 0.009302 -0.002023 3.000000
-0.466955 -0.059832 -0.067349 3.000000
-0.466955 -0.028968 0.021084 3.000000
-0.466955 -0.007166 -0.093493 3.000000
-0.466955 -0.064142 -0.036256 3.000000
-0.466955 -0.030486 0.080314 3.000000
-0.466955 0.032673 -0.023301 3.000000
-0.466955 -0.066067 0.064075 3.000000
-0.466955 -0.029481 -0.093517 3.000000
-0.466955 0.002864 -0.028297 3.000000
-0.466955 0.075115 0.052036 3.000000
-0.466955 -0.050090 0.077253 3.000000
-0.466955 -0.028486 0.060983 3.000000
-0.466955 -0.060917 0.007007 3.000000
-0.466955 0.025507 0.096712 3.000000
-0.466955 -0.036063 0.093142 3.000000
-0.466955 0.020146 0.082704 3.000000
-0.466955 0.016233 0.033707 3.000000
-0.466955 -0.086976 -0.026208 3.000000
-0.466955 -0.065339 0.037582 3.000000
-0.466955 0.059493 -0.047766 3.000000
-0.466955 -0.052692 0.018810 3.000000
-0.466955 0.002007 -0.064481 3.000000
-0.466955 0.072083 0.006464 3.000000
-0.466955 0.053910 -0.070102 3.000000
-0.466955 -0.093786 0.013802 3.000000
-0.466955 -0.054476 -0.030431 3.000000
-0.466955 0.076094 -0.041556 3.000000
-0.466955 -0.059287 0.051255 3.000000
-0.466955 -0.008470 -0.008062 3.000000
-0.466955 0.050656 0.057391 3.000000
-0.466955 -0.064719 -0.074490 3.000000
-0.466955 0.083751 -0.017415 3.000000
-0.466955 0.023645 -0.066094 3.000000
-0.466955 0.011746 0.030588 3.000000
-0.466955 0.048146 0.051900 3.000000
-0.466955 -0.053016 -0.041059 3.000000
-0.466955 0.062346 0.003252 3.000000
-0.466955 0.000756 0.022063 3.000000
-0.466955 0.037653 -0.079462 3.000000
-0.466955 -0.068599 0.047062 3.000000
-0.466955 -0.097805 0.006668 3.000000
-0.466955 -0.079564 -0.043793 3.000000
-0.466955 0.035561 0.081447 3.000000
-0.466955 0.073776 -0.000145 3.000000
-0.466955 -0.067427 -0.058143 3.000000
-0.466955 0.072305 0.053476 3.000000
-0.466955 0.071218 -0.017014 3.000000
-0.466955 -0.064848 -0.062550 3.000000
-0.466955 0.014469 -0.042098 3.000000
-0.466955 -0.026828 0.049440 3.000000
-0.466955 -0.007863 -0.058087 3.000000
-0.466955 0.064448 0.061859 3.000000
-0.466955 -0.030729 -0.030818 3.000000
-0.466955 0.016815 0.010677 3.000000
-0.466955 -0.071394 -0.004337 3.000000
-0.466955 0.016001 0.046100 3.000000
-0.466955 -0.060080 -0.070840 3.000000
-0.466955 0.078410 0.013275 3.000000
-0.466955 -0.015035 0.094773 3.000000
-0.466955 -0.014291 0.015140 3.000000
-0.466955 0.029206 0.000917 3.000000
-0.466955 0.083695 0.032120 3.000000
-0.466955 0.079000 0.009170 3.000000
-0.466955 -0.009127 0.048567 3.000000
-0.466955 0.056418 -0.062813 3.000000
-0.466955 0.035065 0.047945 3.000000
-0.466955 0.029054 -0.018199 3.000000
-0.466955 -0.047347 -0.074086 3.000000
-0.466955 -0.043650 0.056064 3.000000
-0.466955 -0.044160 -0.036487 3.000000
-0.466955 -0.022351 -0.030054 3.000000
-0.466955 -0.008677 -0.076611 3.000000
-0.466955 -0.001927 0.038945 3.000000
-0.466955 0.075225 0.037589 3.000000
-0.466955 0.082746 0.029082 3.000000
-0.466955 -0.083585 -0.052880 3.000000
-0.466955 0.001203 0.014897 3.000000
-0.466955 -0.027789 0.017438 3.000000
-0.466955 -0.032588 0.080188 3.000000
-0.466955 -0.035790 -0.090005 3.000000
-0.466955 0.046190 0.017988 3.000000
-0.466955 0.035026 0.000191 3.000000
-0.466955 0.077221 -0.058229 3.000000
-0.466955 -0.062359 0.022971 3.000000
-0.466955 -0.047935 0.045423 3.000000
-0.466955 0.084253 0.021749 3.000000
-0.466955 -0.055195 0.072012 3.000000
-0.466955 -0.072322 -0.007033 3.000000
-0.466955 0.041474 -0.060244 3.000000
-0.466955 -0.003342 -0.018986 3.000000
-0.466955 0.048719 -0.061305 3.000000
-0.466955 -0.062545 -0.004753 3.000000
-0.466955 -0.001105 -0.047954 3.000000
-0.466955 -0.026266 -0.005210 3.000000
-0.466955 -0.042870 0.082462 3.000000
-0.466955 -0.016054 -0.058184 3.000000
-0.466955 -0.044849 -0.001932 3.000000
-0.466955 -0.023081 0.003958 3.000000
-0.466955 -0.008524 0.016957 3.000000
-0.466955 0.012523 0.009595 3.000000
-0.466955 -0.089308 0.003850 3.000000
-0.466955 0.047754 -0.087550 3.000000
-0.466955 0.000863 -0.035272 3.000000
-0.466955 -0.009715 0.056252 3.000000
-0.466955 -0.043294 -0.053282 3.000000
-0.466955 -0.014820 -0.023791 3.000000
-0.466955 -0.044354 -0.019291 3.000000
-0.466955 -0.053177 0.053463 3.000000
-0.466955 -0.037541 -0.001330 3.000000
-0.466955 -0.040175 -0.056130 3.000000
-0.466955 0.044635 -0.016580 3.000000
-0.466955 0.039204 -0.089711 3.000000
-0.466955 0.063164 0.047498 3.000000
-0.466955 -0.031526 -0.075992 3.000000
-0.466955 -0.011214 -0.053070 3.000000
-0.466955 0.036310 0.084638 3.000000
-0.466955 -0.021103 -0.044202 3.000000
-0.466955 -0.021594 -0.077513 3.000000
-0.466955 0.010621 -0.065333 3.000000
-0.466955 0.031477 0.093231 3.000000
-0.466955 0.013807 -0.072473 3.000000
-0.466955 0.069649 -0.033134 3.000000
-0.466955 0.014079 0.066988 3.000000
-0.466955 -0.009721 0.088724 3.000000
-0.466955 -0.016819 0.042074 3.000000
-0.466955 0.091977 -0.008586 3.000000
-0.466955 -0.020358 0.096447 3.000000
-0.466955 0.030346 0.094650 3.000000
-0.466955 -0.058897 0.034076 3.000000
-0.466955 0.013995 0.085070 3.000000
-0.466955 -0.054774 0.055706 3.000000
-0.466955 0.070690 0.025248 3.000000
-0.466955 -0.001725 0.084916 3.000000
-0.466955 -0.025162 0.077328 3.000000
-0.466955 0.006898 -0.050456 3.000000
-0.466955 -0.011924 0.034935 3.000000
-0.466955 -0.056005 -0.003614 3.000000
-0.466955 -0.027977 0.074935 3.000000
-0.466955 0.021476 -0.043403 3.000000
-0.466955 0.011782 -0.033686 3.000000
-0.466955 -0.085376 0.048540 3.000000
-0.466955 -0.037881 -0.009734 3.000000
-0.466955 -0.006418 -0.030603 3.000000
-0.466955 -0.025711 -0.094588 3.000000
-0.466955 0.029159 0.010321 3.000000
-0.466955 0.066024 -0.026746 3.000000
-0.466955 -0.061072 -0.020263 3.000000
-0.466955 0.034061 0.053015 3.000000
-0.466955 0.007597 -0.058250 3.000000
-0.466955 0.081291 0.010247 3.000000
-0.466955 -0.001565 -0.006477 3.000000
-0.466955 -0.040379 0.051693 3.000000
-0.466955 0.094560 0.004866 3.000000
-0.466955 0.005864 -0.096375 3.000000
-0.466955 -0.063833 -0.054835 3.000000
-0.466955 -0.031282 -0.069936 3.000000
-0.466955 -0.003670 -0.020916 3.000000
-0.466955 -0.057747 0.018199 3.000000
-0.466955 0.069595 -0.067551 3.000000
-0.466955 -0.011237 0.071380 3.000000
-0.466955 -0.005208 -0.090469 3.000000
-0.466955 -0.034762 0.019381 3.000000
-0.466955 -0.071433 0.009251 3.000000
-0.466955 0.077254 0.060262 3.000000
-0.466955 0.012891 -0.002169 3.000000
-0.466955 -0.040810 0.036107 3.000000
-0.466955 0.046658 0.042396 3.000000
-0.466955 0.014012 -0.028006 3.000000
-0.466955 -0.031513 0.045922 3.000000
-0.466955 -0.018695 -0.038957 3.000000
-0.466955 -0.011011 -0.034174 3.000000
-0.466955 0.066657 -0.069201 3.000000
-0.466955 0.059942 0.038620 3.000000
-0.466955 0.012338 0.029342 3.000000
-0.466955 -0.065121 -0.064850 3.000000
-0.466955 0.025416 0.067132 3.000000
-0.466955 -0.006661 0.089420 3.000000
-0.466955 -0.034953 0.077984 3.000000
-0.466955 -0.006769 0.079319 3.000000
-0.466955 0.029356 -0.085657 3.000000
-0.466955 0.006954 0.029540 3.000000
-0.466955 0.035269 0.022713 3.000000
-0.466955 -0.008160 0.093820 3.000000
-0.466955 -0.056480 0.023977 3.000000
-0.466955 0.012508 -0.018089 3.000000
-0.466955 -0.027500 -0.084409 3.000000
-0.466955 -0.056356 -0.052606 3.000000
-0.466955 0.049788 0.008072 3.000000
-0.466955 -0.025424 0.053462 3.000000
-0.466955 0.020959 -0.051048 3.000000
-0.466955 0.068323 -0.036024 3.000000
-0.466955 0.046359 -0.077073 3.000000
-0.466955 0.009260 -0.004850 3.000000
-0.466955 -0.003870 0.098741 3.000000
-0.466955 0.054200 -0.063936 3.000000
-0.466955 -0.013679 0.013312 3.000000
-0.466955 -0.038695 0.041684 3.000000
-0.466955 0.042849 0.057350 3.000000
-0.466955 0.028824 -0.052098 3.000000
-0.466955 -0.038359 -0.075180 3.000000
-0.466955 0.010546 0.040502 3.000000
-0.466955 0.038754 -0.034034 3.000000
-0.466955 0.060471 -0.021716 3.000000
-0.466955 -0.045838 -0.036232 3.000000
-0.466955 0.015383 0.037326 3.000000
-0.466955 0.080630 -0.010019 3.000000
-0.466955 -0.032852 -0.076740 3.000000
-0.466955 -0.000156 0.093453 3.000000
-0.466955 0.040830 -0.086654 3.000000
-0.466955 -0.033117 -0.080422 3.000000
-0.466955 0.011335 0.027467 3.000000
-0.466955 -0.021134 0.052039 3.000000
-0.466955 0.008562 0.053547 3.000000
-0.466955 0.057974 -0.059953 3.000000
-0.466955 0.089158 -0.014915 3.000000
-0.466955 0.086856 -0.044876 3.000000
-0.466955 0.064246 0.046135 3.000000
-0.466955 -0.048925 -0.043839 3.000000
-0.466955 0.003619 -0.018136 3.000000
-0.466955 -0.033229 0.064754 3.000000
-0.466955 0.036450 0.007198 3.000000
-0.466955 -0.074309 0.041431 3.000000
-0.466955 0.007464 -0.046409 3.000000
-0.466955 0.063080 0.038807 3.000000
-0.466955 0.015775 0.015985 3.000000
-0.466955 -0.083471 -0.000347 3.000000
-0.466955 -0.015523 -0.052609 3.000000
-0.466955 0.007076 0.062925 3.000000
-0.466955 -0.098200 0.017412 3.000000
-0.466955 -0.040158 0.070699 3.000000
-0.466955 -0.065175 0.007364 3.000000
-0.466955 0.075648 -0.046286 3.000000
-0.466955 -0.086146 0.009542 3.000000
-0.466955 -0.042327 0.052487 3.000000
-0.466955 0.074433 0.020898 3.000000
-0.466955 -0.029211 0.048244 3.000000
-0.466955 -0.006749 -0.027733 3.000000
-0.466955 -0.054666 0.083649 3.000000
-0.466955 0.006422 -0.085302 3.000000
-0.466955 0.022079 -0.090569 3.000000
-0.466955 0.021581 0.025202 3.000000
-0.466955 -0.047494 0.015473 3.000000
-0.466955 -0.082430 -0.055718 3.000000
-0.466955 0.042603 0.040528 3.000000
-0.466955 0.075971 -0.056473 3.000000
-0.466955 -0.093203 0.025824 3.000000
-0.466955 0.048687 0.000799 3.000000
-0.466955 -0.045742 0.054568 3.000000
-0.466955 0.005275 0.038996 3.000000
-0.466955 0.037785 -0.087485 3.000000
-0.466955 0.022675 0.049063 3.000000
-0.466955 0.038780 0.051786 3.000000
-0.466955 0.082695 0.043005 3.000000
-0.466955 -0.039647 -0.085857 3.000000
-0.466955 -0.093907 -0.014289 3.000000
-0.466955 -0.033642 0.089907 3.000000
-0.466955 0.062242 0.078333 3.000000
-0.466955 0.004790 0.065403 3.000000
-0.466955 -0.016562 -0.001186 3.000000
-0.466955 0.032495 -0.045549 3.000000
-0.466955 -0.076175 0.020935 3.000000
-0.466955 -0.003410 0.014994 3.000000
-0.466955 0.069390 -0.059454 3.000000
-0.466955 -0.051643 0.025914 3.000000
-0.466955 -0.088307 -0.030950 3.000000
-0.466955 -0.070979 -0.030631 3.000000
-0.466955 0.080131 0.041094 3.000000
-0.466955 -0.081010 0.038606 3.000000
-0.466955 -0.026526 0.038246 3.000000
-0.466955 -0.000759 -0.034828 3.000000
-0.466955 0.083443 0.053895 3.000000
-0.466955 -0.007813 0.099167 3.000000
-0.466955 0.057618 0.071888 3.000000
-0.466955 0.007783 0.011311 3.000000
-0.466955 -0.008540 0.082461 3.000000
-0.466955 0.036235 -0.008751 3.000000
-0.466955 -0.061058 -0.021977 3.000000
-0.466955 0.041847 -0.088118 3.000000
-0.466955 -0.005170 -0.026266 3.000000
-0.466955 -0.070144 -0.056425 3.000000
-0.466955 -0.087908 0.010872 3.000000
-0.466955 -0.050059 -0.025761 3.000000
-0.466955 -0.054712 0.021140 3.000000
-0.466955 0.073925 0.041150 3.000000
-0.466955 -0.049835 0.040582 3.000000
-0.466955 -0.096930 -0.012929 3.000000
-0.466955 0.087919 0.040429 3.000000
-0.466955 0.003895 -0.065875 3.000000
-0.466955 0.048593 -0.058618 3.000000
-0.466955 0.024950 0.018854 3.000000
-0.466955 0.058950 -0.031232 3.000000
-0.466955 0.004475 0.004318 3.000000
-0.466955 0.015183 -0.019508 3.000000
-0.466955 -0.056990 0.013032 3.000000
-0.466955 -0.040473 0.048701 3.000000
-0.466955 -0.059216 0.069181 3.000000
-0.466955 -0.057478 0.010347 3.000000
-0.466955 -0.042592 -0.022200 3.000000
-0.466955 0.026108 0.065333 3.000000
-0.466955 -0.065660 0.044855 3.000000
-0.466955 0.052086 -0.069510 3.000000
-0.466955 -0.035292 0.026228 3.000000
-0.466955 -0.058029 0.070102 3.000000
-0.466955 -0.082078 -0.028051 3.000000
-0.466955 -0.067607 0.016961 3.000000
-0.466955 -0.043987 -0.021414 3.000000
-0.466955 0.090187 0.025022 3.000000
-0.466955 -0.088806 -0.034319 3.000000
-0.466955 -0.089506 0.019848 3.000000
-0.466955 0.031394 -0.065284 3.000000
-0.466955 0.032091 -0.035555 3.000000
-0.466955 0.075360 0.056970 3.000000
-0.466955 0.039776 0.022680 3.000000
-0.466955 0.026321 -0.084317 3.000000
-0.466955 -0.081419 0.047723 3.000000
-0.466955 0.099152 0.011794 3.000000
-0.466955 0.088921 -0.032671 3.000000
-0.466955 -0.095264 -0.000087 3.000000
-0.466955 -0.030476 -0.021557 3.000000
-0.466955 -0.035419 -0.014701 3.000000
-0.466955 0.071451 -0.066344 3.000000
-0.466955 0.053952 0.041304 3.000000
-0.466955 -0.030101 -0.061801 3.000000
-0.466955 -0.028921 -0.083546 3.000000
-0.466955 -0.040530 0.019060 3.000000
-0.466955 0.034513 -0.025871 3.000000
-0.466955 -0.078237 0.002184 3.000000
-0.466955 0.003647 0.078273 3.000000
-0.466955 0.033140 -0.046824 3.000000
-0.466955 0.025700 0.049058 3.000000
-0.466955 0.047751 0.073501 3.000000
-0.466955 0.019194 0.035920 3.000000
-0.466955 0.021239 -0.071105 3.000000
-0.466955 -0.069226 -0.005679 3.000000
-0.466955 -0.020792 0.056662 3.000000
-0.466955 -0.096090 -0.002955 3.000000
-0.466955 -0.073604 0.057943 3.000000
-0.466955 -0.072846 0.047095 3.000000
-0.466955 0.069684 -0.003741 3.000000
-0.466955 0.006637 -0.060277 3.000000
-0.466955 0.037875 0.084058 3.000000
-0.466955 -0.094009 0.022288 3.000000
-0.466955 0.015742 0.076276 3.000000
-0.466955 -0.031176 -0.014301 3.000000
-0.466955 0.056889 -0.052320 3.000000
-0.466955 -0.048274 0.029864 3.000000
-0.466955 0.076146 -0.016760 3.000000
-0.466955 -0.001553 0.094447 3.000000
-0.466955 0.035874 0.052376 3.000000
-0.466955 0.045463 0.050072 3.000000
-0.466955 -0.024411 0.011545 3.000000
-0.466955 -0.052935 -0.038494 3.000000
-0.466955 0.013008 -0.054694 3.000000
-0.466955 -0.002517 -0.091709 3.000000
-0.466955 0.081033 -0.058089 3.000000
-0.466955 0.078036 -0.017988 3.000000
-0.466955 -0.061875 -0.038764 3.000000
-0.466955 0.062398 -0.052456 3.000000
-0.466955 -0.059068 0.040840 3.000000
-0.466955 0.010783 -0.004460 3.000000
-0.466955 -0.074402 0.016533 3.000000
-0.466955 0.040089 -0.008670 3.000000
-0.466955 0.035153 0.091465 3.000000
-0.466955 0.062229 -0.077019 3.000000
-0.466955 0.025550 -0.095747 3.000000
-0.466955 0.029237 0.044885 3.000000
-0.466955 0.050675 0.023693 3.000000
-0.466955 0.065896 0.046298 3.000000
-0.466955 0.053955 0.078169 3.000000
-0.466955 0.003546 0.095115 3.000000
-0.466955 0.010433 -0.008131 3.000000
-0.466955 0.033593 -0.042389 3.000000
-0.466955 -0.030532 -0.001832 3.000000
-0.466955 -0.008469 -0.040210 3.000000
-0.466955 0.048725 -0.085662 3.000000
-0.466955 0.020990 -0.009909 3.000000
-0.466955 -0.036206 0.043852 3.000000
-0.466955 -0.039675 0.065731 3.000000
-0.466955 -0.042728 -0.020795 3.000000
-0.466955 0.014980 0.028008 3.000000
-0.466955 0.049923 0.038763 3.000000
-0.466955 -0.063539 -0.063721 3.000000
-0.466955 0.054878 -0.017871 3.000000
-0.466955 0.053469 0.084505 3.000000
-0.466955 -0.014113 0.078824 3.000000
-0.466955 0.041456 0.067178 3.000000
-0.466955 0.046044 -0.013256 3.000000
-0.466955 0.032013 0.071443 3.000000
-0.466955 0.073857 -0.039914 3.000000
-0.466955 -0.027924 0.091846 3.000000
-0.466955 -0.036520 -0.012788 3.000000
-0.466955 -0.025486 -0.093200 3.000000
-0.466955 0.092865 -0.036524 3.000000
-0.466955 -0.075507 0.043078 3.000000
-0.466955 -0.077427 -0.038926 3.000000
-0.466955 0.061038 -0.013021 3.000000
-0.466955 -0.033970 -0.024062 3.000000
-0.466955 -0.015292 0.042413 3.000000
-0.466955 0.084797 -0.019447 3.000000
-0.466955 -0.030558 0.030892 3.000000
-0.466955 0.078586 0.004547 3.000000
-0.466955 0.053712 0.015922 3.000000
-0.466955 -0.065600 0.002248 3.000000
-0.466955 0.047695 -0.047442 3.000000
-0.466955 -0.054862 -0.024134 3.000000
-0.466955 0.024596 -0.052504 3.000000
-0.466955 -0.061439 -0.059803 3.000000
-0.466955 0.059744 0.020869 3.000000
-0.466955 0.061887 0.064853 3.000000
-0.466955 -0.058022 -0.051285 3.000000
-0.466955 0.041946 -0.033112 3.000000
-0.466955 -0.005314 0.027994 3.000000
-0.466955 -0.069873 0.030637 3.000000
-0.466955 0.030669 0.046174 3.000000
-0.466955 -0.000111 -0.078543 3.000000
-0.466955 0.050620 -0.046516 3.000000
-0.466955 0.042944 0.087552 3.000000
