0.151042 0.019037 -0.097892 1.000000
0.102709 0.082074 0.057208 1.000000
0.012451 -0.016960 -0.098198 1.000000
0.217544 -0.075161 -0.065404 1.000000
0.280007 -0.099131 0.011145 1.000000
-0.048721 -0.061525 0.078722 1.000000
-0.025449 0.097554 -0.021586 1.000000
-0.275035 -0.031350 -0.094602 1.000000
-0.037532 0.047533 0.088074 1.000000
0.268104 -0.094508 -0.031729 1.000000
0.235750 -0.065175 0.075718 1.000000
-0.185127 0.025063 0.096901 1.000000
-0.435013 0.010662 -0.099106 3.000000
0.297517 0.072081 0.069411 1.000000
-0.056537 -0.028161 -0.095571 1.000000
0.215585 0.089747 0.044186 1.000000
-0.440317 -0.061216 0.078961 3.000000
-0.230512 0.099765 0.006915 1.000000
0.405813 0.050667 0.086278 1.000000
-0.221157 0.023086 0.097350 1.000000
0.214264 0.077212 -0.063323 1.000000
-0.185750 -0.099715 0.002008 1.000000
-0.170981 -0.094758 0.031396 1.000000
-0.219384 0.082708 0.056276 1.000000
0.195838 0.034892 -0.093411 1.000000
-0.398387 0.099761 -0.006588 1.000000
-0.090964 0.093099 -0.036289 1.000000
-0.140068 -0.044794 0.089351 1.000000
-0.173321 0.096756 0.025404 1.000000
0.127129 0.065315 0.075801 1.000000
0.447520 -0.005119 0.099905 2.000000
-0.358483 0.041503 0.091058 1.000000
-0.457623 0.078795 0.061645 3.000000
-0.184264 -0.086818 0.049315 1.000000
-0.015192 0.000888 -0.099683 1.000000
-0.367528 -0.098866 -0.013082 1.000000
-0.370152 -0.069817 -0.071079 1.000000
-0.117261 0.003617 -0.099597 1.000000
-0.401742 -0.091422 -0.039677 1.000000
0.391717 -0.097738 -0.019719 1.000000
-0.434352 -0.087709 -0.047366 3.000000
-0.174557 -0.090553 0.042047 1.000000
-0.112659 0.098772 -0.015149 1.000000
-0.025471 0.081387 -0.057857 1.000000
0.320500 -0.004865 0.099913 1.000000
0.100742 0.059414 0.080540 1.000000
0.009296 -0.091482 -0.039537 1.000000
-0.351895 0.088125 0.047370 1.000000
-0.399810 0.048400 0.087619 1.000000
-0.412940 0.028713 0.095841 1.000000
0.316365 0.070196 -0.070934 1.000000
-0.307086 0.035241 -0.093286 1.000000
0.227595 -0.015268 -0.098466 1.000000
0.140854 -0.031283 -0.094627 1.000000
0.242595 0.011697 0.099371 1.000000
-0.409868 -0.020938 -0.097416 1.000000
0.357651 0.027886 0.096081 1.000000
0.287181 0.087736 0.048133 1.000000
0.307564 -0.071510 0.069749 1.000000
-0.466215 0.086921 0.049536 3.000000
-0.459779 -0.098086 0.018373 3.000000
-0.420468 -0.081297 -0.057646 1.000000
0.176746 0.005540 0.099900 1.000000
0.370843 -0.044717 0.089390 1.000000
-0.022304 -0.001453 -0.099658 1.000000
0.404815 -0.022620 -0.097039 1.000000
0.047094 0.098856 -0.014622 1.000000
-0.006912 -0.008823 -0.099258 1.000000
-0.293838 -0.042190 0.090660 1.000000
-0.394320 -0.031950 0.094749 1.000000
0.382940 0.089544 -0.044223 1.000000
0.271052 0.039816 0.091788 1.000000
-0.001710 0.077140 0.063778 1.000000
0.336103 -0.053935 -0.083798 1.000000
0.362729 0.077960 -0.062358 1.000000
-0.221452 -0.087907 0.047340 1.000000
0.234800 -0.087812 -0.047164 1.000000
0.421590 0.004440 -0.099571 1.000000
-0.249870 0.047338 0.088173 1.000000
0.329011 0.091889 -0.039136 1.000000
0.261468 0.059601 0.080395 1.000000
0.009775 0.094250 -0.033093 1.000000
0.371164 0.001691 -0.099658 1.000000
-0.310088 -0.008119 -0.099325 1.000000
-0.205357 0.099116 -0.012978 1.000000
-0.231696 -0.094202 -0.032579 1.000000
0.260765 -0.041398 0.091003 1.000000
-0.340124 0.099331 -0.011140 1.000000
0.022666 -0.037159 -0.092474 1.000000
-0.348901 0.099984 -0.000484 1.000000
0.420321 0.079163 -0.060807 1.000000
-0.057279 0.092408 0.038300 1.000000
0.217368 -0.090800 -0.041113 1.000000
0.392601 -0.077438 0.063093 1.000000
0.294783 -0.016962 -0.098197 1.000000
-0.394284 0.056259 -0.082377 1.000000
-0.341031 0.004425 -0.099572 1.000000
-0.176288 -0.093865 0.033875 1.000000
-0.460889 0.097502 0.022180 3.000000
0.346110 -0.099340 -0.008572 1.000000
-0.039506 0.095574 -0.029110 1.000000
-0.184344 0.077419 -0.063055 1.000000
0.251769 -0.094355 0.032516 1.000000
0.160414 -0.088097 -0.046604 1.000000
-0.143778 -0.099676 0.003242 1.000000
0.258135 0.077922 0.062771 1.000000
0.309854 0.088356 0.046917 1.000000
-0.033286 0.027059 -0.095959 1.000000
0.110675 0.060347 0.079816 1.000000
-0.039221 0.099187 0.012893 1.000000
0.115905 0.062044 -0.078137 1.000000
-0.287260 -0.043569 -0.089612 1.000000
-0.320911 -0.096010 -0.026807 1.000000
0.316855 0.090635 -0.042034 1.000000
-0.085659 -0.025701 0.096648 1.000000
0.392369 -0.073258 0.067926 1.000000
-0.065774 0.065387 -0.075374 1.000000
0.265785 -0.090693 0.041724 1.000000
0.080410 0.002417 0.099998 1.000000
-0.459830 0.097256 -0.022920 3.000000
-0.431688 0.092229 -0.038349 3.000000
0.365725 -0.031415 0.094942 1.000000
-0.466447 -0.099549 -0.006366 3.000000
-0.254983 0.099935 0.002409 1.000000
0.352674 0.002145 -0.099643 1.000000
0.142080 -0.075823 -0.064654 1.000000
0.447062 0.075085 0.066118 2.000000
-0.170456 0.058295 -0.080994 1.000000
0.434322 0.022006 -0.097229 1.000000
0.464293 -0.056047 0.082726 2.000000
-0.406132 0.083603 -0.054596 1.000000
-0.385214 -0.080055 -0.059356 1.000000
0.327730 0.047631 0.088024 1.000000
-0.035472 -0.000817 0.100041 1.000000
0.002603 0.044273 -0.089372 1.000000
0.026542 -0.020856 -0.097434 1.000000
0.451093 -0.078827 0.061303 2.000000
-0.292458 0.092305 -0.038176 1.000000
0.081513 0.008987 0.099627 1.000000
-0.406572 -0.060340 0.079641 1.000000
-0.205878 0.097347 0.022877 1.000000
-0.019731 -0.098430 -0.015835 1.000000
0.279811 0.086413 0.050394 1.000000
0.194970 0.011557 0.099384 1.000000
-0.192902 0.090298 0.043106 1.000000
0.464252 0.061980 -0.078187 2.000000
-0.173171 0.098686 0.016058 1.000000
0.228099 -0.063258 0.077377 1.000000
-0.047203 0.049902 0.086731 1.000000
-0.162346 0.060896 0.079390 1.000000
0.191195 0.043390 0.090185 1.000000
-0.342625 0.091366 0.040707 1.000000
-0.209847 -0.086044 0.050624 1.000000
-0.269159 -0.011026 0.099412 1.000000
0.329911 -0.023948 -0.096743 1.000000
-0.362885 0.000859 -0.099684 1.000000
-0.202225 0.059353 -0.080225 1.000000
0.311213 -0.088537 -0.045741 1.000000
-0.303155 0.028649 -0.095497 1.000000
0.018188 -0.044672 -0.089050 1.000000
0.221611 -0.057317 0.081862 1.000000
0.263908 0.043625 -0.089702 1.000000
-0.409155 -0.046409 0.088528 1.000000
0.092711 0.025575 0.096752 1.000000
0.151324 -0.070619 -0.070277 1.000000
0.436606 -0.018314 -0.097983 1.000000
0.189507 0.036299 -0.092905 1.000000
0.349533 0.027204 -0.095916 1.000000
0.270286 0.099278 0.012066 1.000000
0.287230 -0.046772 -0.087980 1.000000
-0.313562 0.016530 0.098666 1.000000
-0.069487 -0.024256 0.097036 1.000000
0.334663 -0.074063 -0.066650 1.000000
-0.234052 -0.049560 -0.086432 1.000000
-0.442023 -0.018001 -0.098033 3.000000
-0.071886 -0.097067 0.023083 1.000000
0.404967 -0.092238 -0.037791 1.000000
0.396533 0.046007 -0.088488 1.000000
-0.191688 -0.075976 -0.064480 1.000000
0.380761 0.016927 -0.098240 1.000000
0.278047 0.099753 -0.006678 1.000000
0.267144 -0.099702 0.002416 1.000000
0.401145 0.071452 0.070040 1.000000
-0.360810 -0.093452 0.035024 1.000000
0.392977 -0.064067 -0.076332 1.000000
-0.273583 -0.085153 -0.051767 1.000000
0.273638 0.056784 0.082384 1.000000
0.355438 0.053696 -0.084119 1.000000
0.407098 0.093186 -0.036047 1.000000
-0.362903 0.050898 -0.085779 1.000000
-0.205106 -0.036777 0.093002 1.000000
0.092961 -0.008424 0.099658 1.000000
0.072935 -0.097728 0.020129 1.000000
-0.392778 0.015491 -0.098467 1.000000
-0.147777 0.063982 -0.076613 1.000000
-0.295003 -0.039935 -0.091273 1.000000
-0.283641 0.026657 -0.096076 1.000000
-0.373623 0.083373 0.055296 1.000000
0.051151 0.005015 0.099916 1.000000
0.444521 0.099599 0.008662 2.000000
0.141295 0.084356 -0.053489 1.000000
0.460534 -0.044347 -0.089215 2.000000
-0.125887 0.068073 0.073369 1.000000
0.382238 0.024282 0.097083 1.000000
0.035181 -0.096681 -0.024447 1.000000
-0.064940 -0.039744 0.091719 1.000000
0.073000 -0.028770 -0.095394 1.000000
0.010520 -0.008625 0.099639 1.000000
-0.465226 0.083785 0.054691 3.000000
0.289567 -0.099745 -0.000665 1.000000
-0.090524 0.060442 0.079742 1.000000
0.084434 0.099406 -0.010342 1.000000
-0.277214 -0.066440 0.074603 1.000000
0.075331 0.068369 -0.072746 1.000000
0.101788 0.041221 -0.090818 1.000000
-0.151816 -0.096640 -0.024630 1.000000
0.163149 -0.064024 -0.076371 1.000000
0.033837 0.063722 0.077198 1.000000
0.429129 0.096100 0.027663 1.000000
-0.029576 0.099923 -0.002424 1.000000
-0.320941 0.041570 -0.090666 1.000000
-0.375371 -0.085121 -0.051822 1.000000
-0.436241 -0.084930 0.052506 3.000000
0.416602 -0.053176 0.084656 2.000000
0.143317 -0.099599 -0.005329 1.000000
0.432593 -0.005077 -0.099544 1.000000
0.182026 0.079627 0.060572 1.000000
0.120570 -0.083902 -0.053813 1.000000
-0.013622 -0.086336 0.050130 1.000000
0.062041 -0.076578 0.064160 1.000000
0.440429 -0.086298 -0.049831 2.000000
-0.433829 -0.001442 0.100021 3.000000
-0.334289 0.056757 -0.082039 1.000000
0.145087 0.006145 0.099881 1.000000
-0.187764 -0.083692 0.054484 1.000000
0.238719 -0.090843 -0.041013 1.000000
0.038223 0.013272 -0.098819 1.000000
0.142411 -0.085818 -0.050643 1.000000
-0.245195 -0.048379 -0.087130 1.000000
0.037907 0.097618 -0.021302 1.000000
0.039490 -0.037597 -0.092285 1.000000
-0.179436 -0.099625 0.004872 1.000000
0.291991 0.099990 0.000668 1.000000
0.147666 -0.083566 -0.054307 1.000000
0.436788 -0.096350 -0.025638 2.000000
-0.005486 0.093272 -0.035808 1.000000
0.313533 -0.093054 -0.035766 1.000000
0.048297 -0.098341 -0.016400 1.000000
-0.465794 -0.044048 0.089730 3.000000
-0.275328 -0.098891 -0.012928 1.000000
-0.256403 0.048230 0.087719 1.000000
0.416793 -0.061240 -0.078580 1.000000
-0.099306 -0.011788 0.099340 1.000000
-0.163727 -0.045214 0.089136 1.000000
-0.334665 -0.081125 -0.057898 1.000000
-0.192250 0.098463 -0.017100 1.000000
-0.198094 0.046794 0.088450 1.000000
-0.418693 -0.029299 -0.095240 1.000000
0.214411 -0.099710 0.002152 1.000000
-0.452142 0.074532 -0.066383 3.000000
-0.062611 -0.007751 -0.099359 1.000000
0.067073 -0.090697 -0.041350 1.000000
0.344540 0.054096 0.084210 1.000000
-0.427150 0.094522 -0.032336 3.000000
-0.460347 -0.099204 -0.010011 3.000000
-0.326828 0.091314 0.040827 1.000000
-0.409821 0.016860 0.098613 1.000000
-0.105170 -0.097512 0.021091 1.000000
-0.133237 0.068584 0.072908 1.000000
-0.097282 -0.092916 0.036511 1.000000
0.139707 0.000232 0.100066 1.000000
0.170120 0.069396 0.072096 1.000000
-0.466856 0.087897 -0.047456 3.000000
-0.012262 0.098258 0.018758 1.000000
-0.108668 -0.054100 -0.083686 1.000000
-0.415201 -0.086722 0.049477 1.000000
0.338229 -0.095259 0.029753 1.000000
0.450748 -0.090632 0.041865 2.000000
0.015490 0.081428 0.058159 1.000000
0.007365 -0.005933 -0.099517 1.000000
-0.193139 -0.099608 -0.005050 1.000000
0.327280 0.037432 0.092820 1.000000
-0.409154 0.037700 -0.092342 1.000000
0.056246 0.097172 0.023658 1.000000
0.196941 0.070842 -0.070287 1.000000
0.058895 -0.056866 -0.081806 1.000000
-0.124994 0.017734 0.098475 1.000000
-0.079138 -0.021096 0.097743 1.000000
0.394163 -0.028499 -0.095473 1.000000
0.269547 0.072818 0.068674 1.000000
-0.344627 -0.077554 -0.062581 1.000000
-0.124924 -0.099470 -0.007195 1.000000
-0.128483 0.063712 0.077206 1.000000
-0.282683 -0.001290 -0.099663 1.000000
-0.329898 0.078536 0.061978 1.000000
-0.090885 -0.087642 -0.047497 1.000000
0.236231 0.095249 -0.030230 1.000000
-0.301803 0.006695 -0.099481 1.000000
0.002766 0.094583 -0.032166 1.000000
-0.229525 0.026131 0.096591 1.000000
0.323385 -0.098213 -0.017210 1.000000
0.227186 -0.093956 0.033625 1.000000
-0.439447 -0.091599 0.039630 3.000000
-0.193614 0.095256 0.030569 1.000000
0.046489 0.067444 -0.073561 1.000000
-0.204820 -0.099677 0.003194 1.000000
0.068381 -0.092773 0.036910 1.000000
0.216524 -0.086900 0.049176 1.000000
0.416058 -0.080648 0.058955 2.000000
-0.197950 0.000284 -0.099702 1.000000
0.185638 0.093627 0.035184 1.000000
-0.255737 -0.021314 -0.097331 1.000000
0.176052 -0.015211 -0.098475 1.000000
0.322520 0.019915 0.098059 1.000000
0.224636 -0.060040 -0.079510 1.000000
-0.259679 -0.009074 -0.099234 1.000000
0.131792 0.022557 0.097468 1.000000
-0.225241 -0.021349 0.097686 1.000000
-0.334035 -0.093725 -0.033903 1.000000
0.323186 -0.023886 -0.096756 1.000000
0.148318 -0.013360 0.099131 1.000000
-0.396149 0.020859 0.097848 1.000000
-0.146963 -0.099292 0.009442 1.000000
-0.200490 0.066716 -0.074203 1.000000
-0.184479 0.099112 -0.013007 1.000000
-0.163778 0.078817 -0.061254 1.000000
0.367221 0.043391 0.090184 1.000000
0.393500 -0.023146 0.097285 1.000000
0.432589 0.021268 0.097757 2.000000
-0.362640 -0.047273 0.088087 1.000000
-0.189293 -0.095422 -0.028830 1.000000
0.304121 -0.018767 -0.097901 1.000000
-0.445561 0.052311 -0.084943 3.000000
-0.325976 0.099954 -0.001446 1.000000
0.110265 0.050568 0.086337 1.000000
-0.248875 0.099524 0.009462 1.000000
0.211683 -0.041992 0.090746 1.000000
-0.446305 -0.039322 -0.091538 3.000000
-0.028058 0.012682 -0.098912 1.000000
-0.248882 -0.071197 0.070061 1.000000
0.089289 0.015495 -0.098467 1.000000
-0.356209 -0.056437 -0.082097 1.000000
-0.044278 -0.079501 0.060433 1.000000
0.179376 0.010659 -0.099106 1.000000
-0.450730 -0.057495 -0.081378 3.000000
0.256328 0.098927 0.014535 1.000000
-0.343903 -0.065477 0.075452 1.000000
-0.168690 -0.072770 0.068479 1.000000
0.006786 0.074814 -0.066063 1.000000
-0.376492 0.042765 -0.090141 1.000000
0.161859 -0.094154 -0.032710 1.000000
-0.291064 0.099866 0.004608 1.000000
-0.217456 0.067946 0.073481 1.000000
0.171278 0.099597 -0.008323 1.000000
0.324650 0.047131 -0.087916 1.000000
-0.263055 -0.099729 0.001563 1.000000
-0.290878 0.008821 -0.099280 1.000000
-0.252889 -0.099166 -0.010420 1.000000
0.178311 -0.031086 0.095060 1.000000
-0.254047 0.045558 -0.088718 1.000000
-0.043285 -0.098526 -0.015233 1.000000
0.287439 0.074908 0.066320 1.000000
0.295162 -0.048932 0.087166 1.000000
-0.327090 0.052316 -0.084940 1.000000
-0.361573 -0.022231 0.097489 1.000000
0.128116 -0.030034 0.095389 1.000000
0.464420 0.085801 0.051429 2.000000
-0.137329 -0.022931 0.097333 1.000000
0.050132 0.089783 -0.043753 1.000000
-0.105189 -0.092764 0.036936 1.000000
0.303650 0.022027 -0.097224 1.000000
0.025108 -0.029387 0.095577 1.000000
-0.220768 -0.083982 0.054058 1.000000
-0.422234 -0.097513 0.021086 1.000000
-0.283992 0.038409 -0.092034 1.000000
-0.045957 -0.029546 -0.095168 1.000000
0.132925 -0.055507 0.083092 1.000000
0.271667 0.092949 -0.036687 1.000000
0.160633 -0.094020 0.033447 1.000000
0.258590 0.006918 -0.099460 1.000000
-0.319004 -0.079395 -0.060208 1.000000
0.003695 -0.093181 0.035776 1.000000
0.003004 -0.037781 0.092568 1.000000
-0.060561 0.095094 -0.030748 1.000000
-0.055345 0.081921 -0.057070 1.000000
0.439797 -0.078354 0.061912 2.000000
0.286347 -0.071662 0.069597 1.000000
-0.115094 -0.098795 0.013896 1.000000
-0.080390 0.019065 0.098249 1.000000
-0.385879 -0.048638 0.087340 1.000000
0.360116 0.047639 0.088020 1.000000
0.168229 0.001620 -0.099660 1.000000
-0.352193 -0.004973 0.099910 1.000000
-0.348098 0.074280 -0.066668 1.000000
-0.203628 -0.063034 -0.077188 1.000000
-0.034295 -0.090484 -0.041844 1.000000
-0.448051 0.089263 -0.044775 3.000000
-0.444353 0.081533 -0.057642 3.000000
-0.225791 0.055716 -0.082746 1.000000
0.146536 -0.044282 -0.089249 1.000000
-0.036971 -0.098634 -0.014547 1.000000
0.099266 0.048145 0.087762 1.000000
0.265714 -0.027173 0.096220 1.000000
0.436638 -0.091414 -0.039695 2.000000
0.078305 -0.041503 -0.090594 1.000000
0.355256 -0.039140 0.091980 1.000000
0.286787 -0.083212 -0.054828 1.000000
-0.033824 -0.050601 0.086179 1.000000
-0.073151 -0.099735 -0.000997 1.000000
0.347500 -0.068409 -0.072487 1.000000
0.426806 -0.007077 -0.099423 1.000000
0.345852 0.094575 -0.032189 1.000000
-0.313888 0.048898 -0.086962 1.000000
-0.288350 -0.004341 0.099930 1.000000
-0.318069 -0.099050 0.012002 1.000000
-0.132158 0.086574 -0.049759 1.000000
0.068063 0.058122 -0.081111 1.000000
0.409980 -0.075720 0.065133 1.000000
0.178096 0.056726 -0.082060 1.000000
-0.239951 0.061757 -0.078360 1.000000
-0.192060 0.099377 -0.010650 1.000000
0.372688 0.015277 -0.098501 1.000000
0.318157 0.089004 0.045645 1.000000
0.350018 0.088362 0.046905 1.000000
0.459206 -0.012795 0.099220 2.000000
0.132877 0.091286 0.040892 1.000000
0.169427 0.092946 -0.036692 1.000000
-0.142577 0.062632 0.078044 1.000000
0.169040 0.091023 0.041501 1.000000
-0.429370 -0.076341 -0.064066 3.000000
0.108374 0.045525 0.089097 1.000000
-0.006166 0.028372 -0.095577 1.000000
-0.238498 0.055487 0.083265 1.000000
-0.300487 0.034823 -0.093436 1.000000
0.401208 -0.090124 -0.042626 1.000000
0.163963 -0.058693 -0.080555 1.000000
0.132542 0.039118 -0.091728 1.000000
-0.380624 -0.096822 -0.023815 1.000000
0.066294 -0.009478 -0.099196 1.000000
0.372429 -0.066374 0.074662 1.000000
-0.093994 0.020703 -0.097520 1.000000
0.380880 -0.008936 0.099610 1.000000
-0.031289 -0.092884 -0.036238 1.000000
0.421903 -0.032798 -0.094081 1.000000
-0.173368 -0.004562 -0.099560 1.000000
0.353241 -0.092792 -0.036494 1.000000
0.348029 0.099345 -0.010991 1.000000
-0.073128 0.085455 -0.051651 1.000000
-0.178130 0.099728 -0.006943 1.000000
-0.403659 -0.001640 0.100015 1.000000
0.344247 0.095372 0.030170 1.000000
-0.123134 0.025042 0.096907 1.000000
0.382137 0.092102 0.039007 1.000000
0.294881 0.099162 0.013054 1.000000
-0.403110 0.078773 -0.061310 1.000000
0.393331 0.082137 0.057116 1.000000
-0.376915 0.086649 0.049995 1.000000
-0.238869 -0.099660 -0.003365 1.000000
-0.303255 -0.053546 -0.084063 1.000000
0.217791 -0.016812 0.098584 1.000000
0.187769 -0.095796 0.027908 1.000000
0.366011 -0.085229 0.052002 1.000000
-0.365057 -0.087711 0.047725 1.000000
0.379436 0.084263 0.053988 1.000000
-0.332118 0.099832 -0.005334 1.000000
-0.204816 -0.021549 0.097642 1.000000
0.240478 -0.095701 -0.027871 1.000000
-0.009222 -0.083927 0.054138 1.000000
0.092368 -0.022504 -0.097065 1.000000
0.460196 0.099898 0.003601 2.000000
-0.042631 -0.025983 0.096566 1.000000
0.083471 -0.098886 -0.012958 1.000000
-0.193924 -0.045322 0.089082 1.000000
0.443146 0.018376 -0.098010 2.000000
-0.354254 -0.090950 0.041128 1.000000
-0.259091 -0.099103 0.011445 1.000000
0.178663 0.045249 -0.088875 1.000000
-0.281682 0.095817 0.028638 1.000000
-0.198016 -0.025494 0.096708 1.000000
0.066102 0.004872 -0.099558 1.000000
-0.222394 -0.018556 -0.097945 1.000000
-0.153167 0.041077 0.091243 1.000000
0.068749 -0.096432 -0.025352 1.000000
0.254098 -0.079103 0.060947 1.000000
-0.197640 -0.099455 0.007720 1.000000
-0.076783 -0.007286 0.099766 1.000000
0.113154 0.090625 0.042419 1.000000
0.186730 0.028602 -0.095510 1.000000
-0.235001 -0.083170 0.055252 1.000000
-0.227938 -0.096759 -0.024098 1.000000
0.321932 0.084822 -0.052721 1.000000
0.089549 0.098612 0.016527 1.000000
0.384766 0.070907 -0.070222 1.000000
-0.409562 0.096264 -0.026735 1.000000
0.437283 0.099216 -0.012349 2.000000
0.071389 -0.067365 0.073788 1.000000
-0.004519 0.086472 0.050294 1.000000
-0.446485 -0.092137 0.038386 3.000000
0.258895 0.093853 -0.034196 1.000000
0.383971 -0.030122 0.095364 1.000000
0.009964 0.053195 0.084783 1.000000
-0.398293 -0.056828 -0.081832 1.000000
0.364870 0.096520 -0.025853 1.000000
-0.018443 -0.099231 -0.009728 1.000000
-0.099353 0.085989 0.051111 1.000000
0.451073 -0.027866 -0.095656 2.000000
0.285761 0.041968 -0.090494 1.000000
-0.327859 -0.097856 0.019556 1.000000
-0.456823 -0.005154 0.099904 3.000000
0.228190 -0.024659 -0.096584 1.000000
0.155300 0.091806 0.039690 1.000000
-0.301556 -0.030789 0.095167 1.000000
-0.099487 0.023886 0.097171 1.000000
0.401414 -0.099714 0.002022 1.000000
-0.099004 0.096631 -0.025472 1.000000
-0.151244 0.076643 -0.063989 1.000000
0.190863 -0.099580 0.006289 1.000000
0.066176 0.079866 0.060264 1.000000
-0.052774 0.098500 -0.016872 1.000000
0.087422 -0.068373 0.072886 1.000000
-0.277446 0.042621 -0.090212 1.000000
0.143687 -0.097052 0.023150 1.000000
0.254575 0.073523 0.067890 1.000000
0.390100 -0.051955 0.085379 1.000000
0.276326 -0.021135 0.097734 1.000000
-0.204166 -0.076005 -0.064447 1.000000
-0.044589 -0.013153 0.099163 1.000000
-0.377989 0.078814 -0.061257 1.000000
0.406938 0.098937 -0.014111 1.000000
-0.195196 -0.032126 0.094686 1.000000
0.367264 0.049581 -0.086557 1.000000
0.405042 -0.012137 -0.098945 1.000000
0.448567 -0.011336 -0.099020 2.000000
0.120950 -0.091133 -0.040343 1.000000
0.230036 0.032119 -0.094410 1.000000
0.427126 -0.064188 0.076589 2.000000
0.335517 -0.093148 0.035869 1.000000
0.332638 -0.079297 -0.060333 1.000000
-0.321694 -0.065443 -0.075119 1.000000
-0.233753 0.092965 0.037013 1.000000
-0.054497 -0.084410 0.053386 1.000000
0.288769 0.099289 -0.011583 1.000000
0.341370 0.087715 -0.047812 1.000000
0.056201 -0.099524 -0.006627 1.000000
-0.439771 -0.035134 0.093603 3.000000
-0.238626 -0.022540 0.097420 1.000000
-0.246056 -0.099642 -0.003966 1.000000
-0.389134 -0.076743 0.063972 1.000000
0.303000 0.097387 0.022696 1.000000
0.309438 0.092567 0.037931 1.000000
-0.077692 0.099881 0.004119 1.000000
0.401863 -0.080249 -0.059106 1.000000
-0.254537 -0.055986 0.082767 1.000000
0.284008 0.087277 -0.048571 1.000000
-0.451343 0.098042 -0.019402 3.000000
0.000521 -0.006891 -0.099441 1.000000
-0.092400 -0.088050 0.047059 1.000000
-0.327883 -0.095343 -0.029103 1.000000
-0.177757 0.031859 -0.094503 1.000000
-0.014779 -0.095113 0.030258 1.000000
0.284159 -0.099596 0.005782 1.000000
-0.035245 -0.099580 -0.005914 1.000000
0.001785 -0.051045 -0.085554 1.000000
0.059928 0.004138 -0.099581 1.000000
0.040071 0.099898 0.003590 1.000000
0.413055 -0.000429 -0.099690 1.000000
-0.457126 0.025097 -0.096529 3.000000
-0.084955 -0.061087 -0.078698 1.000000
-0.238093 -0.017594 -0.098097 1.000000
-0.152009 0.047999 0.087837 1.000000
0.217679 0.099565 -0.008662 1.000000
0.170295 -0.051645 -0.085199 1.000000
-0.378620 -0.046515 0.088473 1.000000
-0.445855 0.075799 0.065308 3.000000
-0.006148 0.099673 -0.007524 1.000000
0.202948 0.072469 0.069023 1.000000
-0.202697 -0.089584 -0.043686 1.000000
0.216869 0.099819 0.006096 1.000000
-0.250978 -0.030201 -0.094978 1.000000
0.295734 0.098007 0.019924 1.000000
0.367034 -0.076869 -0.063465 1.000000
-0.175473 -0.011422 -0.099012 1.000000
0.249121 -0.099602 0.005586 1.000000
-0.024211 -0.033063 -0.093986 1.000000
0.204137 0.027103 0.096309 1.000000
0.331158 0.061797 -0.078329 1.000000
0.465052 -0.049412 -0.086520 2.000000
-0.160958 0.069732 0.071760 1.000000
0.007636 -0.086405 0.050013 1.000000
0.336778 -0.057515 0.081728 1.000000
-0.076561 -0.057003 0.082076 1.000000
-0.350335 -0.057688 -0.081248 1.000000
0.220370 0.073535 0.067876 1.000000
0.374226 -0.099743 -0.000752 1.000000
0.230572 0.019830 -0.097715 1.000000
0.116362 -0.020968 -0.097409 1.000000
0.279852 -0.099752 0.000801 1.000000
0.006867 -0.071521 -0.069375 1.000000
-0.134018 -0.091944 -0.038469 1.000000
0.361265 0.009456 0.099583 1.000000
-0.026504 -0.085215 -0.051662 1.000000
-0.417812 -0.097872 -0.019120 1.000000
0.382497 0.097448 -0.022059 1.000000
-0.013083 0.095532 0.029620 1.000000
0.417100 -0.057908 0.081461 2.000000
-0.190354 0.075079 0.066124 1.000000
-0.334482 0.005001 0.099916 1.000000
0.293421 0.092462 -0.037813 1.000000
0.318906 -0.037346 0.092756 1.000000
-0.380097 -0.021591 0.097632 1.000000
0.281331 0.023823 -0.096823 1.000000
-0.124097 -0.072773 0.068475 1.000000
-0.174951 -0.017237 0.098517 1.000000
-0.379522 -0.099609 -0.005012 1.000000
-0.378487 0.099860 -0.004447 1.000000
-0.423998 0.060645 0.079585 1.000000
-0.052985 0.086703 -0.049542 1.000000
0.065009 0.068153 -0.072936 1.000000
-0.228935 -0.099671 -0.003032 1.000000
-0.190485 -0.071143 -0.069753 1.000000
-0.370667 -0.040045 -0.091225 1.000000
0.334844 0.096411 -0.026232 1.000000
-0.466471 0.098098 -0.019155 3.000000
0.210126 0.026469 -0.096130 1.000000
0.336629 -0.047569 -0.087574 1.000000
0.359540 0.091347 0.040751 1.000000
0.218295 0.039508 -0.091559 1.000000
0.098980 -0.020507 -0.097512 1.000000
0.389772 0.095729 -0.028577 1.000000
-0.370656 -0.037230 0.092806 1.000000
0.138184 0.047194 0.088246 1.000000
0.180563 -0.033145 -0.093956 1.000000
0.312873 -0.052034 0.085332 1.000000
0.172862 0.038151 0.092509 1.000000
-0.100531 -0.087345 0.048423 1.000000
0.022748 0.009314 0.099596 1.000000
0.255155 0.013977 -0.098707 1.000000
0.451337 0.065736 -0.075067 2.000000
-0.035370 -0.077286 -0.062926 1.000000
0.405547 0.088607 0.046423 1.000000
-0.233319 0.095149 -0.030574 1.000000
-0.223388 -0.008139 -0.099323 1.000000
-0.442951 -0.000402 0.100054 3.000000
0.142375 0.037966 -0.092226 1.000000
0.078299 0.028406 0.095930 1.000000
0.437185 0.091060 -0.041052 2.000000
-0.222854 -0.063195 0.077426 1.000000
-0.360890 -0.091885 -0.038605 1.000000
-0.162970 -0.085494 0.051554 1.000000
-0.421773 -0.094549 -0.031614 1.000000
0.086819 -0.094590 0.031863 1.000000
-0.022614 0.064651 -0.076023 1.000000
0.456066 0.046719 -0.088126 2.000000
-0.163316 -0.093685 0.034377 1.000000
0.067655 -0.099746 -0.000644 1.000000
-0.243296 0.099877 -0.003914 1.000000
-0.413457 -0.011530 -0.099002 1.000000
0.464201 0.098795 -0.015008 2.000000
0.280785 0.096892 -0.024550 1.000000
0.195671 -0.049235 0.086987 1.000000
-0.168015 -0.044434 -0.089171 1.000000
-0.108638 0.045830 0.088942 1.000000
-0.103970 -0.080370 0.059313 1.000000
-0.227723 -0.046300 -0.088221 1.000000
-0.108489 0.070497 -0.070632 1.000000
-0.330068 -0.005487 0.099894 1.000000
0.321480 -0.085310 0.051864 1.000000
-0.061021 0.090606 0.042464 1.000000
0.039648 0.005265 -0.099545 1.000000
0.336140 0.011065 -0.099068 1.000000
-0.300908 0.005090 0.099914 1.000000
0.093630 0.070695 0.070797 1.000000
-0.141517 0.036814 0.093082 1.000000
-0.229425 0.007534 0.099765 1.000000
-0.282814 0.098968 -0.013913 1.000000
0.463689 0.051186 -0.085608 2.000000
0.105884 -0.072213 0.069046 1.000000
-0.186511 0.099422 0.010540 1.000000
0.009139 0.078638 0.061847 1.000000
-0.100368 -0.090501 -0.041803 1.000000
-0.016612 0.093606 -0.034882 1.000000
0.448481 -0.066316 0.074712 2.000000
0.183662 0.096971 0.024559 1.000000
-0.314664 -0.099719 -0.001516 1.000000
0.360705 -0.092703 0.037079 1.000000
0.373085 -0.042576 -0.090118 1.000000
-0.223904 -0.099331 -0.008668 1.000000
0.162639 -0.053213 0.084634 1.000000
-0.150785 0.017345 -0.098174 1.000000
-0.167556 0.077060 0.063878 1.000000
-0.392474 -0.079674 -0.059848 1.000000
-0.140265 0.057186 0.082110 1.000000
0.117613 0.083025 0.055809 1.000000
-0.395031 0.097779 0.020942 1.000000
0.287037 0.099858 -0.004493 1.000000
-0.308045 -0.036819 0.092984 1.000000
0.376825 0.098038 -0.019420 1.000000
-0.021956 0.036295 0.093269 1.000000
-0.422985 -0.052456 0.085082 1.000000
-0.126261 -0.071461 -0.069435 1.000000
0.410395 -0.050958 0.085968 2.000000
-0.143488 0.099181 0.012932 1.000000
0.261282 0.099905 -0.003010 1.000000
-0.410837 -0.036218 -0.092850 1.000000
0.212893 -0.075174 0.065752 1.000000
0.402133 -0.033970 0.094022 1.000000
-0.320820 0.077733 -0.062651 1.000000
-0.432986 -0.059481 0.080307 3.000000
0.365812 -0.041473 -0.090607 1.000000
-0.267585 0.032614 0.094594 1.000000
0.227119 0.015431 0.098840 1.000000
0.086568 0.087429 -0.048313 1.000000
-0.009541 -0.098638 0.014886 1.000000
-0.089615 -0.099673 -0.002959 1.000000
-0.133122 -0.097823 -0.019339 1.000000
-0.229245 0.089052 -0.045187 1.000000
0.141832 -0.049958 -0.086197 1.000000
0.455866 0.019015 -0.097897 2.000000
-0.409268 -0.069508 -0.071388 1.000000
0.091415 -0.084041 0.053971 1.000000
0.005562 0.037544 -0.092409 1.000000
-0.056408 0.034247 -0.093644 1.000000
0.290385 0.086431 -0.050001 1.000000
0.072850 0.095535 -0.029246 1.000000
-0.272830 -0.099669 -0.003103 1.000000
0.077341 0.066327 0.074908 1.000000
-0.260748 0.098401 -0.017495 1.000000
-0.076275 0.054204 -0.083774 1.000000
-0.406273 0.009851 -0.099183 1.000000
0.198424 -0.041433 -0.090625 1.000000
0.128324 -0.098627 0.014959 1.000000
-0.101986 0.049808 -0.086424 1.000000
0.175990 0.080108 -0.059589 1.000000
0.332864 0.026891 0.096370 1.000000
-0.288733 -0.096345 -0.025654 1.000000
0.204069 -0.011025 0.099413 1.000000
-0.150904 0.001324 0.100032 1.000000
0.264752 -0.080245 0.059475 1.000000
0.231050 -0.021278 0.097702 1.000000
-0.006397 -0.093976 -0.033205 1.000000
-0.147798 0.097211 -0.023122 1.000000
-0.116714 0.085235 0.052386 1.000000
-0.358143 -0.012867 -0.098846 1.000000
0.159688 0.097052 0.024198 1.000000
0.046856 0.049239 -0.086760 1.000000
0.157927 0.056381 -0.082294 1.000000
-0.237513 0.072682 0.068810 1.000000
-0.228585 0.082470 -0.056263 1.000000
0.051090 -0.081409 0.057843 1.000000
0.347166 0.099846 -0.004880 1.000000
0.445869 -0.002441 -0.099627 2.000000
0.097417 -0.095012 0.030605 1.000000
-0.033634 0.063559 0.077325 1.000000
0.106844 0.060090 -0.079652 1.000000
-0.168576 -0.030524 0.095247 1.000000
-0.202176 -0.014115 -0.098648 1.000000
-0.258357 -0.040967 0.091189 1.000000
0.227092 0.099338 -0.011069 1.000000
0.038178 0.025908 0.096656 1.000000
0.353679 -0.092240 0.038149 1.000000
0.171002 -0.094367 -0.032119 1.000000
-0.279710 -0.057323 0.081858 1.000000
0.186699 0.086597 0.050084 1.000000
0.127233 -0.018786 -0.097896 1.000000
-0.124930 0.038389 0.092406 1.000000
-0.213523 0.016743 -0.098269 1.000000
-0.319379 -0.036841 0.092975 1.000000
0.023128 0.068329 -0.072781 1.000000
0.375195 0.099811 -0.006007 1.000000
0.238754 -0.098814 0.013779 1.000000
0.167958 -0.099367 -0.008291 1.000000
0.320616 0.099568 -0.008635 1.000000
-0.325945 -0.014739 -0.098549 1.000000
0.218574 -0.045103 0.089193 1.000000
0.439509 0.091084 0.041359 2.000000
-0.013192 -0.065566 -0.075010 1.000000
0.270733 0.003263 -0.099608 1.000000
0.139725 -0.099771 0.000158 1.000000
-0.284687 0.095411 -0.029672 1.000000
0.216663 -0.018224 -0.097998 1.000000
-0.154754 -0.081900 0.057121 1.000000
-0.027155 0.094418 0.032989 1.000000
0.035115 0.048478 0.087572 1.000000
0.145977 0.090330 -0.042681 1.000000
0.172781 0.076652 -0.063978 1.000000
0.393821 0.034839 0.093793 1.000000
0.157759 0.098683 0.016074 1.000000
0.390914 -0.062045 0.078318 1.000000
-0.229593 0.033168 -0.094032 1.000000
0.254240 -0.073955 0.067135 1.000000
0.153341 0.092562 -0.037580 1.000000
-0.086877 0.087201 -0.048699 1.000000
0.341578 -0.086288 -0.049848 1.000000
0.297393 -0.097771 0.019932 1.000000
0.261182 0.099891 0.003811 1.000000
0.304965 -0.091412 -0.039699 1.000000
-0.442298 0.083987 0.054393 3.000000
0.456273 0.054204 0.084137 2.000000
-0.448640 0.041180 0.091198 3.000000
0.151772 -0.039052 0.092018 1.000000
-0.046043 -0.099712 0.002097 1.000000
0.366263 -0.086289 -0.049846 1.000000
0.350997 0.090958 -0.041287 1.000000
0.025734 0.098123 0.019403 1.000000
-0.256739 -0.056814 -0.081841 1.000000
-0.361951 -0.066140 -0.074505 1.000000
-0.002509 -0.047167 0.088142 1.000000
-0.037402 -0.093599 0.034616 1.000000
-0.191257 0.079248 0.061061 1.000000
0.151874 0.028691 -0.095485 1.000000
0.333064 0.099788 0.006662 1.000000
0.049059 -0.077377 0.063171 1.000000
-0.353351 0.066768 0.074520 1.000000
-0.135312 -0.099602 -0.005223 1.000000
-0.414706 0.034955 0.093752 1.000000
0.206490 -0.077217 0.063378 1.000000
0.303557 0.099687 0.007730 1.000000
-0.336305 -0.099029 -0.011862 1.000000
-0.025403 -0.057718 0.081590 1.000000
-0.298821 -0.090736 -0.041261 1.000000
-0.257745 0.022561 0.097468 1.000000
-0.242534 -0.094046 0.033373 1.000000
-0.194958 0.096666 -0.025352 1.000000
-0.248168 -0.095746 0.028078 1.000000
-0.237427 -0.069135 0.072124 1.000000
0.303084 -0.080259 0.059456 1.000000
0.005652 0.006473 -0.099502 1.000000
-0.127376 -0.040689 0.091309 1.000000
-0.395601 -0.090162 0.042914 1.000000
-0.155665 -0.021003 0.097764 1.000000
-0.354638 -0.066892 0.074204 1.000000
0.286783 -0.078875 -0.060877 1.000000
-0.416200 0.053240 0.084756 1.000000
-0.001007 -0.099551 -0.006347 1.000000
-0.055489 0.014987 0.098910 1.000000
-0.423850 0.055410 -0.082954 3.000000
0.111187 -0.041727 0.090860 1.000000
0.116480 -0.099682 -0.002674 1.000000
0.116484 -0.099644 0.004252 1.000000
-0.356440 0.001695 -0.099658 1.000000
-0.350337 0.098752 0.015642 1.000000
-0.120211 -0.088214 0.046738 1.000000
-0.174537 -0.069426 0.071833 1.000000
-0.265490 -0.083392 -0.054562 1.000000
-0.346934 0.066442 0.074807 1.000000
-0.026117 0.084003 0.054369 1.000000
-0.045146 0.088466 -0.046338 1.000000
0.070944 -0.099348 0.008850 1.000000
0.457196 0.099467 0.010062 2.000000
-0.348184 0.051289 -0.085548 1.000000
-0.162186 -0.072421 0.068837 1.000000
0.028027 -0.082339 -0.056112 1.000000
0.065497 -0.001891 -0.099644 1.000000
0.118739 0.008986 0.099627 1.000000
0.268271 0.051392 0.085850 1.000000
-0.457232 -0.094508 -0.031727 3.000000
-0.059101 0.088445 -0.046380 1.000000
-0.355305 -0.088047 0.047065 1.000000
-0.441129 -0.026855 -0.095950 3.000000
-0.013704 0.096959 -0.024249 1.000000
-0.249797 0.023420 -0.096913 1.000000
-0.464575 -0.084425 -0.052999 3.000000
0.202775 -0.088180 -0.046442 1.000000
0.372012 -0.099216 -0.009881 1.000000
-0.393348 0.008095 0.099712 1.000000
0.068458 -0.048203 0.087597 1.000000
0.282343 0.012335 0.099311 1.000000
0.465200 -0.072237 0.069022 2.000000
-0.440920 -0.047323 -0.087699 3.000000
0.435299 -0.059377 -0.080025 1.000000
0.387447 0.021317 -0.097383 1.000000
0.151639 -0.064491 0.076321 1.000000
0.057071 0.007553 0.099763 1.000000
-0.017464 0.055339 -0.083002 1.000000
0.186790 0.000048 -0.099705 1.000000
0.063084 0.005164 0.099911 1.000000
-0.110935 0.076182 0.064874 1.000000
0.205679 -0.099310 -0.008896 1.000000
-0.422315 -0.034326 -0.093531 1.000000
-0.197032 -0.098152 0.017958 1.000000
-0.106045 0.045475 -0.088760 1.000000
0.181706 0.013918 0.099079 1.000000
0.244399 -0.085939 -0.050438 1.000000
-0.177431 -0.099718 -0.001530 1.000000
0.114700 -0.074449 0.066575 1.000000
0.242585 -0.079259 0.060746 1.000000
-0.117887 -0.017398 -0.098128 1.000000
-0.203915 0.001786 -0.099655 1.000000
0.075612 -0.096496 -0.025134 1.000000
-0.274940 0.096970 0.024560 1.000000
0.144992 -0.040408 0.091431 1.000000
0.334616 0.015930 0.098761 1.000000
-0.241777 -0.096356 0.025978 1.000000
0.122268 -0.097179 0.022585 1.000000
0.338685 -0.072288 0.068971 1.000000
0.192835 0.030012 -0.095101 1.000000
0.371589 0.077973 -0.062342 1.000000
-0.015522 -0.072924 0.068305 1.000000
-0.369758 0.072626 0.068866 1.000000
-0.356247 -0.098385 -0.016120 1.000000
0.306461 -0.035697 -0.093038 1.000000
-0.384012 0.043816 -0.089605 1.000000
0.130042 -0.012674 -0.098877 1.000000
-0.025980 0.087962 0.047689 1.000000
0.130891 0.057192 0.082106 1.000000
0.251184 -0.020429 -0.097529 1.000000
-0.450937 0.099097 -0.013099 3.000000
0.401092 0.099316 -0.011300 1.000000
0.330608 -0.008210 0.099679 1.000000
0.448738 -0.099436 -0.007560 2.000000
0.318318 0.068753 0.072739 1.000000
0.310455 0.036338 0.093253 1.000000
-0.242553 -0.099711 0.002126 1.000000
0.421933 -0.099752 0.000812 1.000000
-0.162757 0.011354 -0.099041 1.000000
0.263211 0.038040 -0.092194 1.000000
0.099549 -0.093868 -0.033506 1.000000
-0.244334 -0.078336 -0.061572 1.000000
0.043273 -0.094303 -0.032298 1.000000
-0.363903 -0.093779 -0.033751 1.000000
0.452130 -0.056397 -0.082125 2.000000
-0.211885 -0.040068 0.091578 1.000000
-0.174597 -0.076403 0.064359 1.000000
0.213635 0.035000 -0.093372 1.000000
-0.244687 0.065224 -0.075518 1.000000
-0.107858 0.089299 0.045066 1.000000
-0.281753 -0.013605 -0.098729 1.000000
-0.426023 0.067195 0.074143 1.000000
-0.024074 0.032033 -0.094441 1.000000
-0.157451 0.051000 0.086081 1.000000
0.115820 -0.078433 0.061810 1.000000
-0.085562 -0.069852 -0.071044 1.000000
0.151975 0.095263 -0.030180 1.000000
0.394045 -0.090788 -0.041142 1.000000
-0.382244 -0.092737 -0.036638 1.000000
-0.311035 -0.088694 0.045796 1.000000
0.415636 -0.099724 -0.001339 1.000000
0.180465 0.086438 0.050351 1.000000
0.079845 -0.055063 -0.083031 1.000000
-0.268772 0.085676 -0.051277 1.000000
-0.301537 0.099883 0.004070 1.000000
-0.466917 0.080011 0.060077 3.000000
-0.372546 0.069058 0.072434 1.000000
0.014654 -0.090905 0.041234 1.000000
0.167174 -0.025183 0.096799 1.000000
0.244423 0.031702 -0.094560 1.000000
0.262139 -0.097879 0.019452 1.000000
-0.243729 -0.089770 -0.043320 1.000000
-0.319252 0.042940 0.090414 1.000000
-0.329960 -0.063722 0.076999 1.000000
-0.429713 0.096797 0.025264 1.000000
0.423171 0.086763 -0.049439 1.000000
0.064538 -0.058366 0.081150 1.000000
0.280445 -0.099575 -0.006083 1.000000
-0.038124 -0.013406 0.099123 1.000000
-0.031279 -0.098058 -0.018187 1.000000
0.017658 0.091810 0.039680 1.000000
0.344927 0.010653 0.099470 1.000000
0.234788 0.054479 -0.083587 1.000000
-0.101384 0.080996 -0.058433 1.000000
0.211087 0.066764 -0.074161 1.000000
-0.465895 -0.051152 0.085853 3.000000
0.366837 0.016288 0.098704 1.000000
0.054374 0.087245 0.048987 1.000000
-0.029140 0.057322 -0.081655 1.000000
-0.199026 -0.072082 0.069177 1.000000
0.295259 0.007917 -0.099366 1.000000
0.134487 0.097395 0.022661 1.000000
-0.457428 0.015000 0.098908 3.000000
-0.319878 -0.090161 0.042917 1.000000
-0.033589 -0.008413 0.099659 1.000000
-0.424667 0.096899 -0.024519 1.000000
-0.218685 0.048361 -0.087279 1.000000
0.201074 0.051187 -0.085608 1.000000
-0.244483 -0.019782 0.098037 1.000000
0.442487 0.057404 -0.081599 2.000000
0.273695 0.099858 0.004876 1.000000
-0.270006 0.065662 -0.075132 1.000000
0.127065 0.060684 -0.079192 1.000000
0.167693 -0.048950 0.087155 1.000000
-0.283554 0.007782 -0.099378 1.000000
-0.082464 0.045426 -0.088785 1.000000
-0.177458 0.000216 -0.099704 1.000000
0.433233 0.096150 -0.027127 2.000000
0.122500 -0.099235 0.010046 1.000000
0.356911 -0.057603 0.081668 1.000000
-0.285012 0.075954 0.065132 1.000000
0.281350 0.091099 0.041325 1.000000
0.174414 -0.098396 -0.016052 1.000000
-0.402741 -0.099665 0.003574 1.000000
0.189862 -0.089672 -0.043514 1.000000
-0.440999 0.017175 0.098563 3.000000
-0.016771 -0.060138 0.079797 1.000000
-0.335253 0.044142 -0.089439 1.000000
-0.252914 -0.047545 -0.087586 1.000000
0.123135 0.066666 -0.074247 1.000000
0.302706 0.053933 -0.083958 1.000000
0.347082 0.053990 -0.083919 1.000000
0.180567 0.075944 0.065144 1.000000
0.063743 -0.023323 0.097245 1.000000
-0.230414 -0.086469 0.049905 1.000000
0.435348 0.075560 -0.065217 1.000000
0.305122 0.055063 0.083553 1.000000
-0.041244 -0.054623 0.083693 1.000000
0.121751 0.022553 0.097469 1.000000
0.082813 -0.090306 -0.042255 1.000000
-0.244872 0.029101 0.095728 1.000000
0.232429 -0.014972 0.098875 1.000000
0.071222 0.092694 -0.037277 1.000000
0.230931 0.081143 0.058578 1.000000
0.130357 -0.080790 -0.058392 1.000000
-0.374200 -0.081283 0.058029 1.000000
-0.265849 0.091765 -0.039422 1.000000
0.446105 -0.081942 -0.056696 2.000000
-0.361048 -0.027115 -0.095875 1.000000
-0.277397 -0.093736 0.034234 1.000000
-0.001025 -0.058271 0.081214 1.000000
0.228792 -0.086051 -0.050250 1.000000
-0.143051 -0.074659 -0.065974 1.000000
-0.178077 0.043839 -0.089593 1.000000
0.177071 -0.072894 0.068339 1.000000
0.068901 0.097111 0.023931 1.000000
0.007551 0.088384 -0.046499 1.000000
0.012040 -0.000980 -0.099673 1.000000
-0.406969 -0.027274 0.096191 1.000000
-0.318011 -0.018718 0.098274 1.000000
-0.250615 0.076676 0.064314 1.000000
0.228346 0.030073 0.095446 1.000000
0.371946 0.085199 0.052447 1.000000
0.121853 0.062217 0.078366 1.000000
0.005000 0.075634 0.065496 1.000000
-0.253920 0.058491 -0.080860 1.000000
-0.060983 -0.010511 0.099461 1.000000
-0.101864 -0.070293 -0.070603 1.000000
0.085907 -0.057434 -0.081420 1.000000
0.176578 0.099935 0.002424 1.000000
-0.465724 -0.011649 0.099354 3.000000
0.107565 -0.087672 -0.047439 1.000000
0.205118 -0.041995 0.090744 1.000000
-0.119563 0.069868 -0.071261 1.000000
-0.177250 -0.078914 -0.060828 1.000000
0.132163 -0.040015 -0.091239 1.000000
-0.276396 0.021503 -0.097341 1.000000
0.209683 0.049232 -0.086764 1.000000
0.128335 -0.099056 -0.011580 1.000000
0.058535 0.099565 0.009030 1.000000
-0.033565 0.094715 0.032163 1.000000
-0.052732 0.008284 0.099694 1.000000
0.069285 0.065286 -0.075464 1.000000
0.012757 -0.026504 -0.096052 1.000000
0.320145 0.081782 0.057639 1.000000
-0.026875 -0.028112 0.095948 1.000000
-0.402433 0.073649 0.067747 1.000000
-0.305603 -0.020508 -0.097512 1.000000
-0.156069 0.098093 0.019536 1.000000
-0.079640 -0.015184 0.098842 1.000000
0.108407 0.048116 -0.087414 1.000000
0.180844 -0.091278 -0.040009 1.000000
-0.081420 0.085647 -0.051326 1.000000
0.115051 0.089721 -0.043875 1.000000
-0.213083 0.098626 -0.016071 1.000000
-0.051726 -0.076163 -0.064268 1.000000
-0.028428 -0.004421 0.099927 1.000000
-0.073302 -0.064930 -0.075572 1.000000
0.404819 0.081002 0.058786 1.000000
-0.432653 -0.094740 0.031446 3.000000
-0.031190 0.072446 0.069046 1.000000
0.279298 -0.098780 -0.013627 1.000000
-0.148233 -0.038452 -0.091915 1.000000
0.137349 -0.023361 -0.096874 1.000000
-0.373035 0.099643 0.008203 1.000000
0.049570 0.062820 0.077898 1.000000
-0.085288 -0.017438 0.098485 1.000000
-0.387597 -0.080744 0.058822 1.000000
0.304310 -0.067940 0.073280 1.000000
0.077699 -0.033644 0.094139 1.000000
-0.142445 0.031218 0.095097 1.000000
-0.107212 0.096889 -0.024562 1.000000
0.194925 0.099702 -0.007218 1.000000
0.259426 0.079099 -0.060890 1.000000
-0.278685 0.094585 -0.032163 1.000000
-0.422602 0.091698 0.039941 1.000000
-0.165241 0.021871 0.097622 1.000000
-0.133187 -0.083099 0.055357 1.000000
0.063975 -0.017376 0.098495 1.000000
-0.133295 0.098974 0.014241 1.000000
0.311634 0.059298 0.080630 1.000000
-0.349431 -0.097908 -0.018957 1.000000
-0.371642 0.091449 -0.040153 1.000000
0.188192 -0.076204 0.064584 1.000000
-0.441859 0.024626 0.097006 3.000000
-0.166277 0.088355 0.046920 1.000000
-0.111038 -0.098998 -0.012197 1.000000
0.127376 0.083615 -0.054578 1.000000
0.464399 0.028034 0.096038 2.000000
-0.395701 -0.020633 -0.097484 1.000000
-0.295467 -0.078279 -0.061646 1.000000
0.087109 0.075228 -0.065594 1.000000
0.393157 -0.095327 0.029521 1.000000
-0.181591 0.088555 0.046527 1.000000
0.381935 -0.063420 -0.076889 1.000000
-0.424395 0.062494 -0.077788 3.000000
-0.378345 0.095894 -0.028008 1.000000
-0.460080 -0.090116 -0.042643 3.000000
-0.405393 -0.077824 0.062595 1.000000
-0.187029 0.035735 -0.093108 1.000000
0.296430 0.035900 -0.093048 1.000000
-0.174406 0.053803 -0.084047 1.000000
0.333031 -0.031027 -0.094719 1.000000
-0.458371 0.047562 -0.087696 3.000000
0.119851 0.011191 -0.099056 1.000000
0.078898 0.073267 -0.067818 1.000000
-0.136452 0.061172 0.079176 1.000000
-0.138855 -0.037994 -0.092113 1.000000
-0.039787 -0.027446 -0.095778 1.000000
-0.113207 -0.029062 0.095672 1.000000
-0.201198 0.099037 0.013844 1.000000
-0.128757 0.005199 0.099910 1.000000
0.041014 0.020002 0.098039 1.000000
-0.213306 -0.080241 -0.059116 1.000000
-0.082389 0.091408 0.040609 1.000000
-0.162878 -0.012479 0.099270 1.000000
-0.305325 -0.072276 -0.068620 1.000000
0.391337 0.082082 -0.056834 1.000000
-0.113789 -0.059655 -0.079809 1.000000
0.192533 -0.056798 -0.081852 1.000000
-0.457085 0.079641 -0.060191 3.000000
-0.070720 0.057323 0.082017 1.000000
-0.134422 0.066905 -0.074036 1.000000
0.303284 -0.099705 -0.001962 1.000000
-0.363836 0.090743 0.042147 1.000000
0.375578 -0.039990 0.091612 1.000000
0.314205 -0.068546 0.072713 1.000000
0.071195 -0.058218 0.081250 1.000000
0.269343 -0.081399 -0.057495 1.000000
-0.310743 0.080193 -0.059479 1.000000
-0.221856 -0.095896 -0.027200 1.000000
0.221699 -0.033910 -0.093681 1.000000
0.134866 0.098613 -0.016153 1.000000
0.406968 0.081123 -0.058246 1.000000
-0.044432 0.069122 0.072370 1.000000
0.024217 -0.087416 0.048304 1.000000
0.002200 0.067977 -0.073091 1.000000
-0.428851 0.085976 0.051134 1.000000
-0.137484 0.070939 -0.070191 1.000000
-0.291615 0.053190 -0.084423 1.000000
-0.366873 0.099903 -0.003060 1.000000
-0.164298 0.027721 0.096129 1.000000
0.446879 -0.093236 0.035624 2.000000
0.164001 0.055309 0.083386 1.000000
-0.015689 0.086234 -0.050334 1.000000
0.099907 0.098307 0.018453 1.000000
0.325526 -0.076537 0.064207 1.000000
-0.465416 -0.020311 -0.097556 3.000000
-0.173127 -0.024962 0.096863 1.000000
-0.340388 0.005064 0.099914 1.000000
0.288799 -0.095715 -0.027824 1.000000
-0.073323 -0.073884 0.067216 1.000000
-0.139146 -0.060915 0.079195 1.000000
-0.289718 0.048810 0.087377 1.000000
0.104834 0.037113 0.092958 1.000000
-0.165017 -0.089572 0.044072 1.000000
0.312362 -0.098643 0.014853 1.000000
-0.303600 -0.088168 0.046829 1.000000
-0.333264 -0.099427 0.008020 1.000000
-0.399281 -0.081184 -0.057812 1.000000
-0.235305 0.029069 -0.095375 1.000000
-0.249189 -0.053796 -0.083893 1.000000
0.367683 -0.037316 0.092769 1.000000
0.063077 -0.099099 0.011487 1.000000
0.302601 0.072230 -0.068900 1.000000
-0.268197 -0.035730 0.093388 1.000000
0.380749 0.080971 0.058832 1.000000
-0.027615 -0.083625 0.054583 1.000000
-0.397137 0.028991 -0.095397 1.000000
-0.045200 0.071134 -0.069996 1.000000
-0.279639 0.064785 -0.075905 1.000000
-0.167620 -0.096543 0.025336 1.000000
0.300130 -0.073109 -0.067732 1.000000
0.171702 0.088085 0.047449 1.000000
0.122054 0.077559 -0.062876 1.000000
0.328695 -0.099218 -0.009865 1.000000
0.431495 0.099930 0.002563 2.000000
0.187022 0.001291 0.100033 1.000000
0.282817 0.039513 0.091919 1.000000
0.147467 -0.079194 0.060829 1.000000
0.325693 0.090431 0.042844 1.000000
-0.283980 -0.011225 0.099394 1.000000
-0.095207 0.092911 0.037138 1.000000
-0.069681 -0.077827 0.062592 1.000000
0.369203 -0.078491 0.061736 1.000000
-0.111742 -0.017228 -0.098155 1.000000
-0.421484 -0.099342 -0.008555 1.000000
-0.339132 -0.014101 -0.098651 1.000000
-0.272575 -0.074248 0.066803 1.000000
0.298145 0.098790 -0.015039 1.000000
0.159827 0.099231 -0.012199 1.000000
-0.110673 -0.090444 -0.041936 1.000000
0.179269 0.027719 0.096130 1.000000
0.156808 0.099979 -0.000660 1.000000
0.052283 -0.096994 0.023412 1.000000
0.019745 -0.093483 -0.034573 1.000000
-0.256116 0.078716 -0.061384 1.000000
-0.426345 -0.020913 -0.097421 1.000000
0.312165 -0.097563 0.020866 1.000000
0.332610 0.020456 -0.097575 1.000000
-0.092748 0.051914 -0.085178 1.000000
0.043827 -0.056870 -0.081804 1.000000
-0.187731 -0.079346 -0.060271 1.000000
0.309043 -0.099642 0.004300 1.000000
0.364462 0.021808 -0.097273 1.000000
-0.008412 0.099840 0.005449 1.000000
-0.172140 -0.011452 0.099372 1.000000
0.382853 0.084747 -0.052849 1.000000
-0.127773 0.096975 0.024539 1.000000
-0.127932 -0.037156 -0.092476 1.000000
-0.181069 0.000182 0.100068 1.000000
-0.440349 -0.068711 -0.072185 3.000000
-0.014136 -0.043869 0.089822 1.000000
0.223045 0.069008 0.072484 1.000000
-0.051254 0.092518 0.038046 1.000000
0.270801 -0.095709 0.028206 1.000000
0.099092 -0.087442 0.048253 1.000000
0.160224 0.093676 -0.034687 1.000000
0.207154 0.055352 -0.082993 1.000000
-0.466530 0.071068 -0.070062 3.000000
-0.155667 0.062862 -0.077503 1.000000
-0.037408 0.064296 -0.076336 1.000000
-0.245339 -0.040627 0.091337 1.000000
-0.026284 -0.090557 -0.041674 1.000000
0.448285 0.037158 -0.092576 2.000000
-0.089676 -0.004792 -0.099553 1.000000
0.164861 0.099846 0.005258 1.000000
-0.224004 0.012288 0.099315 1.000000
0.031150 -0.065853 0.075120 1.000000
0.294047 -0.095657 0.028385 1.000000
0.051373 0.084137 -0.053811 1.000000
0.236981 -0.096021 0.027130 1.000000
0.451666 -0.092154 -0.037984 2.000000
-0.312538 -0.041129 0.091119 1.000000
-0.068876 0.096286 0.027022 1.000000
0.166875 0.083432 -0.054847 1.000000
-0.172347 -0.016836 -0.098217 1.000000
-0.269604 0.028919 -0.095418 1.000000
-0.449818 -0.098929 -0.012686 3.000000
0.292810 -0.044367 -0.089205 1.000000
-0.266520 -0.083345 0.054995 1.000000
-0.048104 0.082965 -0.055535 1.000000
0.064372 -0.098238 -0.017052 1.000000
-0.107490 -0.059873 -0.079640 1.000000
0.403553 -0.093647 0.034482 1.000000
0.006306 0.099870 0.004471 1.000000
0.253462 -0.001552 -0.099655 1.000000
-0.222629 0.062600 -0.077705 1.000000
0.371763 0.030396 0.095352 1.000000
0.266177 -0.098143 -0.017647 1.000000
0.360840 -0.093048 -0.035784 1.000000
-0.429572 -0.024076 0.097077 1.000000
0.158311 -0.055909 -0.082456 1.000000
-0.325793 -0.091979 0.038751 1.000000
0.056788 0.052608 -0.084767 1.000000
-0.311279 -0.077704 -0.062388 1.000000
-0.436651 0.056787 0.082381 3.000000
0.417384 0.075768 0.065343 1.000000
0.050406 0.079450 0.060801 1.000000
0.426436 -0.052147 -0.084902 1.000000
-0.427791 -0.061988 0.078362 3.000000
-0.349719 0.004822 -0.099559 1.000000
-0.271020 -0.088568 -0.045680 1.000000
-0.381884 -0.071886 0.069372 1.000000
0.052185 -0.052486 -0.084702 1.000000
0.458616 0.058922 0.080921 2.000000
-0.172940 0.010318 -0.099139 1.000000
-0.308828 0.055703 0.083118 1.000000
-0.197485 0.091335 -0.040415 1.000000
-0.459432 -0.023277 0.097255 3.000000
-0.316050 0.067602 0.073785 1.000000
0.357791 0.090167 -0.043000 1.000000
-0.215329 -0.068164 -0.072720 1.000000
