0.150028 0.031843 0.094872 1.000000
-0.406348 -0.069035 -0.071861 1.000000
0.116091 -0.099750 0.000892 1.000000
-0.411634 -0.099161 0.010835 1.000000
-0.116075 -0.068530 -0.072366 1.000000
0.339851 -0.039522 0.091815 1.000000
-0.102798 -0.037246 -0.092437 1.000000
0.395936 0.090910 0.041760 1.000000
-0.222604 0.065591 -0.075194 1.000000
-0.344478 0.083437 -0.054840 1.000000
0.075081 -0.066349 0.074684 1.000000
0.178166 -0.016791 -0.098224 1.000000
0.331094 0.068595 0.072898 1.000000
0.192420 -0.098244 -0.017012 1.000000
0.177351 -0.051324 0.085752 1.000000
-0.414565 -0.007556 0.099740 1.000000
0.119977 -0.085444 0.051639 1.000000
0.329944 -0.005686 -0.099525 1.000000
-0.423200 0.038594 -0.091954 1.000000
-0.192671 0.093979 0.034207 1.000000
0.212544 -0.099721 -0.001436 1.000000
-0.105335 0.099425 0.010503 1.000000
0.312559 -0.056895 -0.081786 1.000000
-0.262859 -0.080757 -0.058440 1.000000
-0.099177 -0.043596 0.089961 1.000000
-0.411218 -0.061593 0.078669 1.000000
0.080115 0.096688 0.025638 1.000000
0.173884 0.069394 -0.071735 1.000000
-0.072581 -0.099290 -0.009100 1.000000
-0.423263 0.099290 0.011933 1.000000
-0.278572 0.054773 0.083750 1.000000
0.292525 -0.078798 0.061339 1.000000
-0.144718 -0.099384 -0.008111 1.000000
-0.235243 -0.017012 -0.098190 1.000000
0.258127 0.093116 0.036605 1.000000
0.055332 0.046682 0.088508 1.000000
0.209226 -0.049872 0.086610 1.000000
-0.114725 -0.097061 -0.022746 1.000000
0.000895 0.069525 -0.071604 1.000000
-0.444190 -0.095010 -0.030250 3.000000
0.412029 0.095651 -0.028847 1.000000
0.408884 -0.028477 -0.095479 1.000000
0.357338 -0.071648 0.069611 1.000000
0.444873 -0.081365 -0.057546 2.000000
0.126649 0.089131 -0.045033 1.000000
-0.319339 -0.092070 -0.038177 1.000000
-0.466930 0.048619 0.087489 3.000000
0.376311 0.079392 0.060875 1.000000
0.320036 0.012821 0.099253 1.000000
-0.376934 0.096131 0.027555 1.000000
-0.122215 -0.063315 0.077333 1.000000
0.352912 -0.087077 -0.048513 1.000000
0.358020 -0.017276 -0.098148 1.000000
0.096148 -0.094995 -0.030302 1.000000
-0.007504 0.002938 0.099981 1.000000
0.132582 0.004553 0.099931 1.000000
-0.384465 0.094854 0.031776 1.000000
0.406269 0.093879 0.034486 1.000000
0.008681 -0.070998 0.070261 1.000000
0.210393 -0.095375 -0.028992 1.000000
0.337853 0.055607 -0.082820 1.000000
-0.423212 -0.064103 0.076663 1.000000
0.423881 -0.000872 -0.099676 1.000000
-0.410299 -0.011676 0.099351 1.000000
-0.172453 0.087383 -0.048392 1.000000
-0.223429 0.090781 0.042060 1.000000
-0.204460 0.051343 0.085879 1.000000
0.404906 -0.098137 0.018052 1.000000
-0.301762 -0.032350 -0.094242 1.000000
-0.180865 0.076575 -0.064065 1.000000
-0.461651 0.083858 -0.054221 3.000000
-0.256795 -0.099136 -0.010733 1.000000
-0.069932 -0.089481 0.044250 1.000000
0.193526 0.025166 0.096871 1.000000
-0.267136 0.089500 -0.044308 1.000000
0.079921 -0.091469 0.039931 1.000000
-0.223097 -0.018191 0.098365 1.000000
0.386359 0.089349 -0.044605 1.000000
0.278487 0.051029 -0.085701 1.000000
-0.187203 -0.036105 -0.092891 1.000000
-0.131720 -0.062265 -0.077785 1.000000
-0.420804 -0.099073 0.011758 1.000000
-0.368246 -0.085037 0.052326 1.000000
-0.401096 -0.072670 -0.068226 1.000000
0.218003 0.032820 -0.094157 1.000000
-0.093263 -0.037486 0.092696 1.000000
0.346930 -0.076446 0.064310 1.000000
0.164489 -0.093339 0.035338 1.000000
-0.152095 -0.017958 0.098402 1.000000
-0.377179 -0.090422 -0.041988 1.000000
-0.418263 0.081269 -0.058030 1.000000
-0.083428 0.097382 0.022718 1.000000
0.463789 -0.010450 0.099467 2.000000
0.200909 -0.099762 -0.000129 1.000000
0.116697 0.068007 0.073428 1.000000
-0.367720 0.099466 0.010068 1.000000
0.459786 -0.096637 -0.024645 2.000000
0.418186 0.068475 -0.072652 1.000000
0.381174 0.099951 0.001915 1.000000
0.298665 0.060139 0.079977 1.000000
-0.024806 0.080019 0.060066 1.000000
-0.255672 0.084212 -0.053699 1.000000
-0.261272 -0.007337 0.099761 1.000000
-0.274156 -0.099591 -0.005577 1.000000
-0.222614 0.078564 -0.061579 1.000000
-0.010515 0.074880 -0.065988 1.000000
-0.196344 0.048679 -0.087091 1.000000
0.362842 0.060582 -0.079271 1.000000
-0.374767 0.078544 0.061968 1.000000
-0.409493 0.017926 0.098444 1.000000
0.278855 0.011776 -0.099001 1.000000
0.385048 0.004479 -0.099570 1.000000
0.182279 -0.037476 0.092700 1.000000
0.035866 -0.069684 -0.071212 1.000000
-0.069259 0.016721 0.098635 1.000000
0.105311 -0.098619 -0.014643 1.000000
0.045466 0.001817 0.100017 1.000000
-0.287378 0.007705 -0.099386 1.000000
0.201467 0.093483 -0.035222 1.000000
-0.384097 0.037225 -0.092547 1.000000
0.465040 -0.064245 0.076539 2.000000
-0.118481 0.085579 0.051804 1.000000
0.163629 0.098001 -0.019587 1.000000
0.457723 -0.081630 0.057519 2.000000
-0.184039 0.099668 0.007935 1.000000
-0.094220 0.093737 -0.034519 1.000000
0.002975 0.037511 -0.092423 1.000000
-0.381390 0.091862 0.039561 1.000000
-0.354495 0.043214 0.090275 1.000000
0.390911 0.081845 0.057545 1.000000
0.368725 0.099681 0.007795 1.000000
-0.168335 0.047691 0.087993 1.000000
0.062259 0.083953 0.054444 1.000000
-0.405558 -0.080226 0.059499 1.000000
-0.332663 -0.080073 0.059696 1.000000
-0.100525 -0.092075 0.038530 1.000000
-0.182414 0.053658 -0.084145 1.000000
-0.032265 0.077563 -0.062870 1.000000
-0.128530 0.047002 -0.087982 1.000000
-0.001526 0.005904 0.099888 1.000000
0.378434 -0.020720 -0.097464 1.000000
-0.382801 0.099469 -0.009675 1.000000
0.453481 -0.004967 0.099910 2.000000
0.350549 0.079230 0.061084 1.000000
-0.454882 -0.099245 0.009938 3.000000
-0.244892 -0.098535 0.015539 1.000000
0.451280 -0.018384 -0.097972 2.000000
-0.066497 0.055206 -0.083093 1.000000
0.133006 0.006625 -0.099488 1.000000
-0.431616 0.048846 -0.086992 3.000000
-0.183286 0.094232 -0.033143 1.000000
-0.291183 0.085563 -0.051468 1.000000
-0.402283 -0.097803 0.019792 1.000000
0.174113 0.048140 0.087764 1.000000
-0.442659 -0.097244 -0.021932 3.000000
0.033122 -0.027142 -0.095867 1.000000
-0.465916 0.020141 -0.097646 3.000000
-0.271692 -0.097460 0.021325 1.000000
-0.354594 0.026130 -0.096229 1.000000
0.402715 0.071666 -0.069463 1.000000
0.005205 -0.060557 0.079472 1.000000
0.265723 0.010950 0.099442 1.000000
0.225879 -0.005199 -0.099540 1.000000
0.346154 0.016894 -0.098245 1.000000
-0.221018 -0.012240 -0.098935 1.000000
-0.347991 0.056104 0.082845 1.000000
0.105370 -0.048833 0.087225 1.000000
0.073380 -0.035843 -0.092985 1.000000
-0.071440 0.092156 0.038881 1.000000
0.062918 0.021677 -0.097303 1.000000
-0.445857 0.098642 -0.015970 3.000000
0.145325 0.099724 0.007340 1.000000
0.244867 -0.013379 -0.098765 1.000000
0.013147 -0.077090 -0.063179 1.000000
0.394820 0.099199 -0.012455 1.000000
0.144700 0.098471 0.017414 1.000000
-0.076615 0.074377 0.066921 1.000000
-0.123235 -0.099729 0.001563 1.000000
0.063683 0.088414 -0.046441 1.000000
-0.462112 -0.061984 -0.078003 3.000000
0.199699 0.064604 -0.076064 1.000000
0.411345 0.031907 -0.094486 1.000000
-0.422893 -0.091730 0.039327 3.000000
0.441460 0.097998 0.019965 2.000000
0.294131 0.098324 -0.017979 1.000000
-0.346180 0.098303 0.018474 1.000000
0.015574 0.081267 0.058396 1.000000
-0.047787 0.050622 0.086305 1.000000
-0.021570 -0.001658 -0.099651 1.000000
0.218339 0.079430 -0.060463 1.000000
0.400158 0.016094 0.098735 1.000000
0.464373 0.065457 0.075675 2.000000
0.166364 -0.015709 -0.098396 1.000000
0.291815 0.095278 -0.030128 1.000000
0.101535 -0.096968 -0.023166 1.000000
0.248851 0.017928 0.098444 1.000000
0.084731 0.099852 -0.004692 1.000000
0.448063 0.037770 0.092674 2.000000
0.375397 0.089772 -0.043775 1.000000
-0.206482 0.047437 -0.087760 1.000000
-0.373790 -0.074392 -0.066277 1.000000
-0.439099 -0.099509 -0.006783 3.000000
-0.466449 0.068478 0.073012 3.000000
0.002640 -0.055023 0.083421 1.000000
-0.458949 0.073963 -0.067028 3.000000
0.041279 -0.075148 0.065782 1.000000
-0.023306 0.097976 0.020062 1.000000
0.280073 0.005473 -0.099539 1.000000
0.148754 -0.096012 -0.026801 1.000000
0.328174 -0.039151 -0.091613 1.000000
0.070823 0.094389 -0.032706 1.000000
-0.238121 -0.091806 0.039152 1.000000
0.004494 0.073509 -0.067543 1.000000
-0.183694 -0.050563 -0.085839 1.000000
0.260735 0.079235 0.061078 1.000000
-0.026032 -0.030899 -0.094765 1.000000
-0.015954 -0.071980 0.069279 1.000000
0.260813 -0.099241 -0.009623 1.000000
-0.269193 0.044562 0.089588 1.000000
0.424486 -0.014812 -0.098538 1.000000
0.143453 0.065261 -0.075486 1.000000
0.390289 0.086143 -0.050487 1.000000
-0.447296 -0.098806 0.013826 3.000000
0.404374 0.065373 -0.075387 1.000000
0.105232 0.099614 -0.008141 1.000000
0.390944 0.095165 0.030882 1.000000
-0.254494 -0.032443 -0.094209 1.000000
0.014381 0.042907 0.090431 1.000000
0.108068 0.089819 0.044046 1.000000
-0.080366 -0.078610 -0.061220 1.000000
-0.463693 0.056292 -0.082355 3.000000
0.427838 0.027683 0.096140 2.000000
0.376330 0.025574 -0.096390 1.000000
0.340789 0.091166 0.041169 1.000000
0.338904 0.074788 0.066455 1.000000
-0.173685 0.001654 -0.099659 1.000000
-0.032568 0.097419 -0.022189 1.000000
-0.437590 0.081827 -0.057209 3.000000
-0.457967 0.075351 0.065816 3.000000
-0.143039 -0.003901 0.099944 1.000000
-0.131556 -0.029075 0.095668 1.000000
0.104104 0.099926 0.002699 1.000000
-0.041419 -0.098181 0.017774 1.000000
-0.144941 -0.081884 -0.056782 1.000000
-0.420327 -0.085266 -0.051576 1.000000
0.140718 -0.091840 0.039073 1.000000
-0.009329 0.072396 0.069096 1.000000
-0.194134 0.089130 -0.045035 1.000000
-0.326504 0.090756 -0.041755 1.000000
0.021911 -0.001386 0.100023 1.000000
0.310828 0.038112 -0.092163 1.000000
0.289339 -0.018071 0.098385 1.000000
0.318861 0.082821 -0.055746 1.000000
-0.220352 -0.099151 -0.010578 1.000000
-0.413291 -0.061248 -0.078574 1.000000
0.152388 -0.052757 -0.084541 1.000000
0.377484 -0.059586 0.080225 1.000000
0.264507 -0.090399 0.042403 1.000000
-0.228364 -0.083467 -0.054452 1.000000
-0.410830 -0.044628 -0.089072 1.000000
0.300667 -0.055263 0.083258 1.000000
0.243961 -0.058496 -0.080699 1.000000
-0.142512 0.041710 -0.090606 1.000000
-0.039755 -0.098361 -0.016276 1.000000
0.411748 -0.099363 -0.008333 1.000000
-0.230372 0.072740 0.068752 1.000000
-0.245376 0.057020 0.082223 1.000000
-0.250440 -0.081338 -0.057585 1.000000
-0.395369 -0.072316 0.068943 1.000000
-0.330284 0.096231 -0.026850 1.000000
0.271373 0.088727 0.046188 1.000000
-0.441987 -0.098245 0.017369 3.000000
0.120515 0.003550 0.099962 1.000000
-0.348593 -0.092412 0.037752 1.000000
-0.180543 -0.060132 0.079801 1.000000
-0.422398 -0.068942 0.072317 1.000000
-0.208657 0.087863 0.047885 1.000000
-0.237799 0.075880 0.065216 1.000000
-0.193727 -0.069107 -0.071789 1.000000
0.015825 0.098379 0.017996 1.000000
0.321810 0.064958 -0.075752 1.000000
-0.299681 -0.076715 0.064004 1.000000
-0.106403 -0.097797 0.019818 1.000000
0.382024 0.071204 0.070288 1.000000
-0.293873 -0.033383 -0.093870 1.000000
0.175575 -0.037784 -0.092204 1.000000
0.101910 0.095065 0.031190 1.000000
0.273586 -0.069768 -0.071128 1.000000
-0.051551 0.099685 0.007751 1.000000
0.116466 -0.062846 0.077697 1.000000
0.274635 0.099731 -0.006904 1.000000
-0.273339 0.095551 -0.029190 1.000000
-0.415523 -0.097698 -0.019900 1.000000
0.324459 0.080343 0.059649 1.000000
-0.407274 0.097375 0.022752 1.000000
-0.354511 -0.029166 0.095642 1.000000
-0.306988 0.063517 0.077357 1.000000
-0.353066 -0.018054 0.098387 1.000000
0.265840 -0.050408 -0.085931 1.000000
-0.398657 0.078543 0.061969 1.000000
-0.432634 -0.032620 -0.094145 1.000000
-0.255675 -0.042222 0.090646 1.000000
-0.427693 0.065274 -0.075474 3.000000
-0.280604 0.043199 0.090282 1.000000
0.235650 -0.095387 -0.028953 1.000000
-0.464594 0.098170 0.019192 3.000000
0.440404 -0.031820 -0.094433 1.000000
0.042692 -0.062967 0.077603 1.000000
-0.202868 0.099277 -0.011714 1.000000
-0.306960 -0.013804 0.099060 1.000000
-0.330648 0.095009 0.031346 1.000000
-0.128167 0.016232 -0.098350 1.000000
-0.114289 -0.054388 -0.083490 1.000000
0.231183 -0.019611 -0.097712 1.000000
0.093102 -0.021486 0.097656 1.000000
0.455114 0.027893 -0.095716 2.000000
-0.180548 -0.076931 0.063747 1.000000
0.424791 0.049843 0.086766 2.000000
0.181609 -0.088589 -0.045638 1.000000
-0.399999 -0.023304 -0.096887 1.000000
0.441240 -0.037844 -0.092178 1.000000
0.264898 -0.087377 0.048370 1.000000
-0.070412 0.074176 0.067149 1.000000
0.173530 -0.026080 0.096538 1.000000
0.326023 -0.099760 -0.000202 1.000000
-0.041471 -0.097225 -0.022015 1.000000
0.045743 0.080065 -0.059645 1.000000
-0.410817 0.042556 0.090603 1.000000
0.145204 -0.027988 -0.095621 1.000000
0.353985 0.004323 0.099938 1.000000
0.405060 0.097069 0.024117 1.000000
-0.449838 -0.031297 0.094984 3.000000
0.005464 0.044239 -0.089389 1.000000
0.271766 0.045661 0.089028 1.000000
-0.221339 -0.099672 0.003347 1.000000
0.026375 0.098746 -0.015318 1.000000
-0.381036 -0.068341 -0.072555 1.000000
0.089316 -0.027763 0.096049 1.000000
0.464798 -0.078224 -0.061717 2.000000
-0.373280 -0.011534 -0.099002 1.000000
0.298722 0.030953 0.095190 1.000000
-0.197721 0.074508 -0.066410 1.000000
0.283122 0.032068 0.094791 1.000000
0.461181 0.058198 -0.081059 2.000000
-0.152302 -0.077616 0.062863 1.000000
0.177470 0.064892 -0.075811 1.000000
0.154952 -0.098994 -0.012235 1.000000
0.366069 0.032415 0.094666 1.000000
-0.053910 0.036848 -0.092707 1.000000
-0.235283 0.063499 -0.077008 1.000000
0.205277 0.087444 0.048650 1.000000
0.288370 0.076902 0.064057 1.000000
-0.430874 0.063633 0.077267 1.000000
-0.108217 0.097415 0.022573 1.000000
0.202302 -0.075374 0.065526 1.000000
-0.232811 -0.010750 -0.099076 1.000000
-0.466721 -0.089462 -0.043926 3.000000
-0.420804 0.004568 -0.099567 1.000000
-0.043146 -0.048623 0.087349 1.000000
0.398852 -0.099596 -0.005428 1.000000
0.173860 0.099165 0.013031 1.000000
-0.426686 -0.049717 -0.086339 1.000000
-0.435646 -0.012486 -0.098906 3.000000
0.113802 -0.099528 0.006949 1.000000
0.420768 0.098527 0.017064 1.000000
-0.022445 -0.065096 -0.075426 1.000000
-0.395332 0.065530 -0.075248 1.000000
-0.184934 0.099962 0.001561 1.000000
-0.375933 0.033354 -0.093965 1.000000
0.052089 -0.081381 0.057885 1.000000
-0.187895 -0.007635 -0.099370 1.000000
-0.356708 0.031610 -0.094593 1.000000
0.208194 -0.011602 0.099358 1.000000
-0.339889 -0.029290 0.095605 1.000000
-0.378216 0.056371 -0.082302 1.000000
0.201640 0.093393 0.035837 1.000000
-0.371002 0.099855 0.004968 1.000000
-0.371236 0.054586 0.083877 1.000000
-0.045533 0.095235 0.030640 1.000000
0.236711 -0.083783 0.054351 1.000000
-0.031142 0.094221 0.033535 1.000000
-0.322047 0.025153 -0.096512 1.000000
0.336788 -0.064411 0.076392 1.000000
-0.185696 0.098576 -0.016386 1.000000
0.429637 0.092717 0.037586 2.000000
-0.101142 0.074964 0.066255 1.000000
0.039343 0.004259 0.099940 1.000000
0.028085 0.078798 -0.061278 1.000000
-0.420025 -0.082463 0.056293 1.000000
-0.265234 -0.014801 -0.098540 1.000000
0.247737 -0.090756 0.041579 1.000000
0.451105 -0.083132 0.055308 2.000000
-0.074054 0.067910 0.073513 1.000000
0.331581 -0.059255 -0.080119 1.000000
-0.402855 0.098527 -0.016696 1.000000
-0.228809 0.093669 -0.034706 1.000000
-0.167023 -0.067060 0.074057 1.000000
0.238272 0.094102 -0.033504 1.000000
-0.312610 0.080771 0.059097 1.000000
-0.080697 -0.098050 0.018602 1.000000
0.145157 -0.016639 0.098611 1.000000
-0.341863 -0.079960 0.059842 1.000000
-0.376829 -0.053186 0.084650 1.000000
-0.218978 -0.091725 -0.038976 1.000000
-0.407817 0.000986 0.100043 1.000000
-0.065005 -0.021449 0.097664 1.000000
-0.277944 0.069922 -0.071208 1.000000
-0.214008 -0.026829 0.096321 1.000000
0.391746 -0.056091 -0.082333 1.000000
-0.341651 -0.062212 0.078188 1.000000
-0.210840 -0.087412 -0.047948 1.000000
-0.382263 0.099893 -0.003395 1.000000
-0.239469 -0.048395 -0.087121 1.000000
-0.284613 -0.064928 -0.075573 1.000000
0.182652 -0.098344 0.016742 1.000000
-0.050047 -0.095942 0.027404 1.000000
-0.227925 0.091300 -0.040496 1.000000
0.401547 0.096231 -0.026850 1.000000
0.465339 -0.010919 -0.047042 2.000000
0.465339 0.005807 -0.073280 2.000000
0.465339 -0.041416 0.066965 2.000000
0.465339 -0.060212 -0.027370 2.000000
0.465339 -0.044342 0.053716 2.000000
0.465339 -0.032042 0.087361 2.000000
0.465339 0.041857 -0.056512 2.000000
0.465339 0.092956 0.035791 2.000000
0.465339 0.031413 -0.064471 2.000000
0.465339 0.034675 -0.046224 2.000000
0.465339 -0.080421 0.003836 2.000000
0.465339 -0.072973 -0.056746 2.000000
0.465339 -0.057227 -0.068453 2.000000
0.465339 0.025813 0.075903 2.000000
0.465339 -0.006689 -0.063948 2.000000
0.465339 -0.012515 0.015748 2.000000
0.465339 0.091024 0.037500 2.000000
0.465339 0.004242 0.035330 2.000000
0.465339 -0.024613 0.067112 2.000000
0.465339 -0.061230 0.075528 2.000000
0.465339 0.035365 -0.086147 2.000000
0.465339 -0.044801 0.059920 2.000000
0.465339 -0.022116 -0.067939 2.000000
0.465339 0.045169 -0.056601 2.000000
0.465339 0.066705 0.039557 2.000000
0.465339 -0.023355 -0.041544 2.000000
0.465339 0.029526 0.052947 2.000000
0.465339 -0.002987 -0.093768 2.000000
0.465339 -0.074690 0.044523 2.000000
0.465339 -0.032614 -0.077027 2.000000
0.465339 -0.070643 0.061996 2.000000
0.465339 0.006463 0.098151 2.000000
0.465339 0.027107 0.036830 2.000000
0.465339 -0.004950 0.087335 2.000000
0.465339 -0.063601 -0.027712 2.000000
0.465339 -0.042741 -0.074399 2.000000
0.465339 -0.075682 -0.052323 2.000000
0.465339 -0.013097 0.025896 2.000000
0.465339 0.049147 0.055074 2.000000
0.465339 -0.020232 0.001942 2.000000
0.465339 0.069106 -0.051030 2.000000
0.465339 0.057803 -0.037323 2.000000
0.465339 0.010551 -0.064447 2.000000
0.465339 -0.027967 0.073995 2.000000
0.465339 0.028517 0.002949 2.000000
0.465339 -0.014158 -0.076280 2.000000
0.465339 -0.058631 0.003716 2.000000
0.465339 -0.022826 -0.014641 2.000000
0.465339 0.005181 0.032219 2.000000
0.465339 0.024385 -0.032838 2.000000
0.465339 -0.053531 -0.063917 2.000000
0.465339 -0.039550 0.082747 2.000000
0.465339 -0.055126 0.046723 2.000000
0.465339 0.015126 -0.057445 2.000000
0.465339 0.020406 -0.044373 2.000000
0.465339 -0.088541 0.037845 2.000000
0.465339 -0.030481 -0.038550 2.000000
0.465339 -0.030540 -0.010866 2.000000
0.465339 0.024833 -0.018964 2.000000
0.465339 0.081273 -0.045017 2.000000
0.465339 0.085694 0.014043 2.000000
0.465339 0.067216 -0.020703 2.000000
0.465339 0.072538 0.036381 2.000000
0.465339 0.070103 0.051284 2.000000
0.465339 0.045649 -0.086589 2.000000
0.465339 0.073153 0.065782 2.000000
0.465339 -0.036167 0.084888 2.000000
0.465339 0.030118 0.054986 2.000000
0.465339 -0.069170 0.010155 2.000000
0.465339 0.067604 0.011067 2.000000
0.465339 0.007954 0.090453 2.000000
0.465339 -0.015445 -0.083743 2.000000
0.465339 -0.040677 -0.084866 2.000000
0.465339 0.059386 -0.003359 2.000000
0.465339 -0.014672 0.061620 2.000000
0.465339 -0.086565 -0.038948 2.000000
0.465339 0.018250 -0.046486 2.000000
0.465339 0.086767 0.049783 2.000000
0.465339 -0.084172 0.027807 2.000000
0.465339 0.094692 -0.001092 2.000000
0.465339 0.076035 -0.027512 2.000000
0.465339 -0.034462 -0.018112 2.000000
0.465339 0.053959 -0.083757 2.000000
0.465339 0.001479 -0.085967 2.000000
0.465339 0.066737 0.042726 2.000000
0.465339 -0.058131 0.038699 2.000000
0.465339 -0.071608 -0.026169 2.000000
0.465339 0.073694 -0.066277 2.000000
0.465339 0.075544 0.062174 2.000000
0.465339 0.078634 -0.002196 2.000000
0.465339 -0.021848 -0.004070 2.000000
0.465339 -0.024644 -0.027191 2.000000
0.465339 -0.055399 0.048907 2.000000
0.465339 -0.037803 -0.074489 2.000000
0.465339 -0.056262 -0.067367 2.000000
0.465339 -0.080317 0.018307 2.000000
0.465339 -0.091225 -0.034604 2.000000
0.465339 0.086125 0.010433 2.000000
0.465339 -0.010487 -0.004976 2.000000
0.465339 0.091415 0.034852 2.000000
0.465339 -0.007624 -0.007600 2.000000
0.465339 0.091108 -0.022335 2.000000
0.465339 0.076744 0.049031 2.000000
0.465339 -0.054637 0.020459 2.000000
0.465339 0.073562 0.064184 2.000000
0.465339 0.045736 0.064385 2.000000
0.465339 0.002934 -0.058455 2.000000
0.465339 -0.012269 0.030802 2.000000
0.465339 -0.022243 -0.081780 2.000000
0.465339 0.079521 0.031268 2.000000
0.465339 0.046335 -0.053727 2.000000
0.465339 -0.055153 0.068262 2.000000
0.465339 -0.036289 -0.057390 2.000000
0.465339 0.007884 -0.026569 2.000000
0.465339 -0.023078 -0.057967 2.000000
0.465339 0.011424 0.035918 2.000000
0.465339 -0.046986 -0.086747 2.000000
0.465339 0.093770 0.033951 2.000000
0.465339 0.069450 0.003910 2.000000
0.465339 -0.080796 0.042373 2.000000
0.465339 0.030838 0.012472 2.000000
0.465339 0.019958 -0.090394 2.000000
0.465339 -0.045542 -0.046595 2.000000
0.465339 0.010645 0.040615 2.000000
0.465339 0.057082 0.075255 2.000000
0.465339 0.053379 0.071113 2.000000
0.465339 0.082832 -0.035554 2.000000
0.465339 -0.034121 0.046435 2.000000
0.465339 -0.032640 -0.041028 2.000000
0.465339 0.026200 -0.046878 2.000000
0.465339 -0.022505 0.072745 2.000000
0.465339 0.004436 0.047713 2.000000
0.465339 0.003664 0.032774 2.000000
0.465339 -0.032120 -0.059082 2.000000
0.465339 -0.006926 -0.059245 2.000000
0.465339 -0.076259 0.001832 2.000000
0.465339 0.049481 0.071131 2.000000
0.465339 0.008091 -0.076465 2.000000
0.465339 -0.035593 -0.064542 2.000000
0.465339 -0.022118 -0.038096 2.000000
0.465339 0.035951 0.021522 2.000000
0.465339 0.070771 -0.070208 2.000000
0.465339 0.029764 -0.017825 2.000000
0.465339 -0.041570 -0.016538 2.000000
0.465339 -0.068583 0.035585 2.000000
0.465339 -0.069991 0.006118 2.000000
0.465339 0.060636 0.079075 2.000000
0.465339 0.002644 0.074257 2.000000
0.465339 0.049172 -0.072052 2.000000
0.465339 0.034921 -0.023343 2.000000
0.465339 -0.057712 -0.027511 2.000000
0.465339 -0.095139 0.016937 2.000000
0.465339 -0.091335 0.037717 2.000000
0.465339 -0.004564 -0.081504 2.000000
0.465339 -0.024811 0.055480 2.000000
0.465339 -0.009254 0.029954 2.000000
0.465339 -0.009006 0.070281 2.000000
0.465339 0.019162 -0.018693 2.000000
0.465339 -0.042319 -0.063478 2.000000
0.465339 0.070321 0.060678 2.000000
0.465339 -0.029867 0.006612 2.000000
0.465339 -0.029371 -0.006908 2.000000
0.465339 0.000216 0.036492 2.000000
0.465339 -0.017712 -0.069380 2.000000
0.465339 -0.027657 -0.058149 2.000000
0.465339 -0.091101 0.023677 2.000000
0.465339 0.078935 -0.013213 2.000000
0.465339 -0.001276 -0.065927 2.000000
0.465339 -0.046237 0.033882 2.000000
0.465339 0.058385 0.028634 2.000000
0.465339 -0.036598 0.070836 2.000000
0.465339 0.081437 -0.046425 2.000000
0.465339 -0.034800 0.083318 2.000000
0.465339 0.008762 0.018005 2.000000
0.465339 0.010195 -0.017707 2.000000
0.465339 0.058000 -0.034561 2.000000
0.465339 -0.027262 -0.087054 2.000000
0.465339 0.023599 -0.091513 2.000000
0.465339 0.018954 0.042570 2.000000
0.465339 0.014676 -0.030784 2.000000
0.465339 -0.007929 0.077070 2.000000
0.465339 0.038245 -0.078117 2.000000
0.465339 -0.015340 0.093915 2.000000
0.465339 0.043395 0.016325 2.000000
0.465339 -0.056421 0.027703 2.000000
0.465339 0.041852 0.036665 2.000000
0.465339 0.063563 0.037685 2.000000
0.465339 0.034937 0.024170 2.000000
0.465339 0.020578 0.011966 2.000000
0.465339 -0.058667 0.033141 2.000000
0.465339 0.026361 0.030573 2.000000
0.465339 0.017383 -0.000167 2.000000
0.465339 -0.085233 0.023378 2.000000
0.465339 0.024924 0.069682 2.000000
0.465339 0.090959 0.025933 2.000000
0.465339 -0.066179 0.021676 2.000000
0.465339 -0.082187 0.010216 2.000000
0.465339 -0.051696 0.034621 2.000000
0.465339 0.075194 0.031275 2.000000
0.465339 0.094126 -0.021668 2.000000
0.465339 0.054471 -0.061939 2.000000
0.465339 0.086790 -0.046373 2.000000
0.465339 -0.053412 0.008273 2.000000
0.465339 0.068113 0.049705 2.000000
0.465339 0.067120 -0.062696 2.000000
0.465339 -0.097188 -0.013690 2.000000
0.465339 -0.055468 -0.000405 2.000000
0.465339 -0.073147 -0.067159 2.000000
0.465339 -0.025889 -0.049110 2.000000
0.465339 0.072217 0.015269 2.000000
0.465339 -0.065511 -0.052311 2.000000
0.465339 -0.048027 0.039009 2.000000
0.465339 0.048761 -0.005200 2.000000
0.465339 -0.026451 0.002220 2.000000
0.465339 -0.039077 -0.009513 2.000000
0.465339 -0.036919 0.076942 2.000000
0.465339 -0.045190 -0.030177 2.000000
0.465339 -0.091800 0.026304 2.000000
0.465339 0.051645 -0.048957 2.000000
0.465339 0.079389 -0.019879 2.000000
0.465339 0.066566 0.025276 2.000000
0.465339 0.059324 -0.001437 2.000000
0.465339 0.002026 0.090129 2.000000
0.465339 0.033992 -0.042405 2.000000
0.465339 0.011325 0.011497 2.000000
0.465339 0.043791 0.083668 2.000000
0.465339 0.056070 0.024125 2.000000
0.465339 -0.033179 -0.021356 2.000000
0.465339 0.057476 -0.023034 2.000000
0.465339 0.072539 0.008029 2.000000
0.465339 -0.015239 0.073872 2.000000
0.465339 0.015724 0.086098 2.000000
0.465339 0.005526 0.096711 2.000000
0.465339 0.066211 0.001563 2.000000
0.465339 -0.062593 -0.007320 2.000000
0.465339 -0.006788 0.023608 2.000000
0.465339 -0.020126 0.089005 2.000000
0.465339 0.011918 0.043761 2.000000
0.465339 -0.020733 0.000580 2.000000
0.465339 -0.034214 0.016311 2.000000
0.465339 -0.043665 -0.018551 2.000000
0.465339 -0.061173 0.047981 2.000000
0.465339 -0.044102 0.029326 2.000000
0.465339 -0.014975 0.048231 2.000000
0.465339 0.061514 -0.014346 2.000000
0.465339 -0.037616 -0.080194 2.000000
0.465339 0.072501 -0.008354 2.000000
0.465339 0.080065 0.017153 2.000000
0.465339 -0.044514 0.027272 2.000000
0.465339 0.075934 -0.008059 2.000000
0.465339 0.068475 0.070196 2.000000
0.465339 -0.001484 0.071413 2.000000
0.465339 -0.001783 0.099294 2.000000
0.465339 -0.014662 0.080955 2.000000
0.465339 0.074611 -0.008998 2.000000
0.465339 0.091888 -0.028427 2.000000
0.465339 0.058809 0.038369 2.000000
0.465339 -0.003304 -0.088397 2.000000
0.465339 0.011987 0.071451 2.000000
0.465339 -0.064936 0.052155 2.000000
0.465339 0.062618 -0.037436 2.000000
0.465339 -0.051028 0.022428 2.000000
0.465339 0.026811 0.082922 2.000000
0.465339 0.047308 0.052424 2.000000
0.465339 0.017784 0.010280 2.000000
0.465339 -0.038822 0.073453 2.000000
0.465339 -0.050473 -0.006642 2.000000
0.465339 0.004236 -0.081644 2.000000
0.465339 0.065108 0.069046 2.000000
0.465339 0.083437 -0.008584 2.000000
0.465339 -0.081278 -0.005301 2.000000
0.465339 0.024753 -0.079513 2.000000
0.465339 -0.090960 0.035629 2.000000
0.465339 0.020999 0.077095 2.000000
0.465339 -0.090422 0.008401 2.000000
0.465339 0.006713 0.014945 2.000000
0.465339 -0.071579 -0.049429 2.000000
0.465339 -0.028375 0.042090 2.000000
0.465339 0.009771 0.082537 2.000000
0.465339 -0.052540 0.022747 2.000000
0.465339 0.013793 -0.040997 2.000000
0.465339 -0.052171 0.006999 2.000000
0.465339 0.006850 -0.043985 2.000000
0.465339 0.003835 -0.023651 2.000000
0.465339 0.024061 0.093652 2.000000
0.465339 -0.088125 -0.031682 2.000000
0.465339 -0.017315 -0.092334 2.000000
0.465339 -0.006130 -0.062390 2.000000
0.465339 0.046994 0.060641 2.000000
0.465339 -0.011036 0.065949 2.000000
0.465339 -0.024354 0.034343 2.000000
0.465339 0.074849 0.028077 2.000000
0.465339 -0.016484 -0.005533 2.000000
0.465339 0.038136 -0.069482 2.000000
0.465339 0.035237 0.056969 2.000000
0.465339 -0.030769 -0.093468 2.000000
0.465339 0.099331 -0.007093 2.000000
0.465339 0.060888 0.051263 2.000000
0.465339 0.077004 -0.044760 2.000000
0.465339 0.000848 -0.035517 2.000000
0.465339 -0.037676 0.029248 2.000000
0.465339 -0.037068 -0.058837 2.000000
0.465339 0.013945 -0.016061 2.000000
0.465339 -0.014725 -0.088074 2.000000
0.465339 0.068250 -0.035273 2.000000
0.465339 -0.011505 0.074473 2.000000
0.465339 -0.052212 0.048325 2.000000
0.465339 0.049329 0.023191 2.000000
0.465339 -0.060334 0.046803 2.000000
0.465339 -0.026243 0.026066 2.000000
0.465339 0.058976 0.010028 2.000000
0.465339 0.013327 0.024369 2.000000
0.465339 0.025323 0.034805 2.000000
0.465339 0.097591 -0.015474 2.000000
0.465339 -0.009785 0.023792 2.000000
0.465339 0.038248 -0.034793 2.000000
0.465339 0.074916 0.009764 2.000000
0.465339 0.055759 0.014556 2.000000
0.465339 -0.081765 0.043597 2.000000
0.465339 0.025808 -0.056107 2.000000
0.465339 0.019203 -0.076838 2.000000
0.465339 -0.038332 0.018468 2.000000
0.465339 0.039605 0.082835 2.000000
0.465339 0.014213 0.080224 2.000000
0.465339 0.031488 -0.049178 2.000000
0.465339 0.005614 0.030049 2.000000
0.465339 -0.013444 -0.006968 2.000000
0.465339 -0.038104 0.058748 2.000000
0.465339 0.053948 -0.019459 2.000000
0.465339 -0.016971 0.002651 2.000000
0.465339 -0.050365 0.046127 2.000000
0.465339 0.004304 0.010532 2.000000
0.465339 0.075566 0.011762 2.000000
0.465339 -0.095863 -0.001449 2.000000
0.465339 0.030848 0.025737 2.000000
0.465339 0.007632 -0.029649 2.000000
0.465339 0.033290 -0.068191 2.000000
0.465339 -0.064226 0.062478 2.000000
0.465339 0.000179 0.009513 2.000000
0.465339 -0.074401 0.003081 2.000000
0.465339 0.049060 -0.058571 2.000000
0.465339 -0.014287 0.012232 2.000000
0.465339 0.082024 0.024510 2.000000
0.465339 0.062087 -0.075784 2.000000
0.465339 0.050102 0.007887 2.000000
0.465339 -0.054782 0.037411 2.000000
0.465339 0.027189 0.091958 2.000000
0.465339 -0.071449 -0.056709 2.000000
0.465339 -0.077519 -0.021297 2.000000
0.465339 0.039398 -0.028688 2.000000
0.465339 -0.029268 -0.049949 2.000000
0.465339 0.042555 -0.025872 2.000000
0.465339 -0.041505 -0.052149 2.000000
0.465339 0.034312 0.072241 2.000000
0.465339 0.080810 -0.009068 2.000000
0.465339 -0.047040 -0.000083 2.000000
0.465339 0.090443 -0.007281 2.000000
0.465339 0.050786 0.006512 2.000000
0.465339 0.043478 0.007440 2.000000
0.465339 -0.026932 -0.081461 2.000000
0.465339 -0.041738 -0.078080 2.000000
0.465339 -0.007375 0.059133 2.000000
0.465339 -0.031527 0.076656 2.000000
0.465339 -0.077344 -0.062193 2.000000
0.465339 -0.046553 -0.017875 2.000000
0.465339 0.028384 0.058874 2.000000
0.465339 -0.003896 -0.086714 2.000000
0.465339 0.070961 0.010750 2.000000
0.465339 0.078015 -0.005558 2.000000
0.465339 -0.054637 -0.041072 2.000000
0.465339 0.072864 -0.011551 2.000000
0.465339 0.083200 -0.019745 2.000000
0.465339 -0.021569 -0.029161 2.000000
0.465339 -0.049307 0.014902 2.000000
0.465339 -0.056558 0.080996 2.000000
0.465339 0.099246 -0.010637 2.000000
0.465339 -0.074784 -0.060088 2.000000
0.465339 0.077121 -0.057260 2.000000
0.465339 -0.029424 -0.018086 2.000000
0.465339 0.075719 0.017095 2.000000
0.465339 -0.042143 0.071063 2.000000
0.465339 -0.019524 0.080637 2.000000
0.465339 0.043459 0.036050 2.000000
0.465339 0.036277 0.047739 2.000000
0.465339 0.029041 0.011629 2.000000
0.465339 0.005503 0.008389 2.000000
0.465339 -0.071065 -0.028076 2.000000
0.465339 0.028360 -0.051877 2.000000
0.465339 0.006859 -0.049932 2.000000
0.465339 0.023302 0.096129 2.000000
0.465339 0.010114 0.045847 2.000000
0.465339 -0.068567 0.001791 2.000000
0.465339 0.013691 -0.073389 2.000000
0.465339 0.078416 0.008403 2.000000
0.465339 -0.069142 -0.038098 2.000000
0.465339 0.034820 0.075320 2.000000
0.465339 -0.064124 0.058093 2.000000
0.465339 -0.001424 -0.047084 2.000000
0.465339 -0.013632 0.076745 2.000000
0.465339 -0.024080 -0.079247 2.000000
0.465339 -0.057421 -0.072919 2.000000
0.465339 -0.009354 -0.006359 2.000000
0.465339 0.002262 -0.053066 2.000000
0.465339 0.022115 0.021710 2.000000
0.465339 0.047396 0.040402 2.000000
0.465339 -0.078670 -0.000843 2.000000
0.465339 -0.010785 -0.017844 2.000000
0.465339 -0.077538 0.054404 2.000000
0.465339 0.013423 0.001129 2.000000
0.465339 -0.068289 -0.049894 2.000000
0.465339 -0.029625 0.073154 2.000000
0.465339 -0.053967 0.000940 2.000000
0.465339 0.016971 -0.010670 2.000000
0.465339 -0.054142 -0.018744 2.000000
0.465339 0.063100 -0.014376 2.000000
0.465339 0.021740 0.032858 2.000000
0.465339 0.011238 -0.008756 2.000000
0.465339 0.086810 -0.041190 2.000000
0.465339 -0.087364 0.024621 2.000000
0.465339 0.024929 0.029386 2.000000
0.465339 0.030020 0.034110 2.000000
0.465339 0.067306 0.007507 2.000000
0.465339 0.015614 -0.056045 2.000000
0.465339 -0.083367 0.000588 2.000000
0.465339 0.038182 0.044877 2.000000
0.465339 -0.034280 0.012147 2.000000
0.465339 -0.058530 0.045352 2.000000
0.465339 0.036404 -0.022449 2.000000
0.465339 -0.032674 0.073506 2.000000
0.465339 -0.034315 0.040987 2.000000
0.465339 -0.039671 0.090657 2.000000
0.465339 -0.048367 0.048589 2.000000
0.465339 0.000037 -0.008494 2.000000
0.465339 0.047896 0.035481 2.000000
0.465339 -0.094586 -0.024725 2.000000
0.465339 -0.049077 0.084027 2.000000
0.465339 0.011946 -0.020730 2.000000
0.465339 -0.046801 0.043359 2.000000
0.465339 -0.054223 0.047953 2.000000
0.465339 -0.070543 0.013709 2.000000
0.465339 -0.002481 0.069640 2.000000
0.465339 -0.028193 0.012630 2.000000
0.465339 -0.065384 -0.036057 2.000000
0.465339 0.013255 0.047539 2.000000
0.465339 -0.010751 0.095968 2.000000
0.465339 0.062043 0.006428 2.000000
0.465339 -0.077092 -0.018102 2.000000
0.465339 0.078727 0.046525 2.000000
0.465339 0.038125 0.007684 2.000000
0.465339 -0.015652 0.066182 2.000000
0.465339 -0.013974 0.045802 2.000000
0.465339 -0.013034 0.018073 2.000000
0.465339 0.027747 -0.043094 2.000000
0.465339 0.044383 0.040943 2.000000
0.465339 -0.059602 0.039700 2.000000
0.465339 0.019706 0.093073 2.000000
0.465339 -0.086554 -0.032306 2.000000
0.465339 -0.089093 -0.014445 2.000000
0.465339 0.045442 -0.062000 2.000000
0.465339 0.022369 0.094580 2.000000
0.465339 0.044688 0.031368 2.000000
0.465339 0.026161 -0.095877 2.000000
0.465339 0.003505 0.036686 2.000000
0.465339 0.016444 -0.046655 2.000000
0.465339 -0.034489 -0.066493 2.000000
0.465339 0.048795 -0.015295 2.000000
0.465339 -0.059558 -0.051171 2.000000
0.465339 -0.000357 0.019990 2.000000
0.465339 -0.054349 -0.053710 2.000000
0.465339 -0.093950 -0.032410 2.000000
0.465339 0.043308 -0.060119 2.000000
0.465339 -0.020012 -0.041301 2.000000
0.465339 -0.014526 -0.042792 2.000000
0.465339 -0.017295 0.093851 2.000000
0.465339 0.012419 -0.028617 2.000000
0.465339 -0.002581 -0.092309 2.000000
0.465339 0.087556 0.048374 2.000000
0.465339 -0.010250 0.028603 2.000000
0.465339 -0.060460 -0.017427 2.000000
0.465339 0.067013 0.012833 2.000000
0.465339 0.029334 -0.067690 2.000000
0.465339 -0.069784 -0.019150 2.000000
0.465339 -0.000977 0.057773 2.000000
0.465339 -0.088758 0.014328 2.000000
0.465339 0.018986 -0.023151 2.000000
0.465339 -0.020321 -0.068653 2.000000
0.465339 0.055926 0.031722 2.000000
0.465339 0.074726 -0.035107 2.000000
0.465339 0.073227 -0.040691 2.000000
0.465339 0.012093 0.007747 2.000000
0.465339 -0.079581 -0.034468 2.000000
0.465339 0.076508 -0.023887 2.000000
0.465339 0.043126 -0.061799 2.000000
0.465339 0.059794 0.070592 2.000000
0.465339 -0.064770 -0.032724 2.000000
0.465339 0.048474 0.074699 2.000000
0.465339 -0.022883 -0.065908 2.000000
0.465339 0.016430 0.001404 2.000000
0.465339 -0.076862 0.012993 2.000000
0.465339 -0.074712 -0.061793 2.000000
0.465339 -0.009573 -0.051838 2.000000
0.465339 -0.050258 0.020959 2.000000
0.465339 0.076234 -0.053136 2.000000
0.465339 -0.064091 0.035372 2.000000
0.465339 -0.051634 0.049804 2.000000
0.465339 -0.095400 0.004513 2.000000
0.465339 0.004580 0.043792 2.000000
0.465339 0.001031 -0.041966 2.000000
0.465339 0.025480 -0.041409 2.000000
0.465339 -0.037658 -0.056551 2.000000
0.465339 -0.073533 0.037446 2.000000
0.465339 -0.042892 -0.081640 2.000000
0.465339 0.055854 -0.045517 2.000000
0.465339 0.055551 -0.014081 2.000000
0.465339 -0.091057 -0.009056 2.000000
0.465339 0.052945 0.017531 2.000000
0.465339 0.009568 -0.058648 2.000000
0.465339 0.021922 -0.002565 2.000000
0.465339 0.024346 -0.093658 2.000000
0.465339 0.022761 -0.039015 2.000000
0.465339 -0.026028 -0.065706 2.000000
0.465339 0.054875 -0.040540 2.000000
0.465339 0.022230 -0.033803 2.000000
0.465339 0.005530 0.093309 2.000000
0.465339 -0.048145 0.054749 2.000000
0.465339 -0.041645 0.033596 2.000000
0.465339 -0.089836 -0.027844 2.000000
0.465339 0.066694 0.017136 2.000000
0.465339 -0.064364 0.017524 2.000000
0.465339 -0.017077 -0.068060 2.000000
0.465339 0.057843 -0.078167 2.000000
0.465339 0.075244 0.049678 2.000000
0.465339 -0.005926 -0.007684 2.000000
0.465339 -0.074216 -0.016365 2.000000
0.465339 0.039000 0.051290 2.000000
0.465339 0.057612 -0.071530 2.000000
0.465339 -0.033982 -0.044588 2.000000
0.465339 0.072779 -0.065014 2.000000
0.465339 0.013127 0.050587 2.000000
0.465339 -0.038284 -0.024843 2.000000
0.465339 0.084856 0.009400 2.000000
0.465339 -0.071001 0.020916 2.000000
0.465339 0.048778 0.027396 2.000000
0.465339 -0.036248 -0.070451 2.000000
0.465339 -0.038450 -0.016512 2.000000
0.465339 -0.080574 -0.033205 2.000000
0.465339 0.051857 0.076682 2.000000
0.465339 -0.035573 -0.029860 2.000000
0.465339 0.073465 -0.061338 2.000000
0.465339 0.002715 -0.001800 2.000000
0.465339 -0.095653 0.009166 2.000000
0.465339 -0.006741 0.096383 2.000000
0.465339 0.030821 -0.028488 2.000000
0.465339 -0.031311 0.050270 2.000000
0.465339 -0.064835 -0.039206 2.000000
0.465339 0.072327 0.061051 2.000000
0.465339 0.032932 0.076525 2.000000
0.465339 0.047255 -0.006734 2.000000
0.465339 0.061156 0.021926 2.000000
0.465339 0.091144 -0.017565 2.000000
0.465339 -0.050871 0.030631 2.000000
0.465339 -0.087112 0.020766 2.000000
0.465339 -0.060148 -0.033409 2.000000
0.465339 0.048030 0.006159 2.000000
0.465339 -0.005179 0.097990 2.000000
0.465339 0.085554 0.025618 2.000000
0.465339 0.007088 0.069801 2.000000
0.465339 0.056342 0.056970 2.000000
0.465339 0.014200 0.076166 2.000000
0.465339 -0.045586 -0.037771 2.000000
0.465339 0.041622 -0.015584 2.000000
0.465339 -0.025007 -0.041775 2.000000
0.465339 0.022355 -0.006506 2.000000
0.465339 0.016824 0.081224 2.000000
0.465339 -0.023976 -0.064632 2.000000
0.465339 0.027311 0.086343 2.000000
0.465339 -0.016806 0.067232 2.000000
0.465339 0.022104 -0.061122 2.000000
0.465339 -0.063468 0.066413 2.000000
0.465339 0.027280 0.044402 2.000000
0.465339 0.020147 -0.002225 2.000000
0.465339 -0.020728 -0.035415 2.000000
0.465339 -0.047985 -0.047864 2.000000
0.465339 -0.035343 0.070172 2.000000
0.465339 0.018850 -0.011751 2.000000
0.465339 0.029500 -0.088970 2.000000
0.465339 -0.032687 0.051417 2.000000
0.465339 0.068397 -0.053624 2.000000
0.465339 0.064896 -0.064912 2.000000
0.465339 0.065345 -0.002629 2.000000
0.465339 -0.028218 0.065651 2.000000
0.465339 -0.060764 -0.045267 2.000000
0.465339 -0.006407 0.035718 2.000000
0.465339 -0.073893 0.055311 2.000000
0.465339 -0.038889 0.078315 2.000000
0.465339 0.026526 -0.008094 2.000000
0.465339 0.038573 -0.031731 2.000000
0.465339 -0.008820 0.056496 2.000000
0.465339 -0.078723 -0.015088 2.000000
0.465339 0.049909 0.061499 2.000000
0.465339 0.055567 -0.063000 2.000000
0.465339 -0.033746 0.055336 2.000000
0.465339 -0.038949 -0.036018 2.000000
0.465339 -0.034276 0.047928 2.000000
0.465339 0.010613 -0.094375 2.000000
0.465339 0.016604 0.063530 2.000000
0.465339 -0.002998 0.019130 2.000000
0.465339 0.002611 0.047310 2.000000
0.465339 0.003805 -0.091184 2.000000
0.465339 -0.010443 0.053260 2.000000
0.465339 0.059552 0.058875 2.000000
0.465339 -0.052432 -0.012372 2.000000
0.465339 -0.059132 0.074666 2.000000
0.465339 0.099651 0.007584 2.000000
0.465339 0.026883 -0.041885 2.000000
0.465339 -0.065726 -0.042389 2.000000
0.465339 -0.092113 0.020609 2.000000
0.465339 0.019970 0.030273 2.000000
0.465339 0.083540 0.013771 2.000000
0.465339 0.055819 -0.069258 2.000000
0.465339 0.006853 -0.059423 2.000000
0.465339 0.070353 -0.002951 2.000000
0.465339 0.057348 0.026215 2.000000
0.465339 -0.025008 -0.038917 2.000000
0.465339 -0.059254 0.026142 2.000000
0.465339 -0.014710 0.075529 2.000000
0.465339 0.027889 -0.061700 2.000000
0.465339 -0.090422 -0.015516 2.000000
0.465339 0.061809 -0.039984 2.000000
0.465339 -0.063081 -0.069795 2.000000
0.465339 -0.007552 -0.023201 2.000000
0.465339 0.026603 0.015220 2.000000
0.465339 -0.044926 -0.017183 2.000000
0.465339 0.060628 0.012558 2.000000
0.465339 0.003665 -0.008878 2.000000
0.465339 -0.075009 -0.026948 2.000000
0.465339 0.062542 0.028100 2.000000
0.465339 -0.030944 -0.013534 2.000000
0.465339 -0.045474 0.023540 2.000000
0.465339 0.056587 -0.035770 2.000000
0.465339 -0.076048 0.003998 2.000000
0.465339 0.018043 0.029201 2.000000
0.465339 -0.023013 -0.069471 2.000000
0.465339 0.039131 0.039990 2.000000
0.465339 -0.041824 0.009007 2.000000
0.465339 -0.018097 0.086253 2.000000
0.465339 -0.091021 0.033825 2.000000
0.465339 -0.037490 0.010836 2.000000
0.465339 0.009820 0.029808 2.000000
0.465339 0.028367 0.045534 2.000000
0.465339 0.072534 0.057306 2.000000
0.465339 -0.009162 0.010357 2.000000
0.465339 -0.043920 -0.047887 2.000000
0.465339 0.040987 0.027812 2.000000
0.465339 0.059067 0.019978 2.000000
0.465339 0.047467 -0.071601 2.000000
0.465339 0.070510 -0.042099 2.000000
0.465339 0.080828 0.046295 2.000000
0.465339 0.019071 -0.045298 2.000000
0.465339 -0.035452 -0.082363 2.000000
0.465339 0.024759 0.095623 2.000000
0.465339 -0.084011 -0.040446 2.000000
0.465339 0.040937 0.023063 2.000000
0.465339 -0.031397 0.026639 2.000000
0.465339 0.010212 -0.041858 2.000000
0.465339 0.072559 -0.030534 2.000000
0.465339 -0.059542 -0.014049 2.000000
0.465339 -0.000693 0.056110 2.000000
0.465339 0.087611 -0.000723 2.000000
0.465339 -0.061959 0.067306 2.000000
0.465339 -0.052869 -0.034718 2.000000
0.465339 -0.058272 -0.052515 2.000000
0.465339 0.067644 -0.051344 2.000000
0.465339 -0.027382 0.087524 2.000000
0.465339 -0.019229 -0.036651 2.000000
0.465339 -0.008244 0.016160 2.000000
0.465339 0.031675 0.019410 2.000000
0.465339 -0.047326 0.001955 2.000000
0.465339 0.018903 0.081221 2.000000
0.465339 0.014615 0.013707 2.000000
0.465339 0.090453 -0.041350 2.000000
0.465339 0.030089 -0.090563 2.000000
0.465339 -0.053595 0.021578 2.000000
0.465339 -0.083744 0.005854 2.000000
0.465339 -0.019284 -0.087109 2.000000
0.465339 -0.023924 0.042552 2.000000
0.465339 0.056710 0.005704 2.000000
0.465339 -0.026346 -0.070775 2.000000
0.465339 -0.029675 0.041463 2.000000
0.465339 -0.055035 0.011862 2.000000
0.465339 0.093168 -0.002547 2.000000
0.465339 0.012218 -0.022512 2.000000
0.465339 0.062564 0.047752 2.000000
0.465339 -0.076310 -0.024184 2.000000
0.465339 0.020841 0.084940 2.000000
0.465339 -0.027354 -0.084635 2.000000
0.465339 -0.053035 -0.061153 2.000000
0.465339 0.014764 -0.059546 2.000000
0.465339 0.078153 0.022798 2.000000
0.465339 -0.013416 -0.050816 2.000000
0.465339 -0.084032 -0.002000 2.000000
0.465339 -0.002709 0.036351 2.000000
0.465339 0.050130 -0.079503 2.000000
0.465339 -0.068467 0.008275 2.000000
0.465339 -0.020585 0.041606 2.000000
0.465339 0.059955 0.005878 2.000000
0.465339 -0.018005 -0.084140 2.000000
0.465339 0.036991 -0.060510 2.000000
0.465339 -0.031260 0.062410 2.000000
0.465339 -0.051117 -0.014440 2.000000
0.465339 0.062799 -0.077269 2.000000
0.465339 -0.063674 -0.044094 2.000000
0.465339 0.042631 -0.064671 2.000000
0.465339 -0.071137 0.053155 2.000000
0.465339 -0.057458 0.057815 2.000000
0.465339 -0.061428 0.044129 2.000000
0.465339 -0.066259 -0.021324 2.000000
0.465339 -0.056882 -0.059039 2.000000
0.465339 -0.017375 -0.078472 2.000000
0.465339 0.074367 0.034862 2.000000
0.465339 0.016918 0.028139 2.000000
0.465339 -0.052235 0.083566 2.000000
0.465339 0.059621 -0.046325 2.000000
0.465339 0.015885 -0.022600 2.000000
0.465339 0.029351 0.031168 2.000000
0.465339 -0.055575 -0.073089 2.000000
0.465339 0.052739 -0.016409 2.000000
0.465339 -0.055809 -0.081162 2.000000
0.465339 0.066122 -0.048422 2.000000
0.465339 -0.032610 0.061913 2.000000
0.465339 -0.006363 0.093621 2.000000
0.465339 -0.044398 -0.082650 2.000000
0.465339 0.021903 -0.042474 2.000000
0.465339 -0.000570 -0.039746 2.000000
0.465339 0.023435 0.011989 2.000000
0.465339 0.029400 -0.027924 2.000000
0.465339 -0.016992 -0.090928 2.000000
0.465339 0.023365 0.014219 2.000000
0.465339 0.047384 0.068370 2.000000
0.465339 0.038449 0.027862 2.000000
0.465339 0.011210 0.023079 2.000000
0.465339 -0.048068 0.074375 2.000000
0.465339 -0.074603 0.021387 2.000000
0.465339 -0.066993 -0.071047 2.000000
0.465339 -0.075749 0.031083 2.000000
0.465339 -0.023404 -0.036495 2.000000
0.465339 0.053384 -0.012040 2.000000
0.465339 0.039457 0.076564 2.000000
0.465339 -0.071593 -0.001101 2.000000
0.465339 -0.024247 -0.056846 2.000000
0.465339 0.037772 -0.064281 2.000000
0.465339 -0.030639 0.007738 2.000000
0.465339 0.021371 0.095742 2.000000
0.465339 -0.064022 -0.007747 2.000000
0.465339 -0.083471 -0.034195 2.000000
0.465339 0.055200 0.004097 2.000000
0.465339 0.074652 -0.049493 2.000000
0.465339 -0.012006 0.002771 2.000000
0.465339 0.009511 -0.071127 2.000000
0.465339 -0.081084 0.053823 2.000000
0.465339 -0.001836 0.022415 2.000000
0.465339 0.083991 -0.023692 2.000000
0.465339 -0.058085 -0.003445 2.000000
0.465339 0.031148 0.060566 2.000000
0.465339 0.036821 0.025286 2.000000
0.465339 -0.032990 0.045558 2.000000
0.465339 -0.074750 0.061819 2.000000
0.465339 -0.019175 0.020817 2.000000
0.465339 0.051847 0.081660 2.000000
0.465339 -0.001769 -0.077684 2.000000
0.465339 -0.041841 0.072967 2.000000
0.465339 0.067839 0.037064 2.000000
0.465339 -0.016909 -0.029344 2.000000
0.465339 0.014637 -0.044457 2.000000
0.465339 0.012387 -0.035911 2.000000
0.465339 0.063649 0.018942 2.000000
0.465339 0.021494 0.059632 2.000000
0.465339 -0.025978 0.007411 2.000000
0.465339 0.043094 -0.014302 2.000000
0.465339 -0.007986 -0.017822 2.000000
0.465339 0.077264 -0.013422 2.000000
0.465339 0.018746 -0.035209 2.000000
0.465339 -0.078541 0.039766 2.000000
0.465339 -0.004282 0.007075 2.000000
0.465339 -0.055996 -0.052755 2.000000
0.465339 0.026686 0.090306 2.000000
0.465339 0.025068 0.026074 2.000000
0.465339 0.013270 0.026034 2.000000
0.465339 0.032293 0.009683 2.000000
0.465339 -0.082667 -0.041600 2.000000
0.465339 0.006303 -0.055574 2.000000
0.465339 0.004062 0.085838 2.000000
0.465339 -0.072146 0.056291 2.000000
0.465339 0.079302 0.007353 2.000000
0.465339 0.054483 -0.067870 2.000000
0.465339 0.037134 -0.091530 2.000000
0.465339 -0.023086 0.049749 2.000000
0.465339 0.000739 -0.000066 2.000000
0.465339 -0.040171 0.072800 2.000000
0.465339 0.070039 -0.046880 2.000000
0.465339 0.034743 -0.052504 2.000000
0.465339 -0.034163 -0.041175 2.000000
0.465339 0.026272 -0.062651 2.000000
0.465339 -0.089580 -0.017089 2.000000
0.465339 -0.020779 -0.094000 2.000000
0.465339 0.047727 0.017921 2.000000
0.465339 -0.024186 -0.049257 2.000000
0.465339 0.008299 -0.040103 2.000000
0.465339 -0.069987 -0.059987 2.000000
0.465339 0.021570 -0.049091 2.000000
0.465339 0.015367 0.087463 2.000000
0.465339 0.094130 -0.014430 2.000000
0.465339 -0.012517 -0.048116 2.000000
0.465339 0.082140 0.028981 2.000000
0.465339 0.062934 -0.004232 2.000000
0.465339 -0.064788 0.006592 2.000000
0.465339 0.037652 -0.033171 2.000000
0.465339 -0.023500 -0.030410 2.000000
0.465339 0.035995 0.040864 2.000000
0.465339 0.006845 0.079128 2.000000
0.465339 -0.031436 -0.036921 2.000000
0.465339 -0.015728 0.095947 2.000000
0.465339 -0.029444 0.048387 2.000000
0.465339 -0.061854 0.065754 2.000000
0.465339 0.016080 -0.059050 2.000000
0.465339 0.049144 -0.084276 2.000000
0.465339 0.015855 -0.093700 2.000000
0.465339 0.031099 0.047951 2.000000
0.465339 0.038042 -0.007475 2.000000
0.465339 -0.052392 -0.048735 2.000000
0.465339 -0.060323 -0.068831 2.000000
0.465339 0.023042 0.059980 2.000000
0.465339 -0.036678 0.014013 2.000000
0.465339 -0.002592 0.032427 2.000000
0.465339 -0.063119 -0.065176 2.000000
0.465339 0.071775 -0.005999 2.000000
0.465339 0.060996 -0.041573 2.000000
0.465339 -0.037824 0.038285 2.000000
0.465339 -0.051483 -0.061064 2.000000
0.465339 -0.035253 0.059054 2.000000
0.465339 0.006401 -0.095575 2.000000
0.465339 -0.003126 0.099832 2.000000
0.465339 0.009950 0.010759 2.000000
0.465339 -0.040295 0.049282 2.000000
0.465339 0.009924 -0.007852 2.000000
0.465339 0.005311 -0.025575 2.000000
0.465339 -0.025734 -0.091655 2.000000
0.465339 -0.003844 0.081663 2.000000
0.465339 0.080979 0.022930 2.000000
0.465339 -0.014114 -0.072602 2.000000
0.465339 0.020720 -0.054000 2.000000
0.465339 0.038543 -0.060219 2.000000
0.465339 -0.037748 -0.035227 2.000000
0.465339 0.052273 -0.018636 2.000000
0.465339 -0.036350 0.038012 2.000000
0.465339 -0.028779 -0.040377 2.000000
0.465339 0.046358 -0.080240 2.000000
0.465339 0.038320 0.080883 2.000000
0.465339 -0.069920 -0.057054 2.000000
0.465339 -0.007910 0.031853 2.000000
0.465339 0.056302 0.017994 2.000000
0.465339 0.067453 -0.044583 2.000000
0.465339 -0.016791 0.043482 2.000000
0.465339 -0.000740 -0.019570 2.000000
0.465339 0.030651 -0.015612 2.000000
0.465339 -0.046860 0.046990 2.000000
0.465339 -0.080292 0.024624 2.000000
0.465339 0.025729 -0.031610 2.000000
0.465339 0.012848 0.022504 2.000000
0.465339 0.047032 0.070392 2.000000
0.465339 -0.067570 0.030200 2.000000
0.465339 -0.054506 -0.076988 2.000000
0.465339 -0.047002 0.068920 2.000000
0.465339 -0.080229 -0.050723 2.000000
