-0.466955 -0.091677 0.013887 3.000000
-0.466955 0.071351 0.002889 3.000000
-0.466955 0.014915 -0.006557 3.000000
-0.466955 -0.069410 0.008092 3.000000
-0.466955 -0.031152 0.048842 3.000000
-0.466955 -0.035442 0.069847 3.000000
-0.466955 0.035336 0.014065 3.000000
-0.466955 0.051599 0.042757 3.000000
-0.466955 -0.076115 -0.054573 3.000000
-0.466955 0.060857 -0.023598 3.000000
-0.466955 0.001470 0.012325 3.000000
-0.466955 0.035701 -0.014984 3.000000
-0.466955 0.057537 -0.057946 3.000000
-0.466955 0.005104 -0.082874 3.000000
-0.466955 -0.011742 -0.025413 3.000000
-0.466955 -0.009035 0.019262 3.000000
-0.466955 -0.061590 -0.044851 3.000000
-0.466955 0.079751 0.003506 3.000000
-0.466955 -0.063311 0.025028 3.000000
-0.466955 -0.021109 0.093599 3.000000
-0.466955 -0.028377 -0.079888 3.000000
-0.466955 -0.089182 0.006070 3.000000
-0.466955 0.043121 0.019972 3.000000
-0.466955 0.099673 -0.005591 3.000000
-0.466955 0.076119 0.062719 3.000000
-0.466955 0.009367 -0.048677 3.000000
-0.466955 -0.048902 -0.007670 3.000000
-0.466955 -0.067449 0.014693 3.000000
-0.466955 0.043499 -0.042702 3.000000
-0.466955 0.039114 0.064676 3.000000
-0.466955 0.015131 -0.014749 3.000000
-0.466955 0.067967 0.045543 3.000000
-0.466955 0.018319 -0.047455 3.000000
-0.466955 -0.090515 0.019824 3.000000
-0.466955 0.064233 -0.053370 3.000000
-0.466955 0.055491 -0.038074 3.000000
-0.466955 0.001616 -0.062890 3.000000
-0.466955 0.054533 -0.042792 3.000000
-0.466955 -0.059191 0.037786 3.000000
-0.466955 -0.010661 -0.088137 3.000000
-0.466955 0.072892 -0.005268 3.000000
-0.466955 0.020595 0.064903 3.000000
-0.466955 -0.002196 0.057534 3.000000
-0.466955 0.034463 0.077156 3.000000
-0.466955 -0.002336 0.018786 3.000000
-0.466955 0.021586 0.053856 3.000000
-0.466955 0.063717 0.044503 3.000000
-0.466955 -0.057687 -0.043691 3.000000
-0.466955 -0.048023 0.038378 3.000000
-0.466955 -0.051867 -0.032322 3.000000
-0.466955 -0.019852 0.073011 3.000000
-0.466955 0.075740 0.002325 3.000000
-0.466955 0.055797 0.017196 3.000000
-0.466955 -0.072310 -0.013778 3.000000
-0.466955 0.021398 0.086324 3.000000
-0.466955 -0.005011 -0.001824 3.000000
-0.466955 -0.028875 0.025843 3.000000
-0.466955 0.052279 0.000349 3.000000
-0.466955 -0.000893 -0.044161 3.000000
-0.466955 -0.069203 -0.033872 3.000000
-0.466955 0.087248 0.010139 3.000000
-0.466955 0.012571 -0.098914 3.000000
-0.466955 -0.026619 0.077082 3.000000
-0.466955 0.067474 -0.036767 3.000000
-0.466955 0.007705 0.062006 3.000000
-0.466955 0.002122 0.096110 3.000000
-0.466955 0.033059 0.064204 3.000000
-0.466955 0.017897 0.074443 3.000000
-0.466955 0.048371 -0.083602 3.000000
-0.466955 0.032477 -0.045099 3.000000
-0.466955 0.098286 0.004631 3.000000
-0.466955 0.044098 0.024183 3.000000
-0.466955 -0.018257 0.050017 3.000000
-0.466955 -0.062404 -0.022947 3.000000
-0.466955 0.017531 0.091300 3.000000
-0.466955 -0.020874 0.000022 3.000000
-0.466955 0.097803 -0.019965 3.000000
-0.466955 0.069287 0.019508 3.000000
-0.466955 -0.049914 -0.038095 3.000000
-0.466955 0.039703 0.054871 3.000000
-0.466955 -0.021077 0.051289 3.000000
-0.466955 -0.018274 -0.015202 3.000000
-0.466955 0.012152 0.084969 3.000000
-0.466955 -0.023338 0.034099 3.000000
-0.466955 0.029593 0.063131 3.000000
-0.466955 0.011006 -0.034138 3.000000
-0.466955 -0.005348 0.041279 3.000000
-0.466955 -0.013325 0.059428 3.000000
-0.466955 0.036981 0.032533 3.000000
-0.466955 -0.026375 0.001641 3.000000
-0.466955 -0.093907 0.027752 3.000000
-0.466955 -0.054737 -0.001584 3.000000
-0.466955 0.097554 -0.003294 3.000000
-0.466955 -0.036974 -0.083937 3.000000
-0.466955 -0.044342 -0.056696 3.000000
-0.466955 -0.068463 -0.001837 3.000000
-0.466955 -0.004427 -0.045315 3.000000
-0.466955 0.010091 -0.004210 3.000000
-0.466955 0.007374 -0.065313 3.000000
-0.466955 0.007227 -0.038594 3.000000
-0.466955 0.051000 -0.032095 3.000000
-0.466955 0.072816 -0.049451 3.000000
-0.466955 -0.037214 0.047440 3.000000
-0.466955 0.056740 -0.024245 3.000000
-0.466955 -0.044247 0.086348 3.000000
-0.466955 0.073335 -0.058820 3.000000
-0.466955 0.056993 0.035859 3.000000
-0.466955 -0.097482 -0.007072 3.000000
-0.466955 -0.022554 -0.060362 3.000000
-0.466955 0.081433 -0.042651 3.000000
-0.466955 -0.038158 -0.036893 3.000000
-0.466955 0.045288 0.009538 3.000000
-0.466955 -0.016090 0.092433 3.000000
-0.466955 0.067517 0.043101 3.000000
-0.466955 -0.047181 0.068985 3.000000
-0.466955 0.032362 -0.046614 3.000000
-0.466955 -0.047267 -0.001454 3.000000
-0.466955 -0.029447 0.043405 3.000000
-0.466955 0.084277 0.024963 3.000000
-0.466955 -0.052797 -0.014100 3.000000
-0.466955 -0.086744 -0.026791 3.000000
-0.466955 -0.006834 -0.094433 3.000000
-0.466955 0.057879 0.009846 3.000000
-0.466955 -0.030834 -0.091167 3.000000
-0.466955 -0.086625 -0.004043 3.000000
-0.466955 0.066281 0.055001 3.000000
-0.466955 0.043182 -0.088328 3.000000
-0.466955 -0.059793 -0.058284 3.000000
-0.466955 0.065743 0.038658 3.000000
-0.466955 0.073084 0.064201 3.000000
-0.466955 -0.009547 0.080185 3.000000
-0.466955 0.031919 -0.059663 3.000000
-0.466955 -0.038204 0.048536 3.000000
-0.466955 0.018968 -0.083524 3.000000
-0.466955 0.076689 0.000726 3.000000
-0.466955 -0.090723 -0.036657 3.000000
-0.466955 -0.049359 0.024309 3.000000
-0.466955 0.057860 -0.025673 3.000000
-0.466955 0.000416 -0.032776 3.000000
-0.466955 -0.011653 -0.075820 3.000000
-0.466955 -0.046187 0.014199 3.000000
-0.466955 0.030096 -0.063010 3.000000
-0.466955 -0.008842 -0.088199 3.000000
-0.466955 -0.080694 0.001685 3.000000
-0.466955 -0.040509 0.064360 3.000000
-0.466955 0.016493 -0.039095 3.000000
-0.466955 -0.039596 0.036582 3.000000
-0.466955 0.074221 -0.060453 3.000000
-0.466955 -0.027123 -0.089988 3.000000
-0.466955 -0.057016 -0.026822 3.000000
-0.466955 0.032602 0.070354 3.000000
-0.466955 -0.025810 0.027280 3.000000
-0.466955 0.080936 0.040784 3.000000
-0.466955 -0.090053 -0.038938 3.000000
-0.466955 -0.075922 -0.020393 3.000000
-0.466955 0.025521 0.040534 3.000000
-0.466955 -0.078174 0.029266 3.000000
-0.466955 0.038935 0.023341 3.000000
-0.466955 -0.069975 -0.002027 3.000000
-0.466955 0.029221 0.095584 3.000000
-0.466955 0.043546 0.040835 3.000000
-0.466955 -0.055550 0.042794 3.000000
-0.466955 0.032334 0.068748 3.000000
-0.466955 0.034202 0.044020 3.000000
-0.466955 -0.042932 -0.076158 3.000000
-0.466955 -0.019530 -0.000856 3.000000
-0.466955 0.028182 -0.069802 3.000000
-0.466955 -0.053287 0.039511 3.000000
-0.466955 -0.042603 0.015638 3.000000
-0.466955 -0.028124 -0.050431 3.000000
-0.466955 0.027019 -0.058990 3.000000
-0.466955 0.032242 -0.038199 3.000000
-0.466955 -0.029081 0.033676 3.000000
-0.466955 -0.000436 0.026659 3.000000
-0.466955 0.077497 -0.009814 3.000000
-0.466955 0.022888 0.049187 3.000000
-0.466955 -0.037969 -0.068066 3.000000
-0.466955 0.082374 0.053222 3.000000
-0.466955 0.091931 0.006743 3.000000
-0.466955 -0.048107 0.075032 3.000000
-0.466955 0.077070 0.040859 3.000000
-0.466955 -0.024441 0.010585 3.000000
-0.466955 -0.093651 -0.014357 3.000000
-0.466955 -0.003877 0.003964 3.000000
-0.466955 -0.050059 0.032155 3.000000
-0.466955 0.035698 -0.047140 3.000000
-0.466955 0.082008 -0.017715 3.000000
-0.466955 -0.023274 -0.034704 3.000000
-0.466955 -0.010685 0.063046 3.000000
-0.466955 -0.060862 -0.063383 3.000000
-0.466955 -0.069248 -0.060373 3.000000
-0.466955 -0.031329 0.071155 3.000000
-0.466955 -0.052352 0.000807 3.000000
-0.466955 -0.046687 -0.082798 3.000000
-0.466955 0.041330 -0.066797 3.000000
-0.466955 0.088410 0.022068 3.000000
-0.466955 -0.048197 -0.037732 3.000000
-0.466955 0.044557 0.031583 3.000000
-0.466955 -0.081439 0.043853 3.000000
-0.466955 0.034361 0.065598 3.000000
-0.466955 0.053894 -0.046662 3.000000
-0.466955 0.089746 -0.032458 3.000000
-0.466955 0.096212 0.017067 3.000000
-0.466955 -0.072868 0.005089 3.000000
-0.466955 -0.023473 -0.000386 3.000000
-0.466955 -0.020051 0.030931 3.000000
-0.466955 -0.025134 -0.062950 3.000000
-0.466955 -0.047514 0.013261 3.000000
-0.466955 -0.056887 0.075595 3.000000
-0.466955 0.078010 0.025137 3.000000
-0.466955 0.059917 0.026848 3.000000
-0.466955 -0.027533 0.037348 3.000000
-0.466955 0.009184 0.068736 3.000000
-0.466955 0.076112 -0.048021 3.000000
-0.466955 0.050802 -0.041880 3.000000
-0.466955 0.001407 -0.045970 3.000000
-0.466955 -0.016304 0.034607 3.000000
-0.466955 -0.014420 0.048032 3.000000
-0.466955 -0.055164 0.064119 3.000000
-0.466955 -0.070370 0.050042 3.000000
-0.466955 0.024740 -0.018066 3.000000
-0.466955 -0.093718 -0.027907 3.000000
-0.466955 0.038432 -0.065862 3.000000
-0.466955 -0.013762 0.057259 3.000000
-0.466955 0.034696 -0.022497 3.000000
-0.466955 0.065074 0.056223 3.000000
-0.466955 0.051634 0.017152 3.000000
-0.466955 0.015445 0.049594 3.000000
-0.466955 0.027358 -0.081510 3.000000
-0.466955 -0.015889 -0.019519 3.000000
-0.466955 -0.048755 -0.001392 3.000000
-0.466955 -0.027227 -0.043537 3.000000
-0.466955 0.020907 -0.041122 3.000000
-0.466955 0.052569 0.006384 3.000000
-0.466955 0.062052 -0.003397 3.000000
-0.466955 -0.027378 -0.047521 3.000000
-0.466955 0.019049 -0.080213 3.000000
-0.466955 -0.010456 -0.011241 3.000000
-0.466955 0.089792 -0.027361 3.000000
-0.466955 -0.090200 0.021335 3.000000
-0.466955 0.044154 -0.044788 3.000000
-0.466955 -0.081692 0.028166 3.000000
-0.466955 -0.030416 -0.023511 3.000000
-0.466955 0.023190 0.080453 3.000000
-0.466955 -0.031692 0.065896 3.000000
-0.466955 -0.086375 0.037757 3.000000
-0.466955 0.029133 0.064674 3.000000
-0.466955 -0.043579 0.049263 3.000000
-0.466955 -0.062599 -0.041134 3.000000
-0.466955 -0.088776 -0.000289 3.000000
-0.466955 -0.022392 0.023128 3.000000
-0.466955 0.027980 -0.037888 3.000000
-0.466955 -0.030422 0.006740 3.000000
-0.466955 0.012841 -0.030081 3.000000
-0.466955 -0.053209 0.041507 3.000000
-0.466955 -0.045763 -0.019167 3.000000
-0.466955 0.042192 -0.089776 3.000000
-0.466955 -0.024167 0.004437 3.000000
-0.466955 0.016647 0.077996 3.000000
-0.466955 0.044923 0.039913 3.000000
-0.466955 0.059432 0.047756 3.000000
-0.466955 -0.046974 -0.022497 3.000000
-0.466955 -0.023426 0.051634 3.000000
-0.466955 -0.056474 0.016320 3.000000
-0.466955 -0.067102 -0.003410 3.000000
-0.466955 -0.027881 -0.026267 3.000000
-0.466955 -0.034924 0.018176 3.000000
-0.466955 -0.004312 -0.096674 3.000000
-0.466955 -0.019528 0.023880 3.000000
-0.466955 0.040372 -0.028464 3.000000
-0.466955 -0.000241 0.032855 3.000000
-0.466955 -0.044562 0.070834 3.000000
-0.466955 0.071793 0.056461 3.000000
-0.466955 0.041248 0.084364 3.000000
-0.466955 -0.016178 -0.024154 3.000000
-0.466955 -0.083364 0.014334 3.000000
-0.466955 -0.015132 0.095657 3.000000
-0.466955 -0.025298 0.070588 3.000000
-0.466955 0.031808 -0.001023 3.000000
-0.466955 -0.040096 -0.036436 3.000000
-0.466955 -0.004101 -0.061630 3.000000
-0.466955 0.001530 -0.061147 3.000000
-0.466955 0.075570 0.042850 3.000000
-0.466955 0.050188 0.027029 3.000000
-0.466955 -0.078982 -0.060063 3.000000
-0.466955 -0.002434 0.004232 3.000000
-0.466955 -0.033794 0.051365 3.000000
-0.466955 -0.015308 -0.084701 3.000000
-0.466955 -0.076510 0.004847 3.000000
-0.466955 0.009917 -0.092116 3.000000
-0.466955 -0.007335 -0.085591 3.000000
-0.466955 0.007635 -0.058629 3.000000
-0.466955 0.046215 0.028358 3.000000
-0.466955 0.005615 -0.096954 3.000000
-0.466955 -0.085059 -0.006938 3.000000
-0.466955 0.076056 0.051260 3.000000
-0.466955 0.086376 0.044012 3.000000
-0.466955 0.064335 0.025505 3.000000
-0.466955 0.014954 -0.003489 3.000000
-0.466955 -0.048100 0.014726 3.000000
-0.466955 0.057058 0.011672 3.000000
-0.466955 -0.012792 0.097662 3.000000
-0.466955 -0.005575 -0.056717 3.000000
-0.466955 -0.077019 0.019318 3.000000
-0.466955 -0.043416 -0.088355 3.000000
-0.466955 0.057337 0.045327 3.000000
-0.466955 -0.017128 -0.068243 3.000000
-0.466955 -0.043399 -0.066008 3.000000
-0.466955 -0.039008 -0.069194 3.000000
-0.466955 0.034143 -0.072523 3.000000
-0.466955 -0.070199 0.011200 3.000000
-0.466955 0.056357 0.065084 3.000000
-0.466955 0.009678 0.076784 3.000000
-0.466955 -0.034634 0.029553 3.000000
-0.466955 -0.008467 0.046597 3.000000
-0.466955 0.001293 0.093643 3.000000
-0.466955 0.018054 0.017855 3.000000
-0.466955 -0.027993 0.049438 3.000000
-0.466955 -0.016822 0.018693 3.000000
-0.466955 -0.091099 -0.040047 3.000000
-0.466955 0.048832 -0.027319 3.000000
-0.466955 0.026442 0.087945 3.000000
-0.466955 0.000568 0.089938 3.000000
-0.466955 0.032726 0.057346 3.000000
-0.466955 0.072676 0.001496 3.000000
-0.466955 0.038585 -0.038889 3.000000
-0.466955 -0.001238 -0.061549 3.000000
-0.466955 -0.067309 -0.023010 3.000000
-0.466955 -0.095643 0.012055 3.000000
-0.466955 -0.057597 -0.008872 3.000000
-0.466955 -0.002749 0.064923 3.000000
-0.466955 -0.058471 -0.023002 3.000000
-0.466955 0.056602 -0.078204 3.000000
-0.466955 0.000464 -0.085065 3.000000
-0.466955 -0.057526 -0.002309 3.000000
-0.466955 -0.008225 -0.048305 3.000000
-0.466955 -0.051435 -0.083400 3.000000
-0.466955 0.064464 -0.060182 3.000000
-0.466955 0.063877 -0.074490 3.000000
-0.466955 -0.071511 -0.035418 3.000000
-0.466955 0.048525 0.084435 3.000000
-0.466955 -0.039246 -0.056714 3.000000
-0.466955 -0.055078 0.016089 3.000000
-0.466955 0.070775 0.029856 3.000000
-0.466955 -0.091851 -0.027504 3.000000
-0.466955 0.059584 0.011344 3.000000
-0.466955 -0.090184 -0.018852 3.000000
-0.466955 0.018497 -0.092481 3.000000
-0.466955 0.046771 -0.050323 3.000000
-0.466955 -0.021093 0.048708 3.000000
-0.466955 0.005445 0.088647 3.000000
-0.466955 0.015835 -0.081146 3.000000
-0.466955 -0.065266 -0.004830 3.000000
-0.466955 0.050760 0.080328 3.000000
-0.466955 0.033332 0.062844 3.000000
-0.466955 -0.034808 -0.086553 3.000000
-0.466955 0.009792 0.066282 3.000000
-0.466955 0.004217 -0.046705 3.000000
-0.466955 0.084734 -0.003611 3.000000
-0.466955 0.051486 0.003041 3.000000
-0.466955 -0.055534 -0.023327 3.000000
-0.466955 0.052296 -0.051951 3.000000
-0.466955 -0.070030 0.031599 3.000000
-0.466955 0.085286 0.047646 3.000000
-0.466955 -0.030670 0.067958 3.000000
-0.466955 0.079405 -0.053362 3.000000
-0.466955 -0.096383 0.006963 3.000000
-0.466955 -0.001852 0.095722 3.000000
-0.466955 0.074636 -0.036815 3.000000
-0.466955 -0.048292 0.040077 3.000000
-0.466955 0.077058 0.033763 3.000000
-0.466955 0.014481 -0.098525 3.000000
-0.466955 -0.074134 -0.013611 3.000000
-0.466955 0.048311 0.033879 3.000000
-0.466955 0.037166 0.067492 3.000000
-0.466955 -0.019341 -0.025689 3.000000
-0.466955 -0.018833 0.008528 3.000000
-0.466955 0.060986 -0.032902 3.000000
-0.466955 -0.015117 -0.062873 3.000000
-0.466955 0.036573 -0.035440 3.000000
-0.466955 -0.028254 0.039931 3.000000
-0.466955 0.070561 0.064010 3.000000
-0.466955 -0.070610 0.059936 3.000000
-0.466955 -0.074671 -0.054913 3.000000
-0.466955 0.041689 0.016444 3.000000
-0.466955 -0.048352 -0.009486 3.000000
-0.466955 -0.013173 0.061512 3.000000
-0.466955 0.029252 0.069200 3.000000
-0.466955 -0.006590 0.010290 3.000000
-0.466955 -0.067788 0.003257 3.000000
-0.466955 -0.010482 0.031397 3.000000
-0.466955 0.042068 0.041093 3.000000
-0.466955 -0.015320 -0.078371 3.000000
-0.466955 0.088314 -0.041910 3.000000
-0.466955 -0.034874 0.010595 3.000000
-0.466955 0.058478 0.017563 3.000000
-0.466955 -0.028057 0.076991 3.000000
-0.466955 -0.064369 0.059427 3.000000
-0.466955 -0.072881 0.037078 3.000000
-0.466955 0.023220 -0.011765 3.000000
-0.466955 -0.039245 0.063534 3.000000
-0.466955 -0.069180 -0.068670 3.000000
-0.466955 0.036472 0.035349 3.000000
-0.466955 -0.068875 -0.023366 3.000000
-0.466955 0.050085 -0.064216 3.000000
-0.466955 -0.082813 -0.033571 3.000000
-0.466955 -0.033015 -0.088301 3.000000
-0.466955 -0.063448 0.073009 3.000000
-0.466955 0.062124 0.012156 3.000000
-0.466955 -0.030827 0.003792 3.000000
-0.466955 -0.038751 0.059346 3.000000
-0.466955 0.025340 -0.014972 3.000000
-0.466955 -0.039929 0.003165 3.000000
-0.466955 0.083216 0.020618 3.000000
-0.466955 -0.010755 -0.029989 3.000000
-0.466955 -0.067456 -0.038116 3.000000
-0.466955 0.080343 0.010430 3.000000
-0.466955 -0.040169 0.061390 3.000000
-0.466955 0.013116 0.042007 3.000000
-0.466955 -0.009366 0.070415 3.000000
-0.466955 0.073154 -0.064640 3.000000
-0.466955 -0.050389 -0.028906 3.000000
-0.466955 -0.029566 -0.040445 3.000000
-0.466955 0.081225 0.055050 3.000000
-0.466955 -0.029823 0.087428 3.000000
-0.466955 -0.061148 0.006450 3.000000
-0.466955 0.065816 -0.048777 3.000000
-0.466955 0.026197 0.092127 3.000000
-0.466955 0.014900 0.056641 3.000000
-0.466955 0.016669 0.034541 3.000000
-0.466955 -0.058376 0.042677 3.000000
-0.466955 0.089559 0.035274 3.000000
-0.466955 -0.049750 -0.035795 3.000000
-0.466955 -0.086183 -0.047292 3.000000
-0.466955 0.075242 0.015082 3.000000
-0.466955 -0.012562 0.075187 3.000000
-0.466955 0.022858 0.070229 3.000000
-0.466955 -0.003936 0.041335 3.000000
-0.466955 0.045977 0.051033 3.000000
-0.466955 0.032372 0.038528 3.000000
-0.466955 0.047639 0.027522 3.000000
-0.466955 0.052485 0.008028 3.000000
-0.466955 0.008479 -0.041812 3.000000
-0.466955 0.089347 0.015860 3.000000
-0.466955 0.000388 -0.044769 3.000000
-0.466955 -0.030823 -0.049004 3.000000
-0.466955 -0.069456 -0.003555 3.000000
-0.466955 -0.031269 0.088908 3.000000
-0.466955 0.067322 -0.001940 3.000000
-0.466955 -0.069122 -0.016759 3.000000
-0.466955 0.059584 -0.037134 3.000000
-0.466955 -0.070695 0.053947 3.000000
-0.466955 0.041406 0.043486 3.000000
-0.466955 0.027473 0.007656 3.000000
-0.466955 0.005930 0.083508 3.000000
-0.466955 0.059718 -0.055570 3.000000
-0.466955 -0.062969 -0.045529 3.000000
-0.466955 -0.020273 0.017499 3.000000
-0.466955 -0.010684 0.057615 3.000000
-0.466955 -0.043194 0.067693 3.000000
-0.466955 -0.034800 0.045289 3.000000
-0.466955 0.086825 -0.009143 3.000000
-0.466955 0.044177 0.078443 3.000000
-0.466955 0.013929 0.086660 3.000000
-0.466955 -0.010973 -0.022921 3.000000
-0.466955 -0.025345 -0.080388 3.000000
-0.466955 -0.022781 0.091461 3.000000
-0.466955 0.064189 -0.030009 3.000000
-0.466955 -0.062239 -0.009283 3.000000
-0.466955 -0.042386 -0.031379 3.000000
-0.466955 0.016552 -0.040873 3.000000
-0.466955 -0.080379 0.050596 3.000000
-0.466955 0.056272 -0.046542 3.000000
-0.466955 0.057776 -0.054230 3.000000
-0.466955 0.084271 0.003171 3.000000
-0.466955 0.076903 -0.052364 3.000000
-0.466955 0.011052 -0.029108 3.000000
-0.466955 -0.079073 -0.021680 3.000000
-0.466955 0.030025 0.006307 3.000000
-0.466955 0.056097 -0.071120 3.000000
-0.466955 0.035136 0.034622 3.000000
-0.466955 -0.036288 0.030686 3.000000
-0.466955 -0.077395 0.011315 3.000000
-0.466955 -0.006924 0.090517 3.000000
-0.466955 -0.001481 -0.052625 3.000000
-0.466955 0.003088 -0.082990 3.000000
-0.466955 0.063972 -0.055038 3.000000
-0.466955 -0.000482 -0.059348 3.000000
-0.466955 0.019207 -0.034389 3.000000
-0.466955 -0.068007 -0.041585 3.000000
-0.466955 -0.064735 -0.024598 3.000000
-0.466955 0.022923 -0.091923 3.000000
-0.466955 -0.080162 -0.032174 3.000000
-0.466955 -0.070880 0.057619 3.000000
-0.466955 0.047439 -0.004580 3.000000
-0.466955 -0.012748 -0.077036 3.000000
-0.466955 0.079176 0.017838 3.000000
-0.466955 0.028963 -0.019740 3.000000
-0.466955 -0.012957 -0.060806 3.000000
-0.466955 -0.027445 0.059953 3.000000
-0.466955 -0.035560 0.026535 3.000000
-0.466955 0.065995 -0.003071 3.000000
-0.466955 -0.008369 0.071566 3.000000
-0.466955 0.037365 -0.025756 3.000000
-0.466955 0.050364 -0.049762 3.000000
-0.466955 -0.027160 0.008962 3.000000
-0.466955 0.052689 0.010077 3.000000
-0.466955 -0.053807 0.031794 3.000000
-0.466955 0.090332 0.008586 3.000000
-0.466955 -0.031438 -0.007269 3.000000
-0.466955 -0.026854 -0.072803 3.000000
-0.466955 -0.021636 0.016307 3.000000
-0.466955 0.020855 -0.013037 3.000000
-0.466955 0.027796 0.033060 3.000000
-0.466955 0.024051 0.057660 3.000000
-0.466955 0.052842 -0.081966 3.000000
-0.466955 -0.070655 -0.034154 3.000000
-0.466955 -0.041722 0.053486 3.000000
-0.466955 0.009820 0.038163 3.000000
-0.466955 0.052643 0.035239 3.000000
-0.466955 -0.001073 0.062502 3.000000
-0.466955 0.036758 -0.027131 3.000000
-0.466955 -0.045284 0.072997 3.000000
-0.466955 0.005317 0.043348 3.000000
-0.466955 0.037057 0.053471 3.000000
-0.466955 -0.043591 -0.047722 3.000000
-0.466955 0.031269 -0.061323 3.000000
-0.466955 -0.014703 0.055690 3.000000
-0.466955 0.038965 0.045270 3.000000
-0.466955 -0.048673 -0.041394 3.000000
-0.466955 0.000132 -0.015549 3.000000
-0.466955 -0.030935 -0.061590 3.000000
-0.466955 -0.080799 -0.058183 3.000000
-0.466955 0.027264 -0.030111 3.000000
-0.466955 0.091161 0.001119 3.000000
-0.466955 -0.066995 -0.049671 3.000000
-0.466955 0.095707 0.022000 3.000000
-0.466955 -0.097886 -0.018905 3.000000
-0.466955 0.080381 -0.013504 3.000000
-0.466955 0.030127 -0.007491 3.000000
-0.466955 -0.046534 0.088250 3.000000
-0.466955 0.091231 0.026572 3.000000
-0.466955 -0.039644 0.031604 3.000000
-0.466955 -0.019959 0.049999 3.000000
-0.466955 -0.029056 -0.068253 3.000000
-0.466955 0.016301 0.074890 3.000000
-0.466955 -0.036359 0.006452 3.000000
-0.466955 -0.005643 0.058513 3.000000
-0.466955 -0.078637 0.061033 3.000000
-0.466955 -0.031676 0.018302 3.000000
-0.466955 0.018966 0.060371 3.000000
-0.466955 -0.008746 0.052925 3.000000
-0.466955 0.013262 -0.063019 3.000000
-0.466955 -0.030723 -0.083817 3.000000
-0.466955 0.024171 -0.062969 3.000000
-0.466955 -0.081237 0.048398 3.000000
-0.466955 -0.060780 0.033749 3.000000
-0.466955 0.000280 -0.013749 3.000000
-0.466955 0.048297 -0.049735 3.000000
-0.466955 0.072926 0.030398 3.000000
-0.466955 -0.022307 -0.048155 3.000000
-0.466955 -0.012579 0.008614 3.000000
-0.466955 -0.027313 0.042535 3.000000
-0.466955 0.000119 -0.060835 3.000000
-0.466955 0.072059 0.006713 3.000000
-0.466955 -0.090645 -0.011501 3.000000
-0.466955 0.046665 -0.037569 3.000000
-0.466955 -0.068811 0.029659 3.000000
-0.466955 0.078146 -0.043070 3.000000
-0.466955 0.017502 -0.038143 3.000000
-0.466955 -0.091299 -0.017648 3.000000
-0.466955 -0.040450 0.020038 3.000000
-0.466955 -0.023516 0.038331 3.000000
-0.466955 0.074268 -0.005826 3.000000
-0.466955 0.095190 -0.014853 3.000000
-0.466955 -0.031674 0.094152 3.000000
-0.466955 0.037072 -0.006814 3.000000
-0.466955 -0.027452 0.024434 3.000000
-0.466955 0.011074 0.099068 3.000000
-0.466955 -0.034612 0.032824 3.000000
-0.466955 0.071556 -0.059849 3.000000
-0.466955 -0.025897 -0.022244 3.000000
-0.466955 -0.048718 0.018049 3.000000
-0.466955 -0.021356 -0.077147 3.000000
-0.466955 0.056759 0.029337 3.000000
-0.466955 -0.014291 -0.091121 3.000000
-0.466955 0.026222 -0.095704 3.000000
-0.466955 -0.020227 -0.046240 3.000000
-0.466955 -0.082621 -0.001384 3.000000
-0.466955 -0.016813 0.043795 3.000000
-0.466955 -0.040920 0.077481 3.000000
-0.466955 0.015619 0.060495 3.000000
-0.466955 0.040929 -0.008031 3.000000
-0.466955 0.003185 -0.019485 3.000000
-0.466955 0.049850 0.032571 3.000000
-0.466955 -0.091703 -0.007775 3.000000
-0.466955 0.061977 -0.040982 3.000000
-0.466955 -0.045283 -0.081111 3.000000
-0.466955 -0.048320 -0.023202 3.000000
-0.466955 0.059526 -0.004248 3.000000
-0.466955 -0.060817 -0.023729 3.000000
-0.466955 -0.015225 0.049673 3.000000
-0.466955 -0.070459 -0.030350 3.000000
-0.466955 0.093284 -0.003630 3.000000
-0.466955 0.010644 0.042239 3.000000
-0.466955 -0.035587 -0.081963 3.000000
-0.466955 -0.040524 0.052280 3.000000
-0.466955 -0.068638 -0.045555 3.000000
-0.466955 0.048516 -0.001222 3.000000
-0.466955 -0.039979 -0.084977 3.000000
-0.466955 0.020065 -0.045834 3.000000
-0.466955 -0.054261 0.049153 3.000000
-0.466955 -0.034937 -0.000592 3.000000
-0.466955 -0.014994 -0.086634 3.000000
-0.466955 -0.039045 0.074291 3.000000
-0.466955 0.011812 -0.006169 3.000000
-0.466955 0.050121 -0.008177 3.000000
-0.466955 0.030711 -0.009232 3.000000
-0.466955 0.034514 0.050451 3.000000
-0.466955 0.065615 -0.068598 3.000000
-0.466955 -0.024013 -0.064159 3.000000
-0.466955 0.060610 0.034504 3.000000
-0.466955 -0.029649 0.028096 3.000000
-0.466955 -0.027952 -0.052911 3.000000
-0.466955 0.078667 -0.002889 3.000000
-0.466955 0.036669 -0.028929 3.000000
-0.466955 0.008242 0.021009 3.000000
-0.466955 -0.096089 -0.026475 3.000000
-0.466955 -0.011762 -0.019367 3.000000
-0.466955 -0.038023 -0.004044 3.000000
-0.466955 -0.051051 0.058239 3.000000
-0.466955 -0.021951 0.062210 3.000000
-0.466955 0.071184 0.070062 3.000000
-0.466955 -0.052020 -0.046005 3.000000
-0.466955 0.002015 -0.022317 3.000000
-0.466955 -0.024455 0.039572 3.000000
-0.466955 -0.071852 0.002383 3.000000
-0.466955 0.020387 0.067030 3.000000
-0.466955 -0.072105 0.054691 3.000000
-0.466955 0.061312 -0.021515 3.000000
-0.466955 -0.004845 0.012101 3.000000
-0.466955 0.027995 0.010492 3.000000
-0.466955 -0.055104 -0.037467 3.000000
-0.466955 0.018805 0.086100 3.000000
-0.466955 -0.040037 -0.055245 3.000000
-0.466955 -0.019329 -0.028857 3.000000
-0.466955 0.085457 -0.027200 3.000000
-0.466955 0.034244 -0.042279 3.000000
-0.466955 -0.005417 0.091081 3.000000
-0.466955 0.076354 -0.029474 3.000000
-0.466955 0.012271 -0.012490 3.000000
-0.466955 0.067118 0.009363 3.000000
-0.466955 0.072146 -0.047605 3.000000
-0.466955 0.061032 0.010961 3.000000
-0.466955 -0.014393 0.010868 3.000000
-0.466955 -0.004030 -0.094969 3.000000
-0.466955 -0.041665 -0.079154 3.000000
-0.466955 0.022573 -0.049999 3.000000
-0.466955 0.041368 0.089567 3.000000
-0.466955 -0.048206 0.052248 3.000000
-0.466955 0.077783 -0.001492 3.000000
-0.466955 -0.049745 0.079462 3.000000
-0.466955 -0.050119 -0.032073 3.000000
-0.466955 -0.065261 0.024946 3.000000
-0.466955 -0.004481 0.059362 3.000000
-0.466955 0.065510 -0.017208 3.000000
-0.466955 -0.074430 -0.039070 3.000000
-0.466955 -0.039388 0.005505 3.000000
-0.466955 0.052687 0.064120 3.000000
-0.466955 -0.059775 0.015694 3.000000
-0.466955 -0.035081 0.028043 3.000000
-0.466955 0.019439 -0.090889 3.000000
-0.466955 0.061987 0.013609 3.000000
-0.466955 -0.052340 0.014832 3.000000
-0.466955 0.053998 0.020109 3.000000
-0.466955 0.029878 -0.016873 3.000000
-0.466955 0.045147 0.029599 3.000000
-0.466955 0.018312 0.013485 3.000000
-0.466955 -0.006855 -0.088794 3.000000
-0.466955 0.028562 0.059767 3.000000
-0.466955 -0.070049 -0.066769 3.000000
-0.466955 -0.077851 0.057061 3.000000
-0.466955 -0.026211 -0.057383 3.000000
-0.466955 -0.033658 -0.079467 3.000000
-0.466955 -0.068774 0.018010 3.000000
-0.466955 0.011493 -0.037454 3.000000
-0.466955 -0.019691 0.040622 3.000000
-0.466955 0.066460 0.033143 3.000000
-0.466955 -0.096471 0.016420 3.000000
-0.466955 0.023790 -0.059420 3.000000
-0.466955 -0.053202 -0.059895 3.000000
-0.466955 -0.087282 -0.008440 3.000000
-0.466955 0.052893 -0.021768 3.000000
-0.466955 0.003970 -0.098695 3.000000
-0.466955 -0.087861 0.032524 3.000000
-0.466955 0.024052 -0.016088 3.000000
-0.466955 -0.075027 0.065707 3.000000
-0.466955 -0.086845 0.029387 3.000000
-0.466955 0.037895 0.066260 3.000000
-0.466955 -0.004517 0.031572 3.000000
-0.466955 0.041534 0.054344 3.000000
-0.466955 0.010555 -0.055912 3.000000
-0.466955 0.044435 0.017224 3.000000
-0.466955 0.026900 0.065475 3.000000
-0.466955 0.028193 -0.010781 3.000000
-0.466955 0.057810 0.065530 3.000000
-0.466955 0.011866 0.041135 3.000000
-0.466955 0.083869 -0.002420 3.000000
-0.466955 -0.065866 0.041977 3.000000
-0.466955 -0.022811 -0.075273 3.000000
-0.466955 0.068778 0.038510 3.000000
-0.466955 -0.074191 0.048082 3.000000
-0.466955 -0.035877 0.052829 3.000000
-0.466955 -0.060807 -0.067973 3.000000
-0.466955 0.059300 0.076851 3.000000
-0.466955 0.022728 0.027985 3.000000
-0.466955 -0.027718 0.017153 3.000000
-0.466955 0.053214 -0.069863 3.000000
-0.466955 -0.032025 -0.000677 3.000000
-0.466955 0.035479 -0.011442 3.000000
-0.466955 0.011630 0.022598 3.000000
-0.466955 0.011253 -0.073303 3.000000
-0.466955 0.031856 0.023524 3.000000
-0.466955 0.040138 -0.089085 3.000000
-0.466955 -0.019992 0.090866 3.000000
-0.466955 0.039262 0.049793 3.000000
-0.466955 0.069163 0.056227 3.000000
-0.466955 -0.026754 0.075121 3.000000
-0.466955 -0.075213 -0.035305 3.000000
-0.466955 -0.042492 -0.057097 3.000000
-0.466955 -0.077695 0.042515 3.000000
-0.466955 0.097075 0.022764 3.000000
-0.466955 0.046501 0.008957 3.000000
-0.466955 0.042207 -0.008876 3.000000
-0.466955 0.003507 -0.093882 3.000000
-0.466955 0.076430 -0.006075 3.000000
-0.466955 0.047301 0.002894 3.000000
-0.466955 0.071417 -0.029953 3.000000
-0.466955 -0.020786 -0.055006 3.000000
-0.466955 -0.007362 -0.060158 3.000000
-0.466955 0.036281 -0.092587 3.000000
-0.466955 -0.003077 0.031628 3.000000
-0.466955 0.063945 -0.031495 3.000000
-0.466955 0.041097 -0.013362 3.000000
-0.466955 0.055727 0.080467 3.000000
-0.466955 0.061898 0.070987 3.000000
-0.466955 -0.030761 0.028965 3.000000
-0.466955 -0.079836 0.003175 3.000000
-0.466955 -0.047780 0.050848 3.000000
-0.466955 0.045640 -0.038979 3.000000
-0.466955 -0.043525 0.072699 3.000000
-0.466955 -0.041031 0.068500 3.000000
-0.466955 -0.056521 -0.044752 3.000000
-0.466955 0.041871 -0.071695 3.000000
-0.466955 0.083557 0.007840 3.000000
-0.466955 0.014252 0.001569 3.000000
-0.466955 -0.095402 -0.022913 3.000000
-0.466955 -0.029366 0.010980 3.000000
-0.466955 0.061316 0.074826 3.000000
-0.466955 0.082339 0.004761 3.000000
-0.466955 0.082611 0.006359 3.000000
-0.466955 -0.058997 -0.065433 3.000000
-0.466955 0.029283 -0.055662 3.000000
-0.466955 0.024088 -0.008338 3.000000
-0.466955 0.047714 -0.054636 3.000000
-0.466955 -0.062845 0.023576 3.000000
-0.466955 -0.004908 0.083866 3.000000
-0.466955 0.038440 0.043327 3.000000
-0.466955 -0.052115 0.067263 3.000000
-0.466955 0.000467 0.019952 3.000000
-0.466955 0.025246 0.015653 3.000000
-0.466955 -0.031325 0.077644 3.000000
-0.466955 -0.076349 -0.042572 3.000000
-0.466955 -0.025149 0.029769 3.000000
-0.466955 0.085554 0.023599 3.000000
-0.466955 -0.009647 0.020514 3.000000
-0.466955 0.020945 -0.083401 3.000000
-0.466955 -0.061550 -0.043387 3.000000
-0.466955 0.035133 0.072470 3.000000
-0.466955 -0.041902 0.034160 3.000000
-0.466955 0.085613 0.010746 3.000000
-0.466955 0.069570 0.012466 3.000000
-0.466955 -0.023486 0.006456 3.000000
-0.466955 -0.028451 0.014065 3.000000
-0.466955 0.063767 0.032484 3.000000
-0.466955 -0.020409 0.057130 3.000000
-0.466955 -0.038589 -0.091782 3.000000
-0.466955 -0.052353 -0.061207 3.000000
-0.466955 0.028691 -0.075954 3.000000
-0.466955 -0.001170 0.080944 3.000000
-0.466955 0.021569 -0.004739 3.000000
-0.466955 -0.090637 -0.009662 3.000000
-0.466955 -0.072761 0.053453 3.000000
-0.466955 0.039706 -0.066566 3.000000
-0.466955 -0.086128 -0.036461 3.000000
-0.466955 0.044207 0.000419 3.000000
-0.466955 0.058726 -0.072755 3.000000
-0.466955 -0.029255 0.058099 3.000000
-0.466955 0.068278 -0.042045 3.000000
-0.466955 0.035949 -0.017987 3.000000
-0.466955 -0.018988 -0.066239 3.000000
-0.466955 0.016989 0.014836 3.000000
-0.466955 -0.082211 -0.019612 3.000000
-0.466955 0.031889 0.042598 3.000000
-0.466955 -0.000827 0.093591 3.000000
-0.466955 -0.094437 -0.010486 3.000000
-0.466955 -0.067990 0.023657 3.000000
-0.466955 0.019194 0.014499 3.000000
-0.466955 -0.002887 -0.033481 3.000000
-0.466955 0.059539 -0.027875 3.000000
-0.466955 0.067248 -0.021803 3.000000
-0.466955 -0.066457 0.000937 3.000000
-0.466955 -0.007422 -0.065961 3.000000
-0.466955 0.052623 0.004461 3.000000
-0.466955 -0.030928 -0.028596 3.000000
-0.466955 0.081141 0.023475 3.000000
-0.466955 0.039579 -0.005578 3.000000
-0.466955 -0.046149 -0.059975 3.000000
-0.466955 0.043186 0.087322 3.000000
-0.466955 -0.015085 -0.082892 3.000000
-0.466955 -0.017910 0.088089 3.000000
-0.466955 0.013335 -0.069006 3.000000
-0.466955 -0.042436 0.059202 3.000000
-0.466955 0.056376 0.043881 3.000000
-0.466955 0.088022 0.046502 3.000000
-0.466955 0.029574 -0.074337 3.000000
-0.466955 -0.054662 -0.026781 3.000000
-0.466955 -0.069446 -0.012411 3.000000
-0.466955 0.025422 0.018998 3.000000
-0.466955 -0.092993 -0.012906 3.000000
-0.466955 0.040347 -0.016887 3.000000
-0.466955 0.099319 -0.006966 3.000000
-0.466955 -0.076982 0.009329 3.000000
-0.466955 0.014519 0.063383 3.000000
-0.466955 -0.038435 0.082375 3.000000
-0.466955 -0.005490 -0.060475 3.000000
-0.466955 0.022814 0.092995 3.000000
-0.466955 0.071440 -0.023352 3.000000
-0.466955 0.022086 0.014656 3.000000
-0.466955 -0.024223 -0.018391 3.000000
-0.466955 0.059736 -0.024903 3.000000
-0.466955 -0.065845 -0.060852 3.000000
-0.466955 0.052386 0.079394 3.000000
-0.466955 -0.046051 0.035394 3.000000
-0.466955 -0.026467 -0.027076 3.000000
-0.466955 0.027977 -0.046617 3.000000
-0.466955 -0.089413 0.017405 3.000000
-0.466955 -0.091735 -0.037839 3.000000
-0.466955 0.014820 -0.067235 3.000000
-0.466955 -0.051494 0.051652 3.000000
-0.466955 0.020964 0.038370 3.000000
-0.466955 0.010923 0.081319 3.000000
-0.466955 0.009822 -0.029867 3.000000
-0.466955 -0.027017 -0.065072 3.000000
-0.466955 -0.043442 0.021226 3.000000
-0.466955 0.068051 0.033500 3.000000
-0.466955 0.032044 -0.021907 3.000000
-0.466955 0.015386 0.051434 3.000000
-0.466955 -0.041282 0.088991 3.000000
-0.466955 -0.097514 0.019645 3.000000
-0.466955 -0.039188 -0.042139 3.000000
-0.466955 -0.001005 0.024290 3.000000
-0.466955 -0.049702 0.002974 3.000000
-0.466955 -0.025362 -0.048278 3.000000
-0.466955 -0.090886 -0.002966 3.000000
-0.466955 0.002910 -0.029193 3.000000
-0.466955 0.090770 -0.033527 3.000000
-0.466955 -0.075618 -0.025337 3.000000
-0.466955 -0.010429 0.078070 3.000000
-0.466955 -0.017336 -0.018912 3.000000
-0.466955 -0.034670 -0.065841 3.000000
-0.466955 0.021416 -0.036922 3.000000
-0.466955 -0.029007 0.070135 3.000000
-0.466955 -0.044988 0.081613 3.000000
-0.466955 -0.063512 -0.060068 3.000000
-0.466955 -0.084045 0.046928 3.000000
-0.466955 -0.056671 0.062641 3.000000
-0.466955 -0.076313 -0.060514 3.000000
-0.466955 0.035415 0.056988 3.000000
-0.466955 0.011204 0.004030 3.000000
-0.466955 -0.040971 0.050753 3.000000
-0.466955 -0.003565 0.080869 3.000000
-0.466955 -0.042349 -0.036979 3.000000
-0.466955 -0.034229 0.004088 3.000000
-0.466955 0.028247 0.086176 3.000000
-0.466955 0.046129 -0.054894 3.000000
-0.466955 -0.019856 0.042298 3.000000
-0.466955 0.043529 -0.028006 3.000000
-0.466955 -0.033497 -0.027794 3.000000
-0.466955 -0.031501 -0.015657 3.000000
-0.466955 -0.013389 0.027491 3.000000
-0.466955 0.050177 -0.068978 3.000000
-0.466955 -0.028018 0.043765 3.000000
-0.466955 0.045913 -0.012858 3.000000
-0.466955 0.080102 0.021670 3.000000
-0.466955 0.033888 0.015488 3.000000
-0.466955 0.049730 -0.006598 3.000000
-0.466955 0.002785 -0.064994 3.000000
-0.466955 0.005827 0.001000 3.000000
-0.466955 0.020633 -0.011494 3.000000
-0.466955 0.001894 0.056413 3.000000
-0.466955 0.005333 0.027566 3.000000
-0.466955 0.069009 -0.056015 3.000000
-0.466955 0.026969 0.067528 3.000000
-0.466955 0.074751 0.016483 3.000000
-0.466955 -0.015365 -0.092287 3.000000
-0.466955 0.057653 0.042938 3.000000
-0.466955 -0.054398 -0.077577 3.000000
-0.466955 0.048552 -0.075384 3.000000
-0.466955 -0.058862 0.048459 3.000000
-0.466955 -0.059735 0.029058 3.000000
-0.466955 0.054562 -0.006937 3.000000
-0.466955 -0.071348 0.004173 3.000000
-0.466955 -0.019149 0.093477 3.000000
-0.466955 0.000305 0.055641 3.000000
-0.466955 -0.000282 -0.073865 3.000000
-0.466955 -0.083356 0.030255 3.000000
-0.466955 0.062560 0.039575 3.000000
-0.466955 -0.025178 -0.093698 3.000000
-0.466955 -0.027156 0.078348 3.000000
-0.466955 0.019718 0.053271 3.000000
-0.466955 -0.051760 0.082834 3.000000
-0.466955 0.031917 0.021617 3.000000
-0.466955 -0.020607 -0.057819 3.000000
-0.466955 0.049023 -0.037334 3.000000
-0.466955 -0.029701 -0.011078 3.000000
-0.466955 0.020555 0.092554 3.000000
-0.466955 0.018848 -0.010951 3.000000
-0.466955 0.064575 -0.028433 3.000000
-0.466955 0.099056 -0.001511 3.000000
-0.466955 -0.049564 -0.045402 3.000000
-0.466955 -0.095628 -0.003799 3.000000
-0.466955 0.018325 -0.041085 3.000000
-0.466955 0.013158 0.044804 3.000000
-0.466955 0.013348 0.019063 3.000000
-0.466955 -0.065920 0.068626 3.000000
-0.466955 0.087211 0.016646 3.000000
-0.466955 -0.010870 0.008461 3.000000
-0.466955 -0.050575 -0.006594 3.000000
-0.466955 -0.011691 0.030140 3.000000
-0.466955 0.018224 0.096850 3.000000
-0.466955 -0.005932 -0.062007 3.000000
-0.466955 0.009365 0.045489 3.000000
-0.466955 -0.002421 -0.010678 3.000000
-0.466955 0.071532 -0.069575 3.000000
-0.466955 -0.063120 -0.029943 3.000000
-0.466955 0.055432 -0.074944 3.000000
-0.466955 0.072177 -0.031615 3.000000
-0.466955 -0.027415 -0.015675 3.000000
-0.466955 -0.029239 0.005869 3.000000
-0.466955 -0.081694 0.023301 3.000000
-0.466955 -0.048334 -0.014539 3.000000
-0.466955 0.062056 0.016676 3.000000
-0.466955 0.087748 0.042170 3.000000
-0.466955 -0.062449 -0.056110 3.000000
-0.466955 0.009924 -0.033222 3.000000
-0.466955 -0.083097 0.024199 3.000000
-0.466955 -0.062381 -0.000760 3.000000
-0.466955 -0.015234 -0.002124 3.000000
-0.466955 0.021830 -0.061314 3.000000
-0.466955 0.090726 0.038686 3.000000
-0.466955 -0.040903 0.067056 3.000000
-0.466955 -0.086278 -0.041464 3.000000
-0.466955 -0.083528 0.025819 3.000000
-0.466955 -0.036998 -0.091907 3.000000
-0.466955 0.011117 -0.040710 3.000000
-0.466955 -0.041561 0.012719 3.000000
-0.466955 0.048330 0.048687 3.000000
-0.466955 0.017170 0.038171 3.000000
-0.466955 -0.078993 -0.054066 3.000000
-0.466955 0.013895 -0.093506 3.000000
-0.466955 0.062194 -0.028349 3.000000
-0.466955 -0.075319 -0.063916 3.000000
-0.466955 0.057496 0.081258 3.000000
-0.466955 -0.002836 0.002063 3.000000
-0.466955 -0.014652 0.081296 3.000000
-0.466955 -0.056835 0.069487 3.000000
-0.466955 -0.027027 0.007045 3.000000
-0.466955 0.066846 0.058717 3.000000
-0.466955 0.076224 -0.049424 3.000000
-0.466955 -0.016247 0.080372 3.000000
-0.466955 -0.008142 0.099144 3.000000
-0.466955 0.012772 -0.014763 3.000000
-0.466955 0.094339 -0.032663 3.000000
-0.466955 -0.028678 -0.092531 3.000000
-0.466955 -0.057615 -0.039676 3.000000
-0.466955 -0.032542 0.081687 3.000000
-0.466955 -0.044273 -0.063141 3.000000
-0.466955 -0.013942 -0.057536 3.000000
-0.466955 -0.000153 0.070237 3.000000
-0.466955 0.060202 -0.073247 3.000000
-0.466955 -0.040727 -0.061107 3.000000
-0.466955 0.043605 -0.073239 3.000000
-0.466955 -0.036698 0.060708 3.000000
-0.466955 0.075974 0.032827 3.000000
-0.466955 0.061922 -0.031273 3.000000
-0.466955 -0.084939 0.022297 3.000000
-0.466955 -0.008019 0.021918 3.000000
-0.466955 0.043473 0.062854 3.000000
-0.466955 0.069103 -0.037456 3.000000
-0.466955 0.045148 0.037019 3.000000
-0.466955 -0.065593 -0.045077 3.000000
-0.466955 0.078466 -0.046845 3.000000
-0.466955 -0.054615 0.045808 3.000000
-0.466955 0.013188 -0.038019 3.000000
-0.466955 0.009961 -0.089737 3.000000
-0.466955 0.076313 -0.042813 3.000000
-0.466955 -0.055270 0.008532 3.000000
-0.466955 0.050081 -0.073771 3.000000
-0.466955 0.050888 -0.021919 3.000000
-0.466955 0.088233 -0.022639 3.000000
-0.466955 0.050507 -0.079688 3.000000
-0.466955 0.022196 -0.008300 3.000000
-0.466955 -0.062365 -0.014534 3.000000
-0.466955 0.053629 0.058466 3.000000
-0.466955 0.055230 -0.035355 3.000000
-0.466955 0.071775 0.058757 3.000000
-0.466955 0.017314 -0.062443 3.000000
-0.466955 0.019313 -0.000643 3.000000
-0.466955 0.066226 -0.060472 3.000000
-0.466955 -0.038380 -0.064110 3.000000
-0.466955 0.084915 -0.000373 3.000000
-0.466955 0.002876 0.076133 3.000000
-0.466955 0.068133 0.003902 3.000000
-0.466955 0.045930 0.075711 3.000000
-0.466955 -0.008649 0.035046 3.000000
-0.466955 0.026203 0.078877 3.000000
-0.466955 -0.031269 -0.011622 3.000000
-0.466955 -0.035978 -0.076328 3.000000
-0.466955 0.051058 0.006832 3.000000
-0.466955 -0.025192 0.072675 3.000000
-0.466955 -0.012795 -0.091426 3.000000
-0.466955 0.096027 0.026394 3.000000
-0.466955 -0.015617 -0.066859 3.000000
-0.466955 -0.050851 0.070764 3.000000
-0.466955 -0.065565 0.062327 3.000000
-0.466955 -0.061990 0.032358 3.000000
-0.466955 0.079357 0.055305 3.000000
-0.466955 -0.061179 -0.037349 3.000000
-0.466955 0.048221 -0.077615 3.000000
-0.466955 0.032645 0.044039 3.000000
-0.466955 0.072131 0.008416 3.000000
-0.466955 -0.016408 0.090920 3.000000
-0.466955 0.012747 -0.074174 3.000000
-0.466955 -0.085924 0.023487 3.000000
-0.466955 -0.031406 -0.042575 3.000000
-0.466955 0.056459 0.069187 3.000000
-0.466955 0.057736 0.046807 3.000000
-0.466955 -0.017167 -0.052989 3.000000
-0.466955 -0.031214 -0.078635 3.000000
-0.466955 0.020442 -0.039767 3.000000
-0.466955 0.055499 -0.073026 3.000000
-0.466955 0.026118 0.014573 3.000000
-0.466955 -0.094601 0.019458 3.000000
-0.466955 -0.003955 -0.030797 3.000000
-0.466955 -0.017546 -0.020654 3.000000
-0.466955 0.034366 0.002147 3.000000
-0.466955 0.053325 -0.018471 3.000000
-0.466955 0.004425 0.069464 3.000000
-0.466955 0.018787 -0.063009 3.000000
-0.466955 0.088474 -0.029801 3.000000
-0.466955 0.060295 -0.008020 3.000000
-0.466955 0.036026 -0.076989 3.000000
-0.466955 0.040339 -0.090625 3.000000
-0.466955 -0.053327 0.027635 3.000000
-0.466955 -0.087049 -0.038146 3.000000
-0.466955 0.060676 0.022325 3.000000
-0.466955 -0.082643 0.045864 3.000000
-0.466955 -0.008671 0.026455 3.000000
-0.466955 0.024186 0.017695 3.000000
-0.466955 -0.002771 0.026813 3.000000
-0.466955 -0.007771 -0.019450 3.000000
-0.466955 0.033570 -0.031374 3.000000
-0.466955 -0.002819 -0.007897 3.000000
-0.466955 0.016757 -0.043993 3.000000
-0.466955 -0.045187 -0.055028 3.000000
-0.466955 0.025220 -0.039364 3.000000
-0.466955 -0.081121 -0.025484 3.000000
-0.466955 0.084732 -0.049077 3.000000
-0.466955 -0.065566 0.016192 3.000000
-0.466955 0.004825 0.021623 3.000000
-0.466955 0.001720 0.015725 3.000000
-0.466955 0.014459 0.080050 3.000000
-0.466955 -0.034626 -0.002860 3.000000
-0.466955 -0.036944 0.067975 3.000000
-0.466955 -0.090877 -0.029465 3.000000
-0.466955 0.061546 -0.061003 3.000000
-0.466955 0.021036 0.011595 3.000000
-0.466955 0.072581 -0.002249 3.000000
-0.466955 -0.038117 -0.029502 3.000000
-0.466955 0.070540 -0.034975 3.000000
-0.466955 -0.015190 -0.000658 3.000000
-0.466955 0.015700 0.047761 3.000000
-0.466955 0.018539 0.037465 3.000000
-0.466955 -0.062966 -0.005555 3.000000
-0.466955 0.020794 -0.059832 3.000000
-0.466955 -0.053932 -0.015626 3.000000
-0.466955 -0.013884 0.002085 3.000000
-0.466955 0.030553 -0.028628 3.000000
-0.466955 0.064181 -0.013579 3.000000
-0.466955 0.037850 -0.002576 3.000000
-0.466955 -0.036056 -0.087664 3.000000
-0.466955 0.093246 -0.010355 3.000000
-0.466955 0.076097 0.046590 3.000000
-0.466955 -0.035452 -0.010775 3.000000
-0.466955 -0.007392 0.076283 3.000000
-0.466955 -0.077771 -0.037419 3.000000
-0.466955 0.028456 -0.053294 3.000000
-0.466955 -0.088706 -0.024160 3.000000
-0.466955 0.065379 0.067689 3.000000
-0.466955 0.033982 -0.086068 3.000000
-0.466955 0.004290 -0.025604 3.000000
-0.466955 0.057062 0.063670 3.000000
-0.466955 0.034138 0.094037 3.000000
-0.466955 -0.082525 0.040369 3.000000
-0.466955 0.046249 -0.020215 3.000000
-0.466955 -0.081742 0.056843 3.000000
-0.466955 -0.011622 -0.089931 3.000000
-0.466955 -0.024976 0.080830 3.000000
-0.466955 -0.011392 0.089127 3.000000
-0.466955 -0.004667 0.073610 3.000000
-0.466955 0.040464 0.020985 3.000000
-0.466955 -0.091085 -0.021791 3.000000
-0.466955 -0.079704 -0.046817 3.000000
-0.466955 0.000025 -0.004329 3.000000
-0.466955 -0.058513 -0.055506 3.000000
-0.466955 -0.086962 -0.032578 3.000000
-0.466955 0.025677 -0.009051 3.000000
-0.466955 -0.018592 -0.007437 3.000000
-0.466955 -0.066044 0.050740 3.000000
-0.466955 -0.070318 0.035980 3.000000
-0.466955 0.054450 -0.061468 3.000000
-0.466955 0.033358 -0.007151 3.000000
-0.466955 0.061136 0.078263 3.000000
-0.466955 -0.019861 -0.041395 3.000000
-0.466955 -0.026328 0.094357 3.000000
-0.466955 -0.054918 -0.020111 3.000000
-0.466955 0.051336 0.060644 3.000000
-0.466955 0.094950 -0.025812 3.000000
-0.466955 -0.042398 -0.014249 3.000000
-0.466955 0.086877 -0.016803 3.000000
-0.466955 -0.013357 -0.082902 3.000000
-0.466955 -0.012557 0.055720 3.000000
-0.466955 -0.052229 0.044385 3.000000
-0.466955 -0.057184 -0.046261 3.000000
-0.466955 0.029815 0.085494 3.000000
-0.466955 0.059922 0.041970 3.000000
-0.466955 0.012335 -0.059228 3.000000
-0.466955 0.040831 0.064137 3.000000
-0.466955 -0.033210 -0.015514 3.000000
-0.466955 -0.075067 -0.031063 3.000000
-0.466955 -0.015312 -0.038339 3.000000
-0.466955 -0.034983 0.060989 3.000000
-0.466955 0.026275 -0.033505 3.000000
-0.466955 0.047861 0.040050 3.000000
-0.466955 -0.013062 0.030389 3.000000
-0.466955 0.074356 0.032736 3.000000
-0.466955 0.089877 -0.013704 3.000000
-0.466955 0.089900 0.033769 3.000000
-0.466955 -0.091222 0.024566 3.000000
-0.466955 -0.004677 -0.029215 3.000000
-0.466955 -0.029277 -0.090844 3.000000
-0.466955 0.014720 0.067880 3.000000
-0.466955 -0.018893 0.032445 3.000000
-0.466955 0.041994 -0.076339 3.000000
-0.466955 -0.035369 -0.033716 3.000000
-0.466955 0.069775 -0.019267 3.000000
-0.466955 0.014281 -0.028423 3.000000
-0.466955 0.039388 0.034107 3.000000
-0.466955 0.007075 -0.089216 3.000000
-0.466955 -0.016055 0.032036 3.000000
-0.466955 0.013363 -0.021016 3.000000
-0.466955 0.007274 -0.062368 3.000000
-0.466955 -0.025396 0.065383 3.000000
-0.466955 -0.049502 -0.074778 3.000000
-0.466955 -0.039045 -0.016417 3.000000
-0.466955 -0.005418 -0.051277 3.000000
-0.466955 -0.016963 -0.056450 3.000000
-0.466955 0.048902 0.031034 3.000000
-0.466955 0.005452 -0.015577 3.000000
-0.466955 0.037757 0.048994 3.000000
-0.466955 0.019477 -0.029316 3.000000
-0.466955 -0.033394 0.047714 3.000000
-0.466955 -0.049792 0.017030 3.000000
-0.466955 -0.088709 0.020111 3.000000
-0.466955 -0.048007 0.001452 3.000000
-0.466955 -0.035816 0.002943 3.000000
-0.466955 -0.074724 0.041377 3.000000
-0.466955 -0.000247 -0.097476 3.000000
-0.466955 0.049591 -0.035828 3.000000
-0.466955 0.022247 -0.013414 3.000000
-0.466955 -0.095642 -0.007936 3.000000
-0.466955 -0.042168 0.025368 3.000000
-0.466955 0.053791 0.030681 3.000000
-0.466955 -0.032311 -0.073157 3.000000
-0.466955 -0.043140 0.006307 3.000000
-0.466955 0.053797 -0.017097 3.000000
-0.466955 0.029515 -0.070715 3.000000
-0.466955 0.075140 -0.051403 3.000000
-0.466955 0.074583 -0.012121 3.000000
-0.466955 0.073666 -0.046102 3.000000
-0.466955 0.096364 0.009147 3.000000
-0.466955 0.053521 0.017138 3.000000
-0.466955 -0.001726 -0.084820 3.000000
-0.466955 -0.080294 -0.015679 3.000000
-0.466955 0.003932 0.062111 3.000000
-0.466955 -0.000946 0.028863 3.000000
-0.466955 -0.033978 0.087207 3.000000
-0.466955 0.019518 -0.078750 3.000000
-0.466955 -0.023707 -0.088905 3.000000
-0.466955 0.033464 -0.011741 3.000000
-0.466955 -0.034959 0.023477 3.000000
-0.466955 -0.000583 0.073411 3.000000
-0.466955 0.017557 -0.033031 3.000000
-0.466955 0.084309 -0.043244 3.000000
-0.466955 0.059584 0.040610 3.000000
-0.466955 0.061684 0.003291 3.000000
-0.466955 -0.045975 0.040693 3.000000
-0.466955 -0.021681 -0.001165 3.000000
-0.466955 0.000919 -0.041940 3.000000
-0.466955 0.060757 0.063065 3.000000
-0.466955 0.042071 0.027593 3.000000
-0.466955 0.009281 -0.031984 3.000000
-0.466955 -0.004855 -0.071662 3.000000
-0.466955 0.022948 -0.079365 3.000000
-0.466955 0.058539 0.066873 3.000000
-0.466955 0.091103 -0.018439 3.000000
-0.466955 -0.048383 -0.006185 3.000000
-0.466955 -0.015611 -0.016440 3.000000
-0.466955 -0.011287 0.087496 3.000000
-0.466955 0.029455 -0.043590 3.000000
-0.466955 0.055106 -0.059175 3.000000
-0.466955 0.092985 -0.031190 3.000000
-0.466955 -0.080737 0.007835 3.000000
-0.466955 0.076693 -0.044356 3.000000
-0.466955 -0.083954 0.045052 3.000000
-0.466955 -0.091851 -0.035676 3.000000
-0.466955 0.012013 -0.003099 3.000000
-0.466955 -0.010015 -0.059499 3.000000
-0.466955 0.019519 -0.051761 3.000000
-0.466955 -0.098061 -0.017210 3.000000
-0.466955 -0.084175 0.005839 3.000000
-0.466955 -0.066956 0.053592 3.000000
-0.466955 -0.063305 -0.021293 3.000000
-0.466955 0.067343 0.047639 3.000000
-0.466955 0.021900 -0.071966 3.000000
-0.466955 0.095795 -0.017759 3.000000
-0.466955 -0.040197 0.049448 3.000000
-0.466955 0.021999 -0.010637 3.000000
-0.466955 -0.046684 -0.079857 3.000000
-0.466955 0.047358 0.020153 3.000000
-0.466955 0.025892 -0.088584 3.000000
-0.466955 -0.030931 0.044968 3.000000
-0.466955 0.018668 0.030777 3.000000
-0.466955 -0.025715 -0.011602 3.000000
-0.466955 0.015864 -0.032665 3.000000
-0.466955 -0.031318 -0.094098 3.000000
-0.466955 -0.034124 0.073261 3.000000
-0.466955 0.058950 -0.010288 3.000000
-0.466955 0.072098 0.031557 3.000000
-0.466955 0.080586 0.014682 3.000000
-0.466955 0.008561 0.050220 3.000000
-0.466955 -0.054470 -0.012185 3.000000
