0.465339 0.063290 -0.062926 2.000000
0.465339 -0.042658 -0.024643 2.000000
0.465339 0.007194 0.021498 2.000000
0.465339 0.076600 0.047823 2.000000
0.465339 -0.035290 -0.090176 2.000000
0.465339 -0.087464 -0.040570 2.000000
0.465339 -0.045662 0.053400 2.000000
0.465339 0.054399 -0.034219 2.000000
0.465339 -0.004639 -0.082907 2.000000
0.465339 0.045270 -0.013965 2.000000
0.465339 -0.060615 -0.079055 2.000000
0.465339 0.001658 0.094638 2.000000
0.465339 -0.087040 0.035891 2.000000
0.465339 0.002064 0.041988 2.000000
0.465339 -0.013559 -0.053481 2.000000
0.465339 0.040983 0.060803 2.000000
0.465339 -0.043499 -0.043184 2.000000
0.465339 -0.016086 0.030296 2.000000
0.465339 0.093335 -0.029090 2.000000
0.465339 0.020382 -0.035988 2.000000
0.465339 0.096757 0.018630 2.000000
0.465339 0.022400 0.093736 2.000000
0.465339 -0.027931 0.089273 2.000000
0.465339 -0.035746 -0.010394 2.000000
0.465339 0.026053 0.090316 2.000000
0.465339 -0.029600 0.021956 2.000000
0.465339 -0.047212 0.047762 2.000000
0.465339 0.048489 -0.039421 2.000000
0.465339 -0.006161 0.029709 2.000000
0.465339 0.016417 0.053072 2.000000
0.465339 0.014011 -0.079175 2.000000
0.465339 0.024772 0.030216 2.000000
0.465339 0.045729 -0.080520 2.000000
0.465339 -0.005652 -0.000751 2.000000
0.465339 -0.040448 -0.017878 2.000000
0.465339 -0.053537 0.036099 2.000000
0.465339 0.060651 -0.025959 2.000000
0.465339 -0.071113 -0.004481 2.000000
0.465339 0.045360 -0.058877 2.000000
0.465339 -0.027206 0.009828 2.000000
0.465339 0.047791 -0.005067 2.000000
0.465339 0.016858 0.021512 2.000000
0.465339 -0.011709 0.072352 2.000000
0.465339 0.006609 0.013663 2.000000
0.465339 0.062735 0.018523 2.000000
0.465339 0.013859 -0.051151 2.000000
0.465339 -0.016965 0.046401 2.000000
0.465339 -0.095574 -0.009070 2.000000
0.465339 -0.028963 0.087497 2.000000
0.465339 0.073176 0.050581 2.000000
0.465339 0.028830 -0.015294 2.000000
0.465339 0.039681 -0.084087 2.000000
0.465339 0.014231 0.089559 2.000000
0.465339 -0.052692 -0.060341 2.000000
0.465339 0.057002 -0.064935 2.000000
0.465339 -0.000835 -0.053419 2.000000
0.465339 0.022156 0.053749 2.000000
0.465339 0.025549 0.050545 2.000000
0.465339 -0.064072 0.041946 2.000000
0.465339 -0.002876 0.085177 2.000000
0.465339 0.019107 0.035234 2.000000
0.465339 0.013132 0.062479 2.000000
0.465339 -0.029064 -0.043724 2.000000
0.465339 0.012541 -0.098560 2.000000
0.465339 0.051993 -0.040981 2.000000
0.465339 -0.005151 -0.076270 2.000000
0.465339 0.014924 -0.019767 2.000000
0.465339 0.049106 -0.016716 2.000000
0.465339 -0.028829 -0.018961 2.000000
0.465339 0.074926 0.055594 2.000000
0.465339 -0.015943 -0.023947 2.000000
0.465339 -0.016098 -0.089983 2.000000
0.465339 -0.047355 -0.057698 2.000000
0.465339 -0.061742 -0.022130 2.000000
0.465339 -0.027834 -0.009611 2.000000
0.465339 -0.011947 0.026173 2.000000
0.465339 -0.041536 0.071480 2.000000
0.465339 0.069372 0.033275 2.000000
0.465339 -0.080760 0.020996 2.000000
0.465339 -0.065616 0.034066 2.000000
0.465339 0.000142 0.007384 2.000000
0.465339 -0.073329 0.043502 2.000000
0.465339 0.071105 0.052918 2.000000
0.465339 0.086166 0.033436 2.000000
0.465339 0.077643 -0.062358 2.000000
0.465339 -0.024557 -0.059010 2.000000
0.465339 -0.071376 0.058833 2.000000
0.465339 -0.076636 0.042097 2.000000
0.465339 -0.069194 -0.031763 2.000000
0.465339 0.007718 -0.072949 2.000000
0.465339 -0.020253 -0.072353 2.000000
0.465339 -0.075160 0.029148 2.000000
0.465339 -0.061170 -0.075768 2.000000
0.465339 0.066686 -0.035414 2.000000
0.465339 0.064503 -0.003308 2.000000
0.465339 -0.039192 -0.064864 2.000000
0.465339 0.035139 0.030404 2.000000
0.465339 -0.065043 -0.062605 2.000000
0.465339 0.087049 -0.018428 2.000000
0.465339 -0.029617 0.052975 2.000000
0.465339 -0.069890 -0.013501 2.000000
0.465339 0.006049 -0.048059 2.000000
0.465339 0.023949 -0.014538 2.000000
0.465339 -0.031589 0.032730 2.000000
0.465339 -0.006246 -0.060196 2.000000
0.465339 -0.076586 -0.043599 2.000000
0.465339 0.056723 -0.045391 2.000000
0.465339 0.012648 -0.015200 2.000000
0.465339 -0.054216 -0.055513 2.000000
0.465339 -0.038085 -0.068787 2.000000
0.465339 0.058081 0.030201 2.000000
0.465339 -0.090670 -0.006290 2.000000
0.465339 0.017209 -0.054385 2.000000
0.465339 -0.084077 0.031987 2.000000
0.465339 -0.017370 0.081568 2.000000
0.465339 0.028924 0.028086 2.000000
0.465339 -0.014486 -0.022663 2.000000
0.465339 -0.011736 -0.049164 2.000000
0.465339 -0.016243 -0.051611 2.000000
0.465339 -0.061309 -0.026020 2.000000
0.465339 -0.009668 0.011843 2.000000
0.465339 0.038186 -0.037483 2.000000
0.465339 0.022936 -0.037696 2.000000
0.465339 0.061314 0.014458 2.000000
0.465339 -0.022938 0.061373 2.000000
0.465339 0.029348 0.000358 2.000000
0.465339 0.081801 -0.057031 2.000000
0.465339 0.027874 0.034042 2.000000
0.465339 0.031956 0.011344 2.000000
0.465339 -0.010618 0.076635 2.000000
0.465339 0.024437 -0.039161 2.000000
0.465339 -0.065538 -0.051221 2.000000
0.465339 0.059180 0.037977 2.000000
0.465339 -0.058623 -0.035923 2.000000
0.465339 0.001949 -0.075252 2.000000
0.465339 0.005526 0.068230 2.000000
0.465339 -0.047669 0.071155 2.000000
0.465339 0.090804 -0.022205 2.000000
0.465339 0.042301 0.039327 2.000000
0.465339 0.002635 0.009212 2.000000
0.465339 0.014381 -0.082207 2.000000
0.465339 0.018489 -0.029203 2.000000
0.465339 -0.012571 0.082765 2.000000
0.465339 -0.029126 -0.022499 2.000000
0.465339 -0.038182 -0.046748 2.000000
0.465339 0.064280 -0.050975 2.000000
0.465339 -0.019462 -0.063218 2.000000
0.465339 -0.032902 0.060729 2.000000
0.465339 -0.053162 -0.068291 2.000000
0.465339 0.070837 0.015675 2.000000
0.465339 -0.096884 -0.009588 2.000000
0.465339 0.092144 0.002113 2.000000
0.465339 0.047658 -0.085368 2.000000
0.465339 -0.024126 -0.074560 2.000000
0.465339 -0.021351 0.061756 2.000000
0.465339 0.086052 -0.025140 2.000000
0.465339 -0.029130 -0.051139 2.000000
0.465339 0.059768 -0.060742 2.000000
0.465339 0.011877 0.030080 2.000000
0.465339 0.046660 0.028654 2.000000
0.465339 0.044492 0.087707 2.000000
0.465339 0.059742 -0.031266 2.000000
0.465339 -0.048227 -0.056162 2.000000
0.465339 -0.041285 -0.036989 2.000000
0.465339 0.022834 0.051705 2.000000
0.465339 0.001180 0.071341 2.000000
0.465339 -0.060777 0.074588 2.000000
0.465339 0.078421 -0.029081 2.000000
0.465339 0.024801 0.026731 2.000000
0.465339 0.056920 0.072703 2.000000
0.465339 -0.024837 0.004996 2.000000
0.465339 -0.061835 0.007986 2.000000
0.465339 0.002271 0.037040 2.000000
0.465339 0.047150 -0.086929 2.000000
0.465339 0.071563 -0.009537 2.000000
0.465339 0.023969 -0.065156 2.000000
0.465339 0.062310 0.053400 2.000000
0.465339 -0.062603 -0.010665 2.000000
0.465339 -0.019074 -0.043719 2.000000
0.465339 -0.036679 0.070068 2.000000
0.465339 -0.045210 -0.049476 2.000000
0.465339 -0.024970 -0.092775 2.000000
0.465339 0.033826 -0.024088 2.000000
0.465339 0.089058 -0.038870 2.000000
0.465339 -0.005715 -0.061819 2.000000
0.465339 -0.017537 0.002496 2.000000
0.465339 0.090843 -0.008799 2.000000
0.465339 -0.083628 0.022489 2.000000
0.465339 -0.078232 -0.054985 2.000000
0.465339 -0.050444 0.069945 2.000000
0.465339 0.054310 -0.049895 2.000000
0.465339 0.019042 -0.047478 2.000000
0.465339 0.017566 0.079442 2.000000
0.465339 -0.046218 0.040886 2.000000
0.465339 0.049829 -0.081397 2.000000
0.465339 -0.033608 -0.084383 2.000000
0.465339 -0.031919 0.065934 2.000000
0.465339 -0.027102 0.040224 2.000000
0.465339 0.072401 0.018973 2.000000
0.465339 0.061819 0.048527 2.000000
0.465339 0.082578 0.014261 2.000000
0.465339 -0.079686 -0.059480 2.000000
0.465339 -0.032247 -0.067504 2.000000
0.465339 0.038480 0.074306 2.000000
0.465339 0.012847 0.007529 2.000000
0.465339 0.083700 -0.046974 2.000000
0.465339 0.061636 0.000964 2.000000
0.465339 0.052340 0.028917 2.000000
0.465339 -0.034875 -0.014539 2.000000
0.465339 0.029322 -0.032985 2.000000
0.465339 0.093919 -0.010618 2.000000
0.465339 -0.068496 -0.028606 2.000000
0.465339 0.060324 -0.042817 2.000000
0.465339 -0.023253 -0.026074 2.000000
0.465339 0.066540 0.002235 2.000000
0.465339 -0.071568 -0.038518 2.000000
0.465339 0.084934 -0.014129 2.000000
0.465339 -0.073201 0.015768 2.000000
0.465339 -0.037971 -0.020895 2.000000
0.465339 0.030606 -0.012319 2.000000
0.465339 0.007087 0.077662 2.000000
0.465339 0.057784 -0.068602 2.000000
0.465339 -0.083472 0.040811 2.000000
0.465339 0.083733 -0.029125 2.000000
0.465339 0.060461 0.065213 2.000000
0.465339 0.041715 0.048572 2.000000
0.465339 0.022588 -0.071746 2.000000
0.465339 -0.023408 -0.071941 2.000000
0.465339 0.010026 0.011094 2.000000
0.465339 -0.021221 -0.054796 2.000000
0.465339 0.055063 -0.040811 2.000000
0.465339 -0.039196 -0.052861 2.000000
0.465339 0.035458 0.060391 2.000000
0.465339 0.019355 0.042278 2.000000
0.465339 -0.061650 0.026299 2.000000
0.465339 -0.027478 0.092838 2.000000
0.465339 -0.048090 -0.073250 2.000000
0.465339 -0.037693 0.071073 2.000000
0.465339 0.053069 0.008415 2.000000
0.465339 -0.076377 0.005902 2.000000
0.465339 -0.042487 0.008485 2.000000
0.465339 -0.034837 0.072980 2.000000
0.465339 -0.042303 0.087464 2.000000
0.465339 -0.011180 -0.036462 2.000000
0.465339 -0.015612 -0.072938 2.000000
0.465339 0.002826 0.017274 2.000000
0.465339 -0.035551 0.026558 2.000000
0.465339 -0.067702 0.060136 2.000000
0.465339 -0.046895 -0.075748 2.000000
0.465339 -0.068996 0.057642 2.000000
0.465339 0.045552 0.034633 2.000000
0.465339 0.041511 -0.037751 2.000000
0.465339 -0.030795 -0.002177 2.000000
0.465339 0.012062 -0.004227 2.000000
0.465339 0.047345 0.059156 2.000000
0.465339 -0.086747 0.029910 2.000000
0.465339 0.034926 0.051169 2.000000
0.465339 0.011137 -0.053736 2.000000
0.465339 -0.053927 0.075188 2.000000
0.465339 -0.010203 -0.074566 2.000000
0.465339 -0.053779 -0.040512 2.000000
0.465339 -0.052024 0.000370 2.000000
0.465339 0.051492 0.081905 2.000000
0.465339 -0.054814 -0.057073 2.000000
0.465339 0.012645 0.057058 2.000000
0.465339 0.026120 0.061805 2.000000
0.465339 -0.073107 0.012458 2.000000
0.465339 0.000655 -0.062848 2.000000
0.465339 -0.091403 0.010813 2.000000
0.465339 -0.032642 0.043933 2.000000
0.465339 -0.006115 0.043459 2.000000
0.465339 0.052320 0.065946 2.000000
0.465339 -0.058636 -0.051214 2.000000
0.465339 0.043772 -0.080487 2.000000
0.465339 -0.030630 -0.042136 2.000000
0.465339 0.003784 0.099298 2.000000
0.465339 -0.003776 -0.022627 2.000000
0.465339 0.047314 0.050173 2.000000
0.465339 0.089655 0.025732 2.000000
0.465339 0.054541 0.080506 2.000000
0.465339 -0.075593 -0.059961 2.000000
0.465339 -0.005535 -0.019328 2.000000
0.465339 0.023439 0.063677 2.000000
0.465339 0.002718 -0.065576 2.000000
0.465339 -0.067942 0.017199 2.000000
0.465339 -0.025438 0.089904 2.000000
0.465339 0.001015 -0.025354 2.000000
0.465339 0.027974 0.011404 2.000000
0.465339 -0.032141 -0.002454 2.000000
0.465339 0.033265 0.038467 2.000000
0.465339 -0.035251 -0.072868 2.000000
0.465339 -0.003685 0.053428 2.000000
0.465339 -0.010392 0.021536 2.000000
0.465339 -0.047808 -0.074638 2.000000
0.465339 0.053168 0.071549 2.000000
0.465339 -0.079328 -0.048789 2.000000
0.465339 0.023578 -0.079473 2.000000
0.465339 0.047138 0.031336 2.000000
0.465339 0.005497 0.028011 2.000000
0.465339 0.013802 0.068276 2.000000
0.465339 -0.037371 0.072904 2.000000
0.465339 0.005259 0.033185 2.000000
0.465339 -0.012898 0.089362 2.000000
0.465339 0.035913 0.048780 2.000000
0.465339 0.050063 -0.023611 2.000000
0.465339 0.021345 0.019320 2.000000
0.465339 -0.012827 0.071141 2.000000
0.465339 -0.072213 0.014369 2.000000
0.465339 -0.058462 -0.074195 2.000000
0.465339 -0.005030 0.076195 2.000000
0.465339 0.007043 -0.003179 2.000000
0.465339 0.035293 -0.056013 2.000000
0.465339 -0.077447 -0.018332 2.000000
0.465339 -0.014598 0.093481 2.000000
0.465339 0.041782 0.015490 2.000000
0.465339 0.010824 0.099405 2.000000
0.465339 -0.031769 -0.093841 2.000000
0.465339 -0.059871 -0.039804 2.000000
0.465339 -0.027311 0.082207 2.000000
0.465339 -0.065379 0.014755 2.000000
0.465339 -0.014496 -0.031582 2.000000
0.465339 0.027725 -0.002635 2.000000
0.465339 0.055271 0.031941 2.000000
0.465339 -0.051457 0.023979 2.000000
0.465339 0.064194 0.066901 2.000000
0.465339 0.011837 0.096102 2.000000
0.465339 0.056096 -0.016548 2.000000
0.465339 0.020528 0.049090 2.000000
0.465339 0.038267 -0.084461 2.000000
0.465339 0.069734 0.028779 2.000000
0.465339 -0.024102 -0.070467 2.000000
0.465339 -0.039683 0.017221 2.000000
0.465339 -0.029964 -0.066537 2.000000
0.465339 0.063218 -0.029103 2.000000
0.465339 -0.039198 0.007245 2.000000
0.465339 0.071833 -0.044206 2.000000
0.465339 -0.061224 0.019052 2.000000
0.465339 0.037757 -0.013305 2.000000
0.465339 -0.003698 0.023910 2.000000
0.465339 -0.084420 0.013770 2.000000
0.465339 0.038966 0.036702 2.000000
0.465339 -0.035473 0.059340 2.000000
0.465339 0.037698 0.035429 2.000000
0.465339 -0.000063 -0.064108 2.000000
0.465339 0.039210 0.082684 2.000000
0.465339 -0.015375 -0.067506 2.000000
0.465339 -0.030979 -0.057362 2.000000
0.465339 0.010868 -0.088698 2.000000
0.465339 -0.091608 -0.007652 2.000000
0.465339 -0.013676 -0.011862 2.000000
0.465339 -0.034586 -0.019019 2.000000
0.465339 -0.079280 0.020047 2.000000
0.465339 -0.001377 -0.066682 2.000000
0.465339 0.022435 -0.094279 2.000000
0.465339 -0.058490 0.051741 2.000000
0.465339 -0.068428 -0.006334 2.000000
0.465339 0.019774 0.074594 2.000000
0.465339 -0.024773 0.088484 2.000000
0.465339 -0.061018 -0.053320 2.000000
0.465339 0.007625 0.012554 2.000000
0.465339 0.033169 -0.027548 2.000000
0.465339 0.072190 0.030947 2.000000
0.465339 -0.019097 0.086245 2.000000
0.465339 0.011925 0.087755 2.000000
0.465339 -0.015389 0.045210 2.000000
0.465339 -0.041152 0.013123 2.000000
0.465339 0.069790 0.019361 2.000000
0.465339 0.074333 -0.009312 2.000000
0.465339 0.028260 0.035685 2.000000
0.465339 -0.083743 -0.009298 2.000000
0.465339 0.009755 -0.080313 2.000000
0.465339 0.003955 -0.019972 2.000000
0.465339 0.094598 0.031845 2.000000
0.465339 -0.071481 -0.006951 2.000000
0.465339 0.027951 -0.019498 2.000000
0.465339 0.009013 0.037940 2.000000
0.465339 0.017947 0.075041 2.000000
0.465339 -0.051865 0.037539 2.000000
0.465339 0.058732 -0.043698 2.000000
0.465339 0.030437 0.069320 2.000000
0.465339 -0.068770 0.014986 2.000000
0.465339 -0.025506 0.093543 2.000000
0.465339 -0.070666 0.067453 2.000000
0.465339 -0.037144 0.014090 2.000000
0.465339 -0.067644 -0.069191 2.000000
0.465339 -0.018054 0.061883 2.000000
0.465339 -0.069549 0.007552 2.000000
0.465339 0.040968 -0.024713 2.000000
0.465339 -0.069873 -0.061078 2.000000
0.465339 -0.018918 -0.069023 2.000000
0.465339 -0.065472 -0.027337 2.000000
0.465339 -0.080713 -0.047319 2.000000
0.465339 0.011964 0.066146 2.000000
0.465339 0.000281 0.095345 2.000000
0.465339 0.007436 -0.084426 2.000000
0.465339 -0.075454 -0.049157 2.000000
0.465339 0.078498 0.017748 2.000000
0.465339 0.030976 0.053876 2.000000
0.465339 -0.020135 0.089661 2.000000
0.465339 -0.015964 0.017207 2.000000
0.465339 0.084834 -0.001809 2.000000
0.465339 -0.031039 0.003805 2.000000
0.465339 -0.003862 0.007282 2.000000
0.465339 0.031916 -0.007998 2.000000
0.465339 0.023422 -0.035821 2.000000
0.465339 0.047810 -0.063246 2.000000
0.465339 -0.038075 0.005920 2.000000
0.465339 0.095963 0.019768 2.000000
0.465339 0.051233 0.069315 2.000000
0.465339 -0.059758 0.035604 2.000000
0.465339 0.058830 -0.062671 2.000000
0.465339 0.020282 0.011741 2.000000
0.465339 0.077041 0.025109 2.000000
0.465339 0.080743 0.024511 2.000000
0.465339 -0.017266 0.040615 2.000000
0.465339 0.088672 0.027003 2.000000
0.465339 -0.005308 0.099865 2.000000
0.465339 0.013023 -0.067931 2.000000
0.465339 0.063208 0.045383 2.000000
0.465339 -0.065399 -0.070210 2.000000
0.465339 -0.091383 -0.015818 2.000000
0.465339 0.023548 -0.031978 2.000000
0.465339 0.026711 0.049347 2.000000
0.465339 -0.046283 -0.071629 2.000000
0.465339 0.054625 0.017399 2.000000
0.465339 -0.050808 0.074334 2.000000
0.465339 -0.004204 0.065775 2.000000
0.465339 0.066206 0.071273 2.000000
0.465339 -0.035826 0.013413 2.000000
0.465339 -0.080343 -0.039471 2.000000
0.465339 -0.081183 0.041414 2.000000
0.465339 0.052186 -0.014789 2.000000
0.465339 -0.063920 -0.027200 2.000000
0.465339 0.024947 -0.031531 2.000000
0.465339 0.056860 -0.025966 2.000000
0.465339 0.041105 -0.062828 2.000000
0.465339 0.039238 -0.057726 2.000000
0.465339 -0.098427 0.012650 2.000000
0.465339 -0.007625 -0.030397 2.000000
0.465339 0.057708 0.001642 2.000000
0.465339 -0.008046 -0.088904 2.000000
0.465339 0.057613 0.019706 2.000000
0.465339 -0.006517 -0.066537 2.000000
0.465339 -0.039391 -0.024141 2.000000
0.465339 0.071195 -0.052568 2.000000
0.465339 0.026481 -0.031873 2.000000
0.465339 -0.007493 0.038616 2.000000
0.465339 -0.054246 0.072853 2.000000
0.465339 -0.012873 -0.022192 2.000000
0.465339 0.052377 0.046086 2.000000
0.465339 0.049133 0.056606 2.000000
0.465339 -0.042332 -0.004176 2.000000
0.465339 0.083047 0.041383 2.000000
0.465339 0.012637 -0.059412 2.000000
0.465339 -0.053420 -0.081857 2.000000
0.465339 -0.030245 -0.027171 2.000000
0.465339 -0.006023 0.053107 2.000000
0.465339 -0.026315 -0.053917 2.000000
0.465339 0.019553 0.047867 2.000000
0.465339 0.054630 -0.023338 2.000000
0.465339 0.086254 0.050133 2.000000
0.465339 -0.033768 -0.009418 2.000000
0.465339 -0.090779 -0.020725 2.000000
0.465339 0.047311 0.081794 2.000000
0.465339 -0.025568 -0.065453 2.000000
0.465339 0.072520 0.053272 2.000000
0.465339 0.002320 -0.041148 2.000000
0.465339 0.059379 0.077636 2.000000
0.465339 -0.008288 0.088201 2.000000
0.465339 0.049194 -0.086719 2.000000
0.465339 -0.083152 0.018377 2.000000
0.465339 -0.091164 0.014129 2.000000
0.465339 -0.042170 0.031496 2.000000
0.465339 -0.000232 -0.043658 2.000000
0.465339 -0.076317 0.035999 2.000000
0.465339 0.071558 -0.057487 2.000000
0.465339 -0.062020 -0.045156 2.000000
0.465339 0.017261 -0.015572 2.000000
0.465339 0.045828 0.002097 2.000000
0.465339 0.026810 -0.053712 2.000000
0.465339 -0.094888 -0.028559 2.000000
0.465339 0.040500 0.049584 2.000000
0.465339 -0.016602 0.068513 2.000000
0.465339 -0.043715 0.073589 2.000000
0.465339 -0.033731 0.083445 2.000000
0.465339 0.084238 0.016890 2.000000
0.465339 -0.040042 0.082971 2.000000
0.465339 0.051323 0.061819 2.000000
0.465339 -0.056470 -0.042221 2.000000
0.465339 -0.055810 -0.035908 2.000000
0.465339 0.047622 0.061883 2.000000
0.465339 0.045777 0.047347 2.000000
0.465339 0.061802 -0.036115 2.000000
0.465339 -0.078165 -0.028081 2.000000
0.465339 -0.093068 -0.014708 2.000000
0.465339 -0.082755 -0.036639 2.000000
0.465339 0.062754 -0.039336 2.000000
0.465339 -0.013713 0.007495 2.000000
0.465339 -0.015378 0.005664 2.000000
0.465339 -0.001726 0.045629 2.000000
0.465339 -0.057161 0.020060 2.000000
0.465339 0.095457 -0.009565 2.000000
0.465339 -0.074185 -0.018600 2.000000
0.465339 0.035878 -0.068282 2.000000
0.465339 -0.022113 -0.059897 2.000000
0.465339 0.061189 0.057541 2.000000
0.465339 -0.039575 0.040561 2.000000
0.465339 0.007308 -0.028364 2.000000
0.465339 0.071187 0.036882 2.000000
0.465339 0.018911 -0.052025 2.000000
0.465339 0.028158 -0.006742 2.000000
0.465339 0.074539 0.060014 2.000000
0.465339 -0.062176 0.014493 2.000000
0.465339 0.098565 -0.012104 2.000000
0.465339 0.010239 -0.027473 2.000000
0.465339 0.036251 0.011594 2.000000
0.465339 -0.036816 -0.063588 2.000000
0.465339 -0.046591 0.076365 2.000000
0.465339 0.013281 0.092761 2.000000
0.465339 0.031946 -0.059031 2.000000
0.465339 -0.031008 0.013048 2.000000
0.465339 0.051019 -0.085455 2.000000
0.465339 -0.085255 0.051429 2.000000
0.465339 -0.019755 0.067266 2.000000
0.465339 -0.054870 -0.067883 2.000000
0.465339 -0.086249 0.002991 2.000000
0.465339 -0.002374 0.051029 2.000000
0.465339 -0.012835 -0.094566 2.000000
0.465339 0.044359 -0.014972 2.000000
0.465339 0.079590 -0.041226 2.000000
0.465339 -0.052010 -0.054569 2.000000
0.465339 -0.092772 0.020001 2.000000
0.465339 -0.086446 0.040762 2.000000
0.465339 -0.019351 0.019398 2.000000
0.465339 -0.029732 -0.040502 2.000000
0.465339 0.013184 -0.034929 2.000000
0.465339 0.014827 -0.021657 2.000000
0.465339 -0.004088 -0.042995 2.000000
0.465339 -0.058946 0.065831 2.000000
0.465339 0.041904 -0.041386 2.000000
0.465339 -0.018458 -0.025981 2.000000
0.465339 0.006134 0.074949 2.000000
0.465339 0.033358 -0.030381 2.000000
0.465339 0.026525 -0.045006 2.000000
0.465339 0.038851 -0.067616 2.000000
0.465339 0.010133 0.089318 2.000000
0.465339 -0.012176 0.074457 2.000000
0.465339 -0.062758 -0.073964 2.000000
0.465339 -0.053839 0.066980 2.000000
0.465339 0.022409 -0.013990 2.000000
0.465339 0.046041 -0.025602 2.000000
0.465339 -0.064414 -0.054023 2.000000
0.465339 0.032852 0.065741 2.000000
0.465339 0.039306 0.045939 2.000000
0.465339 0.030611 0.072162 2.000000
0.465339 0.049572 0.025769 2.000000
0.465339 0.084286 0.004444 2.000000
0.465339 -0.095302 -0.004689 2.000000
0.465339 -0.007477 0.072434 2.000000
0.465339 -0.020964 0.026196 2.000000
0.465339 -0.061059 0.078830 2.000000
0.465339 0.093456 0.035462 2.000000
0.465339 -0.076990 -0.016560 2.000000
0.465339 0.068358 -0.058628 2.000000
0.465339 -0.030386 -0.055735 2.000000
0.465339 -0.019228 0.032940 2.000000
0.465339 0.043927 -0.024466 2.000000
0.465339 -0.015344 -0.016465 2.000000
0.465339 -0.048924 -0.040423 2.000000
0.465339 0.041533 -0.030224 2.000000
0.465339 0.000982 0.017262 2.000000
0.465339 -0.026389 -0.045185 2.000000
0.465339 0.044724 0.057530 2.000000
0.465339 0.017519 0.098050 2.000000
0.465339 0.008093 -0.086757 2.000000
0.465339 -0.003331 0.035747 2.000000
0.465339 -0.017323 -0.086978 2.000000
0.465339 -0.017444 -0.084010 2.000000
0.465339 -0.014730 -0.006010 2.000000
0.465339 -0.021305 0.068454 2.000000
0.465339 -0.079709 0.004685 2.000000
0.465339 -0.082550 0.016881 2.000000
0.465339 0.081278 -0.002765 2.000000
0.465339 -0.015176 0.021975 2.000000
0.465339 0.055911 -0.051354 2.000000
0.465339 -0.081489 -0.006900 2.000000
0.465339 0.052615 -0.045490 2.000000
0.465339 0.061860 0.029768 2.000000
0.465339 -0.004589 0.045667 2.000000
0.465339 -0.019748 0.080022 2.000000
0.465339 0.054629 -0.072696 2.000000
0.465339 -0.013149 -0.046428 2.000000
0.465339 -0.081655 0.013853 2.000000
0.465339 -0.051538 -0.064620 2.000000
0.465339 0.074418 -0.005776 2.000000
0.465339 0.018511 -0.070948 2.000000
0.465339 -0.028293 -0.078543 2.000000
0.465339 -0.022571 0.000167 2.000000
0.465339 -0.027914 0.078823 2.000000
0.465339 -0.035868 -0.028291 2.000000
0.465339 0.067822 -0.014588 2.000000
0.465339 -0.014242 -0.054733 2.000000
0.465339 -0.069108 0.026268 2.000000
0.465339 -0.014134 0.073573 2.000000
0.465339 -0.002389 -0.007665 2.000000
0.465339 -0.009727 0.097283 2.000000
0.465339 0.016895 0.093078 2.000000
0.465339 -0.043600 0.019431 2.000000
0.465339 0.007071 0.049193 2.000000
0.465339 -0.071466 -0.023290 2.000000
0.465339 0.030463 -0.031328 2.000000
0.465339 0.000012 -0.001102 2.000000
0.465339 -0.036288 -0.011806 2.000000
0.465339 0.038202 -0.044068 2.000000
0.465339 -0.012160 0.024751 2.000000
0.465339 -0.076566 -0.028080 2.000000
0.465339 -0.015440 -0.050404 2.000000
0.465339 0.067324 -0.041659 2.000000
0.465339 0.082975 0.027326 2.000000
0.465339 0.032093 0.027820 2.000000
0.465339 0.069300 0.010517 2.000000
0.465339 0.008670 -0.069200 2.000000
0.465339 -0.008295 -0.014068 2.000000
0.465339 0.007662 0.059698 2.000000
0.465339 0.044366 0.037500 2.000000
0.465339 0.084473 0.039463 2.000000
0.465339 0.093670 -0.027747 2.000000
0.465339 -0.066200 -0.024961 2.000000
0.465339 0.031997 0.035199 2.000000
0.465339 -0.039094 0.010485 2.000000
0.465339 0.050020 0.079410 2.000000
0.465339 0.058788 -0.019593 2.000000
0.465339 0.003248 -0.029640 2.000000
0.465339 -0.002440 -0.075311 2.000000
0.465339 -0.067881 -0.043185 2.000000
0.465339 0.036234 0.009835 2.000000
0.465339 -0.006050 0.009722 2.000000
0.465339 -0.057575 0.073691 2.000000
0.465339 0.012955 -0.052955 2.000000
0.465339 -0.096369 0.025437 2.000000
0.465339 -0.045488 0.087666 2.000000
0.465339 -0.094097 0.021087 2.000000
0.465339 0.027830 0.053062 2.000000
0.465339 -0.033476 -0.004735 2.000000
0.465339 0.003615 -0.017178 2.000000
0.465339 -0.038311 0.003856 2.000000
0.465339 -0.070723 0.019534 2.000000
0.465339 -0.010935 -0.080862 2.000000
0.465339 -0.056537 -0.012640 2.000000
0.465339 0.040545 -0.011306 2.000000
0.465339 -0.090032 0.011181 2.000000
0.465339 -0.075356 0.002600 2.000000
0.465339 0.048910 -0.034404 2.000000
0.465339 -0.078415 0.041263 2.000000
0.465339 -0.003574 -0.008761 2.000000
0.465339 -0.050356 0.029848 2.000000
0.465339 0.047548 -0.009638 2.000000
0.465339 0.067227 0.050325 2.000000
0.465339 -0.032050 -0.072399 2.000000
0.465339 0.016813 -0.093980 2.000000
0.465339 -0.020405 0.085529 2.000000
0.465339 0.009837 0.046196 2.000000
0.465339 0.000031 0.067779 2.000000
0.465339 0.047518 0.063493 2.000000
0.465339 0.041964 -0.078905 2.000000
0.465339 -0.066513 0.035688 2.000000
0.465339 -0.052905 0.063214 2.000000
0.465339 0.088965 -0.042303 2.000000
0.465339 0.069116 -0.068137 2.000000
0.465339 -0.075042 0.041220 2.000000
0.465339 -0.007026 0.014793 2.000000
0.465339 0.081709 -0.011363 2.000000
0.465339 -0.013262 0.036703 2.000000
0.465339 0.030570 0.019651 2.000000
0.465339 -0.092360 -0.025206 2.000000
0.465339 -0.032409 0.000705 2.000000
0.465339 0.079587 0.041718 2.000000
0.465339 -0.056310 0.059717 2.000000
0.465339 -0.034680 0.025047 2.000000
0.465339 0.005265 0.043997 2.000000
0.465339 0.005558 -0.034228 2.000000
0.465339 -0.009905 0.039648 2.000000
0.465339 0.088174 -0.034641 2.000000
0.465339 -0.007174 -0.072627 2.000000
0.465339 0.005264 -0.064690 2.000000
0.465339 0.055370 0.063263 2.000000
0.465339 0.065517 -0.047016 2.000000
0.465339 -0.016265 -0.092016 2.000000
0.465339 -0.048497 0.018439 2.000000
0.465339 -0.052029 -0.067117 2.000000
0.465339 0.050002 -0.067577 2.000000
0.465339 0.024175 0.089544 2.000000
0.465339 -0.092843 -0.016722 2.000000
0.465339 -0.070692 -0.067120 2.000000
0.465339 -0.034321 -0.057059 2.000000
0.465339 -0.004112 0.020424 2.000000
0.465339 -0.002868 0.055864 2.000000
0.465339 -0.091481 -0.023096 2.000000
0.465339 0.002635 -0.068644 2.000000
0.465339 -0.059701 -0.020322 2.000000
0.465339 -0.046064 -0.077141 2.000000
0.465339 -0.068720 0.042748 2.000000
0.465339 -0.056159 -0.015864 2.000000
0.465339 0.030103 0.091420 2.000000
0.465339 -0.058289 0.003147 2.000000
0.465339 -0.005699 -0.020785 2.000000
0.465339 -0.021546 -0.091084 2.000000
0.465339 0.063193 0.006152 2.000000
0.465339 0.026047 0.087178 2.000000
0.465339 0.021608 0.023266 2.000000
0.465339 -0.030067 -0.058909 2.000000
0.465339 -0.015004 -0.074345 2.000000
0.465339 -0.011066 0.034963 2.000000
0.465339 -0.080924 -0.020928 2.000000
0.465339 -0.026356 -0.035751 2.000000
0.465339 0.074478 -0.033857 2.000000
0.465339 -0.045303 0.023587 2.000000
0.465339 -0.058260 0.017638 2.000000
0.465339 -0.033492 -0.017923 2.000000
0.465339 0.072199 -0.019799 2.000000
0.465339 -0.016355 0.090292 2.000000
0.465339 -0.066317 -0.023565 2.000000
0.465339 -0.025719 0.037922 2.000000
0.465339 0.080162 0.008915 2.000000
0.465339 -0.016184 0.091837 2.000000
0.465339 -0.041191 0.016186 2.000000
0.465339 -0.004931 -0.054088 2.000000
0.465339 0.008624 -0.034878 2.000000
0.465339 0.056281 -0.059912 2.000000
0.465339 -0.010441 0.005137 2.000000
0.465339 -0.063331 -0.001595 2.000000
0.465339 -0.042229 -0.080255 2.000000
0.465339 0.006027 -0.002000 2.000000
0.465339 -0.088598 -0.015440 2.000000
0.465339 0.010862 -0.098838 2.000000
0.465339 0.026769 0.078203 2.000000
0.465339 -0.037170 -0.043272 2.000000
0.465339 -0.046162 0.057423 2.000000
0.465339 0.007900 0.033256 2.000000
0.465339 0.060014 0.015069 2.000000
0.465339 -0.020063 0.041387 2.000000
0.465339 -0.012125 0.058380 2.000000
0.465339 0.065477 0.063281 2.000000
0.465339 -0.004313 -0.047643 2.000000
0.465339 0.055987 0.007650 2.000000
0.465339 0.028081 -0.052387 2.000000
0.465339 0.033280 0.076638 2.000000
0.465339 0.085696 -0.020778 2.000000
0.465339 0.014236 0.038205 2.000000
0.465339 -0.018047 0.015092 2.000000
0.465339 0.028127 -0.058373 2.000000
0.465339 0.025258 0.012948 2.000000
0.465339 0.065466 0.016990 2.000000
0.465339 -0.060880 0.043856 2.000000
0.465339 -0.026437 -0.051521 2.000000
0.465339 0.017600 0.071393 2.000000
0.465339 0.077049 0.043414 2.000000
0.465339 0.087412 -0.038669 2.000000
0.465339 0.015534 0.021250 2.000000
0.465339 0.079747 -0.009565 2.000000
0.465339 -0.056234 -0.029837 2.000000
0.465339 -0.062345 0.021523 2.000000
0.465339 0.018948 0.003121 2.000000
0.465339 0.016062 -0.046913 2.000000
0.465339 0.018327 0.060689 2.000000
0.465339 -0.033828 0.059632 2.000000
0.465339 -0.035230 -0.083335 2.000000
0.465339 0.019576 -0.044782 2.000000
0.465339 0.030003 -0.043087 2.000000
0.465339 -0.010916 0.030579 2.000000
0.465339 -0.038343 -0.034839 2.000000
0.465339 -0.019579 0.031538 2.000000
0.465339 0.071377 0.028278 2.000000
0.465339 -0.085027 0.033520 2.000000
0.465339 -0.019195 0.063680 2.000000
0.465339 -0.003222 0.009089 2.000000
0.465339 0.042801 0.063758 2.000000
0.465339 0.014305 -0.054802 2.000000
0.465339 -0.067373 -0.049073 2.000000
0.465339 0.014403 -0.067849 2.000000
0.465339 -0.048140 -0.000948 2.000000
0.465339 0.058908 0.073655 2.000000
0.465339 -0.073627 -0.042688 2.000000
0.465339 -0.044653 -0.080225 2.000000
0.465339 -0.048030 -0.077095 2.000000
0.465339 -0.069825 -0.001733 2.000000
0.465339 -0.022401 0.001991 2.000000
0.465339 0.068382 -0.038199 2.000000
0.465339 0.010986 -0.059172 2.000000
0.465339 -0.093386 0.003597 2.000000
0.465339 0.051048 0.063919 2.000000
0.465339 -0.008146 0.086679 2.000000
0.465339 -0.041913 -0.076055 2.000000
0.465339 0.060906 -0.061898 2.000000
0.465339 0.044697 -0.057458 2.000000
0.465339 0.015942 -0.058223 2.000000
0.465339 0.055199 -0.018152 2.000000
0.465339 -0.067972 -0.057119 2.000000
0.465339 -0.012480 0.053049 2.000000
0.465339 0.073102 -0.041013 2.000000
0.465339 -0.041478 0.065661 2.000000
0.465339 0.003170 -0.051819 2.000000
0.465339 -0.057629 0.023981 2.000000
0.465339 0.045574 -0.049160 2.000000
0.465339 0.046873 0.066453 2.000000
0.465339 0.001277 0.087601 2.000000
0.465339 -0.044946 -0.062838 2.000000
0.465339 -0.012757 -0.047913 2.000000
0.465339 0.044208 -0.067235 2.000000
0.465339 -0.058930 0.032917 2.000000
0.465339 0.030478 -0.006160 2.000000
0.465339 0.069598 -0.062649 2.000000
0.465339 0.026031 0.021188 2.000000
0.465339 0.062858 0.021961 2.000000
0.465339 -0.019623 -0.022619 2.000000
0.465339 0.030434 -0.052527 2.000000
0.465339 0.076535 -0.063459 2.000000
0.465339 -0.027345 0.037946 2.000000
0.465339 0.008208 0.050528 2.000000
0.465339 0.039653 -0.018167 2.000000
0.465339 -0.088863 0.045462 2.000000
0.465339 -0.060598 0.030379 2.000000
0.465339 0.040833 0.029829 2.000000
0.465339 -0.052422 0.015020 2.000000
0.465339 0.021042 0.014180 2.000000
0.465339 -0.063392 -0.044264 2.000000
0.465339 -0.027447 -0.071414 2.000000
0.465339 0.042479 0.035383 2.000000
0.465339 0.087232 0.019613 2.000000
0.465339 -0.047302 0.060470 2.000000
0.465339 -0.067407 0.025549 2.000000
0.465339 0.018525 -0.011736 2.000000
0.465339 -0.031705 0.022815 2.000000
0.465339 -0.024858 0.034442 2.000000
0.465339 0.009115 -0.031514 2.000000
0.465339 -0.068344 0.041376 2.000000
0.465339 -0.000458 0.052842 2.000000
0.465339 0.002013 0.023917 2.000000
0.465339 0.032370 -0.015225 2.000000
0.465339 0.066299 -0.008750 2.000000
0.465339 -0.079513 -0.002462 2.000000
0.465339 -0.047156 -0.011715 2.000000
0.465339 0.065653 0.003482 2.000000
0.465339 0.062143 -0.053276 2.000000
0.465339 0.007354 0.068860 2.000000
0.465339 -0.043776 0.079857 2.000000
0.465339 -0.011173 0.038435 2.000000
0.465339 0.045129 0.008815 2.000000
0.465339 0.018803 0.009421 2.000000
0.465339 -0.018051 -0.051771 2.000000
0.465339 0.073181 0.022430 2.000000
0.465339 -0.026150 -0.088702 2.000000
0.465339 -0.033872 -0.028244 2.000000
0.465339 0.022530 0.020859 2.000000
0.465339 0.055204 0.013139 2.000000
0.465339 0.015714 -0.069334 2.000000
0.465339 0.080306 0.033708 2.000000
0.465339 0.044098 -0.065606 2.000000
0.465339 0.060512 -0.071674 2.000000
0.465339 0.046209 0.014251 2.000000
0.465339 0.008856 0.069929 2.000000
0.465339 0.025212 -0.011477 2.000000
0.465339 0.092314 0.029871 2.000000
0.465339 -0.011965 0.044163 2.000000
0.465339 -0.038735 -0.019572 2.000000
0.465339 -0.014524 0.064562 2.000000
0.465339 0.062763 0.075453 2.000000
0.465339 0.043743 0.017393 2.000000
0.465339 0.052250 -0.025443 2.000000
0.465339 0.062223 -0.005521 2.000000
0.465339 0.020593 0.062842 2.000000
0.465339 -0.037798 0.000611 2.000000
0.465339 -0.022720 0.034969 2.000000
0.465339 0.008428 -0.011047 2.000000
0.465339 -0.075757 0.052438 2.000000
0.465339 0.033921 0.042453 2.000000
0.465339 0.016590 -0.033844 2.000000
0.465339 -0.055261 -0.011814 2.000000
0.465339 -0.047629 -0.052377 2.000000
0.465339 -0.023897 0.044894 2.000000
0.465339 -0.023819 0.095732 2.000000
0.465339 0.031264 -0.029877 2.000000
0.465339 0.028399 0.021088 2.000000
0.465339 -0.010333 -0.043158 2.000000
0.465339 0.014591 -0.036242 2.000000
0.465339 -0.010085 -0.071318 2.000000
0.465339 -0.037825 0.009305 2.000000
0.465339 0.090279 -0.003559 2.000000
0.465339 0.010137 0.012640 2.000000
0.465339 0.070602 -0.006903 2.000000
0.465339 -0.050104 0.005233 2.000000
0.465339 0.036256 -0.045215 2.000000
0.465339 0.008419 -0.055242 2.000000
0.465339 -0.059784 -0.005533 2.000000
0.465339 0.050703 -0.014106 2.000000
0.465339 0.092584 -0.007091 2.000000
0.465339 0.040741 -0.019649 2.000000
0.465339 0.073421 0.041274 2.000000
0.465339 0.056328 -0.039994 2.000000
0.465339 -0.068605 -0.021392 2.000000
0.465339 0.002013 0.092796 2.000000
0.465339 0.071529 -0.049134 2.000000
0.465339 0.046358 -0.076200 2.000000
0.465339 -0.059389 0.062844 2.000000
0.465339 -0.067325 0.050778 2.000000
0.465339 0.093018 -0.017654 2.000000
0.465339 0.094603 0.014753 2.000000
0.465339 0.010145 0.038882 2.000000
0.465339 -0.064854 0.039146 2.000000
0.465339 0.020588 0.032134 2.000000
0.465339 -0.005659 0.086183 2.000000
0.465339 0.055608 -0.074213 2.000000
0.465339 0.003014 -0.083062 2.000000
0.465339 0.028883 0.070611 2.000000
0.465339 -0.031069 0.043728 2.000000
0.465339 0.020043 -0.034602 2.000000
0.465339 0.003527 0.023567 2.000000
0.465339 0.030026 -0.068865 2.000000
0.465339 0.033434 0.047915 2.000000
0.465339 -0.026711 -0.001152 2.000000
0.465339 0.022935 -0.063668 2.000000
0.465339 -0.041415 0.083839 2.000000
0.465339 -0.016895 0.043418 2.000000
0.465339 -0.004165 -0.006249 2.000000
0.465339 -0.030617 -0.045714 2.000000
0.465339 0.002557 0.088802 2.000000
0.465339 -0.022169 0.076300 2.000000
0.465339 -0.018156 0.012892 2.000000
0.465339 -0.013922 -0.014972 2.000000
0.465339 0.037693 0.016243 2.000000
0.465339 0.083817 -0.033927 2.000000
0.465339 -0.050256 0.036516 2.000000
0.465339 0.048941 0.029466 2.000000
0.465339 -0.025628 0.044831 2.000000
0.465339 0.017946 -0.031831 2.000000
0.465339 0.066226 0.036832 2.000000
0.465339 -0.073650 0.060699 2.000000
0.465339 0.053297 -0.067879 2.000000
0.465339 0.043386 0.072811 2.000000
0.465339 0.029846 0.066153 2.000000
0.465339 0.004899 -0.096831 2.000000
0.465339 -0.047736 -0.086807 2.000000
0.465339 0.051533 -0.028780 2.000000
0.465339 -0.037035 -0.077468 2.000000
0.465339 -0.036728 0.087954 2.000000
0.465339 -0.034348 -0.069577 2.000000
0.465339 -0.037961 0.041388 2.000000
0.465339 0.079646 0.010350 2.000000
0.465339 -0.077179 -0.039652 2.000000
0.465339 0.062939 -0.043504 2.000000
0.465339 0.072452 -0.053590 2.000000
0.465339 0.051562 -0.018865 2.000000
0.465339 0.054101 -0.041886 2.000000
0.465339 0.078681 -0.010810 2.000000
0.465339 0.007786 0.039027 2.000000
0.465339 -0.076414 0.008611 2.000000
0.465339 0.034050 0.052911 2.000000
0.465339 0.035215 -0.085948 2.000000
0.465339 -0.003757 -0.095462 2.000000
0.465339 0.023367 0.095477 2.000000
0.465339 -0.065139 -0.034081 2.000000
0.465339 0.072218 -0.066168 2.000000
0.465339 -0.027300 -0.075046 2.000000
0.465339 0.055899 0.081530 2.000000
0.465339 -0.023457 0.047848 2.000000
0.465339 -0.032885 0.089946 2.000000
0.465339 0.061775 -0.011977 2.000000
0.465339 0.082957 0.015810 2.000000
0.465339 -0.077973 -0.047589 2.000000
0.465339 0.003285 0.090689 2.000000
0.465339 0.083536 -0.019215 2.000000
0.465339 0.087704 0.008161 2.000000
0.465339 0.010614 0.028175 2.000000
0.465339 0.030898 0.082238 2.000000
0.465339 0.034863 0.012645 2.000000
0.465339 -0.012563 -0.002601 2.000000
0.465339 0.032967 0.064228 2.000000
0.465339 -0.073075 -0.026642 2.000000
0.465339 0.057917 -0.030458 2.000000
0.465339 -0.003537 -0.037245 2.000000
0.465339 0.087223 -0.022082 2.000000
0.465339 0.047237 -0.066497 2.000000
0.465339 -0.022134 -0.081051 2.000000
0.465339 0.053665 0.003341 2.000000
0.465339 -0.074014 0.032563 2.000000
0.465339 -0.059395 0.070653 2.000000
0.465339 0.001477 -0.056551 2.000000
0.465339 -0.031683 0.080655 2.000000
0.465339 -0.034978 0.049131 2.000000
0.465339 0.010006 0.042910 2.000000
0.465339 -0.031534 0.076548 2.000000
0.465339 0.058824 0.076372 2.000000
0.465339 0.070443 -0.043732 2.000000
0.465339 0.034462 0.089346 2.000000
0.465339 0.049030 0.049997 2.000000
0.465339 0.037694 0.082578 2.000000
0.465339 0.015247 -0.064969 2.000000
0.465339 -0.075906 0.063926 2.000000
0.465339 -0.025276 -0.071698 2.000000
0.465339 0.063636 -0.069564 2.000000
0.465339 -0.028824 0.081678 2.000000
0.465339 -0.042855 -0.021623 2.000000
0.465339 0.056151 0.069760 2.000000
0.465339 0.060292 -0.063235 2.000000
0.465339 0.068724 -0.029480 2.000000
0.465339 -0.071828 0.016818 2.000000
0.465339 0.047147 -0.022463 2.000000
0.465339 0.077686 -0.009806 2.000000
0.465339 0.056871 -0.072815 2.000000
0.465339 -0.044936 -0.001805 2.000000
0.465339 -0.058075 -0.026431 2.000000
0.465339 -0.065692 0.002848 2.000000
0.465339 0.008858 0.020723 2.000000
0.465339 -0.053854 0.025446 2.000000
0.465339 0.016293 -0.061827 2.000000
0.465339 0.049950 -0.073836 2.000000
0.465339 -0.037833 0.011103 2.000000
0.465339 0.013951 0.043430 2.000000
0.465339 -0.072817 -0.059823 2.000000
0.465339 -0.038405 0.063265 2.000000
0.465339 0.021891 0.002765 2.000000
0.465339 -0.045339 0.079235 2.000000
0.465339 -0.043667 0.016566 2.000000
0.465339 0.015678 0.037662 2.000000
0.465339 0.056826 0.054404 2.000000
0.465339 -0.042684 -0.056387 2.000000
0.465339 0.052971 -0.058011 2.000000
0.465339 -0.066055 -0.015923 2.000000
0.465339 0.047232 -0.007964 2.000000
0.465339 0.008726 -0.051884 2.000000
0.465339 -0.087111 -0.030356 2.000000
0.465339 -0.033965 0.051689 2.000000
0.465339 0.021036 -0.048033 2.000000
0.465339 0.025529 0.022637 2.000000
0.465339 -0.065517 -0.040045 2.000000
0.465339 -0.055546 -0.053591 2.000000
0.465339 -0.001183 0.089002 2.000000
0.465339 -0.008513 -0.057567 2.000000
0.465339 -0.067593 -0.015707 2.000000
0.465339 0.008490 -0.064630 2.000000
0.465339 0.047346 0.009964 2.000000
0.465339 -0.019208 0.010003 2.000000
0.465339 0.076202 -0.001209 2.000000
0.465339 -0.048834 -0.079298 2.000000
0.465339 0.002284 -0.086495 2.000000
0.465339 0.064171 0.032546 2.000000
0.465339 0.041929 -0.046665 2.000000
0.465339 0.015142 -0.040398 2.000000
0.465339 0.049876 0.040267 2.000000
0.465339 0.053914 -0.036680 2.000000
0.465339 -0.009423 0.022853 2.000000
0.465339 0.052647 -0.082776 2.000000
0.465339 -0.027251 -0.046704 2.000000
0.465339 -0.034097 0.054690 2.000000
0.465339 -0.046883 0.034285 2.000000
0.465339 0.012200 -0.048696 2.000000
0.465339 -0.038989 0.002485 2.000000
0.465339 -0.085338 0.037636 2.000000
0.465339 -0.037743 -0.016412 2.000000
0.465339 0.081265 0.019763 2.000000
0.465339 -0.034193 -0.035164 2.000000
0.465339 -0.001706 0.008267 2.000000
0.465339 0.025131 0.066924 2.000000
0.465339 -0.030424 0.061449 2.000000
0.465339 -0.041822 0.082182 2.000000
0.465339 0.099340 -0.010685 2.000000
0.465339 -0.057857 -0.011976 2.000000
0.465339 0.038890 -0.064035 2.000000
0.465339 -0.088071 -0.000254 2.000000
0.465339 -0.036347 -0.015909 2.000000
0.465339 -0.041997 0.017723 2.000000
0.465339 -0.015848 0.056053 2.000000
0.465339 -0.049468 0.012306 2.000000
0.465339 0.055496 -0.020193 2.000000
0.465339 0.061092 0.061796 2.000000
0.465339 -0.023528 -0.078593 2.000000
0.465339 -0.032623 -0.035779 2.000000
0.465339 -0.022468 0.008779 2.000000
0.465339 0.063708 -0.049641 2.000000
0.465339 -0.043903 0.076929 2.000000
0.465339 0.008284 0.089293 2.000000
0.465339 0.083472 0.032772 2.000000
0.465339 0.077003 0.017022 2.000000
0.465339 -0.048644 0.007280 2.000000
0.465339 -0.013676 -0.026837 2.000000
0.465339 0.018431 -0.067270 2.000000
0.465339 -0.063466 -0.035492 2.000000
0.465339 0.069034 0.052262 2.000000
0.465339 -0.072217 0.031585 2.000000
0.465339 0.017459 0.077926 2.000000
0.465339 0.054728 0.036498 2.000000
0.465339 -0.020881 0.000486 2.000000
0.465339 -0.086751 -0.018777 2.000000
0.465339 0.081758 -0.049948 2.000000
0.465339 0.028173 0.004924 2.000000
0.465339 -0.037277 0.026946 2.000000
0.465339 -0.025767 0.006906 2.000000
0.465339 0.064929 0.028401 2.000000
0.465339 0.023380 -0.002066 2.000000
0.465339 -0.012197 -0.088501 2.000000
0.465339 0.067009 0.025021 2.000000
0.465339 0.081117 -0.007495 2.000000
0.465339 0.030273 0.035667 2.000000
0.465339 0.060755 0.063676 2.000000
0.465339 0.001637 -0.032223 2.000000
0.465339 0.060325 0.022911 2.000000
0.465339 0.040645 -0.055397 2.000000
0.465339 0.036299 0.081726 2.000000
0.465339 -0.050607 0.078942 2.000000
0.465339 -0.066029 0.027429 2.000000
0.465339 -0.037674 0.065934 2.000000
0.465339 -0.035321 0.070225 2.000000
0.465339 -0.042857 -0.078859 2.000000
0.465339 -0.040687 -0.083661 2.000000
0.465339 0.035478 0.073233 2.000000
0.465339 0.058351 0.015367 2.000000
0.465339 -0.020705 -0.047877 2.000000
0.465339 0.018548 -0.084404 2.000000
0.465339 -0.073934 0.048753 2.000000
0.465339 -0.031690 -0.015212 2.000000
0.465339 0.008966 -0.057607 2.000000
0.465339 0.078178 -0.056651 2.000000
0.465339 0.047556 -0.048276 2.000000
0.465339 -0.085556 0.016679 2.000000
0.465339 -0.024199 -0.068906 2.000000
0.465339 -0.046909 -0.029669 2.000000
0.465339 0.021211 -0.030640 2.000000
0.465339 -0.073279 -0.049161 2.000000
0.465339 -0.002244 -0.052766 2.000000
0.465339 -0.010993 0.042360 2.000000
0.465339 0.074464 0.014325 2.000000
0.465339 0.028596 -0.031813 2.000000
0.465339 0.038633 -0.041736 2.000000
0.465339 0.065018 -0.013346 2.000000
0.465339 -0.009403 -0.032913 2.000000
0.465339 -0.052643 0.040954 2.000000
0.465339 0.086599 -0.034580 2.000000
0.465339 0.086228 -0.006433 2.000000
0.465339 -0.027792 -0.017754 2.000000
0.465339 -0.017777 -0.094999 2.000000
0.465339 0.023755 -0.050876 2.000000
0.465339 0.072902 0.014648 2.000000
0.465339 -0.019219 0.037173 2.000000
0.465339 -0.049571 -0.052409 2.000000
0.465339 -0.042212 -0.032517 2.000000
0.465339 0.068748 0.058737 2.000000
0.465339 -0.045498 0.046864 2.000000
0.465339 0.003256 0.095007 2.000000
0.465339 0.014678 0.094012 2.000000
0.465339 0.038794 -0.060566 2.000000
0.465339 -0.050384 -0.015762 2.000000
0.465339 -0.004431 0.052276 2.000000
0.465339 0.006678 0.090943 2.000000
0.465339 -0.051088 -0.039933 2.000000
0.465339 0.048482 -0.077250 2.000000
0.465339 -0.066806 0.062985 2.000000
0.465339 0.042262 -0.061508 2.000000
0.465339 0.008365 0.046815 2.000000
0.465339 -0.016913 -0.063260 2.000000
0.465339 -0.033225 -0.058114 2.000000
0.465339 0.003518 0.066822 2.000000
0.465339 -0.074749 -0.007535 2.000000
0.465339 -0.018510 0.008305 2.000000
0.465339 -0.025332 -0.018054 2.000000
0.465339 0.017224 -0.063899 2.000000
0.465339 0.066859 0.018404 2.000000
0.465339 0.043310 0.079045 2.000000
0.465339 -0.050756 0.066208 2.000000
0.465339 0.041540 0.056487 2.000000
0.465339 0.002388 0.056588 2.000000
0.465339 0.071835 0.069411 2.000000
0.465339 0.064954 0.001584 2.000000
0.465339 -0.033834 -0.077048 2.000000
0.465339 0.021598 0.059497 2.000000
0.465339 0.020238 0.015695 2.000000
0.465339 -0.091287 0.034670 2.000000
0.465339 -0.055719 -0.076483 2.000000
0.465339 -0.059052 -0.037376 2.000000
0.465339 0.076030 0.006116 2.000000
0.465339 0.092888 -0.035124 2.000000
0.465339 0.000327 0.023575 2.000000
0.465339 0.010713 -0.069379 2.000000
0.465339 -0.030495 0.045141 2.000000
0.465339 0.042568 0.044201 2.000000
0.465339 -0.037788 0.007677 2.000000
0.465339 0.037635 0.042264 2.000000
0.465339 0.025790 -0.047458 2.000000
0.465339 0.052988 0.034667 2.000000
0.465339 -0.070017 0.016451 2.000000
0.465339 0.005254 -0.058646 2.000000
0.465339 -0.038400 -0.083298 2.000000
0.465339 0.016900 -0.090913 2.000000
0.465339 -0.028987 -0.012216 2.000000
0.465339 -0.056778 0.042119 2.000000
0.465339 0.039307 -0.029428 2.000000
0.465339 -0.019364 0.038752 2.000000
0.465339 -0.060906 -0.032057 2.000000
0.465339 0.046727 -0.003954 2.000000
0.465339 0.059723 0.071796 2.000000
0.465339 0.010299 -0.081971 2.000000
0.465339 0.083922 -0.042865 2.000000
0.465339 0.005388 0.020991 2.000000
0.465339 -0.043910 -0.032131 2.000000
0.465339 -0.030819 0.053824 2.000000
0.465339 -0.062674 -0.032876 2.000000
0.465339 -0.071601 0.025492 2.000000
0.465339 0.033827 0.080886 2.000000
0.465339 -0.049142 0.034845 2.000000
0.465339 0.026689 0.081775 2.000000
0.465339 -0.000835 0.057862 2.000000
0.465339 0.040207 0.078368 2.000000
0.465339 0.025617 -0.061354 2.000000
0.465339 -0.029135 0.070121 2.000000
0.465339 -0.052207 -0.062022 2.000000
0.465339 -0.026176 0.095221 2.000000
0.465339 0.063405 0.036525 2.000000
0.465339 -0.060309 0.047885 2.000000
0.465339 -0.006066 -0.014008 2.000000
0.465339 -0.032440 0.042563 2.000000
0.465339 -0.049013 -0.049769 2.000000
0.465339 -0.069347 0.003173 2.000000
0.465339 0.037226 -0.011911 2.000000
0.465339 -0.007227 0.039993 2.000000
0.465339 -0.025590 0.063452 2.000000
0.465339 -0.018298 0.047024 2.000000
0.465339 0.006208 -0.030001 2.000000
0.465339 0.014773 0.064061 2.000000
0.465339 0.005118 -0.032314 2.000000
0.465339 0.057633 0.074937 2.000000
0.465339 -0.040484 0.008270 2.000000
0.465339 -0.081626 -0.028790 2.000000
0.465339 -0.009868 -0.040523 2.000000
0.465339 -0.064258 0.069898 2.000000
0.465339 0.090599 -0.007381 2.000000
0.465339 0.081221 0.000443 2.000000
0.465339 -0.054518 0.017154 2.000000
0.465339 0.014944 0.041623 2.000000
0.465339 -0.030414 0.005355 2.000000
0.465339 -0.079082 -0.018972 2.000000
0.465339 0.088367 0.004174 2.000000
0.465339 0.044151 0.080741 2.000000
0.465339 0.033634 -0.056166 2.000000
0.465339 -0.034478 -0.061302 2.000000
0.465339 0.009085 0.097006 2.000000
0.465339 0.047208 -0.028105 2.000000
0.465339 -0.040004 -0.038030 2.000000
0.465339 0.073320 -0.042538 2.000000
0.465339 -0.021252 -0.067112 2.000000
0.465339 -0.025894 0.049770 2.000000
0.465339 -0.028022 -0.086182 2.000000
0.465339 0.017104 -0.030466 2.000000
0.465339 0.005214 0.065775 2.000000
0.465339 -0.033120 -0.049990 2.000000
0.465339 0.003925 -0.079986 2.000000
0.465339 0.078549 -0.027499 2.000000
0.465339 -0.018958 -0.012083 2.000000
0.465339 0.069864 0.057532 2.000000
0.465339 0.009230 0.028615 2.000000
0.465339 -0.040720 0.051663 2.000000
0.465339 -0.073053 0.009090 2.000000
0.465339 -0.070354 -0.047362 2.000000
0.465339 0.075595 0.027034 2.000000
0.465339 -0.056284 -0.050744 2.000000
0.465339 0.064776 0.056835 2.000000
0.465339 -0.042244 0.051246 2.000000
0.465339 0.077162 -0.011100 2.000000
0.465339 0.064388 -0.054325 2.000000
0.465339 0.050171 -0.035032 2.000000
0.465339 0.032801 -0.073671 2.000000
0.465339 0.058174 -0.057282 2.000000
0.465339 0.045623 -0.018235 2.000000
0.465339 -0.026648 0.024922 2.000000
0.465339 -0.050378 -0.009643 2.000000
0.465339 -0.047139 0.015521 2.000000
0.465339 -0.035478 0.053387 2.000000
0.465339 0.084069 -0.053635 2.000000
0.465339 0.050314 -0.040337 2.000000
0.465339 -0.008677 0.035485 2.000000
0.465339 0.053783 0.067142 2.000000
0.465339 0.000296 -0.004882 2.000000
0.465339 -0.000893 -0.055768 2.000000
0.465339 -0.029509 0.046281 2.000000
0.465339 0.066419 -0.070652 2.000000
0.465339 0.045509 -0.088196 2.000000
0.465339 0.085152 -0.045390 2.000000
0.465339 0.013639 -0.090353 2.000000
0.465339 -0.037518 0.089688 2.000000
0.465339 0.049620 -0.008331 2.000000
0.465339 -0.026863 -0.095788 2.000000
0.465339 -0.051170 0.063511 2.000000
0.465339 0.060601 -0.002294 2.000000
0.465339 0.068156 0.054810 2.000000
0.465339 0.093414 0.006701 2.000000
0.465339 -0.056435 0.071554 2.000000
0.465339 -0.064046 0.003362 2.000000
0.465339 -0.092838 0.036402 2.000000
0.465339 -0.049268 -0.054578 2.000000
