-0.466955 0.007712 -0.095478 3.000000
-0.466955 -0.057397 0.051490 3.000000
-0.466955 0.046542 -0.067248 3.000000
-0.466955 0.029102 0.031968 3.000000
-0.466955 -0.036063 -0.045816 3.000000
-0.466955 -0.093493 0.033772 3.000000
-0.466955 0.015002 0.060616 3.000000
-0.466955 -0.058038 -0.060032 3.000000
-0.466955 0.032918 0.060480 3.000000
-0.466955 0.036725 0.028442 3.000000
-0.466955 0.085408 0.010485 3.000000
-0.466955 -0.029460 -0.025132 3.000000
-0.466955 0.048707 -0.004531 3.000000
-0.466955 0.027448 -0.088478 3.000000
-0.466955 0.044956 0.012447 3.000000
-0.466955 0.038465 -0.060832 3.000000
-0.466955 -0.067352 0.063317 3.000000
-0.466955 -0.056588 0.022410 3.000000
-0.466955 -0.040851 -0.067649 3.000000
-0.466955 -0.067919 0.035097 3.000000
-0.466955 0.020456 0.001493 3.000000
-0.466955 -0.045977 -0.053236 3.000000
-0.466955 -0.098026 -0.000200 3.000000
-0.466955 0.073915 -0.044982 3.000000
-0.466955 0.032544 -0.007994 3.000000
-0.466955 -0.057762 0.042582 3.000000
-0.466955 -0.004112 -0.083085 3.000000
-0.466955 0.028703 -0.021455 3.000000
-0.466955 0.004553 -0.008928 3.000000
-0.466955 0.057418 -0.044339 3.000000
-0.466955 0.052714 -0.004545 3.000000
-0.466955 0.062068 -0.052298 3.000000
-0.466955 0.008223 -0.084042 3.000000
-0.466955 -0.027443 -0.045927 3.000000
-0.466955 -0.077302 -0.000312 3.000000
-0.466955 -0.018461 -0.005829 3.000000
-0.466955 -0.068907 0.040202 3.000000
-0.466955 -0.099141 -0.006180 3.000000
-0.466955 -0.034419 -0.007872 3.000000
-0.466955 -0.066763 0.030133 3.000000
-0.466955 -0.008665 -0.031583 3.000000
-0.466955 -0.012654 -0.051297 3.000000
-0.466955 -0.072938 0.025092 3.000000
-0.466955 -0.071693 0.037554 3.000000
-0.466955 -0.059516 -0.040096 3.000000
-0.466955 -0.060248 -0.047618 3.000000
-0.466955 -0.035465 -0.055661 3.000000
-0.466955 -0.002770 -0.069566 3.000000
-0.466955 0.059822 0.076772 3.000000
-0.466955 0.026864 -0.060635 3.000000
-0.466955 0.018773 0.053103 3.000000
-0.466955 0.013661 0.069886 3.000000
-0.466955 -0.064363 0.002154 3.000000
-0.466955 -0.062841 0.052454 3.000000
-0.466955 -0.034093 -0.033920 3.000000
-0.466955 0.071674 0.057891 3.000000
-0.466955 0.063459 -0.070211 3.000000
-0.466955 -0.029768 -0.058949 3.000000
-0.466955 0.087399 -0.043731 3.000000
-0.466955 -0.019056 -0.021143 3.000000
-0.466955 -0.057459 0.029178 3.000000
-0.466955 -0.039374 -0.011213 3.000000
-0.466955 -0.016698 -0.013061 3.000000
-0.466955 -0.060702 -0.022829 3.000000
-0.466955 0.091901 -0.008047 3.000000
-0.466955 -0.078063 0.045895 3.000000
-0.466955 -0.014394 -0.069766 3.000000
-0.466955 -0.000934 0.034676 3.000000
-0.466955 0.030704 -0.043687 3.000000
-0.466955 -0.020364 0.013593 3.000000
-0.466955 -0.029494 -0.068673 3.000000
-0.466955 -0.052294 -0.065464 3.000000
-0.466955 0.085937 0.020008 3.000000
-0.466955 0.054464 0.024552 3.000000
-0.466955 -0.091674 0.008333 3.000000
-0.466955 -0.070474 -0.008800 3.000000
-0.466955 0.002547 0.018434 3.000000
-0.466955 0.086426 0.000053 3.000000
-0.466955 0.024430 -0.081311 3.000000
-0.466955 0.083143 0.016252 3.000000
-0.466955 0.047087 0.006390 3.000000
-0.466955 0.031015 -0.086409 3.000000
-0.466955 0.090859 -0.001966 3.000000
-0.466955 0.023809 -0.020146 3.000000
-0.466955 0.084688 -0.028478 3.000000
-0.466955 -0.026711 0.006670 3.000000
-0.466955 0.020946 -0.020653 3.000000
-0.466955 0.016369 0.093490 3.000000
-0.466955 0.094456 -0.009197 3.000000
-0.466955 0.042152 0.071855 3.000000
-0.466955 -0.070905 -0.053878 3.000000
-0.466955 0.003634 -0.079035 3.000000
-0.466955 0.018346 -0.022078 3.000000
-0.466955 -0.049448 -0.067428 3.000000
-0.466955 0.037846 0.083686 3.000000
-0.466955 -0.004871 -0.098416 3.000000
-0.466955 0.051840 -0.048638 3.000000
-0.466955 -0.065889 0.031822 3.000000
-0.466955 -0.068342 0.011053 3.000000
-0.466955 -0.089785 -0.019669 3.000000
-0.466955 0.047606 0.072680 3.000000
-0.466955 -0.004054 0.096356 3.000000
-0.466955 0.022144 0.094925 3.000000
-0.466955 0.017841 -0.092364 3.000000
-0.466955 -0.005497 -0.084450 3.000000
-0.466955 0.030397 0.044068 3.000000
-0.466955 0.043078 -0.067666 3.000000
-0.466955 -0.071256 -0.046940 3.000000
-0.466955 0.007523 0.052748 3.000000
-0.466955 -0.020119 -0.016274 3.000000
-0.466955 0.002382 0.094711 3.000000
-0.466955 0.073886 -0.056174 3.000000
-0.466955 0.025110 0.082964 3.000000
-0.466955 0.002090 0.046826 3.000000
-0.466955 -0.046863 -0.067401 3.000000
-0.466955 -0.004123 -0.096995 3.000000
-0.466955 -0.042039 -0.039043 3.000000
-0.466955 -0.008017 -0.037301 3.000000
-0.466955 0.032410 0.089900 3.000000
-0.466955 -0.094062 0.032209 3.000000
-0.466955 -0.094397 -0.028613 3.000000
-0.466955 0.068994 -0.014492 3.000000
-0.466955 0.003658 0.025359 3.000000
-0.466955 -0.027250 -0.072938 3.000000
-0.466955 0.011032 -0.068087 3.000000
-0.466955 0.026214 0.080602 3.000000
-0.466955 0.019810 0.096984 3.000000
-0.466955 -0.094291 -0.024763 3.000000
-0.466955 0.035862 -0.091621 3.000000
-0.466955 0.088180 -0.042457 3.000000
-0.466955 0.039489 -0.004805 3.000000
-0.466955 -0.022573 -0.000567 3.000000
-0.466955 -0.025629 0.037316 3.000000
-0.466955 -0.062326 0.020272 3.000000
-0.466955 0.072460 0.054680 3.000000
-0.466955 0.066978 -0.067781 3.000000
-0.466955 0.062394 0.016231 3.000000
-0.466955 -0.010392 0.047865 3.000000
-0.466955 0.019714 0.018929 3.000000
-0.466955 -0.097473 -0.020274 3.000000
-0.466955 -0.091523 0.024462 3.000000
-0.466955 -0.049237 -0.058427 3.000000
-0.466955 0.023384 0.030010 3.000000
-0.466955 0.078676 -0.047785 3.000000
-0.466955 -0.030674 -0.091009 3.000000
-0.466955 -0.015792 0.059166 3.000000
-0.466955 0.054154 0.082950 3.000000
-0.466955 0.025240 0.061999 3.000000
-0.466955 0.034073 0.067309 3.000000
-0.466955 0.055649 0.035458 3.000000
-0.466955 0.049691 -0.013658 3.000000
-0.466955 -0.021465 -0.028881 3.000000
-0.466955 -0.041162 -0.087670 3.000000
-0.466955 -0.072695 0.059052 3.000000
-0.466955 -0.019899 0.075038 3.000000
-0.466955 0.038525 0.054167 3.000000
-0.466955 -0.071173 0.022271 3.000000
-0.466955 -0.087286 0.007323 3.000000
-0.466955 0.092633 -0.006025 3.000000
-0.466955 -0.010376 -0.055362 3.000000
-0.466955 0.053335 0.011228 3.000000
-0.466955 0.009680 0.088667 3.000000
-0.466955 0.025691 0.058770 3.000000
-0.466955 -0.041315 0.064777 3.000000
-0.466955 -0.028463 -0.015970 3.000000
-0.466955 0.047388 0.053163 3.000000
-0.466955 -0.029674 0.013755 3.000000
-0.466955 -0.083188 0.013216 3.000000
-0.466955 0.018368 -0.054314 3.000000
-0.466955 0.089842 0.015996 3.000000
-0.466955 0.012591 -0.048632 3.000000
-0.466955 -0.025408 0.004994 3.000000
-0.466955 0.025109 -0.033964 3.000000
-0.466955 0.008203 -0.051512 3.000000
-0.466955 0.030371 0.054432 3.000000
-0.466955 0.018030 -0.018068 3.000000
-0.466955 -0.067998 0.044821 3.000000
-0.466955 0.066795 -0.005030 3.000000
-0.466955 0.035479 -0.048177 3.000000
-0.466955 -0.000264 -0.059991 3.000000
-0.466955 0.077175 0.040331 3.000000
-0.466955 0.041812 -0.012563 3.000000
-0.466955 -0.004141 0.005023 3.000000
-0.466955 0.014420 0.050462 3.000000
-0.466955 0.056358 -0.056564 3.000000
-0.466955 -0.060523 0.064734 3.000000
-0.466955 -0.051071 -0.064048 3.000000
-0.466955 0.070624 0.014266 3.000000
-0.466955 -0.037119 0.038996 3.000000
-0.466955 -0.042652 0.044999 3.000000
-0.466955 0.051998 -0.026486 3.000000
-0.466955 0.027457 -0.045706 3.000000
-0.466955 -0.003561 0.090251 3.000000
-0.466955 -0.008622 0.035763 3.000000
-0.466955 0.091141 -0.037226 3.000000
-0.466955 -0.082471 0.051563 3.000000
-0.466955 0.030684 0.068435 3.000000
-0.466955 -0.020117 0.071815 3.000000
-0.466955 0.046386 -0.010493 3.000000
-0.466955 0.037612 0.063966 3.000000
-0.466955 -0.023111 -0.024861 3.000000
-0.466955 0.045625 -0.049574 3.000000
-0.466955 -0.012530 0.059033 3.000000
-0.466955 0.058997 -0.078029 3.000000
-0.466955 0.047445 -0.084175 3.000000
-0.466955 0.012597 0.006160 3.000000
-0.466955 -0.084371 -0.006516 3.000000
-0.466955 -0.075411 -0.031747 3.000000
-0.466955 0.080586 -0.042440 3.000000
-0.466955 0.056804 -0.027249 3.000000
-0.466955 0.031205 0.040621 3.000000
-0.466955 -0.060714 -0.016168 3.000000
-0.466955 0.072113 -0.060488 3.000000
-0.466955 0.049788 0.086753 3.000000
-0.466955 -0.093593 0.026261 3.000000
-0.466955 -0.014759 -0.071360 3.000000
-0.466955 0.038678 -0.049121 3.000000
-0.466955 -0.063892 0.009368 3.000000
-0.466955 -0.021362 -0.034105 3.000000
-0.466955 -0.024984 -0.087869 3.000000
-0.466955 -0.052524 0.080109 3.000000
-0.466955 0.034016 0.028144 3.000000
-0.466955 0.065303 -0.004331 3.000000
-0.466955 0.093127 -0.009745 3.000000
-0.466955 0.032081 0.033911 3.000000
-0.466955 -0.070065 -0.063529 3.000000
-0.466955 -0.084711 -0.025550 3.000000
-0.466955 -0.072242 -0.027440 3.000000
-0.466955 0.039315 -0.091315 3.000000
-0.466955 -0.092638 0.007033 3.000000
-0.466955 0.076050 0.037802 3.000000
-0.466955 -0.017469 -0.037964 3.000000
-0.466955 0.028069 0.038651 3.000000
-0.466955 -0.029201 -0.009316 3.000000
-0.466955 0.051067 0.049070 3.000000
-0.466955 -0.073636 0.014979 3.000000
-0.466955 -0.009195 -0.041056 3.000000
-0.466955 0.062201 -0.011884 3.000000
-0.466955 -0.079172 0.009432 3.000000
-0.466955 -0.076290 0.018476 3.000000
-0.466955 -0.036592 -0.015905 3.000000
-0.466955 0.005501 0.044292 3.000000
-0.466955 0.017482 0.032978 3.000000
-0.466955 -0.055324 0.042194 3.000000
-0.466955 -0.027499 0.073047 3.000000
-0.466955 -0.023366 -0.076763 3.000000
-0.466955 0.000397 0.044675 3.000000
-0.466955 -0.073265 0.052943 3.000000
-0.466955 -0.092307 -0.004537 3.000000
-0.466955 0.007590 0.086008 3.000000
-0.466955 0.011804 0.001684 3.000000
-0.466955 0.037043 -0.073822 3.000000
-0.466955 0.069267 -0.048976 3.000000
-0.466955 -0.011662 0.086719 3.000000
-0.466955 -0.021360 -0.003930 3.000000
-0.466955 -0.070809 -0.004075 3.000000
-0.466955 0.031941 -0.033969 3.000000
-0.466955 0.073561 -0.064772 3.000000
-0.466955 -0.018881 -0.084557 3.000000
-0.466955 -0.029968 -0.028218 3.000000
-0.466955 0.056095 0.042276 3.000000
-0.466955 -0.051182 0.031831 3.000000
-0.466955 -0.059729 0.007651 3.000000
-0.466955 -0.097899 -0.003646 3.000000
-0.466955 -0.090625 0.005082 3.000000
-0.466955 -0.068560 -0.043892 3.000000
-0.466955 -0.033139 -0.037879 3.000000
-0.466955 0.057817 -0.025089 3.000000
-0.466955 0.046620 0.085561 3.000000
-0.466955 -0.063754 0.076848 3.000000
-0.466955 -0.007375 0.028677 3.000000
-0.466955 -0.032176 0.041158 3.000000
-0.466955 0.023302 -0.062150 3.000000
-0.466955 -0.091649 0.038639 3.000000
-0.466955 0.094264 -0.033022 3.000000
-0.466955 -0.019446 0.063387 3.000000
-0.466955 -0.031663 -0.089552 3.000000
-0.466955 0.023727 0.078870 3.000000
-0.466955 0.022153 -0.077098 3.000000
-0.466955 0.025295 0.046825 3.000000
-0.466955 -0.000621 0.081107 3.000000
-0.466955 0.025928 -0.061768 3.000000
-0.466955 0.056024 -0.070763 3.000000
-0.466955 -0.071161 0.040366 3.000000
-0.466955 -0.018560 0.092259 3.000000
-0.466955 0.061971 -0.075927 3.000000
-0.466955 0.003442 -0.040852 3.000000
-0.466955 -0.013945 0.057607 3.000000
-0.466955 0.061133 -0.065386 3.000000
-0.466955 0.044337 0.011157 3.000000
-0.466955 0.022500 -0.003868 3.000000
-0.466955 0.071846 -0.030555 3.000000
-0.466955 0.051059 -0.060209 3.000000
-0.466955 -0.028098 -0.082646 3.000000
-0.466955 0.007232 0.078039 3.000000
-0.466955 -0.044735 -0.062067 3.000000
-0.466955 0.053584 0.050014 3.000000
-0.466955 -0.052542 0.026576 3.000000
-0.466955 0.011436 -0.052036 3.000000
-0.466955 0.074178 0.059251 3.000000
-0.466955 0.036713 -0.085844 3.000000
-0.466955 0.007752 0.023221 3.000000
-0.466955 -0.056654 -0.035592 3.000000
-0.466955 0.037928 0.004344 3.000000
-0.466955 0.043364 -0.011854 3.000000
-0.466955 -0.003367 0.041063 3.000000
-0.466955 0.081197 -0.012217 3.000000
-0.466955 -0.000965 0.057524 3.000000
-0.466955 0.055611 0.023409 3.000000
-0.466955 0.050017 -0.075799 3.000000
-0.466955 -0.021968 0.005732 3.000000
-0.466955 -0.024244 0.008194 3.000000
-0.466955 0.030017 -0.031584 3.000000
-0.466955 -0.012738 0.033567 3.000000
-0.466955 0.006666 0.091864 3.000000
-0.466955 0.073320 -0.059275 3.000000
-0.466955 0.051123 -0.021044 3.000000
-0.466955 0.011312 0.064932 3.000000
-0.466955 0.004195 0.081824 3.000000
-0.466955 0.036721 0.048435 3.000000
-0.466955 0.035783 -0.009773 3.000000
-0.466955 0.054928 0.074142 3.000000
-0.466955 -0.048675 -0.072489 3.000000
-0.466955 0.068209 0.007492 3.000000
-0.466955 -0.063333 -0.016741 3.000000
-0.466955 -0.050732 -0.004689 3.000000
-0.466955 0.026042 -0.058937 3.000000
-0.466955 0.067732 0.070871 3.000000
-0.466955 0.055892 -0.064272 3.000000
-0.466955 -0.071721 0.001906 3.000000
-0.466955 0.035616 0.047404 3.000000
-0.466955 0.016406 -0.006171 3.000000
-0.466955 -0.050584 0.006445 3.000000
-0.466955 -0.041173 -0.083365 3.000000
-0.466955 -0.034600 -0.058924 3.000000
-0.466955 0.021851 0.016822 3.000000
-0.466955 0.011685 -0.018583 3.000000
-0.466955 0.038871 0.080144 3.000000
-0.466955 -0.000759 -0.055537 3.000000
-0.466955 0.005863 0.082725 3.000000
-0.466955 -0.069525 0.036114 3.000000
-0.466955 0.006770 0.016380 3.000000
-0.466955 -0.068769 0.069503 3.000000
-0.466955 0.029802 -0.028699 3.000000
-0.466955 0.084760 -0.023726 3.000000
-0.466955 -0.048265 -0.048051 3.000000
-0.466955 -0.067385 0.058755 3.000000
-0.466955 -0.007754 0.095341 3.000000
-0.466955 -0.069753 -0.057936 3.000000
-0.466955 0.040609 -0.083709 3.000000
-0.466955 0.014651 -0.066524 3.000000
-0.466955 0.037135 -0.092316 3.000000
-0.466955 -0.049383 0.058548 3.000000
-0.466955 -0.057194 0.017597 3.000000
-0.466955 0.029744 0.051689 3.000000
-0.466955 -0.017079 0.097497 3.000000
-0.466955 -0.001580 0.026608 3.000000
-0.466955 -0.054830 -0.052130 3.000000
-0.466955 -0.063272 0.047151 3.000000
-0.466955 -0.081938 -0.028623 3.000000
-0.466955 -0.035628 0.078327 3.000000
-0.466955 -0.089016 -0.005027 3.000000
-0.466955 -0.040527 0.085762 3.000000
-0.466955 -0.017667 0.015275 3.000000
-0.466955 0.034778 0.066094 3.000000
-0.466955 -0.018814 0.030780 3.000000
-0.466955 -0.074885 0.036543 3.000000
-0.466955 -0.037598 0.051360 3.000000
-0.466955 0.087719 -0.016494 3.000000
-0.466955 -0.050473 0.030135 3.000000
-0.466955 -0.010747 -0.075945 3.000000
-0.466955 -0.008097 -0.090868 3.000000
-0.466955 0.094548 -0.016905 3.000000
-0.466955 0.069508 0.029451 3.000000
-0.466955 0.037482 0.025196 3.000000
-0.466955 -0.034636 0.073247 3.000000
-0.466955 -0.045214 -0.074007 3.000000
-0.466955 -0.032201 0.055968 3.000000
-0.466955 0.099923 -0.002207 3.000000
-0.466955 -0.043733 -0.009275 3.000000
-0.466955 -0.034313 -0.051634 3.000000
-0.466955 -0.034203 0.071728 3.000000
-0.466955 0.023934 -0.090584 3.000000
-0.466955 -0.039285 -0.015116 3.000000
-0.466955 -0.073399 0.035486 3.000000
-0.466955 0.012596 -0.077026 3.000000
-0.466955 0.060681 0.012116 3.000000
-0.466955 -0.044964 0.042649 3.000000
-0.466955 -0.050607 -0.037984 3.000000
-0.466955 0.003930 0.095406 3.000000
-0.466955 0.045617 0.068251 3.000000
-0.466955 -0.043408 -0.021049 3.000000
-0.466955 0.035558 0.044383 3.000000
-0.466955 -0.001855 -0.023867 3.000000
-0.466955 -0.063861 0.020032 3.000000
-0.466955 -0.030009 0.078475 3.000000
-0.466955 -0.081616 0.001143 3.000000
-0.466955 -0.031321 0.083946 3.000000
-0.466955 0.064255 0.029701 3.000000
-0.466955 0.010076 -0.040001 3.000000
-0.466955 -0.036141 -0.020389 3.000000
-0.466955 -0.048674 0.006878 3.000000
-0.466955 0.015108 0.089589 3.000000
-0.466955 -0.026697 -0.083257 3.000000
-0.466955 -0.054927 -0.068952 3.000000
-0.466955 0.081490 0.022716 3.000000
-0.466955 0.053028 -0.034977 3.000000
-0.466955 -0.031429 -0.048676 3.000000
-0.466955 -0.034971 -0.081847 3.000000
-0.466955 0.017292 0.096916 3.000000
-0.466955 -0.012332 -0.026406 3.000000
-0.466955 -0.021166 -0.030523 3.000000
-0.466955 0.049852 -0.052865 3.000000
-0.466955 0.023070 0.074662 3.000000
-0.466955 -0.040475 0.037575 3.000000
-0.466955 0.089873 -0.028165 3.000000
-0.466955 -0.072018 0.015979 3.000000
-0.466955 -0.038765 0.027353 3.000000
-0.466955 0.061556 -0.038822 3.000000
-0.466955 0.049003 0.057089 3.000000
-0.466955 -0.042933 0.083253 3.000000
-0.466955 -0.057149 0.056996 3.000000
-0.466955 -0.040609 0.006939 3.000000
-0.466955 -0.090331 0.042299 3.000000
-0.466955 0.017142 0.000668 3.000000
-0.466955 -0.056565 -0.028382 3.000000
-0.466955 -0.059731 -0.027212 3.000000
-0.466955 -0.026196 0.077827 3.000000
-0.466955 0.011525 0.052105 3.000000
-0.466955 -0.000026 -0.099253 3.000000
-0.466955 -0.076616 0.051782 3.000000
-0.466955 0.065505 0.006289 3.000000
-0.466955 0.035448 -0.054884 3.000000
-0.466955 -0.041684 -0.060641 3.000000
-0.466955 0.028747 0.045913 3.000000
-0.466955 0.019194 -0.043440 3.000000
-0.466955 0.002641 0.042739 3.000000
-0.466955 0.021552 -0.011249 3.000000
-0.466955 0.044997 0.062011 3.000000
-0.466955 -0.089342 -0.000637 3.000000
-0.466955 -0.037932 -0.010747 3.000000
-0.466955 0.045686 0.030047 3.000000
-0.466955 0.054304 -0.062962 3.000000
-0.466955 -0.020444 0.046312 3.000000
-0.466955 0.085864 -0.022386 3.000000
-0.466955 -0.031389 0.058960 3.000000
-0.466955 -0.050338 0.080351 3.000000
-0.466955 0.041949 -0.016993 3.000000
-0.466955 -0.016792 0.008652 3.000000
-0.466955 -0.071230 -0.039983 3.000000
-0.466955 0.029114 0.056472 3.000000
-0.466955 0.034409 0.080504 3.000000
-0.466955 -0.052355 -0.011457 3.000000
-0.466955 0.091242 -0.039719 3.000000
-0.466955 0.032046 -0.058986 3.000000
-0.466955 0.030851 0.071652 3.000000
-0.466955 0.081511 -0.016508 3.000000
-0.466955 0.087575 0.007895 3.000000
-0.466955 -0.000840 0.094573 3.000000
-0.466955 0.041298 -0.064843 3.000000
-0.466955 0.015978 0.049145 3.000000
-0.466955 -0.040098 -0.059370 3.000000
-0.466955 0.026064 -0.093108 3.000000
-0.466955 -0.039463 -0.027701 3.000000
-0.466955 -0.021587 0.000416 3.000000
-0.466955 -0.007992 -0.067704 3.000000
-0.466955 0.086620 0.045833 3.000000
-0.466955 0.033098 -0.009268 3.000000
-0.466955 0.061378 -0.020081 3.000000
-0.466955 0.081742 0.009006 3.000000
-0.466955 0.012269 0.055546 3.000000
-0.466955 0.068458 0.054225 3.000000
-0.466955 -0.062363 -0.077525 3.000000
-0.466955 -0.008767 -0.029699 3.000000
-0.466955 0.024834 -0.013477 3.000000
-0.466955 0.013161 -0.028620 3.000000
-0.466955 -0.039498 0.053354 3.000000
-0.466955 -0.056154 -0.043340 3.000000
-0.466955 -0.013433 -0.015511 3.000000
-0.466955 0.002956 -0.072203 3.000000
-0.466955 0.056857 -0.069360 3.000000
-0.466955 0.030140 -0.048306 3.000000
-0.466955 0.048696 0.085682 3.000000
-0.466955 0.030099 -0.017473 3.000000
-0.466955 -0.041031 -0.079897 3.000000
-0.466955 0.000253 -0.005195 3.000000
-0.466955 -0.078488 0.000937 3.000000
-0.466955 -0.030215 0.007803 3.000000
-0.466955 0.057316 0.063048 3.000000
-0.466955 -0.055257 0.034935 3.000000
-0.466955 0.028136 0.009651 3.000000
-0.466955 -0.039864 0.087722 3.000000
-0.466955 -0.019565 0.066434 3.000000
-0.466955 0.036478 -0.067653 3.000000
-0.466955 -0.081102 0.004204 3.000000
-0.466955 -0.006316 -0.054829 3.000000
-0.466955 0.029117 0.069870 3.000000
-0.466955 0.000203 -0.061903 3.000000
-0.466955 -0.056373 0.049318 3.000000
-0.466955 0.017465 0.060103 3.000000
-0.466955 0.031849 0.031493 3.000000
-0.466955 0.025894 0.026336 3.000000
-0.466955 -0.018831 -0.044493 3.000000
-0.466955 -0.045789 -0.083442 3.000000
-0.466955 0.090353 0.003825 3.000000
-0.466955 -0.068059 -0.057719 3.000000
-0.466955 0.051650 -0.082777 3.000000
-0.466955 0.024191 -0.063860 3.000000
-0.466955 0.039655 -0.063941 3.000000
-0.466955 0.089898 0.025334 3.000000
-0.466955 0.018425 0.071091 3.000000
-0.466955 -0.013548 0.055972 3.000000
-0.466955 -0.031833 -0.068884 3.000000
-0.466955 -0.030006 0.090159 3.000000
-0.466955 0.099492 0.007738 3.000000
-0.466955 0.036324 -0.084186 3.000000
-0.466955 0.089803 -0.012419 3.000000
-0.466955 0.033187 -0.080235 3.000000
-0.466955 0.003970 -0.039369 3.000000
-0.466955 0.051338 -0.054134 3.000000
-0.466955 -0.046487 -0.023144 3.000000
-0.466955 0.052455 0.038007 3.000000
-0.466955 0.075058 0.004768 3.000000
-0.466955 0.026679 -0.086675 3.000000
-0.466955 0.013974 0.046962 3.000000
-0.466955 -0.075234 0.033878 3.000000
-0.466955 0.082161 -0.046279 3.000000
-0.466955 -0.038810 0.032539 3.000000
-0.466955 0.003451 0.036478 3.000000
-0.466955 0.075155 -0.055310 3.000000
-0.466955 -0.065084 0.008087 3.000000
-0.466955 -0.062300 0.002831 3.000000
-0.466955 0.085292 -0.010153 3.000000
-0.466955 -0.028105 -0.030835 3.000000
-0.466955 0.048343 0.064407 3.000000
-0.466955 0.086936 -0.007425 3.000000
-0.466955 -0.020138 -0.052136 3.000000
-0.466955 -0.006361 -0.034930 3.000000
-0.466955 0.003513 -0.012012 3.000000
-0.466955 -0.056824 0.006707 3.000000
-0.466955 0.002750 -0.001308 3.000000
-0.466955 0.018113 -0.030291 3.000000
-0.466955 -0.079721 0.003843 3.000000
-0.466955 0.013376 0.018113 3.000000
-0.466955 -0.008652 -0.001749 3.000000
-0.466955 0.000750 -0.049439 3.000000
-0.466955 0.045739 0.065648 3.000000
-0.466955 0.003012 -0.074854 3.000000
-0.466955 0.078644 -0.026690 3.000000
-0.466955 0.002218 -0.047542 3.000000
-0.466955 0.015880 -0.044376 3.000000
-0.466955 -0.047750 0.032506 3.000000
-0.466955 -0.001363 -0.061298 3.000000
-0.466955 0.005505 -0.032234 3.000000
-0.466955 -0.097562 -0.007269 3.000000
-0.466955 0.027897 0.054386 3.000000
-0.466955 0.054874 -0.069036 3.000000
-0.466955 0.097047 0.004020 3.000000
-0.466955 -0.074910 -0.030462 3.000000
-0.466955 0.044196 -0.037327 3.000000
-0.466955 -0.025892 0.050913 3.000000
-0.466955 0.005092 -0.078425 3.000000
-0.466955 0.016935 -0.021807 3.000000
-0.466955 0.034630 0.051423 3.000000
-0.466955 -0.050377 0.012997 3.000000
-0.466955 -0.042748 0.028702 3.000000
-0.466955 0.015222 0.038441 3.000000
-0.466955 0.053610 0.057664 3.000000
-0.466955 0.044518 -0.087059 3.000000
-0.466955 0.034943 -0.067143 3.000000
-0.466955 0.058529 0.029905 3.000000
-0.466955 -0.039044 0.049028 3.000000
-0.466955 0.013160 -0.038447 3.000000
-0.466955 -0.048858 0.000662 3.000000
-0.466955 0.065644 0.018776 3.000000
-0.466955 0.058623 -0.040242 3.000000
-0.466955 -0.040429 -0.024862 3.000000
-0.466955 0.053348 0.025279 3.000000
-0.466955 -0.070486 -0.027448 3.000000
-0.466955 0.032561 -0.093640 3.000000
-0.466955 -0.045718 0.071106 3.000000
-0.466955 0.059174 0.012087 3.000000
-0.466955 -0.006381 0.057190 3.000000
-0.466955 0.030762 0.074747 3.000000
-0.466955 0.007228 -0.067237 3.000000
-0.466955 0.065937 0.011455 3.000000
-0.466955 0.063696 -0.022380 3.000000
-0.466955 0.047763 0.055220 3.000000
-0.466955 -0.031697 0.026138 3.000000
-0.466955 -0.093408 0.003829 3.000000
-0.466955 0.013124 -0.092728 3.000000
-0.466955 0.031522 -0.072549 3.000000
-0.466955 0.043038 -0.021168 3.000000
-0.466955 0.003882 0.041718 3.000000
-0.466955 -0.056278 0.031508 3.000000
-0.466955 0.040744 0.060542 3.000000
-0.466955 -0.081799 0.043849 3.000000
-0.466955 -0.028929 0.005718 3.000000
-0.466955 0.024122 0.013898 3.000000
-0.466955 0.076422 0.063014 3.000000
-0.466955 0.031414 0.038257 3.000000
-0.466955 0.039884 -0.033313 3.000000
-0.466955 -0.040592 0.048943 3.000000
-0.466955 -0.045317 0.055638 3.000000
-0.466955 -0.040125 -0.052411 3.000000
-0.466955 -0.027451 0.003686 3.000000
-0.466955 0.060216 0.053691 3.000000
-0.466955 -0.041427 -0.066100 3.000000
-0.466955 -0.056093 0.051983 3.000000
-0.466955 -0.074734 -0.010960 3.000000
-0.466955 -0.006218 -0.088631 3.000000
-0.466955 -0.051301 0.022514 3.000000
-0.466955 -0.095596 -0.027160 3.000000
-0.466955 0.018918 0.017271 3.000000
-0.466955 0.059618 -0.036628 3.000000
-0.466955 0.004954 -0.062817 3.000000
-0.466955 -0.072474 0.026382 3.000000
-0.466955 -0.005469 0.072726 3.000000
-0.466955 0.010025 0.007245 3.000000
-0.466955 -0.055827 -0.070077 3.000000
-0.466955 0.092465 -0.030306 3.000000
-0.466955 0.000167 -0.063570 3.000000
-0.466955 -0.034827 0.068149 3.000000
-0.466955 -0.021048 -0.069628 3.000000
-0.466955 0.063778 -0.003125 3.000000
-0.466955 0.068325 -0.025788 3.000000
-0.466955 0.067461 0.019997 3.000000
-0.466955 0.066632 0.028089 3.000000
-0.466955 -0.000668 -0.009689 3.000000
-0.466955 -0.014961 0.008860 3.000000
-0.466955 -0.061083 0.044766 3.000000
-0.466955 0.007287 -0.013577 3.000000
-0.466955 -0.028225 -0.036264 3.000000
-0.466955 0.069619 -0.062583 3.000000
-0.466955 -0.040468 -0.050593 3.000000
-0.466955 -0.071606 0.044690 3.000000
-0.466955 -0.032719 0.049442 3.000000
-0.466955 -0.032039 -0.074686 3.000000
-0.466955 0.067177 0.036816 3.000000
-0.466955 0.008683 -0.005202 3.000000
-0.466955 -0.095423 -0.025651 3.000000
-0.466955 -0.019346 0.036217 3.000000
-0.466955 0.004365 0.070256 3.000000
-0.466955 -0.017446 0.045460 3.000000
-0.466955 -0.016885 -0.042928 3.000000
-0.466955 -0.017152 -0.088749 3.000000
-0.466955 0.065938 -0.053506 3.000000
-0.466955 -0.054159 0.058265 3.000000
-0.466955 0.072918 0.006311 3.000000
-0.466955 0.090626 0.017598 3.000000
-0.466955 -0.099041 -0.007892 3.000000
-0.466955 -0.025884 -0.041094 3.000000
-0.466955 -0.032796 0.071453 3.000000
-0.466955 0.009586 0.090062 3.000000
-0.466955 -0.004891 0.042033 3.000000
-0.466955 -0.039751 0.029912 3.000000
-0.466955 -0.060853 0.009388 3.000000
-0.466955 -0.074390 -0.044938 3.000000
-0.466955 0.041455 0.083797 3.000000
-0.466955 0.019923 0.029286 3.000000
-0.466955 0.026622 0.048950 3.000000
-0.466955 -0.083964 0.026545 3.000000
-0.466955 -0.008436 0.042914 3.000000
-0.466955 -0.031508 -0.093865 3.000000
-0.466955 0.052629 -0.012709 3.000000
-0.466955 -0.022022 -0.006345 3.000000
-0.466955 -0.048859 0.031562 3.000000
-0.466955 0.055192 0.076757 3.000000
-0.466955 0.038852 0.035090 3.000000
-0.466955 0.006874 -0.040412 3.000000
-0.466955 -0.026954 -0.079608 3.000000
-0.466955 0.009244 0.029582 3.000000
-0.466955 0.063507 0.006309 3.000000
-0.466955 0.018887 -0.080283 3.000000
-0.466955 -0.089363 -0.007809 3.000000
-0.466955 0.038610 -0.078494 3.000000
-0.466955 0.089905 -0.039988 3.000000
-0.466955 -0.027905 0.038199 3.000000
-0.466955 0.005952 -0.033734 3.000000
-0.466955 0.072298 -0.042421 3.000000
-0.466955 -0.070238 0.013630 3.000000
-0.466955 -0.060730 -0.040988 3.000000
-0.466955 0.088269 -0.028527 3.000000
-0.466955 0.006747 -0.075805 3.000000
-0.466955 0.070413 -0.053178 3.000000
-0.466955 -0.073202 0.017991 3.000000
-0.466955 -0.031298 -0.072824 3.000000
-0.466955 0.001769 0.001791 3.000000
-0.466955 -0.021393 -0.013778 3.000000
-0.466955 0.027463 -0.038149 3.000000
-0.466955 0.026910 0.039711 3.000000
-0.466955 0.005910 0.009031 3.000000
-0.466955 0.046696 0.079881 3.000000
-0.466955 -0.019268 0.055157 3.000000
-0.466955 -0.032703 0.018788 3.000000
-0.466955 -0.006500 -0.040348 3.000000
-0.466955 0.057806 -0.005200 3.000000
-0.466955 0.023628 -0.042184 3.000000
-0.466955 0.039939 0.058922 3.000000
-0.466955 0.006972 0.067528 3.000000
-0.466955 -0.081124 0.035555 3.000000
-0.466955 -0.042528 -0.035690 3.000000
-0.466955 0.075971 -0.012434 3.000000
-0.466955 0.003561 0.097482 3.000000
-0.466955 -0.086670 0.000852 3.000000
-0.466955 -0.032966 0.029291 3.000000
-0.466955 -0.070924 0.036464 3.000000
-0.466955 0.003672 0.051292 3.000000
-0.466955 0.041936 0.008826 3.000000
-0.466955 -0.044583 -0.069031 3.000000
-0.466955 0.066731 0.016659 3.000000
-0.466955 0.038072 -0.052310 3.000000
-0.466955 -0.012875 -0.072513 3.000000
-0.466955 0.061407 0.070944 3.000000
-0.466955 0.039056 -0.036026 3.000000
-0.466955 -0.061272 0.074712 3.000000
-0.466955 0.092773 0.037078 3.000000
-0.466955 0.060373 0.010602 3.000000
-0.466955 0.075575 0.012276 3.000000
-0.466955 0.075251 -0.059184 3.000000
-0.466955 0.049706 -0.031538 3.000000
-0.466955 0.052559 -0.024696 3.000000
-0.466955 -0.076859 0.016808 3.000000
-0.466955 0.042841 0.044927 3.000000
-0.466955 0.055997 0.081376 3.000000
-0.466955 0.038842 0.060991 3.000000
-0.466955 0.055594 -0.037543 3.000000
-0.466955 -0.069374 -0.034964 3.000000
-0.466955 0.025306 0.030614 3.000000
-0.466955 -0.074459 -0.043383 3.000000
-0.466955 0.021630 0.027064 3.000000
-0.466955 -0.082784 0.006726 3.000000
-0.466955 -0.061287 0.038316 3.000000
-0.466955 0.011622 -0.005622 3.000000
-0.466955 0.017038 0.055571 3.000000
-0.466955 -0.085626 -0.005679 3.000000
-0.466955 -0.038990 -0.024202 3.000000
-0.466955 0.041509 -0.053478 3.000000
-0.466955 0.018037 0.051564 3.000000
-0.466955 -0.068646 -0.006857 3.000000
-0.466955 0.006818 -0.037850 3.000000
-0.466955 0.001255 0.022371 3.000000
-0.466955 -0.015286 -0.062934 3.000000
-0.466955 0.077902 -0.011520 3.000000
-0.466955 0.014930 0.082985 3.000000
-0.466955 0.068884 -0.007128 3.000000
-0.466955 -0.055109 0.014462 3.000000
-0.466955 -0.076746 -0.040452 3.000000
-0.466955 -0.065528 -0.008649 3.000000
-0.466955 -0.043994 -0.076505 3.000000
-0.466955 0.033429 0.046715 3.000000
-0.466955 0.021512 -0.094044 3.000000
-0.466955 0.005076 0.034883 3.000000
-0.466955 0.034520 -0.018240 3.000000
-0.466955 -0.055987 -0.073433 3.000000
-0.466955 -0.067821 -0.024568 3.000000
-0.466955 -0.041239 -0.041373 3.000000
-0.466955 0.018495 -0.035671 3.000000
-0.466955 0.048528 -0.021707 3.000000
-0.466955 -0.087912 0.028936 3.000000
-0.466955 0.000144 -0.038471 3.000000
-0.466955 -0.046906 -0.009537 3.000000
-0.466955 0.015193 0.025049 3.000000
-0.466955 -0.070307 -0.000457 3.000000
-0.466955 0.086897 -0.033150 3.000000
-0.466955 -0.022911 -0.010243 3.000000
-0.466955 0.031323 -0.084680 3.000000
-0.466955 0.005830 0.065469 3.000000
-0.466955 -0.075791 0.035365 3.000000
-0.466955 0.078216 -0.040998 3.000000
-0.466955 0.011337 0.009182 3.000000
-0.466955 0.009089 -0.047921 3.000000
-0.466955 -0.024280 0.085657 3.000000
-0.466955 0.070739 -0.049200 3.000000
-0.466955 0.004825 -0.052187 3.000000
-0.466955 0.002893 -0.090788 3.000000
-0.466955 0.087081 0.033865 3.000000
-0.466955 -0.067988 -0.065854 3.000000
-0.466955 -0.047167 0.086100 3.000000
-0.466955 -0.012973 -0.070408 3.000000
-0.466955 -0.011020 0.036828 3.000000
-0.466955 0.047620 -0.061186 3.000000
-0.466955 -0.009499 -0.028181 3.000000
-0.466955 -0.067440 -0.007973 3.000000
-0.466955 -0.014129 0.096909 3.000000
-0.466955 -0.005427 -0.022764 3.000000
-0.466955 -0.019983 -0.063095 3.000000
-0.466955 -0.030112 -0.019937 3.000000
-0.466955 -0.007032 -0.026423 3.000000
-0.466955 0.023055 0.067120 3.000000
-0.466955 0.043505 0.039302 3.000000
-0.466955 0.061499 -0.032673 3.000000
-0.466955 -0.022755 -0.035289 3.000000
-0.466955 -0.056898 -0.017968 3.000000
-0.466955 0.017567 -0.016198 3.000000
-0.466955 -0.008078 0.059195 3.000000
-0.466955 0.025671 -0.045384 3.000000
-0.466955 -0.006214 0.043617 3.000000
-0.466955 0.004427 0.008326 3.000000
-0.466955 -0.079244 0.038004 3.000000
-0.466955 -0.073439 -0.016826 3.000000
-0.466955 -0.003056 -0.032696 3.000000
-0.466955 0.042068 0.024991 3.000000
-0.466955 0.087500 -0.035846 3.000000
-0.466955 0.018611 -0.064763 3.000000
-0.466955 0.054422 -0.076783 3.000000
-0.466955 -0.047396 -0.007838 3.000000
-0.466955 0.067427 -0.009971 3.000000
-0.466955 0.036238 -0.034801 3.000000
-0.466955 0.020609 0.085910 3.000000
-0.466955 0.098331 0.000890 3.000000
-0.466955 -0.072247 0.042945 3.000000
-0.466955 -0.051902 0.013303 3.000000
-0.466955 0.034294 0.040165 3.000000
-0.466955 0.051822 0.061826 3.000000
-0.466955 -0.032098 -0.039870 3.000000
-0.466955 0.003750 0.072046 3.000000
-0.466955 -0.035283 -0.072415 3.000000
-0.466955 -0.012054 0.073138 3.000000
-0.466955 0.010210 -0.092933 3.000000
-0.466955 0.035716 0.025109 3.000000
-0.466955 -0.055220 -0.055823 3.000000
-0.466955 -0.080216 -0.000266 3.000000
-0.466955 0.070358 -0.047405 3.000000
-0.466955 0.007467 0.037607 3.000000
-0.466955 -0.055079 0.076528 3.000000
-0.466955 -0.065363 -0.051366 3.000000
-0.466955 0.029177 0.072367 3.000000
-0.466955 0.066134 -0.011137 3.000000
-0.466955 0.026492 0.009273 3.000000
-0.466955 -0.014161 -0.061222 3.000000
-0.466955 -0.021294 -0.036958 3.000000
-0.466955 -0.003723 0.024299 3.000000
-0.466955 0.020320 -0.074766 3.000000
-0.466955 0.058437 0.018426 3.000000
-0.466955 -0.046557 -0.017644 3.000000
-0.466955 -0.045556 0.006594 3.000000
-0.466955 0.046393 -0.053564 3.000000
-0.466955 0.079281 -0.037369 3.000000
-0.466955 -0.018482 0.006078 3.000000
-0.466955 -0.012385 -0.049697 3.000000
-0.466955 -0.026942 0.031324 3.000000
-0.466955 -0.016715 -0.055070 3.000000
-0.466955 0.030523 0.031819 3.000000
-0.466955 0.020854 -0.056978 3.000000
-0.466955 -0.070324 0.070921 3.000000
-0.466955 -0.098511 0.001710 3.000000
-0.466955 0.055597 0.049822 3.000000
-0.466955 -0.039529 -0.026235 3.000000
-0.466955 -0.036841 -0.066548 3.000000
-0.466955 0.040172 -0.017579 3.000000
-0.466955 0.040685 -0.023929 3.000000
-0.466955 0.032886 0.032773 3.000000
-0.466955 0.030093 -0.051099 3.000000
-0.466955 -0.047310 -0.006344 3.000000
-0.466955 0.060881 0.001590 3.000000
-0.466955 -0.060415 -0.038772 3.000000
-0.466955 -0.052578 -0.035002 3.000000
-0.466955 -0.032273 -0.062622 3.000000
-0.466955 0.007390 -0.062620 3.000000
-0.466955 -0.079110 0.032453 3.000000
-0.466955 0.049162 -0.070693 3.000000
-0.466955 -0.058239 -0.044925 3.000000
-0.466955 0.069517 -0.060971 3.000000
-0.466955 0.039490 0.084835 3.000000
-0.466955 0.040930 -0.006143 3.000000
-0.466955 -0.002811 -0.077486 3.000000
-0.466955 -0.098551 -0.013536 3.000000
-0.466955 0.042851 -0.030326 3.000000
-0.466955 -0.011856 -0.054643 3.000000
-0.466955 -0.029704 -0.044366 3.000000
-0.466955 0.024599 0.075264 3.000000
-0.466955 0.009787 -0.091004 3.000000
-0.466955 0.034119 0.021041 3.000000
-0.466955 0.062099 0.044488 3.000000
-0.466955 -0.000611 0.066903 3.000000
-0.466955 -0.005190 -0.017711 3.000000
-0.466955 0.031300 -0.056410 3.000000
-0.466955 -0.044557 -0.054015 3.000000
-0.466955 -0.061167 0.000670 3.000000
-0.466955 -0.022417 0.035983 3.000000
-0.466955 0.046103 -0.027739 3.000000
-0.466955 -0.016918 -0.020630 3.000000
-0.466955 0.062107 0.062960 3.000000
-0.466955 -0.070025 -0.030287 3.000000
-0.466955 -0.099632 0.000496 3.000000
-0.466955 -0.035641 0.003691 3.000000
-0.466955 -0.049677 0.044857 3.000000
-0.466955 -0.071855 -0.035215 3.000000
-0.466955 -0.089472 0.019073 3.000000
-0.466955 0.037583 -0.017173 3.000000
-0.466955 -0.000721 0.047504 3.000000
-0.466955 -0.044952 0.019441 3.000000
-0.466955 -0.035254 0.021170 3.000000
-0.466955 0.011806 0.039670 3.000000
-0.466955 -0.085916 -0.050395 3.000000
-0.466955 0.052722 -0.053077 3.000000
-0.466955 -0.015189 -0.081465 3.000000
-0.466955 -0.018945 -0.089278 3.000000
-0.466955 -0.023848 -0.074330 3.000000
-0.466955 0.018398 -0.061204 3.000000
-0.466955 -0.032442 0.039421 3.000000
-0.466955 -0.067018 0.067900 3.000000
-0.466955 -0.068246 0.064388 3.000000
-0.466955 -0.079865 -0.003099 3.000000
-0.466955 0.061552 0.023836 3.000000
-0.466955 -0.010700 -0.024186 3.000000
-0.466955 -0.070220 0.026082 3.000000
-0.466955 0.012589 0.000405 3.000000
-0.466955 0.082054 -0.034764 3.000000
-0.466955 0.006118 -0.063855 3.000000
-0.466955 0.059126 -0.010980 3.000000
-0.466955 -0.096431 0.006945 3.000000
-0.466955 -0.058414 -0.028068 3.000000
-0.466955 -0.015687 -0.078367 3.000000
-0.466955 -0.038994 -0.078421 3.000000
-0.466955 -0.004556 0.087139 3.000000
-0.466955 -0.001415 0.011532 3.000000
-0.466955 0.006449 -0.003010 3.000000
-0.466955 0.009664 0.016754 3.000000
-0.466955 0.084149 0.024367 3.000000
-0.466955 0.025468 -0.026170 3.000000
-0.466955 0.065251 -0.012346 3.000000
-0.466955 0.017406 0.063478 3.000000
-0.466955 0.011072 0.035312 3.000000
-0.466955 -0.080135 -0.052206 3.000000
-0.466955 0.037428 -0.014764 3.000000
-0.466955 -0.040059 -0.063755 3.000000
-0.466955 -0.035474 -0.079398 3.000000
-0.466955 0.029353 0.053179 3.000000
-0.466955 -0.013633 0.041202 3.000000
-0.466955 0.083325 0.012688 3.000000
-0.466955 0.046098 0.077800 3.000000
-0.466955 -0.037811 0.022365 3.000000
-0.466955 0.042934 -0.010320 3.000000
-0.466955 -0.073434 -0.045950 3.000000
-0.466955 0.005652 0.040217 3.000000
-0.466955 -0.043934 -0.039856 3.000000
-0.466955 0.072768 0.001270 3.000000
-0.466955 0.017780 0.046557 3.000000
-0.466955 0.099686 -0.006972 3.000000
-0.466955 -0.095266 0.008012 3.000000
-0.466955 0.058282 0.009416 3.000000
-0.466955 0.042087 0.018790 3.000000
-0.466955 0.018971 0.085716 3.000000
-0.466955 -0.060821 -0.020936 3.000000
-0.466955 -0.023132 -0.029571 3.000000
-0.466955 0.075427 -0.044790 3.000000
-0.466955 0.012606 -0.002461 3.000000
-0.466955 -0.036287 0.012332 3.000000
-0.466955 -0.088055 -0.031010 3.000000
-0.466955 0.015998 0.026637 3.000000
-0.466955 -0.061143 -0.052729 3.000000
-0.466955 0.087465 0.006258 3.000000
-0.466955 0.051936 0.051017 3.000000
-0.466955 0.050560 0.005568 3.000000
-0.466955 -0.013979 -0.067166 3.000000
-0.466955 0.059756 -0.005229 3.000000
-0.466955 0.013332 -0.071529 3.000000
-0.466955 0.056835 0.036696 3.000000
-0.466955 -0.023910 -0.026545 3.000000
-0.466955 0.085721 0.004872 3.000000
-0.466955 -0.013685 -0.012814 3.000000
-0.466955 -0.049953 0.081820 3.000000
-0.466955 0.035065 0.017657 3.000000
-0.466955 0.046048 -0.046380 3.000000
-0.466955 -0.049333 -0.046899 3.000000
-0.466955 0.065045 -0.051712 3.000000
-0.466955 0.079678 -0.011229 3.000000
-0.466955 0.031523 0.009316 3.000000
-0.466955 -0.041643 0.020255 3.000000
-0.466955 -0.046391 0.079413 3.000000
-0.466955 0.031269 -0.070556 3.000000
-0.466955 -0.002900 -0.045479 3.000000
-0.466955 -0.035729 0.045970 3.000000
-0.466955 0.017816 -0.012890 3.000000
-0.466955 0.033670 0.016309 3.000000
-0.466955 -0.053710 0.074609 3.000000
-0.466955 -0.084741 0.012582 3.000000
-0.466955 0.058740 -0.050617 3.000000
-0.466955 0.091317 -0.035055 3.000000
-0.466955 0.093564 0.029573 3.000000
-0.466955 0.060122 -0.055471 3.000000
-0.466955 -0.016759 0.006678 3.000000
-0.466955 -0.091977 -0.003197 3.000000
-0.466955 0.006781 -0.051606 3.000000
-0.466955 -0.000903 0.078095 3.000000
-0.466955 -0.000921 -0.008147 3.000000
-0.466955 -0.079590 0.017404 3.000000
-0.466955 0.043743 -0.009136 3.000000
-0.466955 -0.029936 -0.050041 3.000000
-0.466955 0.023420 0.006210 3.000000
-0.466955 0.072918 -0.002296 3.000000
-0.466955 -0.051822 0.004158 3.000000
-0.466955 -0.053285 0.003458 3.000000
-0.466955 0.036643 0.046453 3.000000
-0.466955 -0.085289 0.015108 3.000000
-0.466955 0.055756 -0.044647 3.000000
-0.466955 -0.028661 0.002928 3.000000
-0.466955 0.051953 -0.063004 3.000000
-0.466955 -0.033071 0.002072 3.000000
-0.466955 -0.076994 -0.012002 3.000000
-0.466955 0.061302 -0.062686 3.000000
-0.466955 -0.030350 -0.088986 3.000000
-0.466955 0.052060 0.056632 3.000000
-0.466955 -0.051517 0.065585 3.000000
-0.466955 0.030823 -0.036874 3.000000
-0.466955 -0.061906 -0.059422 3.000000
-0.466955 -0.054682 0.047553 3.000000
-0.466955 0.088723 0.003234 3.000000
-0.466955 -0.069511 -0.010089 3.000000
-0.466955 0.036955 0.044609 3.000000
-0.466955 -0.059284 -0.041722 3.000000
-0.466955 0.078487 -0.004452 3.000000
-0.466955 -0.011749 0.020796 3.000000
-0.466955 0.013246 -0.018804 3.000000
-0.466955 -0.039388 0.070208 3.000000
-0.466955 0.062398 0.072757 3.000000
-0.466955 0.031780 -0.004464 3.000000
-0.466955 0.081045 0.016645 3.000000
-0.466955 0.036802 0.008638 3.000000
-0.466955 0.004327 0.002203 3.000000
-0.466955 0.015210 -0.045530 3.000000
-0.466955 0.005582 0.080945 3.000000
-0.466955 0.006285 -0.095159 3.000000
-0.466955 -0.063053 0.048847 3.000000
-0.466955 -0.042990 -0.007872 3.000000
-0.466955 -0.050933 0.077576 3.000000
-0.466955 0.090742 -0.005061 3.000000
-0.466955 0.031450 0.062224 3.000000
-0.466955 -0.026465 -0.060814 3.000000
-0.466955 0.065205 -0.029001 3.000000
-0.466955 0.048265 -0.031605 3.000000
-0.466955 -0.051628 0.039696 3.000000
-0.466955 0.095744 -0.025076 3.000000
-0.466955 0.051471 -0.079288 3.000000
-0.466955 0.030847 -0.015153 3.000000
-0.466955 0.089215 0.008202 3.000000
-0.466955 -0.028347 0.081385 3.000000
-0.466955 -0.093799 -0.012130 3.000000
-0.466955 0.008665 0.005971 3.000000
-0.466955 0.057754 -0.002750 3.000000
-0.466955 0.073779 -0.020000 3.000000
-0.466955 0.027742 -0.090084 3.000000
-0.466955 0.041269 0.035004 3.000000
-0.466955 0.074036 0.012765 3.000000
-0.466955 0.038335 -0.065235 3.000000
-0.466955 0.027664 0.040918 3.000000
-0.466955 0.040558 0.024945 3.000000
-0.466955 -0.065450 0.068265 3.000000
-0.466955 -0.020709 0.055998 3.000000
-0.466955 -0.063705 0.069690 3.000000
-0.466955 0.075657 0.052379 3.000000
-0.466955 -0.075652 0.053549 3.000000
-0.466955 -0.036262 -0.012407 3.000000
-0.466955 -0.026239 0.011148 3.000000
-0.466955 -0.069679 0.064832 3.000000
-0.466955 -0.037453 -0.039166 3.000000
-0.466955 -0.055019 -0.019208 3.000000
-0.466955 -0.008039 -0.082806 3.000000
-0.466955 -0.055172 -0.008052 3.000000
-0.466955 0.018536 0.055217 3.000000
-0.466955 0.073052 0.022263 3.000000
-0.466955 0.005376 -0.099411 3.000000
-0.466955 -0.009330 0.053008 3.000000
-0.466955 -0.044560 -0.029657 3.000000
-0.466955 0.029423 -0.005365 3.000000
-0.466955 -0.017724 0.089325 3.000000
-0.466955 0.050203 -0.080403 3.000000
-0.466955 0.003376 -0.045894 3.000000
-0.466955 -0.003752 -0.093141 3.000000
-0.466955 0.036222 0.092896 3.000000
-0.466955 -0.047115 -0.043615 3.000000
-0.466955 0.033591 0.085414 3.000000
-0.466955 -0.030191 -0.023763 3.000000
-0.466955 -0.081114 -0.030957 3.000000
-0.466955 0.004959 -0.050157 3.000000
-0.466955 -0.033468 -0.085728 3.000000
-0.466955 -0.004200 0.036052 3.000000
-0.466955 -0.034216 -0.073372 3.000000
-0.466955 -0.011273 0.094257 3.000000
-0.466955 -0.032901 0.051057 3.000000
-0.466955 -0.079297 0.005724 3.000000
-0.466955 0.043125 -0.061695 3.000000
-0.466955 -0.071455 0.029171 3.000000
-0.466955 -0.037756 -0.071829 3.000000
-0.466955 0.039672 0.043625 3.000000
-0.466955 0.071351 0.029074 3.000000
-0.466955 -0.090010 0.030109 3.000000
-0.466955 0.023431 0.069985 3.000000
-0.466955 0.068802 0.022102 3.000000
-0.466955 0.013056 -0.025049 3.000000
-0.466955 -0.007058 0.035039 3.000000
-0.466955 -0.065726 -0.067928 3.000000
-0.466955 0.047173 -0.070767 3.000000
-0.466955 0.045481 0.006601 3.000000
-0.466955 0.077318 -0.018707 3.000000
-0.466955 0.044596 0.077550 3.000000
-0.466955 -0.038965 0.050578 3.000000
-0.466955 0.048349 0.041374 3.000000
-0.466955 0.080104 -0.058872 3.000000
-0.466955 -0.058556 0.011752 3.000000
-0.466955 -0.016669 0.002015 3.000000
-0.466955 -0.066270 0.013982 3.000000
-0.466955 -0.067191 -0.013720 3.000000
-0.466955 -0.003849 -0.087342 3.000000
-0.466955 -0.091502 0.010309 3.000000
-0.466955 -0.056275 -0.020824 3.000000
-0.466955 0.023171 0.049360 3.000000
-0.466955 0.082566 0.000024 3.000000
-0.466955 -0.013966 -0.052134 3.000000
-0.466955 -0.043194 -0.083969 3.000000
-0.466955 0.024438 -0.075055 3.000000
-0.466955 0.018216 0.079276 3.000000
-0.466955 -0.037530 -0.053241 3.000000
-0.466955 0.050445 0.024429 3.000000
-0.466955 0.085160 -0.032268 3.000000
-0.466955 0.068676 -0.031613 3.000000
-0.466955 -0.080071 0.029574 3.000000
-0.466955 0.007296 0.049723 3.000000
-0.466955 -0.049753 -0.007262 3.000000
-0.466955 0.003420 -0.058425 3.000000
-0.466955 0.063573 -0.045835 3.000000
-0.466955 0.082762 0.038262 3.000000
-0.466955 0.034816 0.007934 3.000000
-0.466955 -0.062059 -0.038565 3.000000
-0.466955 -0.065377 -0.002085 3.000000
-0.466955 -0.045797 -0.001394 3.000000
-0.466955 -0.091370 0.020431 3.000000
-0.466955 0.095349 -0.004648 3.000000
-0.466955 0.015330 -0.085780 3.000000
-0.466955 -0.006308 0.049206 3.000000
-0.466955 -0.082602 -0.036811 3.000000
-0.466955 0.076336 0.055017 3.000000
-0.466955 0.008805 0.098110 3.000000
-0.466955 -0.046907 0.062969 3.000000
-0.466955 -0.042042 -0.074121 3.000000
-0.466955 0.003895 -0.002851 3.000000
-0.466955 -0.080227 0.022040 3.000000
-0.466955 -0.033928 0.032292 3.000000
-0.466955 -0.086844 0.025153 3.000000
-0.466955 -0.028465 0.061850 3.000000
-0.466955 -0.007241 -0.053550 3.000000
-0.466955 -0.071992 -0.061034 3.000000
-0.466955 0.089078 -0.001494 3.000000
-0.466955 0.081589 -0.051208 3.000000
-0.466955 -0.051803 -0.026612 3.000000
-0.466955 -0.047417 -0.034086 3.000000
-0.466955 -0.001158 0.017192 3.000000
-0.466955 0.079782 0.008583 3.000000
-0.466955 0.005798 0.071380 3.000000
-0.466955 -0.033287 0.088823 3.000000
-0.466955 0.066065 0.032538 3.000000
-0.466955 0.009021 -0.009038 3.000000
-0.466955 0.031851 -0.089420 3.000000
-0.466955 0.004424 0.022120 3.000000
-0.466955 -0.048153 0.050253 3.000000
-0.466955 -0.060416 -0.071769 3.000000
-0.466955 0.014319 -0.053466 3.000000
-0.466955 -0.016331 -0.051977 3.000000
-0.466955 -0.048414 0.052047 3.000000
-0.466955 0.075617 -0.033143 3.000000
-0.466955 -0.056244 0.070013 3.000000
-0.466955 -0.009116 -0.084237 3.000000
-0.466955 -0.034945 -0.076066 3.000000
-0.466955 0.044457 -0.027955 3.000000
-0.466955 0.046632 -0.031286 3.000000
-0.466955 -0.052625 0.037863 3.000000
-0.466955 -0.075011 -0.034897 3.000000
-0.466955 -0.045952 -0.006802 3.000000
-0.466955 0.018694 -0.045407 3.000000
-0.466955 -0.082397 0.049761 3.000000
-0.466955 0.093631 -0.017979 3.000000
-0.466955 -0.024809 -0.094165 3.000000
-0.466955 -0.006170 -0.031313 3.000000
-0.466955 -0.005864 -0.061685 3.000000
-0.466955 0.039628 -0.003153 3.000000
-0.466955 -0.049393 0.010841 3.000000
-0.466955 -0.033905 -0.046749 3.000000
-0.466955 0.079173 0.011318 3.000000
-0.466955 -0.066115 0.072305 3.000000
-0.466955 0.025619 0.050033 3.000000
-0.466955 0.010952 0.076482 3.000000
-0.466955 0.003013 0.011621 3.000000
-0.466955 -0.019820 0.001491 3.000000
-0.466955 -0.003421 0.059406 3.000000
-0.466955 0.061929 0.028620 3.000000
-0.466955 0.021326 -0.095572 3.000000
-0.466955 0.064245 0.067213 3.000000
-0.466955 0.067750 -0.027738 3.000000
-0.466955 0.016100 -0.065239 3.000000
-0.466955 0.040055 -0.043943 3.000000
-0.466955 -0.083259 0.053799 3.000000
-0.466955 0.038558 -0.010080 3.000000
-0.466955 -0.010722 -0.050533 3.000000
-0.466955 0.058045 -0.061587 3.000000
-0.466955 0.024530 -0.096541 3.000000
-0.466955 0.059236 0.013594 3.000000
-0.466955 0.000797 0.002780 3.000000
-0.466955 -0.027992 0.078030 3.000000
-0.466955 -0.026798 0.071098 3.000000
-0.466955 -0.021786 -0.051719 3.000000
-0.466955 0.031828 0.088423 3.000000
-0.466955 0.032543 -0.027492 3.000000
-0.466955 -0.016905 0.077804 3.000000
-0.466955 -0.002521 0.031494 3.000000
-0.466955 -0.042573 0.085691 3.000000
-0.466955 -0.045308 0.063952 3.000000
-0.466955 -0.022740 -0.079939 3.000000
-0.466955 -0.020522 -0.039808 3.000000
-0.466955 -0.082787 -0.048845 3.000000
-0.466955 0.081842 0.050975 3.000000
-0.466955 0.037003 0.080383 3.000000
-0.466955 -0.009788 0.068289 3.000000
-0.466955 0.036329 -0.025611 3.000000
-0.466955 -0.006520 -0.032987 3.000000
-0.466955 0.015432 -0.076304 3.000000
-0.466955 -0.072715 -0.033746 3.000000
-0.466955 -0.041243 0.009883 3.000000
-0.466955 -0.035975 0.084254 3.000000
-0.466955 -0.047077 -0.052359 3.000000
-0.466955 -0.052414 -0.056564 3.000000
-0.466955 -0.064382 -0.000870 3.000000
-0.466955 0.004341 0.045372 3.000000
-0.466955 -0.023490 0.027443 3.000000
-0.466955 -0.002397 -0.086128 3.000000
-0.466955 -0.083499 -0.016728 3.000000
-0.466955 0.045173 -0.031541 3.000000
-0.466955 -0.033109 -0.058394 3.000000
-0.466955 0.023616 -0.077113 3.000000
-0.466955 0.017888 0.003561 3.000000
-0.466955 -0.053092 0.070421 3.000000
-0.466955 0.065829 -0.014996 3.000000
-0.466955 -0.092883 -0.006826 3.000000
-0.466955 -0.022401 -0.022192 3.000000
-0.466955 -0.046511 -0.065359 3.000000
-0.466955 -0.026381 -0.012455 3.000000
-0.466955 -0.066265 -0.027694 3.000000
-0.466955 -0.001850 0.059116 3.000000
-0.466955 0.037247 0.001895 3.000000
-0.466955 0.031822 -0.035663 3.000000
-0.466955 -0.037116 0.090625 3.000000
-0.466955 -0.014583 -0.026853 3.000000
-0.466955 -0.009276 -0.047660 3.000000
-0.466955 -0.010587 0.053862 3.000000
-0.466955 0.044080 -0.016956 3.000000
-0.466955 -0.046329 -0.024550 3.000000
-0.466955 -0.037968 -0.036549 3.000000
-0.466955 -0.033226 0.060954 3.000000
-0.466955 0.017801 0.008468 3.000000
-0.466955 -0.031698 0.074151 3.000000
-0.466955 0.051321 0.022201 3.000000
-0.466955 -0.031138 -0.054146 3.000000
-0.466955 0.066042 -0.007869 3.000000
-0.466955 -0.033038 -0.042131 3.000000
-0.466955 0.070644 -0.065532 3.000000
-0.466955 -0.002206 0.013898 3.000000
-0.466955 0.037922 -0.042126 3.000000
-0.466955 0.030363 0.030293 3.000000
-0.466955 0.054575 0.012160 3.000000
-0.466955 0.011444 0.044054 3.000000
-0.466955 -0.096217 -0.017049 3.000000
