-0.466955 0.022760 0.062085 3.000000
-0.466955 0.073423 -0.046007 3.000000
-0.466955 0.050067 -0.033219 3.000000
-0.466955 0.040573 -0.060436 3.000000
-0.466955 0.043595 -0.045215 3.000000
-0.466955 0.010586 0.058800 3.000000
-0.466955 0.017634 0.093981 3.000000
-0.466955 -0.064279 -0.032358 3.000000
-0.466955 0.017927 -0.041991 3.000000
-0.466955 0.037791 -0.082776 3.000000
-0.466955 0.072096 0.011729 3.000000
-0.466955 0.056342 -0.021688 3.000000
-0.466955 -0.062649 -0.038547 3.000000
-0.466955 0.003310 -0.025543 3.000000
-0.466955 -0.027972 -0.051975 3.000000
-0.466955 0.012961 -0.040087 3.000000
-0.466955 -0.005163 0.091068 3.000000
-0.466955 0.031633 0.053290 3.000000
-0.466955 -0.055418 -0.073119 3.000000
-0.466955 -0.042192 0.082594 3.000000
-0.466955 0.038662 -0.081235 3.000000
-0.466955 0.071423 -0.037525 3.000000
-0.466955 0.038651 0.068446 3.000000
-0.466955 0.007966 0.058497 3.000000
-0.466955 -0.027236 0.014085 3.000000
-0.466955 -0.048023 0.032329 3.000000
-0.466955 0.027999 -0.063431 3.000000
-0.466955 -0.009469 0.039972 3.000000
-0.466955 -0.038620 -0.006545 3.000000
-0.466955 0.045200 -0.071343 3.000000
-0.466955 0.028622 0.018071 3.000000
-0.466955 0.015782 0.020803 3.000000
-0.466955 -0.026630 -0.014402 3.000000
-0.466955 0.047162 -0.086041 3.000000
-0.466955 -0.040359 -0.042363 3.000000
-0.466955 -0.017058 -0.073384 3.000000
-0.466955 0.042221 0.036898 3.000000
-0.466955 -0.016134 -0.020454 3.000000
-0.466955 0.019550 0.054885 3.000000
-0.466955 -0.002340 -0.064154 3.000000
-0.466955 -0.039130 -0.068184 3.000000
-0.466955 -0.050157 0.078603 3.000000
-0.466955 -0.016777 0.081004 3.000000
-0.466955 -0.031293 0.074245 3.000000
-0.466955 -0.027087 0.079806 3.000000
-0.466955 0.026460 0.035321 3.000000
-0.466955 -0.052548 0.077685 3.000000
-0.466955 -0.046392 0.002342 3.000000
-0.466955 0.023262 0.082081 3.000000
-0.466955 -0.079672 -0.003458 3.000000
-0.466955 -0.044964 -0.031844 3.000000
-0.466955 0.010047 0.097641 3.000000
-0.466955 -0.056054 -0.012584 3.000000
-0.466955 0.034114 0.001108 3.000000
-0.466955 -0.037549 0.080677 3.000000
-0.466955 0.055992 -0.047170 3.000000
-0.466955 -0.063877 -0.044948 3.000000
-0.466955 -0.030490 -0.065719 3.000000
-0.466955 -0.017294 -0.048862 3.000000
-0.466955 -0.003502 0.014097 3.000000
-0.466955 0.014643 -0.018580 3.000000
-0.466955 0.042083 0.087976 3.000000
-0.466955 0.006366 0.054095 3.000000
-0.466955 0.090902 -0.008303 3.000000
-0.466955 0.023456 0.069389 3.000000
-0.466955 0.030802 -0.016150 3.000000
-0.466955 0.078135 -0.022822 3.000000
-0.466955 0.018425 0.034272 3.000000
-0.466955 -0.070924 -0.060874 3.000000
-0.466955 -0.007938 0.063505 3.000000
-0.466955 0.027048 -0.095701 3.000000
-0.466955 -0.069967 0.058616 3.000000
-0.466955 -0.037482 0.035454 3.000000
-0.466955 -0.066914 0.040805 3.000000
-0.466955 -0.075006 0.022144 3.000000
-0.466955 0.018612 -0.034061 3.000000
-0.466955 0.075751 0.064031 3.000000
-0.466955 0.091054 0.005271 3.000000
-0.466955 -0.021594 0.089242 3.000000
-0.466955 -0.088426 -0.036048 3.000000
-0.466955 -0.001036 -0.029933 3.000000
-0.466955 -0.035372 0.078299 3.000000
-0.466955 0.009068 -0.007221 3.000000
-0.466955 -0.095704 0.013354 3.000000
-0.466955 0.024433 0.072631 3.000000
-0.466955 -0.081965 -0.006907 3.000000
-0.466955 0.057782 -0.050303 3.000000
-0.466955 -0.033681 0.015374 3.000000
-0.466955 -0.023908 -0.058064 3.000000
-0.466955 0.084361 0.032769 3.000000
-0.466955 0.002019 0.068844 3.000000
-0.466955 -0.021376 -0.058740 3.000000
-0.466955 -0.011506 -0.046517 3.000000
-0.466955 -0.070981 -0.037273 3.000000
-0.466955 -0.058783 0.074907 3.000000
-0.466955 0.017198 0.000784 3.000000
-0.466955 -0.076344 -0.045861 3.000000
-0.466955 -0.059718 0.000443 3.000000
-0.466955 0.080940 0.033624 3.000000
-0.466955 -0.079248 0.006973 3.000000
-0.466955 -0.044415 -0.080398 3.000000
-0.466955 0.017263 -0.091811 3.000000
-0.466955 -0.002057 -0.073523 3.000000
-0.466955 0.056468 -0.079990 3.000000
-0.466955 -0.066555 -0.014415 3.000000
-0.466955 0.046072 0.032502 3.000000
-0.466955 -0.040702 -0.043992 3.000000
-0.466955 0.013317 0.083197 3.000000
-0.466955 0.080238 0.050411 3.000000
-0.466955 -0.052125 0.058636 3.000000
-0.466955 -0.014210 0.028601 3.000000
-0.466955 0.001429 -0.022360 3.000000
-0.466955 -0.079137 0.003800 3.000000
-0.466955 0.048603 -0.058803 3.000000
-0.466955 -0.076162 0.026607 3.000000
-0.466955 -0.042667 0.021225 3.000000
-0.466955 0.056344 -0.041858 3.000000
-0.466955 -0.011811 -0.041299 3.000000
-0.466955 -0.012156 -0.005958 3.000000
-0.466955 -0.011776 -0.004475 3.000000
-0.466955 -0.039529 0.010532 3.000000
-0.466955 -0.036363 -0.047529 3.000000
-0.466955 0.071371 -0.055074 3.000000
-0.466955 -0.001811 0.095222 3.000000
-0.466955 -0.090632 -0.027284 3.000000
-0.466955 -0.033391 0.046332 3.000000
-0.466955 -0.012700 -0.007390 3.000000
-0.466955 0.014913 0.001577 3.000000
-0.466955 0.000311 -0.052424 3.000000
-0.466955 -0.023434 0.082392 3.000000
-0.466955 -0.000891 0.036844 3.000000
-0.466955 -0.040763 0.019401 3.000000
-0.466955 -0.063143 -0.004050 3.000000
-0.466955 0.050033 0.074215 3.000000
-0.466955 -0.025556 0.086696 3.000000
-0.466955 -0.071827 -0.046206 3.000000
-0.466955 0.067668 0.037435 3.000000
-0.466955 -0.023100 0.015049 3.000000
-0.466955 -0.061220 0.032043 3.000000
-0.466955 0.031446 0.032170 3.000000
-0.466955 -0.031935 0.084038 3.000000
-0.466955 -0.015679 0.028265 3.000000
-0.466955 0.031869 -0.026338 3.000000
-0.466955 -0.013329 -0.025691 3.000000
-0.466955 -0.042006 0.024393 3.000000
-0.466955 0.066286 -0.036136 3.000000
-0.466955 -0.017753 0.039484 3.000000
-0.466955 -0.058177 0.010899 3.000000
-0.466955 -0.049761 -0.018436 3.000000
-0.466955 -0.055146 -0.063431 3.000000
-0.466955 0.005560 -0.031003 3.000000
-0.466955 -0.064385 0.062077 3.000000
-0.466955 -0.045367 -0.035640 3.000000
-0.466955 0.041183 -0.016551 3.000000
-0.466955 -0.000505 -0.023484 3.000000
-0.466955 -0.040824 -0.011793 3.000000
-0.466955 0.058710 0.029983 3.000000
-0.466955 0.061104 0.032647 3.000000
-0.466955 -0.011824 0.025236 3.000000
-0.466955 0.065684 0.047509 3.000000
-0.466955 0.035195 -0.045223 3.000000
-0.466955 -0.005055 0.075961 3.000000
-0.466955 0.021831 0.009054 3.000000
-0.466955 -0.023249 -0.055976 3.000000
-0.466955 0.009491 -0.099026 3.000000
-0.466955 0.024811 -0.064297 3.000000
-0.466955 0.019757 -0.002511 3.000000
-0.466955 -0.016786 -0.014249 3.000000
-0.466955 -0.076384 -0.001108 3.000000
-0.466955 0.002392 0.099179 3.000000
-0.466955 -0.047642 0.021456 3.000000
-0.466955 0.031552 0.030105 3.000000
-0.466955 -0.051107 0.076984 3.000000
-0.466955 0.092789 0.016318 3.000000
-0.466955 -0.084293 -0.009900 3.000000
-0.466955 -0.006253 0.012135 3.000000
-0.466955 -0.069478 -0.060279 3.000000
-0.466955 -0.013389 0.071490 3.000000
-0.466955 0.010512 -0.053553 3.000000
-0.466955 0.072030 0.048464 3.000000
-0.466955 0.021117 -0.039135 3.000000
-0.466955 -0.029639 -0.094868 3.000000
-0.466955 0.058697 -0.005372 3.000000
-0.466955 -0.042957 0.003694 3.000000
-0.466955 -0.016912 0.057437 3.000000
-0.466955 -0.093078 0.009379 3.000000
-0.466955 -0.076539 -0.036138 3.000000
-0.466955 0.017027 -0.026120 3.000000
-0.466955 -0.083855 0.010414 3.000000
-0.466955 -0.070533 0.007158 3.000000
-0.466955 0.083583 -0.030745 3.000000
-0.466955 -0.072667 -0.048117 3.000000
-0.466955 0.051988 -0.053697 3.000000
-0.466955 -0.072233 0.039425 3.000000
-0.466955 -0.058191 -0.065562 3.000000
-0.466955 0.035605 -0.022284 3.000000
-0.466955 0.061779 0.071670 3.000000
-0.466955 0.026259 -0.032061 3.000000
-0.466955 -0.015196 0.065387 3.000000
-0.466955 0.066785 -0.033187 3.000000
-0.466955 -0.039538 0.050708 3.000000
-0.466955 0.055077 0.082805 3.000000
-0.466955 -0.009567 0.063368 3.000000
-0.466955 -0.032756 0.032621 3.000000
-0.466955 -0.026824 -0.070703 3.000000
-0.466955 0.065932 -0.019234 3.000000
-0.466955 0.077037 0.008866 3.000000
-0.466955 -0.042699 -0.075924 3.000000
-0.466955 -0.023551 0.095316 3.000000
-0.466955 0.090052 0.037171 3.000000
-0.466955 -0.042469 0.051300 3.000000
-0.466955 0.003380 -0.039381 3.000000
-0.466955 0.006928 0.048919 3.000000
-0.466955 -0.047589 0.033877 3.000000
-0.466955 0.072663 0.065037 3.000000
-0.466955 0.079605 0.052084 3.000000
-0.466955 -0.001774 -0.044533 3.000000
-0.466955 -0.055084 -0.080223 3.000000
-0.466955 -0.004717 0.062927 3.000000
-0.466955 0.041635 -0.078242 3.000000
-0.466955 0.091496 0.036431 3.000000
-0.466955 0.053149 0.009661 3.000000
-0.466955 -0.074508 -0.058996 3.000000
-0.466955 0.054833 -0.050951 3.000000
-0.466955 0.094349 -0.011012 3.000000
-0.466955 -0.035407 0.049838 3.000000
-0.466955 0.013000 -0.012638 3.000000
-0.466955 0.046942 0.030559 3.000000
-0.466955 -0.057750 -0.063051 3.000000
-0.466955 -0.038266 0.067837 3.000000
-0.466955 0.079921 0.020682 3.000000
-0.466955 -0.037011 -0.035780 3.000000
-0.466955 0.067012 -0.042134 3.000000
-0.466955 -0.024480 -0.094176 3.000000
-0.466955 0.011073 -0.076589 3.000000
-0.466955 -0.026917 -0.032037 3.000000
-0.466955 -0.004320 0.092575 3.000000
-0.466955 0.033891 -0.047028 3.000000
-0.466955 -0.067653 0.066960 3.000000
-0.466955 0.006108 0.047382 3.000000
-0.466955 -0.078375 0.005224 3.000000
-0.466955 0.026188 -0.054518 3.000000
-0.466955 -0.098436 0.008452 3.000000
-0.466955 -0.091406 -0.028890 3.000000
-0.466955 0.035361 -0.028315 3.000000
-0.466955 0.029515 0.093820 3.000000
-0.466955 0.086858 -0.018326 3.000000
-0.466955 -0.039439 0.037920 3.000000
-0.466955 0.027644 -0.077865 3.000000
-0.466955 -0.025306 -0.072277 3.000000
-0.466955 0.095756 -0.002724 3.000000
-0.466955 -0.004547 0.031813 3.000000
-0.466955 0.001196 -0.082510 3.000000
-0.466955 0.033314 -0.022886 3.000000
-0.466955 0.041211 0.010780 3.000000
-0.466955 0.049977 -0.069950 3.000000
-0.466955 0.068205 -0.054888 3.000000
-0.466955 0.057088 0.060262 3.000000
-0.466955 0.053432 -0.067553 3.000000
-0.466955 0.042356 -0.035365 3.000000
-0.466955 0.020851 0.087637 3.000000
-0.466955 0.013761 -0.069544 3.000000
-0.466955 0.045842 -0.022044 3.000000
-0.466955 0.015398 0.025674 3.000000
-0.466955 0.005246 0.074604 3.000000
-0.466955 0.032161 0.070510 3.000000
-0.466955 -0.023098 0.051727 3.000000
-0.466955 0.064597 0.009295 3.000000
-0.466955 -0.015524 -0.023978 3.000000
-0.466955 -0.015475 0.088055 3.000000
-0.466955 -0.007765 -0.063557 3.000000
-0.466955 0.033837 -0.082370 3.000000
-0.466955 0.012727 0.085764 3.000000
-0.466955 -0.000081 0.094434 3.000000
-0.466955 -0.040662 -0.081408 3.000000
-0.466955 -0.033285 0.047826 3.000000
-0.466955 -0.066684 0.018542 3.000000
-0.466955 -0.026318 -0.052459 3.000000
-0.466955 -0.000616 0.096296 3.000000
-0.466955 0.077434 0.004518 3.000000
-0.466955 0.033255 0.021218 3.000000
-0.466955 -0.070554 -0.039575 3.000000
-0.466955 -0.020071 -0.090968 3.000000
-0.466955 0.054500 -0.032497 3.000000
-0.466955 0.038970 -0.028491 3.000000
-0.466955 0.023151 0.051388 3.000000
-0.466955 0.025592 0.069120 3.000000
-0.466955 -0.012596 -0.087750 3.000000
-0.466955 0.061596 0.006744 3.000000
-0.466955 0.018748 -0.001397 3.000000
-0.466955 -0.069617 -0.052162 3.000000
-0.466955 0.038970 0.057587 3.000000
-0.466955 0.011197 0.094692 3.000000
-0.466955 0.079905 0.053811 3.000000
-0.466955 -0.064551 -0.047599 3.000000
-0.466955 0.078088 0.053365 3.000000
-0.466955 -0.028114 -0.028230 3.000000
-0.466955 -0.024917 -0.007719 3.000000
-0.466955 0.037322 0.014620 3.000000
-0.466955 0.045292 0.067387 3.000000
-0.466955 -0.059409 0.056842 3.000000
-0.466955 -0.067543 0.004716 3.000000
-0.466955 0.027829 -0.085570 3.000000
-0.466955 -0.063469 0.002342 3.000000
-0.466955 0.090516 0.032550 3.000000
-0.466955 -0.093605 -0.002901 3.000000
-0.466955 0.045603 -0.033525 3.000000
-0.466955 -0.012192 -0.016381 3.000000
-0.466955 -0.002490 -0.024005 3.000000
-0.466955 -0.027420 0.022182 3.000000
-0.466955 -0.060163 -0.064322 3.000000
-0.466955 -0.040729 0.001034 3.000000
-0.466955 0.065308 0.013161 3.000000
-0.466955 0.098006 0.006359 3.000000
-0.466955 0.022964 0.007643 3.000000
-0.466955 -0.057473 0.026900 3.000000
-0.466955 0.071644 0.003015 3.000000
-0.466955 0.025463 0.094204 3.000000
-0.466955 -0.046269 -0.056607 3.000000
-0.466955 0.057104 -0.023476 3.000000
-0.466955 0.033619 -0.093447 3.000000
-0.466955 0.072780 0.055809 3.000000
-0.466955 -0.086754 0.047412 3.000000
-0.466955 -0.047083 -0.072864 3.000000
-0.466955 0.047917 -0.053640 3.000000
-0.466955 0.004718 0.054957 3.000000
-0.466955 0.080025 0.059996 3.000000
-0.466955 -0.074997 0.032733 3.000000
-0.466955 -0.034633 -0.057251 3.000000
-0.466955 0.011985 0.077326 3.000000
-0.466955 0.079357 0.035392 3.000000
-0.466955 -0.019049 0.066162 3.000000
-0.466955 0.017062 0.096673 3.000000
-0.466955 -0.075938 0.047118 3.000000
-0.466955 -0.043647 0.075795 3.000000
-0.466955 -0.007272 0.059426 3.000000
-0.466955 -0.021563 0.051275 3.000000
-0.466955 0.048555 -0.044375 3.000000
-0.466955 0.033436 -0.068982 3.000000
-0.466955 0.022078 -0.017318 3.000000
-0.466955 0.041244 -0.083774 3.000000
-0.466955 -0.019075 -0.093035 3.000000
-0.466955 -0.050072 -0.066928 3.000000
-0.466955 -0.011533 0.012374 3.000000
-0.466955 0.044139 0.022518 3.000000
-0.466955 -0.065754 0.060941 3.000000
-0.466955 -0.090368 -0.015455 3.000000
-0.466955 0.039796 0.084573 3.000000
-0.466955 0.025489 -0.091541 3.000000
-0.466955 -0.051503 -0.084167 3.000000
-0.466955 0.063367 0.053108 3.000000
-0.466955 -0.076716 0.013949 3.000000
-0.466955 0.038958 0.016779 3.000000
-0.466955 0.008060 -0.005840 3.000000
-0.466955 0.067205 0.050798 3.000000
-0.466955 0.000434 0.048067 3.000000
-0.466955 0.063874 -0.000539 3.000000
-0.466955 0.000389 -0.060626 3.000000
-0.466955 0.019038 -0.066315 3.000000
-0.466955 -0.035919 -0.087675 3.000000
-0.466955 0.061862 -0.052743 3.000000
-0.466955 0.014609 0.039067 3.000000
-0.466955 -0.039486 -0.055834 3.000000
-0.466955 0.075134 -0.041839 3.000000
-0.466955 -0.044371 -0.072603 3.000000
-0.466955 -0.036925 -0.011526 3.000000
-0.466955 -0.012985 0.045347 3.000000
-0.466955 0.009378 0.059717 3.000000
-0.466955 0.048172 -0.057394 3.000000
-0.466955 0.081116 -0.053145 3.000000
-0.466955 0.003957 -0.077122 3.000000
-0.466955 -0.067989 -0.044264 3.000000
-0.466955 0.047748 -0.016163 3.000000
-0.466955 -0.048424 -0.027205 3.000000
-0.466955 -0.046824 -0.047248 3.000000
-0.466955 -0.042872 0.049646 3.000000
-0.466955 0.031534 -0.060459 3.000000
-0.466955 -0.021482 -0.014051 3.000000
-0.466955 -0.093119 -0.004299 3.000000
-0.466955 0.014785 0.011423 3.000000
-0.466955 0.052212 -0.047968 3.000000
-0.466955 0.010621 0.093197 3.000000
-0.466955 -0.055749 0.008671 3.000000
-0.466955 -0.026983 0.088809 3.000000
-0.466955 0.019085 -0.011798 3.000000
-0.466955 -0.029292 0.094668 3.000000
-0.466955 0.044708 0.025731 3.000000
-0.466955 0.025355 0.029691 3.000000
-0.466955 0.045861 0.034390 3.000000
-0.466955 0.052581 -0.020406 3.000000
-0.466955 -0.088784 -0.009150 3.000000
-0.466955 -0.014927 -0.059927 3.000000
-0.466955 0.015851 -0.021258 3.000000
-0.466955 0.054908 0.067911 3.000000
-0.466955 0.046490 0.017705 3.000000
-0.466955 -0.049818 -0.031657 3.000000
-0.466955 0.018123 -0.005646 3.000000
-0.466955 0.064068 0.064191 3.000000
-0.466955 0.045593 -0.007078 3.000000
-0.466955 -0.048702 -0.028796 3.000000
-0.466955 -0.019870 0.011924 3.000000
-0.466955 -0.050803 -0.011455 3.000000
-0.466955 -0.074875 -0.054021 3.000000
-0.466955 -0.024271 0.004451 3.000000
-0.466955 -0.051674 0.049595 3.000000
-0.466955 0.069493 0.063737 3.000000
-0.466955 0.031871 0.090824 3.000000
-0.466955 -0.056631 0.016739 3.000000
-0.466955 0.074420 -0.038799 3.000000
-0.466955 0.064005 -0.010166 3.000000
-0.466955 0.090260 -0.042551 3.000000
-0.466955 -0.037354 0.078459 3.000000
-0.466955 0.007389 -0.020114 3.000000
-0.466955 0.016047 0.089071 3.000000
-0.466955 -0.033004 0.003435 3.000000
-0.466955 0.073283 -0.060885 3.000000
-0.466955 0.007022 0.046184 3.000000
-0.466955 -0.021137 0.035789 3.000000
-0.466955 0.017987 0.056120 3.000000
-0.466955 -0.034154 -0.080783 3.000000
-0.466955 0.096587 -0.006577 3.000000
-0.466955 0.035222 -0.005170 3.000000
-0.466955 0.020820 0.061408 3.000000
-0.466955 -0.017073 0.053717 3.000000
-0.466955 -0.012676 -0.063244 3.000000
-0.466955 -0.023518 -0.022960 3.000000
-0.466955 -0.034246 -0.064576 3.000000
-0.466955 0.031396 0.077093 3.000000
-0.466955 0.006478 0.043277 3.000000
-0.466955 0.067751 -0.024480 3.000000
-0.466955 0.044510 0.077719 3.000000
-0.466955 0.063201 -0.037469 3.000000
-0.466955 -0.040302 -0.090591 3.000000
-0.466955 -0.093138 0.030496 3.000000
-0.466955 -0.011543 -0.017832 3.000000
-0.466955 0.056329 0.021575 3.000000
-0.466955 0.019421 0.062076 3.000000
-0.466955 -0.032289 0.045424 3.000000
-0.466955 -0.057621 0.034609 3.000000
-0.466955 0.054475 0.026978 3.000000
-0.466955 -0.074380 -0.065854 3.000000
-0.466955 0.096877 0.007837 3.000000
-0.466955 -0.072870 -0.026975 3.000000
-0.466955 -0.041133 -0.016225 3.000000
-0.466955 0.067304 0.012958 3.000000
-0.466955 0.008126 -0.009290 3.000000
-0.466955 -0.073344 0.001545 3.000000
-0.466955 -0.061567 -0.023914 3.000000
-0.466955 0.076132 0.047275 3.000000
-0.466955 -0.066689 0.071647 3.000000
-0.466955 0.061001 0.021394 3.000000
-0.466955 -0.058345 0.068663 3.000000
-0.466955 -0.035314 0.007969 3.000000
-0.466955 0.095497 0.004419 3.000000
-0.466955 -0.075510 -0.015271 3.000000
-0.466955 0.078549 -0.005433 3.000000
-0.466955 -0.013174 -0.040761 3.000000
-0.466955 -0.056049 0.013262 3.000000
-0.466955 0.033788 0.034766 3.000000
-0.466955 0.068755 0.065188 3.000000
-0.466955 -0.084330 0.019658 3.000000
-0.466955 0.086768 0.011508 3.000000
-0.466955 0.025898 0.058953 3.000000
-0.466955 0.029640 0.085222 3.000000
-0.466955 -0.036507 -0.069640 3.000000
-0.466955 0.008464 0.076842 3.000000
-0.466955 0.068471 0.019726 3.000000
-0.466955 -0.074378 -0.039021 3.000000
-0.466955 0.006939 0.003769 3.000000
-0.466955 0.086069 0.020451 3.000000
-0.466955 0.035460 0.071736 3.000000
-0.466955 -0.015313 0.001207 3.000000
-0.466955 0.041570 -0.022953 3.000000
-0.466955 0.044106 0.001318 3.000000
-0.466955 0.043352 -0.018185 3.000000
-0.466955 0.091368 0.034710 3.000000
-0.466955 -0.082576 0.031370 3.000000
-0.466955 -0.004512 -0.071318 3.000000
-0.466955 -0.006001 0.053887 3.000000
-0.466955 -0.066998 0.036577 3.000000
-0.466955 -0.020252 -0.042606 3.000000
-0.466955 0.024482 0.061129 3.000000
-0.466955 0.036965 0.064741 3.000000
-0.466955 0.022411 -0.067172 3.000000
-0.466955 -0.047774 -0.003536 3.000000
-0.466955 0.092307 -0.007407 3.000000
-0.466955 0.067855 0.005485 3.000000
-0.466955 -0.049419 -0.068199 3.000000
-0.466955 -0.018973 0.078140 3.000000
-0.466955 -0.034029 0.059801 3.000000
-0.466955 0.021723 0.074520 3.000000
-0.466955 0.039151 0.053824 3.000000
-0.466955 0.029233 -0.025218 3.000000
-0.466955 0.085277 0.009808 3.000000
-0.466955 -0.008076 0.015990 3.000000
-0.466955 0.076811 -0.057719 3.000000
-0.466955 0.054240 0.006566 3.000000
-0.466955 -0.029888 0.044383 3.000000
-0.466955 0.024821 -0.029745 3.000000
-0.466955 0.068273 0.071579 3.000000
-0.466955 0.039116 -0.053050 3.000000
-0.466955 -0.030963 -0.085021 3.000000
-0.466955 0.050461 0.080335 3.000000
-0.466955 -0.075830 0.037033 3.000000
-0.466955 0.087962 -0.012480 3.000000
-0.466955 0.013490 -0.067878 3.000000
-0.466955 0.004609 -0.010968 3.000000
-0.466955 -0.024181 -0.086371 3.000000
-0.466955 0.045748 -0.068090 3.000000
-0.466955 -0.054610 0.060885 3.000000
-0.466955 -0.052164 0.025038 3.000000
-0.466955 -0.002139 0.067247 3.000000
-0.466955 0.000370 -0.015190 3.000000
-0.466955 -0.000701 -0.093410 3.000000
-0.466955 -0.011842 -0.030795 3.000000
-0.466955 0.078944 0.001218 3.000000
-0.466955 -0.000476 0.044678 3.000000
-0.466955 0.066605 -0.013601 3.000000
-0.466955 -0.076339 -0.005645 3.000000
-0.466955 -0.066750 0.013353 3.000000
-0.466955 -0.043608 0.067322 3.000000
-0.466955 0.003081 0.006015 3.000000
-0.466955 0.080331 0.006731 3.000000
-0.466955 0.042064 -0.061618 3.000000
-0.466955 0.019869 -0.050340 3.000000
-0.466955 -0.070277 0.015287 3.000000
-0.466955 0.060208 -0.032914 3.000000
-0.466955 -0.084180 -0.052708 3.000000
-0.466955 -0.010036 -0.028348 3.000000
-0.466955 0.039169 -0.001300 3.000000
-0.466955 -0.051885 0.028348 3.000000
-0.466955 0.029117 0.066902 3.000000
-0.466955 -0.066502 0.000628 3.000000
-0.466955 0.020718 -0.019680 3.000000
-0.466955 -0.048199 0.075977 3.000000
-0.466955 -0.031986 0.069662 3.000000
-0.466955 -0.093791 0.000622 3.000000
-0.466955 0.021939 -0.023363 3.000000
-0.466955 0.074525 0.001064 3.000000
-0.466955 -0.024255 0.077654 3.000000
-0.466955 -0.043046 0.057557 3.000000
-0.466955 -0.053419 0.073429 3.000000
-0.466955 -0.077009 0.032798 3.000000
-0.466955 -0.016136 0.092347 3.000000
-0.466955 0.050342 0.084132 3.000000
-0.466955 0.023515 -0.079067 3.000000
-0.466955 0.060157 -0.054647 3.000000
-0.466955 0.046080 -0.004853 3.000000
-0.466955 -0.009447 0.071934 3.000000
-0.466955 -0.064708 -0.053602 3.000000
-0.466955 -0.024394 0.052254 3.000000
-0.466955 -0.007718 0.092577 3.000000
-0.466955 0.015297 0.022259 3.000000
-0.466955 0.048142 -0.030262 3.000000
-0.466955 -0.014381 0.030041 3.000000
-0.466955 -0.083599 -0.027247 3.000000
-0.466955 -0.050751 -0.051058 3.000000
-0.466955 -0.066659 -0.071904 3.000000
-0.466955 -0.011558 0.021024 3.000000
-0.466955 0.028889 -0.061907 3.000000
-0.466955 -0.073530 -0.061301 3.000000
-0.466955 -0.030491 0.092511 3.000000
-0.466955 0.078803 -0.058199 3.000000
-0.466955 -0.002668 0.096369 3.000000
-0.466955 -0.060802 0.053842 3.000000
-0.466955 -0.050852 -0.070237 3.000000
-0.466955 -0.039655 -0.009334 3.000000
-0.466955 -0.091768 0.012395 3.000000
-0.466955 -0.027455 -0.086643 3.000000
-0.466955 0.036151 0.017011 3.000000
-0.466955 0.008030 -0.025848 3.000000
-0.466955 0.004215 -0.023363 3.000000
-0.466955 -0.074993 0.039976 3.000000
-0.466955 -0.015694 -0.048560 3.000000
-0.466955 -0.008160 0.050597 3.000000
-0.466955 0.060747 0.074552 3.000000
-0.466955 -0.065151 0.040904 3.000000
-0.466955 -0.093993 -0.026224 3.000000
-0.466955 -0.052384 0.067493 3.000000
-0.466955 -0.036640 0.000559 3.000000
-0.466955 0.029545 -0.029273 3.000000
-0.466955 0.017713 0.040956 3.000000
-0.466955 0.004931 -0.007297 3.000000
-0.466955 0.042409 -0.001139 3.000000
-0.466955 0.010415 -0.071673 3.000000
-0.466955 -0.072861 0.041040 3.000000
-0.466955 -0.030760 -0.059758 3.000000
-0.466955 -0.077529 -0.002189 3.000000
-0.466955 -0.060119 0.050456 3.000000
-0.466955 -0.012739 -0.079694 3.000000
-0.466955 -0.000268 0.090978 3.000000
-0.466955 0.051215 -0.081752 3.000000
-0.466955 0.052574 -0.075018 3.000000
-0.466955 -0.077162 -0.052063 3.000000
-0.466955 -0.004750 0.082361 3.000000
-0.466955 0.064890 0.058461 3.000000
-0.466955 -0.006351 -0.003538 3.000000
-0.466955 0.010903 0.015701 3.000000
-0.466955 0.050724 0.035687 3.000000
-0.466955 -0.074523 -0.003548 3.000000
-0.466955 -0.064673 0.069821 3.000000
-0.466955 0.031480 -0.044695 3.000000
-0.466955 0.016555 0.024503 3.000000
-0.466955 0.022164 0.013217 3.000000
-0.466955 0.038129 -0.011483 3.000000
-0.466955 0.055356 0.077450 3.000000
-0.466955 -0.022539 0.077213 3.000000
-0.466955 -0.044464 -0.066090 3.000000
-0.466955 0.018771 -0.006977 3.000000
-0.466955 0.068220 -0.067759 3.000000
-0.466955 0.023915 -0.049353 3.000000
-0.466955 -0.083774 0.047000 3.000000
-0.466955 -0.077398 -0.046728 3.000000
-0.466955 0.014717 -0.059833 3.000000
-0.466955 0.077473 -0.048082 3.000000
-0.466955 0.010219 0.076808 3.000000
-0.466955 0.023626 0.087443 3.000000
-0.466955 0.032354 0.088439 3.000000
-0.466955 0.060179 -0.050234 3.000000
-0.466955 0.039291 -0.049854 3.000000
-0.466955 -0.018165 -0.056703 3.000000
-0.466955 0.018635 -0.094327 3.000000
-0.466955 0.039250 0.080099 3.000000
-0.466955 0.022353 -0.082428 3.000000
-0.466955 0.082791 0.048234 3.000000
-0.466955 0.032029 -0.058955 3.000000
-0.466955 0.084485 -0.034142 3.000000
-0.466955 -0.064429 -0.075864 3.000000
-0.466955 -0.055103 -0.028674 3.000000
-0.466955 0.029985 -0.017742 3.000000
-0.466955 -0.094976 -0.029865 3.000000
-0.466955 -0.063702 0.053208 3.000000
-0.466955 -0.095818 0.027821 3.000000
-0.466955 -0.066927 0.035004 3.000000
-0.466955 0.039602 0.062648 3.000000
-0.466955 -0.091607 0.019950 3.000000
-0.466955 -0.086911 -0.008613 3.000000
-0.466955 0.092674 0.037541 3.000000
-0.466955 0.053064 -0.007200 3.000000
-0.466955 0.018478 -0.055382 3.000000
-0.466955 0.057117 0.001765 3.000000
-0.466955 0.067890 0.008989 3.000000
-0.466955 0.080771 -0.041512 3.000000
-0.466955 -0.035651 0.040390 3.000000
-0.466955 -0.002304 -0.033947 3.000000
-0.466955 0.059281 -0.027811 3.000000
-0.466955 0.029675 0.009338 3.000000
-0.466955 -0.069857 0.030656 3.000000
-0.466955 0.006847 -0.069667 3.000000
-0.466955 -0.043815 -0.071370 3.000000
-0.466955 0.061445 0.038551 3.000000
-0.466955 -0.074526 0.035773 3.000000
-0.466955 -0.032021 0.051689 3.000000
-0.466955 0.015858 0.013197 3.000000
-0.466955 -0.092234 -0.021304 3.000000
-0.466955 0.001003 0.037093 3.000000
-0.466955 -0.021446 0.032832 3.000000
-0.466955 -0.070768 -0.048246 3.000000
-0.466955 -0.071853 0.000187 3.000000
-0.466955 -0.006662 -0.055455 3.000000
-0.466955 0.014395 0.084412 3.000000
-0.466955 0.059085 -0.011876 3.000000
-0.466955 -0.071518 0.042014 3.000000
-0.466955 -0.026863 -0.005718 3.000000
-0.466955 -0.041885 -0.023129 3.000000
-0.466955 -0.022026 0.014149 3.000000
-0.466955 -0.082885 -0.029601 3.000000
-0.466955 0.051770 0.015729 3.000000
-0.466955 0.051798 0.017166 3.000000
-0.466955 -0.038455 -0.089924 3.000000
-0.466955 0.015271 -0.010776 3.000000
-0.466955 0.055322 0.064487 3.000000
-0.466955 0.002255 -0.032998 3.000000
-0.466955 -0.012916 -0.050247 3.000000
-0.466955 -0.005988 0.004827 3.000000
-0.466955 0.016432 0.039553 3.000000
-0.466955 0.070770 -0.051182 3.000000
-0.466955 0.009548 0.069775 3.000000
-0.466955 -0.071517 -0.040828 3.000000
-0.466955 0.030787 -0.089910 3.000000
-0.466955 0.018885 0.008039 3.000000
-0.466955 0.014685 0.049291 3.000000
-0.466955 -0.025026 -0.051042 3.000000
-0.466955 0.081824 -0.036413 3.000000
-0.466955 -0.077917 -0.011631 3.000000
-0.466955 -0.030405 -0.056717 3.000000
-0.466955 0.058417 0.015781 3.000000
-0.466955 -0.022493 0.009623 3.000000
-0.466955 0.080981 0.000870 3.000000
-0.466955 -0.034526 -0.048410 3.000000
-0.466955 0.073955 -0.055884 3.000000
-0.466955 0.074878 0.060961 3.000000
-0.466955 -0.006716 -0.004994 3.000000
-0.466955 -0.042318 -0.012367 3.000000
-0.466955 0.039257 -0.034251 3.000000
-0.466955 -0.080557 -0.006856 3.000000
-0.466955 0.066135 0.014513 3.000000
-0.466955 -0.022734 0.003577 3.000000
-0.466955 -0.030754 0.030032 3.000000
-0.466955 -0.053916 0.033753 3.000000
-0.466955 -0.037648 0.031758 3.000000
-0.466955 -0.081360 -0.057410 3.000000
-0.466955 0.016066 -0.056416 3.000000
-0.466955 0.091148 0.014477 3.000000
-0.466955 -0.070157 -0.070334 3.000000
-0.466955 0.024404 0.010714 3.000000
-0.466955 0.018279 0.071948 3.000000
-0.466955 0.066771 0.073304 3.000000
-0.466955 -0.068800 0.025004 3.000000
-0.466955 -0.000036 0.020789 3.000000
-0.466955 0.096679 0.019188 3.000000
-0.466955 0.002115 0.041961 3.000000
-0.466955 -0.055022 0.021869 3.000000
-0.466955 -0.018030 0.009456 3.000000
-0.466955 -0.095144 -0.002056 3.000000
-0.466955 -0.077506 0.025942 3.000000
-0.466955 0.050024 -0.023084 3.000000
-0.466955 -0.088777 0.020626 3.000000
-0.466955 -0.045554 0.063335 3.000000
-0.466955 0.006131 0.039598 3.000000
-0.466955 0.075183 0.046247 3.000000
-0.466955 0.062189 0.015694 3.000000
-0.466955 -0.052340 0.075683 3.000000
-0.466955 -0.021797 0.073836 3.000000
-0.466955 -0.079813 0.025784 3.000000
-0.466955 0.052616 0.048656 3.000000
-0.466955 0.070326 0.046437 3.000000
-0.466955 0.029242 -0.045881 3.000000
-0.466955 0.018783 -0.039298 3.000000
-0.466955 0.052538 0.061209 3.000000
-0.466955 -0.075542 -0.040187 3.000000
-0.466955 0.042490 -0.048545 3.000000
-0.466955 0.061853 0.067737 3.000000
-0.466955 0.072721 0.028179 3.000000
-0.466955 0.069086 -0.012730 3.000000
-0.466955 -0.062043 -0.051283 3.000000
-0.466955 0.040761 0.058010 3.000000
-0.466955 -0.037263 -0.039711 3.000000
-0.466955 -0.043129 -0.021780 3.000000
-0.466955 0.045104 -0.050114 3.000000
-0.466955 0.006453 -0.080739 3.000000
-0.466955 -0.015248 -0.018662 3.000000
-0.466955 -0.004574 0.005217 3.000000
-0.466955 -0.038998 -0.021783 3.000000
-0.466955 0.007206 0.026580 3.000000
-0.466955 0.075459 -0.050977 3.000000
-0.466955 -0.038451 -0.088490 3.000000
-0.466955 -0.075402 0.054112 3.000000
-0.466955 -0.080118 -0.058737 3.000000
-0.466955 0.068744 -0.049149 3.000000
-0.466955 0.051677 0.009068 3.000000
-0.466955 -0.050346 -0.082976 3.000000
-0.466955 -0.017675 0.087068 3.000000
-0.466955 0.056124 0.071544 3.000000
-0.466955 0.098072 -0.010520 3.000000
-0.466955 -0.041356 0.014542 3.000000
-0.466955 0.028303 -0.049385 3.000000
-0.466955 -0.011037 -0.024322 3.000000
-0.466955 0.014997 0.066437 3.000000
-0.466955 0.059366 -0.034496 3.000000
-0.466955 -0.062426 0.042065 3.000000
-0.466955 -0.082165 0.004313 3.000000
-0.466955 -0.039818 -0.073580 3.000000
-0.466955 -0.060616 0.007179 3.000000
-0.466955 0.063977 -0.057207 3.000000
-0.466955 0.079822 -0.055719 3.000000
-0.466955 -0.034288 -0.071173 3.000000
-0.466955 -0.046123 -0.017393 3.000000
-0.466955 0.043462 0.021098 3.000000
-0.466955 0.062401 0.003980 3.000000
-0.466955 -0.014301 -0.029125 3.000000
-0.466955 -0.023136 0.038137 3.000000
-0.466955 -0.028087 -0.016570 3.000000
-0.466955 0.012933 -0.088533 3.000000
-0.466955 0.025723 0.080856 3.000000
-0.466955 -0.058698 0.009412 3.000000
-0.466955 -0.012251 0.063221 3.000000
-0.466955 -0.089191 -0.010637 3.000000
-0.466955 0.057581 -0.037315 3.000000
-0.466955 -0.042038 0.006669 3.000000
-0.466955 0.033511 0.015320 3.000000
-0.466955 0.065118 0.017142 3.000000
-0.466955 0.030905 -0.064361 3.000000
-0.466955 0.042763 0.008046 3.000000
-0.466955 0.013829 -0.026522 3.000000
-0.466955 -0.079412 -0.047240 3.000000
-0.466955 -0.043928 -0.026867 3.000000
-0.466955 -0.003436 -0.076742 3.000000
-0.466955 0.014000 -0.071631 3.000000
-0.466955 0.091188 0.016215 3.000000
-0.466955 0.044260 0.075892 3.000000
-0.466955 0.013755 0.063609 3.000000
-0.466955 -0.003423 0.016552 3.000000
-0.466955 -0.075685 -0.052001 3.000000
-0.466955 -0.001425 -0.070405 3.000000
-0.466955 0.029836 -0.060417 3.000000
-0.466955 0.073342 -0.024694 3.000000
-0.466955 -0.005220 0.001427 3.000000
-0.466955 0.064424 -0.062895 3.000000
-0.466955 0.064649 -0.075198 3.000000
-0.466955 -0.092207 -0.002366 3.000000
-0.466955 0.054566 0.050740 3.000000
-0.466955 0.043393 -0.078770 3.000000
-0.466955 -0.004656 0.074421 3.000000
-0.466955 0.020052 -0.030654 3.000000
-0.466955 0.048454 -0.022676 3.000000
-0.466955 -0.048502 -0.016044 3.000000
-0.466955 -0.047516 -0.050997 3.000000
-0.466955 0.040027 0.031511 3.000000
-0.466955 -0.043588 -0.035009 3.000000
-0.466955 -0.002030 0.052295 3.000000
-0.466955 0.006175 -0.043532 3.000000
-0.466955 -0.032151 0.010875 3.000000
-0.466955 0.014559 0.047185 3.000000
-0.466955 -0.011187 -0.074184 3.000000
-0.466955 -0.009362 -0.081627 3.000000
-0.466955 0.082172 -0.042112 3.000000
-0.466955 0.035357 0.023548 3.000000
-0.466955 -0.027146 -0.092943 3.000000
-0.466955 0.052521 0.064002 3.000000
-0.466955 -0.016255 -0.061821 3.000000
-0.466955 0.028887 0.016350 3.000000
-0.466955 -0.001789 -0.087021 3.000000
-0.466955 -0.032712 -0.063744 3.000000
-0.466955 0.003001 0.044674 3.000000
-0.466955 0.020791 -0.078247 3.000000
-0.466955 0.072744 0.050213 3.000000
-0.466955 -0.074376 -0.048160 3.000000
-0.466955 0.059540 -0.041799 3.000000
-0.466955 0.072433 0.032691 3.000000
-0.466955 0.069264 -0.027048 3.000000
-0.466955 0.042333 -0.050636 3.000000
-0.466955 0.046100 -0.030909 3.000000
-0.466955 -0.079454 -0.055838 3.000000
-0.466955 -0.036980 -0.076777 3.000000
-0.466955 -0.000503 -0.069070 3.000000
-0.466955 -0.066503 0.055630 3.000000
-0.466955 0.051044 0.001569 3.000000
-0.466955 0.037069 0.048582 3.000000
-0.466955 0.028499 0.091252 3.000000
-0.466955 0.003531 0.062740 3.000000
-0.466955 -0.000838 0.022405 3.000000
-0.466955 -0.053907 -0.016601 3.000000
-0.466955 -0.027803 0.033752 3.000000
-0.466955 -0.036069 0.079747 3.000000
-0.466955 -0.022174 -0.039109 3.000000
-0.466955 0.076022 -0.047436 3.000000
-0.466955 0.052132 0.021976 3.000000
-0.466955 -0.011317 -0.027589 3.000000
-0.466955 0.000444 0.067788 3.000000
-0.466955 -0.040480 0.070465 3.000000
-0.466955 -0.047970 0.064457 3.000000
-0.466955 0.051210 -0.076826 3.000000
-0.466955 -0.010293 0.020259 3.000000
-0.466955 -0.026883 0.011305 3.000000
-0.466955 0.011923 0.029329 3.000000
-0.466955 0.022263 0.048310 3.000000
-0.466955 0.022676 -0.022063 3.000000
-0.466955 0.020968 0.007440 3.000000
-0.466955 -0.023937 -0.028304 3.000000
-0.466955 -0.024362 -0.035917 3.000000
-0.466955 0.044803 0.037716 3.000000
-0.466955 0.051160 -0.004818 3.000000
-0.466955 0.042563 -0.043471 3.000000
-0.466955 -0.052798 -0.072605 3.000000
-0.466955 -0.036184 0.021892 3.000000
-0.466955 -0.055855 0.081550 3.000000
-0.466955 0.080410 0.045358 3.000000
-0.466955 0.008627 0.039752 3.000000
-0.466955 -0.078867 0.034884 3.000000
-0.466955 -0.045406 -0.055129 3.000000
-0.466955 -0.046568 -0.078803 3.000000
-0.466955 0.038078 0.004295 3.000000
-0.466955 -0.034204 0.035835 3.000000
-0.466955 -0.001010 -0.033350 3.000000
-0.466955 0.034200 0.003818 3.000000
-0.466955 0.028306 0.088173 3.000000
-0.466955 0.090096 -0.039004 3.000000
-0.466955 -0.021517 -0.083134 3.000000
-0.466955 0.078831 -0.060218 3.000000
-0.466955 0.027801 -0.006674 3.000000
-0.466955 0.064084 -0.014327 3.000000
-0.466955 0.010187 0.019341 3.000000
-0.466955 0.083497 -0.036915 3.000000
-0.466955 0.024164 0.031238 3.000000
-0.466955 -0.037234 -0.026296 3.000000
-0.466955 0.074400 -0.065991 3.000000
-0.466955 0.065325 0.063750 3.000000
-0.466955 0.060743 0.004289 3.000000
-0.466955 0.035021 0.019816 3.000000
-0.466955 -0.019770 0.044188 3.000000
-0.466955 -0.006630 0.026184 3.000000
-0.466955 0.008924 -0.019977 3.000000
-0.466955 -0.037466 0.015564 3.000000
-0.466955 0.005514 -0.052128 3.000000
-0.466955 0.034498 0.011111 3.000000
-0.466955 0.083338 0.021104 3.000000
-0.466955 0.063780 -0.016550 3.000000
-0.466955 0.056951 0.033228 3.000000
-0.466955 -0.052848 0.018900 3.000000
-0.466955 0.000060 0.001073 3.000000
-0.466955 0.010539 0.006510 3.000000
-0.466955 -0.082522 -0.026026 3.000000
-0.466955 0.001761 0.054426 3.000000
-0.466955 0.049109 -0.066512 3.000000
-0.466955 -0.077330 -0.000146 3.000000
-0.466955 0.094759 0.025036 3.000000
-0.466955 0.016069 0.079984 3.000000
-0.466955 0.012626 -0.020986 3.000000
-0.466955 -0.023723 -0.061536 3.000000
-0.466955 -0.002085 -0.076246 3.000000
-0.466955 0.041577 0.081337 3.000000
-0.466955 -0.046295 -0.081195 3.000000
-0.466955 -0.058219 -0.012196 3.000000
-0.466955 0.041278 0.030562 3.000000
-0.466955 -0.024061 -0.072897 3.000000
-0.466955 0.011676 0.059861 3.000000
-0.466955 0.060403 -0.046073 3.000000
-0.466955 -0.090713 0.033853 3.000000
-0.466955 -0.079946 -0.053194 3.000000
-0.466955 -0.044899 0.017084 3.000000
-0.466955 -0.089934 -0.033975 3.000000
-0.466955 0.072499 -0.001355 3.000000
-0.466955 0.031811 0.075578 3.000000
-0.466955 0.021050 0.010479 3.000000
-0.466955 0.004640 -0.085181 3.000000
-0.466955 0.063832 -0.034278 3.000000
-0.466955 -0.041425 0.066356 3.000000
-0.466955 0.007866 -0.081064 3.000000
-0.466955 0.038617 -0.066026 3.000000
-0.466955 -0.018118 0.042187 3.000000
-0.466955 0.083826 -0.005430 3.000000
-0.466955 0.051160 -0.049414 3.000000
-0.466955 0.078416 0.003446 3.000000
-0.466955 -0.079832 0.033701 3.000000
-0.466955 0.035716 -0.049259 3.000000
-0.466955 -0.039351 -0.007827 3.000000
-0.466955 -0.041861 0.018270 3.000000
-0.466955 -0.055421 -0.058586 3.000000
-0.466955 0.091021 -0.027879 3.000000
-0.466955 -0.072002 -0.038163 3.000000
-0.466955 -0.027758 0.094195 3.000000
-0.466955 -0.064141 -0.058487 3.000000
-0.466955 -0.076168 -0.056256 3.000000
-0.466955 0.005677 -0.023452 3.000000
-0.466955 -0.067865 -0.012665 3.000000
-0.466955 -0.049847 0.007836 3.000000
-0.466955 -0.004116 0.060409 3.000000
-0.466955 -0.076689 0.044830 3.000000
-0.466955 -0.049121 -0.065162 3.000000
-0.466955 0.060693 0.065141 3.000000
-0.466955 -0.026887 0.096207 3.000000
-0.466955 0.050425 -0.038088 3.000000
-0.466955 0.072006 0.025549 3.000000
-0.466955 0.046879 0.038590 3.000000
-0.466955 -0.054664 0.005001 3.000000
-0.466955 -0.052790 0.012862 3.000000
-0.466955 -0.006225 -0.052884 3.000000
-0.466955 0.095820 -0.021436 3.000000
-0.466955 0.007957 -0.028333 3.000000
-0.466955 -0.022713 0.006474 3.000000
-0.466955 -0.041721 0.061703 3.000000
-0.466955 -0.002954 -0.014820 3.000000
-0.466955 -0.087303 -0.033079 3.000000
-0.466955 0.016180 0.094418 3.000000
-0.466955 -0.028310 0.019428 3.000000
-0.466955 0.060191 0.076953 3.000000
-0.466955 0.058533 0.070582 3.000000
-0.466955 -0.023064 -0.010855 3.000000
-0.466955 0.081050 0.058682 3.000000
-0.466955 -0.039822 -0.000141 3.000000
-0.466955 -0.064255 0.009603 3.000000
-0.466955 -0.027891 -0.043743 3.000000
-0.466955 -0.045465 0.086197 3.000000
-0.466955 0.010268 -0.005505 3.000000
-0.466955 -0.068271 -0.021573 3.000000
-0.466955 -0.044692 -0.013099 3.000000
-0.466955 0.011689 -0.004400 3.000000
-0.466955 -0.019862 0.062060 3.000000
-0.466955 -0.060337 -0.052930 3.000000
-0.466955 -0.065373 0.025982 3.000000
-0.466955 -0.002812 -0.054062 3.000000
-0.466955 0.067579 -0.029537 3.000000
-0.466955 0.019379 0.005949 3.000000
-0.466955 -0.028131 -0.067250 3.000000
-0.466955 0.047270 0.054799 3.000000
-0.466955 -0.013244 0.096941 3.000000
-0.466955 0.000066 0.081453 3.000000
-0.466955 0.009751 -0.078283 3.000000
-0.466955 0.082130 -0.031797 3.000000
-0.466955 -0.030208 0.086200 3.000000
-0.466955 -0.078063 0.002480 3.000000
-0.466955 -0.031038 -0.036017 3.000000
-0.466955 -0.061925 0.071079 3.000000
-0.466955 0.057824 0.081525 3.000000
-0.466955 0.081267 0.031977 3.000000
-0.466955 -0.076788 0.020006 3.000000
-0.466955 0.033611 0.071727 3.000000
-0.466955 0.010345 0.023809 3.000000
-0.466955 0.099205 0.011841 3.000000
-0.466955 -0.023901 -0.046033 3.000000
-0.466955 -0.031933 -0.055965 3.000000
-0.466955 0.028371 0.023366 3.000000
-0.466955 -0.047188 0.020007 3.000000
-0.466955 0.071864 -0.024719 3.000000
-0.466955 -0.081349 0.047819 3.000000
-0.466955 -0.061642 0.016884 3.000000
-0.466955 0.074140 0.055005 3.000000
-0.466955 -0.030838 0.037733 3.000000
-0.466955 0.083025 -0.004057 3.000000
-0.466955 -0.058602 -0.059719 3.000000
-0.466955 0.004886 0.077676 3.000000
-0.466955 0.079859 -0.009170 3.000000
-0.466955 0.047631 -0.004144 3.000000
-0.466955 -0.008130 -0.017862 3.000000
-0.466955 -0.038050 -0.010039 3.000000
-0.466955 -0.085964 0.033021 3.000000
-0.466955 0.039322 -0.030296 3.000000
-0.466955 -0.090704 0.032431 3.000000
-0.466955 0.039221 0.044561 3.000000
-0.466955 0.011080 0.075494 3.000000
-0.466955 0.016939 0.068387 3.000000
-0.466955 0.076235 0.056684 3.000000
-0.466955 -0.052433 0.071807 3.000000
-0.466955 -0.009456 0.014093 3.000000
-0.466955 0.052498 0.065598 3.000000
-0.466955 0.026312 0.049674 3.000000
-0.466955 0.012678 0.007007 3.000000
-0.466955 0.017565 -0.086229 3.000000
-0.466955 -0.055026 0.057478 3.000000
-0.466955 0.072271 0.017330 3.000000
-0.466955 0.048052 0.083598 3.000000
-0.466955 -0.028557 -0.049981 3.000000
-0.466955 -0.078890 -0.030613 3.000000
-0.466955 -0.034717 0.047154 3.000000
-0.466955 -0.045402 -0.048915 3.000000
-0.466955 0.049156 -0.027427 3.000000
-0.466955 -0.022748 0.021495 3.000000
-0.466955 0.066432 0.031592 3.000000
-0.466955 0.096874 -0.015371 3.000000
-0.466955 -0.015849 -0.071002 3.000000
-0.466955 -0.038765 0.049474 3.000000
-0.466955 -0.005755 0.003316 3.000000
-0.466955 0.081273 -0.006618 3.000000
-0.466955 -0.042748 0.013838 3.000000
-0.466955 0.057830 -0.004000 3.000000
-0.466955 -0.091210 -0.025348 3.000000
-0.466955 0.014249 -0.040940 3.000000
-0.466955 -0.039732 0.066187 3.000000
-0.466955 0.006127 -0.028174 3.000000
-0.466955 -0.050081 -0.041634 3.000000
-0.466955 -0.062944 -0.076889 3.000000
-0.466955 -0.076576 0.017343 3.000000
-0.466955 0.009734 -0.012962 3.000000
-0.466955 -0.018157 -0.094381 3.000000
-0.466955 -0.005309 0.099076 3.000000
-0.466955 -0.083573 0.041888 3.000000
-0.466955 -0.041355 0.090880 3.000000
-0.466955 -0.091213 0.002243 3.000000
-0.466955 0.094600 -0.025128 3.000000
-0.466955 0.024992 -0.039209 3.000000
-0.466955 -0.010016 0.034669 3.000000
-0.466955 0.050988 0.057724 3.000000
-0.466955 0.055802 0.012698 3.000000
-0.466955 -0.060139 -0.065803 3.000000
-0.466955 0.021904 0.056853 3.000000
-0.466955 -0.050123 0.044122 3.000000
-0.466955 -0.059222 0.078490 3.000000
-0.466955 -0.014572 0.017449 3.000000
-0.466955 0.021342 -0.010719 3.000000
-0.466955 0.041443 -0.071766 3.000000
-0.466955 -0.062834 -0.065936 3.000000
-0.466955 0.088649 0.046032 3.000000
-0.466955 0.019356 0.027824 3.000000
-0.466955 0.041822 -0.032070 3.000000
-0.466955 0.095965 -0.000223 3.000000
-0.466955 0.006131 -0.097287 3.000000
-0.466955 -0.086207 -0.049464 3.000000
-0.466955 0.005610 0.026053 3.000000
-0.466955 0.020621 0.079471 3.000000
-0.466955 0.043921 0.071182 3.000000
-0.466955 -0.085015 0.028362 3.000000
-0.466955 -0.009976 0.031243 3.000000
-0.466955 -0.022477 -0.000312 3.000000
-0.466955 -0.071745 -0.051272 3.000000
-0.466955 -0.025155 -0.039795 3.000000
-0.466955 -0.084272 -0.032629 3.000000
-0.466955 0.076209 0.003714 3.000000
-0.466955 -0.016123 -0.000983 3.000000
-0.466955 -0.086429 -0.028648 3.000000
-0.466955 -0.068607 0.071340 3.000000
-0.466955 0.045250 -0.045272 3.000000
-0.466955 0.039222 0.086460 3.000000
-0.466955 0.037009 -0.061545 3.000000
-0.466955 -0.025596 0.095537 3.000000
-0.466955 -0.019721 -0.075085 3.000000
-0.466955 -0.070119 -0.023620 3.000000
-0.466955 0.017136 0.002278 3.000000
-0.466955 -0.004200 0.087348 3.000000
-0.466955 0.050401 0.065779 3.000000
-0.466955 0.082700 -0.046868 3.000000
-0.466955 0.024011 -0.007427 3.000000
-0.466955 0.060169 0.015234 3.000000
-0.466955 0.064369 -0.008574 3.000000
-0.466955 0.022579 -0.040296 3.000000
-0.466955 0.069228 0.042550 3.000000
-0.466955 -0.095712 0.011052 3.000000
-0.466955 -0.097638 0.019414 3.000000
-0.466955 -0.069906 -0.009590 3.000000
-0.466955 0.023394 0.018706 3.000000
-0.466955 -0.003280 -0.038919 3.000000
-0.466955 -0.081162 -0.054619 3.000000
-0.466955 0.048615 -0.067911 3.000000
-0.466955 0.004438 -0.064301 3.000000
-0.466955 -0.075254 -0.024692 3.000000
-0.466955 0.061485 -0.035315 3.000000
-0.466955 -0.006427 -0.020542 3.000000
-0.466955 -0.067295 -0.011287 3.000000
-0.466955 0.037978 -0.057768 3.000000
-0.466955 0.059173 0.072798 3.000000
-0.466955 -0.000631 0.077041 3.000000
-0.466955 0.049835 0.051492 3.000000
-0.466955 -0.080283 0.031668 3.000000
-0.466955 0.056064 -0.019342 3.000000
-0.466955 0.019118 0.060417 3.000000
-0.466955 0.026725 0.048087 3.000000
-0.466955 -0.071221 -0.008397 3.000000
-0.466955 0.075339 -0.046171 3.000000
-0.466955 -0.048954 0.045888 3.000000
-0.466955 -0.045257 0.067074 3.000000
-0.466955 0.053221 0.059867 3.000000
-0.466955 0.006687 -0.053626 3.000000
-0.466955 -0.049877 -0.084667 3.000000
-0.466955 0.037564 0.080989 3.000000
-0.466955 -0.028617 0.028183 3.000000
-0.466955 -0.093436 -0.022135 3.000000
-0.466955 -0.013798 -0.095246 3.000000
-0.466955 0.017301 -0.057748 3.000000
-0.466955 -0.009742 -0.046961 3.000000
-0.466955 -0.034087 0.066454 3.000000
-0.466955 -0.053101 -0.080425 3.000000
-0.466955 -0.043646 0.023030 3.000000
-0.466955 -0.001384 0.089876 3.000000
-0.466955 -0.026353 0.058663 3.000000
-0.466955 -0.018016 0.089789 3.000000
-0.466955 0.045566 -0.059155 3.000000
-0.466955 -0.082100 0.010921 3.000000
-0.466955 -0.075890 0.012700 3.000000
-0.466955 0.095443 0.013044 3.000000
-0.466955 -0.017954 -0.037039 3.000000
-0.466955 -0.013380 0.002782 3.000000
-0.466955 0.037207 0.019554 3.000000
-0.466955 -0.039797 -0.057282 3.000000
-0.466955 -0.008498 0.001752 3.000000
-0.466955 0.050488 -0.008728 3.000000
-0.466955 0.038794 -0.003518 3.000000
-0.466955 -0.054338 0.016823 3.000000
-0.466955 -0.068192 0.049491 3.000000
-0.466955 0.059355 -0.002172 3.000000
-0.466955 -0.021309 -0.003340 3.000000
-0.466955 0.051062 -0.034480 3.000000
-0.466955 -0.069528 -0.015646 3.000000
-0.466955 -0.068117 0.013829 3.000000
-0.466955 -0.045562 -0.026679 3.000000
-0.466955 -0.083512 -0.022731 3.000000
-0.466955 0.089468 -0.021139 3.000000
-0.466955 -0.058305 0.001156 3.000000
-0.466955 -0.079043 -0.016162 3.000000
-0.466955 -0.093047 -0.016444 3.000000
-0.466955 0.043481 0.038962 3.000000
-0.466955 0.022509 0.058615 3.000000
-0.466955 0.050908 -0.031877 3.000000
-0.466955 -0.083246 -0.049586 3.000000
-0.466955 -0.025679 -0.019058 3.000000
-0.466955 -0.070333 0.001726 3.000000
-0.466955 0.021628 0.005717 3.000000
-0.466955 0.088125 0.012568 3.000000
-0.466955 0.051429 -0.017390 3.000000
-0.466955 0.041251 -0.008649 3.000000
-0.466955 -0.060075 -0.056915 3.000000
-0.466955 0.045281 -0.077306 3.000000
-0.466955 0.073869 0.040496 3.000000
-0.466955 0.028097 0.028805 3.000000
-0.466955 0.013849 0.086989 3.000000
-0.466955 -0.036115 -0.060237 3.000000
-0.466955 -0.041896 -0.026591 3.000000
-0.466955 0.052931 -0.076725 3.000000
-0.466955 0.022124 -0.046805 3.000000
-0.466955 -0.014547 -0.050983 3.000000
-0.466955 0.051090 0.048017 3.000000
-0.466955 -0.037603 -0.091034 3.000000
-0.466955 -0.050455 -0.073055 3.000000
-0.466955 -0.014537 -0.077429 3.000000
-0.466955 -0.022310 0.034455 3.000000
-0.466955 -0.003044 -0.012030 3.000000
-0.466955 -0.026118 -0.057414 3.000000
-0.466955 -0.090673 0.018336 3.000000
-0.466955 0.073677 -0.053481 3.000000
-0.466955 0.047394 0.009853 3.000000
-0.466955 -0.094515 0.020604 3.000000
-0.466955 0.080394 -0.046726 3.000000
-0.466955 -0.075706 -0.064329 3.000000
-0.466955 0.004027 0.025886 3.000000
-0.466955 0.002992 0.035891 3.000000
-0.466955 -0.019399 -0.032774 3.000000
-0.466955 0.022859 0.025198 3.000000
-0.466955 -0.056382 -0.023220 3.000000
-0.466955 0.064552 -0.012837 3.000000
-0.466955 0.090282 -0.019659 3.000000
-0.466955 -0.078181 0.021931 3.000000
-0.466955 -0.056573 -0.049478 3.000000
-0.466955 -0.054953 -0.061255 3.000000
-0.466955 -0.078218 0.027294 3.000000
-0.466955 0.021264 0.097258 3.000000
-0.466955 0.049576 0.005848 3.000000
-0.466955 0.017505 -0.011791 3.000000
-0.466955 0.049597 -0.075446 3.000000
-0.466955 -0.018612 -0.028736 3.000000
-0.466955 0.057767 -0.061327 3.000000
-0.466955 0.085097 0.013705 3.000000
-0.466955 0.064578 -0.024282 3.000000
-0.466955 0.018791 -0.054048 3.000000
-0.466955 -0.073388 0.019341 3.000000
-0.466955 0.068035 -0.056656 3.000000
-0.466955 -0.038730 0.061651 3.000000
-0.466955 0.005137 -0.087029 3.000000
-0.466955 0.013032 -0.097694 3.000000
-0.466955 -0.094377 0.014157 3.000000
-0.466955 -0.069699 0.023017 3.000000
-0.466955 -0.045688 -0.087787 3.000000
-0.466955 -0.079344 0.049737 3.000000
-0.466955 -0.072657 -0.021506 3.000000
-0.466955 -0.022344 -0.065326 3.000000
-0.466955 -0.074389 -0.012044 3.000000
-0.466955 -0.021972 0.091584 3.000000
-0.466955 0.039253 0.005659 3.000000
-0.466955 -0.083731 0.039070 3.000000
-0.466955 0.049682 -0.072948 3.000000
-0.466955 -0.045099 0.000002 3.000000
-0.466955 0.050927 0.049993 3.000000
-0.466955 -0.064005 0.026510 3.000000
-0.466955 0.070155 -0.022854 3.000000
-0.466955 0.060239 -0.078937 3.000000
-0.466955 0.050332 0.007156 3.000000
-0.466955 -0.014580 0.090919 3.000000
-0.466955 -0.013003 0.012392 3.000000
-0.466955 0.003557 0.078581 3.000000
-0.466955 -0.030206 -0.078373 3.000000
-0.466955 0.011840 0.035851 3.000000
-0.466955 0.053281 -0.064354 3.000000
-0.466955 0.027024 -0.076326 3.000000
-0.466955 0.015311 -0.081633 3.000000
-0.466955 0.070597 0.037150 3.000000
-0.466955 0.011779 -0.066275 3.000000
-0.466955 0.012898 0.073762 3.000000
-0.466955 0.059296 0.008433 3.000000
-0.466955 0.092010 -0.009100 3.000000
-0.466955 -0.047217 0.088085 3.000000
-0.466955 -0.079162 -0.040226 3.000000
-0.466955 -0.089126 0.006029 3.000000
-0.466955 0.019473 0.063601 3.000000
-0.466955 0.087115 0.048510 3.000000
-0.466955 0.064152 -0.029028 3.000000
