0.465339 0.045462 -0.033378 2.000000
0.465339 -0.096463 0.001049 2.000000
0.465339 0.053026 -0.030809 2.000000
0.465339 0.062229 0.057873 2.000000
0.465339 0.011545 0.040027 2.000000
0.465339 -0.040960 0.083723 2.000000
0.465339 0.056240 0.030673 2.000000
0.465339 -0.086220 -0.024338 2.000000
0.465339 0.052866 0.037453 2.000000
0.465339 0.016506 0.006098 2.000000
0.465339 0.004268 0.071166 2.000000
0.465339 -0.046192 -0.063450 2.000000
0.465339 -0.039980 0.014580 2.000000
0.465339 0.085229 0.006983 2.000000
0.465339 0.035070 0.059546 2.000000
0.465339 0.008307 -0.001313 2.000000
0.465339 -0.037399 -0.009502 2.000000
0.465339 0.063170 -0.028288 2.000000
0.465339 -0.063732 -0.046636 2.000000
0.465339 -0.003598 0.027672 2.000000
0.465339 0.056093 0.005068 2.000000
0.465339 0.045613 -0.054247 2.000000
0.465339 0.059367 0.027205 2.000000
0.465339 -0.054177 0.044672 2.000000
0.465339 -0.024248 -0.038614 2.000000
0.465339 -0.010146 -0.073588 2.000000
0.465339 0.026320 -0.028863 2.000000
0.465339 0.082908 -0.052569 2.000000
0.465339 -0.045196 0.065871 2.000000
0.465339 -0.001958 -0.023574 2.000000
0.465339 0.000069 -0.065893 2.000000
0.465339 -0.045399 0.019422 2.000000
0.465339 -0.065229 0.017685 2.000000
0.465339 0.011539 0.041961 2.000000
0.465339 -0.070134 -0.030101 2.000000
0.465339 -0.013052 0.048025 2.000000
0.465339 -0.035124 -0.016780 2.000000
0.465339 -0.063479 -0.051704 2.000000
0.465339 0.018666 0.033454 2.000000
0.465339 0.012099 -0.056281 2.000000
0.465339 -0.010033 0.029934 2.000000
0.465339 -0.003539 -0.034339 2.000000
0.465339 0.033722 0.083336 2.000000
0.465339 0.081358 0.046677 2.000000
0.465339 0.013441 0.029779 2.000000
0.465339 0.022537 -0.030107 2.000000
0.465339 0.001250 -0.013616 2.000000
0.465339 -0.083482 0.034016 2.000000
0.465339 -0.059388 -0.026052 2.000000
0.465339 -0.058856 0.061241 2.000000
0.465339 -0.018117 -0.003085 2.000000
0.465339 -0.020012 -0.023541 2.000000
0.465339 -0.076648 -0.009002 2.000000
0.465339 0.036110 0.024558 2.000000
0.465339 0.045025 -0.025025 2.000000
0.465339 -0.028671 0.046608 2.000000
0.465339 0.079368 -0.032647 2.000000
0.465339 -0.027576 0.005614 2.000000
0.465339 -0.069287 0.035833 2.000000
0.465339 -0.037878 -0.056966 2.000000
0.465339 0.021523 -0.041488 2.000000
0.465339 -0.061061 -0.055296 2.000000
0.465339 0.031656 0.040576 2.000000
0.465339 0.015033 -0.097878 2.000000
0.465339 -0.009034 0.036395 2.000000
0.465339 -0.028936 0.054369 2.000000
0.465339 -0.049134 -0.031594 2.000000
0.465339 -0.068570 0.027568 2.000000
0.465339 0.000854 -0.074301 2.000000
0.465339 -0.059525 -0.060182 2.000000
0.465339 0.081437 0.008048 2.000000
0.465339 -0.061123 0.046171 2.000000
0.465339 0.083902 -0.050074 2.000000
0.465339 0.004848 0.007870 2.000000
0.465339 0.074163 -0.001411 2.000000
0.465339 0.009926 -0.067458 2.000000
0.465339 -0.032891 -0.018392 2.000000
0.465339 0.012145 0.090663 2.000000
0.465339 -0.082411 -0.042002 2.000000
0.465339 -0.050638 -0.009349 2.000000
0.465339 0.024815 -0.054875 2.000000
0.465339 -0.024707 0.024325 2.000000
0.465339 0.062926 -0.039671 2.000000
0.465339 0.075095 -0.018416 2.000000
0.465339 -0.030846 -0.043075 2.000000
0.465339 -0.014850 -0.001992 2.000000
0.465339 0.028048 -0.023286 2.000000
0.465339 -0.030530 -0.045946 2.000000
0.465339 0.056590 -0.061803 2.000000
0.465339 0.021178 0.009182 2.000000
0.465339 0.031669 -0.083252 2.000000
0.465339 -0.064886 -0.052086 2.000000
0.465339 0.067117 -0.071931 2.000000
0.465339 0.042621 0.065485 2.000000
0.465339 0.038659 -0.032901 2.000000
0.465339 0.070289 0.054010 2.000000
0.465339 0.073356 0.011810 2.000000
0.465339 0.000327 -0.021865 2.000000
0.465339 -0.019630 0.028470 2.000000
0.465339 -0.053418 -0.005660 2.000000
0.465339 0.009195 -0.079395 2.000000
0.465339 -0.041961 0.079837 2.000000
0.465339 0.022963 0.068095 2.000000
0.465339 -0.076351 -0.043203 2.000000
0.465339 -0.023433 0.010510 2.000000
0.465339 -0.022052 0.072284 2.000000
0.465339 0.089376 -0.025534 2.000000
0.465339 -0.063126 -0.026919 2.000000
0.465339 -0.030467 0.057615 2.000000
0.465339 -0.085246 0.050491 2.000000
0.465339 0.030697 -0.087726 2.000000
0.465339 -0.018862 -0.050537 2.000000
0.465339 0.008927 0.012241 2.000000
0.465339 0.021248 -0.090968 2.000000
0.465339 0.015540 0.094011 2.000000
0.465339 -0.031067 0.077553 2.000000
0.465339 -0.091090 0.012811 2.000000
0.465339 0.007050 -0.089705 2.000000
0.465339 0.087674 0.003873 2.000000
0.465339 -0.065933 -0.018920 2.000000
0.465339 -0.044479 -0.059505 2.000000
0.465339 0.044476 0.018721 2.000000
0.465339 -0.036407 -0.006783 2.000000
0.465339 0.018556 0.055652 2.000000
0.465339 -0.088353 0.035298 2.000000
0.465339 0.085187 0.002698 2.000000
0.465339 -0.055670 -0.051990 2.000000
0.465339 -0.038806 0.065160 2.000000
0.465339 -0.071368 -0.028563 2.000000
0.465339 -0.028615 0.033906 2.000000
0.465339 -0.052233 -0.044204 2.000000
0.465339 -0.028700 -0.069323 2.000000
0.465339 -0.033555 0.013918 2.000000
0.465339 -0.043594 0.003786 2.000000
0.465339 -0.074616 0.022667 2.000000
0.465339 -0.038301 0.077695 2.000000
0.465339 0.053583 -0.058306 2.000000
0.465339 0.036896 -0.043453 2.000000
0.465339 0.001218 -0.005367 2.000000
0.465339 -0.004117 -0.038324 2.000000
0.465339 0.009448 -0.098575 2.000000
0.465339 -0.091083 -0.021993 2.000000
0.465339 -0.036919 0.006420 2.000000
0.465339 0.025632 0.026131 2.000000
0.465339 -0.073366 0.056287 2.000000
0.465339 -0.012181 0.027201 2.000000
0.465339 0.014882 -0.015298 2.000000
0.465339 -0.079811 -0.023127 2.000000
0.465339 -0.027277 -0.088867 2.000000
0.465339 -0.032790 -0.000856 2.000000
0.465339 0.031083 0.033678 2.000000
0.465339 0.021129 -0.092513 2.000000
0.465339 -0.021820 -0.036551 2.000000
0.465339 0.067782 -0.056343 2.000000
0.465339 0.068172 0.028465 2.000000
0.465339 -0.013352 0.066125 2.000000
0.465339 -0.030214 0.032216 2.000000
0.465339 -0.060242 0.008397 2.000000
0.465339 -0.043069 -0.088354 2.000000
0.465339 -0.064165 0.003938 2.000000
0.465339 -0.015028 0.089633 2.000000
0.465339 0.011065 -0.087290 2.000000
0.465339 -0.002738 -0.002108 2.000000
0.465339 -0.053862 -0.002294 2.000000
0.465339 -0.005599 0.028838 2.000000
0.465339 -0.044906 0.031093 2.000000
0.465339 0.018242 -0.008144 2.000000
0.465339 0.067006 0.043431 2.000000
0.465339 -0.004122 0.096209 2.000000
0.465339 -0.053681 0.073369 2.000000
0.465339 0.010437 -0.080702 2.000000
0.465339 -0.080930 -0.001150 2.000000
0.465339 0.061192 0.060562 2.000000
0.465339 0.030732 0.019188 2.000000
0.465339 -0.031521 -0.014310 2.000000
0.465339 0.057718 -0.022306 2.000000
0.465339 -0.065309 0.031472 2.000000
0.465339 -0.076988 -0.050298 2.000000
0.465339 0.031013 0.063880 2.000000
0.465339 -0.032968 -0.035946 2.000000
0.465339 -0.030483 -0.005498 2.000000
0.465339 -0.033565 0.086891 2.000000
0.465339 0.090584 0.014996 2.000000
0.465339 -0.087028 0.004504 2.000000
0.465339 -0.059155 0.028168 2.000000
0.465339 0.015741 0.004760 2.000000
0.465339 -0.086037 0.034970 2.000000
0.465339 -0.054723 -0.025097 2.000000
0.465339 -0.080428 0.050180 2.000000
0.465339 0.054864 0.066847 2.000000
0.465339 0.042466 0.033505 2.000000
0.465339 0.035156 0.061670 2.000000
0.465339 0.023625 -0.078880 2.000000
0.465339 -0.001449 0.040748 2.000000
0.465339 -0.094562 -0.000169 2.000000
0.465339 -0.035348 -0.062436 2.000000
0.465339 0.052966 -0.048989 2.000000
0.465339 -0.075926 -0.038944 2.000000
0.465339 0.024589 -0.051616 2.000000
0.465339 -0.020353 0.089434 2.000000
0.465339 -0.058919 -0.019881 2.000000
0.465339 -0.015563 -0.048074 2.000000
0.465339 0.018367 -0.069428 2.000000
0.465339 -0.045851 -0.067504 2.000000
0.465339 0.033390 0.067689 2.000000
0.465339 0.063364 0.067496 2.000000
0.465339 0.018627 -0.021831 2.000000
0.465339 0.028722 0.067208 2.000000
0.465339 0.051947 -0.013878 2.000000
0.465339 -0.073849 0.033571 2.000000
0.465339 0.006592 -0.010072 2.000000
0.465339 -0.063378 -0.048452 2.000000
0.465339 -0.035190 0.027176 2.000000
0.465339 -0.000661 -0.044098 2.000000
0.465339 -0.056452 0.048083 2.000000
0.465339 -0.031292 -0.026051 2.000000
0.465339 0.002485 0.053349 2.000000
0.465339 0.030191 -0.081840 2.000000
0.465339 -0.065860 0.006738 2.000000
0.465339 -0.022587 -0.052073 2.000000
0.465339 -0.013025 0.051022 2.000000
0.465339 0.091911 0.035405 2.000000
0.465339 -0.040286 -0.055469 2.000000
0.465339 -0.034788 -0.046549 2.000000
0.465339 0.022894 -0.088496 2.000000
0.465339 0.007660 -0.007982 2.000000
0.465339 -0.081588 0.054662 2.000000
0.465339 -0.028242 -0.045359 2.000000
0.465339 0.076100 -0.047699 2.000000
0.465339 0.041513 -0.069659 2.000000
0.465339 -0.014973 0.041512 2.000000
0.465339 0.028557 0.084341 2.000000
0.465339 0.072471 0.001398 2.000000
0.465339 0.007499 -0.043566 2.000000
0.465339 0.020936 0.094821 2.000000
0.465339 0.023657 0.035146 2.000000
0.465339 -0.020266 -0.035862 2.000000
0.465339 0.097890 -0.018695 2.000000
0.465339 -0.078066 0.023292 2.000000
0.465339 -0.030609 0.065654 2.000000
0.465339 -0.005357 0.020030 2.000000
0.465339 0.048528 -0.061408 2.000000
0.465339 0.054621 0.069144 2.000000
0.465339 0.095525 0.022063 2.000000
0.465339 -0.000419 -0.027865 2.000000
0.465339 0.045715 0.021147 2.000000
0.465339 0.000929 -0.044580 2.000000
0.465339 0.016997 0.094061 2.000000
0.465339 0.030927 -0.017921 2.000000
0.465339 -0.026880 0.084550 2.000000
0.465339 0.049096 0.042566 2.000000
0.465339 0.083418 -0.031768 2.000000
0.465339 -0.011547 -0.016815 2.000000
0.465339 0.037594 0.087914 2.000000
0.465339 0.015439 0.072033 2.000000
0.465339 -0.027376 0.029503 2.000000
0.465339 0.073005 -0.002991 2.000000
0.465339 -0.061384 0.065479 2.000000
0.465339 -0.017473 0.013774 2.000000
0.465339 0.069474 -0.006701 2.000000
0.465339 -0.047381 0.006757 2.000000
0.465339 0.061303 -0.058326 2.000000
0.465339 0.035044 -0.053746 2.000000
0.465339 -0.014808 0.045161 2.000000
0.465339 0.021322 0.082586 2.000000
0.465339 -0.030443 -0.055319 2.000000
0.465339 -0.060531 -0.068224 2.000000
0.465339 -0.088692 0.005888 2.000000
0.465339 0.088299 0.013393 2.000000
0.465339 -0.047419 0.060939 2.000000
0.465339 0.037178 0.041860 2.000000
0.465339 0.007025 0.072741 2.000000
0.465339 0.033341 0.093352 2.000000
0.465339 -0.037990 0.073901 2.000000
0.465339 -0.048175 0.067938 2.000000
0.465339 0.029894 -0.062810 2.000000
0.465339 -0.083297 0.044855 2.000000
0.465339 0.055561 -0.072191 2.000000
0.465339 0.054668 -0.053111 2.000000
0.465339 -0.029082 -0.043726 2.000000
0.465339 -0.022840 0.080043 2.000000
0.465339 0.000323 -0.019601 2.000000
0.465339 0.001303 0.018358 2.000000
0.465339 -0.033773 -0.085747 2.000000
0.465339 0.002599 -0.075939 2.000000
0.465339 -0.042776 0.032629 2.000000
0.465339 -0.003767 -0.019844 2.000000
0.465339 0.047795 0.032376 2.000000
0.465339 -0.093884 0.020664 2.000000
0.465339 -0.048150 0.037894 2.000000
0.465339 0.095548 -0.023603 2.000000
0.465339 -0.082887 -0.049163 2.000000
0.465339 -0.000185 0.004190 2.000000
0.465339 0.010613 -0.054855 2.000000
0.465339 -0.065017 -0.056104 2.000000
0.465339 0.028123 -0.045768 2.000000
0.465339 -0.045771 0.009014 2.000000
0.465339 -0.047797 0.074481 2.000000
0.465339 -0.067729 -0.033917 2.000000
0.465339 0.055178 0.026692 2.000000
0.465339 -0.041987 0.081676 2.000000
0.465339 0.066235 -0.017054 2.000000
0.465339 0.059499 0.018481 2.000000
0.465339 -0.028047 -0.016322 2.000000
0.465339 0.077933 0.005760 2.000000
0.465339 -0.055287 -0.064197 2.000000
0.465339 0.050496 -0.043334 2.000000
0.465339 -0.019144 0.092559 2.000000
0.465339 -0.055639 0.043978 2.000000
0.465339 -0.022010 0.093092 2.000000
0.465339 -0.004004 0.099567 2.000000
0.465339 0.011483 -0.084805 2.000000
0.465339 -0.029315 -0.012713 2.000000
0.465339 0.066972 0.005177 2.000000
0.465339 -0.067331 0.047492 2.000000
0.465339 -0.043709 0.019317 2.000000
0.465339 -0.078423 -0.025542 2.000000
0.465339 0.057615 0.058466 2.000000
0.465339 -0.081175 -0.015001 2.000000
0.465339 -0.070743 -0.022364 2.000000
0.465339 0.002080 0.029165 2.000000
0.465339 -0.011563 -0.064667 2.000000
0.465339 0.094010 -0.001344 2.000000
0.465339 -0.033245 -0.013946 2.000000
0.465339 0.036024 0.072365 2.000000
0.465339 -0.080690 0.011801 2.000000
0.465339 -0.061435 -0.017366 2.000000
0.465339 -0.076575 0.060514 2.000000
0.465339 0.029786 -0.091950 2.000000
0.465339 0.079747 -0.005704 2.000000
0.465339 -0.054453 -0.020818 2.000000
0.465339 -0.028498 0.056202 2.000000
0.465339 0.086921 0.024662 2.000000
0.465339 -0.037727 -0.002162 2.000000
0.465339 0.043517 0.011530 2.000000
0.465339 -0.021490 0.004175 2.000000
0.465339 0.044371 0.057416 2.000000
0.465339 0.005718 -0.014602 2.000000
0.465339 -0.082806 -0.010876 2.000000
0.465339 -0.078445 0.002547 2.000000
0.465339 -0.022899 0.035950 2.000000
0.465339 0.080782 0.023104 2.000000
0.465339 -0.058367 0.073776 2.000000
0.465339 -0.015184 0.015386 2.000000
0.465339 0.020075 -0.054771 2.000000
0.465339 -0.047155 -0.017780 2.000000
0.465339 0.073161 -0.047327 2.000000
0.465339 -0.046282 0.086874 2.000000
0.465339 0.006507 0.096984 2.000000
0.465339 -0.073766 0.023838 2.000000
0.465339 0.077894 0.016634 2.000000
0.465339 0.024811 0.041579 2.000000
0.465339 -0.080684 -0.021764 2.000000
0.465339 -0.023510 0.073007 2.000000
0.465339 0.025225 0.073721 2.000000
0.465339 -0.046447 0.037399 2.000000
0.465339 0.050117 -0.024091 2.000000
0.465339 -0.026549 -0.087306 2.000000
0.465339 -0.008291 0.066713 2.000000
0.465339 0.017776 0.027391 2.000000
0.465339 0.005417 0.099705 2.000000
0.465339 -0.050490 -0.006097 2.000000
0.465339 -0.037355 -0.080805 2.000000
0.465339 -0.023516 -0.079627 2.000000
0.465339 -0.044594 0.032644 2.000000
0.465339 -0.025138 0.048040 2.000000
0.465339 0.055889 0.079266 2.000000
0.465339 0.042150 0.073038 2.000000
0.465339 -0.004485 0.005316 2.000000
0.465339 -0.005468 0.045747 2.000000
0.465339 -0.037993 0.066433 2.000000
0.465339 0.022134 0.045693 2.000000
0.465339 -0.019449 -0.097706 2.000000
0.465339 0.023552 -0.057435 2.000000
0.465339 0.059547 0.015190 2.000000
0.465339 -0.071398 -0.055098 2.000000
0.465339 -0.061324 0.073095 2.000000
0.465339 0.041095 -0.085985 2.000000
0.465339 0.033726 0.019612 2.000000
0.465339 0.004764 0.009527 2.000000
0.465339 0.033380 0.050642 2.000000
0.465339 -0.030139 0.067217 2.000000
0.465339 0.064545 -0.041677 2.000000
0.465339 -0.093024 -0.013089 2.000000
0.465339 -0.052344 -0.030276 2.000000
0.465339 -0.089685 -0.019620 2.000000
0.465339 -0.019003 0.065863 2.000000
0.465339 0.021688 0.025280 2.000000
0.465339 0.036403 -0.019979 2.000000
0.465339 -0.091168 -0.014851 2.000000
0.465339 -0.045514 0.067457 2.000000
0.465339 -0.024248 0.049181 2.000000
0.465339 0.029728 -0.048087 2.000000
0.465339 -0.044390 -0.085506 2.000000
0.465339 0.002666 -0.082120 2.000000
0.465339 -0.048980 -0.058763 2.000000
0.465339 -0.015832 0.042985 2.000000
0.465339 0.017795 -0.045759 2.000000
0.465339 -0.018457 -0.014409 2.000000
0.465339 -0.054485 0.019141 2.000000
0.465339 0.054234 -0.083546 2.000000
0.465339 -0.028309 -0.054315 2.000000
0.465339 0.062302 -0.022626 2.000000
0.465339 -0.039506 0.072787 2.000000
0.465339 0.059372 -0.019757 2.000000
0.465339 0.028505 0.017060 2.000000
0.465339 -0.038279 -0.035957 2.000000
0.465339 -0.015614 0.034759 2.000000
0.465339 0.037644 0.015601 2.000000
0.465339 0.076780 -0.002692 2.000000
0.465339 0.087606 -0.021222 2.000000
0.465339 0.066380 0.059481 2.000000
0.465339 0.005171 0.021400 2.000000
0.465339 0.075066 -0.002553 2.000000
0.465339 -0.006972 -0.044550 2.000000
0.465339 0.025245 -0.013085 2.000000
0.465339 0.006466 -0.011410 2.000000
0.465339 -0.088623 0.000825 2.000000
0.465339 -0.087715 0.046768 2.000000
0.465339 -0.088604 0.025736 2.000000
0.465339 0.050929 -0.050510 2.000000
0.465339 0.048609 0.031244 2.000000
0.465339 0.034099 -0.041625 2.000000
0.465339 0.036725 -0.087701 2.000000
0.465339 0.030241 0.078587 2.000000
0.465339 -0.060131 0.053665 2.000000
0.465339 -0.040822 -0.077932 2.000000
0.465339 -0.030614 0.084724 2.000000
0.465339 -0.054507 0.051331 2.000000
0.465339 -0.055714 -0.060440 2.000000
0.465339 -0.065854 -0.022395 2.000000
0.465339 -0.083660 -0.050697 2.000000
0.465339 -0.002814 0.021148 2.000000
0.465339 -0.087713 -0.014936 2.000000
0.465339 -0.025887 0.049453 2.000000
0.465339 0.038664 -0.034272 2.000000
0.465339 0.029557 -0.025740 2.000000
0.465339 -0.014248 -0.000690 2.000000
0.465339 -0.015587 0.012803 2.000000
0.465339 0.000165 0.013195 2.000000
0.465339 0.023415 -0.064015 2.000000
0.465339 0.001998 0.082981 2.000000
0.465339 -0.014587 -0.013469 2.000000
0.465339 -0.003613 -0.016522 2.000000
0.465339 0.026426 -0.055457 2.000000
0.465339 -0.063428 -0.062555 2.000000
0.465339 -0.077822 0.021129 2.000000
0.465339 0.094969 -0.020911 2.000000
0.465339 -0.083076 -0.005114 2.000000
0.465339 -0.055143 0.015965 2.000000
0.465339 0.016255 0.048416 2.000000
0.465339 -0.047586 0.049929 2.000000
0.465339 0.041799 -0.029893 2.000000
0.465339 -0.025662 0.083787 2.000000
0.465339 -0.025071 0.010860 2.000000
0.465339 -0.084227 -0.030781 2.000000
0.465339 -0.021323 0.032818 2.000000
0.465339 0.056530 -0.056194 2.000000
0.465339 -0.001157 -0.038658 2.000000
0.465339 -0.008627 -0.056759 2.000000
0.465339 0.066265 0.073434 2.000000
0.465339 0.033446 -0.005607 2.000000
0.465339 0.068279 0.050655 2.000000
0.465339 0.047919 0.029879 2.000000
0.465339 0.041720 -0.045271 2.000000
0.465339 -0.018669 0.044924 2.000000
0.465339 0.004705 -0.042842 2.000000
0.465339 -0.029141 0.014668 2.000000
0.465339 0.005574 0.015469 2.000000
0.465339 0.017362 -0.038208 2.000000
0.465339 0.003171 -0.095439 2.000000
0.465339 0.029891 0.089646 2.000000
0.465339 -0.070062 0.014496 2.000000
0.465339 0.058306 -0.035614 2.000000
0.465339 0.063127 0.035713 2.000000
0.465339 0.066761 -0.000605 2.000000
0.465339 -0.006549 -0.000222 2.000000
0.465339 -0.062870 -0.000835 2.000000
0.465339 -0.049867 -0.053758 2.000000
0.465339 -0.006464 -0.036854 2.000000
0.465339 0.050974 0.070676 2.000000
0.465339 0.055702 0.020410 2.000000
0.465339 0.065370 0.069056 2.000000
0.465339 0.030660 -0.014675 2.000000
0.465339 0.024906 0.083834 2.000000
0.465339 -0.038459 -0.030254 2.000000
0.465339 -0.019214 0.069411 2.000000
0.465339 0.017030 0.073944 2.000000
0.465339 -0.062314 -0.061257 2.000000
0.465339 0.003014 -0.027311 2.000000
0.465339 -0.021175 0.058206 2.000000
0.465339 -0.011045 0.026120 2.000000
0.465339 0.070437 -0.040172 2.000000
0.465339 -0.014367 -0.063193 2.000000
0.465339 -0.058691 0.002706 2.000000
0.465339 -0.008368 0.046035 2.000000
0.465339 -0.019845 0.009478 2.000000
0.465339 -0.026600 -0.049245 2.000000
0.465339 0.025602 0.020988 2.000000
0.465339 -0.088070 -0.042586 2.000000
0.465339 -0.062299 -0.075495 2.000000
0.465339 0.041075 0.061411 2.000000
0.465339 0.009658 -0.026166 2.000000
0.465339 -0.041505 -0.002599 2.000000
0.465339 -0.025002 -0.039884 2.000000
0.465339 0.094995 0.000042 2.000000
0.465339 -0.054986 -0.082352 2.000000
0.465339 0.027234 -0.084121 2.000000
0.465339 0.039408 0.081370 2.000000
0.465339 -0.074297 -0.062149 2.000000
0.465339 0.004887 0.059759 2.000000
0.465339 0.022682 0.073847 2.000000
0.465339 0.077673 0.029553 2.000000
0.465339 0.028098 0.065764 2.000000
0.465339 0.036595 -0.064284 2.000000
0.465339 -0.059248 -0.003758 2.000000
0.465339 -0.053264 0.084448 2.000000
0.465339 0.063526 0.048111 2.000000
0.465339 -0.038075 0.092032 2.000000
0.465339 -0.061065 0.058017 2.000000
0.465339 -0.025659 0.031217 2.000000
0.465339 -0.074110 0.059676 2.000000
0.465339 0.011523 0.063585 2.000000
0.465339 -0.017298 0.004776 2.000000
0.465339 0.083071 -0.022930 2.000000
0.465339 0.057613 -0.037114 2.000000
0.465339 -0.009541 0.026573 2.000000
0.465339 -0.054793 -0.004550 2.000000
0.465339 -0.001898 -0.085483 2.000000
0.465339 -0.022211 0.019749 2.000000
0.465339 -0.019272 -0.037004 2.000000
0.465339 0.002483 -0.038755 2.000000
0.465339 -0.015762 0.036383 2.000000
0.465339 0.021723 -0.057184 2.000000
0.465339 0.064226 -0.019214 2.000000
0.465339 0.019154 -0.045126 2.000000
0.465339 0.010082 0.081949 2.000000
0.465339 0.049533 0.065674 2.000000
0.465339 0.019426 -0.024316 2.000000
0.465339 0.012455 0.089106 2.000000
0.465339 -0.058196 0.026405 2.000000
0.465339 0.034552 -0.087717 2.000000
0.465339 -0.021234 -0.026611 2.000000
0.465339 -0.039330 -0.088218 2.000000
0.465339 0.070315 0.037286 2.000000
0.465339 0.070333 0.070834 2.000000
0.465339 -0.009630 0.013644 2.000000
0.465339 -0.043051 -0.061196 2.000000
0.465339 -0.032926 0.054778 2.000000
0.465339 0.091170 0.004167 2.000000
0.465339 -0.006852 0.079435 2.000000
0.465339 0.053128 -0.071300 2.000000
0.465339 -0.024450 0.012295 2.000000
0.465339 -0.084298 0.030086 2.000000
0.465339 -0.037562 -0.021803 2.000000
0.465339 0.035266 -0.011198 2.000000
0.465339 0.017160 0.090681 2.000000
0.465339 -0.068536 0.002008 2.000000
0.465339 0.063211 0.071393 2.000000
0.465339 -0.042962 0.063609 2.000000
0.465339 -0.053500 -0.057804 2.000000
0.465339 -0.059763 0.056000 2.000000
0.465339 -0.028864 -0.091121 2.000000
0.465339 -0.035514 0.070197 2.000000
0.465339 0.061665 0.035945 2.000000
0.465339 -0.059586 0.033417 2.000000
0.465339 -0.031645 -0.053324 2.000000
0.465339 0.024033 0.026878 2.000000
0.465339 -0.049966 0.059224 2.000000
0.465339 0.023623 0.069399 2.000000
0.465339 -0.085201 0.028769 2.000000
0.465339 0.008239 0.063464 2.000000
0.465339 0.012208 -0.005338 2.000000
0.465339 -0.058137 0.078349 2.000000
0.465339 0.068670 0.037360 2.000000
0.465339 -0.069735 -0.062333 2.000000
0.465339 -0.008004 0.054028 2.000000
0.465339 -0.022162 -0.007710 2.000000
0.465339 -0.023150 -0.036052 2.000000
0.465339 -0.028873 -0.060159 2.000000
0.465339 -0.037362 -0.054435 2.000000
0.465339 0.002062 -0.051361 2.000000
0.465339 -0.018853 0.003146 2.000000
0.465339 0.099648 0.002499 2.000000
0.465339 -0.032308 0.062747 2.000000
0.465339 0.089930 -0.014124 2.000000
0.465339 0.003127 -0.040953 2.000000
0.465339 0.025081 -0.007562 2.000000
0.465339 0.099429 -0.007966 2.000000
0.465339 -0.039307 -0.050829 2.000000
0.465339 0.094508 0.023689 2.000000
0.465339 0.038392 -0.014380 2.000000
0.465339 -0.047710 0.026878 2.000000
0.465339 -0.008151 0.056632 2.000000
0.465339 0.058865 -0.010463 2.000000
0.465339 -0.035674 -0.009892 2.000000
0.465339 -0.021649 -0.017648 2.000000
0.465339 -0.055744 0.006369 2.000000
0.465339 -0.005830 0.095347 2.000000
0.465339 0.029702 -0.076414 2.000000
0.465339 -0.022445 0.031457 2.000000
0.465339 -0.049786 0.008841 2.000000
0.465339 -0.067820 0.058775 2.000000
0.465339 -0.067873 0.063031 2.000000
0.465339 -0.052834 0.006342 2.000000
0.465339 0.049739 0.017262 2.000000
0.465339 -0.018221 -0.044209 2.000000
0.465339 0.046026 -0.076528 2.000000
0.465339 0.009770 0.097483 2.000000
0.465339 0.029835 -0.074960 2.000000
0.465339 -0.036758 -0.074981 2.000000
0.465339 -0.041577 -0.064261 2.000000
0.465339 -0.036067 0.016803 2.000000
0.465339 0.048534 -0.064530 2.000000
0.465339 -0.062226 -0.007906 2.000000
0.465339 -0.078904 -0.028157 2.000000
0.465339 -0.030337 -0.028323 2.000000
0.465339 -0.047695 -0.001831 2.000000
0.465339 -0.025552 0.092425 2.000000
0.465339 0.066436 -0.057125 2.000000
0.465339 -0.067401 -0.028614 2.000000
0.465339 -0.008615 0.059251 2.000000
0.465339 -0.012609 0.020536 2.000000
0.465339 0.050159 -0.055375 2.000000
0.465339 -0.083481 -0.037582 2.000000
0.465339 -0.069160 0.016507 2.000000
0.465339 -0.038302 0.029854 2.000000
0.465339 0.087954 0.027682 2.000000
0.465339 -0.077044 0.005700 2.000000
0.465339 -0.046208 -0.048041 2.000000
0.465339 0.044934 0.064268 2.000000
0.465339 -0.013536 0.088610 2.000000
0.465339 0.051089 -0.059067 2.000000
0.465339 0.010598 -0.022933 2.000000
0.465339 0.018272 -0.074923 2.000000
0.465339 0.077361 -0.018506 2.000000
0.465339 0.007779 0.007062 2.000000
0.465339 0.043419 0.064230 2.000000
0.465339 0.013840 0.036104 2.000000
0.465339 0.003674 -0.033209 2.000000
0.465339 -0.007317 -0.005942 2.000000
0.465339 0.036885 -0.008952 2.000000
0.465339 0.026962 -0.081002 2.000000
0.465339 -0.052274 0.053458 2.000000
0.465339 0.006075 -0.032976 2.000000
0.465339 0.042642 -0.090057 2.000000
0.465339 -0.032354 -0.069320 2.000000
0.465339 -0.030195 0.064062 2.000000
0.465339 0.098902 -0.010758 2.000000
0.465339 -0.078704 -0.009795 2.000000
0.465339 -0.066084 0.051875 2.000000
0.465339 0.061427 -0.070760 2.000000
0.465339 -0.007465 0.094533 2.000000
0.465339 -0.022611 0.000139 2.000000
0.465339 0.069899 0.018868 2.000000
0.465339 -0.002003 0.046363 2.000000
0.465339 -0.014913 -0.087132 2.000000
0.465339 -0.078143 0.031880 2.000000
0.465339 0.015174 0.085352 2.000000
0.465339 -0.046619 0.044337 2.000000
0.465339 -0.033443 0.042663 2.000000
0.465339 -0.022401 -0.037935 2.000000
0.465339 -0.064957 -0.072161 2.000000
0.465339 -0.007922 -0.007398 2.000000
0.465339 -0.044553 -0.010657 2.000000
0.465339 0.018311 -0.048390 2.000000
0.465339 -0.089410 -0.000420 2.000000
0.465339 0.072922 0.055051 2.000000
0.465339 -0.017448 0.054859 2.000000
0.465339 -0.098456 -0.001769 2.000000
0.465339 -0.030168 0.053103 2.000000
0.465339 -0.071163 0.038218 2.000000
0.465339 0.020967 -0.097242 2.000000
0.465339 0.079820 0.017536 2.000000
0.465339 0.028812 0.021077 2.000000
0.465339 0.094886 0.031079 2.000000
0.465339 -0.016437 0.040609 2.000000
0.465339 -0.051456 -0.072727 2.000000
0.465339 0.030941 0.035351 2.000000
0.465339 -0.006765 -0.089209 2.000000
0.465339 0.076575 -0.011726 2.000000
0.465339 0.020981 -0.019348 2.000000
0.465339 0.092916 -0.030936 2.000000
0.465339 -0.079526 0.057403 2.000000
0.465339 0.005593 -0.088189 2.000000
0.465339 0.015993 0.096193 2.000000
0.465339 -0.029324 0.028531 2.000000
0.465339 0.027457 -0.021583 2.000000
0.465339 -0.072148 -0.024215 2.000000
0.465339 -0.029546 -0.076111 2.000000
0.465339 0.038851 -0.023787 2.000000
0.465339 -0.027262 0.087877 2.000000
0.465339 0.042737 0.083128 2.000000
0.465339 -0.024707 0.064072 2.000000
0.465339 -0.038971 0.036669 2.000000
0.465339 -0.038326 0.042286 2.000000
0.465339 0.012007 -0.057981 2.000000
0.465339 0.047836 -0.043645 2.000000
0.465339 -0.002830 -0.080874 2.000000
0.465339 -0.052126 -0.057771 2.000000
0.465339 -0.025840 -0.002516 2.000000
0.465339 0.034564 0.015221 2.000000
0.465339 0.001132 -0.058483 2.000000
0.465339 0.047453 0.048641 2.000000
0.465339 0.011745 0.014496 2.000000
0.465339 -0.054677 0.022320 2.000000
0.465339 0.082629 -0.040866 2.000000
0.465339 -0.015642 0.039531 2.000000
0.465339 0.023707 0.038619 2.000000
0.465339 -0.005638 -0.055384 2.000000
0.465339 0.034325 -0.020583 2.000000
0.465339 0.019968 -0.049965 2.000000
0.465339 -0.045550 -0.012160 2.000000
0.465339 0.047479 0.040149 2.000000
0.465339 -0.045160 -0.025930 2.000000
0.465339 -0.079936 -0.036205 2.000000
0.465339 -0.060961 0.013304 2.000000
0.465339 0.016390 0.030768 2.000000
0.465339 0.060095 0.079778 2.000000
0.465339 0.039418 0.031329 2.000000
0.465339 -0.024821 -0.091544 2.000000
0.465339 0.074219 -0.005256 2.000000
0.465339 -0.042643 0.001195 2.000000
0.465339 0.012623 -0.049611 2.000000
0.465339 0.010079 0.064482 2.000000
0.465339 -0.074495 0.036773 2.000000
0.465339 -0.041303 0.030285 2.000000
0.465339 0.007184 0.024206 2.000000
0.465339 -0.024741 0.018625 2.000000
0.465339 -0.022424 0.094825 2.000000
0.465339 0.004990 0.096483 2.000000
0.465339 -0.086336 0.029909 2.000000
0.465339 -0.009168 -0.094647 2.000000
0.465339 -0.036337 0.003850 2.000000
0.465339 -0.034792 -0.022944 2.000000
0.465339 0.005270 0.036940 2.000000
0.465339 -0.049882 0.025823 2.000000
0.465339 -0.088103 -0.000976 2.000000
0.465339 -0.028521 0.023325 2.000000
0.465339 0.003976 -0.036516 2.000000
0.465339 -0.074762 0.009692 2.000000
0.465339 -0.031503 -0.073538 2.000000
0.465339 -0.057421 -0.028605 2.000000
0.465339 -0.051765 -0.036657 2.000000
0.465339 -0.010998 0.087176 2.000000
0.465339 -0.016043 0.063460 2.000000
0.465339 0.019616 -0.016092 2.000000
0.465339 0.023752 0.090819 2.000000
0.465339 0.041385 -0.056745 2.000000
0.465339 0.081029 0.049162 2.000000
0.465339 0.032883 0.026444 2.000000
0.465339 0.007270 -0.040336 2.000000
0.465339 -0.045849 0.046274 2.000000
0.465339 -0.016587 -0.095617 2.000000
0.465339 0.023377 0.092311 2.000000
0.465339 0.051001 0.000167 2.000000
0.465339 0.041503 -0.017907 2.000000
0.465339 -0.074086 0.064999 2.000000
0.465339 0.049861 -0.064230 2.000000
0.465339 -0.026254 0.047235 2.000000
0.465339 0.060400 0.016942 2.000000
0.465339 -0.044467 -0.068014 2.000000
0.465339 0.092356 -0.001199 2.000000
0.465339 -0.012428 -0.058853 2.000000
0.465339 0.043156 -0.052275 2.000000
0.465339 0.034499 0.091522 2.000000
0.465339 -0.092363 0.002965 2.000000
0.465339 0.016050 -0.083254 2.000000
0.465339 -0.053768 -0.029866 2.000000
0.465339 -0.054747 -0.014341 2.000000
0.465339 0.017816 0.002848 2.000000
0.465339 0.045115 0.046038 2.000000
0.465339 -0.077072 -0.002583 2.000000
0.465339 0.004782 -0.069912 2.000000
0.465339 0.039299 0.027876 2.000000
0.465339 0.084326 0.048266 2.000000
0.465339 -0.079702 -0.042589 2.000000
0.465339 0.001604 0.025701 2.000000
0.465339 -0.060847 0.067387 2.000000
0.465339 -0.049931 0.068056 2.000000
0.465339 0.062243 -0.051064 2.000000
0.465339 0.095771 0.024312 2.000000
0.465339 0.034004 0.056203 2.000000
0.465339 0.050769 -0.068975 2.000000
0.465339 -0.017257 0.073514 2.000000
0.465339 -0.002548 -0.095148 2.000000
0.465339 -0.041183 0.055840 2.000000
0.465339 -0.008446 0.069754 2.000000
0.465339 -0.022440 -0.089887 2.000000
0.465339 0.065632 0.056188 2.000000
0.465339 -0.015939 0.081997 2.000000
0.465339 0.089794 -0.031707 2.000000
0.465339 -0.066516 0.050383 2.000000
0.465339 -0.063548 0.034635 2.000000
0.465339 -0.024678 -0.082887 2.000000
0.465339 0.030343 0.026276 2.000000
0.465339 -0.078252 -0.005842 2.000000
0.465339 0.048708 -0.028512 2.000000
0.465339 0.050434 -0.011058 2.000000
0.465339 -0.028897 0.088007 2.000000
0.465339 -0.018716 0.013207 2.000000
0.465339 -0.038934 -0.089799 2.000000
0.465339 -0.018815 0.020066 2.000000
0.465339 -0.032172 -0.075701 2.000000
0.465339 0.024804 0.018675 2.000000
0.465339 0.024430 -0.067448 2.000000
0.465339 -0.054989 -0.023051 2.000000
0.465339 0.048315 -0.086949 2.000000
0.465339 -0.039927 0.030483 2.000000
0.465339 -0.075245 -0.018070 2.000000
0.465339 -0.053331 0.056134 2.000000
0.465339 -0.038343 0.019644 2.000000
0.465339 -0.078814 0.030044 2.000000
0.465339 0.083027 -0.039023 2.000000
0.465339 0.046695 0.047091 2.000000
0.465339 -0.054382 0.031366 2.000000
0.465339 -0.002121 0.026381 2.000000
0.465339 0.075725 0.001053 2.000000
0.465339 0.069498 0.046277 2.000000
0.465339 0.072496 0.050587 2.000000
0.465339 0.029499 0.054102 2.000000
0.465339 0.035562 -0.002611 2.000000
0.465339 0.077960 0.046882 2.000000
0.465339 0.033023 0.040430 2.000000
0.465339 0.092231 0.020298 2.000000
0.465339 0.095804 0.005009 2.000000
0.465339 0.027434 0.071282 2.000000
0.465339 -0.001082 -0.040598 2.000000
0.465339 -0.077037 -0.022592 2.000000
0.465339 0.035817 -0.048928 2.000000
0.465339 0.076319 -0.028337 2.000000
0.465339 0.075679 0.028600 2.000000
0.465339 -0.019448 -0.046716 2.000000
0.465339 0.022901 0.055658 2.000000
0.465339 0.078175 0.012752 2.000000
0.465339 0.029097 -0.064260 2.000000
0.465339 0.003642 0.078847 2.000000
0.465339 -0.086964 0.036323 2.000000
0.465339 -0.003766 0.035299 2.000000
0.465339 0.078497 0.027873 2.000000
0.465339 -0.028137 -0.004449 2.000000
0.465339 0.088577 -0.041847 2.000000
0.465339 0.089978 0.032987 2.000000
0.465339 0.018409 -0.053586 2.000000
0.465339 -0.047031 -0.020237 2.000000
0.465339 0.001614 -0.097220 2.000000
0.465339 -0.021268 0.015207 2.000000
0.465339 -0.013886 -0.071307 2.000000
0.465339 0.035427 -0.070340 2.000000
0.465339 -0.035713 -0.081246 2.000000
0.465339 -0.035513 0.064170 2.000000
0.465339 0.058353 -0.006494 2.000000
0.465339 -0.013821 -0.080371 2.000000
0.465339 0.015934 -0.066154 2.000000
0.465339 0.063676 0.069860 2.000000
0.465339 -0.058033 -0.047775 2.000000
0.465339 0.075073 0.042405 2.000000
0.465339 0.022688 0.001685 2.000000
0.465339 0.063906 -0.034132 2.000000
0.465339 -0.048544 0.051842 2.000000
0.465339 -0.011123 -0.024553 2.000000
0.465339 -0.000984 0.061735 2.000000
0.465339 0.006308 -0.012998 2.000000
0.465339 0.045220 0.000283 2.000000
0.465339 0.049384 0.076719 2.000000
0.465339 0.065913 0.033961 2.000000
0.465339 0.005074 0.088475 2.000000
0.465339 0.057358 -0.030098 2.000000
0.465339 0.050189 -0.013431 2.000000
0.465339 0.050452 -0.022254 2.000000
0.465339 -0.071031 0.068431 2.000000
0.465339 -0.014734 0.095514 2.000000
0.465339 0.031428 -0.071400 2.000000
0.465339 0.023381 0.063858 2.000000
0.465339 -0.081066 0.015480 2.000000
0.465339 -0.052083 0.016209 2.000000
0.465339 0.049911 0.019429 2.000000
0.465339 -0.059133 0.042292 2.000000
0.465339 0.001328 -0.020938 2.000000
0.465339 0.024536 0.070741 2.000000
0.465339 0.056730 0.034383 2.000000
0.465339 0.064868 0.035183 2.000000
0.465339 -0.064587 0.028516 2.000000
0.465339 -0.000749 -0.036135 2.000000
0.465339 0.058906 0.051535 2.000000
0.465339 -0.085273 0.022110 2.000000
0.465339 0.026925 -0.059382 2.000000
0.465339 0.071130 -0.032604 2.000000
0.465339 -0.017316 0.029401 2.000000
0.465339 0.061830 -0.002024 2.000000
0.465339 -0.045950 -0.036368 2.000000
0.465339 -0.023401 -0.020374 2.000000
0.465339 -0.033850 -0.064661 2.000000
0.465339 0.058821 0.068191 2.000000
0.465339 -0.040506 -0.062969 2.000000
0.465339 0.025523 -0.004326 2.000000
0.465339 -0.065385 0.011575 2.000000
0.465339 -0.020405 -0.076036 2.000000
0.465339 0.006857 -0.049888 2.000000
0.465339 -0.035680 -0.019691 2.000000
0.465339 -0.059577 0.003803 2.000000
0.465339 -0.008918 0.090244 2.000000
0.465339 0.039221 -0.036588 2.000000
0.465339 0.023196 -0.021054 2.000000
0.465339 -0.041723 -0.061539 2.000000
0.465339 0.024186 -0.015811 2.000000
0.465339 -0.038940 -0.024778 2.000000
0.465339 -0.094571 0.015361 2.000000
0.465339 0.020501 0.075463 2.000000
0.465339 0.054591 -0.038958 2.000000
0.465339 -0.038774 0.004227 2.000000
0.465339 -0.097005 0.019725 2.000000
0.465339 0.027887 -0.031217 2.000000
0.465339 0.094542 -0.024595 2.000000
0.465339 0.031659 0.008859 2.000000
0.465339 0.015378 0.013362 2.000000
0.465339 -0.023110 0.008385 2.000000
0.465339 -0.068884 0.000582 2.000000
0.465339 -0.064818 0.005491 2.000000
0.465339 0.067722 -0.048689 2.000000
0.465339 -0.085090 0.018166 2.000000
0.465339 -0.045991 0.049355 2.000000
0.465339 -0.090545 0.039015 2.000000
0.465339 0.000240 0.046537 2.000000
0.465339 -0.034610 0.076240 2.000000
0.465339 0.022518 -0.090086 2.000000
0.465339 0.069788 0.021041 2.000000
0.465339 0.011917 0.078761 2.000000
0.465339 -0.057651 -0.016261 2.000000
0.465339 -0.040741 0.087825 2.000000
0.465339 0.050121 -0.007818 2.000000
0.465339 -0.054578 0.060651 2.000000
0.465339 -0.092280 -0.000556 2.000000
0.465339 0.013435 -0.076291 2.000000
0.465339 -0.013896 -0.011995 2.000000
0.465339 -0.071781 -0.040178 2.000000
0.465339 -0.005116 -0.006172 2.000000
0.465339 0.027937 -0.006343 2.000000
0.465339 0.066554 0.050061 2.000000
0.465339 0.032105 0.082993 2.000000
0.465339 0.010289 0.043012 2.000000
0.465339 -0.013255 0.040817 2.000000
0.465339 -0.077191 0.030792 2.000000
0.465339 -0.076235 -0.019939 2.000000
0.465339 0.086161 0.010080 2.000000
0.465339 -0.013320 -0.097294 2.000000
0.465339 -0.072728 0.030449 2.000000
0.465339 0.091508 0.038233 2.000000
0.465339 -0.037783 -0.008011 2.000000
0.465339 0.046051 0.083109 2.000000
0.465339 0.009113 -0.066119 2.000000
0.465339 -0.052388 0.022758 2.000000
0.465339 -0.027563 0.092899 2.000000
0.465339 -0.026416 -0.095525 2.000000
0.465339 -0.018597 0.016860 2.000000
0.465339 0.064161 -0.051128 2.000000
0.465339 0.007777 0.048260 2.000000
0.465339 0.005328 0.075909 2.000000
0.465339 0.023102 0.042973 2.000000
0.465339 -0.058491 0.016906 2.000000
0.465339 -0.011022 -0.088555 2.000000
0.465339 0.045432 -0.019170 2.000000
0.465339 -0.001095 0.035882 2.000000
0.465339 0.039391 0.035082 2.000000
0.465339 0.059272 0.004440 2.000000
0.465339 0.055106 0.011531 2.000000
0.465339 0.027165 0.095771 2.000000
0.465339 -0.035341 0.081863 2.000000
0.465339 0.002127 -0.032405 2.000000
0.465339 -0.063484 0.071217 2.000000
0.465339 0.005785 0.071857 2.000000
0.465339 0.024093 0.005276 2.000000
0.465339 -0.047714 -0.025506 2.000000
0.465339 0.063298 0.074377 2.000000
0.465339 0.079926 0.007355 2.000000
0.465339 0.058200 -0.045540 2.000000
0.465339 -0.001611 0.027981 2.000000
0.465339 -0.073703 -0.009101 2.000000
0.465339 0.091373 0.012005 2.000000
0.465339 0.085207 0.034286 2.000000
0.465339 0.055319 0.007443 2.000000
0.465339 -0.018581 -0.024054 2.000000
0.465339 0.009145 0.044094 2.000000
0.465339 -0.040035 -0.053738 2.000000
0.465339 -0.048964 0.006818 2.000000
0.465339 -0.052247 -0.014351 2.000000
0.465339 0.040251 -0.061890 2.000000
0.465339 -0.060608 -0.037354 2.000000
0.465339 -0.011658 0.021864 2.000000
0.465339 0.044570 0.082453 2.000000
0.465339 -0.019561 -0.042668 2.000000
0.465339 -0.013984 -0.058849 2.000000
0.465339 0.096505 0.000707 2.000000
0.465339 0.031496 -0.019475 2.000000
0.465339 -0.003352 0.039550 2.000000
0.465339 0.016551 -0.005485 2.000000
0.465339 -0.007720 -0.049658 2.000000
0.465339 0.006671 -0.096973 2.000000
0.465339 0.077221 0.032657 2.000000
0.465339 0.000523 -0.062965 2.000000
0.465339 0.022168 -0.094826 2.000000
0.465339 0.068508 -0.005442 2.000000
0.465339 -0.039994 0.024647 2.000000
0.465339 0.044413 -0.009898 2.000000
0.465339 -0.033819 -0.024521 2.000000
0.465339 0.043683 -0.044198 2.000000
0.465339 0.004039 -0.071418 2.000000
0.465339 -0.070020 -0.016665 2.000000
0.465339 -0.031542 0.038387 2.000000
0.465339 -0.028339 -0.013925 2.000000
0.465339 -0.092183 0.016535 2.000000
0.465339 0.074163 -0.022700 2.000000
0.465339 -0.032404 -0.083351 2.000000
0.465339 -0.049300 -0.050103 2.000000
0.465339 -0.021074 0.031049 2.000000
0.465339 -0.041347 -0.088907 2.000000
0.465339 0.070709 -0.059346 2.000000
0.465339 -0.089967 0.027992 2.000000
0.465339 -0.050466 -0.059912 2.000000
0.465339 -0.011048 -0.092644 2.000000
0.465339 -0.037592 -0.078324 2.000000
0.465339 -0.090878 -0.034670 2.000000
0.465339 -0.035968 0.028579 2.000000
0.465339 0.036556 0.062000 2.000000
0.465339 0.039689 0.032716 2.000000
0.465339 0.036768 -0.067929 2.000000
0.465339 -0.044904 -0.042153 2.000000
0.465339 -0.073294 -0.001965 2.000000
0.465339 0.067595 0.014073 2.000000
0.465339 0.024121 0.032455 2.000000
0.465339 0.033286 0.090336 2.000000
0.465339 0.060135 -0.030020 2.000000
0.465339 -0.062562 -0.033794 2.000000
0.465339 0.053497 -0.009103 2.000000
0.465339 0.090038 -0.041888 2.000000
0.465339 0.027789 -0.015716 2.000000
0.465339 0.065314 0.025717 2.000000
0.465339 -0.047584 0.076989 2.000000
0.465339 -0.004504 -0.072766 2.000000
0.465339 0.054968 -0.013556 2.000000
0.465339 0.038387 0.010411 2.000000
0.465339 -0.079661 -0.014931 2.000000
0.465339 -0.036550 0.026455 2.000000
0.465339 -0.005199 -0.088725 2.000000
0.465339 -0.000486 -0.031596 2.000000
0.465339 0.010362 0.053202 2.000000
0.465339 -0.052903 0.060924 2.000000
0.465339 -0.023356 -0.084075 2.000000
0.465339 -0.054424 -0.073636 2.000000
0.465339 -0.000715 -0.034256 2.000000
0.465339 -0.076869 -0.061919 2.000000
0.465339 0.010548 0.078628 2.000000
0.465339 -0.068555 0.019163 2.000000
0.465339 0.034045 -0.086074 2.000000
0.465339 -0.066155 0.070162 2.000000
0.465339 0.015447 -0.078633 2.000000
0.465339 0.017197 -0.054383 2.000000
0.465339 -0.037693 0.043510 2.000000
0.465339 0.069609 0.048890 2.000000
0.465339 0.047003 0.033640 2.000000
0.465339 0.033677 -0.058771 2.000000
0.465339 -0.072972 0.008478 2.000000
0.465339 -0.054964 0.010454 2.000000
0.465339 -0.001823 0.067736 2.000000
0.465339 -0.064707 0.026428 2.000000
0.465339 -0.036866 -0.031070 2.000000
0.465339 -0.002001 -0.066529 2.000000
0.465339 -0.093030 -0.020588 2.000000
0.465339 -0.059225 0.075124 2.000000
0.465339 0.044154 0.088635 2.000000
0.465339 0.017160 0.012631 2.000000
0.465339 -0.086466 -0.045216 2.000000
0.465339 -0.083389 -0.016326 2.000000
0.465339 -0.080852 0.058239 2.000000
0.465339 0.077130 0.000082 2.000000
0.465339 -0.047208 -0.038336 2.000000
0.465339 0.000305 -0.070615 2.000000
0.465339 0.086235 -0.019119 2.000000
0.465339 -0.078210 0.045034 2.000000
0.465339 0.005204 -0.026048 2.000000
0.465339 0.027721 0.018512 2.000000
0.465339 -0.002880 -0.022530 2.000000
0.465339 0.003606 -0.054229 2.000000
0.465339 -0.030344 0.023070 2.000000
0.465339 0.048946 -0.042329 2.000000
0.465339 -0.083668 -0.026028 2.000000
0.465339 0.014150 0.055804 2.000000
0.465339 -0.022042 -0.001470 2.000000
0.465339 -0.080581 0.044718 2.000000
0.465339 0.003986 -0.009886 2.000000
0.465339 0.026635 0.012330 2.000000
0.465339 -0.066728 -0.065410 2.000000
0.465339 -0.022924 -0.049790 2.000000
0.465339 0.003415 0.037518 2.000000
0.465339 0.067603 0.026141 2.000000
0.465339 -0.002914 -0.039973 2.000000
0.465339 0.087716 0.017936 2.000000
0.465339 -0.014740 0.065262 2.000000
0.465339 0.024193 -0.049041 2.000000
0.465339 0.093556 0.001031 2.000000
0.465339 0.012134 -0.092060 2.000000
0.465339 -0.058780 -0.067414 2.000000
0.465339 -0.004621 -0.023187 2.000000
0.465339 0.008869 0.069363 2.000000
0.465339 -0.089634 -0.002124 2.000000
0.465339 0.022581 0.089878 2.000000
0.465339 0.043948 0.020976 2.000000
0.465339 0.016906 0.069688 2.000000
0.465339 -0.094536 0.018573 2.000000
0.465339 -0.061734 -0.023300 2.000000
0.465339 -0.008352 -0.060556 2.000000
0.465339 0.001237 -0.071831 2.000000
0.465339 0.058624 0.034343 2.000000
0.465339 0.010402 0.025001 2.000000
0.465339 -0.061383 -0.001025 2.000000
0.465339 -0.029076 0.040150 2.000000
0.465339 -0.043452 0.034270 2.000000
0.465339 0.002116 0.078790 2.000000
0.465339 0.037107 0.089549 2.000000
0.465339 -0.045489 -0.020922 2.000000
0.465339 0.007910 0.019247 2.000000
0.465339 0.087261 -0.026146 2.000000
0.465339 0.032587 -0.024389 2.000000
0.465339 0.058853 0.047965 2.000000
0.465339 -0.049779 -0.075529 2.000000
0.465339 -0.006549 -0.034017 2.000000
0.465339 0.037786 0.008895 2.000000
0.465339 -0.073927 -0.003996 2.000000
0.465339 -0.073721 0.057690 2.000000
0.465339 -0.049168 -0.029822 2.000000
0.465339 0.008871 -0.092986 2.000000
0.465339 -0.038251 -0.043817 2.000000
0.465339 -0.090197 0.036401 2.000000
0.465339 0.023264 -0.065671 2.000000
0.465339 0.042879 -0.012927 2.000000
0.465339 -0.046555 0.078311 2.000000
0.465339 -0.035783 0.038911 2.000000
0.465339 -0.029992 0.073164 2.000000
0.465339 0.030441 0.037075 2.000000
0.465339 -0.016620 0.031506 2.000000
0.465339 0.022039 0.026686 2.000000
0.465339 -0.041633 0.014038 2.000000
0.465339 0.041048 -0.073831 2.000000
0.465339 -0.037400 0.024617 2.000000
0.465339 0.019467 -0.043507 2.000000
0.465339 0.005105 -0.005625 2.000000
0.465339 -0.093256 0.023874 2.000000
0.465339 0.027540 -0.050332 2.000000
0.465339 -0.094529 0.007595 2.000000
0.465339 -0.043761 -0.072409 2.000000
0.465339 -0.027303 0.043345 2.000000
0.465339 0.009190 -0.038259 2.000000
0.465339 0.026614 -0.009929 2.000000
0.465339 -0.092848 0.015225 2.000000
0.465339 0.057096 0.041114 2.000000
0.465339 -0.053954 -0.048289 2.000000
0.465339 -0.032057 -0.063449 2.000000
0.465339 -0.043150 0.079139 2.000000
0.465339 0.034878 -0.036064 2.000000
0.465339 -0.042011 0.071075 2.000000
0.465339 0.012699 0.024901 2.000000
0.465339 -0.026365 -0.024113 2.000000
0.465339 -0.019250 -0.095370 2.000000
0.465339 0.051116 0.029400 2.000000
0.465339 -0.019165 -0.039840 2.000000
0.465339 -0.066446 -0.005163 2.000000
0.465339 0.089358 -0.003264 2.000000
0.465339 0.085119 -0.007155 2.000000
0.465339 -0.084062 -0.022308 2.000000
0.465339 0.014812 0.077653 2.000000
0.465339 0.009512 0.047582 2.000000
0.465339 0.060482 -0.050867 2.000000
0.465339 -0.007702 -0.051323 2.000000
0.465339 0.054961 -0.051738 2.000000
0.465339 0.026852 -0.070379 2.000000
0.465339 -0.000988 0.084303 2.000000
0.465339 -0.053722 -0.067958 2.000000
0.465339 0.037298 -0.013111 2.000000
0.465339 -0.012932 -0.062677 2.000000
0.465339 0.068850 -0.069715 2.000000
0.465339 -0.019655 0.050176 2.000000
0.465339 -0.046076 0.025125 2.000000
0.465339 -0.078342 0.046432 2.000000
0.465339 -0.003257 -0.050417 2.000000
0.465339 0.001770 0.003234 2.000000
0.465339 0.046529 -0.045076 2.000000
0.465339 0.001247 -0.027119 2.000000
0.465339 -0.088403 -0.006799 2.000000
0.465339 0.013320 -0.004177 2.000000
0.465339 -0.058263 0.070367 2.000000
0.465339 0.078644 0.054104 2.000000
0.465339 0.006865 0.076321 2.000000
0.465339 -0.032274 0.026482 2.000000
0.465339 0.073612 -0.037906 2.000000
0.465339 -0.054216 0.012403 2.000000
0.465339 0.064645 -0.062774 2.000000
0.465339 0.013017 -0.052873 2.000000
0.465339 -0.032737 -0.066375 2.000000
0.465339 0.034966 0.047431 2.000000
0.465339 -0.083830 0.011033 2.000000
0.465339 -0.078340 -0.008266 2.000000
0.465339 0.004865 0.081371 2.000000
0.465339 0.046351 -0.088254 2.000000
0.465339 0.069746 -0.001352 2.000000
0.465339 -0.011549 -0.048816 2.000000
0.465339 -0.032179 -0.058379 2.000000
0.465339 -0.068243 0.006393 2.000000
0.465339 0.063115 0.008103 2.000000
0.465339 -0.059765 0.017755 2.000000
0.465339 -0.040551 0.080505 2.000000
0.465339 0.042833 0.019606 2.000000
0.465339 0.069636 0.007912 2.000000
0.465339 0.017507 0.062480 2.000000
0.465339 -0.019634 0.018236 2.000000
0.465339 0.072581 -0.040342 2.000000
0.465339 -0.001074 -0.099317 2.000000
0.465339 -0.015021 -0.088956 2.000000
0.465339 -0.025525 0.019993 2.000000
0.465339 -0.009047 -0.044955 2.000000
0.465339 0.067387 0.071621 2.000000
0.465339 -0.037901 -0.087100 2.000000
0.465339 0.014225 -0.035054 2.000000
0.465339 -0.025362 -0.069104 2.000000
0.465339 0.073829 0.049758 2.000000
0.465339 0.017060 -0.059963 2.000000
0.465339 0.026164 0.002133 2.000000
0.465339 0.022698 0.012670 2.000000
0.465339 -0.067244 -0.022028 2.000000
0.465339 0.076285 0.038299 2.000000
0.465339 -0.040163 -0.070444 2.000000
0.465339 0.034145 0.073632 2.000000
0.465339 0.007864 0.003322 2.000000
0.465339 0.066554 -0.046816 2.000000
0.465339 0.054392 -0.019916 2.000000
0.465339 0.035897 0.039082 2.000000
0.465339 0.041786 0.027978 2.000000
0.465339 -0.004063 -0.087435 2.000000
0.465339 0.001179 -0.018448 2.000000
0.465339 -0.077493 -0.058651 2.000000
0.465339 0.046462 -0.010790 2.000000
0.465339 -0.080931 -0.044100 2.000000
0.465339 0.067032 0.032657 2.000000
0.465339 -0.087718 0.027069 2.000000
0.465339 -0.053597 -0.056219 2.000000
0.465339 -0.049920 -0.017866 2.000000
0.465339 0.016691 0.057703 2.000000
0.465339 -0.022494 0.042366 2.000000
0.465339 0.013860 0.096431 2.000000
0.465339 -0.042636 -0.050018 2.000000
0.465339 0.044378 -0.076150 2.000000
0.465339 -0.085080 -0.021281 2.000000
0.465339 0.057726 -0.042285 2.000000
0.465339 -0.022564 0.064524 2.000000
0.465339 0.025836 0.042766 2.000000
0.465339 -0.060823 -0.042057 2.000000
0.465339 0.017370 -0.014503 2.000000
0.465339 0.006230 0.058736 2.000000
0.465339 -0.020524 0.085605 2.000000
0.465339 0.033148 -0.027618 2.000000
0.465339 0.061707 0.051549 2.000000
0.465339 -0.056703 -0.076513 2.000000
0.465339 -0.042112 -0.026097 2.000000
0.465339 0.070496 0.016859 2.000000
0.465339 -0.049788 -0.085130 2.000000
0.465339 -0.011620 0.061036 2.000000
0.465339 0.049479 0.052599 2.000000
0.465339 0.036280 0.021672 2.000000
0.465339 0.045421 0.072757 2.000000
0.465339 0.054037 -0.021301 2.000000
0.465339 -0.046151 -0.041615 2.000000
0.465339 0.012648 -0.006969 2.000000
0.465339 -0.003859 -0.063200 2.000000
0.465339 0.054873 0.039311 2.000000
0.465339 -0.016427 0.037614 2.000000
0.465339 0.059980 -0.061677 2.000000
0.465339 -0.057514 0.011827 2.000000
0.465339 0.044083 0.034119 2.000000
0.465339 -0.037636 -0.023923 2.000000
0.465339 0.061107 -0.049276 2.000000
0.465339 0.017348 -0.042843 2.000000
0.465339 -0.095439 -0.028253 2.000000
0.465339 0.062079 0.048755 2.000000
0.465339 -0.012881 -0.083890 2.000000
0.465339 0.017198 0.004210 2.000000
0.465339 -0.051004 -0.028814 2.000000
0.465339 0.089362 -0.004854 2.000000
0.465339 0.063110 -0.076809 2.000000
0.465339 -0.019312 -0.011085 2.000000
0.465339 0.057753 -0.079626 2.000000
0.465339 -0.011791 -0.030923 2.000000
0.465339 -0.048613 -0.018177 2.000000
0.465339 0.016722 0.043032 2.000000
0.465339 0.037900 -0.042493 2.000000
0.465339 0.025961 0.003558 2.000000
0.465339 0.016124 0.024832 2.000000
0.465339 0.065496 -0.026348 2.000000
