0.204749 0.070853 -0.070276 1.000000
-0.041754 -0.007371 -0.099395 1.000000
0.425397 -0.072156 -0.068740 1.000000
0.108915 0.059810 -0.079869 1.000000
0.318831 0.078337 0.062235 1.000000
-0.094592 -0.051447 -0.085316 1.000000
0.247367 -0.071005 0.070254 1.000000
-0.197459 0.049200 -0.086783 1.000000
0.332209 0.097649 -0.021162 1.000000
0.285396 0.084076 0.054263 1.000000
-0.008112 -0.060661 -0.079028 1.000000
-0.465232 -0.095744 0.028086 3.000000
0.221536 -0.071092 0.070167 1.000000
0.329832 -0.005859 -0.099519 1.000000
0.152611 -0.098542 -0.015128 1.000000
-0.344341 -0.092649 0.037203 1.000000
0.442577 -0.025201 -0.096431 1.000000
-0.216618 0.091697 -0.039580 1.000000
-0.369759 -0.095483 -0.028621 1.000000
0.091017 -0.060015 -0.079530 1.000000
-0.120243 -0.082442 0.056324 1.000000
0.201838 -0.098988 0.012660 1.000000
-0.104771 0.018201 0.098401 1.000000
0.016151 -0.052081 0.085304 1.000000
0.241113 0.069369 0.072123 1.000000
-0.327115 0.023530 -0.096888 1.000000
-0.416584 -0.011127 0.099403 1.000000
-0.189228 0.075309 -0.065501 1.000000
0.044632 -0.021089 0.097745 1.000000
0.336875 -0.098982 -0.012351 1.000000
-0.025339 0.052105 -0.085065 1.000000
-0.062374 -0.019969 0.097995 1.000000
-0.410985 -0.089261 0.044682 1.000000
0.143920 -0.064713 0.076125 1.000000
0.300613 -0.029738 0.095475 1.000000
-0.064687 0.004464 0.099933 1.000000
-0.435414 0.040918 -0.090949 3.000000
-0.280195 0.083835 0.054617 1.000000
-0.096565 -0.041582 0.090923 1.000000
0.155384 0.093889 -0.034094 1.000000
-0.137937 -0.099697 0.002579 1.000000
-0.032524 -0.050988 0.085950 1.000000
0.027620 -0.039498 -0.091462 1.000000
0.290754 0.067025 0.074293 1.000000
0.104580 0.078805 -0.061269 1.000000
0.009635 0.091789 0.039731 1.000000
-0.235140 0.002617 0.099991 1.000000
0.151579 0.093334 0.036000 1.000000
0.457572 -0.013947 -0.098675 2.000000
-0.115033 0.093017 0.036881 1.000000
0.239466 0.037411 0.092829 1.000000
-0.210443 0.099843 -0.004983 1.000000
0.427638 -0.069928 0.071331 2.000000
-0.029069 -0.099682 0.003037 1.000000
-0.378365 0.035516 0.093549 1.000000
-0.270187 0.075012 -0.065838 1.000000
0.275612 -0.082981 0.055531 1.000000
0.136175 0.099239 -0.012116 1.000000
0.395183 0.082187 0.057042 1.000000
0.284040 0.084483 -0.053295 1.000000
0.080897 -0.099294 0.009424 1.000000
0.098021 -0.094918 0.030928 1.000000
0.133934 -0.043155 0.090185 1.000000
-0.033505 0.023005 -0.097006 1.000000
-0.174696 0.085294 0.052287 1.000000
-0.109182 -0.059601 -0.079851 1.000000
-0.338152 0.050374 0.086452 1.000000
-0.193634 -0.070166 0.071092 1.000000
0.108783 -0.077569 0.062924 1.000000
-0.362149 0.064404 -0.076241 1.000000
-0.060932 -0.034395 -0.093506 1.000000
0.449023 -0.016070 0.098702 2.000000
0.053354 0.013054 -0.098853 1.000000
0.404195 -0.034612 -0.093428 1.000000
-0.448254 0.093890 0.034456 3.000000
0.067531 0.095819 0.028630 1.000000
0.034303 -0.023375 -0.096871 1.000000
-0.225861 -0.093158 -0.035477 1.000000
-0.375136 0.083428 -0.054853 1.000000
0.441958 0.093918 0.034376 2.000000
-0.411746 0.084710 -0.052911 1.000000
-0.084954 -0.095917 0.027491 1.000000
-0.065118 -0.058435 -0.080740 1.000000
0.227022 0.085200 -0.052082 1.000000
0.369167 -0.099061 -0.011525 1.000000
-0.216584 0.084464 -0.053327 1.000000
0.134810 -0.054105 0.084046 1.000000
0.360386 0.045769 0.088973 1.000000
-0.166976 0.068062 -0.073017 1.000000
0.299110 -0.051503 -0.085283 1.000000
-0.447408 -0.002145 0.099999 3.000000
-0.265884 0.039552 0.091903 1.000000
0.288539 0.062554 0.078104 1.000000
-0.364407 -0.057311 0.081866 1.000000
-0.088968 -0.086106 0.050519 1.000000
0.384473 0.070210 -0.070919 1.000000
0.368253 0.035146 0.093683 1.000000
0.190433 -0.098376 -0.016180 1.000000
-0.413392 0.062013 0.078524 1.000000
-0.049572 -0.094074 -0.032932 1.000000
-0.460405 0.078443 0.062099 3.000000
0.169773 -0.009546 -0.099190 1.000000
0.037337 0.000626 0.100054 1.000000
-0.203856 -0.040583 0.091355 1.000000
-0.303518 0.040730 -0.091030 1.000000
0.338079 -0.068890 0.072369 1.000000
0.358755 -0.096051 0.027029 1.000000
-0.242390 0.099432 0.010433 1.000000
-0.193133 0.082907 0.055983 1.000000
0.421621 -0.077409 0.063130 2.000000
0.346331 0.025099 0.096891 1.000000
-0.448262 0.024985 -0.096561 3.000000
-0.355047 -0.099202 0.010396 1.000000
0.126597 0.099096 -0.013103 1.000000
-0.070944 -0.099601 0.005610 1.000000
0.264936 -0.044513 0.089494 1.000000
-0.362162 -0.050042 -0.086147 1.000000
0.420260 0.004271 0.099939 2.000000
0.174395 0.099917 -0.002614 1.000000
0.248580 0.099966 -0.001077 1.000000
0.336190 0.099375 -0.010676 1.000000
0.024698 0.079288 -0.060646 1.000000
-0.290544 0.014633 0.098966 1.000000
0.244158 0.078750 -0.061340 1.000000
-0.137783 0.041248 0.091169 1.000000
0.122296 -0.037207 -0.092454 1.000000
-0.072708 0.072004 0.069488 1.000000
0.030583 0.099661 0.008007 1.000000
-0.421692 0.099833 -0.005283 1.000000
-0.317340 -0.043691 -0.089550 1.000000
0.448916 0.070068 0.071425 2.000000
0.091956 0.043469 0.090144 1.000000
0.134386 -0.094316 0.032623 1.000000
0.297797 0.073811 0.067563 1.000000
0.135433 -0.066870 -0.073861 1.000000
0.005205 -0.052822 -0.084503 1.000000
0.066309 -0.049263 -0.086608 1.000000
-0.366839 -0.017788 0.098429 1.000000
-0.077958 -0.026825 -0.095959 1.000000
-0.389544 0.016060 0.098740 1.000000
-0.210825 -0.053304 -0.084218 1.000000
-0.420894 0.078011 -0.062293 3.000000
0.002228 -0.090776 -0.041168 1.000000
-0.446434 -0.081842 0.057207 3.000000
-0.312621 -0.056468 -0.082076 1.000000
-0.194156 -0.083273 -0.054738 1.000000
0.102138 0.029521 -0.095243 1.000000
-0.153195 -0.068188 0.073062 1.000000
0.229541 -0.006084 0.099875 1.000000
-0.067828 0.031632 -0.094585 1.000000
-0.029531 -0.090364 0.042483 1.000000
0.171354 0.081175 -0.058169 1.000000
-0.162224 -0.098480 0.015881 1.000000
-0.052140 0.016522 -0.098304 1.000000
0.147887 -0.053002 -0.084396 1.000000
-0.237345 -0.039923 0.091641 1.000000
0.254799 -0.082900 0.055650 1.000000
-0.237050 -0.057511 0.081731 1.000000
0.233561 -0.083868 0.054225 1.000000
0.157298 -0.093498 0.034895 1.000000
-0.053250 -0.099414 0.008152 1.000000
-0.107259 -0.089118 -0.044600 1.000000
-0.365424 -0.093760 0.034168 1.000000
0.335607 -0.047472 -0.087623 1.000000
0.079472 -0.090130 0.042976 1.000000
0.121115 0.083596 -0.054606 1.000000
-0.032383 -0.073065 -0.067782 1.000000
0.401186 0.055538 0.083230 1.000000
-0.031458 -0.003883 -0.099582 1.000000
-0.193496 0.068441 0.073045 1.000000
0.263006 0.044132 -0.089444 1.000000
0.202299 -0.060491 0.079523 1.000000
0.414764 -0.099758 0.000629 1.000000
0.079328 0.033695 -0.093842 1.000000
-0.218375 0.088076 0.047466 1.000000
0.224753 -0.095183 0.030016 1.000000
-0.334673 -0.097278 0.022138 1.000000
-0.198171 0.071958 0.069535 1.000000
0.228885 0.076792 0.064182 1.000000
-0.174539 0.090432 -0.042480 1.000000
0.090000 -0.073571 0.067571 1.000000
-0.095956 -0.097285 0.022109 1.000000
0.062000 -0.097924 -0.018889 1.000000
-0.081202 0.100000 0.000013 1.000000
0.214186 -0.097655 -0.020089 1.000000
-0.364061 -0.074892 -0.065710 1.000000
0.133130 0.095793 -0.028358 1.000000
-0.285394 -0.098694 0.014530 1.000000
-0.428330 0.099887 -0.003572 1.000000
0.067307 -0.006884 0.099804 1.000000
-0.040875 0.066809 -0.074121 1.000000
0.256710 -0.009161 0.099589 1.000000
-0.404683 0.037958 0.092593 1.000000
0.281315 0.076336 -0.064336 1.000000
0.032284 0.009481 -0.099218 1.000000
-0.343383 0.094801 -0.031561 1.000000
-0.421683 0.033540 -0.093898 1.000000
0.333127 -0.035665 0.093412 1.000000
0.407902 -0.065951 0.075035 2.000000
0.373851 -0.084463 0.053298 1.000000
-0.144154 0.087068 0.049288 1.000000
0.421866 -0.019513 0.098097 2.000000
-0.091241 0.010803 -0.099093 1.000000
-0.228846 -0.009015 0.099603 1.000000
0.214637 0.042423 -0.090298 1.000000
0.154726 -0.096765 -0.024074 1.000000
-0.452976 -0.098559 0.015386 3.000000
0.295485 0.088483 -0.046304 1.000000
-0.393250 -0.050570 0.086198 1.000000
0.391357 -0.077966 -0.062049 1.000000
-0.214669 -0.033349 0.094245 1.000000
0.343894 -0.049520 0.086819 1.000000
-0.397386 0.091499 0.040399 1.000000
-0.080245 0.095845 -0.028179 1.000000
0.339928 0.078109 0.062529 1.000000
-0.357987 0.078454 0.062084 1.000000
0.311515 0.090172 -0.042990 1.000000
-0.354398 0.046666 -0.088153 1.000000
0.285019 -0.074631 0.066369 1.000000
-0.219033 0.088598 -0.046079 1.000000
-0.415700 0.099217 0.012706 1.000000
-0.435253 0.003791 -0.099592 3.000000
-0.390455 0.022134 0.097563 1.000000
-0.289480 -0.081409 -0.057481 1.000000
0.192667 0.096683 -0.025293 1.000000
0.004433 0.008027 0.099718 1.000000
-0.011756 -0.099680 -0.002730 1.000000
-0.432843 -0.056685 0.082292 3.000000
-0.131640 0.079959 -0.059782 1.000000
0.432298 -0.014433 -0.098598 1.000000
-0.451683 -0.081872 -0.056800 3.000000
-0.157775 0.095648 0.029218 1.000000
-0.266187 0.084484 -0.053293 1.000000
0.177246 -0.098036 0.018685 1.000000
-0.436255 -0.080798 0.058743 3.000000
-0.057496 0.018898 -0.097924 1.000000
-0.359489 0.034810 -0.093441 1.000000
-0.442467 0.049570 0.086927 3.000000
0.032327 0.097003 0.024414 1.000000
0.309170 -0.090478 -0.041856 1.000000
-0.143827 -0.098098 0.018295 1.000000
-0.215997 0.091509 0.040377 1.000000
0.164563 0.069118 0.072374 1.000000
-0.009668 -0.079283 -0.060351 1.000000
0.199885 0.053561 0.084567 1.000000
-0.449156 0.082892 0.056005 3.000000
-0.243776 0.098523 0.017087 1.000000
0.414824 -0.016097 0.098697 2.000000
-0.335719 -0.007671 0.099730 1.000000
0.125756 0.096221 -0.026885 1.000000
-0.179599 0.035793 0.093450 1.000000
0.121568 0.049227 -0.086767 1.000000
-0.294804 0.090108 -0.043115 1.000000
0.335093 -0.041853 -0.090443 1.000000
0.012328 0.064854 0.076207 1.000000
-0.389807 0.002823 -0.099622 1.000000
0.086324 0.029127 0.095721 1.000000
-0.271422 0.073933 0.067425 1.000000
0.215443 -0.010851 -0.099066 1.000000
0.094927 -0.096939 -0.023294 1.000000
-0.103999 -0.019135 -0.097818 1.000000
0.209054 -0.080917 -0.058204 1.000000
0.389113 -0.013317 -0.098775 1.000000
0.136511 -0.036931 0.092936 1.000000
0.357817 0.076540 -0.064105 1.000000
-0.060679 -0.005170 0.099904 1.000000
-0.032009 0.010991 0.099438 1.000000
-0.120015 -0.078101 0.062239 1.000000
-0.427514 0.088355 0.046920 1.000000
0.197464 -0.065905 0.075075 1.000000
0.198118 0.060917 0.079374 1.000000
-0.049414 0.016214 0.098716 1.000000
0.431035 -0.089837 0.043552 2.000000
-0.261160 0.096647 0.025781 1.000000
-0.309313 0.037903 -0.092253 1.000000
-0.460775 -0.057402 -0.081442 3.000000
-0.201898 0.083991 -0.054025 1.000000
0.295454 0.088675 0.046290 1.000000
0.136976 0.025296 -0.096471 1.000000
0.036677 0.098155 0.019260 1.000000
-0.458433 0.028259 0.095973 3.000000
0.230010 0.011502 0.099390 1.000000
-0.390532 -0.033843 -0.093705 1.000000
-0.314311 -0.013135 -0.098804 1.000000
-0.170337 0.012844 -0.098887 1.000000
0.205857 0.010456 -0.099126 1.000000
-0.461514 0.061124 0.079213 3.000000
-0.209750 -0.057699 0.081603 1.000000
0.264973 0.071347 0.070145 1.000000
-0.451802 0.099139 -0.012836 3.000000
0.336469 0.025967 -0.096276 1.000000
-0.084830 -0.099494 0.007305 1.000000
0.084319 -0.005071 -0.099544 1.000000
0.067971 -0.027804 0.096037 1.000000
-0.224777 -0.061495 -0.078381 1.000000
0.405947 0.081193 -0.058142 1.000000
-0.238486 0.062468 -0.077808 1.000000
-0.110981 0.030524 0.095315 1.000000
0.246449 0.037181 0.092929 1.000000
-0.036820 0.070285 0.071208 1.000000
0.453386 -0.099531 -0.006556 2.000000
0.024262 -0.008199 -0.099317 1.000000
-0.024260 0.007746 -0.099382 1.000000
0.026368 0.034508 -0.093550 1.000000
-0.115315 0.090628 -0.042051 1.000000
-0.303089 0.029084 -0.095370 1.000000
-0.356824 -0.085495 0.051551 1.000000
0.022434 0.097104 -0.023600 1.000000
0.414414 0.009669 0.099563 1.000000
0.206097 0.091352 0.040739 1.000000
0.072080 -0.098896 0.013259 1.000000
0.203204 0.097788 0.020903 1.000000
0.328553 -0.017939 0.098405 1.000000
-0.076849 0.038511 -0.091991 1.000000
-0.025877 -0.029562 0.095526 1.000000
0.031227 -0.098233 -0.017080 1.000000
-0.209467 -0.027756 -0.095688 1.000000
-0.248928 -0.098309 -0.016603 1.000000
-0.367045 -0.097609 -0.020296 1.000000
-0.424910 -0.078102 0.062238 3.000000
0.425417 0.054766 0.083755 2.000000
-0.311592 0.097497 -0.021843 1.000000
-0.419256 -0.033549 -0.093811 1.000000
0.427111 0.016918 0.098604 2.000000
0.359503 0.099460 0.010134 1.000000
0.105308 -0.061944 0.078396 1.000000
-0.360867 0.099742 0.007150 1.000000
-0.071224 -0.076903 0.063783 1.000000
0.351817 0.097681 -0.021018 1.000000
-0.381411 -0.051123 -0.085508 1.000000
-0.464280 0.083397 -0.054899 3.000000
-0.137886 0.079998 -0.059731 1.000000
0.162809 0.094624 0.032416 1.000000
0.145335 0.098963 -0.013946 1.000000
-0.299153 -0.098508 -0.015345 1.000000
0.327860 -0.083438 -0.054495 1.000000
0.026719 0.013561 -0.098773 1.000000
0.111808 -0.007766 0.099721 1.000000
0.439923 -0.074542 0.066469 2.000000
-0.130091 -0.088945 0.045303 1.000000
0.352449 0.095798 0.028703 1.000000
-0.222482 0.066153 0.075062 1.000000
-0.444672 -0.090607 0.041923 3.000000
0.446121 -0.088616 -0.045586 2.000000
0.372177 0.090029 -0.043271 1.000000
-0.129244 -0.072636 -0.068260 1.000000
0.059497 0.074745 0.066504 1.000000
0.113161 -0.089210 0.044782 1.000000
-0.364617 0.004541 0.099931 1.000000
0.095137 0.008490 -0.099311 1.000000
0.198825 -0.065216 -0.075319 1.000000
0.223690 -0.069471 -0.071425 1.000000
0.030408 0.019820 -0.097717 1.000000
0.147041 0.017555 0.098503 1.000000
-0.415610 -0.047665 -0.087525 1.000000
0.438588 0.083669 0.054862 2.000000
-0.184027 -0.081128 -0.057894 1.000000
0.001118 -0.066733 0.074345 1.000000
0.382447 -0.044915 -0.088926 1.000000
0.106888 -0.033474 0.094201 1.000000
0.302201 -0.067462 0.073702 1.000000
0.062936 -0.095811 -0.027491 1.000000
0.105318 -0.099690 -0.002417 1.000000
0.394114 0.024332 0.097072 1.000000
-0.045330 0.099947 0.002044 1.000000
0.001661 0.091941 0.039379 1.000000
-0.008513 -0.084874 -0.052239 1.000000
0.103116 0.067558 0.073823 1.000000
-0.241165 -0.000587 -0.099685 1.000000
0.449144 0.097490 0.022236 2.000000
0.227712 0.039279 -0.091658 1.000000
-0.041308 -0.084780 -0.052398 1.000000
0.292046 0.081706 0.057749 1.000000
0.386436 -0.098247 0.017353 1.000000
0.358733 0.088603 -0.046070 1.000000
0.368494 -0.089332 -0.044181 1.000000
0.042554 0.071708 -0.069421 1.000000
-0.331066 -0.070009 -0.070887 1.000000
-0.233504 0.007614 -0.099394 1.000000
0.020209 0.036733 -0.092748 1.000000
0.031694 -0.099629 -0.004372 1.000000
0.166768 -0.048241 -0.087212 1.000000
-0.018653 -0.012686 0.099237 1.000000
0.461846 0.077608 0.063176 2.000000
0.110371 0.083372 0.055298 1.000000
-0.073582 -0.092170 -0.037948 1.000000
-0.326295 0.097296 -0.022740 1.000000
0.177297 -0.047681 -0.087517 1.000000
-0.294152 -0.023039 0.097309 1.000000
-0.030851 -0.097158 0.022677 1.000000
0.014084 -0.099200 -0.010059 1.000000
-0.126301 -0.035835 -0.092988 1.000000
-0.438381 0.080286 -0.059359 3.000000
0.287676 0.094587 -0.032158 1.000000
0.335449 -0.098237 0.017417 1.000000
-0.177714 -0.072705 -0.068190 1.000000
-0.039166 -0.097140 0.022756 1.000000
-0.448395 -0.053291 -0.084226 3.000000
-0.148856 -0.088671 -0.045478 1.000000
0.162442 0.053428 -0.084282 1.000000
-0.311237 0.047029 -0.087968 1.000000
-0.402640 0.042175 -0.090405 1.000000
0.106044 0.098516 -0.016768 1.000000
-0.133619 0.062525 -0.077764 1.000000
-0.130745 0.084133 0.054178 1.000000
0.258844 -0.086766 0.049402 1.000000
-0.180570 0.079266 -0.060675 1.000000
-0.147984 -0.096895 -0.023490 1.000000
-0.373410 -0.027599 0.096097 1.000000
0.004799 0.072080 -0.069049 1.000000
0.271298 0.090513 0.042678 1.000000
-0.043730 0.016480 -0.098311 1.000000
0.076581 0.096381 0.026695 1.000000
-0.222446 0.033048 -0.094075 1.000000
-0.200000 -0.082747 0.055875 1.000000
-0.174032 -0.051289 0.085772 1.000000
-0.058732 -0.055009 0.083431 1.000000
0.456827 -0.077815 0.062607 2.000000
0.165586 -0.093692 -0.033995 1.000000
-0.064821 -0.079208 0.060812 1.000000
-0.093179 0.022154 -0.097196 1.000000
0.222978 -0.017445 0.098484 1.000000
0.398335 -0.078133 -0.061834 1.000000
-0.039599 -0.086565 0.049743 1.000000
-0.137481 -0.091690 0.039419 1.000000
0.142665 0.055253 -0.083061 1.000000
-0.342764 -0.032547 -0.094172 1.000000
-0.259579 0.028196 -0.095628 1.000000
-0.036826 -0.016500 0.098633 1.000000
-0.243486 -0.099350 0.008833 1.000000
-0.340347 0.099695 0.007653 1.000000
-0.157951 0.084124 0.054192 1.000000
0.425804 -0.047228 -0.087747 1.000000
0.173229 -0.098970 0.012794 1.000000
-0.234911 -0.094800 0.031278 1.000000
-0.044004 0.003614 0.099960 1.000000
-0.296872 0.006545 -0.099495 1.000000
0.287873 -0.099244 0.009949 1.000000
-0.138723 -0.065828 -0.074780 1.000000
0.312968 0.051670 0.085685 1.000000
-0.004426 0.008026 -0.099355 1.000000
-0.218046 0.039063 -0.091751 1.000000
-0.340178 0.080179 -0.059498 1.000000
0.370909 0.080109 0.059951 1.000000
-0.298516 -0.086013 -0.050313 1.000000
-0.370702 -0.033262 -0.093914 1.000000
-0.190585 0.098276 -0.018281 1.000000
-0.269048 -0.037895 0.092518 1.000000
0.290190 0.097237 0.023370 1.000000
0.151184 -0.003946 0.099942 1.000000
0.316774 -0.075308 0.065600 1.000000
-0.398610 -0.091141 0.040689 1.000000
-0.229890 0.019881 -0.097704 1.000000
-0.235422 0.076561 -0.064082 1.000000
-0.118633 -0.028486 -0.095476 1.000000
-0.460362 -0.090812 -0.041085 3.000000
0.464451 -0.083048 -0.055069 2.000000
0.229741 0.099435 -0.010042 1.000000
0.220798 -0.098875 -0.013026 1.000000
0.429791 -0.018148 0.098372 2.000000
-0.056710 0.096154 0.027476 1.000000
0.309335 -0.098530 -0.015207 1.000000
0.157776 -0.059143 -0.080206 1.000000
0.158875 0.077116 0.063809 1.000000
-0.191495 -0.044018 -0.089383 1.000000
-0.194781 -0.090030 0.043174 1.000000
0.000516 0.084763 0.053184 1.000000
0.033592 0.099036 0.013845 1.000000
-0.423279 0.099960 0.001611 1.000000
0.420510 -0.092414 -0.037384 1.000000
-0.002714 0.015623 0.098809 1.000000
0.460663 0.082131 -0.056762 2.000000
-0.085380 0.025093 0.096893 1.000000
-0.178509 0.023853 -0.096816 1.000000
0.150939 -0.060656 -0.079032 1.000000
-0.236853 0.023287 0.097305 1.000000
0.146844 0.099883 0.004072 1.000000
-0.280567 -0.027095 -0.095880 1.000000
-0.372715 0.005331 -0.099543 1.000000
0.179252 -0.065146 0.075744 1.000000
0.107689 -0.068236 0.073020 1.000000
0.078007 0.097871 0.020531 1.000000
-0.166784 0.098255 0.018777 1.000000
-0.387406 -0.099175 0.010688 1.000000
-0.207602 -0.038345 -0.091961 1.000000
0.339421 -0.035711 -0.093032 1.000000
-0.368152 -0.084697 0.052902 1.000000
0.059476 0.010372 -0.099134 1.000000
0.084375 0.066226 0.074997 1.000000
0.204026 -0.099580 0.006300 1.000000
0.313041 -0.013969 0.099034 1.000000
0.273851 0.031378 0.095039 1.000000
0.217734 0.015689 -0.098436 1.000000
0.201950 0.015069 0.098897 1.000000
-0.042881 -0.082670 0.055988 1.000000
-0.444041 0.009959 -0.099173 3.000000
0.069886 0.071841 -0.069288 1.000000
-0.308230 -0.098901 -0.012862 1.000000
0.411127 -0.033049 -0.093991 1.000000
0.423323 0.079473 0.060770 2.000000
0.153785 0.056605 0.082505 1.000000
0.044916 0.042840 0.090465 1.000000
0.327625 -0.098388 -0.016102 1.000000
0.057940 -0.099689 -0.002462 1.000000
-0.229768 0.022019 0.097589 1.000000
-0.397955 0.037925 -0.092244 1.000000
0.154626 0.079699 0.060479 1.000000
0.247908 0.099149 -0.012774 1.000000
0.166461 -0.041922 -0.090413 1.000000
0.358891 -0.029916 0.095423 1.000000
-0.177028 0.010367 -0.099134 1.000000
0.128254 0.062233 -0.077991 1.000000
0.250914 0.067197 -0.073779 1.000000
-0.317488 -0.093180 -0.035417 1.000000
-0.372572 -0.020953 0.097775 1.000000
0.401617 -0.098059 0.018544 1.000000
-0.177514 -0.099732 -0.001085 1.000000
0.108965 0.098452 0.017538 1.000000
0.113133 0.096982 0.024511 1.000000
-0.101806 0.000854 -0.099684 1.000000
0.009066 0.084869 -0.052643 1.000000
-0.307110 -0.068364 0.072895 1.000000
-0.263205 -0.099446 -0.007452 1.000000
0.127379 -0.060975 -0.078785 1.000000
0.145618 0.057730 0.081740 1.000000
0.354734 0.092944 0.037061 1.000000
-0.081891 -0.076135 0.064662 1.000000
0.207207 -0.062142 -0.077880 1.000000
-0.306295 0.099241 -0.012091 1.000000
0.457925 0.090624 0.042423 2.000000
-0.020952 0.080563 0.059365 1.000000
0.256344 0.098372 -0.017679 1.000000
-0.447394 -0.095445 -0.028751 3.000000
-0.365553 -0.078601 0.061593 1.000000
-0.065352 -0.026547 0.096402 1.000000
0.257489 0.099088 0.013517 1.000000
-0.023816 0.008585 0.099665 1.000000
-0.238125 -0.042421 -0.090197 1.000000
-0.220063 0.095195 0.030778 1.000000
0.192689 -0.034614 -0.093427 1.000000
0.440414 -0.098109 0.018225 2.000000
-0.078503 -0.050438 -0.085913 1.000000
0.383340 -0.000462 -0.099689 1.000000
-0.201174 -0.049465 0.086851 1.000000
-0.357872 0.094737 -0.031741 1.000000
0.165183 0.063071 -0.077340 1.000000
0.303353 0.086507 0.050236 1.000000
0.313154 0.097509 0.022153 1.000000
-0.433901 0.030118 -0.095070 3.000000
0.247992 -0.020164 -0.097588 1.000000
-0.446575 0.054587 0.083876 3.000000
-0.112263 0.087574 -0.048068 1.000000
0.083147 0.009062 -0.099257 1.000000
0.404110 0.097507 0.022158 1.000000
-0.335293 -0.098732 0.014294 1.000000
0.201049 0.099957 0.001713 1.000000
0.370501 0.089390 0.044887 1.000000
0.293702 0.020345 -0.097600 1.000000
0.281801 -0.093599 -0.034253 1.000000
-0.409103 -0.085700 0.051206 1.000000
0.163461 0.075864 -0.064872 1.000000
0.040853 0.013067 0.099214 1.000000
-0.402332 -0.049691 -0.086354 1.000000
0.039914 -0.066058 0.074940 1.000000
0.449233 -0.070298 -0.070598 2.000000
-0.071606 0.077338 0.063523 1.000000
-0.219058 -0.022252 -0.097122 1.000000
-0.397590 -0.096363 -0.025592 1.000000
-0.375615 0.014539 0.098981 1.000000
0.306524 -0.048060 -0.087319 1.000000
0.335947 0.003478 0.099964 1.000000
0.307898 -0.060424 0.079575 1.000000
0.435830 -0.088127 0.046907 2.000000
0.158565 -0.019573 0.098083 1.000000
0.284984 -0.086163 0.050423 1.000000
-0.042405 0.099488 0.009845 1.000000
-0.328184 0.031372 0.095041 1.000000
-0.383412 0.030271 -0.095026 1.000000
0.326904 -0.089164 0.044874 1.000000
0.273469 -0.092771 -0.036553 1.000000
-0.327818 0.042949 -0.090047 1.000000
0.133394 -0.091233 0.040476 1.000000
-0.369573 0.057728 -0.081379 1.000000
-0.432641 -0.003227 -0.099602 3.000000
0.099835 0.067935 -0.073128 1.000000
-0.070001 -0.083385 -0.054573 1.000000
-0.071581 -0.093653 0.034466 1.000000
-0.282478 -0.070951 -0.069945 1.000000
-0.009811 -0.028802 0.095747 1.000000
-0.296491 -0.041480 0.090967 1.000000
-0.111307 -0.099698 0.002525 1.000000
-0.187105 0.099871 -0.004080 1.000000
0.234005 0.039638 0.091866 1.000000
0.242106 0.023675 -0.096856 1.000000
0.256977 -0.060402 -0.079230 1.000000
-0.372422 -0.098421 -0.015892 1.000000
-0.340867 0.098565 -0.016460 1.000000
-0.275253 0.018785 -0.097946 1.000000
0.073525 -0.048581 0.087374 1.000000
0.111078 0.095099 0.031096 1.000000
0.353067 0.055638 0.083162 1.000000
0.128542 -0.089323 0.044562 1.000000
-0.436934 -0.095471 0.029024 3.000000
0.356107 0.082503 -0.056214 1.000000
-0.345384 -0.029660 0.095498 1.000000
-0.010892 0.092685 0.037660 1.000000
-0.225637 0.060747 0.079506 1.000000
-0.426225 -0.030423 0.095276 1.000000
-0.044026 0.062082 -0.078107 1.000000
-0.397355 -0.044718 0.089389 1.000000
0.341215 0.011505 -0.099026 1.000000
0.272286 -0.065933 0.075050 1.000000
-0.054440 -0.070719 0.070540 1.000000
-0.185809 -0.098054 0.018574 1.000000
-0.253216 -0.067100 -0.073659 1.000000
0.126455 0.012714 0.099270 1.000000
-0.355144 0.075038 -0.065809 1.000000
0.071334 0.090975 0.041611 1.000000
-0.163195 -0.099309 -0.008907 1.000000
0.126199 -0.044192 0.089657 1.000000
-0.315004 -0.047924 0.087756 1.000000
-0.320694 -0.060952 0.079165 1.000000
0.058766 -0.060620 -0.079060 1.000000
0.129382 -0.066096 -0.074544 1.000000
-0.175936 0.018265 -0.098028 1.000000
-0.441120 0.038401 -0.092038 3.000000
0.309523 0.085937 0.051199 1.000000
-0.393390 -0.080106 -0.059291 1.000000
-0.330758 0.059757 -0.079911 1.000000
0.373229 0.015599 -0.098450 1.000000
0.224167 0.088447 -0.046376 1.000000
0.092212 -0.077009 -0.063283 1.000000
0.012396 0.076359 0.064673 1.000000
0.070605 0.099944 -0.001767 1.000000
0.136846 -0.097634 -0.020185 1.000000
-0.118330 0.087368 0.048779 1.000000
-0.239603 -0.023388 -0.096868 1.000000
-0.176660 -0.081150 -0.057862 1.000000
0.223161 -0.089800 -0.043263 1.000000
0.287240 -0.097823 0.019703 1.000000
-0.325373 0.073279 0.068167 1.000000
-0.094904 -0.099097 -0.011141 1.000000
-0.016412 0.073605 -0.067434 1.000000
-0.160365 0.027726 0.096128 1.000000
0.313648 -0.044250 -0.089265 1.000000
-0.076324 -0.091782 0.039207 1.000000
-0.386514 0.095216 0.030706 1.000000
0.018278 0.012381 0.099306 1.000000
-0.051121 0.060400 -0.079412 1.000000
-0.321201 -0.050200 0.086416 1.000000
-0.311141 -0.003717 0.099949 1.000000
0.317798 0.054356 0.084034 1.000000
-0.125103 0.020749 0.097872 1.000000
-0.381441 0.099928 -0.002274 1.000000
-0.340341 0.087472 0.048604 1.000000
-0.399131 -0.068427 0.072831 1.000000
0.012551 -0.033444 0.094211 1.000000
-0.054265 -0.080512 0.059130 1.000000
0.403346 -0.096575 0.025226 1.000000
-0.131684 0.090832 -0.041578 1.000000
-0.018948 -0.094907 0.030965 1.000000
0.386757 -0.070054 -0.070842 1.000000
0.147556 -0.031198 0.095020 1.000000
-0.344311 0.035328 -0.093254 1.000000
-0.048970 -0.003887 -0.099581 1.000000
0.420657 0.037322 -0.092505 1.000000
0.411890 -0.057172 -0.081598 1.000000
0.020475 0.054737 0.083775 1.000000
0.132200 -0.062205 0.078194 1.000000
0.165765 0.096114 0.027615 1.000000
-0.126616 -0.022713 -0.097019 1.000000
-0.180987 -0.074406 0.066624 1.000000
0.380498 -0.038475 0.092268 1.000000
-0.032906 0.093174 -0.036081 1.000000
-0.357232 0.083026 0.055807 1.000000
0.459359 -0.092504 0.037539 2.000000
0.235243 -0.077710 0.062743 1.000000
-0.061052 0.069358 -0.071771 1.000000
0.465179 -0.083280 0.055091 2.000000
-0.392330 0.031762 -0.094538 1.000000
-0.033991 -0.099190 0.010522 1.000000
0.322724 0.091919 0.039429 1.000000
-0.443324 -0.099771 0.000213 3.000000
0.081618 -0.096350 0.026001 1.000000
0.219906 -0.054994 -0.083078 1.000000
-0.141215 -0.006940 -0.099436 1.000000
-0.451076 0.041661 0.090990 3.000000
-0.071179 -0.068633 -0.072263 1.000000
-0.082079 0.017734 -0.098112 1.000000
-0.322146 0.099976 -0.000762 1.000000
0.344850 -0.076442 -0.063952 1.000000
0.362835 -0.096329 -0.025708 1.000000
-0.214260 -0.066943 -0.073797 1.000000
-0.264947 0.016580 -0.098295 1.000000
-0.288204 -0.070641 -0.070255 1.000000
0.033075 -0.090381 -0.042081 1.000000
-0.457478 0.099341 -0.011028 3.000000
0.130285 0.025820 0.096681 1.000000
0.458881 -0.095805 -0.027512 2.000000
-0.032226 -0.069829 0.071430 1.000000
0.122869 -0.096203 -0.026141 1.000000
0.328787 0.034058 0.094074 1.000000
-0.129613 0.099418 0.010584 1.000000
0.306425 -0.018813 -0.097890 1.000000
-0.185921 0.016127 0.098729 1.000000
0.439538 0.054896 0.083666 2.000000
0.455317 0.059741 -0.079924 2.000000
0.026520 -0.098975 -0.012394 1.000000
-0.400970 0.052674 -0.084728 1.000000
0.024671 -0.021507 -0.097288 1.000000
-0.357028 0.020033 -0.097670 1.000000
-0.012021 0.098691 -0.015665 1.000000
0.464705 -0.044727 0.089385 2.000000
-0.179239 0.099961 0.001574 1.000000
0.060840 0.092174 0.038840 1.000000
-0.418956 0.099809 0.006441 1.000000
-0.109635 0.099549 0.009195 1.000000
0.248028 -0.097835 0.019650 1.000000
0.038813 -0.098154 0.017940 1.000000
-0.211515 0.049624 0.086895 1.000000
-0.400743 0.013249 0.099185 1.000000
0.404250 -0.030498 0.095254 1.000000
0.455430 -0.016898 0.098570 2.000000
-0.068624 0.022693 0.097438 1.000000
0.078694 0.081697 -0.057401 1.000000
0.274475 0.091937 -0.039025 1.000000
-0.389994 0.098577 0.016745 1.000000
0.404102 0.093071 0.036730 1.000000
0.321134 0.045909 0.088901 1.000000
0.286516 0.088166 0.047290 1.000000
-0.438021 -0.025646 -0.096301 3.000000
0.045027 0.094259 0.033430 1.000000
-0.155449 0.001647 -0.099659 1.000000
-0.346677 -0.076306 -0.064106 1.000000
-0.283668 0.020681 -0.097525 1.000000
0.263276 0.013740 -0.098745 1.000000
-0.021255 0.063088 0.077690 1.000000
-0.398935 0.083774 0.054707 1.000000
0.448554 0.027226 0.096273 2.000000
0.349227 -0.017818 -0.098062 1.000000
0.149875 0.074876 0.066355 1.000000
0.183960 -0.002157 -0.099636 1.000000
0.338880 -0.087998 0.047161 1.000000
0.429905 0.096956 -0.024261 2.000000
-0.051098 0.099654 0.008079 1.000000
-0.055812 -0.020959 -0.097411 1.000000
0.269076 -0.035468 -0.093120 1.000000
-0.324721 0.061958 -0.078204 1.000000
-0.114876 -0.089941 0.043348 1.000000
-0.135853 0.028715 0.095840 1.000000
-0.431641 0.019286 -0.097837 3.000000
-0.308640 0.097407 0.022610 1.000000
0.290930 0.073334 -0.067741 1.000000
0.136954 -0.098816 0.013761 1.000000
-0.138321 0.005349 -0.099543 1.000000
0.023600 0.092162 -0.038504 1.000000
-0.158690 -0.005813 -0.099521 1.000000
0.355596 0.009468 0.099582 1.000000
-0.102753 -0.060169 0.079773 1.000000
0.415654 0.091104 0.041313 1.000000
-0.351525 0.012203 0.099323 1.000000
0.414406 0.007137 -0.099439 1.000000
0.135431 -0.082879 0.055681 1.000000
-0.327343 -0.047050 0.088201 1.000000
0.044181 -0.058569 -0.080649 1.000000
-0.074524 0.019211 0.098216 1.000000
0.303228 0.091093 -0.040977 1.000000
-0.353589 -0.099669 0.003461 1.000000
-0.358450 0.097083 0.024059 1.000000
-0.006471 0.099764 -0.006563 1.000000
-0.171434 -0.096536 0.025359 1.000000
0.447451 0.094034 -0.033693 2.000000
0.093853 0.086900 0.049570 1.000000
-0.247899 -0.040418 0.091427 1.000000
-0.292947 0.076603 -0.064034 1.000000
-0.284483 0.076991 0.063957 1.000000
0.367029 0.074825 0.066413 1.000000
0.323546 0.023168 0.097332 1.000000
0.363561 0.091434 0.040551 1.000000
-0.051700 -0.092080 -0.038155 1.000000
-0.165187 -0.090611 -0.041550 1.000000
-0.408218 0.051408 -0.085477 1.000000
-0.095239 -0.070873 0.070385 1.000000
0.095961 0.066653 0.074621 1.000000
0.179647 -0.059846 -0.079661 1.000000
0.330785 0.015726 -0.098430 1.000000
0.080953 -0.082684 -0.055605 1.000000
-0.453196 0.023095 0.097348 3.000000
-0.136484 -0.039468 0.091838 1.000000
0.437692 0.097135 0.023823 2.000000
0.238646 -0.034823 0.093715 1.000000
0.016527 0.050498 -0.086016 1.000000
-0.265592 -0.081831 -0.056860 1.000000
-0.313869 -0.002197 -0.099635 1.000000
0.346606 -0.037729 0.092590 1.000000
-0.297958 -0.099505 0.007195 1.000000
0.151838 -0.090063 0.043108 1.000000
-0.335447 -0.022647 -0.097034 1.000000
0.451449 -0.042496 -0.090158 2.000000
0.439692 -0.099027 0.012250 2.000000
-0.039116 0.020635 -0.097535 1.000000
-0.459177 0.091551 -0.039918 3.000000
-0.292363 -0.087387 -0.047989 1.000000
-0.019231 -0.073699 0.067426 1.000000
0.230657 0.004890 0.099920 1.000000
-0.126024 0.084977 -0.052460 1.000000
0.444183 -0.098291 -0.016714 2.000000
-0.272444 -0.068509 0.072749 1.000000
-0.230875 -0.042914 0.090308 1.000000
0.082669 0.091344 -0.040394 1.000000
0.153887 0.042844 -0.090100 1.000000
-0.451702 -0.063289 0.077353 3.000000
0.254198 -0.044296 0.089604 1.000000
0.183892 -0.036236 0.093206 1.000000
0.356334 -0.093530 -0.034444 1.000000
0.261316 -0.096034 -0.026724 1.000000
0.192147 -0.099614 -0.004847 1.000000
-0.076508 0.063510 -0.077000 1.000000
-0.013615 0.039404 0.091967 1.000000
-0.323588 0.020230 0.097989 1.000000
0.341000 0.062673 -0.077649 1.000000
-0.397131 0.021022 -0.097449 1.000000
-0.414848 0.091626 0.040108 1.000000
0.127794 -0.032039 -0.094354 1.000000
0.117819 0.038564 -0.091968 1.000000
-0.290869 0.062881 0.077850 1.000000
0.085835 -0.074110 -0.066596 1.000000
0.093753 0.009099 0.099617 1.000000
-0.413589 -0.064110 0.076658 1.000000
-0.170250 0.088297 -0.046671 1.000000
-0.448941 0.078608 -0.061523 3.000000
0.286434 -0.006096 -0.099512 1.000000
-0.309748 0.085228 0.052398 1.000000
0.130070 -0.095942 0.027403 1.000000
-0.194352 -0.029772 0.095465 1.000000
0.363696 0.094218 -0.033181 1.000000
0.237322 -0.087578 -0.047622 1.000000
0.030467 0.098364 -0.017729 1.000000
-0.219325 -0.054255 0.083943 1.000000
-0.311391 -0.041427 -0.090628 1.000000
0.370574 -0.096740 -0.024186 1.000000
-0.072755 0.074459 -0.066466 1.000000
-0.030292 -0.062171 -0.077858 1.000000
-0.452203 -0.035813 0.093358 3.000000
-0.451699 0.012037 0.099339 3.000000
-0.163688 0.021383 0.097731 1.000000
-0.336323 0.063736 0.077187 1.000000
0.153054 0.056665 -0.082101 1.000000
-0.325236 0.037450 0.092812 1.000000
0.046029 -0.000863 -0.099676 1.000000
0.168788 0.027610 -0.095799 1.000000
-0.346874 0.060176 0.079948 1.000000
-0.109343 -0.082883 0.055675 1.000000
-0.088829 0.091422 -0.040215 1.000000
-0.207146 -0.078988 -0.060732 1.000000
-0.408926 -0.041372 -0.090651 1.000000
-0.427094 -0.023110 0.097293 1.000000
0.432438 0.045624 -0.088683 1.000000
0.041371 -0.094274 -0.032379 1.000000
0.222453 0.093621 -0.034840 1.000000
0.282037 0.030947 -0.094829 1.000000
0.244353 -0.028053 -0.095602 1.000000
0.355546 0.002218 0.100004 1.000000
-0.188522 0.084695 -0.052936 1.000000
-0.043539 0.098645 0.016317 1.000000
-0.089319 -0.030316 -0.094945 1.000000
0.081612 -0.069927 -0.070969 1.000000
-0.285821 -0.040896 -0.090857 1.000000
0.039669 0.008439 -0.099316 1.000000
-0.362630 -0.009002 -0.099241 1.000000
0.411096 -0.071876 0.069383 2.000000
-0.344503 0.097191 -0.023213 1.000000
0.037544 0.093246 0.036244 1.000000
0.392627 0.048630 0.087483 1.000000
-0.320868 0.095300 0.030415 1.000000
-0.201797 0.067543 0.073837 1.000000
0.248125 -0.080676 0.058918 1.000000
0.236499 -0.026364 -0.096093 1.000000
-0.121406 -0.099632 0.004622 1.000000
0.155194 -0.011847 -0.098972 1.000000
-0.222519 -0.098863 0.013467 1.000000
-0.261195 0.089704 -0.043908 1.000000
-0.455102 0.046321 0.088691 3.000000
-0.153642 -0.095862 -0.027317 1.000000
0.085117 0.079964 -0.059775 1.000000
0.321255 -0.087722 0.047704 1.000000
-0.431952 -0.069461 -0.071435 3.000000
-0.339224 -0.074465 -0.066194 1.000000
0.336395 0.068953 0.072540 1.000000
-0.409673 -0.098307 -0.016611 1.000000
0.400112 0.075324 -0.065485 1.000000
-0.255693 0.045798 -0.088595 1.000000
0.166159 -0.020876 0.097792 1.000000
0.440591 -0.008845 0.099619 2.000000
0.219821 0.082487 0.056601 1.000000
-0.466764 0.034941 -0.093394 3.000000
-0.062463 -0.092574 0.037376 1.000000
0.129839 -0.038755 -0.091784 1.000000
0.173891 -0.080331 -0.059001 1.000000
-0.103012 -0.092646 0.037210 1.000000
-0.176820 0.003429 -0.099603 1.000000
-0.133819 0.021049 -0.097443 1.000000
0.366140 0.043168 -0.089935 1.000000
0.221877 0.078642 0.061843 1.000000
0.079837 -0.017551 0.098467 1.000000
0.313831 0.063154 -0.077276 1.000000
0.384047 -0.072812 0.068432 1.000000
-0.172035 -0.099027 -0.011885 1.000000
0.068492 -0.097671 -0.020018 1.000000
-0.210240 0.004482 -0.099570 1.000000
-0.434603 0.048429 0.087602 1.000000
-0.014416 0.090830 -0.041584 1.000000
0.252420 -0.050514 0.086231 1.000000
-0.411713 0.091248 -0.040617 1.000000
-0.358490 -0.026035 -0.096188 1.000000
-0.209773 -0.098367 -0.016234 1.000000
0.006631 -0.003824 0.099946 1.000000
0.072549 0.097193 -0.023200 1.000000
0.434958 0.047886 0.087894 2.000000
0.390490 0.087250 -0.048616 1.000000
0.038580 0.099587 0.008797 1.000000
0.372084 0.023686 0.097216 1.000000
0.193896 -0.050878 0.086015 1.000000
0.131710 0.085705 0.051591 1.000000
-0.369043 -0.045507 -0.088625 1.000000
0.219741 0.055864 -0.082646 1.000000
-0.234509 -0.064817 -0.075672 1.000000
0.432240 -0.095595 0.028599 2.000000
-0.323431 0.090728 -0.041819 1.000000
0.300548 -0.085333 0.051826 1.000000
0.234819 0.099863 0.004706 1.000000
0.267058 0.099934 0.002443 1.000000
-0.410370 -0.096742 0.024540 1.000000
-0.341931 0.099110 0.013382 1.000000
-0.081032 0.046452 0.088625 1.000000
0.306186 -0.074974 0.065979 1.000000
-0.105176 -0.082510 -0.055861 1.000000
-0.000954 0.020940 -0.097467 1.000000
0.365635 -0.082781 0.055825 1.000000
0.011617 -0.098733 0.014288 1.000000
0.238728 -0.028567 0.095815 1.000000
0.429781 0.099703 0.007562 1.000000
0.316877 0.048861 -0.086984 1.000000
0.411585 -0.095476 -0.028643 1.000000
-0.392768 -0.068333 0.072925 1.000000
0.420207 0.099821 -0.005684 1.000000
-0.453185 0.058479 0.081232 3.000000
0.048365 0.089274 0.045114 1.000000
0.288138 0.072163 0.069329 1.000000
0.177633 -0.099640 0.004370 1.000000
0.196063 -0.088745 0.045695 1.000000
0.185529 0.088728 -0.045823 1.000000
-0.311059 -0.063675 0.077040 1.000000
0.356362 -0.062349 -0.077719 1.000000
0.164815 -0.036205 -0.092855 1.000000
-0.120831 0.096956 0.024627 1.000000
0.076394 0.090673 -0.041945 1.000000
-0.241896 -0.081548 -0.057277 1.000000
-0.210307 0.098471 -0.017053 1.000000
0.213213 -0.054182 0.083993 1.000000
0.219918 -0.088143 0.046878 1.000000
0.141740 -0.030257 0.095325 1.000000
0.357846 0.043238 -0.089899 1.000000
-0.422975 -0.081931 -0.056713 1.000000
-0.400401 0.097104 -0.023600 1.000000
0.345769 0.051571 0.085744 1.000000
-0.185596 -0.099634 -0.004197 1.000000
-0.402840 -0.027311 -0.095818 1.000000
0.235409 -0.082037 -0.056557 1.000000
-0.316783 -0.050404 -0.085933 1.000000
-0.059330 -0.053445 -0.084131 1.000000
0.019969 0.061123 0.079214 1.000000
0.460662 -0.070115 -0.070781 2.000000
-0.290168 0.059067 -0.080446 1.000000
-0.254276 -0.087710 -0.047364 1.000000
0.137328 0.018843 -0.097936 1.000000
-0.176629 0.099264 -0.011849 1.000000
-0.048030 -0.086184 -0.050024 1.000000
-0.052332 0.030093 -0.095077 1.000000
-0.322091 -0.088865 -0.045097 1.000000
0.349254 -0.065419 -0.075141 1.000000
0.251167 -0.075545 0.065332 1.000000
-0.310725 0.085984 -0.050757 1.000000
-0.294537 0.004215 0.099941 1.000000
-0.410935 0.067595 0.073791 1.000000
0.419928 0.022641 -0.097087 1.000000
-0.347898 0.080616 -0.058934 1.000000
0.038163 -0.081227 -0.057749 1.000000
0.047519 0.019471 -0.097796 1.000000
0.321806 0.089267 0.045128 1.000000
0.303555 -0.099764 -0.000057 1.000000
0.179039 -0.019506 0.098098 1.000000
-0.147216 0.003727 -0.099594 1.000000
-0.281625 0.089854 0.043976 1.000000
-0.130604 0.032258 0.094722 1.000000
0.153396 0.099859 0.004821 1.000000
0.459504 -0.064054 -0.076344 2.000000
0.103351 0.098976 0.014223 1.000000
0.458461 0.014838 -0.098571 2.000000
0.271261 0.062839 -0.077520 1.000000
-0.186191 -0.060410 0.079586 1.000000
-0.182305 0.083272 -0.055083 1.000000
-0.258542 -0.053242 -0.084254 1.000000
-0.057187 0.082815 -0.055755 1.000000
-0.355253 -0.045843 -0.088453 1.000000
0.366484 0.086690 0.049926 1.000000
0.125601 -0.080348 -0.058979 1.000000
-0.390299 0.037220 -0.092549 1.000000
-0.321640 0.096357 -0.026416 1.000000
-0.231323 -0.096477 0.025563 1.000000
-0.133337 -0.023917 -0.096750 1.000000
-0.121405 0.091838 0.039616 1.000000
-0.174992 -0.062744 -0.077413 1.000000
-0.089225 -0.018145 -0.098010 1.000000
0.335738 -0.003744 -0.099586 1.000000
-0.222294 0.051062 -0.085682 1.000000
0.095663 -0.098681 0.014613 1.000000
-0.400097 0.081916 -0.057078 1.000000
0.393149 0.091611 -0.039779 1.000000
-0.453193 -0.008747 0.099628 3.000000
0.066847 0.066459 0.074792 1.000000
-0.273319 -0.098119 0.018165 1.000000
0.396561 -0.058129 0.081311 1.000000
-0.067051 0.076298 -0.064380 1.000000
-0.020121 -0.089683 0.043855 1.000000
-0.270188 0.007703 0.099749 1.000000
0.230352 0.010026 -0.099166 1.000000
-0.008756 0.089368 -0.044567 1.000000
0.246872 0.007312 0.099786 1.000000
0.369986 -0.063669 -0.076684 1.000000
0.266070 0.096920 0.024788 1.000000
-0.265708 0.069165 -0.071965 1.000000
0.120634 -0.014098 -0.098651 1.000000
-0.365584 -0.014906 -0.098523 1.000000
-0.214881 -0.073870 0.067232 1.000000
0.360218 0.071940 0.069553 1.000000
0.249551 -0.099078 0.011707 1.000000
-0.092290 0.096605 0.025926 1.000000
-0.323670 0.085012 0.052763 1.000000
0.391478 -0.099393 -0.008013 1.000000
-0.414895 -0.049337 0.086926 1.000000
0.164598 0.070579 -0.070550 1.000000
-0.455353 -0.029403 0.095573 3.000000
-0.014763 -0.079908 0.059909 1.000000
-0.420994 -0.042569 0.090484 1.000000
0.169054 -0.057990 -0.081042 1.000000
0.052670 0.048087 -0.087429 1.000000
-0.339447 -0.097996 -0.018567 1.000000
0.301613 0.099887 -0.003582 1.000000
-0.315472 -0.097238 0.022319 1.000000
0.403327 0.051323 -0.085527 1.000000
-0.341604 -0.093469 -0.034614 1.000000
-0.117876 0.036894 0.093053 1.000000
0.038420 0.049186 -0.086791 1.000000
-0.232702 0.088929 -0.045429 1.000000
0.153682 0.049906 0.086728 1.000000
-0.143395 0.099499 0.009729 1.000000
0.171804 0.099895 0.003680 1.000000
0.120551 -0.031065 -0.094705 1.000000
-0.200666 -0.094301 -0.032303 1.000000
0.004057 -0.042063 0.090715 1.000000
-0.164920 -0.065079 -0.075440 1.000000
0.031247 -0.082885 -0.055309 1.000000
-0.036355 -0.015059 -0.098499 1.000000
-0.252771 -0.072821 -0.068059 1.000000
0.061578 0.007494 0.099768 1.000000
-0.140001 -0.072182 0.069077 1.000000
0.434715 0.022759 0.097423 2.000000
-0.314915 -0.098792 0.013914 1.000000
-0.282796 0.025717 0.096711 1.000000
0.402035 -0.089439 -0.043969 1.000000
-0.311701 0.075397 -0.065402 1.000000
0.391252 0.094468 0.032848 1.000000
0.112730 0.079756 0.060406 1.000000
-0.011077 -0.096652 -0.024577 1.000000
0.148598 -0.070554 -0.070342 1.000000
0.003214 0.058614 0.081139 1.000000
-0.364838 -0.098269 0.017216 1.000000
-0.419697 0.096697 0.025607 1.000000
0.173127 -0.058135 0.081306 1.000000
0.417527 -0.033382 -0.093871 1.000000
-0.053815 0.010383 -0.099133 1.000000
-0.159107 0.098965 -0.013930 1.000000
-0.291179 0.093592 -0.034921 1.000000
-0.009891 0.057996 -0.081197 1.000000
0.342047 -0.071980 0.069279 1.000000
0.003517 -0.086781 0.049378 1.000000
-0.263538 0.045822 -0.088583 1.000000
-0.339242 -0.099388 0.008434 1.000000
-0.012788 0.031114 0.095134 1.000000
-0.096704 0.050784 0.086209 1.000000
0.092765 0.001853 -0.099653 1.000000
0.179444 -0.026928 0.096292 1.000000
0.046925 -0.090316 0.042595 1.000000
-0.349882 0.071007 -0.070123 1.000000
0.251626 -0.096417 0.025769 1.000000
-0.098083 -0.099035 0.012163 1.000000
0.347964 0.027237 -0.095907 1.000000
-0.383825 0.083378 -0.054927 1.000000
-0.073099 -0.098193 -0.017334 1.000000
-0.201384 0.082720 0.056258 1.000000
0.239922 -0.056753 -0.081883 1.000000
0.196239 0.014599 -0.098609 1.000000
-0.404460 -0.015934 0.098723 1.000000
0.335287 0.099727 0.007314 1.000000
-0.093268 0.088836 -0.045612 1.000000
-0.451193 -0.050158 0.086441 3.000000
0.442788 0.089281 -0.044738 2.000000
0.149608 0.028051 -0.095671 1.000000
-0.218735 0.099884 -0.003681 1.000000
-0.091019 -0.061057 0.079084 1.000000
-0.384279 -0.027223 0.096206 1.000000
-0.437909 -0.032175 -0.094306 3.000000
-0.345387 -0.006785 -0.099451 1.000000
-0.020499 -0.099218 -0.009865 1.000000
-0.185281 0.091584 -0.039841 1.000000
-0.143304 0.057190 -0.081744 1.000000
0.317411 -0.097583 -0.020412 1.000000
-0.271988 -0.096221 0.026442 1.000000
0.211660 -0.026684 -0.096000 1.000000
0.115403 -0.092013 0.038674 1.000000
-0.313326 0.026558 -0.096104 1.000000
0.447479 0.061543 0.078889 2.000000
0.464799 -0.054577 0.083725 2.000000
0.105646 -0.016429 -0.098282 1.000000
-0.186496 -0.014771 -0.098545 1.000000
-0.060690 -0.037332 0.092762 1.000000
0.321439 0.062557 -0.077739 1.000000
-0.016598 0.039570 -0.091532 1.000000
0.015570 -0.075995 -0.064459 1.000000
-0.412452 -0.092434 -0.037337 1.000000
0.457709 0.053579 -0.084193 2.000000
-0.171586 0.077097 0.063833 1.000000
0.192107 -0.090841 -0.041017 1.000000
0.161672 0.099107 0.013396 1.000000
-0.219154 0.045436 -0.088780 1.000000
0.254235 -0.002167 0.099998 1.000000
0.143595 -0.058754 -0.080508 1.000000
0.351418 0.041613 -0.090648 1.000000
-0.303509 -0.093119 0.035947 1.000000
0.448686 -0.054197 -0.083620 2.000000
0.464737 0.097838 0.020677 2.000000
0.209921 0.078139 -0.062128 1.000000
-0.372144 -0.063214 0.077411 1.000000
-0.265940 -0.024428 0.096998 1.000000
0.353729 -0.077824 0.062595 1.000000
0.257148 0.007770 -0.099379 1.000000
0.424441 -0.087002 0.049003 2.000000
0.360699 0.056741 -0.082049 1.000000
-0.145073 0.089965 -0.043396 1.000000
0.018711 0.087232 -0.048647 1.000000
-0.129353 -0.061122 0.079034 1.000000
-0.018170 -0.092094 -0.038124 1.000000
0.108561 0.088300 -0.046665 1.000000
0.304993 -0.081991 -0.056624 1.000000
-0.154301 -0.051287 -0.085411 1.000000
-0.372908 -0.098893 0.013274 1.000000
0.054867 0.005464 -0.099539 1.000000
-0.436206 0.099166 0.013025 1.000000
0.283658 0.068310 0.073160 1.000000
0.173388 -0.027893 -0.095649 1.000000
0.021176 -0.063975 0.076777 1.000000
-0.060141 -0.094657 -0.031313 1.000000
0.346183 0.021547 -0.097331 1.000000
-0.143340 -0.049512 -0.086461 1.000000
0.452476 0.015403 0.098844 2.000000
0.318982 -0.082616 -0.055705 1.000000
0.343329 -0.099677 0.003207 1.000000
-0.037821 0.054681 0.083812 1.000000
0.224795 0.098870 -0.014535 1.000000
-0.136329 0.097219 0.023450 1.000000
-0.239371 -0.088613 -0.045592 1.000000
0.055377 0.069124 0.072368 1.000000
0.426407 0.093467 0.035630 1.000000
-0.177573 0.096087 0.027708 1.000000
0.031366 0.084689 -0.052947 1.000000
-0.369751 0.047031 0.088329 1.000000
0.417558 -0.026870 0.096308 2.000000
0.354550 0.099972 -0.000868 1.000000
0.405818 0.045533 0.089093 1.000000
0.035262 -0.034395 -0.093506 1.000000
-0.365548 0.099402 0.010746 1.000000
0.261890 0.081819 -0.057221 1.000000
-0.334918 0.093505 0.035526 1.000000
0.175361 0.013483 0.099148 1.000000
-0.134270 -0.064276 0.076511 1.000000
-0.068263 0.099895 0.003676 1.000000
0.161634 -0.095395 0.029285 1.000000
-0.025700 0.065271 -0.075477 1.000000
-0.138389 -0.051747 0.085502 1.000000
-0.420544 0.077948 0.062737 1.000000
-0.277274 0.093405 -0.035439 1.000000
-0.348058 -0.082615 0.056069 1.000000
0.171867 -0.097616 -0.020264 1.000000
-0.003542 -0.096443 -0.025316 1.000000
-0.155236 0.040631 -0.091073 1.000000
-0.356299 -0.008047 -0.099331 1.000000
-0.365710 0.052220 -0.084997 1.000000
-0.171200 0.093100 -0.036288 1.000000
-0.396161 0.084430 -0.053378 1.000000
0.338688 -0.067986 -0.072878 1.000000
-0.119239 -0.066436 0.074607 1.000000
0.045521 0.000498 0.100058 1.000000
-0.219434 0.003233 0.099972 1.000000
0.373173 -0.099056 0.011943 1.000000
-0.190695 0.024018 -0.096779 1.000000
0.030019 -0.094407 0.032371 1.000000
0.435213 -0.032578 -0.094160 1.000000
0.288320 0.017867 -0.098091 1.000000
-0.361496 0.091664 -0.039656 1.000000
-0.341291 -0.098355 0.016672 1.000000
0.180670 0.048775 -0.087035 1.000000
0.166923 -0.030571 -0.094871 1.000000
0.059110 -0.081644 0.057498 1.000000
-0.159231 0.097429 -0.022146 1.000000
-0.164886 -0.067563 0.073613 1.000000
-0.107631 -0.076245 0.064537 1.000000
0.233157 -0.066292 0.074734 1.000000
0.181891 -0.026438 -0.096071 1.000000
0.347296 -0.078477 0.061753 1.000000
0.065444 -0.099770 0.000105 1.000000
0.284650 0.080690 -0.058839 1.000000
0.000381 0.038329 -0.092069 1.000000
0.247773 0.093572 -0.034975 1.000000
0.226540 0.026046 0.096616 1.000000
-0.048748 0.005440 -0.099540 1.000000
0.252645 -0.074340 -0.066336 1.000000
0.271932 -0.062422 -0.077663 1.000000
0.288800 0.098899 0.014713 1.000000
-0.236101 -0.067105 0.074016 1.000000
0.423741 0.093446 -0.035325 1.000000
-0.234618 -0.078056 0.062296 1.000000
-0.356751 -0.095503 -0.028553 1.000000
-0.243561 0.088359 -0.046549 1.000000
-0.168193 -0.083428 0.054872 1.000000
-0.298378 -0.099738 -0.000896 1.000000
-0.343414 -0.022512 -0.097064 1.000000
0.139275 -0.099275 -0.009267 1.000000
-0.304201 0.034783 -0.093451 1.000000
0.121967 -0.091608 0.039609 1.000000
0.460979 0.095579 -0.029094 2.000000
-0.250869 -0.092541 -0.037089 1.000000
-0.016674 0.091863 0.039558 1.000000
0.373503 -0.043090 0.090219 1.000000
-0.152381 -0.093540 0.034778 1.000000
-0.305668 0.032132 0.094768 1.000000
-0.464385 0.094550 -0.032260 3.000000
0.276376 0.045641 0.089038 1.000000
0.378059 -0.097134 -0.022420 1.000000
-0.285446 -0.016662 -0.098245 1.000000
-0.255550 -0.099650 -0.003699 1.000000
0.195130 0.099985 -0.000455 1.000000
-0.070893 0.091278 -0.040547 1.000000
-0.102689 0.058954 -0.080534 1.000000
0.213628 -0.077983 0.062390 1.000000
0.442624 -0.078502 0.061721 2.000000
0.197107 0.083508 0.055098 1.000000
0.465208 0.030945 -0.094829 2.000000
-0.324098 0.015099 -0.098529 1.000000
0.358947 -0.099463 -0.007270 1.000000
-0.157595 0.015156 -0.098520 1.000000
0.252644 0.037507 -0.092425 1.000000
-0.309194 0.099466 0.010072 1.000000
-0.215420 -0.099647 -0.003782 1.000000
0.025986 -0.099707 -0.001881 1.000000
-0.211946 0.080070 0.060001 1.000000
-0.049104 0.052516 -0.084822 1.000000
-0.153912 -0.040804 0.091260 1.000000
0.381479 -0.012867 -0.098846 1.000000
-0.317421 0.098039 0.019780 1.000000
-0.278042 -0.066527 0.074527 1.000000
0.150711 0.099349 0.011307 1.000000
0.383628 0.099124 0.013289 1.000000
0.192515 0.091434 -0.040187 1.000000
-0.218400 -0.081098 -0.057939 1.000000
0.003938 -0.022569 0.097414 1.000000
-0.378783 -0.061983 0.078366 1.000000
-0.448857 -0.040488 0.091397 3.000000
-0.189670 -0.082555 0.056157 1.000000
