0.465339 -0.036970 0.008220 2.000000
0.465339 0.083899 0.025918 2.000000
0.465339 0.063253 0.031842 2.000000
0.465339 -0.003612 -0.039310 2.000000
0.465339 0.005948 -0.002260 2.000000
0.465339 -0.037621 0.034791 2.000000
0.465339 -0.093806 0.019798 2.000000
0.465339 0.027834 0.040628 2.000000
0.465339 -0.054992 -0.011460 2.000000
0.465339 -0.035261 0.029031 2.000000
0.465339 -0.059084 -0.051767 2.000000
0.465339 0.062833 0.062664 2.000000
0.465339 0.020693 0.057527 2.000000
0.465339 0.077063 -0.014040 2.000000
0.465339 -0.047105 -0.000850 2.000000
0.465339 0.075455 -0.048119 2.000000
0.465339 0.048716 -0.038280 2.000000
0.465339 0.052599 0.043674 2.000000
0.465339 0.038253 0.064336 2.000000
0.465339 -0.001985 -0.017397 2.000000
0.465339 -0.052401 0.017364 2.000000
0.465339 -0.013709 -0.004392 2.000000
0.465339 0.056267 -0.042476 2.000000
0.465339 -0.091246 -0.016421 2.000000
0.465339 -0.018506 -0.036732 2.000000
0.465339 -0.079657 0.016795 2.000000
0.465339 -0.063009 -0.010379 2.000000
0.465339 -0.026011 -0.051716 2.000000
0.465339 0.054158 0.042201 2.000000
0.465339 0.051635 -0.037402 2.000000
0.465339 -0.050957 -0.078737 2.000000
0.465339 0.068497 0.003925 2.000000
0.465339 0.065074 0.009585 2.000000
0.465339 -0.050868 -0.027079 2.000000
0.465339 0.025263 0.075913 2.000000
0.465339 0.041368 0.005315 2.000000
0.465339 -0.067284 0.027957 2.000000
0.465339 0.013342 0.016422 2.000000
0.465339 0.050471 0.031575 2.000000
0.465339 0.068479 -0.018338 2.000000
0.465339 0.038927 0.037805 2.000000
0.465339 -0.010931 0.072938 2.000000
0.465339 0.031825 -0.073867 2.000000
0.465339 0.036076 0.052567 2.000000
0.465339 0.013924 0.058033 2.000000
0.465339 0.015688 0.000358 2.000000
0.465339 -0.062052 0.010820 2.000000
0.465339 -0.076825 0.040641 2.000000
0.465339 0.076392 0.029918 2.000000
0.465339 -0.031676 -0.061267 2.000000
0.465339 -0.066894 -0.038253 2.000000
0.465339 0.078389 -0.030542 2.000000
0.465339 -0.032427 -0.071607 2.000000
0.465339 -0.058804 0.008641 2.000000
0.465339 -0.045780 0.088341 2.000000
0.465339 -0.081698 -0.026080 2.000000
0.465339 -0.008631 0.099463 2.000000
0.465339 0.043544 0.051501 2.000000
0.465339 -0.098591 0.014575 2.000000
0.465339 0.033281 0.016070 2.000000
0.465339 -0.034233 -0.085969 2.000000
0.465339 -0.062915 -0.044032 2.000000
0.465339 0.066095 -0.070989 2.000000
0.465339 0.071250 0.003661 2.000000
0.465339 0.095290 -0.013562 2.000000
0.465339 -0.000366 0.056617 2.000000
0.465339 -0.070088 0.002527 2.000000
0.465339 -0.013058 0.033761 2.000000
0.465339 -0.053043 0.023830 2.000000
0.465339 0.009057 0.032680 2.000000
0.465339 0.087013 0.008143 2.000000
0.465339 -0.003803 0.049174 2.000000
0.465339 0.049330 0.049599 2.000000
0.465339 -0.053586 -0.051311 2.000000
0.465339 -0.081662 -0.055725 2.000000
0.465339 -0.077387 0.046652 2.000000
0.465339 -0.012170 -0.085200 2.000000
0.465339 -0.093948 -0.010430 2.000000
0.465339 -0.071445 -0.025355 2.000000
0.465339 0.054999 -0.049632 2.000000
0.465339 -0.048188 0.061133 2.000000
0.465339 -0.017817 -0.078737 2.000000
0.465339 0.001444 0.064115 2.000000
0.465339 -0.011592 0.086763 2.000000
0.465339 -0.017342 0.040684 2.000000
0.465339 0.077483 0.046671 2.000000
0.465339 -0.055927 -0.017190 2.000000
0.465339 0.034210 -0.081195 2.000000
0.465339 -0.009155 0.003708 2.000000
0.465339 -0.040467 -0.051050 2.000000
0.465339 -0.051080 -0.083252 2.000000
0.465339 0.037423 0.038916 2.000000
0.465339 0.048165 0.064410 2.000000
0.465339 0.087298 -0.014030 2.000000
0.465339 0.032093 0.080735 2.000000
0.465339 -0.027739 0.022994 2.000000
0.465339 -0.002059 -0.083158 2.000000
0.465339 -0.038176 -0.060473 2.000000
0.465339 0.003861 -0.047207 2.000000
0.465339 0.021205 -0.059279 2.000000
0.465339 0.025923 -0.085029 2.000000
0.465339 -0.053259 0.012906 2.000000
0.465339 0.040187 0.060828 2.000000
0.465339 -0.092881 -0.015506 2.000000
0.465339 -0.015938 0.068009 2.000000
0.465339 -0.013223 0.014577 2.000000
0.465339 0.039266 -0.062629 2.000000
0.465339 -0.073416 0.035453 2.000000
0.465339 -0.060004 -0.043283 2.000000
0.465339 -0.016583 0.007714 2.000000
0.465339 0.072155 -0.016933 2.000000
0.465339 -0.050569 0.019816 2.000000
0.465339 -0.046191 0.033005 2.000000
0.465339 -0.029642 -0.032442 2.000000
0.465339 -0.045132 -0.083365 2.000000
0.465339 -0.006150 0.081620 2.000000
0.465339 0.032289 -0.026321 2.000000
0.465339 -0.084059 -0.040629 2.000000
0.465339 0.024260 -0.015625 2.000000
0.465339 0.087938 0.043562 2.000000
0.465339 -0.078051 -0.030873 2.000000
0.465339 -0.046736 0.066630 2.000000
0.465339 -0.055703 0.055251 2.000000
0.465339 0.010311 0.011180 2.000000
0.465339 -0.012847 0.044545 2.000000
0.465339 -0.018547 -0.072455 2.000000
0.465339 0.035599 0.000395 2.000000
0.465339 -0.041893 -0.045802 2.000000
0.465339 0.075369 0.017466 2.000000
0.465339 -0.067642 0.056403 2.000000
0.465339 0.096443 0.016898 2.000000
0.465339 0.028683 -0.030321 2.000000
0.465339 -0.058553 0.069446 2.000000
0.465339 0.065045 -0.040847 2.000000
0.465339 -0.080206 0.036815 2.000000
0.465339 -0.072584 0.018350 2.000000
0.465339 0.072987 -0.029706 2.000000
0.465339 -0.040635 0.073896 2.000000
0.465339 0.096700 0.004509 2.000000
0.465339 0.044206 -0.001334 2.000000
0.465339 -0.055314 0.044303 2.000000
0.465339 0.050183 0.075534 2.000000
0.465339 -0.033153 0.046282 2.000000
0.465339 0.029708 0.066369 2.000000
0.465339 -0.013025 0.017325 2.000000
0.465339 0.029655 -0.026150 2.000000
0.465339 0.011406 -0.080782 2.000000
0.465339 -0.022609 -0.069308 2.000000
0.465339 0.002934 0.037053 2.000000
0.465339 -0.003999 0.088863 2.000000
0.465339 -0.038158 0.048111 2.000000
0.465339 0.009178 -0.002508 2.000000
0.465339 -0.016696 0.039360 2.000000
0.465339 0.087972 -0.011264 2.000000
0.465339 -0.051136 0.041286 2.000000
0.465339 -0.075214 0.019655 2.000000
0.465339 -0.003164 -0.014349 2.000000
0.465339 0.047179 0.056067 2.000000
0.465339 0.046748 0.086310 2.000000
0.465339 0.048523 0.025780 2.000000
0.465339 0.091064 0.010708 2.000000
0.465339 -0.050447 -0.071705 2.000000
0.465339 0.072320 0.046075 2.000000
0.465339 0.077265 0.056162 2.000000
0.465339 -0.035677 -0.067288 2.000000
0.465339 -0.037278 0.000624 2.000000
0.465339 -0.021912 -0.082183 2.000000
0.465339 -0.062544 0.069510 2.000000
0.465339 0.035180 -0.044574 2.000000
0.465339 -0.086851 -0.031630 2.000000
0.465339 -0.003175 0.000557 2.000000
0.465339 0.049841 -0.058025 2.000000
0.465339 -0.026321 -0.013346 2.000000
0.465339 -0.030155 0.077888 2.000000
0.465339 -0.065320 -0.033100 2.000000
0.465339 0.057554 0.031951 2.000000
0.465339 0.041322 -0.032666 2.000000
0.465339 -0.072529 0.065726 2.000000
0.465339 -0.043751 0.026866 2.000000
0.465339 0.098471 -0.016140 2.000000
0.465339 0.002856 -0.086584 2.000000
0.465339 -0.020829 0.019989 2.000000
0.465339 -0.013528 -0.039538 2.000000
0.465339 -0.077718 -0.055455 2.000000
0.465339 -0.030752 0.088054 2.000000
0.465339 -0.084488 -0.045218 2.000000
0.465339 0.073252 0.006527 2.000000
0.465339 -0.075532 -0.045802 2.000000
0.465339 -0.019941 0.078544 2.000000
0.465339 0.047608 0.052290 2.000000
0.465339 -0.002181 -0.031185 2.000000
0.465339 0.090476 -0.016820 2.000000
0.465339 -0.041358 0.061892 2.000000
0.465339 -0.037542 -0.021559 2.000000
0.465339 -0.074321 -0.032158 2.000000
0.465339 -0.085832 0.022671 2.000000
0.465339 -0.083879 0.008632 2.000000
0.465339 -0.051803 0.009784 2.000000
0.465339 0.013192 -0.078248 2.000000
0.465339 0.061558 -0.013424 2.000000
0.465339 -0.043699 -0.048684 2.000000
0.465339 0.081537 0.041717 2.000000
0.465339 -0.004719 0.073570 2.000000
0.465339 -0.086757 0.024283 2.000000
0.465339 0.049886 0.033419 2.000000
0.465339 0.017639 0.087997 2.000000
0.465339 -0.079388 0.021704 2.000000
0.465339 0.028870 -0.013415 2.000000
0.465339 0.021745 -0.046466 2.000000
0.465339 -0.067470 0.067896 2.000000
0.465339 -0.002945 0.022805 2.000000
0.465339 0.019326 -0.053308 2.000000
0.465339 0.056534 -0.045054 2.000000
0.465339 0.031164 -0.069020 2.000000
0.465339 -0.025787 -0.057220 2.000000
0.465339 -0.059067 -0.066286 2.000000
0.465339 0.076411 0.061378 2.000000
0.465339 -0.042386 0.088144 2.000000
0.465339 0.077621 -0.011124 2.000000
0.465339 -0.017251 0.050079 2.000000
0.465339 0.002887 -0.027721 2.000000
0.465339 -0.065985 -0.072079 2.000000
0.465339 -0.001663 -0.032523 2.000000
0.465339 0.016652 0.008322 2.000000
0.465339 0.079789 -0.047375 2.000000
0.465339 0.081458 -0.048069 2.000000
0.465339 -0.045808 0.034412 2.000000
0.465339 0.022707 0.001674 2.000000
0.465339 0.053588 0.033251 2.000000
0.465339 -0.069946 -0.038371 2.000000
0.465339 0.070443 0.043122 2.000000
0.465339 -0.078242 -0.051126 2.000000
0.465339 -0.004946 0.099713 2.000000
0.465339 0.026688 -0.021103 2.000000
0.465339 0.005401 0.091111 2.000000
0.465339 -0.063337 -0.052303 2.000000
0.465339 0.007000 0.048577 2.000000
0.465339 0.048391 -0.035193 2.000000
0.465339 0.045043 0.019958 2.000000
0.465339 0.006288 -0.092357 2.000000
0.465339 -0.003054 -0.051355 2.000000
0.465339 -0.084487 0.020094 2.000000
0.465339 0.023540 0.023927 2.000000
0.465339 -0.025071 0.047604 2.000000
0.465339 -0.064892 0.050854 2.000000
0.465339 0.000128 -0.019105 2.000000
0.465339 -0.024195 0.013024 2.000000
0.465339 0.022400 0.087770 2.000000
0.465339 -0.068350 -0.042393 2.000000
0.465339 -0.029386 0.023056 2.000000
0.465339 -0.020623 0.067371 2.000000
0.465339 -0.015821 -0.076969 2.000000
0.465339 -0.064974 0.017525 2.000000
0.465339 0.059492 -0.024447 2.000000
0.465339 -0.018147 -0.082023 2.000000
0.465339 0.015135 0.046593 2.000000
0.465339 -0.083012 -0.023546 2.000000
0.465339 -0.084675 0.036183 2.000000
0.465339 0.006432 -0.011685 2.000000
0.465339 0.010374 -0.037579 2.000000
0.465339 -0.056336 0.078832 2.000000
0.465339 -0.023886 0.000791 2.000000
0.465339 -0.016005 0.085096 2.000000
0.465339 0.044687 0.079328 2.000000
0.465339 0.017934 -0.000644 2.000000
0.465339 -0.028969 0.067644 2.000000
0.465339 -0.061666 -0.010257 2.000000
0.465339 -0.009647 -0.034283 2.000000
0.465339 0.059132 0.023171 2.000000
0.465339 -0.010768 0.003770 2.000000
0.465339 0.035391 -0.089738 2.000000
0.465339 0.088585 0.013463 2.000000
0.465339 -0.059796 -0.046654 2.000000
0.465339 0.002124 0.050445 2.000000
0.465339 -0.062224 -0.023968 2.000000
0.465339 0.034709 0.070222 2.000000
0.465339 0.038986 -0.082740 2.000000
0.465339 -0.064546 -0.064470 2.000000
0.465339 -0.049375 0.009537 2.000000
0.465339 -0.029278 -0.075616 2.000000
0.465339 -0.042951 -0.035172 2.000000
0.465339 -0.022368 0.085501 2.000000
0.465339 0.017696 -0.037957 2.000000
0.465339 0.052454 -0.022694 2.000000
0.465339 -0.075349 0.051117 2.000000
0.465339 -0.008304 -0.038228 2.000000
0.465339 0.063423 0.051229 2.000000
0.465339 -0.060704 -0.067650 2.000000
0.465339 0.041831 0.078029 2.000000
0.465339 0.046545 -0.024029 2.000000
0.465339 0.006731 -0.040657 2.000000
0.465339 0.006504 0.035121 2.000000
0.465339 -0.027769 0.038751 2.000000
0.465339 0.047470 -0.019755 2.000000
0.465339 0.089028 -0.024250 2.000000
0.465339 -0.004863 -0.087210 2.000000
0.465339 -0.021666 -0.057515 2.000000
0.465339 -0.028793 -0.006668 2.000000
0.465339 0.006986 0.069740 2.000000
0.465339 -0.040517 -0.073595 2.000000
0.465339 -0.075639 0.032009 2.000000
0.465339 0.050212 0.038598 2.000000
0.465339 -0.036032 -0.040280 2.000000
0.465339 -0.006721 -0.068435 2.000000
0.465339 0.031897 -0.035835 2.000000
0.465339 -0.049913 0.074440 2.000000
0.465339 -0.062366 -0.066606 2.000000
0.465339 -0.070446 -0.031278 2.000000
0.465339 0.006157 -0.041911 2.000000
0.465339 -0.087750 -0.000511 2.000000
0.465339 -0.003879 -0.049191 2.000000
0.465339 0.082388 0.026740 2.000000
0.465339 -0.017556 -0.009912 2.000000
0.465339 0.088956 -0.008258 2.000000
0.465339 0.076671 0.035878 2.000000
0.465339 0.006639 0.008294 2.000000
0.465339 0.070227 -0.069125 2.000000
0.465339 0.069141 0.021851 2.000000
0.465339 -0.051133 0.082891 2.000000
0.465339 -0.037708 0.023486 2.000000
0.465339 0.012599 -0.020583 2.000000
0.465339 0.059959 0.072329 2.000000
0.465339 0.089017 0.005210 2.000000
0.465339 -0.087466 0.035837 2.000000
0.465339 0.089486 -0.028645 2.000000
0.465339 -0.036003 -0.068864 2.000000
0.465339 0.032546 -0.038443 2.000000
0.465339 -0.061488 -0.041075 2.000000
0.465339 -0.005523 -0.052980 2.000000
0.465339 0.000465 0.041105 2.000000
0.465339 0.093714 0.003574 2.000000
0.465339 0.046172 -0.052113 2.000000
0.465339 0.012150 0.003597 2.000000
0.465339 0.032115 0.035175 2.000000
0.465339 -0.099131 0.008220 2.000000
0.465339 0.064079 -0.009911 2.000000
0.465339 0.050831 0.049931 2.000000
0.465339 -0.045142 0.023335 2.000000
0.465339 0.055266 0.001709 2.000000
0.465339 -0.010500 -0.046310 2.000000
0.465339 -0.043388 -0.030349 2.000000
0.465339 0.059013 0.056194 2.000000
0.465339 -0.067102 0.034378 2.000000
0.465339 0.033205 -0.034982 2.000000
0.465339 0.011532 -0.036187 2.000000
0.465339 0.071389 -0.032245 2.000000
0.465339 0.054369 -0.031423 2.000000
0.465339 0.014297 0.055033 2.000000
0.465339 -0.096332 0.024490 2.000000
0.465339 -0.032245 -0.020496 2.000000
0.465339 -0.049603 0.078905 2.000000
0.465339 -0.047487 -0.067498 2.000000
0.465339 0.072417 0.001721 2.000000
0.465339 0.018269 -0.015698 2.000000
0.465339 -0.081492 -0.036165 2.000000
0.465339 -0.057311 -0.050058 2.000000
0.465339 -0.082991 -0.013311 2.000000
0.465339 -0.010853 -0.030065 2.000000
0.465339 0.089757 0.022455 2.000000
0.465339 0.030202 0.044022 2.000000
0.465339 0.052074 -0.084835 2.000000
0.465339 -0.077700 0.017237 2.000000
0.465339 0.023469 0.027085 2.000000
0.465339 0.078385 0.043069 2.000000
0.465339 0.025948 0.091775 2.000000
0.465339 0.025978 -0.076667 2.000000
0.465339 0.041252 -0.065412 2.000000
0.465339 0.034165 0.020617 2.000000
0.465339 0.085761 0.038301 2.000000
0.465339 -0.046673 0.060092 2.000000
0.465339 -0.048587 -0.016472 2.000000
0.465339 -0.055704 -0.004982 2.000000
0.465339 -0.054694 -0.039303 2.000000
0.465339 -0.058693 -0.023798 2.000000
0.465339 -0.069738 0.056179 2.000000
0.465339 -0.041487 -0.008925 2.000000
0.465339 -0.000277 0.080859 2.000000
0.465339 -0.011358 0.067000 2.000000
0.465339 0.017855 0.025783 2.000000
0.465339 0.084758 0.052504 2.000000
0.465339 -0.066417 0.073484 2.000000
0.465339 -0.074604 0.044275 2.000000
0.465339 0.042081 0.012144 2.000000
0.465339 0.006503 0.095257 2.000000
0.465339 -0.043492 0.081584 2.000000
0.465339 0.008575 -0.024790 2.000000
0.465339 0.037549 -0.081207 2.000000
0.465339 -0.035408 0.046982 2.000000
0.465339 0.088236 0.008833 2.000000
0.465339 0.049608 -0.042037 2.000000
0.465339 -0.036830 0.066344 2.000000
0.465339 0.003862 0.061765 2.000000
0.465339 -0.024728 0.053854 2.000000
0.465339 -0.059877 -0.003897 2.000000
0.465339 0.061466 -0.059864 2.000000
0.465339 -0.026757 -0.069664 2.000000
0.465339 -0.041686 0.076709 2.000000
0.465339 -0.002495 0.036452 2.000000
0.465339 -0.034159 0.033886 2.000000
0.465339 0.039072 0.039208 2.000000
0.465339 -0.066357 -0.047528 2.000000
0.465339 0.005621 -0.039473 2.000000
0.465339 0.035077 -0.062748 2.000000
0.465339 0.077627 -0.038127 2.000000
0.465339 -0.074160 -0.013257 2.000000
0.465339 0.056425 0.068061 2.000000
0.465339 0.010920 0.057308 2.000000
0.465339 0.054005 0.053029 2.000000
0.465339 0.023691 -0.008247 2.000000
0.465339 -0.050537 0.001649 2.000000
0.465339 -0.022771 -0.024225 2.000000
0.465339 -0.007289 0.092968 2.000000
0.465339 0.001288 -0.043159 2.000000
0.465339 0.048791 -0.070958 2.000000
0.465339 -0.024989 0.037239 2.000000
0.465339 0.047347 -0.003241 2.000000
0.465339 0.099795 0.005890 2.000000
0.465339 0.036657 -0.079319 2.000000
0.465339 0.055774 -0.004408 2.000000
0.465339 -0.013871 0.043208 2.000000
0.465339 -0.011700 -0.010152 2.000000
0.465339 -0.053059 0.064650 2.000000
0.465339 0.037128 0.055630 2.000000
0.465339 -0.074056 -0.028327 2.000000
0.465339 -0.033130 0.022148 2.000000
0.465339 -0.026149 0.088320 2.000000
0.465339 0.061033 -0.041085 2.000000
0.465339 0.036752 0.070789 2.000000
0.465339 0.046265 0.005233 2.000000
0.465339 0.017622 -0.070697 2.000000
0.465339 -0.030223 0.068880 2.000000
0.465339 -0.003960 0.081916 2.000000
0.465339 0.060632 -0.029412 2.000000
0.465339 -0.009177 0.011612 2.000000
0.465339 -0.087330 -0.033590 2.000000
0.465339 0.002901 0.088138 2.000000
0.465339 -0.076905 0.060876 2.000000
0.465339 0.025621 -0.031116 2.000000
0.465339 -0.052498 -0.056234 2.000000
0.465339 0.050455 -0.065330 2.000000
0.465339 0.044285 0.072181 2.000000
0.465339 0.020749 0.039771 2.000000
0.465339 0.045771 -0.031519 2.000000
0.465339 0.069044 0.014152 2.000000
0.465339 -0.005819 0.088880 2.000000
0.465339 0.044581 0.038790 2.000000
0.465339 0.030687 -0.023202 2.000000
0.465339 -0.054581 -0.001226 2.000000
0.465339 -0.022761 0.033161 2.000000
0.465339 0.026999 -0.027025 2.000000
0.465339 0.087242 0.047996 2.000000
0.465339 0.013219 0.011682 2.000000
0.465339 -0.025190 -0.012153 2.000000
0.465339 -0.018266 -0.097209 2.000000
0.465339 0.056280 0.004655 2.000000
0.465339 0.059163 -0.003406 2.000000
0.465339 -0.013255 0.080648 2.000000
0.465339 -0.037734 -0.043151 2.000000
0.465339 -0.019621 -0.059882 2.000000
0.465339 -0.051316 -0.039946 2.000000
0.465339 -0.072491 -0.040084 2.000000
0.465339 -0.025531 0.000359 2.000000
0.465339 -0.049351 -0.042486 2.000000
0.465339 -0.057163 -0.047320 2.000000
0.465339 -0.043279 -0.050126 2.000000
0.465339 -0.092660 0.022475 2.000000
0.465339 -0.028131 -0.031799 2.000000
0.465339 -0.060984 -0.028894 2.000000
0.465339 -0.015041 -0.003359 2.000000
0.465339 -0.064572 -0.047196 2.000000
0.465339 -0.005459 -0.083844 2.000000
0.465339 0.019067 0.043503 2.000000
0.465339 0.003561 0.019747 2.000000
0.465339 -0.077259 0.028444 2.000000
0.465339 -0.055597 0.016775 2.000000
0.465339 0.019578 0.048111 2.000000
0.465339 -0.066559 -0.039782 2.000000
0.465339 0.095249 -0.017552 2.000000
0.465339 0.072373 -0.040592 2.000000
0.465339 -0.092272 -0.013364 2.000000
0.465339 0.060896 -0.030888 2.000000
0.465339 0.005130 -0.030292 2.000000
0.465339 0.050711 -0.023685 2.000000
0.465339 0.036755 0.026566 2.000000
0.465339 -0.071396 0.064926 2.000000
0.465339 0.084962 0.034223 2.000000
0.465339 -0.040577 -0.087481 2.000000
0.465339 0.015608 0.081138 2.000000
0.465339 -0.012854 -0.078361 2.000000
0.465339 0.063152 -0.023565 2.000000
0.465339 -0.012898 -0.029489 2.000000
0.465339 -0.032023 0.064692 2.000000
0.465339 0.017695 0.015485 2.000000
0.465339 0.047131 0.050633 2.000000
0.465339 0.077123 -0.026316 2.000000
0.465339 0.002066 0.041342 2.000000
0.465339 0.035497 0.075691 2.000000
0.465339 -0.070023 -0.061143 2.000000
0.465339 0.020498 0.062903 2.000000
0.465339 -0.079251 -0.055829 2.000000
0.465339 -0.025425 0.056829 2.000000
0.465339 0.017680 0.049044 2.000000
0.465339 -0.060819 -0.022175 2.000000
0.465339 -0.098565 -0.014304 2.000000
0.465339 -0.039307 -0.074576 2.000000
0.465339 -0.016553 0.058554 2.000000
0.465339 0.033228 0.040139 2.000000
0.465339 -0.000338 -0.047002 2.000000
0.465339 0.039735 0.034043 2.000000
0.465339 0.036701 -0.006165 2.000000
0.465339 -0.018563 0.086875 2.000000
0.465339 0.020097 -0.000938 2.000000
0.465339 -0.064338 0.057807 2.000000
0.465339 -0.007459 -0.021021 2.000000
0.465339 0.037666 -0.064883 2.000000
0.465339 0.060062 -0.078751 2.000000
0.465339 0.030681 0.025151 2.000000
0.465339 -0.056449 0.076914 2.000000
0.465339 -0.021727 0.004727 2.000000
0.465339 -0.034090 0.059944 2.000000
0.465339 -0.094561 0.004432 2.000000
0.465339 0.018119 -0.047178 2.000000
0.465339 -0.059082 -0.053800 2.000000
0.465339 0.078524 -0.051919 2.000000
0.465339 -0.033649 -0.081752 2.000000
0.465339 -0.020603 -0.063869 2.000000
0.465339 0.009283 -0.011083 2.000000
0.465339 0.085797 -0.049659 2.000000
0.465339 0.077843 0.054652 2.000000
0.465339 0.084686 0.011792 2.000000
0.465339 -0.097632 -0.018834 2.000000
0.465339 -0.080639 -0.043484 2.000000
0.465339 0.070872 -0.016289 2.000000
0.465339 0.008020 -0.035215 2.000000
0.465339 0.010636 -0.085554 2.000000
0.465339 -0.061482 0.001017 2.000000
0.465339 -0.067405 -0.000010 2.000000
0.465339 -0.056096 0.070069 2.000000
0.465339 -0.067624 0.018601 2.000000
0.465339 -0.084682 -0.012644 2.000000
0.465339 0.064798 0.049022 2.000000
0.465339 -0.049121 0.010965 2.000000
0.465339 -0.087841 -0.011725 2.000000
0.465339 -0.058465 0.063832 2.000000
0.465339 -0.053722 0.032698 2.000000
0.465339 0.063394 0.009258 2.000000
0.465339 -0.024128 -0.034259 2.000000
0.465339 -0.015766 0.025389 2.000000
0.465339 0.031511 0.013111 2.000000
0.465339 0.038433 -0.019154 2.000000
0.465339 -0.091076 0.010113 2.000000
0.465339 0.073901 0.036160 2.000000
0.465339 -0.014026 0.075641 2.000000
0.465339 -0.052405 0.015822 2.000000
0.465339 0.015390 -0.047365 2.000000
0.465339 -0.042709 -0.081631 2.000000
0.465339 -0.059866 0.047984 2.000000
0.465339 0.007118 -0.061967 2.000000
0.465339 0.019463 0.051956 2.000000
0.465339 0.078590 -0.059658 2.000000
0.465339 -0.018585 -0.007399 2.000000
0.465339 0.031690 0.015487 2.000000
0.465339 -0.009151 -0.049486 2.000000
0.465339 -0.019721 -0.033705 2.000000
0.465339 0.050258 -0.007200 2.000000
0.465339 0.079009 0.060676 2.000000
0.465339 0.073756 0.011000 2.000000
0.465339 0.075249 0.022027 2.000000
0.465339 0.046632 0.014725 2.000000
0.465339 0.020168 -0.086884 2.000000
0.465339 0.034658 0.023833 2.000000
0.465339 0.003304 0.044170 2.000000
0.465339 -0.099563 -0.000914 2.000000
0.465339 0.073546 0.021534 2.000000
0.465339 0.062769 -0.030781 2.000000
0.465339 0.040720 0.091049 2.000000
0.465339 -0.037798 0.078708 2.000000
0.465339 0.055614 0.024304 2.000000
0.465339 0.043229 0.087559 2.000000
0.465339 0.011812 -0.086435 2.000000
0.465339 0.025233 -0.045937 2.000000
0.465339 0.054101 -0.070188 2.000000
0.465339 -0.057143 0.042632 2.000000
0.465339 -0.093113 -0.025400 2.000000
0.465339 -0.080874 0.008677 2.000000
0.465339 0.005674 -0.025814 2.000000
0.465339 -0.008150 0.043611 2.000000
0.465339 -0.028023 0.095798 2.000000
0.465339 0.041161 0.070887 2.000000
0.465339 0.053857 0.030621 2.000000
0.465339 -0.050480 -0.017348 2.000000
0.465339 -0.090390 -0.008535 2.000000
0.465339 -0.024596 0.028891 2.000000
0.465339 -0.016173 0.037665 2.000000
0.465339 0.036556 -0.043871 2.000000
0.465339 -0.030929 0.081425 2.000000
0.465339 -0.017658 0.076545 2.000000
0.465339 0.055305 0.070020 2.000000
0.465339 -0.050690 0.004277 2.000000
0.465339 0.077531 -0.061917 2.000000
0.465339 -0.081550 -0.016273 2.000000
0.465339 -0.025034 0.042329 2.000000
0.465339 0.068221 0.060707 2.000000
0.465339 0.015622 -0.068573 2.000000
0.465339 0.056548 0.007620 2.000000
0.465339 -0.021595 0.036131 2.000000
0.465339 0.095456 -0.003496 2.000000
0.465339 -0.002821 0.079148 2.000000
0.465339 -0.052457 -0.078484 2.000000
0.465339 -0.063544 0.007951 2.000000
0.465339 0.085445 -0.038901 2.000000
0.465339 0.050693 0.048352 2.000000
0.465339 0.047246 -0.043209 2.000000
0.465339 -0.016918 0.071493 2.000000
0.465339 -0.041897 0.026902 2.000000
0.465339 0.057395 -0.005552 2.000000
0.465339 0.074714 0.061021 2.000000
0.465339 -0.005682 0.010748 2.000000
0.465339 -0.064560 -0.054654 2.000000
0.465339 0.085585 -0.042532 2.000000
0.465339 -0.061113 0.070168 2.000000
0.465339 0.011579 0.000935 2.000000
0.465339 0.090377 0.024009 2.000000
0.465339 -0.015282 0.079172 2.000000
0.465339 0.051081 -0.053662 2.000000
0.465339 -0.045531 0.044293 2.000000
0.465339 0.027738 -0.051744 2.000000
0.465339 0.017938 -0.096581 2.000000
0.465339 -0.011148 -0.037860 2.000000
0.465339 0.050974 -0.029054 2.000000
0.465339 -0.071523 0.013715 2.000000
0.465339 -0.031983 0.005557 2.000000
0.465339 0.013580 -0.005133 2.000000
0.465339 0.084417 0.014736 2.000000
0.465339 -0.061506 0.033044 2.000000
0.465339 -0.005677 0.078064 2.000000
0.465339 -0.045766 0.054122 2.000000
0.465339 -0.040958 0.059937 2.000000
0.465339 0.079698 0.014186 2.000000
0.465339 -0.081423 -0.057319 2.000000
0.465339 -0.084567 -0.035997 2.000000
0.465339 0.083809 -0.005342 2.000000
0.465339 -0.049403 0.072947 2.000000
0.465339 0.046655 -0.018473 2.000000
0.465339 0.016092 -0.005231 2.000000
0.465339 0.034687 -0.084671 2.000000
0.465339 0.009659 -0.047776 2.000000
0.465339 0.084079 0.016170 2.000000
0.465339 0.038052 0.013310 2.000000
0.465339 0.031580 -0.072437 2.000000
0.465339 0.048470 0.010886 2.000000
0.465339 0.023682 0.047642 2.000000
0.465339 0.045726 -0.074819 2.000000
0.465339 -0.029391 -0.015846 2.000000
0.465339 -0.026676 -0.002602 2.000000
0.465339 -0.039641 -0.055040 2.000000
0.465339 0.044310 -0.037505 2.000000
0.465339 -0.028248 0.026006 2.000000
0.465339 -0.033607 -0.064357 2.000000
0.465339 -0.076008 -0.052095 2.000000
0.465339 0.056480 -0.066717 2.000000
0.465339 0.071723 -0.025143 2.000000
0.465339 0.040162 0.068012 2.000000
0.465339 -0.085667 0.021123 2.000000
0.465339 0.014962 -0.004023 2.000000
0.465339 0.060212 0.050012 2.000000
0.465339 -0.023436 -0.070864 2.000000
0.465339 -0.002424 -0.015829 2.000000
0.465339 0.019494 -0.016776 2.000000
0.465339 0.021363 0.079481 2.000000
0.465339 0.003197 0.005394 2.000000
0.465339 0.020013 0.014251 2.000000
0.465339 -0.031959 -0.051143 2.000000
0.465339 -0.012827 -0.086669 2.000000
0.465339 -0.029330 -0.022891 2.000000
0.465339 -0.000926 0.034501 2.000000
0.465339 0.013501 -0.030230 2.000000
0.465339 0.021577 -0.034229 2.000000
0.465339 0.005872 -0.082356 2.000000
0.465339 0.007675 0.057152 2.000000
0.465339 -0.025021 0.004361 2.000000
0.465339 0.074238 0.041971 2.000000
0.465339 0.030490 -0.015725 2.000000
0.465339 0.067414 0.069355 2.000000
0.465339 0.000442 0.077860 2.000000
0.465339 -0.040686 -0.076966 2.000000
0.465339 0.042494 0.079754 2.000000
0.465339 0.048544 0.018226 2.000000
0.465339 -0.044068 -0.075024 2.000000
0.465339 -0.075334 0.041031 2.000000
0.465339 -0.049261 -0.078304 2.000000
0.465339 0.079931 0.048040 2.000000
0.465339 -0.022166 -0.067709 2.000000
0.465339 -0.009730 0.073827 2.000000
0.465339 -0.031649 -0.016786 2.000000
0.465339 -0.065403 0.047863 2.000000
0.465339 -0.000928 -0.050426 2.000000
0.465339 0.013826 -0.082310 2.000000
0.465339 0.062996 -0.025700 2.000000
0.465339 0.021703 0.056154 2.000000
0.465339 0.060238 -0.067868 2.000000
0.465339 0.044315 0.021849 2.000000
0.465339 0.012440 -0.041654 2.000000
0.465339 -0.008810 0.061888 2.000000
0.465339 -0.059828 0.012268 2.000000
0.465339 -0.012510 0.073213 2.000000
0.465339 -0.012637 -0.018850 2.000000
0.465339 -0.027739 -0.020901 2.000000
0.465339 0.002367 0.031771 2.000000
0.465339 -0.039850 -0.079523 2.000000
0.465339 0.032982 0.032061 2.000000
0.465339 -0.035185 -0.006732 2.000000
0.465339 0.016845 0.038509 2.000000
0.465339 0.060946 0.058561 2.000000
0.465339 -0.062745 0.017465 2.000000
0.465339 -0.075462 0.028101 2.000000
0.465339 0.089641 -0.013309 2.000000
0.465339 -0.049647 0.031380 2.000000
0.465339 0.093143 0.007174 2.000000
0.465339 0.005488 0.061589 2.000000
0.465339 -0.016203 -0.090475 2.000000
0.465339 0.038354 0.077134 2.000000
0.465339 0.011115 -0.026547 2.000000
0.465339 0.008747 -0.062128 2.000000
0.465339 0.010665 0.061796 2.000000
0.465339 -0.016703 -0.063604 2.000000
0.465339 -0.084608 0.030032 2.000000
0.465339 -0.033209 0.007772 2.000000
0.465339 0.035974 0.064621 2.000000
0.465339 0.013056 0.082127 2.000000
0.465339 0.024721 -0.092362 2.000000
0.465339 -0.000719 0.052415 2.000000
0.465339 0.040224 -0.058034 2.000000
0.465339 -0.030166 -0.058761 2.000000
0.465339 -0.005208 -0.079403 2.000000
0.465339 0.028376 0.088645 2.000000
0.465339 -0.067022 -0.054676 2.000000
0.465339 -0.050014 0.068361 2.000000
0.465339 0.056073 0.027843 2.000000
0.465339 0.004593 0.029886 2.000000
0.465339 -0.023307 0.044448 2.000000
0.465339 0.049388 0.086779 2.000000
0.465339 0.086760 -0.030034 2.000000
0.465339 0.061398 -0.021476 2.000000
0.465339 0.006292 0.060391 2.000000
0.465339 -0.087324 0.031581 2.000000
0.465339 -0.085130 0.047561 2.000000
0.465339 0.073587 -0.049161 2.000000
0.465339 -0.000395 0.060225 2.000000
0.465339 0.000721 0.039341 2.000000
0.465339 -0.000998 -0.041224 2.000000
0.465339 0.067195 0.054448 2.000000
0.465339 0.006727 -0.069491 2.000000
0.465339 0.012217 -0.076061 2.000000
0.465339 -0.082602 0.029565 2.000000
0.465339 0.000407 0.070435 2.000000
0.465339 0.003158 0.021446 2.000000
0.465339 0.080155 -0.001488 2.000000
0.465339 -0.075921 0.052650 2.000000
0.465339 0.026793 -0.031866 2.000000
0.465339 -0.062387 -0.006833 2.000000
0.465339 -0.079722 -0.051568 2.000000
0.465339 0.077045 -0.051184 2.000000
0.465339 -0.036941 -0.045441 2.000000
0.465339 -0.056997 0.008117 2.000000
0.465339 0.041053 0.020790 2.000000
0.465339 0.072134 0.016072 2.000000
0.465339 0.088322 0.006670 2.000000
0.465339 -0.026437 -0.076182 2.000000
0.465339 0.003429 -0.019734 2.000000
0.465339 -0.019241 -0.065139 2.000000
0.465339 0.031110 0.049908 2.000000
0.465339 -0.080757 0.014050 2.000000
0.465339 0.028467 0.086902 2.000000
0.465339 0.095989 0.006299 2.000000
0.465339 -0.052322 -0.064266 2.000000
0.465339 -0.029907 -0.083167 2.000000
0.465339 -0.081184 0.044934 2.000000
0.465339 0.057733 -0.044427 2.000000
0.465339 0.077574 0.031100 2.000000
0.465339 -0.046178 -0.053487 2.000000
0.465339 -0.046808 0.042100 2.000000
0.465339 -0.068332 0.037236 2.000000
0.465339 0.035758 -0.033012 2.000000
0.465339 -0.001421 0.014175 2.000000
0.465339 0.045250 -0.026688 2.000000
0.465339 -0.025776 0.061290 2.000000
0.465339 -0.026969 0.053735 2.000000
0.465339 -0.068342 0.045717 2.000000
0.465339 0.025754 0.033623 2.000000
0.465339 -0.070068 -0.053265 2.000000
0.465339 -0.005841 0.072129 2.000000
0.465339 0.045170 -0.014813 2.000000
0.465339 -0.011213 0.026580 2.000000
0.465339 -0.055449 -0.022253 2.000000
0.465339 0.014953 0.048419 2.000000
0.465339 0.000041 0.053898 2.000000
0.465339 -0.069022 0.000358 2.000000
0.465339 -0.084413 0.046207 2.000000
0.465339 0.016565 -0.006842 2.000000
0.465339 -0.018133 0.092182 2.000000
0.465339 0.000982 -0.040000 2.000000
0.465339 0.061106 0.062037 2.000000
0.465339 0.052015 0.053362 2.000000
0.465339 0.091146 0.032658 2.000000
0.465339 -0.044065 -0.000172 2.000000
0.465339 -0.094339 0.018439 2.000000
0.465339 -0.074097 0.056741 2.000000
0.465339 -0.030511 0.020451 2.000000
0.465339 0.052339 0.028458 2.000000
0.465339 -0.011724 0.050901 2.000000
0.465339 0.094637 0.001986 2.000000
0.465339 -0.010757 0.015233 2.000000
0.465339 -0.060261 -0.041935 2.000000
0.465339 -0.044674 -0.079522 2.000000
0.465339 0.079221 0.023953 2.000000
0.465339 0.001621 -0.000886 2.000000
0.465339 -0.005520 -0.054694 2.000000
0.465339 -0.042044 0.043659 2.000000
0.465339 0.042308 0.000426 2.000000
0.465339 -0.070127 -0.043415 2.000000
0.465339 -0.019478 0.073283 2.000000
0.465339 0.069741 -0.015429 2.000000
0.465339 0.007114 -0.066037 2.000000
0.465339 0.073478 -0.047220 2.000000
0.465339 -0.054833 0.049193 2.000000
0.465339 0.034316 0.085259 2.000000
0.465339 -0.000856 -0.085981 2.000000
0.465339 0.078709 0.013143 2.000000
0.465339 0.028068 -0.090450 2.000000
0.465339 0.066223 0.024954 2.000000
0.465339 0.068696 -0.020651 2.000000
0.465339 -0.044519 -0.029100 2.000000
0.465339 0.008711 0.006660 2.000000
0.465339 0.069180 -0.063210 2.000000
0.465339 0.045427 -0.046284 2.000000
0.465339 -0.086273 -0.045875 2.000000
0.465339 -0.045799 -0.028424 2.000000
0.465339 -0.044287 0.001733 2.000000
0.465339 -0.058315 -0.020885 2.000000
0.465339 0.040124 -0.021540 2.000000
0.465339 0.035202 -0.036187 2.000000
0.465339 -0.008233 0.065093 2.000000
0.465339 0.000244 -0.065630 2.000000
0.465339 -0.071350 -0.022322 2.000000
0.465339 0.081464 -0.002626 2.000000
0.465339 -0.077967 -0.053825 2.000000
0.465339 -0.068667 0.020225 2.000000
0.465339 -0.038921 0.088156 2.000000
0.465339 0.015496 -0.040923 2.000000
0.465339 -0.057429 -0.011767 2.000000
0.465339 0.009851 0.014547 2.000000
0.465339 -0.007696 0.015096 2.000000
0.465339 -0.046644 0.068446 2.000000
0.465339 -0.067742 0.060753 2.000000
0.465339 -0.045626 -0.006945 2.000000
0.465339 0.054093 -0.024142 2.000000
0.465339 -0.048236 0.046774 2.000000
0.465339 -0.020650 0.080071 2.000000
0.465339 0.019253 -0.020206 2.000000
0.465339 0.086163 0.045384 2.000000
0.465339 -0.039374 -0.020603 2.000000
0.465339 -0.063120 -0.039350 2.000000
0.465339 0.053433 -0.009844 2.000000
0.465339 0.053930 -0.046764 2.000000
0.465339 -0.029893 0.082725 2.000000
0.465339 0.019866 0.089987 2.000000
0.465339 0.032222 0.065905 2.000000
0.465339 0.086685 -0.016789 2.000000
0.465339 0.030677 0.089686 2.000000
0.465339 -0.075875 -0.018060 2.000000
0.465339 -0.079928 -0.035851 2.000000
0.465339 0.072343 0.027511 2.000000
0.465339 0.081975 0.015002 2.000000
0.465339 -0.000508 -0.083842 2.000000
0.465339 0.089613 0.016937 2.000000
0.465339 -0.022233 0.049676 2.000000
0.465339 0.017377 0.011887 2.000000
0.465339 0.045325 0.066845 2.000000
0.465339 0.019819 0.041263 2.000000
0.465339 -0.022775 -0.087831 2.000000
0.465339 0.032966 0.022928 2.000000
0.465339 0.005549 -0.028814 2.000000
0.465339 0.073615 -0.024476 2.000000
0.465339 -0.042637 -0.018044 2.000000
0.465339 -0.060488 -0.048539 2.000000
0.465339 0.052265 0.067656 2.000000
0.465339 -0.029284 0.009579 2.000000
0.465339 -0.014654 0.036616 2.000000
0.465339 -0.011296 0.005755 2.000000
0.465339 -0.047782 -0.035952 2.000000
0.465339 0.064150 0.036596 2.000000
0.465339 -0.075355 -0.024783 2.000000
0.465339 -0.032396 0.060547 2.000000
0.465339 0.081555 -0.057302 2.000000
0.465339 0.043220 -0.046178 2.000000
0.465339 -0.016600 0.098362 2.000000
0.465339 0.008337 0.050997 2.000000
0.465339 0.048870 0.007151 2.000000
0.465339 -0.074142 -0.059479 2.000000
0.465339 0.032328 0.024273 2.000000
0.465339 -0.052098 -0.061980 2.000000
0.465339 -0.029613 0.058237 2.000000
0.465339 -0.055724 -0.066666 2.000000
0.465339 -0.075168 -0.029449 2.000000
0.465339 -0.020940 0.022797 2.000000
0.465339 -0.088543 -0.038545 2.000000
0.465339 -0.028879 -0.026965 2.000000
0.465339 0.085940 -0.034912 2.000000
0.465339 -0.013886 -0.074562 2.000000
0.465339 -0.055157 -0.046624 2.000000
0.465339 0.058450 0.026939 2.000000
0.465339 -0.082180 0.035856 2.000000
0.465339 -0.088370 -0.021981 2.000000
0.465339 -0.028753 0.059890 2.000000
0.465339 -0.042524 -0.056863 2.000000
0.465339 -0.053475 -0.014015 2.000000
0.465339 0.074653 0.039098 2.000000
0.465339 0.015607 0.049800 2.000000
0.465339 -0.036630 0.073980 2.000000
0.465339 0.068951 -0.022359 2.000000
0.465339 0.002541 0.075108 2.000000
0.465339 0.032855 -0.036968 2.000000
0.465339 -0.064361 -0.043743 2.000000
0.465339 -0.035653 -0.049675 2.000000
0.465339 0.080502 -0.004589 2.000000
0.465339 -0.025947 -0.055699 2.000000
0.465339 0.011310 -0.042676 2.000000
0.465339 -0.088789 -0.007872 2.000000
0.465339 0.046412 0.018906 2.000000
0.465339 -0.034114 0.055585 2.000000
0.465339 0.081743 0.021727 2.000000
0.465339 -0.023380 -0.077334 2.000000
0.465339 -0.028914 -0.065215 2.000000
0.465339 -0.023683 -0.082079 2.000000
0.465339 -0.056524 0.011030 2.000000
0.465339 0.004794 -0.065106 2.000000
0.465339 -0.023824 0.052327 2.000000
0.465339 -0.014952 -0.035705 2.000000
0.465339 -0.074116 -0.026049 2.000000
0.465339 0.005369 0.075016 2.000000
0.465339 0.091004 -0.013653 2.000000
0.465339 -0.049962 0.008123 2.000000
0.465339 0.082927 0.003807 2.000000
0.465339 -0.007035 0.061113 2.000000
0.465339 -0.069065 0.025095 2.000000
0.465339 0.042847 0.013729 2.000000
0.465339 -0.080174 -0.021987 2.000000
0.465339 -0.026348 0.081484 2.000000
0.465339 -0.033445 0.063346 2.000000
0.465339 -0.091302 -0.033631 2.000000
0.465339 -0.068853 0.062671 2.000000
0.465339 0.068386 0.066044 2.000000
0.465339 0.005591 -0.060987 2.000000
0.465339 -0.048198 -0.056935 2.000000
0.465339 -0.093399 0.016751 2.000000
0.465339 -0.078471 -0.032576 2.000000
0.465339 -0.059621 -0.062066 2.000000
0.465339 0.079507 -0.033485 2.000000
0.465339 -0.027694 -0.070672 2.000000
0.465339 0.050251 0.021209 2.000000
0.465339 -0.022841 0.072413 2.000000
0.465339 -0.004886 -0.029345 2.000000
0.465339 0.090920 -0.026832 2.000000
0.465339 0.054141 -0.039818 2.000000
0.465339 -0.015262 -0.096871 2.000000
0.465339 -0.080054 -0.053309 2.000000
0.465339 0.069423 -0.036869 2.000000
0.465339 -0.007025 0.029444 2.000000
0.465339 0.095411 0.009585 2.000000
0.465339 0.010673 0.018446 2.000000
0.465339 0.000137 0.016446 2.000000
0.465339 0.043886 -0.031717 2.000000
0.465339 -0.035602 0.042162 2.000000
0.465339 0.064584 -0.070078 2.000000
0.465339 -0.092017 0.032614 2.000000
0.465339 -0.078321 0.040595 2.000000
0.465339 0.022734 -0.056037 2.000000
0.465339 0.009641 0.049395 2.000000
0.465339 0.025872 0.012441 2.000000
0.465339 0.013340 -0.087291 2.000000
0.465339 0.019019 -0.058300 2.000000
0.465339 -0.099052 0.001122 2.000000
0.465339 -0.044939 -0.058650 2.000000
0.465339 -0.043759 -0.082768 2.000000
0.465339 -0.034121 0.089731 2.000000
0.465339 -0.059944 0.061354 2.000000
0.465339 -0.032925 -0.008150 2.000000
0.465339 -0.064813 0.028480 2.000000
0.465339 0.032211 -0.049262 2.000000
0.465339 -0.013296 0.041778 2.000000
0.465339 0.030423 0.079836 2.000000
0.465339 0.002945 -0.090110 2.000000
0.465339 -0.077717 0.019198 2.000000
0.465339 -0.016586 0.086456 2.000000
0.465339 0.040657 -0.018457 2.000000
0.465339 -0.001013 0.070951 2.000000
0.465339 0.054117 -0.074626 2.000000
0.465339 -0.047340 -0.002473 2.000000
0.465339 -0.047644 -0.024372 2.000000
0.465339 0.062847 0.044167 2.000000
0.465339 0.033871 0.004007 2.000000
0.465339 -0.016723 0.056568 2.000000
0.465339 0.020340 -0.064962 2.000000
0.465339 -0.070451 -0.003668 2.000000
0.465339 -0.040069 0.019433 2.000000
0.465339 -0.086098 -0.035775 2.000000
0.465339 -0.024060 0.015087 2.000000
0.465339 0.025504 -0.047716 2.000000
0.465339 -0.039864 0.061477 2.000000
0.465339 0.039244 0.040902 2.000000
0.465339 -0.013222 0.090280 2.000000
0.465339 -0.018767 0.054574 2.000000
0.465339 -0.037802 0.009372 2.000000
0.465339 -0.010542 -0.047988 2.000000
0.465339 0.050637 0.065200 2.000000
0.465339 -0.017423 0.095654 2.000000
0.465339 0.045883 0.088774 2.000000
0.465339 0.075896 -0.001621 2.000000
0.465339 -0.037589 -0.025316 2.000000
0.465339 0.087352 0.012448 2.000000
0.465339 -0.047111 0.024657 2.000000
0.465339 0.091917 -0.016344 2.000000
0.465339 -0.011415 0.046686 2.000000
0.465339 -0.010875 -0.006165 2.000000
0.465339 -0.040333 -0.000579 2.000000
0.465339 0.061893 -0.008136 2.000000
0.465339 0.029919 0.062857 2.000000
0.465339 -0.092380 0.003476 2.000000
0.465339 -0.010943 -0.025467 2.000000
0.465339 0.012206 -0.061371 2.000000
0.465339 -0.022124 -0.050563 2.000000
0.465339 0.011833 -0.021877 2.000000
0.465339 -0.006545 -0.088117 2.000000
0.465339 0.093463 0.034533 2.000000
0.465339 -0.039972 -0.018698 2.000000
0.465339 -0.001146 -0.077750 2.000000
0.465339 -0.014749 0.058972 2.000000
0.465339 0.056726 0.002340 2.000000
0.465339 0.005128 -0.075405 2.000000
0.465339 -0.012442 -0.069850 2.000000
0.465339 0.004827 -0.093156 2.000000
0.465339 -0.066828 0.052561 2.000000
0.465339 0.008580 0.069152 2.000000
0.465339 0.023919 -0.054692 2.000000
0.465339 0.062112 -0.056981 2.000000
0.465339 -0.015051 -0.038782 2.000000
0.465339 -0.077111 0.062966 2.000000
0.465339 -0.061123 0.029871 2.000000
0.465339 0.077601 0.011948 2.000000
0.465339 -0.068550 0.034755 2.000000
0.465339 -0.012679 0.056770 2.000000
0.465339 0.076587 -0.049886 2.000000
0.465339 0.094737 -0.019963 2.000000
0.465339 0.013464 0.050068 2.000000
0.465339 -0.056741 0.058079 2.000000
0.465339 -0.085381 0.007293 2.000000
0.465339 0.032896 0.009654 2.000000
0.465339 0.028819 -0.001348 2.000000
0.465339 -0.068664 -0.054503 2.000000
0.465339 0.067270 -0.019644 2.000000
0.465339 0.076459 0.052175 2.000000
0.465339 0.039824 -0.070792 2.000000
0.465339 -0.002505 0.080497 2.000000
0.465339 0.027428 0.073677 2.000000
0.465339 0.009080 -0.016115 2.000000
0.465339 0.065679 0.035047 2.000000
0.465339 0.013463 0.063176 2.000000
0.465339 -0.074088 0.002107 2.000000
0.465339 -0.046418 0.079710 2.000000
0.465339 0.030480 0.014484 2.000000
0.465339 -0.028406 -0.002259 2.000000
0.465339 -0.067921 0.039574 2.000000
0.465339 -0.080778 0.051045 2.000000
0.465339 0.055644 -0.012648 2.000000
0.465339 0.082387 -0.004053 2.000000
0.465339 -0.030652 0.009812 2.000000
0.465339 0.063053 -0.041423 2.000000
0.465339 0.060036 -0.042689 2.000000
0.465339 -0.059463 0.026565 2.000000
0.465339 -0.032803 0.013330 2.000000
0.465339 -0.016709 -0.082990 2.000000
0.465339 0.061610 0.005794 2.000000
0.465339 0.020724 0.047081 2.000000
0.465339 -0.073374 0.029157 2.000000
0.465339 0.044271 0.049195 2.000000
0.465339 0.002188 -0.091332 2.000000
0.465339 0.085416 0.016526 2.000000
0.465339 0.045412 0.058942 2.000000
0.465339 0.038266 -0.069805 2.000000
0.465339 -0.042088 0.081990 2.000000
0.465339 0.050427 0.082204 2.000000
0.465339 -0.082946 0.055461 2.000000
0.465339 0.051564 -0.016780 2.000000
0.465339 0.045997 0.082308 2.000000
0.465339 -0.084917 -0.029814 2.000000
0.465339 0.075695 -0.054841 2.000000
0.465339 0.088824 -0.027435 2.000000
0.465339 -0.073692 0.015831 2.000000
0.465339 -0.019335 -0.079661 2.000000
0.465339 -0.048115 -0.082620 2.000000
0.465339 -0.031942 0.017881 2.000000
0.465339 0.010359 0.004292 2.000000
0.465339 0.019620 -0.003201 2.000000
0.465339 0.006743 0.090223 2.000000
0.465339 0.085107 -0.027150 2.000000
0.465339 0.002610 0.097656 2.000000
0.465339 -0.043578 0.025006 2.000000
0.465339 0.064882 -0.032716 2.000000
0.465339 0.060276 0.006187 2.000000
0.465339 -0.069419 -0.022215 2.000000
0.465339 -0.024591 0.072527 2.000000
0.465339 0.044652 0.088151 2.000000
0.465339 -0.025625 0.009650 2.000000
0.465339 -0.000774 -0.070007 2.000000
0.465339 -0.024787 -0.019471 2.000000
0.465339 0.019370 0.056856 2.000000
0.465339 -0.054132 -0.033291 2.000000
0.465339 0.039796 0.076059 2.000000
0.465339 0.042546 -0.077373 2.000000
0.465339 0.060248 0.029381 2.000000
0.465339 0.015829 0.014206 2.000000
0.465339 0.055652 -0.079658 2.000000
0.465339 0.036244 0.011069 2.000000
0.465339 -0.019445 0.076660 2.000000
0.465339 0.055121 0.071716 2.000000
0.465339 -0.071071 -0.056498 2.000000
0.465339 -0.019401 0.020074 2.000000
0.465339 0.058890 0.075563 2.000000
0.465339 -0.014806 0.012325 2.000000
0.465339 -0.087494 -0.040328 2.000000
0.465339 0.070021 -0.070708 2.000000
0.465339 -0.033981 0.050264 2.000000
0.465339 0.022757 0.007966 2.000000
0.465339 -0.025740 -0.070959 2.000000
0.465339 0.051518 0.044758 2.000000
0.465339 0.015863 0.019642 2.000000
0.465339 -0.035391 0.092402 2.000000
0.465339 -0.018330 0.041843 2.000000
0.465339 0.011127 0.059865 2.000000
0.465339 -0.025561 0.085199 2.000000
0.465339 0.063083 -0.069921 2.000000
0.465339 0.073873 0.017034 2.000000
0.465339 0.065853 -0.061176 2.000000
0.465339 0.043424 0.058551 2.000000
0.465339 0.047188 0.033504 2.000000
0.465339 -0.031120 -0.071024 2.000000
0.465339 0.037633 -0.009891 2.000000
0.465339 0.033206 -0.078426 2.000000
0.465339 -0.003811 0.013084 2.000000
0.465339 -0.038774 -0.004945 2.000000
0.465339 -0.009934 -0.000005 2.000000
0.465339 0.018020 0.068395 2.000000
0.465339 0.042267 0.029916 2.000000
0.465339 -0.093486 -0.005855 2.000000
0.465339 0.004048 0.083773 2.000000
0.465339 0.064890 0.065147 2.000000
0.465339 -0.087591 0.047509 2.000000
0.465339 -0.063040 -0.046694 2.000000
0.465339 0.019807 0.087292 2.000000
0.465339 -0.070184 -0.015385 2.000000
0.465339 0.076324 0.050794 2.000000
0.465339 0.027141 0.000860 2.000000
0.465339 0.096374 -0.014423 2.000000
0.465339 -0.009897 -0.063364 2.000000
0.465339 0.081048 0.011076 2.000000
0.465339 -0.077265 -0.033853 2.000000
0.465339 0.053207 -0.026644 2.000000
0.465339 -0.008966 -0.001160 2.000000
0.465339 0.059201 0.035512 2.000000
0.465339 0.004830 -0.044184 2.000000
0.465339 -0.052173 -0.020380 2.000000
0.465339 0.093074 -0.032097 2.000000
0.465339 -0.079450 0.007593 2.000000
0.465339 -0.061863 -0.042910 2.000000
0.465339 -0.071166 0.067841 2.000000
0.465339 0.063444 -0.013542 2.000000
0.465339 0.028523 0.039154 2.000000
0.465339 -0.074196 0.046064 2.000000
0.465339 0.083618 -0.032508 2.000000
0.465339 0.060387 -0.011877 2.000000
0.465339 0.014067 -0.050560 2.000000
0.465339 0.098159 0.009458 2.000000
0.465339 -0.078319 0.025345 2.000000
0.465339 0.043172 -0.079406 2.000000
0.465339 0.006068 0.027716 2.000000
0.465339 -0.046374 -0.037208 2.000000
0.465339 -0.078840 0.033731 2.000000
0.465339 0.067076 -0.048393 2.000000
0.465339 0.034958 0.043863 2.000000
0.465339 0.022819 -0.002591 2.000000
0.465339 0.059822 -0.034073 2.000000
0.465339 0.058454 -0.061370 2.000000
0.465339 -0.021058 -0.030320 2.000000
0.465339 0.039695 -0.066282 2.000000
0.465339 -0.084743 0.044423 2.000000
0.465339 -0.032194 0.069036 2.000000
0.465339 -0.017485 -0.033308 2.000000
0.465339 -0.028590 0.073131 2.000000
0.465339 0.011032 -0.016154 2.000000
0.465339 0.062672 0.018771 2.000000
0.465339 -0.035284 0.025387 2.000000
0.465339 -0.060129 0.043358 2.000000
0.465339 0.024982 -0.016802 2.000000
0.465339 -0.059785 -0.018785 2.000000
0.465339 -0.083037 0.026774 2.000000
0.465339 -0.044068 -0.016705 2.000000
0.465339 0.007471 0.084540 2.000000
0.465339 0.056931 0.035467 2.000000
0.465339 -0.045506 -0.001453 2.000000
0.465339 0.029218 0.054998 2.000000
0.465339 0.056697 0.055042 2.000000
0.465339 0.038040 0.057848 2.000000
0.465339 0.026765 -0.078798 2.000000
0.465339 -0.080280 0.054022 2.000000
0.465339 0.051945 -0.018686 2.000000
0.465339 0.051000 0.059068 2.000000
0.465339 -0.034239 0.068499 2.000000
0.465339 0.000697 0.051285 2.000000
0.465339 -0.049760 0.084001 2.000000
0.465339 -0.004629 -0.035576 2.000000
0.465339 -0.023161 -0.053434 2.000000
0.465339 -0.039409 0.014725 2.000000
0.465339 -0.081863 0.048947 2.000000
0.465339 0.024475 0.051236 2.000000
0.465339 0.024553 0.019934 2.000000
0.465339 0.063566 0.013280 2.000000
0.465339 -0.022302 -0.090676 2.000000
0.465339 -0.043658 -0.012195 2.000000
0.465339 0.041328 0.022878 2.000000
0.465339 0.015042 -0.043440 2.000000
0.465339 0.062032 -0.036002 2.000000
0.465339 0.063426 0.048093 2.000000
0.465339 0.072441 -0.011372 2.000000
0.465339 0.067375 -0.005167 2.000000
0.465339 0.020652 -0.088401 2.000000
0.465339 -0.019371 -0.038151 2.000000
0.465339 -0.010541 -0.099032 2.000000
0.465339 -0.051696 -0.034397 2.000000
0.465339 0.038605 -0.003292 2.000000
0.465339 0.071956 -0.028624 2.000000
0.465339 0.065964 -0.038132 2.000000
0.465339 0.033587 -0.030151 2.000000
0.465339 0.060810 -0.072455 2.000000
0.465339 -0.060889 0.026045 2.000000
0.465339 0.009443 0.001851 2.000000
0.465339 -0.037254 0.075744 2.000000
0.465339 0.093353 -0.030444 2.000000
0.465339 0.012527 -0.011117 2.000000
0.465339 -0.006336 0.065751 2.000000
0.465339 -0.031757 0.078852 2.000000
0.465339 -0.079693 -0.026519 2.000000
0.465339 -0.047379 -0.028205 2.000000
0.465339 0.061391 -0.051085 2.000000
0.465339 0.039864 0.063910 2.000000
0.465339 0.057080 -0.007168 2.000000
0.465339 0.030740 -0.052171 2.000000
0.465339 0.048614 -0.043068 2.000000
0.465339 0.011285 0.043076 2.000000
0.465339 0.013254 0.027937 2.000000
0.465339 -0.033264 -0.035138 2.000000
0.465339 -0.007011 -0.084375 2.000000
0.465339 0.079808 0.050313 2.000000
0.465339 -0.006323 -0.094560 2.000000
0.465339 -0.023707 0.022594 2.000000
0.465339 0.029356 -0.071846 2.000000
0.465339 0.059028 0.045595 2.000000
0.465339 -0.045237 0.084383 2.000000
0.465339 -0.053139 -0.082174 2.000000
0.465339 -0.039307 -0.084099 2.000000
0.465339 -0.083623 0.043012 2.000000
0.465339 -0.084603 -0.020012 2.000000
0.465339 -0.004679 -0.001480 2.000000
0.465339 -0.052886 0.067531 2.000000
0.465339 0.001839 -0.049219 2.000000
0.465339 0.045839 -0.049950 2.000000
0.465339 0.098776 0.008167 2.000000
0.465339 0.096030 -0.026129 2.000000
0.465339 -0.008650 0.055795 2.000000
0.465339 0.052807 0.058980 2.000000
0.465339 0.071430 0.056990 2.000000
0.465339 -0.052172 -0.066521 2.000000
0.465339 -0.048581 -0.062852 2.000000
0.465339 -0.066901 -0.053193 2.000000
0.465339 -0.049371 0.029194 2.000000
0.465339 -0.073541 -0.052105 2.000000
0.465339 0.018096 -0.039899 2.000000
0.465339 0.018367 0.061712 2.000000
0.465339 0.039859 -0.064314 2.000000
0.465339 -0.060777 0.015169 2.000000
0.465339 -0.071822 0.027318 2.000000
0.465339 0.066340 -0.051591 2.000000
0.465339 -0.077835 0.042983 2.000000
0.465339 -0.006359 -0.032689 2.000000
0.465339 0.052357 0.031856 2.000000
0.465339 0.019440 -0.092495 2.000000
0.465339 -0.007525 0.072845 2.000000
