-0.333338 0.025314 -0.096466 1.000000
-0.229145 0.091412 -0.040239 1.000000
-0.455633 0.063150 -0.077279 3.000000
-0.112572 0.016010 0.098748 1.000000
-0.085576 -0.098557 -0.015038 1.000000
-0.276534 0.084515 0.053603 1.000000
0.055070 -0.058041 -0.081007 1.000000
0.172924 0.095354 -0.029868 1.000000
-0.287031 -0.012695 0.099236 1.000000
0.241581 0.097037 0.024261 1.000000
0.165020 -0.086265 0.050249 1.000000
0.011809 0.077212 0.063686 1.000000
-0.334062 0.066033 -0.074805 1.000000
-0.011484 -0.041722 -0.090500 1.000000
-0.310467 0.007860 0.099734 1.000000
-0.120865 -0.098487 0.015843 1.000000
-0.388730 -0.081332 -0.057595 1.000000
0.242913 -0.059243 0.080491 1.000000
0.249543 0.095295 0.030435 1.000000
-0.248571 -0.096147 0.026698 1.000000
-0.119488 -0.074842 -0.065766 1.000000
-0.005867 0.090707 0.042231 1.000000
0.003214 0.078420 -0.061765 1.000000
0.020957 -0.096790 0.024321 1.000000
-0.164642 -0.008009 -0.099335 1.000000
0.194071 -0.088378 0.046416 1.000000
0.152657 -0.080286 0.059422 1.000000
0.219025 -0.024479 -0.096624 1.000000
-0.072312 -0.099445 0.007829 1.000000
-0.434380 0.069517 -0.071613 3.000000
-0.457335 -0.026242 -0.096128 3.000000
-0.159945 -0.019876 0.098016 1.000000
-0.240255 -0.099312 -0.008876 1.000000
-0.419079 -0.095023 0.030568 1.000000
0.079321 0.094979 -0.031067 1.000000
0.164303 0.007736 0.099746 1.000000
0.152715 -0.099280 -0.009207 1.000000
0.329119 -0.058449 -0.080730 1.000000
-0.051721 0.043562 -0.089734 1.000000
-0.433696 -0.099016 0.012365 3.000000
0.190231 0.029412 0.095638 1.000000
0.179049 -0.008083 0.099691 1.000000
0.141524 -0.064952 -0.075552 1.000000
-0.101165 0.007014 -0.099451 1.000000
0.323176 -0.016636 0.098612 1.000000
-0.405912 0.022270 -0.097170 1.000000
-0.362749 0.090155 -0.043023 1.000000
-0.418941 -0.029481 0.095550 1.000000
0.347504 -0.099600 -0.005299 1.000000
0.023000 -0.074578 -0.066066 1.000000
-0.267818 -0.044685 0.089406 1.000000
-0.203245 -0.060168 0.079774 1.000000
-0.465240 0.075289 -0.065525 3.000000
0.327733 -0.043844 -0.089472 1.000000
-0.307058 -0.014328 0.098977 1.000000
0.370264 -0.031469 -0.094560 1.000000
-0.191549 0.099675 0.007861 1.000000
0.263585 -0.048171 -0.087254 1.000000
0.074874 -0.038024 -0.092100 1.000000
0.046286 0.082023 -0.056921 1.000000
0.329863 -0.099612 -0.004918 1.000000
-0.268994 -0.099615 -0.004816 1.000000
-0.378853 0.096029 -0.027544 1.000000
0.014745 0.056690 0.082447 1.000000
0.276189 0.079085 -0.060908 1.000000
-0.158261 -0.002683 0.099982 1.000000
-0.348487 0.064079 -0.076527 1.000000
-0.000599 -0.028957 -0.095339 1.000000
0.391030 0.087212 0.049044 1.000000
0.055085 0.099770 0.006856 1.000000
0.311748 0.018624 -0.097971 1.000000
-0.210295 0.064808 -0.075885 1.000000
0.450202 -0.027376 0.096161 2.000000
0.062435 -0.083582 0.054646 1.000000
0.009581 -0.099709 0.002183 1.000000
-0.457653 0.084148 0.054157 3.000000
0.008185 0.084358 0.053848 1.000000
0.013130 -0.097128 -0.022447 1.000000
0.315015 -0.078671 0.061504 1.000000
0.227250 -0.058608 0.080984 1.000000
-0.378301 0.083540 0.055052 1.000000
-0.050873 -0.089668 -0.043521 1.000000
0.409580 -0.096087 0.026905 1.000000
0.200390 -0.055419 -0.082789 1.000000
-0.014427 0.066996 -0.073956 1.000000
-0.332510 -0.080983 -0.058107 1.000000
0.015975 0.004310 0.099938 1.000000
0.205032 -0.084588 -0.052723 1.000000
0.130344 0.095254 -0.030214 1.000000
-0.344173 -0.091834 0.039087 1.000000
0.283584 -0.099601 -0.005246 1.000000
-0.223361 -0.099765 0.000413 1.000000
0.445999 -0.059486 -0.079940 2.000000
-0.417057 -0.069039 0.072220 1.000000
0.253707 -0.086916 0.049149 1.000000
0.096277 0.096190 -0.026990 1.000000
-0.061077 -0.080511 0.059132 1.000000
-0.135975 0.023768 -0.096835 1.000000
-0.228876 -0.062737 0.077781 1.000000
-0.035397 0.099900 0.003530 1.000000
0.228473 -0.067826 -0.073019 1.000000
-0.394002 0.020701 0.097883 1.000000
-0.325766 -0.022085 0.097522 1.000000
-0.219392 -0.030703 -0.094832 1.000000
-0.332593 0.085977 -0.050769 1.000000
0.238167 -0.072346 0.068912 1.000000
0.419578 -0.098441 0.016133 1.000000
0.188375 0.095025 -0.030941 1.000000
-0.053602 0.060392 0.079781 1.000000
-0.354717 -0.044444 0.089529 1.000000
-0.045725 -0.098437 0.016155 1.000000
0.098310 0.022383 0.097507 1.000000
-0.121024 0.099615 -0.008129 1.000000
0.034339 -0.086763 0.049408 1.000000
-0.234979 -0.062589 0.077896 1.000000
-0.111012 -0.060577 0.079457 1.000000
-0.446084 -0.095930 -0.027082 3.000000
0.247877 -0.093135 0.035903 1.000000
0.186997 0.096864 -0.024671 1.000000
0.247250 0.099129 -0.012898 1.000000
-0.128497 0.069191 -0.071939 1.000000
0.314702 -0.099144 -0.010653 1.000000
0.144332 0.010627 -0.099109 1.000000
-0.307770 -0.075269 -0.065282 1.000000
-0.142359 -0.062873 -0.077313 1.000000
0.253608 0.099751 -0.006699 1.000000
0.315088 -0.055025 -0.083057 1.000000
-0.431782 0.007660 0.099753 1.000000
0.311517 0.013044 0.099218 1.000000
-0.460220 0.098620 -0.016114 3.000000
-0.230409 -0.038669 0.092184 1.000000
0.151062 -0.097307 0.022011 1.000000
-0.203821 0.098899 0.014715 1.000000
0.065076 0.037865 0.092633 1.000000
-0.181763 0.000033 -0.099705 1.000000
-0.313825 -0.079672 0.060213 1.000000
0.152251 0.088397 -0.046474 1.000000
0.082863 0.056885 0.082315 1.000000
0.295016 -0.014352 -0.098611 1.000000
0.163815 0.054678 -0.083452 1.000000
-0.348534 -0.091746 -0.038927 1.000000
0.024701 0.099965 0.001456 1.000000
-0.172000 -0.073720 -0.067038 1.000000
0.348891 0.081780 -0.057279 1.000000
0.257719 0.037153 0.092941 1.000000
0.232308 -0.076051 -0.064395 1.000000
-0.107324 0.097398 0.022646 1.000000
-0.019641 -0.083104 -0.054987 1.000000
-0.421284 -0.061963 -0.078019 1.000000
0.220415 0.050098 0.086615 1.000000
0.242266 0.010933 0.099443 1.000000
0.111505 0.099492 -0.009439 1.000000
-0.132257 0.099163 0.013047 1.000000
0.041484 -0.008386 -0.099299 1.000000
0.384471 0.065128 -0.075603 1.000000
-0.070616 0.046323 -0.088328 1.000000
0.120930 0.093314 0.036056 1.000000
0.103053 -0.052702 0.084937 1.000000
-0.251033 0.094326 0.033245 1.000000
-0.222826 0.032816 0.094522 1.000000
0.186760 -0.073605 0.067532 1.000000
-0.038167 0.032804 0.094526 1.000000
0.441066 -0.019684 0.098059 2.000000
-0.152588 -0.093170 -0.035443 1.000000
0.352842 0.074943 0.066280 1.000000
-0.379660 0.092653 0.037732 1.000000
0.171807 -0.056420 0.082472 1.000000
-0.089437 0.051153 -0.085628 1.000000
0.281635 0.068102 0.073344 1.000000
-0.139286 0.097551 -0.021602 1.000000
0.399991 0.096306 0.026955 1.000000
-0.456946 -0.081020 0.058416 3.000000
0.326240 -0.037197 -0.092458 1.000000
-0.449041 -0.071885 0.069374 3.000000
0.416734 0.082003 0.057313 1.000000
-0.029177 0.063374 0.077468 1.000000
-0.443869 0.094095 -0.033524 3.000000
-0.220891 0.078974 0.061414 1.000000
0.140804 -0.062691 0.077817 1.000000
-0.086362 0.027428 -0.095852 1.000000
0.433589 -0.081457 0.057773 2.000000
0.141878 0.094036 -0.033687 1.000000
-0.368429 0.061511 0.078913 1.000000
0.382426 0.081421 -0.057807 1.000000
-0.278530 -0.036311 -0.092816 1.000000
0.343861 -0.099770 0.000134 1.000000
0.066107 0.096452 -0.026090 1.000000
0.112717 0.003504 -0.099601 1.000000
-0.388625 -0.097408 -0.021195 1.000000
0.141094 -0.010434 0.099468 1.000000
-0.330532 0.098452 -0.017174 1.000000
0.395546 0.024602 -0.096649 1.000000
0.347970 -0.053124 0.084687 1.000000
0.128837 -0.091243 0.040452 1.000000
-0.155934 0.099377 -0.010656 1.000000
0.084371 0.040044 -0.091327 1.000000
-0.193880 0.087421 0.048690 1.000000
-0.333860 -0.094920 0.030921 1.000000
-0.326463 0.086276 0.050627 1.000000
-0.035168 -0.097072 0.023064 1.000000
-0.237973 0.056429 -0.082262 1.000000
0.105720 -0.016772 0.098590 1.000000
0.065763 -0.037475 -0.092338 1.000000
-0.312331 0.096919 -0.024426 1.000000
-0.196463 -0.011820 -0.098975 1.000000
0.217601 0.093531 -0.035088 1.000000
-0.417750 0.058002 -0.081193 1.000000
0.103619 -0.010044 -0.099143 1.000000
-0.000575 -0.010735 0.099440 1.000000
-0.319913 0.095888 -0.028029 1.000000
0.185715 0.020954 -0.097464 1.000000
0.279077 -0.043767 0.089874 1.000000
0.307473 0.065665 -0.075129 1.000000
0.339697 -0.034906 0.093685 1.000000
-0.428876 -0.056888 -0.081791 1.000000
-0.157267 0.095534 0.029613 1.000000
0.435023 -0.068693 0.072566 2.000000
-0.298993 0.068677 0.072816 1.000000
0.106366 0.080398 0.059578 1.000000
-0.394783 -0.054540 0.083750 1.000000
0.309295 -0.028322 0.095887 1.000000
-0.343712 -0.067397 0.073759 1.000000
0.061334 -0.086916 0.049149 1.000000
-0.066935 -0.046694 -0.088020 1.000000
0.246600 0.090997 -0.041197 1.000000
-0.368924 0.057720 -0.081384 1.000000
0.060346 0.099646 -0.007805 1.000000
-0.116095 0.045768 -0.088611 1.000000
-0.464504 -0.079806 0.060040 3.000000
-0.295487 -0.004485 0.099925 1.000000
-0.228441 0.048111 -0.087417 1.000000
-0.461414 -0.017491 -0.098114 3.000000
-0.142512 -0.045450 0.089016 1.000000
0.156211 -0.010886 -0.099063 1.000000
0.038399 0.082485 -0.056241 1.000000
-0.126566 0.090537 0.042623 1.000000
0.119921 -0.094568 0.031923 1.000000
-0.039565 -0.095175 -0.029682 1.000000
0.160007 -0.079984 0.059810 1.000000
0.083986 0.002700 -0.099626 1.000000
0.135016 0.040078 -0.091312 1.000000
-0.137976 0.045985 -0.088500 1.000000
0.167145 0.006039 -0.099521 1.000000
0.193850 0.072166 -0.068964 1.000000
-0.426955 -0.074589 0.066416 3.000000
0.443407 0.083117 0.055675 2.000000
-0.374707 -0.046720 -0.088006 1.000000
-0.208759 -0.011948 -0.098963 1.000000
-0.453074 0.092258 -0.038284 3.000000
-0.140633 0.015547 0.098821 1.000000
-0.000016 -0.004820 0.099915 1.000000
0.023204 -0.055352 0.083198 1.000000
0.259034 0.098109 -0.019102 1.000000
-0.249833 -0.098038 0.018676 1.000000
-0.385256 -0.066050 0.074947 1.000000
-0.016624 -0.054834 -0.083187 1.000000
-0.244981 0.038202 -0.092124 1.000000
0.121587 -0.050174 -0.086069 1.000000
0.234266 0.037303 -0.092513 1.000000
-0.115095 0.099327 -0.011185 1.000000
-0.044839 -0.067434 0.073727 1.000000
-0.163889 0.050607 0.086314 1.000000
-0.031492 0.093764 -0.034443 1.000000
0.136457 -0.026892 0.096302 1.000000
-0.094241 -0.067837 0.073372 1.000000
0.059053 0.072713 0.068779 1.000000
-0.010192 -0.030601 0.095225 1.000000
0.142396 -0.048226 -0.087221 1.000000
-0.292697 0.057565 0.081852 1.000000
-0.205090 -0.099738 -0.000910 1.000000
0.112378 -0.038033 -0.092096 1.000000
-0.291301 0.079239 -0.060710 1.000000
0.041976 0.098630 -0.016050 1.000000
0.170338 0.098093 -0.019177 1.000000
-0.361952 -0.000668 0.100045 1.000000
0.358512 0.099894 -0.003343 1.000000
-0.154122 0.095910 -0.027955 1.000000
-0.190141 0.078361 0.062204 1.000000
-0.053534 0.087488 -0.048214 1.000000
-0.294435 0.050678 0.086272 1.000000
0.043431 0.054433 0.083981 1.000000
0.458231 0.053525 -0.084225 2.000000
0.315430 0.084130 0.054183 1.000000
-0.428609 -0.000695 -0.099682 1.000000
-0.375452 -0.005098 0.099906 1.000000
-0.465778 -0.066164 -0.074484 3.000000
-0.066120 0.051862 0.085571 1.000000
-0.029106 0.099255 0.012304 1.000000
0.190659 -0.092069 -0.038180 1.000000
0.005073 0.035309 -0.093261 1.000000
0.196695 0.085732 0.051546 1.000000
0.381276 -0.099610 -0.004976 1.000000
0.330187 -0.077770 -0.062303 1.000000
-0.177255 0.099880 0.004179 1.000000
-0.230847 0.034980 0.093742 1.000000
0.346196 -0.096939 0.023656 1.000000
-0.367987 0.033867 0.094143 1.000000
0.353524 -0.093409 -0.034781 1.000000
-0.129083 0.022904 -0.097028 1.000000
-0.244535 0.087620 0.048353 1.000000
0.303331 -0.079872 -0.059592 1.000000
-0.454834 0.087205 -0.048693 3.000000
0.333735 -0.090997 -0.040658 1.000000
-0.262936 0.013739 -0.098745 1.000000
-0.095723 -0.017245 -0.098153 1.000000
-0.164224 -0.096762 0.024450 1.000000
-0.078147 -0.098111 -0.017851 1.000000
0.318573 -0.005563 0.099892 1.000000
-0.368416 -0.017541 0.098469 1.000000
0.398978 0.088093 0.047434 1.000000
-0.196886 0.033848 0.094150 1.000000
0.098864 0.099862 -0.004360 1.000000
-0.432234 -0.059004 0.080677 3.000000
-0.452332 -0.031261 0.094997 3.000000
-0.319297 0.031313 -0.094700 1.000000
-0.128569 0.087981 0.047653 1.000000
-0.295458 -0.083230 -0.054801 1.000000
-0.329803 -0.039322 -0.091539 1.000000
-0.117494 0.041285 0.091153 1.000000
0.238503 -0.081165 -0.057840 1.000000
-0.364515 -0.007462 -0.099387 1.000000
0.104924 0.099957 0.001705 1.000000
-0.209014 -0.074843 -0.065765 1.000000
0.127457 0.093330 -0.035647 1.000000
-0.044182 0.030677 -0.094907 1.000000
-0.324004 -0.092671 0.037152 1.000000
0.440136 -0.081631 0.057517 2.000000
-0.098809 0.004883 0.099920 1.000000
-0.089428 -0.012024 -0.098955 1.000000
-0.233008 -0.094710 0.031528 1.000000
0.048153 -0.068620 0.072639 1.000000
0.240341 -0.081921 0.057091 1.000000
0.109874 0.092035 -0.038800 1.000000
0.348906 0.095761 0.028829 1.000000
-0.303687 -0.060060 -0.079495 1.000000
0.350864 0.099563 0.009048 1.000000
-0.121646 -0.094431 -0.031941 1.000000
0.218427 -0.090028 -0.042815 1.000000
0.327499 -0.076802 0.063906 1.000000
-0.048089 -0.074455 0.066568 1.000000
0.134878 0.099616 0.008483 1.000000
-0.211288 0.099129 0.013258 1.000000
-0.387261 0.082949 0.055921 1.000000
0.408855 0.032083 -0.094423 1.000000
-0.339147 0.099925 -0.002358 1.000000
-0.023916 0.097170 0.023668 1.000000
0.268729 -0.065103 0.075782 1.000000
0.020693 -0.057386 -0.081453 1.000000
0.161785 0.008106 -0.099348 1.000000
-0.338599 0.060291 -0.079497 1.000000
0.297760 0.099894 0.003705 1.000000
-0.450131 -0.020133 0.097958 3.000000
0.277213 -0.057336 0.081849 1.000000
0.255145 -0.076002 0.064814 1.000000
-0.413819 0.096345 -0.026459 1.000000
-0.181864 0.099525 0.009445 1.000000
-0.441112 -0.067700 -0.073129 3.000000
-0.091191 -0.059433 -0.079981 1.000000
0.193146 -0.095465 0.029046 1.000000
-0.199777 -0.087312 -0.048117 1.000000
0.212158 -0.077601 -0.062520 1.000000
0.348556 -0.079853 -0.059617 1.000000
-0.380115 0.014873 -0.098565 1.000000
-0.451029 -0.099613 0.005231 3.000000
0.376355 0.083509 0.055097 1.000000
-0.039768 0.052890 0.084964 1.000000
0.149122 0.082058 0.057232 1.000000
-0.314529 0.099605 -0.008236 1.000000
-0.182480 -0.097208 0.022454 1.000000
-0.365248 0.011565 0.099384 1.000000
0.174352 -0.062008 0.078346 1.000000
-0.246684 0.027786 -0.095747 1.000000
-0.324344 0.033708 0.094200 1.000000
-0.153687 -0.083042 -0.055078 1.000000
0.267991 0.099405 0.010715 1.000000
-0.023675 -0.044292 -0.089244 1.000000
-0.348057 0.070839 0.070653 1.000000
-0.022238 -0.081126 0.058259 1.000000
0.124163 0.098090 0.019550 1.000000
-0.374647 -0.091144 -0.040319 1.000000
0.385522 0.088685 0.046271 1.000000
0.112546 0.094754 -0.031693 1.000000
-0.015814 0.095430 0.029970 1.000000
0.457904 -0.058242 0.081234 2.000000
-0.402529 -0.060838 0.079254 1.000000
-0.050280 0.095320 -0.029985 1.000000
-0.044059 0.096738 0.025467 1.000000
-0.217319 -0.027038 0.096260 1.000000
0.464903 -0.095879 -0.027256 2.000000
0.203499 0.097686 0.021361 1.000000
0.153624 -0.077250 -0.062973 1.000000
-0.129239 -0.037068 -0.092514 1.000000
0.376903 0.056090 0.082855 1.000000
0.400416 0.018783 0.098309 1.000000
0.237092 -0.028460 0.095847 1.000000
0.237505 0.097663 -0.021100 1.000000
0.168621 0.012579 -0.098925 1.000000
0.426551 -0.030895 0.095129 2.000000
0.100954 -0.087899 -0.046993 1.000000
-0.269980 -0.084096 -0.053527 1.000000
-0.296704 0.098651 0.016277 1.000000
0.008164 -0.023337 -0.096879 1.000000
0.052619 -0.071397 0.069862 1.000000
0.440499 -0.085761 -0.050739 2.000000
0.052598 -0.050084 -0.086122 1.000000
-0.408431 0.098666 -0.015819 1.000000
0.344956 -0.022332 0.097467 1.000000
0.253553 0.074958 0.066262 1.000000
0.273871 -0.002034 -0.099640 1.000000
0.149993 0.099853 0.005018 1.000000
-0.003277 -0.099347 0.008864 1.000000
-0.227764 -0.021665 0.097616 1.000000
-0.400666 -0.068076 -0.072798 1.000000
-0.372253 0.029365 0.095651 1.000000
-0.246044 0.095779 -0.028405 1.000000
0.063343 -0.054839 -0.083184 1.000000
0.196641 0.045352 0.089185 1.000000
0.408201 -0.008258 -0.099311 1.000000
-0.041618 -0.099638 0.004435 1.000000
0.071438 0.077413 -0.063063 1.000000
-0.171860 0.099848 -0.004808 1.000000
-0.215326 -0.017185 -0.098162 1.000000
-0.232570 -0.018588 -0.097940 1.000000
-0.389488 0.075582 -0.065192 1.000000
-0.182961 0.085969 0.051145 1.000000
-0.015958 -0.093498 0.034897 1.000000
0.442779 0.084418 -0.053396 2.000000
0.336474 -0.015782 -0.098384 1.000000
-0.183166 0.070122 0.071371 1.000000
0.275523 -0.031312 0.094979 1.000000
0.210657 0.052666 -0.084733 1.000000
0.099472 -0.092273 -0.037710 1.000000
-0.259137 -0.030849 0.095146 1.000000
-0.448521 0.031819 -0.094518 3.000000
0.055349 0.054172 -0.083796 1.000000
0.414465 0.048906 -0.086957 1.000000
-0.110842 0.053763 -0.084073 1.000000
-0.239755 0.034475 0.093924 1.000000
-0.094311 0.098111 0.019458 1.000000
0.284023 -0.077413 -0.062763 1.000000
-0.085302 -0.048215 -0.087227 1.000000
0.379969 -0.023085 -0.096936 1.000000
0.252320 -0.010337 0.099478 1.000000
-0.050322 -0.027180 0.096218 1.000000
0.155478 -0.067555 0.073620 1.000000
-0.078315 -0.071397 0.069862 1.000000
-0.063043 -0.085010 -0.052009 1.000000
0.267417 -0.081692 -0.057064 1.000000
-0.072730 0.094373 -0.032751 1.000000
-0.317524 0.039682 -0.091484 1.000000
-0.044471 0.020851 0.097850 1.000000
-0.153914 0.099969 0.001340 1.000000
-0.354635 0.099817 0.006167 1.000000
0.215761 -0.087540 0.048060 1.000000
0.443893 0.090781 -0.041696 2.000000
-0.090288 0.032281 -0.094351 1.000000
-0.284545 -0.098031 -0.018355 1.000000
-0.403993 0.068611 -0.072519 1.000000
-0.443394 -0.083269 0.055107 3.000000
0.326324 -0.062825 -0.077350 1.000000
-0.256073 0.041292 0.091150 1.000000
-0.054078 0.020493 -0.097567 1.000000
-0.020619 0.068440 -0.072683 1.000000
0.280832 0.053808 0.084406 1.000000
0.179520 0.015869 0.098770 1.000000
-0.171289 -0.099623 0.004909 1.000000
-0.119446 -0.046974 -0.087877 1.000000
-0.109170 0.042695 0.090539 1.000000
0.196324 -0.072055 -0.068841 1.000000
0.394165 -0.079351 0.060627 1.000000
0.026599 0.007093 -0.099444 1.000000
0.148487 -0.062477 -0.077620 1.000000
0.164617 -0.099691 -0.002399 1.000000
0.362020 -0.079026 0.061046 1.000000
-0.052620 -0.094359 0.032505 1.000000
0.334097 0.063432 -0.077060 1.000000
-0.441803 0.049552 0.086937 3.000000
-0.316965 -0.095204 0.029943 1.000000
-0.352634 -0.069169 -0.071727 1.000000
0.204579 0.091869 -0.039181 1.000000
-0.288263 0.003451 0.099965 1.000000
0.267140 -0.025451 0.096721 1.000000
0.407145 0.067494 0.073879 1.000000
-0.251345 0.013512 0.099144 1.000000
-0.361675 0.061151 0.079192 1.000000
0.291593 0.073693 0.067697 1.000000
0.067226 0.093906 0.034410 1.000000
0.375087 -0.078963 0.061127 1.000000
-0.373565 -0.011597 -0.098996 1.000000
-0.325246 0.051025 -0.085704 1.000000
0.395506 0.099958 0.001676 1.000000
-0.017340 -0.090734 0.041629 1.000000
0.319158 0.080702 0.059186 1.000000
0.104691 -0.017435 -0.098122 1.000000
0.281767 0.043100 0.090332 1.000000
0.158133 -0.088952 0.045290 1.000000
0.039615 -0.018218 0.098361 1.000000
0.317434 0.082597 -0.056077 1.000000
0.427266 0.088238 -0.046786 1.000000
0.003580 -0.098686 -0.014218 1.000000
-0.394562 0.023701 -0.096850 1.000000
-0.377970 0.063069 0.077704 1.000000
-0.407981 -0.090090 0.043055 1.000000
0.407058 -0.093282 -0.035132 1.000000
-0.276008 -0.047198 -0.087763 1.000000
-0.187903 -0.045902 0.088786 1.000000
-0.155607 -0.073659 0.067471 1.000000
0.064016 -0.076957 -0.063351 1.000000
0.343196 0.091646 0.040062 1.000000
0.156876 0.099756 -0.006645 1.000000
-0.015491 0.092923 0.037108 1.000000
0.294733 0.099504 -0.009313 1.000000
-0.267912 0.039686 -0.091482 1.000000
-0.006187 0.098420 0.017737 1.000000
0.266155 0.069782 -0.071347 1.000000
0.451420 -0.004240 -0.099570 2.000000
-0.189297 -0.087007 0.048996 1.000000
0.393647 -0.095329 0.029513 1.000000
0.458764 -0.097694 0.020279 2.000000
0.298303 0.005818 -0.099528 1.000000
-0.210696 -0.027814 -0.095671 1.000000
0.217931 -0.098838 -0.013259 1.000000
0.235427 0.065919 -0.074906 1.000000
-0.229120 0.071819 -0.069310 1.000000
-0.416481 0.046840 0.088427 1.000000
-0.177867 -0.091010 -0.040628 1.000000
-0.160103 0.087887 0.047837 1.000000
-0.289726 -0.078178 0.062139 1.000000
0.160177 0.089485 -0.044339 1.000000
0.414752 -0.001248 0.100027 1.000000
-0.217948 -0.059230 -0.080139 1.000000
-0.233951 -0.099353 0.008802 1.000000
-0.140287 0.017588 -0.098135 1.000000
0.140032 -0.068785 0.072474 1.000000
-0.407308 0.072310 -0.068820 1.000000
0.080308 -0.096766 -0.024067 1.000000
-0.268642 0.065561 0.075584 1.000000
0.098824 0.084986 -0.052444 1.000000
-0.110313 0.041663 -0.090626 1.000000
-0.083895 -0.094837 -0.030813 1.000000
0.194155 -0.004119 -0.099574 1.000000
0.128008 -0.014473 0.098954 1.000000
0.323359 0.028067 -0.095666 1.000000
0.119440 -0.083916 -0.053792 1.000000
0.354432 -0.072509 0.068749 1.000000
-0.122704 -0.096937 0.023666 1.000000
0.418869 -0.043329 -0.089734 1.000000
0.249622 -0.003537 0.099955 1.000000
0.357869 0.071417 -0.069712 1.000000
-0.292597 -0.052901 0.084819 1.000000
-0.249806 0.074819 0.066420 1.000000
0.405955 -0.070626 0.070633 1.000000
-0.199791 0.015621 -0.098447 1.000000
0.192729 0.093652 -0.034753 1.000000
0.028826 0.066447 -0.074440 1.000000
0.249227 -0.080628 -0.058618 1.000000
-0.255366 -0.047080 -0.087823 1.000000
0.100233 0.004362 0.099937 1.000000
-0.143959 0.093114 0.036611 1.000000
-0.021381 0.018917 -0.097919 1.000000
0.399030 -0.056007 -0.082390 1.000000
0.351770 0.091768 -0.039415 1.000000
-0.415826 0.098758 0.015601 1.000000
0.207744 -0.088715 -0.045392 1.000000
-0.188875 -0.031521 -0.094541 1.000000
0.322704 -0.058346 -0.080800 1.000000
-0.084545 0.096659 0.025738 1.000000
-0.354011 0.037634 -0.092370 1.000000
0.252670 0.032045 0.094799 1.000000
-0.256220 0.097391 -0.022318 1.000000
0.110948 0.051293 0.085908 1.000000
-0.005141 0.099272 -0.011765 1.000000
0.189873 0.089363 0.044941 1.000000
0.117881 -0.071382 -0.069514 1.000000
0.347251 -0.066871 0.074223 1.000000
0.319847 0.068666 -0.072464 1.000000
0.194595 -0.074221 0.066834 1.000000
-0.321778 0.091982 0.039284 1.000000
0.224248 -0.034781 -0.093367 1.000000
0.410478 0.064425 -0.076222 1.000000
-0.425815 0.093891 -0.034090 1.000000
-0.047438 -0.068674 -0.072222 1.000000
0.023409 0.008322 0.099690 1.000000
-0.149267 -0.016610 0.098616 1.000000
0.417457 -0.084530 -0.052821 1.000000
0.090410 -0.056921 -0.081769 1.000000
0.374985 0.073988 -0.066999 1.000000
0.464960 0.044690 -0.089160 2.000000
-0.317284 -0.039586 0.091787 1.000000
-0.029224 0.097868 -0.020182 1.000000
-0.336511 -0.097707 -0.019859 1.000000
0.225233 -0.000152 0.100062 1.000000
-0.466284 0.053245 0.084753 3.000000
-0.290998 0.081116 0.058619 1.000000
0.418943 -0.081181 0.058180 2.000000
-0.089633 0.065900 0.075285 1.000000
-0.045801 0.068141 -0.072947 1.000000
-0.291120 0.004832 -0.099559 1.000000
-0.321949 -0.092676 -0.036777 1.000000
-0.248116 -0.025802 0.096619 1.000000
0.080107 0.062261 -0.077968 1.000000
0.177603 -0.067520 0.073651 1.000000
-0.396197 0.003683 -0.099595 1.000000
-0.360898 -0.099646 -0.003832 1.000000
-0.198635 -0.090584 -0.041613 1.000000
-0.364360 -0.099744 0.001057 1.000000
-0.295635 0.003154 0.099975 1.000000
-0.432338 -0.080685 0.058907 3.000000
0.178509 -0.002294 0.099994 1.000000
-0.245034 -0.089207 0.044788 1.000000
0.420645 -0.060262 0.079701 2.000000
0.059305 -0.028572 -0.095451 1.000000
0.058892 -0.049491 0.086836 1.000000
-0.277656 0.073021 -0.068096 1.000000
-0.267940 -0.044726 -0.089022 1.000000
-0.298201 0.055364 0.083349 1.000000
-0.182016 0.094287 -0.032989 1.000000
0.211509 -0.012683 0.099238 1.000000
-0.043550 -0.006125 -0.099511 1.000000
0.086837 -0.033707 -0.093754 1.000000
0.197984 0.088964 -0.045362 1.000000
0.259795 0.075984 0.065099 1.000000
-0.175285 0.099147 0.013145 1.000000
-0.431694 -0.089086 0.045026 3.000000
0.088415 0.035999 -0.093013 1.000000
-0.201493 0.067777 0.073630 1.000000
0.429184 0.083922 -0.054126 1.000000
0.089379 -0.091902 0.038929 1.000000
0.128867 0.024237 0.097093 1.000000
0.375768 -0.093323 -0.035019 1.000000
0.165926 0.095730 0.028937 1.000000
-0.430133 0.022812 -0.097049 3.000000
0.078419 -0.023521 -0.096838 1.000000
-0.001999 -0.085582 0.051404 1.000000
0.038291 -0.082371 -0.056065 1.000000
-0.203322 -0.015480 -0.098432 1.000000
-0.298346 -0.098534 -0.015178 1.000000
-0.303577 0.099280 0.012044 1.000000
0.128692 -0.000649 -0.099683 1.000000
0.457937 -0.070436 0.070823 2.000000
0.342882 0.014249 0.099027 1.000000
0.364943 -0.012195 -0.098939 1.000000
-0.303559 -0.076379 0.064386 1.000000
-0.313004 0.099284 0.011993 1.000000
0.207456 0.099986 0.000778 1.000000
-0.103770 -0.088605 0.045971 1.000000
0.045526 0.060697 -0.079182 1.000000
-0.164721 -0.092198 0.038246 1.000000
-0.434718 0.092682 0.037665 1.000000
-0.145743 0.066324 0.074911 1.000000
-0.319660 -0.085671 0.051254 1.000000
-0.337203 0.071104 -0.070025 1.000000
0.006366 -0.015813 -0.098379 1.000000
-0.428163 0.068552 0.072940 1.000000
0.425975 0.050782 -0.085847 1.000000
-0.196239 -0.099732 -0.001076 1.000000
-0.222509 -0.099487 -0.007017 1.000000
0.168099 0.080765 0.059105 1.000000
-0.267120 0.052162 0.085394 1.000000
0.359145 0.093929 0.034346 1.000000
0.376066 -0.023965 0.097102 1.000000
0.075408 0.080328 0.059668 1.000000
0.118078 -0.018714 -0.097913 1.000000
-0.200124 -0.066682 0.074390 1.000000
0.254834 0.008472 0.099676 1.000000
0.458028 0.027060 -0.095958 2.000000
-0.196262 -0.070996 -0.069900 1.000000
-0.188704 -0.095797 0.027902 1.000000
-0.283715 0.061298 0.079078 1.000000
-0.231103 -0.024594 -0.096598 1.000000
-0.353477 -0.013494 -0.098747 1.000000
-0.041048 -0.076217 0.064569 1.000000
0.159784 0.098687 0.016051 1.000000
0.237416 -0.099588 0.006043 1.000000
0.335843 0.069351 -0.071779 1.000000
-0.305070 -0.071844 -0.069052 1.000000
0.204743 -0.076198 -0.064228 1.000000
-0.094062 -0.052490 0.085062 1.000000
-0.105050 -0.034380 0.093874 1.000000
0.388617 0.010642 0.099471 1.000000
-0.200366 -0.016492 0.098635 1.000000
-0.011232 -0.020664 0.097840 1.000000
-0.418182 0.098600 -0.016239 1.000000
-0.312457 0.091113 -0.040930 1.000000
-0.228645 0.062248 0.078342 1.000000
-0.255819 0.057469 -0.081555 1.000000
0.051150 0.088262 -0.046740 1.000000
-0.450989 0.089134 0.045390 3.000000
0.173093 -0.010498 0.099462 1.000000
0.341719 -0.041202 0.091088 1.000000
-0.375708 -0.097773 -0.019561 1.000000
-0.337304 -0.087786 0.047577 1.000000
-0.052860 0.070005 -0.071125 1.000000
-0.010292 0.085696 -0.051244 1.000000
0.245678 -0.097664 0.020413 1.000000
0.136582 0.015598 0.098813 1.000000
-0.059177 -0.066206 -0.074447 1.000000
0.080772 0.039822 0.091786 1.000000
-0.218800 -0.054014 0.084107 1.000000
-0.239738 -0.068924 0.072334 1.000000
0.181422 -0.034347 -0.093523 1.000000
0.404399 0.009696 0.099560 1.000000
0.371745 0.097500 -0.021829 1.000000
0.421590 -0.003008 -0.099609 1.000000
-0.151287 0.083015 -0.055461 1.000000
-0.109262 0.097070 -0.023751 1.000000
-0.160184 0.100001 0.000047 1.000000
-0.195052 -0.013942 0.099039 1.000000
0.326017 -0.051888 -0.085055 1.000000
0.314307 -0.038678 0.092180 1.000000
0.264035 -0.015390 -0.098446 1.000000
0.222896 0.033166 0.094396 1.000000
-0.132934 0.044565 0.089586 1.000000
-0.354942 0.078160 0.062463 1.000000
-0.393204 -0.095193 -0.029619 1.000000
-0.005726 0.012275 -0.098954 1.000000
-0.216905 -0.072131 0.069128 1.000000
0.139044 0.055559 0.083215 1.000000
-0.338630 0.020065 -0.097663 1.000000
0.292867 -0.067881 -0.072970 1.000000
0.445889 -0.040585 0.091355 2.000000
-0.449031 0.089511 -0.044288 3.000000
0.020401 0.029784 -0.095167 1.000000
-0.316122 0.093353 0.035946 1.000000
0.105479 -0.099660 -0.003386 1.000000
-0.440786 0.000825 0.100048 3.000000
0.397308 -0.021510 -0.097288 1.000000
0.356933 -0.034167 -0.093588 1.000000
0.359169 0.075072 0.066133 1.000000
0.115623 0.055682 -0.082770 1.000000
0.255605 0.099630 0.008338 1.000000
0.226943 -0.099664 0.003609 1.000000
-0.458341 0.097952 0.020171 3.000000
0.212046 -0.084244 -0.053305 1.000000
-0.368889 -0.062757 0.077766 1.000000
-0.350155 -0.089246 0.044712 1.000000
-0.388968 0.061190 -0.078799 1.000000
-0.367247 -0.057783 -0.081183 1.000000
0.372963 0.051179 -0.085613 1.000000
-0.107425 0.093833 0.034614 1.000000
0.100849 -0.011665 0.099352 1.000000
-0.363595 -0.035514 0.093466 1.000000
-0.200041 -0.034881 0.093694 1.000000
-0.165910 -0.073508 -0.067280 1.000000
-0.340299 0.098461 0.017480 1.000000
0.320918 0.030585 0.095297 1.000000
0.119320 0.084864 -0.052651 1.000000
-0.175763 -0.017839 -0.098059 1.000000
0.127380 -0.098387 -0.016106 1.000000
-0.245979 0.052057 -0.085093 1.000000
0.136498 0.042966 0.090401 1.000000
-0.238282 0.008856 -0.099277 1.000000
-0.453105 -0.076913 0.063770 3.000000
0.280816 0.089850 -0.043622 1.000000
-0.462234 -0.090297 -0.042276 3.000000
-0.346137 0.050056 -0.086277 1.000000
0.231368 -0.041838 -0.090450 1.000000
0.409897 0.038562 0.092331 1.000000
0.362439 0.079584 0.060628 1.000000
-0.099056 -0.079462 -0.060121 1.000000
-0.417803 -0.021420 -0.097308 1.000000
-0.465455 -0.095172 0.030054 3.000000
0.086934 -0.061116 -0.078676 1.000000
-0.134011 -0.005654 -0.099526 1.000000
-0.109946 -0.016754 -0.098230 1.000000
0.309009 -0.060177 0.079767 1.000000
0.053351 0.093392 0.035839 1.000000
0.399148 0.098441 -0.017244 1.000000
0.464769 -0.097030 0.023251 2.000000
0.298171 0.023117 -0.096981 1.000000
-0.289507 0.054741 -0.083409 1.000000
0.073717 -0.000831 -0.099677 1.000000
0.355082 0.066284 -0.074584 1.000000
0.233262 0.025182 0.096867 1.000000
-0.444493 0.066148 0.075066 3.000000
-0.121840 0.062306 -0.077934 1.000000
-0.006008 -0.098571 0.015311 1.000000
0.199049 -0.043383 -0.089706 1.000000
0.398906 0.073317 0.068123 1.000000
-0.351112 -0.099588 0.006047 1.000000
0.298268 -0.071498 -0.069398 1.000000
-0.216671 0.043642 0.090056 1.000000
0.303205 0.009688 -0.099198 1.000000
0.144675 -0.040349 0.091457 1.000000
0.381347 -0.091300 -0.039957 1.000000
0.092040 -0.081537 -0.057293 1.000000
0.283217 -0.049208 0.087003 1.000000
0.302916 -0.068628 -0.072268 1.000000
0.057011 -0.092321 -0.037599 1.000000
-0.203139 0.094770 0.032010 1.000000
0.410550 0.090387 0.042930 1.000000
0.144170 -0.096437 0.025698 1.000000
0.253138 -0.098276 0.017173 1.000000
-0.124668 0.028217 0.095985 1.000000
0.125458 -0.045677 -0.088538 1.000000
-0.057015 -0.045993 0.088740 1.000000
0.010942 -0.099635 -0.004190 1.000000
0.004752 0.082518 -0.056192 1.000000
-0.107037 0.099904 -0.003033 1.000000
-0.301536 0.091433 -0.040189 1.000000
0.308570 -0.098683 0.014601 1.000000
-0.237733 0.082373 0.056769 1.000000
-0.006962 0.095434 0.029954 1.000000
0.311976 -0.098024 -0.018402 1.000000
-0.263529 0.096620 -0.025511 1.000000
-0.184448 0.077127 -0.063432 1.000000
0.022811 -0.045261 -0.088750 1.000000
-0.125793 -0.099623 -0.004547 1.000000
0.103047 -0.030937 0.095114 1.000000
0.393423 0.090694 0.042260 1.000000
-0.123016 0.072401 -0.068729 1.000000
0.130582 -0.038088 -0.092073 1.000000
-0.239231 0.041421 -0.090731 1.000000
-0.320081 -0.081973 0.057013 1.000000
-0.267731 -0.027227 -0.095842 1.000000
-0.174207 -0.036388 0.093151 1.000000
-0.237021 0.016393 -0.098324 1.000000
-0.228467 0.034313 -0.093620 1.000000
-0.325225 -0.095200 0.029956 1.000000
0.111468 -0.088676 0.045830 1.000000
-0.372781 0.057240 0.082073 1.000000
-0.295404 0.084582 -0.053128 1.000000
0.129686 -0.066765 0.074317 1.000000
0.145502 0.023376 -0.096923 1.000000
0.233151 -0.033835 0.094071 1.000000
-0.008713 0.049309 0.087081 1.000000
-0.337231 0.009706 0.099559 1.000000
0.360329 -0.095083 -0.029998 1.000000
-0.228607 -0.059410 -0.079999 1.000000
0.102936 -0.043958 -0.089414 1.000000
0.317408 -0.096582 -0.024839 1.000000
-0.162835 -0.069492 -0.071404 1.000000
0.458926 0.099936 -0.002027 2.000000
-0.319022 0.099859 0.004820 1.000000
0.188968 0.050093 0.086617 1.000000
0.390735 -0.017614 -0.098094 1.000000
0.056010 -0.098343 -0.016386 1.000000
0.453031 0.099920 -0.002530 2.000000
0.193006 0.096414 -0.026219 1.000000
0.198299 0.097036 -0.023905 1.000000
0.202733 0.063044 -0.077361 1.000000
-0.222968 0.099845 -0.004919 1.000000
0.261366 -0.071512 -0.069384 1.000000
-0.115760 -0.092602 0.037311 1.000000
0.434241 0.064743 -0.075942 1.000000
0.055358 -0.096414 0.025780 1.000000
0.295903 0.065365 -0.075394 1.000000
-0.101786 -0.091289 -0.039983 1.000000
-0.358948 0.041187 -0.090833 1.000000
-0.131929 -0.046538 0.088462 1.000000
-0.050632 -0.092373 0.037842 1.000000
0.186173 -0.089165 -0.044508 1.000000
0.439254 0.010021 -0.099167 1.000000
-0.178962 0.078942 0.061455 1.000000
0.155889 0.088551 0.046534 1.000000
-0.326502 -0.024489 -0.096622 1.000000
-0.145314 0.034642 0.093864 1.000000
-0.344953 0.075297 0.065878 1.000000
-0.267784 0.059587 -0.080043 1.000000
0.197116 -0.099006 0.012471 1.000000
-0.438752 -0.094675 -0.031264 3.000000
0.451087 -0.020422 -0.097531 2.000000
0.306874 0.098794 -0.015010 1.000000
-0.230472 0.096096 0.027675 1.000000
0.139169 -0.091293 -0.039975 1.000000
0.216692 -0.000265 0.100058 1.000000
0.114937 0.071138 -0.069992 1.000000
-0.403944 0.076726 -0.063894 1.000000
-0.323951 -0.062453 0.078001 1.000000
-0.040578 -0.070170 -0.070726 1.000000
0.416321 -0.033069 -0.093984 1.000000
-0.385567 0.018359 -0.098013 1.000000
0.212419 -0.099253 0.009859 1.000000
0.289946 -0.085569 -0.051064 1.000000
0.144922 -0.099533 0.006899 1.000000
0.322426 0.096895 0.024897 1.000000
0.006106 -0.095195 -0.029612 1.000000
-0.060153 0.060928 0.079365 1.000000
-0.013322 -0.016689 -0.098241 1.000000
-0.176559 0.052461 -0.084854 1.000000
0.304690 -0.097621 -0.020241 1.000000
0.220755 0.091384 -0.040303 1.000000
0.040797 0.013964 0.099072 1.000000
0.145530 -0.078907 0.061199 1.000000
0.456689 -0.083841 -0.053902 2.000000
-0.232684 0.079450 0.060801 1.000000
-0.441917 0.057311 -0.081662 3.000000
-0.214760 0.096493 0.026310 1.000000
-0.186360 -0.080050 0.059726 1.000000
-0.171586 0.004905 0.099920 1.000000
0.386783 0.091978 0.039292 1.000000
0.269236 0.092372 -0.038020 1.000000
-0.203139 0.087456 0.048631 1.000000
-0.192061 -0.097993 -0.018580 1.000000
-0.153244 0.068033 -0.073042 1.000000
0.169740 0.011822 0.099359 1.000000
0.284534 -0.001663 -0.099651 1.000000
-0.391687 0.035613 -0.093152 1.000000
0.036087 -0.047664 0.087888 1.000000
0.023311 0.072194 -0.068936 1.000000
0.043112 -0.091347 0.040211 1.000000
-0.275857 -0.092986 0.036319 1.000000
-0.059209 0.013634 -0.098762 1.000000
0.157612 -0.099681 -0.002698 1.000000
-0.286153 0.016056 -0.098378 1.000000
-0.038596 0.096125 0.027576 1.000000
-0.003540 -0.094461 0.032220 1.000000
0.307767 -0.064384 -0.076053 1.000000
-0.373840 0.005078 0.099914 1.000000
0.341870 -0.088225 -0.046352 1.000000
0.256513 -0.074821 -0.065790 1.000000
-0.262496 -0.063473 0.077210 1.000000
-0.263007 -0.092814 -0.036433 1.000000
-0.069354 -0.056819 -0.081838 1.000000
0.201829 -0.089563 -0.043728 1.000000
-0.317708 -0.099766 0.000365 1.000000
0.387887 0.099090 -0.013142 1.000000
0.419395 -0.093512 0.034857 1.000000
-0.086975 -0.054637 -0.083321 1.000000
-0.366803 0.099330 -0.011154 1.000000
-0.208442 0.020972 0.097823 1.000000
0.059107 0.073934 -0.067061 1.000000
-0.316361 0.020450 0.097939 1.000000
0.344539 -0.058634 0.080964 1.000000
0.394369 0.040139 0.091649 1.000000
0.099931 0.077142 0.063776 1.000000
-0.316975 -0.073059 0.068152 1.000000
0.377493 -0.010576 -0.099092 1.000000
0.209155 0.093271 -0.035812 1.000000
-0.282749 -0.088828 0.045532 1.000000
0.233828 -0.090584 0.041975 1.000000
-0.460798 0.057088 0.082177 3.000000
0.159378 -0.065111 -0.075412 1.000000
0.320562 -0.087649 -0.047484 1.000000
0.178160 -0.099588 -0.005662 1.000000
-0.176677 -0.033268 -0.093912 1.000000
-0.423800 -0.067949 -0.072910 1.000000
0.402781 0.098989 0.014143 1.000000
0.102523 0.057239 -0.081711 1.000000
0.183481 -0.037694 0.092606 1.000000
-0.134491 -0.077026 0.063625 1.000000
0.434252 -0.057071 -0.081667 1.000000
0.358694 0.043179 -0.089929 1.000000
0.266636 0.096484 0.026343 1.000000
0.043412 -0.053179 0.084654 1.000000
0.297153 0.075604 0.065530 1.000000
-0.401430 -0.096994 0.023411 1.000000
0.188361 -0.099378 -0.008169 1.000000
0.327015 -0.032259 0.094638 1.000000
0.059774 -0.074712 0.066276 1.000000
0.037932 0.032182 0.094750 1.000000
0.427364 -0.014840 -0.098534 1.000000
0.364645 -0.071306 0.069953 1.000000
-0.021968 -0.089786 -0.043289 1.000000
-0.139473 -0.097822 -0.019344 1.000000
0.093590 0.067214 -0.073764 1.000000
-0.216876 -0.033797 0.094084 1.000000
0.146658 -0.094329 0.032586 1.000000
0.053967 -0.064696 -0.075778 1.000000
-0.206730 -0.032316 0.094617 1.000000
0.115043 0.064694 0.076348 1.000000
0.308890 0.099265 0.012197 1.000000
-0.454477 -0.046478 -0.088130 3.000000
-0.024927 -0.056384 0.082497 1.000000
0.386300 -0.042758 0.090388 1.000000
-0.185767 -0.097824 -0.019335 1.000000
0.260201 0.042304 -0.090349 1.000000
0.029086 -0.099382 0.008491 1.000000
-0.449103 0.084387 -0.053442 3.000000
-0.103334 0.066084 0.075123 1.000000
-0.059399 -0.096757 0.024469 1.000000
0.224499 -0.026250 -0.096126 1.000000
-0.073255 -0.076621 -0.063749 1.000000
-0.351591 -0.005954 0.099879 1.000000
-0.194780 0.069053 0.072439 1.000000
0.326076 0.094179 -0.033290 1.000000
0.232066 0.099838 -0.005138 1.000000
-0.174605 -0.061826 -0.078125 1.000000
-0.151569 0.053366 -0.084319 1.000000
-0.377605 0.098155 -0.018898 1.000000
-0.155432 0.072598 -0.068531 1.000000
0.113379 -0.070302 0.070957 1.000000
0.315299 -0.006270 -0.099499 1.000000
-0.353197 -0.098421 0.016259 1.000000
0.158960 -0.050513 -0.085869 1.000000
0.218826 0.082824 -0.055742 1.000000
-0.127540 0.079915 0.060201 1.000000
0.046849 -0.077294 -0.062916 1.000000
-0.242399 -0.002050 -0.099639 1.000000
-0.246912 -0.099066 -0.011474 1.000000
-0.239399 -0.090809 -0.041093 1.000000
0.364902 -0.066265 -0.074395 1.000000
0.464674 -0.099135 -0.010745 2.000000
-0.393454 -0.053381 -0.084173 1.000000
0.396745 0.047064 0.088313 1.000000
0.419280 0.099633 -0.007946 1.000000
-0.275919 0.060208 -0.079561 1.000000
0.223395 0.057823 -0.081314 1.000000
-0.262217 0.090718 -0.041841 1.000000
0.048800 -0.085738 0.051141 1.000000
0.273154 0.069768 -0.071362 1.000000
0.195279 -0.028201 -0.095559 1.000000
-0.070521 -0.095593 -0.028242 1.000000
-0.284893 0.094464 0.032861 1.000000
-0.337177 -0.021899 0.097563 1.000000
-0.302660 -0.090637 -0.041490 1.000000
0.132431 -0.072160 -0.068736 1.000000
0.406078 0.073937 0.067421 1.000000
0.406801 0.099996 0.000489 1.000000
-0.433332 -0.084823 0.052688 3.000000
-0.410532 -0.085739 -0.050777 1.000000
-0.279397 0.080026 0.060057 1.000000
0.250042 -0.067570 0.073607 1.000000
-0.311562 -0.048205 -0.087233 1.000000
-0.177049 -0.099632 -0.004275 1.000000
0.321622 -0.099753 0.000778 1.000000
-0.457023 0.096434 0.026513 3.000000
0.044403 -0.059101 -0.080239 1.000000
0.289117 0.064224 -0.076399 1.000000
0.367126 -0.097876 -0.019100 1.000000
0.414278 0.099902 0.003463 1.000000
-0.466952 0.095844 -0.028182 3.000000
0.414376 -0.076642 -0.063725 1.000000
-0.186592 0.057752 -0.081363 1.000000
0.351136 -0.040871 -0.090868 1.000000
-0.080764 0.054745 -0.083407 1.000000
0.028178 0.034078 -0.093704 1.000000
-0.271968 0.044555 -0.089229 1.000000
0.087182 -0.079156 -0.060516 1.000000
0.143147 0.081179 0.058526 1.000000
-0.062124 -0.094520 -0.031694 1.000000
0.147580 0.049955 -0.086337 1.000000
0.413668 -0.091985 0.038738 1.000000
0.316875 -0.033642 -0.093777 1.000000
0.077344 -0.071869 0.069390 1.000000
-0.116853 -0.036197 0.093220 1.000000
-0.205376 -0.087184 0.048696 1.000000
0.254883 -0.091942 0.038836 1.000000
0.338639 0.097928 -0.019912 1.000000
0.464316 -0.061899 0.078431 2.000000
0.392909 0.096790 -0.024927 1.000000
0.043280 -0.094125 0.033155 1.000000
0.070167 -0.033323 -0.093892 1.000000
-0.352429 -0.066083 0.074918 1.000000
-0.158447 0.043375 -0.089829 1.000000
0.413278 -0.073535 0.067612 2.000000
0.080914 0.057044 -0.081844 1.000000
-0.043745 0.009914 0.099540 1.000000
-0.044210 0.087887 0.047837 1.000000
-0.080879 -0.096761 -0.024089 1.000000
-0.311976 -0.030307 -0.094947 1.000000
0.361859 -0.001746 0.100011 1.000000
-0.153361 -0.016210 -0.098317 1.000000
0.357734 -0.028925 0.095711 1.000000
-0.402025 -0.066191 0.074822 1.000000
0.003687 -0.093659 0.034448 1.000000
0.355515 0.078606 0.061888 1.000000
0.230281 -0.099378 -0.008168 1.000000
0.438590 0.054072 0.084227 2.000000
-0.137852 0.073506 0.067910 1.000000
0.296656 0.084959 -0.052490 1.000000
0.271083 0.074685 0.066571 1.000000
-0.019495 -0.052479 0.085069 1.000000
-0.173034 0.049969 0.086691 1.000000
-0.117333 -0.075762 0.065085 1.000000
0.305897 -0.029795 -0.095096 1.000000
0.194631 -0.055221 0.083287 1.000000
0.181661 0.079763 0.060396 1.000000
0.392274 -0.097116 -0.022504 1.000000
0.262995 -0.091986 -0.038373 1.000000
-0.178298 -0.043170 0.090178 1.000000
-0.351816 0.090300 -0.042740 1.000000
-0.451645 0.095504 0.029714 3.000000
0.457949 -0.022927 0.097334 2.000000
-0.069572 0.090466 0.042775 1.000000
-0.211132 0.061678 0.078783 1.000000
0.222290 0.027646 0.096151 1.000000
0.257959 0.079325 -0.060599 1.000000
0.111355 0.098217 0.018984 1.000000
-0.170666 -0.011957 -0.098962 1.000000
0.016639 -0.042711 -0.090049 1.000000
-0.227003 -0.095470 -0.028667 1.000000
0.009543 -0.044511 0.089494 1.000000
-0.270445 0.087458 -0.048264 1.000000
-0.345683 -0.025867 0.096600 1.000000
-0.164249 0.095346 0.030259 1.000000
-0.024497 0.031340 0.095053 1.000000
-0.005211 0.095473 -0.029458 1.000000
0.096089 -0.086893 0.049187 1.000000
0.146275 0.091437 0.040544 1.000000
0.423939 -0.048002 -0.087353 1.000000
-0.072513 0.093901 0.034425 1.000000
-0.125798 0.059434 0.080525 1.000000
-0.211004 -0.036979 0.092915 1.000000
0.124238 -0.023315 -0.096884 1.000000
-0.439397 -0.078513 0.061707 3.000000
-0.459723 0.099917 0.002990 3.000000
0.043759 0.095487 0.029773 1.000000
-0.169404 0.078456 0.062081 1.000000
0.333813 0.023167 0.097332 1.000000
0.409580 -0.062399 0.078043 2.000000
-0.337485 -0.099054 0.011963 1.000000
0.097741 0.091049 0.041440 1.000000
0.124690 0.018398 -0.098007 1.000000
0.312572 -0.073688 0.067439 1.000000
-0.408298 -0.017784 -0.098067 1.000000
0.053412 -0.004140 -0.099573 1.000000
-0.108862 -0.089788 -0.043285 1.000000
0.178870 0.086211 0.050736 1.000000
-0.173397 0.096223 0.027241 1.000000
-0.343574 -0.019268 0.098152 1.000000
0.330872 0.067885 0.073535 1.000000
-0.220019 -0.089511 -0.043828 1.000000
0.049080 -0.044323 -0.089228 1.000000
-0.231887 -0.066792 0.074293 1.000000
0.377779 0.013283 -0.098817 1.000000
0.259422 0.099233 -0.012170 1.000000
-0.164211 0.097712 -0.020882 1.000000
0.079304 -0.099576 -0.006045 1.000000
0.297451 -0.078722 -0.061075 1.000000
-0.458833 0.065752 0.075416 3.000000
0.270046 0.099853 -0.004652 1.000000
0.111249 0.078576 0.061927 1.000000
0.044878 0.039803 0.091794 1.000000
-0.012172 -0.089722 -0.043414 1.000000
0.457052 -0.063784 0.076945 2.000000
-0.157241 -0.057797 -0.081174 1.000000
-0.347462 0.040277 -0.091226 1.000000
0.035884 0.092295 0.038560 1.000000
0.254507 0.040717 -0.091036 1.000000
-0.128910 0.006668 -0.099484 1.000000
-0.061904 0.082701 -0.055923 1.000000
-0.410614 0.087365 0.048785 1.000000
-0.093060 0.088414 -0.046441 1.000000
-0.369460 -0.099633 -0.004241 1.000000
0.291473 -0.046966 0.088244 1.000000
0.248475 -0.074942 0.066016 1.000000
-0.149534 -0.097811 0.019757 1.000000
0.215899 -0.068422 -0.072474 1.000000
-0.360810 -0.048462 -0.087082 1.000000
0.150003 -0.099734 -0.001023 1.000000
-0.197782 0.057190 0.082107 1.000000
0.101445 0.020302 -0.097610 1.000000
0.076645 -0.009926 0.099516 1.000000
-0.192348 0.099547 -0.008854 1.000000
0.392986 0.078298 0.062286 1.000000
-0.067646 -0.031601 0.094875 1.000000
0.437311 0.028494 0.095905 2.000000
-0.191244 0.065488 0.075648 1.000000
0.266029 0.085821 0.051395 1.000000
0.225378 -0.057388 -0.081451 1.000000
0.419136 0.093920 -0.034009 1.000000
-0.341307 -0.012630 -0.098883 1.000000
0.241229 -0.094052 0.033357 1.000000
-0.154012 -0.079469 -0.060112 1.000000
-0.180109 -0.098585 0.015220 1.000000
0.409584 -0.028138 0.095940 1.000000
-0.418029 0.001749 -0.099656 1.000000
0.268383 -0.083452 0.054838 1.000000
0.049488 0.095330 0.030313 1.000000
-0.173219 0.056245 0.082749 1.000000
0.121845 0.099623 0.008415 1.000000
-0.466074 -0.059944 0.079948 3.000000
-0.197295 0.036021 -0.093005 1.000000
0.290876 -0.040394 0.091437 1.000000
-0.074131 0.000245 0.100066 1.000000
-0.212712 0.068518 0.072975 1.000000
0.183782 -0.080927 -0.058190 1.000000
-0.204201 -0.029994 -0.095038 1.000000
-0.373184 -0.053312 -0.084213 1.000000
0.020722 -0.098506 0.015718 1.000000
0.379634 0.041173 0.091201 1.000000
0.017886 -0.066631 0.074434 1.000000
-0.091207 0.095093 -0.030750 1.000000
0.192447 0.068652 0.072840 1.000000
-0.181018 -0.098546 -0.015104 1.000000
-0.171706 -0.090139 0.042960 1.000000
-0.310143 -0.056200 0.082622 1.000000
0.201547 -0.044269 0.089618 1.000000
0.270362 0.014824 0.098936 1.000000
-0.163642 0.094472 -0.032474 1.000000
-0.206325 -0.003029 -0.099608 1.000000
0.069062 -0.093246 -0.035232 1.000000
0.458963 0.093672 -0.034699 2.000000
-0.028497 0.099871 0.004451 1.000000
0.065169 0.020852 0.097850 1.000000
-0.083500 0.084355 0.053852 1.000000
0.398033 0.074107 -0.066864 1.000000
-0.249838 0.093885 -0.034107 1.000000
-0.208888 -0.093837 -0.033591 1.000000
0.129564 -0.068078 -0.072796 1.000000
0.234151 -0.051629 -0.085209 1.000000
-0.094087 0.082096 0.057176 1.000000
-0.045582 0.013209 -0.098829 1.000000
0.287075 -0.099010 0.012425 1.000000
-0.327933 0.064760 -0.075927 1.000000
0.015179 0.082472 0.056623 1.000000
-0.015416 0.009041 0.099622 1.000000
-0.328043 0.011722 -0.099006 1.000000
0.389865 -0.085379 -0.051386 1.000000
-0.186413 -0.099307 0.009283 1.000000
0.035649 0.074168 -0.066796 1.000000
0.334502 0.079504 0.060731 1.000000
-0.407877 -0.097781 -0.019527 1.000000
0.327412 -0.093617 -0.034201 1.000000
0.061983 0.097392 0.022676 1.000000
0.256010 -0.098696 -0.014159 1.000000
-0.084745 0.093725 -0.034551 1.000000
-0.313469 -0.015206 -0.098476 1.000000
-0.291088 0.034127 0.094049 1.000000
-0.237509 0.070138 0.071354 1.000000
0.134559 -0.048927 -0.086806 1.000000
-0.369794 -0.097169 0.022627 1.000000
-0.022015 -0.010186 -0.099129 1.000000
0.458697 -0.096808 -0.023879 2.000000
0.324314 -0.091988 0.038730 1.000000
-0.297283 0.079147 0.061190 1.000000
0.048852 0.051692 0.085672 1.000000
0.218473 0.026368 -0.096159 1.000000
0.220855 0.093273 0.036169 1.000000
0.366311 0.027992 0.096050 1.000000
0.093556 0.071887 0.069605 1.000000
-0.092041 -0.095235 0.029838 1.000000
0.236626 0.099010 -0.013648 1.000000
-0.326053 -0.081903 0.057116 1.000000
0.218813 0.095690 0.029073 1.000000
-0.353289 -0.097257 -0.021871 1.000000
-0.113494 -0.095089 -0.029976 1.000000
-0.236336 -0.089772 0.043680 1.000000
-0.283400 -0.010970 -0.099055 1.000000
-0.452628 0.020212 -0.097630 3.000000
0.230797 -0.005099 -0.099543 1.000000
-0.382246 -0.069960 -0.070936 1.000000
-0.345272 0.080290 -0.059354 1.000000
-0.062778 -0.076152 0.064643 1.000000
-0.406563 -0.000715 -0.099681 1.000000
0.190173 -0.099372 0.008601 1.000000
-0.138721 -0.070611 0.070648 1.000000
0.328708 0.019492 0.098154 1.000000
0.096732 0.094229 0.033513 1.000000
0.031082 -0.099767 0.000017 1.000000
-0.031682 -0.008650 0.099637 1.000000
0.220353 0.076332 -0.064341 1.000000
-0.345422 -0.070587 -0.070309 1.000000
0.307981 -0.024292 -0.096666 1.000000
0.194118 -0.081835 0.057217 1.000000
-0.160124 0.034067 -0.093708 1.000000
0.288982 -0.052740 0.084914 1.000000
-0.437322 0.053728 0.084460 3.000000
0.324803 0.093749 0.034846 1.000000
0.264737 0.075022 -0.065827 1.000000
0.247774 -0.029506 -0.095180 1.000000
-0.460498 0.066426 -0.074459 3.000000
0.022168 0.099704 0.007560 1.000000
0.343391 0.026478 -0.096127 1.000000
0.216333 0.054718 0.083787 1.000000
0.260352 0.096772 -0.024987 1.000000
-0.256090 -0.067158 -0.073607 1.000000
0.414944 -0.099472 0.007542 1.000000
0.333033 -0.034511 0.093827 1.000000
-0.197452 0.098778 0.015475 1.000000
0.087255 0.011566 0.099383 1.000000
0.109341 0.056387 -0.082290 1.000000
0.189430 -0.095925 -0.027099 1.000000
-0.007497 0.019075 0.098247 1.000000
0.059035 -0.007345 -0.099398 1.000000
-0.009876 0.077180 0.063727 1.000000
0.176047 -0.096893 -0.023501 1.000000
-0.282372 -0.030138 0.095359 1.000000
0.334129 0.057282 -0.081682 1.000000
0.141514 -0.090219 0.042803 1.000000
-0.101314 -0.093292 0.035468 1.000000
0.113856 0.074613 0.066653 1.000000
0.234062 0.064057 0.076910 1.000000
0.077874 0.099027 0.013907 1.000000
0.008194 0.055553 0.083220 1.000000
0.111082 -0.072972 -0.067887 1.000000
0.225195 -0.085944 0.050793 1.000000
0.302372 0.092373 0.038381 1.000000
