-0.466955 0.073574 -0.007426 3.000000
-0.466955 -0.070512 0.010264 3.000000
-0.466955 0.078129 0.033317 3.000000
-0.466955 0.044868 -0.061537 3.000000
-0.466955 -0.026495 -0.063667 3.000000
-0.466955 -0.051925 0.058341 3.000000
-0.466955 0.029697 -0.076326 3.000000
-0.466955 -0.016598 0.041962 3.000000
-0.466955 0.059643 -0.024691 3.000000
-0.466955 0.056036 0.008013 3.000000
-0.466955 0.047196 -0.071039 3.000000
-0.466955 0.063769 0.063219 3.000000
-0.466955 0.028384 0.039117 3.000000
-0.466955 0.020745 -0.036188 3.000000
-0.466955 0.092091 0.003786 3.000000
-0.466955 0.073445 0.020362 3.000000
-0.466955 0.055776 0.018697 3.000000
-0.466955 0.023519 -0.061703 3.000000
-0.466955 0.032824 0.013329 3.000000
-0.466955 -0.068781 -0.042577 3.000000
-0.466955 0.085769 -0.021599 3.000000
-0.466955 0.026930 -0.059226 3.000000
-0.466955 -0.072058 0.063368 3.000000
-0.466955 0.020849 0.044239 3.000000
-0.466955 0.002371 0.020725 3.000000
-0.466955 -0.005829 0.009507 3.000000
-0.466955 -0.024612 0.007659 3.000000
-0.466955 -0.029454 0.044452 3.000000
-0.466955 -0.025549 0.084129 3.000000
-0.466955 -0.052362 0.041918 3.000000
-0.466955 -0.028668 -0.040023 3.000000
-0.466955 -0.045917 0.043579 3.000000
-0.466955 0.067946 0.026905 3.000000
-0.466955 0.021823 0.050480 3.000000
-0.466955 -0.022367 0.041391 3.000000
-0.466955 0.076556 0.003420 3.000000
-0.466955 -0.040843 0.080860 3.000000
-0.466955 -0.088774 0.033103 3.000000
-0.466955 0.077364 -0.015195 3.000000
-0.466955 0.003689 -0.031965 3.000000
-0.466955 -0.015002 0.072217 3.000000
-0.466955 0.046068 0.045873 3.000000
-0.466955 0.042451 -0.045041 3.000000
-0.466955 0.098866 0.014642 3.000000
-0.466955 -0.026797 -0.072792 3.000000
-0.466955 0.037180 0.014985 3.000000
-0.466955 -0.002537 -0.006292 3.000000
-0.466955 0.071259 -0.024426 3.000000
-0.466955 -0.028180 0.078251 3.000000
-0.466955 -0.021406 0.009069 3.000000
-0.466955 0.022772 -0.007005 3.000000
-0.466955 -0.052643 -0.017610 3.000000
-0.466955 -0.066123 -0.067041 3.000000
-0.466955 0.049803 0.076407 3.000000
-0.466955 0.067052 -0.039483 3.000000
-0.466955 -0.098080 -0.003511 3.000000
-0.466955 0.073633 0.014398 3.000000
-0.466955 0.045012 -0.065762 3.000000
-0.466955 0.020648 0.096232 3.000000
-0.466955 0.092648 0.010663 3.000000
-0.466955 0.001023 0.067056 3.000000
-0.466955 -0.042255 0.039426 3.000000
-0.466955 -0.046670 -0.016466 3.000000
-0.466955 -0.025641 -0.081468 3.000000
-0.466955 0.089181 0.024507 3.000000
-0.466955 -0.003959 -0.051354 3.000000
-0.466955 -0.020776 0.022177 3.000000
-0.466955 0.058356 0.052309 3.000000
-0.466955 0.050086 -0.063300 3.000000
-0.466955 -0.079970 -0.023116 3.000000
-0.466955 -0.075981 0.024236 3.000000
-0.466955 0.004387 0.067857 3.000000
-0.466955 -0.079068 0.051950 3.000000
-0.466955 0.054252 0.050099 3.000000
-0.466955 0.073364 0.064553 3.000000
-0.466955 0.033773 -0.091691 3.000000
-0.466955 -0.079805 -0.050973 3.000000
-0.466955 -0.006791 -0.040375 3.000000
-0.466955 0.062071 -0.005213 3.000000
-0.466955 -0.027508 0.044905 3.000000
-0.466955 -0.003099 -0.088671 3.000000
-0.466955 -0.079092 0.007607 3.000000
-0.466955 0.011740 0.033750 3.000000
-0.466955 -0.088467 0.004817 3.000000
-0.466955 0.078558 -0.001418 3.000000
-0.466955 -0.059079 0.065843 3.000000
-0.466955 0.056129 -0.078336 3.000000
-0.466955 0.038922 0.027227 3.000000
-0.466955 0.029636 -0.066127 3.000000
-0.466955 -0.070834 0.022130 3.000000
-0.466955 -0.001751 -0.033452 3.000000
-0.466955 -0.022115 0.092358 3.000000
-0.466955 -0.009698 0.034657 3.000000
-0.466955 0.056775 0.075666 3.000000
-0.466955 0.017251 0.093946 3.000000
-0.466955 -0.017227 -0.035401 3.000000
-0.466955 -0.029199 0.055783 3.000000
-0.466955 0.068931 0.042887 3.000000
-0.466955 0.048634 0.065496 3.000000
-0.466955 -0.023844 0.032679 3.000000
-0.466955 0.013750 0.009274 3.000000
-0.466955 -0.015148 -0.044132 3.000000
-0.466955 -0.084107 0.016563 3.000000
-0.466955 -0.059561 0.010388 3.000000
-0.466955 0.008242 -0.026868 3.000000
-0.466955 0.086363 0.000884 3.000000
-0.466955 0.043993 -0.019566 3.000000
-0.466955 0.000201 -0.086175 3.000000
-0.466955 -0.053601 0.011540 3.000000
-0.466955 -0.042812 0.015896 3.000000
-0.466955 0.045296 -0.032903 3.000000
-0.466955 -0.044875 0.087001 3.000000
-0.466955 -0.054989 -0.060344 3.000000
-0.466955 0.084970 0.013937 3.000000
-0.466955 -0.068712 0.041037 3.000000
-0.466955 -0.000164 0.080514 3.000000
-0.466955 -0.027410 -0.064831 3.000000
-0.466955 -0.015058 -0.058972 3.000000
-0.466955 -0.081797 -0.024261 3.000000
-0.466955 0.002357 -0.072372 3.000000
-0.466955 -0.077986 -0.001270 3.000000
-0.466955 0.070125 0.058116 3.000000
-0.466955 -0.047409 0.003691 3.000000
-0.466955 0.025811 0.061209 3.000000
-0.466955 -0.005008 0.000293 3.000000
-0.466955 -0.093405 0.027317 3.000000
-0.466955 -0.013006 0.036302 3.000000
-0.466955 0.045640 0.071090 3.000000
-0.466955 0.018927 0.039906 3.000000
-0.466955 0.061456 0.067549 3.000000
-0.466955 -0.037545 -0.071095 3.000000
-0.466955 0.021827 -0.076049 3.000000
-0.466955 -0.031384 -0.090524 3.000000
-0.466955 0.041959 0.047005 3.000000
-0.466955 0.091442 0.012404 3.000000
-0.466955 -0.038744 0.023362 3.000000
-0.466955 -0.051239 0.019649 3.000000
-0.466955 -0.022613 -0.043554 3.000000
-0.466955 -0.004384 0.096452 3.000000
-0.466955 0.005225 0.064617 3.000000
-0.466955 -0.090142 -0.030447 3.000000
-0.466955 -0.063532 0.058287 3.000000
-0.466955 0.022920 -0.010109 3.000000
-0.466955 -0.015343 0.067030 3.000000
-0.466955 -0.009239 0.064924 3.000000
-0.466955 -0.008775 -0.083203 3.000000
-0.466955 0.070453 -0.026818 3.000000
-0.466955 0.056003 0.046315 3.000000
-0.466955 0.069965 -0.025302 3.000000
-0.466955 0.035773 -0.012158 3.000000
-0.466955 0.042889 0.072414 3.000000
-0.466955 -0.016058 -0.010885 3.000000
-0.466955 -0.060838 -0.007172 3.000000
-0.466955 0.091217 0.020985 3.000000
-0.466955 -0.040668 -0.017133 3.000000
-0.466955 0.099359 0.005099 3.000000
-0.466955 0.047912 0.014048 3.000000
-0.466955 0.068306 -0.024501 3.000000
-0.466955 0.033272 -0.059515 3.000000
-0.466955 -0.080692 0.006805 3.000000
-0.466955 -0.044307 0.078921 3.000000
-0.466955 -0.031596 -0.059327 3.000000
-0.466955 0.087113 -0.021979 3.000000
-0.466955 -0.057907 0.048119 3.000000
-0.466955 -0.030558 -0.005770 3.000000
-0.466955 0.001854 -0.070966 3.000000
-0.466955 -0.001716 0.063506 3.000000
-0.466955 -0.039517 0.077098 3.000000
-0.466955 -0.026732 0.036755 3.000000
-0.466955 0.021340 0.015658 3.000000
-0.466955 0.066115 0.071509 3.000000
-0.466955 0.031547 0.025674 3.000000
-0.466955 -0.019937 0.064754 3.000000
-0.466955 -0.005204 0.037969 3.000000
-0.466955 -0.005092 -0.070150 3.000000
-0.466955 -0.015804 -0.054632 3.000000
-0.466955 -0.068391 0.048295 3.000000
-0.466955 -0.019424 0.087362 3.000000
-0.466955 -0.089339 -0.016890 3.000000
-0.466955 -0.088919 -0.021509 3.000000
-0.466955 -0.050861 0.026579 3.000000
-0.466955 0.094032 -0.018711 3.000000
-0.466955 0.031694 -0.058619 3.000000
-0.466955 -0.063039 -0.077055 3.000000
-0.466955 -0.090627 0.019215 3.000000
-0.466955 0.020208 0.060726 3.000000
-0.466955 -0.005237 -0.026555 3.000000
-0.466955 0.054796 -0.001854 3.000000
-0.466955 0.090259 0.019230 3.000000
-0.466955 -0.063554 -0.072210 3.000000
-0.466955 0.058659 0.001947 3.000000
-0.466955 0.040582 0.059604 3.000000
-0.466955 -0.026261 -0.037965 3.000000
-0.466955 -0.040828 0.070693 3.000000
-0.466955 -0.092301 0.031823 3.000000
-0.466955 0.035266 -0.025980 3.000000
-0.466955 0.057482 -0.076433 3.000000
-0.466955 0.039832 0.083718 3.000000
-0.466955 -0.016594 -0.028831 3.000000
-0.466955 0.015889 0.004531 3.000000
-0.466955 -0.090521 0.012716 3.000000
-0.466955 0.008249 -0.021504 3.000000
-0.466955 0.060695 -0.007010 3.000000
-0.466955 -0.036386 0.087937 3.000000
-0.466955 0.017224 0.034592 3.000000
-0.466955 -0.081684 -0.004184 3.000000
-0.466955 0.019913 -0.096883 3.000000
-0.466955 0.003079 0.056016 3.000000
-0.466955 0.027154 -0.065450 3.000000
-0.466955 0.034312 0.029873 3.000000
-0.466955 0.093514 0.022545 3.000000
-0.466955 0.066017 -0.047486 3.000000
-0.466955 0.004994 -0.069514 3.000000
-0.466955 -0.065888 0.021333 3.000000
-0.466955 -0.078164 -0.021273 3.000000
-0.466955 0.066468 -0.031808 3.000000
-0.466955 -0.023354 0.027440 3.000000
-0.466955 0.016666 0.083148 3.000000
-0.466955 -0.000020 -0.051355 3.000000
-0.466955 -0.059408 0.004264 3.000000
-0.466955 0.054540 0.064191 3.000000
-0.466955 -0.087455 0.034651 3.000000
-0.466955 -0.063355 0.055338 3.000000
-0.466955 0.052462 -0.084850 3.000000
-0.466955 0.062050 0.024323 3.000000
-0.466955 0.046112 0.069669 3.000000
-0.466955 -0.053653 -0.058696 3.000000
-0.466955 0.059395 0.013396 3.000000
-0.466955 0.092552 -0.008717 3.000000
-0.466955 -0.015456 -0.041266 3.000000
-0.466955 -0.039427 -0.020585 3.000000
-0.466955 -0.010333 0.021056 3.000000
-0.466955 0.034717 0.054571 3.000000
-0.466955 0.003772 0.051826 3.000000
-0.466955 0.060787 -0.067277 3.000000
-0.466955 -0.030936 0.055251 3.000000
-0.466955 -0.049928 -0.006371 3.000000
-0.466955 0.041813 -0.002930 3.000000
-0.466955 0.083192 0.009246 3.000000
-0.466955 -0.071957 -0.039074 3.000000
-0.466955 0.057401 -0.039687 3.000000
-0.466955 -0.040171 -0.018632 3.000000
-0.466955 -0.054396 0.007855 3.000000
-0.466955 -0.077024 0.063024 3.000000
-0.466955 -0.048159 0.062095 3.000000
-0.466955 0.027656 -0.008929 3.000000
-0.466955 -0.012612 0.094337 3.000000
-0.466955 0.005568 -0.058933 3.000000
-0.466955 -0.082567 0.021111 3.000000
-0.466955 0.034399 -0.072417 3.000000
-0.466955 0.037025 0.045283 3.000000
-0.466955 -0.024168 0.049749 3.000000
-0.466955 0.063358 -0.049030 3.000000
-0.466955 0.060488 0.050560 3.000000
-0.466955 -0.004854 0.067902 3.000000
-0.466955 0.026916 -0.067681 3.000000
-0.466955 0.005091 -0.039032 3.000000
-0.466955 -0.020562 0.072126 3.000000
-0.466955 0.001681 0.021975 3.000000
-0.466955 -0.033346 0.071090 3.000000
-0.466955 -0.088149 -0.003426 3.000000
-0.466955 0.042554 -0.024186 3.000000
-0.466955 -0.014994 0.053738 3.000000
-0.466955 0.073835 0.042228 3.000000
-0.466955 0.081579 0.014138 3.000000
-0.466955 0.024127 0.043750 3.000000
-0.466955 -0.065017 0.017896 3.000000
-0.466955 -0.096062 -0.011624 3.000000
-0.466955 -0.019560 -0.055226 3.000000
-0.466955 0.069433 0.021081 3.000000
-0.466955 0.031586 0.039949 3.000000
-0.466955 0.025130 -0.048560 3.000000
-0.466955 0.002697 -0.067226 3.000000
-0.466955 -0.049638 0.086583 3.000000
-0.466955 0.082448 -0.015656 3.000000
-0.466955 0.054931 -0.052452 3.000000
-0.466955 -0.085566 0.003481 3.000000
-0.466955 -0.031420 -0.033252 3.000000
-0.466955 -0.032775 -0.089825 3.000000
-0.466955 -0.043814 -0.032596 3.000000
-0.466955 -0.080468 0.033357 3.000000
-0.466955 0.029945 -0.079791 3.000000
-0.466955 -0.036258 0.046912 3.000000
-0.466955 0.044822 -0.017749 3.000000
-0.466955 -0.027001 -0.053748 3.000000
-0.466955 -0.086825 0.004308 3.000000
-0.466955 -0.061186 -0.010699 3.000000
-0.466955 0.005562 -0.071971 3.000000
-0.466955 -0.058768 -0.079896 3.000000
-0.466955 -0.084544 -0.027830 3.000000
-0.466955 -0.088966 0.016717 3.000000
-0.466955 0.057755 0.046828 3.000000
-0.466955 -0.055097 0.011912 3.000000
-0.466955 -0.005161 0.046942 3.000000
-0.466955 0.039961 -0.024531 3.000000
-0.466955 0.089941 0.017709 3.000000
-0.466955 -0.023099 -0.032851 3.000000
-0.466955 0.070626 -0.015108 3.000000
-0.466955 -0.050550 -0.078465 3.000000
-0.466955 0.020029 -0.009737 3.000000
-0.466955 0.061420 0.044035 3.000000
-0.466955 0.007475 -0.044502 3.000000
-0.466955 -0.079009 0.002705 3.000000
-0.466955 0.011151 0.044150 3.000000
-0.466955 -0.042034 0.022309 3.000000
-0.466955 -0.039663 0.060636 3.000000
-0.466955 -0.008155 -0.035316 3.000000
-0.466955 -0.070325 0.040247 3.000000
-0.466955 -0.037321 -0.069541 3.000000
-0.466955 -0.020858 0.090704 3.000000
-0.466955 -0.002929 -0.018495 3.000000
-0.466955 -0.044421 0.074839 3.000000
-0.466955 -0.020449 -0.058439 3.000000
-0.466955 -0.023129 0.077114 3.000000
-0.466955 0.060036 0.052917 3.000000
-0.466955 0.022586 0.014458 3.000000
-0.466955 0.005508 -0.066136 3.000000
-0.466955 0.083224 0.024484 3.000000
-0.466955 -0.060760 0.074843 3.000000
-0.466955 -0.075403 0.008588 3.000000
-0.466955 0.038205 -0.046233 3.000000
-0.466955 0.065550 0.061831 3.000000
-0.466955 0.074103 -0.053304 3.000000
-0.466955 0.079506 0.000006 3.000000
-0.466955 0.023977 0.040029 3.000000
-0.466955 0.018467 0.071746 3.000000
-0.466955 -0.004521 -0.038867 3.000000
-0.466955 0.053518 -0.064366 3.000000
-0.466955 0.059210 0.025355 3.000000
-0.466955 -0.078180 -0.002684 3.000000
-0.466955 0.075881 -0.042954 3.000000
-0.466955 -0.022327 0.059781 3.000000
-0.466955 0.075580 -0.065055 3.000000
-0.466955 0.026168 -0.061628 3.000000
-0.466955 -0.062501 -0.054988 3.000000
-0.466955 -0.002310 0.045356 3.000000
-0.466955 -0.072172 -0.013012 3.000000
-0.466955 0.013573 -0.018164 3.000000
-0.466955 -0.081972 -0.034005 3.000000
-0.466955 0.083989 0.052658 3.000000
-0.466955 0.024165 -0.094934 3.000000
-0.466955 -0.077170 0.039373 3.000000
-0.466955 0.084605 0.040032 3.000000
-0.466955 0.069991 -0.066397 3.000000
-0.466955 0.080842 -0.019817 3.000000
-0.466955 -0.008501 -0.043342 3.000000
-0.466955 0.060135 -0.076672 3.000000
-0.466955 0.057610 -0.011692 3.000000
-0.466955 -0.049044 0.011669 3.000000
-0.466955 0.021797 0.066393 3.000000
-0.466955 -0.034417 -0.050316 3.000000
-0.466955 -0.042745 -0.004519 3.000000
-0.466955 -0.041165 0.044418 3.000000
-0.466955 0.083777 -0.033788 3.000000
-0.466955 0.041898 -0.068403 3.000000
-0.466955 0.003201 -0.023065 3.000000
-0.466955 0.088780 -0.042150 3.000000
-0.466955 0.007677 0.057385 3.000000
-0.466955 0.007830 -0.086610 3.000000
-0.466955 0.010635 0.040850 3.000000
-0.466955 0.027963 0.021980 3.000000
-0.466955 0.074652 0.032300 3.000000
-0.466955 0.016460 -0.035366 3.000000
-0.466955 0.004270 -0.024496 3.000000
-0.466955 0.067298 0.000591 3.000000
-0.466955 0.028639 0.032773 3.000000
-0.466955 -0.050551 -0.034632 3.000000
-0.466955 0.006639 -0.036523 3.000000
-0.466955 -0.040656 -0.028462 3.000000
-0.466955 0.008427 -0.001698 3.000000
-0.466955 -0.020785 -0.009973 3.000000
-0.466955 0.004197 -0.077098 3.000000
-0.466955 0.094006 -0.010935 3.000000
-0.466955 -0.070629 0.025202 3.000000
-0.466955 -0.023100 -0.070550 3.000000
-0.466955 -0.001201 -0.087961 3.000000
-0.466955 0.007081 -0.071734 3.000000
-0.466955 0.039566 0.043691 3.000000
-0.466955 -0.057549 0.037416 3.000000
-0.466955 -0.048290 -0.008565 3.000000
-0.466955 0.089602 -0.013332 3.000000
-0.466955 -0.063140 -0.051342 3.000000
-0.466955 0.088160 -0.045613 3.000000
-0.466955 0.043882 -0.026002 3.000000
-0.466955 -0.003899 -0.075058 3.000000
-0.466955 -0.020244 0.073928 3.000000
-0.466955 0.004053 0.086858 3.000000
-0.466955 -0.050590 0.061332 3.000000
-0.466955 -0.037209 0.054969 3.000000
-0.466955 0.075325 -0.056731 3.000000
-0.466955 -0.025349 -0.001117 3.000000
-0.466955 -0.068029 -0.028553 3.000000
-0.466955 -0.004807 -0.009459 3.000000
-0.466955 0.016175 -0.039791 3.000000
-0.466955 0.011375 -0.027532 3.000000
-0.466955 0.048379 -0.083368 3.000000
-0.466955 -0.069631 -0.002052 3.000000
-0.466955 0.025095 -0.044145 3.000000
-0.466955 0.038715 -0.016072 3.000000
-0.466955 -0.055901 0.048180 3.000000
-0.466955 -0.089098 0.013535 3.000000
-0.466955 0.020107 0.069720 3.000000
-0.466955 -0.013060 0.025123 3.000000
-0.466955 0.094366 -0.020253 3.000000
-0.466955 0.079294 -0.018894 3.000000
-0.466955 0.041285 0.070255 3.000000
-0.466955 -0.026849 0.073659 3.000000
-0.466955 -0.010975 0.038672 3.000000
-0.466955 -0.035626 -0.022626 3.000000
-0.466955 -0.011459 -0.045313 3.000000
-0.466955 0.081184 -0.030604 3.000000
-0.466955 -0.059124 0.022144 3.000000
-0.466955 -0.000329 -0.094166 3.000000
-0.466955 0.029786 0.010428 3.000000
-0.466955 -0.083461 -0.005366 3.000000
-0.466955 -0.054662 0.063243 3.000000
-0.466955 0.068328 -0.029153 3.000000
-0.466955 0.088734 -0.011636 3.000000
-0.466955 0.033800 -0.047159 3.000000
-0.466955 -0.033484 0.083970 3.000000
-0.466955 0.079859 -0.039211 3.000000
-0.466955 0.084737 0.009354 3.000000
-0.466955 -0.023122 0.009099 3.000000
-0.466955 -0.024757 0.079844 3.000000
-0.466955 0.028091 -0.051216 3.000000
-0.466955 -0.042667 0.035938 3.000000
-0.466955 0.006521 0.099253 3.000000
-0.466955 0.040829 0.004966 3.000000
-0.466955 0.065893 -0.061618 3.000000
-0.466955 -0.044343 0.044366 3.000000
-0.466955 0.074137 0.039074 3.000000
-0.466955 -0.059818 -0.039000 3.000000
-0.466955 -0.015323 -0.087575 3.000000
-0.466955 0.041144 -0.057271 3.000000
-0.466955 -0.024575 0.069254 3.000000
-0.466955 -0.037866 0.082090 3.000000
-0.466955 -0.052356 0.016219 3.000000
-0.466955 0.061981 0.055967 3.000000
-0.466955 -0.053378 -0.049937 3.000000
-0.466955 0.021844 0.055874 3.000000
-0.466955 0.099255 0.009668 3.000000
-0.466955 -0.094987 0.008774 3.000000
-0.466955 0.003384 0.046397 3.000000
-0.466955 0.017693 -0.090877 3.000000
-0.466955 0.058826 0.032755 3.000000
-0.466955 -0.023500 -0.055375 3.000000
-0.466955 0.016376 0.038396 3.000000
-0.466955 0.008997 -0.069043 3.000000
-0.466955 -0.072792 0.002975 3.000000
-0.466955 -0.018721 -0.095583 3.000000
-0.466955 0.021621 -0.058571 3.000000
-0.466955 -0.023131 0.000952 3.000000
-0.466955 -0.017895 -0.061522 3.000000
-0.466955 -0.003352 0.021564 3.000000
-0.466955 -0.018595 -0.001134 3.000000
-0.466955 0.050720 -0.020938 3.000000
-0.466955 -0.047537 0.022319 3.000000
-0.466955 0.073580 -0.050327 3.000000
-0.466955 -0.065294 0.058051 3.000000
-0.466955 0.094375 0.009439 3.000000
-0.466955 -0.030081 0.043181 3.000000
-0.466955 -0.029150 -0.065550 3.000000
-0.466955 -0.061820 -0.021123 3.000000
-0.466955 0.021353 0.032792 3.000000
-0.466955 -0.025053 -0.076933 3.000000
-0.466955 -0.032591 -0.001692 3.000000
-0.466955 0.043440 0.077926 3.000000
-0.466955 0.054652 0.055805 3.000000
-0.466955 -0.008270 0.016697 3.000000
-0.466955 0.022557 -0.073734 3.000000
-0.466955 -0.052109 0.049210 3.000000
-0.466955 -0.048441 0.085478 3.000000
-0.466955 0.045417 -0.079083 3.000000
-0.466955 -0.026361 -0.042499 3.000000
-0.466955 -0.011018 0.026728 3.000000
-0.466955 0.065942 0.001603 3.000000
-0.466955 -0.017843 -0.055117 3.000000
-0.466955 0.028706 0.052442 3.000000
-0.466955 -0.070279 -0.060194 3.000000
-0.466955 -0.066171 -0.017625 3.000000
-0.466955 -0.081706 0.028045 3.000000
-0.466955 -0.075955 -0.022274 3.000000
-0.466955 -0.026256 0.027959 3.000000
-0.466955 -0.070237 -0.010579 3.000000
-0.466955 0.021972 0.093406 3.000000
-0.466955 -0.051533 -0.032545 3.000000
-0.466955 0.000436 -0.096014 3.000000
-0.466955 -0.042438 -0.035342 3.000000
-0.466955 -0.053214 0.003544 3.000000
-0.466955 -0.066710 0.048136 3.000000
-0.466955 -0.018012 0.092737 3.000000
-0.466955 -0.081202 0.015244 3.000000
-0.466955 0.028005 0.006729 3.000000
-0.466955 0.005617 0.060225 3.000000
-0.466955 -0.089483 -0.000150 3.000000
-0.466955 0.055056 0.076856 3.000000
-0.466955 -0.047494 -0.086531 3.000000
-0.466955 -0.043419 0.062813 3.000000
-0.466955 0.075210 -0.015486 3.000000
-0.466955 0.027975 -0.052780 3.000000
-0.466955 0.020755 -0.043282 3.000000
-0.466955 0.011978 -0.002177 3.000000
-0.466955 0.036145 0.078551 3.000000
-0.466955 0.076775 -0.021631 3.000000
-0.466955 0.077393 0.042367 3.000000
-0.466955 0.008144 0.076146 3.000000
-0.466955 0.034758 -0.034896 3.000000
-0.466955 0.009546 0.075783 3.000000
-0.466955 -0.013271 0.053958 3.000000
-0.466955 -0.012142 -0.002430 3.000000
-0.466955 -0.022679 0.096568 3.000000
-0.466955 0.079503 -0.048819 3.000000
-0.466955 -0.002536 0.007532 3.000000
-0.466955 -0.020465 -0.017313 3.000000
-0.466955 0.022089 0.090195 3.000000
-0.466955 -0.065461 -0.074394 3.000000
-0.466955 -0.084586 -0.038853 3.000000
-0.466955 -0.038069 -0.039297 3.000000
-0.466955 0.047925 -0.021266 3.000000
-0.466955 0.057303 -0.069815 3.000000
-0.466955 0.060718 -0.029418 3.000000
-0.466955 0.025546 -0.040700 3.000000
-0.466955 -0.078570 0.031955 3.000000
-0.466955 0.043851 0.089893 3.000000
-0.466955 -0.025917 -0.016456 3.000000
-0.466955 0.089934 0.025817 3.000000
-0.466955 -0.034798 -0.008929 3.000000
-0.466955 -0.092232 -0.003968 3.000000
-0.466955 -0.047108 -0.032569 3.000000
-0.466955 -0.048216 0.059534 3.000000
-0.466955 -0.011537 -0.059635 3.000000
-0.466955 0.045276 -0.062945 3.000000
-0.466955 -0.032330 0.090735 3.000000
-0.466955 -0.071599 -0.018045 3.000000
-0.466955 0.046146 -0.027182 3.000000
-0.466955 0.044759 -0.080451 3.000000
-0.466955 0.053347 0.073454 3.000000
-0.466955 -0.018566 0.026558 3.000000
-0.466955 0.095345 0.025521 3.000000
-0.466955 -0.012369 -0.043953 3.000000
-0.466955 0.045249 -0.058570 3.000000
-0.466955 -0.018325 0.074615 3.000000
-0.466955 -0.078441 -0.059646 3.000000
-0.466955 -0.063876 -0.009716 3.000000
-0.466955 0.074265 0.027009 3.000000
-0.466955 0.000933 -0.057461 3.000000
-0.466955 -0.036187 -0.045944 3.000000
-0.466955 0.007859 0.092669 3.000000
-0.466955 -0.019184 -0.029492 3.000000
-0.466955 0.042459 -0.015986 3.000000
-0.466955 0.020057 -0.037460 3.000000
-0.466955 0.053004 0.063532 3.000000
-0.466955 -0.007368 0.035733 3.000000
-0.466955 0.006217 -0.029611 3.000000
-0.466955 -0.032706 -0.057563 3.000000
-0.466955 0.012115 -0.012755 3.000000
-0.466955 0.042888 -0.061553 3.000000
-0.466955 -0.021850 0.078233 3.000000
-0.466955 -0.021083 0.043821 3.000000
-0.466955 0.002255 0.037468 3.000000
-0.466955 -0.062067 -0.013609 3.000000
-0.466955 -0.035903 0.013123 3.000000
-0.466955 -0.057099 -0.017754 3.000000
-0.466955 -0.055502 -0.012200 3.000000
-0.466955 -0.029448 0.091578 3.000000
-0.466955 -0.007889 0.058577 3.000000
-0.466955 -0.098801 0.005163 3.000000
-0.466955 0.016297 0.030770 3.000000
-0.466955 0.075547 0.035263 3.000000
-0.466955 0.047530 -0.009014 3.000000
-0.466955 -0.041232 -0.049402 3.000000
-0.466955 0.002985 0.095737 3.000000
-0.466955 0.007569 -0.007047 3.000000
-0.466955 0.051451 0.043664 3.000000
-0.466955 0.006851 0.015659 3.000000
-0.466955 0.064032 0.039640 3.000000
-0.466955 0.001640 0.039191 3.000000
-0.466955 0.020904 -0.095822 3.000000
-0.466955 0.036388 -0.078262 3.000000
-0.466955 -0.012639 0.071060 3.000000
-0.466955 -0.025026 0.001193 3.000000
-0.466955 0.039819 -0.067905 3.000000
-0.466955 -0.035843 -0.092789 3.000000
-0.466955 -0.044941 0.066796 3.000000
-0.466955 0.047146 -0.068541 3.000000
-0.466955 -0.056434 -0.036799 3.000000
-0.466955 0.052096 -0.051564 3.000000
-0.466955 -0.012314 0.082928 3.000000
-0.466955 -0.064428 0.001391 3.000000
-0.466955 -0.066740 -0.035117 3.000000
-0.466955 0.030609 -0.087585 3.000000
-0.466955 -0.067780 0.054996 3.000000
-0.466955 -0.066669 -0.001145 3.000000
-0.466955 -0.050647 0.057316 3.000000
-0.466955 -0.068436 -0.069710 3.000000
-0.466955 -0.010343 0.025337 3.000000
-0.466955 -0.017161 -0.094593 3.000000
-0.466955 -0.020873 -0.070244 3.000000
-0.466955 0.080459 0.048063 3.000000
-0.466955 0.035702 -0.057089 3.000000
-0.466955 -0.020901 0.068305 3.000000
-0.466955 -0.019643 -0.096824 3.000000
-0.466955 -0.042407 0.027332 3.000000
-0.466955 0.001733 0.032761 3.000000
-0.466955 -0.058192 0.073664 3.000000
-0.466955 0.012351 -0.069831 3.000000
-0.466955 0.018439 0.042104 3.000000
-0.466955 0.050968 -0.067933 3.000000
-0.466955 0.014913 -0.040894 3.000000
-0.466955 -0.055616 0.023766 3.000000
-0.466955 0.093430 -0.003321 3.000000
-0.466955 0.034093 0.055927 3.000000
-0.466955 0.030020 0.017497 3.000000
-0.466955 -0.026614 0.017909 3.000000
-0.466955 0.065343 -0.070984 3.000000
-0.466955 0.004350 -0.005881 3.000000
-0.466955 0.008702 -0.074546 3.000000
-0.466955 -0.033686 0.026711 3.000000
-0.466955 0.068194 0.047683 3.000000
-0.466955 0.022968 0.042113 3.000000
-0.466955 -0.021320 0.052936 3.000000
-0.466955 -0.056958 -0.033829 3.000000
-0.466955 0.016587 0.096793 3.000000
-0.466955 0.052770 0.067088 3.000000
-0.466955 -0.090235 -0.014208 3.000000
-0.466955 -0.075336 -0.008775 3.000000
-0.466955 0.096295 0.013092 3.000000
-0.466955 -0.063479 0.073358 3.000000
-0.466955 -0.018723 -0.035784 3.000000
-0.466955 -0.060360 0.038495 3.000000
-0.466955 -0.019461 0.063237 3.000000
-0.466955 -0.075961 0.044359 3.000000
-0.466955 0.023821 -0.045779 3.000000
-0.466955 0.049581 0.009471 3.000000
-0.466955 0.095081 0.010884 3.000000
-0.466955 -0.010404 0.012120 3.000000
-0.466955 0.055505 0.047971 3.000000
-0.466955 0.013726 0.047063 3.000000
-0.466955 0.059494 0.008100 3.000000
-0.466955 -0.050863 0.051329 3.000000
-0.466955 0.028406 -0.005875 3.000000
-0.466955 0.014285 -0.070444 3.000000
-0.466955 0.064127 0.023565 3.000000
-0.466955 0.019730 -0.075981 3.000000
-0.466955 -0.090661 -0.015594 3.000000
-0.466955 -0.017147 0.008987 3.000000
-0.466955 -0.017681 0.061655 3.000000
-0.466955 0.000168 0.083660 3.000000
-0.466955 0.023625 0.072184 3.000000
-0.466955 -0.072753 0.030494 3.000000
-0.466955 0.074877 0.059486 3.000000
-0.466955 0.004501 -0.034905 3.000000
-0.466955 0.002895 -0.081001 3.000000
-0.466955 -0.042668 -0.083948 3.000000
-0.466955 -0.054769 -0.044218 3.000000
-0.466955 0.007538 0.030525 3.000000
-0.466955 -0.011185 -0.079427 3.000000
-0.466955 -0.046770 -0.034129 3.000000
-0.466955 -0.044236 -0.048204 3.000000
-0.466955 0.038857 -0.052536 3.000000
-0.466955 -0.023437 -0.034290 3.000000
-0.466955 -0.050150 0.028183 3.000000
-0.466955 -0.043412 -0.018518 3.000000
-0.466955 0.065845 0.022513 3.000000
-0.466955 -0.019635 0.038735 3.000000
-0.466955 0.073680 0.024040 3.000000
-0.466955 0.068803 -0.020300 3.000000
-0.466955 0.036060 0.084629 3.000000
-0.466955 0.028081 -0.054224 3.000000
-0.466955 -0.017139 0.026901 3.000000
-0.466955 -0.034694 0.028211 3.000000
-0.466955 -0.013246 -0.030972 3.000000
-0.466955 -0.007202 0.062530 3.000000
-0.466955 0.075055 0.036787 3.000000
-0.466955 -0.035392 0.058900 3.000000
-0.466955 -0.075769 0.031323 3.000000
-0.466955 -0.032699 0.005510 3.000000
-0.466955 -0.090369 -0.007838 3.000000
-0.466955 -0.071671 -0.052584 3.000000
-0.466955 -0.008132 0.024897 3.000000
-0.466955 -0.000682 -0.022518 3.000000
-0.466955 -0.006717 -0.018788 3.000000
-0.466955 -0.055763 0.000893 3.000000
-0.466955 0.051825 0.053646 3.000000
-0.466955 -0.097922 -0.008117 3.000000
-0.466955 0.085826 -0.043820 3.000000
-0.466955 -0.042198 0.008512 3.000000
-0.466955 -0.082260 -0.040713 3.000000
-0.466955 0.084348 -0.027616 3.000000
-0.466955 0.056015 0.040455 3.000000
-0.466955 -0.037568 -0.051939 3.000000
-0.466955 -0.069403 -0.058936 3.000000
-0.466955 -0.053242 0.043314 3.000000
-0.466955 0.005960 -0.099172 3.000000
-0.466955 -0.060661 -0.040380 3.000000
-0.466955 0.019469 -0.054006 3.000000
-0.466955 0.091024 0.035626 3.000000
-0.466955 -0.038280 -0.046812 3.000000
-0.466955 -0.072720 0.023255 3.000000
-0.466955 0.072968 0.011043 3.000000
-0.466955 -0.068200 0.001371 3.000000
-0.466955 -0.037576 0.006274 3.000000
-0.466955 -0.033693 -0.082890 3.000000
-0.466955 0.064605 -0.009657 3.000000
-0.466955 -0.083762 -0.021529 3.000000
-0.466955 -0.027314 -0.061690 3.000000
-0.466955 -0.007849 -0.074584 3.000000
-0.466955 -0.067738 -0.054639 3.000000
-0.466955 0.089719 -0.032845 3.000000
-0.466955 0.059036 0.022244 3.000000
-0.466955 -0.043979 0.001854 3.000000
-0.466955 -0.065515 -0.012140 3.000000
-0.466955 -0.074271 0.064966 3.000000
-0.466955 -0.073009 -0.050005 3.000000
-0.466955 -0.000991 0.084828 3.000000
-0.466955 -0.091781 0.038471 3.000000
-0.466955 -0.038536 0.021196 3.000000
-0.466955 0.085731 -0.045563 3.000000
-0.466955 0.084572 0.003727 3.000000
-0.466955 -0.089223 -0.018396 3.000000
-0.466955 -0.036488 -0.068237 3.000000
-0.466955 0.069439 0.046667 3.000000
-0.466955 -0.004454 -0.032174 3.000000
-0.466955 -0.030704 0.065541 3.000000
-0.466955 0.059350 0.000210 3.000000
-0.466955 -0.049766 -0.062094 3.000000
-0.466955 0.047674 0.068132 3.000000
-0.466955 -0.008466 0.083133 3.000000
-0.466955 0.024740 -0.017867 3.000000
-0.466955 -0.047208 0.086213 3.000000
-0.466955 -0.009310 0.009360 3.000000
-0.466955 0.010057 0.025349 3.000000
-0.466955 0.040730 -0.005710 3.000000
-0.466955 0.052645 -0.060386 3.000000
-0.466955 0.057476 0.024665 3.000000
-0.466955 0.073819 -0.030214 3.000000
-0.466955 -0.015202 0.005504 3.000000
-0.466955 -0.027594 -0.056698 3.000000
-0.466955 -0.025870 0.049455 3.000000
-0.466955 0.030683 0.043465 3.000000
-0.466955 0.011414 -0.045881 3.000000
-0.466955 -0.017557 -0.029863 3.000000
-0.466955 -0.043822 -0.001762 3.000000
-0.466955 0.025962 0.022714 3.000000
-0.466955 0.064906 0.019712 3.000000
-0.466955 -0.077296 0.054033 3.000000
-0.466955 -0.002948 -0.076824 3.000000
-0.466955 -0.013968 -0.092909 3.000000
-0.466955 -0.035076 -0.030951 3.000000
-0.466955 0.058239 -0.043798 3.000000
-0.466955 -0.073938 0.047841 3.000000
-0.466955 -0.027050 -0.088510 3.000000
-0.466955 -0.037411 0.014615 3.000000
-0.466955 0.049776 -0.018196 3.000000
-0.466955 -0.095151 0.012948 3.000000
-0.466955 -0.069457 -0.007199 3.000000
-0.466955 -0.058896 -0.013204 3.000000
-0.466955 0.096089 -0.003264 3.000000
-0.466955 -0.097334 0.006019 3.000000
-0.466955 -0.006473 0.022124 3.000000
-0.466955 -0.000324 0.088402 3.000000
-0.466955 -0.071016 0.033983 3.000000
-0.466955 0.046683 0.056114 3.000000
-0.466955 -0.002265 -0.028577 3.000000
-0.466955 -0.039838 0.007475 3.000000
-0.466955 0.000221 0.059532 3.000000
-0.466955 0.070283 0.032283 3.000000
-0.466955 -0.039585 -0.003087 3.000000
-0.466955 -0.040019 0.016396 3.000000
-0.466955 -0.014432 0.036605 3.000000
-0.466955 0.028339 -0.007301 3.000000
-0.466955 0.040262 -0.029230 3.000000
-0.466955 -0.053416 -0.073890 3.000000
-0.466955 0.051024 -0.085187 3.000000
-0.466955 -0.042107 0.077748 3.000000
-0.466955 0.069661 -0.034867 3.000000
-0.466955 -0.009868 0.076424 3.000000
-0.466955 0.075075 -0.039956 3.000000
-0.466955 -0.027817 0.023748 3.000000
-0.466955 0.013239 -0.003617 3.000000
-0.466955 0.043599 0.024458 3.000000
-0.466955 -0.048650 0.008976 3.000000
-0.466955 -0.009171 -0.028269 3.000000
-0.466955 0.019843 0.083993 3.000000
-0.466955 -0.063830 -0.026976 3.000000
-0.466955 0.013419 0.052711 3.000000
-0.466955 -0.069684 0.019551 3.000000
-0.466955 -0.049959 0.071303 3.000000
-0.466955 -0.005238 -0.025130 3.000000
-0.466955 -0.079803 -0.029134 3.000000
-0.466955 -0.087648 -0.009631 3.000000
-0.466955 0.031701 -0.054521 3.000000
-0.466955 -0.074687 0.016296 3.000000
-0.466955 0.062231 -0.008055 3.000000
-0.466955 0.024104 -0.010827 3.000000
-0.466955 0.065833 -0.045027 3.000000
-0.466955 -0.087890 0.025819 3.000000
-0.466955 -0.024868 -0.033856 3.000000
-0.466955 0.028830 -0.002720 3.000000
-0.466955 0.043891 -0.067319 3.000000
-0.466955 0.059069 0.066767 3.000000
-0.466955 -0.043564 -0.026099 3.000000
-0.466955 0.047739 0.045790 3.000000
-0.466955 -0.073105 -0.017060 3.000000
-0.466955 0.063473 0.004329 3.000000
-0.466955 0.085959 0.043792 3.000000
-0.466955 -0.092904 -0.026482 3.000000
-0.466955 0.016503 0.061031 3.000000
-0.466955 -0.052224 -0.036296 3.000000
-0.466955 0.007450 -0.041943 3.000000
-0.466955 -0.074980 0.017778 3.000000
-0.466955 0.094730 0.002550 3.000000
-0.466955 0.058444 -0.057281 3.000000
-0.466955 0.036735 -0.024792 3.000000
-0.466955 0.076808 0.027622 3.000000
-0.466955 0.058597 -0.061101 3.000000
-0.466955 -0.073663 0.034378 3.000000
-0.466955 0.017788 0.055468 3.000000
-0.466955 -0.041973 -0.037031 3.000000
-0.466955 0.053843 0.021505 3.000000
-0.466955 -0.051354 -0.076695 3.000000
-0.466955 -0.048401 -0.051957 3.000000
-0.466955 -0.001950 0.002363 3.000000
-0.466955 -0.072911 0.065100 3.000000
-0.466955 0.035791 0.092727 3.000000
-0.466955 -0.099607 -0.003595 3.000000
-0.466955 -0.056416 0.045398 3.000000
-0.466955 0.014458 0.067881 3.000000
-0.466955 -0.056886 0.022277 3.000000
-0.466955 -0.029402 -0.081473 3.000000
-0.466955 -0.041185 -0.087295 3.000000
-0.466955 -0.009253 0.081899 3.000000
-0.466955 -0.042417 0.025601 3.000000
-0.466955 0.025924 0.045259 3.000000
-0.466955 0.074524 0.066099 3.000000
-0.466955 0.028600 0.065691 3.000000
-0.466955 0.028043 0.042553 3.000000
-0.466955 0.048336 0.031758 3.000000
-0.466955 0.042150 0.016337 3.000000
-0.466955 -0.046044 0.010917 3.000000
-0.466955 -0.059471 0.024958 3.000000
-0.466955 0.014915 -0.039339 3.000000
-0.466955 -0.047377 0.016552 3.000000
-0.466955 -0.063965 0.031078 3.000000
-0.466955 0.075830 0.016396 3.000000
-0.466955 -0.045698 0.012780 3.000000
-0.466955 0.060417 0.069329 3.000000
-0.466955 0.032482 -0.019696 3.000000
-0.466955 -0.061160 0.064719 3.000000
-0.466955 -0.085177 0.042578 3.000000
-0.466955 0.020178 0.049526 3.000000
-0.466955 0.041022 0.021435 3.000000
-0.466955 0.024032 -0.070133 3.000000
-0.466955 0.012093 0.046347 3.000000
-0.466955 0.008653 0.090467 3.000000
-0.466955 0.027455 -0.013512 3.000000
-0.466955 -0.001126 0.086874 3.000000
-0.466955 -0.027906 -0.089746 3.000000
-0.466955 -0.062987 -0.043419 3.000000
-0.466955 0.060669 0.001875 3.000000
-0.466955 0.042267 -0.032903 3.000000
-0.466955 -0.045758 0.017991 3.000000
-0.466955 0.033498 -0.051472 3.000000
-0.466955 -0.034414 0.037357 3.000000
-0.466955 -0.013560 -0.057693 3.000000
-0.466955 0.015997 -0.014381 3.000000
-0.466955 -0.020634 -0.037011 3.000000
-0.466955 0.034754 -0.032411 3.000000
-0.466955 -0.061735 -0.025077 3.000000
-0.466955 0.048659 -0.024022 3.000000
-0.466955 0.042727 0.064788 3.000000
-0.466955 0.030839 0.052853 3.000000
-0.466955 -0.015251 0.032762 3.000000
-0.466955 0.004247 -0.066834 3.000000
-0.466955 -0.001845 0.029731 3.000000
-0.466955 0.049835 -0.000073 3.000000
-0.466955 -0.061696 -0.042086 3.000000
-0.466955 -0.025600 -0.058204 3.000000
-0.466955 -0.049068 -0.021615 3.000000
-0.466955 0.074389 -0.024877 3.000000
-0.466955 0.008046 -0.058749 3.000000
-0.466955 0.019503 -0.042407 3.000000
-0.466955 -0.035031 0.045873 3.000000
-0.466955 0.018487 -0.057284 3.000000
-0.466955 -0.065604 0.008013 3.000000
-0.466955 0.028737 -0.081873 3.000000
-0.466955 -0.040525 -0.072334 3.000000
-0.466955 0.013134 0.090299 3.000000
-0.466955 0.048640 0.087123 3.000000
-0.466955 -0.057309 0.008599 3.000000
-0.466955 -0.006290 -0.089532 3.000000
-0.466955 0.069127 -0.012941 3.000000
-0.466955 -0.025810 0.002615 3.000000
-0.466955 0.000579 -0.077431 3.000000
-0.466955 0.025616 0.050913 3.000000
-0.466955 -0.081785 0.043250 3.000000
-0.466955 -0.072330 -0.064849 3.000000
-0.466955 -0.040251 -0.007099 3.000000
-0.466955 0.014917 -0.096373 3.000000
-0.466955 -0.041440 0.032106 3.000000
-0.466955 -0.080948 -0.043013 3.000000
-0.466955 0.031698 -0.051764 3.000000
-0.466955 0.037395 -0.011360 3.000000
-0.466955 0.057704 0.021858 3.000000
-0.466955 0.086605 0.032528 3.000000
-0.466955 0.079559 0.055832 3.000000
-0.466955 -0.013561 -0.023616 3.000000
-0.466955 -0.042112 -0.017729 3.000000
-0.466955 -0.016828 -0.065706 3.000000
-0.466955 -0.041659 -0.057695 3.000000
-0.466955 -0.063197 0.021005 3.000000
-0.466955 0.026352 0.038191 3.000000
-0.466955 -0.001799 0.004666 3.000000
-0.466955 0.007540 0.037519 3.000000
-0.466955 0.055256 -0.034202 3.000000
-0.466955 -0.044565 0.071990 3.000000
-0.466955 -0.050188 -0.081522 3.000000
-0.466955 -0.013162 -0.005935 3.000000
-0.466955 -0.084399 0.049832 3.000000
-0.466955 0.001662 0.008632 3.000000
-0.466955 -0.081186 -0.048927 3.000000
-0.466955 0.048305 0.048440 3.000000
-0.466955 -0.025400 0.036404 3.000000
-0.466955 0.042666 -0.017309 3.000000
-0.466955 0.036203 0.019131 3.000000
-0.466955 -0.050300 0.024676 3.000000
-0.466955 -0.079532 -0.015319 3.000000
-0.466955 -0.070318 0.070693 3.000000
-0.466955 0.047907 0.077539 3.000000
-0.466955 -0.028823 0.059656 3.000000
-0.466955 0.038618 0.028916 3.000000
-0.466955 0.031225 0.037085 3.000000
-0.466955 0.001774 0.089286 3.000000
-0.466955 -0.006888 0.039735 3.000000
-0.466955 -0.046747 0.042508 3.000000
-0.466955 0.078975 0.042478 3.000000
-0.466955 -0.038304 0.039714 3.000000
-0.466955 0.067571 -0.035354 3.000000
-0.466955 -0.045926 -0.057265 3.000000
-0.466955 0.000985 0.096260 3.000000
-0.466955 0.015261 -0.021519 3.000000
-0.466955 -0.006625 0.087378 3.000000
-0.466955 -0.080316 0.052542 3.000000
-0.466955 -0.014951 -0.085187 3.000000
-0.466955 0.012641 0.036564 3.000000
-0.466955 -0.014215 0.023791 3.000000
-0.466955 -0.097927 -0.010448 3.000000
-0.466955 0.029659 0.014088 3.000000
-0.466955 -0.001226 0.006632 3.000000
-0.466955 -0.051611 -0.028281 3.000000
-0.466955 -0.002223 0.057689 3.000000
-0.466955 -0.086540 -0.045579 3.000000
-0.466955 -0.002988 -0.063355 3.000000
-0.466955 0.090989 0.030361 3.000000
-0.466955 0.007818 0.024873 3.000000
-0.466955 -0.061243 -0.005452 3.000000
-0.466955 0.012975 -0.026712 3.000000
-0.466955 -0.052406 0.074501 3.000000
-0.466955 0.077019 -0.061464 3.000000
-0.466955 0.053186 -0.046383 3.000000
-0.466955 -0.071146 -0.055653 3.000000
-0.466955 0.014963 -0.001618 3.000000
-0.466955 0.001424 -0.064699 3.000000
-0.466955 0.094073 -0.001543 3.000000
-0.466955 -0.018311 0.084582 3.000000
-0.466955 0.054922 0.030647 3.000000
-0.466955 0.051651 0.032419 3.000000
-0.466955 -0.016560 0.046855 3.000000
-0.466955 -0.016042 -0.061787 3.000000
-0.466955 0.084317 -0.008482 3.000000
-0.466955 0.045771 -0.085146 3.000000
-0.466955 -0.080980 -0.025425 3.000000
-0.466955 0.031152 0.080939 3.000000
-0.466955 0.025814 0.080288 3.000000
-0.466955 -0.036098 0.077297 3.000000
-0.466955 -0.030841 -0.044585 3.000000
-0.466955 0.033374 0.054132 3.000000
-0.466955 -0.068375 0.063598 3.000000
-0.466955 -0.032822 0.089472 3.000000
-0.466955 -0.015635 -0.093149 3.000000
-0.466955 0.040325 -0.038389 3.000000
-0.466955 0.016196 0.018542 3.000000
-0.466955 0.055899 0.067182 3.000000
-0.466955 0.056048 0.025078 3.000000
-0.466955 0.019102 -0.090947 3.000000
-0.466955 -0.092377 0.028666 3.000000
-0.466955 0.062651 0.040477 3.000000
-0.466955 -0.029378 0.071299 3.000000
-0.466955 0.016779 0.088976 3.000000
-0.466955 -0.048484 -0.057808 3.000000
-0.466955 -0.014556 -0.018600 3.000000
-0.466955 -0.053881 -0.063473 3.000000
-0.466955 0.040355 -0.077526 3.000000
-0.466955 -0.042177 0.050277 3.000000
-0.466955 0.003053 0.069851 3.000000
-0.466955 0.044492 -0.045602 3.000000
-0.466955 -0.041590 -0.054644 3.000000
-0.466955 -0.044577 -0.021501 3.000000
-0.466955 0.052709 0.052438 3.000000
-0.466955 0.019742 0.012868 3.000000
-0.466955 0.049541 -0.014301 3.000000
-0.466955 0.017327 -0.060742 3.000000
-0.466955 0.008291 0.055652 3.000000
-0.466955 -0.081921 -0.005834 3.000000
-0.466955 -0.018407 -0.063293 3.000000
-0.466955 0.011826 -0.068362 3.000000
-0.466955 -0.072575 0.043864 3.000000
-0.466955 0.029829 0.031587 3.000000
-0.466955 -0.014024 0.052459 3.000000
-0.466955 0.056514 -0.071005 3.000000
-0.466955 -0.088149 0.038382 3.000000
-0.466955 0.003752 -0.027294 3.000000
-0.466955 -0.010348 -0.049937 3.000000
-0.466955 -0.067814 -0.031045 3.000000
-0.466955 0.067354 0.045038 3.000000
-0.466955 -0.003936 -0.028681 3.000000
-0.466955 -0.065635 0.012728 3.000000
-0.466955 -0.014052 -0.095076 3.000000
-0.466955 -0.002975 -0.052774 3.000000
-0.466955 -0.099252 -0.001884 3.000000
-0.466955 0.006197 0.067518 3.000000
-0.466955 0.000781 0.029962 3.000000
-0.466955 0.074831 -0.035912 3.000000
-0.466955 -0.024796 -0.039750 3.000000
-0.466955 -0.013655 -0.007611 3.000000
-0.466955 0.072955 0.031384 3.000000
-0.466955 0.037336 -0.056513 3.000000
-0.466955 -0.039226 -0.022590 3.000000
-0.466955 0.053146 0.016150 3.000000
-0.466955 -0.072096 -0.066353 3.000000
-0.466955 0.015473 0.025058 3.000000
-0.466955 0.033321 -0.033933 3.000000
-0.466955 -0.020360 -0.075073 3.000000
-0.466955 0.029747 -0.033757 3.000000
-0.466955 0.040194 0.032310 3.000000
-0.466955 -0.036889 -0.040651 3.000000
-0.466955 -0.081837 0.032410 3.000000
-0.466955 0.076149 -0.025057 3.000000
-0.466955 0.045851 0.080025 3.000000
-0.466955 -0.057712 0.000846 3.000000
-0.466955 0.019964 -0.012242 3.000000
-0.466955 -0.037062 -0.025258 3.000000
-0.466955 0.061113 0.000084 3.000000
-0.466955 0.019782 -0.069744 3.000000
-0.466955 -0.084604 -0.016935 3.000000
-0.466955 -0.012080 0.029728 3.000000
-0.466955 0.050649 0.021116 3.000000
-0.466955 0.071438 0.009472 3.000000
-0.466955 0.019667 -0.021381 3.000000
-0.466955 -0.027521 -0.019780 3.000000
-0.466955 0.093413 0.012094 3.000000
-0.466955 -0.074228 0.025290 3.000000
-0.466955 0.066410 -0.067018 3.000000
-0.466955 -0.031955 0.049961 3.000000
-0.466955 0.027598 -0.001656 3.000000
-0.466955 -0.001345 -0.063153 3.000000
-0.466955 0.042059 -0.085399 3.000000
-0.466955 -0.031364 -0.038036 3.000000
-0.466955 0.012121 0.020904 3.000000
-0.466955 -0.032545 -0.062445 3.000000
-0.466955 -0.008416 -0.047250 3.000000
-0.466955 -0.062195 -0.050371 3.000000
-0.466955 -0.024314 -0.050697 3.000000
-0.466955 0.053000 -0.031619 3.000000
-0.466955 0.019137 0.081546 3.000000
-0.466955 -0.030342 0.072468 3.000000
-0.466955 0.041497 -0.014108 3.000000
-0.466955 0.066304 0.004782 3.000000
-0.466955 -0.065590 -0.025363 3.000000
-0.466955 0.011689 -0.097731 3.000000
-0.466955 0.093692 -0.005622 3.000000
-0.466955 -0.019896 0.006064 3.000000
-0.466955 0.014064 0.065663 3.000000
-0.466955 -0.049951 0.000698 3.000000
-0.466955 0.031743 -0.066262 3.000000
-0.466955 -0.011097 0.023727 3.000000
-0.466955 -0.047820 -0.037304 3.000000
-0.466955 -0.005471 0.011935 3.000000
-0.466955 0.023853 -0.031342 3.000000
-0.466955 -0.010093 -0.010427 3.000000
-0.466955 -0.080417 -0.005687 3.000000
-0.466955 -0.026440 -0.077108 3.000000
-0.466955 -0.021608 -0.061095 3.000000
-0.466955 -0.039976 -0.024325 3.000000
-0.466955 0.060334 -0.010229 3.000000
-0.466955 0.000091 -0.026754 3.000000
-0.466955 -0.063120 0.027806 3.000000
-0.466955 -0.044319 0.080380 3.000000
-0.466955 -0.006183 -0.082239 3.000000
-0.466955 0.031502 -0.044291 3.000000
-0.466955 -0.075716 0.026986 3.000000
-0.466955 0.040697 0.019562 3.000000
-0.466955 -0.052953 0.006761 3.000000
-0.466955 0.013608 0.099085 3.000000
-0.466955 -0.087919 0.046904 3.000000
-0.466955 -0.061788 -0.061562 3.000000
-0.466955 -0.041028 -0.005580 3.000000
-0.466955 0.078023 -0.017862 3.000000
-0.466955 -0.065231 0.016455 3.000000
-0.466955 -0.013090 -0.063915 3.000000
-0.466955 -0.015462 0.051563 3.000000
-0.466955 0.045898 -0.037209 3.000000
-0.466955 0.041905 0.077895 3.000000
-0.466955 -0.087486 0.017402 3.000000
-0.466955 0.033307 0.089132 3.000000
-0.466955 0.075955 0.050801 3.000000
-0.466955 -0.011595 -0.089683 3.000000
-0.466955 0.001799 -0.059141 3.000000
-0.466955 0.007624 0.020984 3.000000
-0.466955 -0.055734 -0.063388 3.000000
-0.466955 -0.039040 -0.011641 3.000000
-0.466955 -0.055359 0.066723 3.000000
-0.466955 0.031364 0.094765 3.000000
-0.466955 0.071501 -0.025921 3.000000
-0.466955 0.034207 -0.045834 3.000000
-0.466955 0.080128 0.059386 3.000000
-0.466955 0.084468 0.030486 3.000000
-0.466955 0.052628 -0.075254 3.000000
-0.466955 0.044503 0.027939 3.000000
-0.466955 0.043855 -0.055931 3.000000
-0.466955 0.061759 0.069733 3.000000
-0.466955 0.082005 0.056713 3.000000
-0.466955 -0.044721 -0.038259 3.000000
-0.466955 0.045880 0.003086 3.000000
-0.466955 0.047208 0.002305 3.000000
-0.466955 0.054854 -0.083124 3.000000
-0.466955 0.007659 -0.064942 3.000000
-0.466955 -0.038477 -0.025543 3.000000
-0.466955 0.038361 0.034976 3.000000
-0.466955 0.006606 0.029320 3.000000
-0.466955 -0.095887 0.015170 3.000000
-0.466955 0.046630 0.051733 3.000000
-0.466955 -0.000797 -0.031907 3.000000
-0.466955 -0.087596 0.013403 3.000000
-0.466955 0.035208 -0.074369 3.000000
-0.466955 0.011689 0.013647 3.000000
-0.466955 -0.050722 -0.085699 3.000000
-0.466955 0.032510 0.056794 3.000000
-0.466955 -0.089337 0.019786 3.000000
-0.466955 0.051575 -0.014748 3.000000
-0.466955 -0.065022 0.040830 3.000000
-0.466955 0.021815 -0.090544 3.000000
-0.466955 -0.072312 0.005250 3.000000
-0.466955 0.077721 0.049679 3.000000
-0.466955 0.068456 0.031931 3.000000
-0.466955 0.049575 -0.035567 3.000000
-0.466955 0.056879 0.000218 3.000000
-0.466955 -0.003136 0.046539 3.000000
-0.466955 -0.059040 0.023577 3.000000
-0.466955 -0.017485 -0.013907 3.000000
-0.466955 -0.023224 -0.005768 3.000000
-0.466955 -0.034979 0.010644 3.000000
-0.466955 0.017906 0.091022 3.000000
-0.466955 0.068608 0.062160 3.000000
-0.466955 0.031391 0.078086 3.000000
-0.466955 0.050714 -0.080909 3.000000
-0.466955 0.022546 0.082458 3.000000
-0.466955 0.002243 -0.084506 3.000000
-0.466955 0.076884 0.047178 3.000000
-0.466955 0.068541 -0.014398 3.000000
-0.466955 0.029510 0.042114 3.000000
-0.466955 -0.062323 -0.026899 3.000000
-0.466955 -0.020678 -0.059838 3.000000
-0.466955 0.032200 0.068538 3.000000
-0.466955 -0.040724 0.067685 3.000000
-0.466955 0.092092 -0.024016 3.000000
-0.466955 -0.032330 -0.048315 3.000000
-0.466955 0.050149 0.039157 3.000000
-0.466955 -0.018874 0.029355 3.000000
-0.466955 -0.060350 0.054829 3.000000
-0.466955 -0.020317 0.015256 3.000000
-0.466955 -0.091169 0.022642 3.000000
-0.466955 0.036338 -0.062785 3.000000
-0.466955 0.022610 0.059634 3.000000
-0.466955 -0.087934 -0.028175 3.000000
-0.466955 -0.091723 0.011864 3.000000
-0.466955 -0.000467 0.093133 3.000000
-0.466955 0.050467 0.080719 3.000000
-0.466955 -0.042561 0.080882 3.000000
-0.466955 -0.040493 0.046800 3.000000
-0.466955 -0.029323 0.033375 3.000000
-0.466955 0.029717 -0.010087 3.000000
-0.466955 0.029372 0.044081 3.000000
-0.466955 0.040779 -0.001722 3.000000
-0.466955 -0.015514 -0.012279 3.000000
-0.466955 -0.003429 0.005277 3.000000
-0.466955 0.096500 0.010399 3.000000
-0.466955 0.032125 -0.025234 3.000000
-0.466955 -0.016011 0.035317 3.000000
-0.466955 -0.082464 -0.026211 3.000000
-0.466955 -0.064129 -0.018385 3.000000
-0.466955 0.006530 -0.034408 3.000000
-0.466955 0.033818 -0.087929 3.000000
-0.466955 0.003392 0.041858 3.000000
-0.466955 0.018237 -0.010461 3.000000
-0.466955 0.050009 0.086286 3.000000
-0.466955 0.063343 -0.040376 3.000000
-0.466955 -0.015423 -0.026210 3.000000
-0.466955 0.057157 -0.050277 3.000000
-0.466955 -0.016936 -0.019643 3.000000
-0.466955 0.022677 -0.071369 3.000000
-0.466955 -0.054753 0.059263 3.000000
-0.466955 -0.058509 0.030585 3.000000
-0.466955 -0.026940 0.057561 3.000000
-0.466955 0.031768 -0.080451 3.000000
-0.466955 0.063188 0.056874 3.000000
-0.466955 0.009792 -0.032937 3.000000
-0.466955 0.014176 -0.044422 3.000000
-0.466955 -0.074663 -0.019145 3.000000
-0.466955 -0.039685 -0.000183 3.000000
-0.466955 0.045981 -0.057417 3.000000
-0.466955 0.072804 0.040917 3.000000
-0.466955 0.002342 0.051369 3.000000
-0.466955 0.013796 0.023561 3.000000
-0.466955 0.010508 0.019891 3.000000
-0.466955 0.014120 -0.076224 3.000000
-0.466955 -0.016893 0.028272 3.000000
-0.466955 -0.002768 0.025478 3.000000
-0.466955 0.049863 -0.029804 3.000000
-0.466955 0.049962 -0.060939 3.000000
-0.466955 -0.085739 -0.035500 3.000000
-0.466955 -0.064937 0.064746 3.000000
-0.466955 0.045424 -0.067093 3.000000
-0.466955 0.001026 0.077721 3.000000
-0.466955 -0.036865 -0.059297 3.000000
-0.466955 0.032034 -0.050120 3.000000
-0.466955 0.006945 -0.002099 3.000000
-0.466955 0.077207 0.010895 3.000000
-0.466955 0.010307 -0.031593 3.000000
-0.466955 -0.022260 0.075387 3.000000
-0.466955 -0.084394 0.004935 3.000000
-0.466955 -0.017618 -0.086700 3.000000
-0.466955 0.047759 0.019851 3.000000
-0.466955 0.069501 -0.055478 3.000000
-0.466955 0.004610 0.023819 3.000000
-0.466955 0.061800 -0.057410 3.000000
-0.466955 0.051523 -0.072965 3.000000
-0.466955 0.066670 -0.042965 3.000000
-0.466955 -0.089681 0.003338 3.000000
-0.466955 -0.070481 -0.032055 3.000000
-0.466955 -0.090620 -0.028843 3.000000
-0.466955 0.027059 -0.073533 3.000000
-0.466955 -0.078312 -0.043644 3.000000
-0.466955 0.087801 0.008896 3.000000
-0.466955 -0.016653 0.075804 3.000000
-0.466955 -0.055446 0.037906 3.000000
-0.466955 0.070766 0.013138 3.000000
-0.466955 -0.076704 0.050592 3.000000
-0.466955 0.054919 0.022729 3.000000
-0.466955 0.084223 -0.015219 3.000000
-0.466955 -0.002586 0.012322 3.000000
-0.466955 -0.030144 0.062707 3.000000
-0.466955 0.037541 0.083407 3.000000
-0.466955 0.013744 -0.002352 3.000000
-0.466955 -0.022976 -0.076308 3.000000
-0.466955 -0.013216 0.079022 3.000000
-0.466955 -0.094794 -0.012813 3.000000
-0.466955 0.008448 -0.023181 3.000000
-0.466955 0.052159 -0.034694 3.000000
-0.466955 -0.015146 -0.090586 3.000000
-0.466955 0.012278 -0.021059 3.000000
-0.466955 -0.048393 0.071967 3.000000
-0.466955 -0.075514 0.014627 3.000000
