0.465339 -0.004932 -0.055313 2.000000
0.465339 0.056065 -0.059792 2.000000
0.465339 0.068498 0.001288 2.000000
0.465339 0.064028 0.037223 2.000000
0.465339 0.062148 -0.065691 2.000000
0.465339 0.038539 -0.021193 2.000000
0.465339 0.059209 -0.055525 2.000000
0.465339 0.000185 0.057403 2.000000
0.465339 -0.051007 -0.002730 2.000000
0.465339 0.056097 -0.075258 2.000000
0.465339 -0.070958 -0.028754 2.000000
0.465339 -0.092748 -0.024004 2.000000
0.465339 -0.049402 0.062915 2.000000
0.465339 0.006662 0.069604 2.000000
0.465339 0.001089 0.059129 2.000000
0.465339 -0.075490 0.023901 2.000000
0.465339 0.075166 -0.019702 2.000000
0.465339 0.093874 0.029054 2.000000
0.465339 0.011957 0.078596 2.000000
0.465339 -0.013880 -0.092122 2.000000
0.465339 0.044022 0.081556 2.000000
0.465339 -0.010654 0.010424 2.000000
0.465339 -0.038430 0.042195 2.000000
0.465339 -0.004947 -0.036691 2.000000
0.465339 0.035919 0.030078 2.000000
0.465339 -0.091306 -0.027785 2.000000
0.465339 0.005445 -0.057012 2.000000
0.465339 -0.024915 -0.023141 2.000000
0.465339 -0.075301 -0.016600 2.000000
0.465339 -0.017662 -0.028947 2.000000
0.465339 0.069044 -0.070995 2.000000
0.465339 0.072662 0.052388 2.000000
0.465339 -0.039140 0.062957 2.000000
0.465339 0.047192 0.021555 2.000000
0.465339 -0.053114 -0.066973 2.000000
0.465339 0.045530 -0.037157 2.000000
0.465339 -0.063725 -0.041014 2.000000
0.465339 0.043212 0.085772 2.000000
0.465339 0.077470 -0.032308 2.000000
0.465339 0.087697 -0.005410 2.000000
0.465339 0.062584 0.000394 2.000000
0.465339 0.031353 0.024857 2.000000
0.465339 -0.068925 0.060818 2.000000
0.465339 -0.003687 -0.049765 2.000000
0.465339 0.089186 -0.012441 2.000000
0.465339 -0.041342 -0.044127 2.000000
0.465339 -0.082822 -0.032727 2.000000
0.465339 -0.063086 0.017051 2.000000
0.465339 0.047552 -0.032875 2.000000
0.465339 0.015340 -0.049524 2.000000
0.465339 -0.020813 -0.010408 2.000000
0.465339 -0.025056 -0.071362 2.000000
0.465339 -0.060993 0.028186 2.000000
0.465339 0.013298 0.017803 2.000000
0.465339 0.014945 -0.051727 2.000000
0.465339 0.022798 0.059636 2.000000
0.465339 -0.075649 0.004593 2.000000
0.465339 0.091996 -0.017818 2.000000
0.465339 0.041903 0.034609 2.000000
0.465339 -0.025641 0.021078 2.000000
0.465339 -0.024116 0.094172 2.000000
0.465339 -0.031014 0.094132 2.000000
0.465339 0.055649 -0.017234 2.000000
0.465339 0.037766 -0.004114 2.000000
0.465339 -0.006839 0.077712 2.000000
0.465339 -0.050668 0.055588 2.000000
0.465339 0.076224 -0.046014 2.000000
0.465339 0.082810 -0.006199 2.000000
0.465339 -0.033075 -0.003908 2.000000
0.465339 -0.060298 -0.074701 2.000000
0.465339 0.066012 0.043909 2.000000
0.465339 -0.087525 -0.009510 2.000000
0.465339 0.073747 -0.065918 2.000000
0.465339 0.056668 -0.043062 2.000000
0.465339 0.082650 -0.019760 2.000000
0.465339 -0.015351 0.071263 2.000000
0.465339 -0.000620 0.095257 2.000000
0.465339 0.006505 0.030294 2.000000
0.465339 0.016592 0.096829 2.000000
0.465339 -0.093789 -0.023049 2.000000
0.465339 -0.041798 -0.081047 2.000000
0.465339 0.064863 -0.014194 2.000000
0.465339 -0.068386 0.015772 2.000000
0.465339 0.055597 -0.056262 2.000000
0.465339 0.047525 0.086962 2.000000
0.465339 0.065001 -0.069802 2.000000
0.465339 0.056722 -0.056961 2.000000
0.465339 -0.030948 -0.094435 2.000000
0.465339 0.063421 -0.004257 2.000000
0.465339 -0.007492 0.029727 2.000000
0.465339 -0.051190 -0.062319 2.000000
0.465339 -0.032289 -0.093672 2.000000
0.465339 0.055385 0.003250 2.000000
0.465339 0.081228 -0.045445 2.000000
0.465339 -0.007820 0.072701 2.000000
0.465339 0.041973 -0.082104 2.000000
0.465339 0.072469 -0.055809 2.000000
0.465339 -0.028522 0.080831 2.000000
0.465339 0.087875 0.001048 2.000000
0.465339 0.042531 0.040582 2.000000
0.465339 -0.035090 -0.023740 2.000000
0.465339 -0.006499 0.004472 2.000000
0.465339 -0.058092 -0.007350 2.000000
0.465339 0.013670 -0.050977 2.000000
0.465339 0.012752 -0.001852 2.000000
0.465339 -0.001838 0.077936 2.000000
0.465339 0.009654 0.034888 2.000000
0.465339 0.080929 -0.002620 2.000000
0.465339 0.026198 0.078040 2.000000
0.465339 -0.073580 -0.037674 2.000000
0.465339 -0.007177 -0.073744 2.000000
0.465339 0.058238 0.044092 2.000000
0.465339 0.053233 -0.021215 2.000000
0.465339 -0.069844 -0.046731 2.000000
0.465339 0.032784 -0.075323 2.000000
0.465339 0.054958 -0.062648 2.000000
0.465339 -0.077572 -0.054739 2.000000
0.465339 -0.008417 0.098002 2.000000
0.465339 -0.063465 -0.008027 2.000000
0.465339 0.052450 -0.069706 2.000000
0.465339 0.039761 -0.016355 2.000000
0.465339 0.050126 0.076640 2.000000
0.465339 0.033145 0.000189 2.000000
0.465339 0.042107 0.049955 2.000000
0.465339 -0.050414 0.001240 2.000000
0.465339 0.062301 -0.046631 2.000000
0.465339 -0.031439 0.074557 2.000000
0.465339 0.037805 -0.005794 2.000000
0.465339 -0.001526 0.028891 2.000000
0.465339 0.074751 0.048962 2.000000
0.465339 0.097906 0.020265 2.000000
0.465339 0.047184 -0.051759 2.000000
0.465339 -0.025571 0.073842 2.000000
0.465339 -0.050941 0.064023 2.000000
0.465339 -0.076951 0.037714 2.000000
0.465339 0.079452 0.033413 2.000000
0.465339 0.032741 -0.001878 2.000000
0.465339 -0.025396 -0.010908 2.000000
0.465339 -0.033552 -0.041486 2.000000
0.465339 0.040867 -0.017374 2.000000
0.465339 -0.043918 -0.069071 2.000000
0.465339 0.078557 -0.040830 2.000000
0.465339 0.055614 0.077736 2.000000
0.465339 -0.021759 -0.094159 2.000000
0.465339 0.099534 -0.007746 2.000000
0.465339 -0.033309 -0.082808 2.000000
0.465339 -0.016543 -0.095019 2.000000
0.465339 0.094111 0.010120 2.000000
0.465339 -0.058891 -0.065548 2.000000
0.465339 0.023345 0.070752 2.000000
0.465339 0.052591 0.052125 2.000000
0.465339 0.062107 0.021000 2.000000
0.465339 -0.088265 0.002556 2.000000
0.465339 -0.052775 -0.044796 2.000000
0.465339 0.047393 -0.070814 2.000000
0.465339 -0.037924 0.056672 2.000000
0.465339 -0.036563 -0.087344 2.000000
0.465339 -0.024959 -0.087148 2.000000
0.465339 -0.005920 0.039218 2.000000
0.465339 -0.014101 0.072860 2.000000
0.465339 -0.043407 -0.077395 2.000000
0.465339 0.057633 -0.074249 2.000000
0.465339 -0.082143 0.024759 2.000000
0.465339 0.006030 -0.007709 2.000000
0.465339 0.071044 -0.024456 2.000000
0.465339 0.061199 -0.060587 2.000000
0.465339 -0.012607 0.058108 2.000000
0.465339 -0.022847 -0.091104 2.000000
0.465339 -0.054573 -0.058947 2.000000
0.465339 -0.050541 0.047695 2.000000
0.465339 -0.000159 -0.087982 2.000000
0.465339 -0.031156 -0.014640 2.000000
0.465339 0.060572 -0.014338 2.000000
0.465339 0.030753 -0.020954 2.000000
0.465339 -0.039567 -0.076714 2.000000
0.465339 -0.035068 0.050355 2.000000
0.465339 -0.063472 0.000874 2.000000
0.465339 0.001610 -0.034196 2.000000
0.465339 0.058406 -0.034313 2.000000
0.465339 0.014031 -0.005413 2.000000
0.465339 0.064325 -0.003083 2.000000
0.465339 0.049724 -0.069036 2.000000
0.465339 -0.036448 0.047218 2.000000
0.465339 0.091282 -0.013686 2.000000
0.465339 -0.028334 0.000701 2.000000
0.465339 -0.060959 -0.030567 2.000000
0.465339 -0.044282 -0.006516 2.000000
0.465339 0.010672 0.057451 2.000000
0.465339 0.035686 0.069720 2.000000
0.465339 -0.039607 0.008008 2.000000
0.465339 0.068367 -0.014191 2.000000
0.465339 -0.052842 0.045360 2.000000
0.465339 0.044424 -0.066191 2.000000
0.465339 -0.026069 0.072492 2.000000
0.465339 -0.053335 0.038765 2.000000
0.465339 -0.041846 -0.053400 2.000000
0.465339 0.029244 -0.055709 2.000000
0.465339 0.012505 -0.029437 2.000000
0.465339 -0.007705 0.027996 2.000000
0.465339 0.005834 -0.051485 2.000000
0.465339 0.039075 0.010333 2.000000
0.465339 0.027037 -0.094233 2.000000
0.465339 -0.002609 -0.091448 2.000000
0.465339 -0.080113 -0.018585 2.000000
0.465339 0.049172 -0.077041 2.000000
0.465339 -0.030569 -0.032982 2.000000
0.465339 -0.003343 0.083004 2.000000
0.465339 0.003737 0.094985 2.000000
0.465339 -0.042221 0.041502 2.000000
0.465339 0.056737 0.052530 2.000000
0.465339 0.040076 -0.060158 2.000000
0.465339 0.009228 0.026239 2.000000
0.465339 -0.004640 -0.044186 2.000000
0.465339 0.079766 -0.036508 2.000000
0.465339 -0.064163 0.069488 2.000000
0.465339 -0.012918 0.037265 2.000000
0.465339 -0.049144 0.056533 2.000000
0.465339 -0.059496 -0.072357 2.000000
0.465339 0.027418 -0.023065 2.000000
0.465339 -0.055834 -0.043115 2.000000
0.465339 -0.029318 0.004445 2.000000
0.465339 0.043474 0.055829 2.000000
0.465339 0.066640 -0.028516 2.000000
0.465339 0.065327 0.021655 2.000000
0.465339 -0.029043 -0.002481 2.000000
0.465339 0.066058 0.028227 2.000000
0.465339 0.077256 -0.044995 2.000000
0.465339 0.080828 -0.005543 2.000000
0.465339 0.047679 0.024542 2.000000
0.465339 0.075964 0.035989 2.000000
0.465339 0.064572 0.048572 2.000000
0.465339 -0.049065 0.052619 2.000000
0.465339 -0.080569 -0.044849 2.000000
0.465339 0.017965 -0.079659 2.000000
0.465339 -0.019517 0.083462 2.000000
0.465339 0.039536 -0.076915 2.000000
0.465339 0.025986 0.088850 2.000000
0.465339 -0.005988 0.003123 2.000000
0.465339 0.002162 0.012930 2.000000
0.465339 -0.002531 0.027346 2.000000
0.465339 0.001293 0.075719 2.000000
0.465339 0.031674 0.029977 2.000000
0.465339 0.033703 0.069009 2.000000
0.465339 -0.078635 0.003180 2.000000
0.465339 0.018503 0.069605 2.000000
0.465339 -0.071318 0.061864 2.000000
0.465339 0.028959 -0.013569 2.000000
0.465339 0.001732 -0.044959 2.000000
0.465339 -0.058919 0.012688 2.000000
0.465339 0.064094 0.023723 2.000000
0.465339 -0.018292 0.067178 2.000000
0.465339 0.078207 0.029107 2.000000
0.465339 -0.044502 0.028945 2.000000
0.465339 -0.080837 0.058339 2.000000
0.465339 0.038237 0.058288 2.000000
0.465339 -0.036713 -0.085108 2.000000
0.465339 -0.088806 -0.044167 2.000000
0.465339 0.041130 0.012760 2.000000
0.465339 -0.080726 0.024197 2.000000
0.465339 -0.079337 -0.020288 2.000000
0.465339 0.099522 0.000349 2.000000
0.465339 0.071354 -0.068719 2.000000
0.465339 -0.060207 -0.033143 2.000000
0.465339 -0.049393 -0.086444 2.000000
0.465339 0.014537 -0.079930 2.000000
0.465339 -0.036228 0.059225 2.000000
0.465339 0.007243 0.019681 2.000000
0.465339 -0.067469 0.045876 2.000000
0.465339 -0.014472 0.016317 2.000000
0.465339 -0.082369 0.028474 2.000000
0.465339 -0.052855 0.027857 2.000000
0.465339 0.073683 0.030200 2.000000
0.465339 0.039533 0.073782 2.000000
0.465339 -0.077067 0.005311 2.000000
0.465339 0.098043 -0.000285 2.000000
0.465339 -0.014936 -0.041786 2.000000
0.465339 -0.008135 0.085057 2.000000
0.465339 0.057905 0.055486 2.000000
0.465339 0.060809 -0.070154 2.000000
0.465339 0.080313 0.002173 2.000000
0.465339 -0.081277 -0.023581 2.000000
0.465339 0.057267 0.051134 2.000000
0.465339 -0.020054 -0.051965 2.000000
0.465339 0.024426 0.027918 2.000000
0.465339 -0.063590 -0.052645 2.000000
0.465339 0.058497 0.042748 2.000000
0.465339 -0.092344 -0.032603 2.000000
0.465339 0.057857 0.007605 2.000000
0.465339 -0.015674 -0.036941 2.000000
0.465339 -0.011241 -0.069534 2.000000
0.465339 0.091117 -0.031460 2.000000
0.465339 -0.062696 -0.043851 2.000000
0.465339 -0.090936 -0.020578 2.000000
0.465339 -0.016542 0.083280 2.000000
0.465339 0.050172 -0.055878 2.000000
0.465339 0.075042 -0.057742 2.000000
0.465339 0.024394 -0.002275 2.000000
0.465339 -0.010102 -0.025356 2.000000
0.465339 0.015594 0.095708 2.000000
0.465339 0.071267 0.039141 2.000000
0.465339 0.052063 0.017015 2.000000
0.465339 -0.003659 0.096151 2.000000
0.465339 -0.075130 -0.000516 2.000000
0.465339 -0.022600 0.067565 2.000000
0.465339 0.052342 -0.063002 2.000000
0.465339 -0.001946 -0.097935 2.000000
0.465339 0.047245 0.005060 2.000000
0.465339 0.022592 0.093682 2.000000
0.465339 -0.036415 0.084344 2.000000
0.465339 -0.072481 0.008615 2.000000
0.465339 0.081652 0.023781 2.000000
0.465339 0.031562 -0.071736 2.000000
0.465339 0.021079 0.033702 2.000000
0.465339 0.062640 -0.027874 2.000000
0.465339 -0.015689 -0.031983 2.000000
0.465339 0.063056 0.034595 2.000000
0.465339 0.009365 -0.006024 2.000000
0.465339 -0.047222 -0.052993 2.000000
0.465339 0.019494 -0.033650 2.000000
0.465339 0.024331 -0.023479 2.000000
0.465339 0.035101 -0.006569 2.000000
0.465339 -0.023858 0.030610 2.000000
0.465339 0.050921 0.026827 2.000000
0.465339 0.066096 0.050929 2.000000
0.465339 -0.000849 -0.073807 2.000000
0.465339 -0.086261 -0.014285 2.000000
0.465339 0.082247 0.053918 2.000000
0.465339 -0.032899 -0.001435 2.000000
0.465339 0.067548 0.018584 2.000000
0.465339 0.062288 -0.038486 2.000000
0.465339 0.037421 -0.007554 2.000000
0.465339 0.047772 0.083196 2.000000
0.465339 -0.090605 0.023424 2.000000
0.465339 -0.067446 -0.057032 2.000000
0.465339 0.026047 0.002896 2.000000
0.465339 0.027308 0.034903 2.000000
0.465339 -0.064582 0.039658 2.000000
0.465339 0.006289 -0.060581 2.000000
0.465339 -0.032817 0.042606 2.000000
0.465339 0.051002 -0.070182 2.000000
0.465339 -0.042128 0.076268 2.000000
0.465339 0.055316 -0.009155 2.000000
0.465339 -0.073131 -0.013478 2.000000
0.465339 -0.070181 0.005831 2.000000
0.465339 0.090952 0.028052 2.000000
0.465339 -0.048140 -0.057555 2.000000
0.465339 -0.069634 0.044476 2.000000
0.465339 0.075155 -0.015357 2.000000
0.465339 0.051899 -0.066876 2.000000
0.465339 0.002907 -0.037577 2.000000
0.465339 0.019612 -0.040586 2.000000
0.465339 -0.030208 0.002761 2.000000
0.465339 -0.015158 0.087033 2.000000
0.465339 -0.078857 0.045710 2.000000
0.465339 0.048991 0.056944 2.000000
0.465339 -0.073941 -0.009186 2.000000
0.465339 0.042073 -0.079750 2.000000
0.465339 -0.029071 -0.028953 2.000000
0.465339 0.062771 0.058292 2.000000
0.465339 -0.037803 -0.038568 2.000000
0.465339 0.043913 -0.015960 2.000000
0.465339 -0.047036 0.056955 2.000000
0.465339 0.013142 -0.080534 2.000000
0.465339 -0.021733 0.086258 2.000000
0.465339 -0.064636 -0.025463 2.000000
0.465339 -0.012094 0.087636 2.000000
0.465339 -0.069692 -0.031225 2.000000
0.465339 0.010055 -0.077078 2.000000
0.465339 0.023975 -0.039444 2.000000
0.465339 0.088505 -0.028804 2.000000
0.465339 0.028218 0.010720 2.000000
0.465339 -0.007016 -0.030011 2.000000
0.465339 0.066935 -0.005382 2.000000
0.465339 0.045731 0.081694 2.000000
0.465339 0.084878 0.020907 2.000000
0.465339 -0.042646 -0.062391 2.000000
0.465339 0.022170 0.036528 2.000000
0.465339 -0.026646 -0.025983 2.000000
0.465339 -0.039480 0.032077 2.000000
0.465339 -0.038378 0.018006 2.000000
0.465339 -0.032296 0.052933 2.000000
0.465339 -0.037707 0.000553 2.000000
0.465339 0.016455 -0.065972 2.000000
0.465339 0.076156 0.022181 2.000000
0.465339 -0.019399 0.028220 2.000000
0.465339 0.027516 0.091042 2.000000
0.465339 0.040292 0.060270 2.000000
0.465339 0.006893 0.067443 2.000000
0.465339 -0.004672 -0.053067 2.000000
0.465339 -0.047453 -0.066831 2.000000
0.465339 0.058186 -0.014481 2.000000
0.465339 0.015808 -0.070802 2.000000
0.465339 -0.077239 -0.027035 2.000000
0.465339 -0.035524 -0.078514 2.000000
0.465339 0.038791 -0.033547 2.000000
0.465339 0.036414 -0.027358 2.000000
0.465339 0.007333 -0.063651 2.000000
0.465339 0.028626 0.005873 2.000000
0.465339 0.023011 0.066680 2.000000
0.465339 -0.032918 -0.060439 2.000000
0.465339 -0.043497 0.015861 2.000000
0.465339 -0.022619 0.058112 2.000000
0.465339 0.073169 0.025878 2.000000
0.465339 -0.050377 0.073064 2.000000
0.465339 0.034390 0.040732 2.000000
0.465339 0.042229 -0.067857 2.000000
0.465339 -0.024437 0.044848 2.000000
0.465339 0.047195 0.072545 2.000000
0.465339 0.083100 -0.014922 2.000000
0.465339 -0.007515 -0.006894 2.000000
0.465339 -0.047993 -0.072827 2.000000
0.465339 -0.074032 0.030111 2.000000
0.465339 -0.067812 0.029576 2.000000
0.465339 -0.091039 0.026191 2.000000
0.465339 -0.045457 -0.068169 2.000000
0.465339 -0.072219 0.010012 2.000000
0.465339 -0.068552 -0.066579 2.000000
0.465339 -0.025943 0.030138 2.000000
0.465339 0.018349 0.032227 2.000000
0.465339 0.035673 -0.020720 2.000000
0.465339 -0.041239 0.088437 2.000000
0.465339 0.019557 -0.043993 2.000000
0.465339 0.057909 -0.044453 2.000000
0.465339 0.092241 0.025366 2.000000
0.465339 0.017768 0.098233 2.000000
0.465339 0.092802 0.036025 2.000000
0.465339 -0.017438 -0.016978 2.000000
0.465339 0.069821 -0.010184 2.000000
0.465339 -0.071446 0.022864 2.000000
0.465339 -0.095499 0.016983 2.000000
0.465339 0.059833 0.049627 2.000000
0.465339 0.069458 0.009359 2.000000
0.465339 0.054678 0.038505 2.000000
0.465339 -0.030677 -0.020753 2.000000
0.465339 0.051474 -0.004058 2.000000
0.465339 0.034730 0.039084 2.000000
0.465339 -0.019619 -0.041992 2.000000
0.465339 -0.046602 -0.057859 2.000000
0.465339 -0.081850 0.033085 2.000000
0.465339 -0.066934 -0.005458 2.000000
0.465339 0.011382 0.031733 2.000000
0.465339 -0.053364 0.061652 2.000000
0.465339 -0.089317 -0.017682 2.000000
0.465339 -0.074300 -0.051385 2.000000
0.465339 0.031727 0.084737 2.000000
0.465339 -0.015691 0.078879 2.000000
0.465339 -0.011951 -0.044591 2.000000
0.465339 0.095913 0.019253 2.000000
0.465339 -0.026417 0.058323 2.000000
0.465339 0.048925 -0.079973 2.000000
0.465339 -0.001621 0.040327 2.000000
0.465339 -0.018097 0.010263 2.000000
0.465339 -0.049668 -0.027524 2.000000
0.465339 -0.000528 -0.078960 2.000000
0.465339 -0.008756 0.076775 2.000000
0.465339 0.056385 -0.050054 2.000000
0.465339 0.077217 0.019332 2.000000
0.465339 0.059006 0.072275 2.000000
0.465339 0.066005 0.036617 2.000000
0.465339 -0.070101 0.067064 2.000000
0.465339 0.083067 0.024663 2.000000
0.465339 0.079246 0.005761 2.000000
0.465339 -0.063133 -0.021211 2.000000
0.465339 -0.023591 -0.057418 2.000000
0.465339 0.073648 -0.020178 2.000000
0.465339 0.062196 -0.063785 2.000000
0.465339 -0.012823 -0.009030 2.000000
0.465339 0.033432 0.080576 2.000000
0.465339 0.085504 -0.005451 2.000000
0.465339 0.028622 0.033726 2.000000
0.465339 -0.033305 0.001820 2.000000
0.465339 0.036936 -0.066384 2.000000
0.465339 0.005072 -0.059387 2.000000
0.465339 -0.030107 -0.024285 2.000000
0.465339 0.056199 -0.027788 2.000000
0.465339 0.012179 0.086797 2.000000
0.465339 -0.087713 0.004254 2.000000
0.465339 -0.043891 0.076559 2.000000
0.465339 -0.060779 -0.011004 2.000000
0.465339 0.018925 -0.095606 2.000000
0.465339 0.036089 -0.036825 2.000000
0.465339 0.022285 0.050139 2.000000
0.465339 0.025787 0.048108 2.000000
0.465339 0.052379 0.067982 2.000000
0.465339 -0.019292 -0.033115 2.000000
0.465339 0.058641 -0.016425 2.000000
0.465339 0.035893 0.003180 2.000000
0.465339 0.038465 -0.036343 2.000000
0.465339 0.085095 0.012404 2.000000
0.465339 -0.023921 -0.025476 2.000000
0.465339 0.030906 0.091616 2.000000
0.465339 -0.053635 0.054536 2.000000
0.465339 0.038154 0.080320 2.000000
0.465339 0.091121 0.021714 2.000000
0.465339 0.038868 0.089889 2.000000
0.465339 0.009916 0.044002 2.000000
0.465339 0.085608 0.029352 2.000000
0.465339 -0.044789 -0.076462 2.000000
0.465339 0.075867 0.037607 2.000000
0.465339 -0.048722 -0.018585 2.000000
0.465339 0.017800 0.025125 2.000000
0.465339 0.036052 -0.038435 2.000000
0.465339 0.032124 0.087169 2.000000
0.465339 -0.051448 -0.019632 2.000000
0.465339 -0.032823 0.000143 2.000000
0.465339 0.052224 -0.056008 2.000000
0.465339 -0.012689 -0.052785 2.000000
0.465339 0.061359 -0.022604 2.000000
0.465339 -0.035880 0.001677 2.000000
0.465339 -0.001201 -0.063215 2.000000
0.465339 0.035971 0.058349 2.000000
0.465339 0.086184 -0.003015 2.000000
0.465339 0.020306 -0.024597 2.000000
0.465339 -0.003205 0.084873 2.000000
0.465339 -0.065586 -0.072294 2.000000
0.465339 -0.045161 0.020514 2.000000
0.465339 -0.074654 0.063602 2.000000
0.465339 -0.094258 -0.024660 2.000000
0.465339 0.057811 -0.009488 2.000000
0.465339 -0.031411 -0.031487 2.000000
0.465339 -0.037502 -0.070904 2.000000
0.465339 -0.015685 -0.086926 2.000000
0.465339 -0.072084 -0.052164 2.000000
0.465339 0.009768 -0.042088 2.000000
0.465339 -0.074559 -0.022055 2.000000
0.465339 0.002926 -0.010882 2.000000
0.465339 -0.010668 -0.014062 2.000000
0.465339 0.039646 -0.053832 2.000000
0.465339 -0.064505 -0.007110 2.000000
0.465339 -0.060304 0.047916 2.000000
0.465339 0.004068 0.081723 2.000000
0.465339 -0.078419 -0.003289 2.000000
0.465339 -0.066060 0.068513 2.000000
0.465339 0.026961 -0.041706 2.000000
0.465339 -0.026945 0.047883 2.000000
0.465339 0.031155 0.040860 2.000000
0.465339 -0.021510 0.015182 2.000000
0.465339 0.053819 -0.032287 2.000000
0.465339 -0.074557 0.061289 2.000000
0.465339 0.097006 0.012535 2.000000
0.465339 -0.095314 0.008189 2.000000
0.465339 0.078162 -0.005192 2.000000
0.465339 -0.058364 -0.034093 2.000000
0.465339 0.002425 -0.065127 2.000000
0.465339 -0.037574 -0.064739 2.000000
0.465339 0.058324 0.014909 2.000000
0.465339 0.001887 -0.003871 2.000000
0.465339 0.094814 0.030481 2.000000
0.465339 0.079923 0.016745 2.000000
0.465339 -0.078150 -0.001669 2.000000
0.465339 -0.023616 0.079504 2.000000
0.465339 -0.074735 0.042181 2.000000
0.465339 -0.024811 0.060619 2.000000
0.465339 0.025995 0.010355 2.000000
0.465339 -0.095445 -0.016982 2.000000
0.465339 -0.037154 -0.025385 2.000000
0.465339 0.009817 -0.026915 2.000000
0.465339 -0.037442 -0.045393 2.000000
0.465339 -0.049233 0.054924 2.000000
0.465339 -0.000308 -0.019595 2.000000
0.465339 0.071120 0.023479 2.000000
0.465339 -0.039151 -0.069528 2.000000
0.465339 0.032809 0.094142 2.000000
0.465339 0.026047 0.083725 2.000000
0.465339 -0.062966 0.040237 2.000000
0.465339 -0.094319 0.022097 2.000000
0.465339 -0.008261 0.074328 2.000000
0.465339 -0.029368 0.053770 2.000000
0.465339 0.009812 0.021078 2.000000
0.465339 0.075190 -0.025884 2.000000
0.465339 -0.004013 -0.046026 2.000000
0.465339 -0.000542 -0.028072 2.000000
0.465339 -0.025958 -0.008767 2.000000
0.465339 -0.029016 0.006718 2.000000
0.465339 0.064102 -0.032389 2.000000
0.465339 0.020194 0.055772 2.000000
0.465339 -0.015832 -0.045178 2.000000
0.465339 0.007547 0.080164 2.000000
0.465339 0.006971 0.046249 2.000000
0.465339 -0.018452 0.045515 2.000000
0.465339 -0.052080 0.009445 2.000000
0.465339 0.005194 0.017411 2.000000
0.465339 -0.016676 0.010763 2.000000
0.465339 -0.083432 -0.028385 2.000000
0.465339 0.072807 0.000930 2.000000
0.465339 0.027423 0.060457 2.000000
0.465339 0.084315 -0.007908 2.000000
0.465339 -0.052725 -0.070173 2.000000
0.465339 0.037456 0.027552 2.000000
0.465339 0.047813 0.018220 2.000000
0.465339 0.017848 -0.065802 2.000000
0.465339 -0.048897 -0.065422 2.000000
0.465339 -0.077281 -0.046137 2.000000
0.465339 0.084367 0.025127 2.000000
0.465339 0.070704 -0.004434 2.000000
0.465339 0.085281 0.022243 2.000000
0.465339 0.045832 0.050842 2.000000
0.465339 0.043737 0.078774 2.000000
0.465339 0.023258 0.016361 2.000000
0.465339 -0.086326 0.036050 2.000000
0.465339 -0.072343 -0.068261 2.000000
0.465339 0.021700 0.014359 2.000000
0.465339 -0.049624 0.058261 2.000000
0.465339 -0.073638 -0.049123 2.000000
0.465339 0.010151 -0.095112 2.000000
0.465339 0.074486 -0.050521 2.000000
0.465339 -0.070982 0.052025 2.000000
0.465339 -0.011375 0.081342 2.000000
0.465339 -0.012216 -0.002298 2.000000
0.465339 -0.043941 0.062386 2.000000
0.465339 0.035414 0.037866 2.000000
0.465339 0.070096 0.040007 2.000000
0.465339 -0.076491 0.050468 2.000000
0.465339 0.023990 -0.053463 2.000000
0.465339 0.042375 0.002738 2.000000
0.465339 0.094274 0.013022 2.000000
0.465339 -0.067256 0.034075 2.000000
0.465339 -0.083936 -0.009992 2.000000
0.465339 -0.057835 0.052926 2.000000
0.465339 0.008225 0.048717 2.000000
0.465339 0.076544 -0.022592 2.000000
0.465339 -0.030875 -0.046604 2.000000
0.465339 0.034713 -0.008714 2.000000
0.465339 -0.091429 -0.031299 2.000000
0.465339 0.031198 -0.036320 2.000000
0.465339 -0.031637 0.086622 2.000000
0.465339 0.074237 0.009746 2.000000
0.465339 0.078538 0.008530 2.000000
0.465339 -0.041289 0.028131 2.000000
0.465339 0.007728 0.087762 2.000000
0.465339 -0.004553 -0.014734 2.000000
0.465339 -0.058784 -0.025235 2.000000
0.465339 0.064784 -0.008445 2.000000
0.465339 -0.053459 -0.071953 2.000000
0.465339 0.032265 -0.064703 2.000000
0.465339 0.025516 -0.052849 2.000000
0.465339 -0.049301 0.023893 2.000000
0.465339 -0.054173 -0.044114 2.000000
0.465339 0.018302 -0.054562 2.000000
0.465339 -0.015797 0.080974 2.000000
0.465339 -0.044642 0.033334 2.000000
0.465339 0.018944 -0.059384 2.000000
0.465339 0.005166 0.010222 2.000000
0.465339 0.009157 0.056049 2.000000
0.465339 0.074930 -0.008671 2.000000
0.465339 0.019610 -0.037079 2.000000
0.465339 0.082846 -0.003322 2.000000
0.465339 0.039017 0.064506 2.000000
0.465339 0.093875 0.024546 2.000000
0.465339 0.009624 0.079361 2.000000
0.465339 -0.005957 -0.008923 2.000000
0.465339 -0.017149 0.036367 2.000000
0.465339 -0.069523 0.052512 2.000000
0.465339 -0.039337 -0.035655 2.000000
0.465339 0.041080 -0.047689 2.000000
0.465339 0.075311 0.060560 2.000000
0.465339 0.057431 -0.012159 2.000000
0.465339 0.070893 0.004009 2.000000
0.465339 -0.083523 -0.018025 2.000000
0.465339 -0.072130 -0.061522 2.000000
0.465339 0.024665 0.062040 2.000000
0.465339 0.021536 -0.035330 2.000000
0.465339 0.039242 -0.070936 2.000000
0.465339 0.062896 -0.006227 2.000000
0.465339 0.029522 -0.072830 2.000000
0.465339 -0.006786 0.064416 2.000000
0.465339 0.065572 -0.033196 2.000000
0.465339 0.011973 0.013070 2.000000
0.465339 -0.075835 -0.019084 2.000000
0.465339 -0.004182 -0.026719 2.000000
0.465339 0.006836 0.050587 2.000000
0.465339 -0.060681 -0.006290 2.000000
0.465339 0.080325 -0.027440 2.000000
0.465339 -0.041064 -0.011069 2.000000
0.465339 0.043364 -0.039823 2.000000
0.465339 -0.037695 0.061795 2.000000
0.465339 -0.052610 -0.076868 2.000000
0.465339 -0.094352 0.031336 2.000000
0.465339 -0.025973 0.050340 2.000000
0.465339 -0.010004 0.097271 2.000000
0.465339 0.070417 -0.033814 2.000000
0.465339 0.053249 0.038630 2.000000
0.465339 0.025150 -0.054484 2.000000
0.465339 -0.044741 -0.087404 2.000000
0.465339 -0.010148 0.031818 2.000000
0.465339 -0.036604 0.023308 2.000000
0.465339 -0.020137 0.087835 2.000000
0.465339 -0.065097 -0.042211 2.000000
0.465339 -0.061419 0.005810 2.000000
0.465339 -0.012097 -0.015346 2.000000
0.465339 0.047970 0.067901 2.000000
0.465339 0.049967 -0.064414 2.000000
0.465339 0.062028 0.061302 2.000000
0.465339 0.050881 0.044632 2.000000
0.465339 -0.043484 0.054674 2.000000
0.465339 0.074469 -0.053460 2.000000
0.465339 -0.080893 0.006726 2.000000
0.465339 -0.061912 0.048670 2.000000
0.465339 0.028341 -0.035247 2.000000
0.465339 0.072759 0.005254 2.000000
0.465339 -0.028974 0.025329 2.000000
0.465339 0.065142 0.013343 2.000000
0.465339 0.081216 -0.033139 2.000000
0.465339 -0.006247 0.050458 2.000000
0.465339 0.098527 -0.004181 2.000000
0.465339 0.081119 -0.022333 2.000000
0.465339 -0.057422 0.017178 2.000000
0.465339 -0.082288 0.020890 2.000000
0.465339 0.044793 0.069664 2.000000
0.465339 -0.028632 0.036821 2.000000
0.465339 0.026349 0.038901 2.000000
0.465339 0.050594 0.036812 2.000000
0.465339 0.027174 0.033427 2.000000
0.465339 0.031250 -0.082623 2.000000
0.465339 -0.057984 -0.016815 2.000000
0.465339 -0.056724 -0.023105 2.000000
0.465339 0.055983 0.070804 2.000000
0.465339 0.039965 0.080140 2.000000
0.465339 -0.071070 0.068856 2.000000
0.465339 -0.064518 -0.045125 2.000000
0.465339 0.001944 0.056474 2.000000
0.465339 0.040432 0.088593 2.000000
0.465339 -0.066132 0.000372 2.000000
0.465339 0.085432 -0.047768 2.000000
0.465339 -0.009644 -0.042537 2.000000
0.465339 0.015739 0.047839 2.000000
0.465339 -0.040026 0.073294 2.000000
0.465339 -0.038052 0.008024 2.000000
0.465339 -0.033534 -0.009809 2.000000
0.465339 0.048739 0.072758 2.000000
0.465339 -0.026009 -0.064162 2.000000
0.465339 -0.023934 0.026056 2.000000
0.465339 -0.091350 0.021808 2.000000
0.465339 0.018294 -0.093621 2.000000
0.465339 -0.068767 -0.048313 2.000000
0.465339 -0.044218 0.085720 2.000000
0.465339 -0.063144 -0.032586 2.000000
0.465339 0.037842 0.055941 2.000000
0.465339 -0.024672 0.081146 2.000000
0.465339 -0.068277 -0.035408 2.000000
0.465339 -0.050355 0.077429 2.000000
0.465339 0.010999 -0.007427 2.000000
0.465339 0.005395 0.050794 2.000000
0.465339 -0.021883 0.043282 2.000000
0.465339 0.041683 -0.066504 2.000000
0.465339 0.031544 0.016001 2.000000
0.465339 -0.047234 0.081625 2.000000
0.465339 0.046554 -0.006040 2.000000
0.465339 0.032865 -0.067770 2.000000
0.465339 0.034971 -0.013377 2.000000
0.465339 -0.086998 0.003021 2.000000
0.465339 0.052527 -0.051964 2.000000
0.465339 0.094229 0.016869 2.000000
0.465339 -0.036189 -0.064394 2.000000
0.465339 -0.003449 0.040506 2.000000
0.465339 -0.076444 0.039345 2.000000
0.465339 0.003514 0.092689 2.000000
0.465339 0.042534 -0.036447 2.000000
0.465339 -0.071018 -0.017433 2.000000
0.465339 0.004887 0.072615 2.000000
0.465339 -0.022050 -0.016651 2.000000
0.465339 -0.008594 0.035291 2.000000
0.465339 -0.072780 -0.063056 2.000000
0.465339 0.090339 -0.002865 2.000000
0.465339 0.086811 -0.039964 2.000000
0.465339 0.034260 0.053170 2.000000
0.465339 0.049646 -0.002930 2.000000
0.465339 0.006842 -0.011487 2.000000
0.465339 0.024568 0.065551 2.000000
0.465339 -0.048527 0.077479 2.000000
0.465339 0.083609 0.022834 2.000000
0.465339 0.021365 -0.070864 2.000000
0.465339 0.071602 0.031516 2.000000
0.465339 -0.027323 -0.045040 2.000000
0.465339 0.055132 -0.080646 2.000000
0.465339 -0.079226 -0.000331 2.000000
0.465339 -0.074609 -0.014769 2.000000
0.465339 -0.014294 0.094844 2.000000
0.465339 -0.014222 0.035504 2.000000
0.465339 0.010169 0.050525 2.000000
0.465339 0.002017 0.079248 2.000000
0.465339 0.086547 -0.036110 2.000000
0.465339 -0.018825 0.077689 2.000000
0.465339 0.031391 -0.043299 2.000000
0.465339 -0.032624 -0.065572 2.000000
0.465339 0.081633 -0.055092 2.000000
0.465339 -0.002847 -0.047095 2.000000
0.465339 -0.018677 -0.009944 2.000000
0.465339 0.004657 0.080429 2.000000
0.465339 -0.044253 0.013142 2.000000
0.465339 0.049591 0.051013 2.000000
0.465339 -0.032605 -0.054762 2.000000
0.465339 -0.012027 0.031174 2.000000
0.465339 -0.080738 -0.026734 2.000000
0.465339 -0.027307 0.044833 2.000000
0.465339 0.087356 0.032884 2.000000
0.465339 0.043960 0.052043 2.000000
0.465339 0.046934 0.037339 2.000000
0.465339 0.028597 -0.093170 2.000000
0.465339 -0.012609 0.006996 2.000000
0.465339 -0.048687 -0.021632 2.000000
0.465339 -0.083107 -0.054175 2.000000
0.465339 0.019803 0.068582 2.000000
0.465339 -0.025911 0.011531 2.000000
0.465339 0.042151 0.053666 2.000000
0.465339 0.049989 0.006662 2.000000
0.465339 0.008370 -0.092355 2.000000
0.465339 0.067953 0.025716 2.000000
0.465339 -0.029591 -0.042633 2.000000
0.465339 0.074687 0.000839 2.000000
0.465339 -0.004194 0.027917 2.000000
0.465339 0.035278 -0.017007 2.000000
0.465339 -0.007287 -0.024412 2.000000
0.465339 0.051296 -0.054510 2.000000
0.465339 -0.055445 -0.062484 2.000000
0.465339 -0.022559 -0.027918 2.000000
0.465339 0.042255 0.013655 2.000000
0.465339 0.079657 0.059723 2.000000
0.465339 -0.062629 0.069407 2.000000
0.465339 -0.044126 0.078419 2.000000
0.465339 -0.020985 0.089043 2.000000
0.465339 0.041625 0.080449 2.000000
0.465339 -0.091455 0.015368 2.000000
0.465339 0.030966 0.010727 2.000000
0.465339 -0.055237 -0.020259 2.000000
0.465339 0.046057 0.065078 2.000000
0.465339 -0.032745 -0.089177 2.000000
0.465339 -0.020089 0.054063 2.000000
0.465339 -0.005514 0.017478 2.000000
0.465339 -0.012654 -0.096067 2.000000
0.465339 -0.083932 0.002490 2.000000
0.465339 0.035101 -0.027202 2.000000
0.465339 -0.028309 0.070051 2.000000
0.465339 0.049608 -0.022498 2.000000
0.465339 0.025870 0.020733 2.000000
0.465339 0.016304 0.013263 2.000000
0.465339 0.063824 0.011211 2.000000
0.465339 -0.071965 -0.027589 2.000000
0.465339 -0.061601 0.013400 2.000000
0.465339 -0.024691 0.091595 2.000000
0.465339 0.096634 0.005811 2.000000
0.465339 0.004824 -0.094446 2.000000
0.465339 -0.017108 0.057161 2.000000
0.465339 0.034609 0.083315 2.000000
0.465339 -0.011460 0.035819 2.000000
0.465339 -0.046730 -0.085575 2.000000
0.465339 0.009543 -0.002919 2.000000
0.465339 -0.054933 -0.078352 2.000000
0.465339 -0.066067 -0.003559 2.000000
0.465339 -0.055079 0.070054 2.000000
0.465339 0.088418 -0.042118 2.000000
0.465339 0.030836 -0.051454 2.000000
0.465339 -0.006303 -0.037249 2.000000
0.465339 -0.089805 0.024993 2.000000
0.465339 -0.061901 0.004367 2.000000
0.465339 -0.075381 0.017208 2.000000
0.465339 -0.037154 0.079376 2.000000
0.465339 0.061736 0.047894 2.000000
0.465339 -0.001576 0.001031 2.000000
0.465339 0.000630 0.033141 2.000000
0.465339 0.068793 0.033352 2.000000
0.465339 0.021235 -0.037165 2.000000
0.465339 -0.034980 -0.052415 2.000000
0.465339 -0.004916 0.099598 2.000000
0.465339 -0.018126 0.015185 2.000000
0.465339 0.063538 -0.066072 2.000000
0.465339 0.044796 0.040016 2.000000
0.465339 0.045795 -0.065573 2.000000
0.465339 -0.015045 -0.073433 2.000000
0.465339 0.011288 0.062243 2.000000
0.465339 -0.057621 0.025389 2.000000
0.465339 0.021127 -0.020973 2.000000
0.465339 0.006944 0.034587 2.000000
0.465339 0.081098 0.005410 2.000000
0.465339 0.062987 -0.049832 2.000000
0.465339 -0.000895 -0.004145 2.000000
0.465339 0.006856 0.017896 2.000000
0.465339 -0.077158 0.062498 2.000000
0.465339 -0.044130 -0.023636 2.000000
0.465339 -0.081929 0.002739 2.000000
0.465339 0.030482 0.063143 2.000000
0.465339 0.069723 0.028932 2.000000
0.465339 -0.052052 0.036889 2.000000
0.465339 -0.090129 0.020542 2.000000
0.465339 0.057636 -0.001952 2.000000
0.465339 0.074599 0.031697 2.000000
0.465339 0.079876 0.035102 2.000000
0.465339 -0.076457 -0.007144 2.000000
0.465339 -0.067653 -0.049939 2.000000
0.465339 -0.006608 -0.090273 2.000000
0.465339 -0.013023 -0.047609 2.000000
0.465339 0.052745 0.065787 2.000000
0.465339 0.037494 0.070988 2.000000
0.465339 -0.060130 -0.013294 2.000000
0.465339 -0.013438 0.017154 2.000000
0.465339 0.066534 -0.018504 2.000000
0.465339 -0.019887 -0.097574 2.000000
0.465339 -0.033602 -0.035880 2.000000
0.465339 0.050972 -0.063230 2.000000
0.465339 0.084843 -0.046353 2.000000
0.465339 0.091769 0.001650 2.000000
0.465339 0.055016 0.075926 2.000000
0.465339 -0.011155 -0.061335 2.000000
0.465339 0.028357 -0.084155 2.000000
0.465339 0.005486 -0.080828 2.000000
0.465339 -0.019497 0.046710 2.000000
0.465339 0.058425 -0.075834 2.000000
0.465339 -0.042721 0.010563 2.000000
0.465339 0.006134 0.005799 2.000000
0.465339 0.055113 0.046963 2.000000
0.465339 -0.084989 -0.051961 2.000000
0.465339 0.000861 0.045795 2.000000
0.465339 -0.006202 -0.091548 2.000000
0.465339 0.038368 0.078770 2.000000
0.465339 0.070262 0.033303 2.000000
0.465339 -0.046726 -0.076709 2.000000
0.465339 0.071753 0.035658 2.000000
0.465339 -0.027609 0.075751 2.000000
0.465339 -0.069543 -0.064361 2.000000
0.465339 -0.062202 -0.007080 2.000000
0.465339 0.034239 -0.047882 2.000000
0.465339 0.069590 -0.024343 2.000000
0.465339 0.082574 -0.046234 2.000000
0.465339 -0.027523 0.017538 2.000000
0.465339 -0.049333 0.086883 2.000000
0.465339 0.000975 -0.079333 2.000000
0.465339 -0.004971 -0.062964 2.000000
0.465339 0.035913 -0.058060 2.000000
0.465339 0.049013 -0.004533 2.000000
0.465339 0.051142 -0.048257 2.000000
0.465339 0.097605 -0.002551 2.000000
0.465339 0.034768 -0.059334 2.000000
0.465339 0.088971 0.011171 2.000000
0.465339 0.027405 -0.010115 2.000000
0.465339 -0.042431 -0.038267 2.000000
0.465339 0.072842 0.024428 2.000000
0.465339 -0.088615 0.020668 2.000000
0.465339 -0.021302 0.028661 2.000000
0.465339 0.019560 -0.015573 2.000000
0.465339 0.030985 -0.075975 2.000000
0.465339 -0.070221 0.070963 2.000000
0.465339 -0.075126 -0.060611 2.000000
0.465339 -0.000366 -0.082205 2.000000
0.465339 -0.006739 0.000453 2.000000
0.465339 -0.016176 -0.035576 2.000000
0.465339 -0.040380 0.065562 2.000000
0.465339 0.070456 -0.038828 2.000000
0.465339 -0.012553 -0.011324 2.000000
0.465339 0.026810 -0.008644 2.000000
0.465339 -0.039742 -0.010282 2.000000
0.465339 0.024457 0.082785 2.000000
0.465339 -0.051089 0.058989 2.000000
0.465339 0.037051 0.079530 2.000000
0.465339 0.037523 -0.078811 2.000000
0.465339 -0.022459 0.088597 2.000000
0.465339 -0.036154 0.037944 2.000000
0.465339 0.076599 0.060042 2.000000
0.465339 -0.024836 -0.047298 2.000000
0.465339 -0.057098 0.006640 2.000000
0.465339 -0.028592 -0.049126 2.000000
0.465339 -0.000605 -0.039579 2.000000
0.465339 -0.040435 -0.066773 2.000000
0.465339 -0.094616 -0.008954 2.000000
0.465339 0.024921 -0.092079 2.000000
0.465339 -0.067989 0.044204 2.000000
0.465339 -0.027513 -0.039083 2.000000
0.465339 -0.017786 -0.069974 2.000000
0.465339 -0.040626 0.068663 2.000000
0.465339 -0.016795 -0.081505 2.000000
0.465339 -0.072536 -0.006006 2.000000
0.465339 -0.027053 -0.073378 2.000000
0.465339 -0.062435 -0.054060 2.000000
0.465339 -0.044233 -0.078870 2.000000
0.465339 -0.005109 0.096788 2.000000
0.465339 -0.005865 -0.024509 2.000000
0.465339 -0.078486 -0.017898 2.000000
0.465339 0.065991 0.000366 2.000000
0.465339 -0.034474 0.055445 2.000000
0.465339 -0.066608 -0.046902 2.000000
0.465339 -0.042674 0.045280 2.000000
0.465339 -0.095040 -0.022217 2.000000
0.465339 -0.086447 -0.037779 2.000000
0.465339 0.030190 -0.061371 2.000000
0.465339 -0.034265 -0.006175 2.000000
0.465339 -0.060125 0.015826 2.000000
0.465339 -0.036510 0.021749 2.000000
0.465339 0.022512 -0.025933 2.000000
0.465339 -0.012584 -0.046169 2.000000
0.465339 -0.069242 0.041736 2.000000
0.465339 0.039533 0.091607 2.000000
0.465339 0.043948 -0.069128 2.000000
0.465339 -0.057805 0.074552 2.000000
0.465339 0.007986 0.061333 2.000000
0.465339 -0.061735 0.026731 2.000000
0.465339 0.068245 0.058646 2.000000
0.465339 -0.021949 0.048149 2.000000
0.465339 -0.034555 0.051826 2.000000
0.465339 0.078239 0.034632 2.000000
0.465339 0.071469 0.056687 2.000000
0.465339 0.008500 -0.073646 2.000000
0.465339 -0.051517 0.062469 2.000000
0.465339 -0.004755 0.010346 2.000000
0.465339 -0.017656 0.008442 2.000000
0.465339 -0.005274 -0.074517 2.000000
0.465339 0.074227 0.043240 2.000000
0.465339 0.023985 -0.034706 2.000000
0.465339 -0.010494 0.091195 2.000000
0.465339 -0.090659 0.040868 2.000000
0.465339 0.020781 -0.054903 2.000000
0.465339 0.014434 0.005978 2.000000
0.465339 -0.081130 0.052160 2.000000
0.465339 -0.048240 0.058120 2.000000
0.465339 0.018679 -0.056823 2.000000
0.465339 -0.039386 -0.038676 2.000000
0.465339 -0.022006 0.018602 2.000000
0.465339 0.011065 -0.070927 2.000000
0.465339 -0.027060 0.020977 2.000000
0.465339 0.032963 -0.008179 2.000000
0.465339 -0.068625 -0.013429 2.000000
0.465339 -0.082531 -0.049539 2.000000
0.465339 -0.069947 0.014631 2.000000
0.465339 0.065293 -0.062336 2.000000
0.465339 0.013362 0.050060 2.000000
0.465339 0.051244 -0.050627 2.000000
0.465339 -0.058453 -0.032380 2.000000
0.465339 0.052311 -0.041526 2.000000
0.465339 0.014939 0.011274 2.000000
0.465339 0.043591 -0.025554 2.000000
0.465339 0.090138 0.033355 2.000000
0.465339 -0.028587 -0.072575 2.000000
0.465339 -0.065585 0.006065 2.000000
0.465339 -0.008495 0.016878 2.000000
0.465339 -0.000458 0.070309 2.000000
0.465339 -0.047330 -0.081704 2.000000
0.465339 -0.008808 -0.024537 2.000000
0.465339 -0.003749 0.012913 2.000000
0.465339 0.099593 -0.002758 2.000000
0.465339 -0.024264 -0.045381 2.000000
0.465339 0.072648 -0.021401 2.000000
0.465339 -0.058529 0.035202 2.000000
0.465339 -0.071967 0.043687 2.000000
0.465339 0.017943 -0.044358 2.000000
0.465339 0.046452 0.003733 2.000000
0.465339 -0.025381 0.001258 2.000000
0.465339 -0.059245 0.000868 2.000000
0.465339 -0.007512 0.002746 2.000000
0.465339 0.042592 -0.033084 2.000000
0.465339 -0.047514 -0.042637 2.000000
0.465339 0.003935 0.027040 2.000000
0.465339 0.055905 0.054974 2.000000
0.465339 -0.045915 0.004319 2.000000
0.465339 -0.039216 0.046658 2.000000
0.465339 0.044036 -0.064790 2.000000
0.465339 -0.030385 0.067084 2.000000
0.465339 -0.017231 0.022145 2.000000
0.465339 -0.053183 0.031592 2.000000
0.465339 -0.013992 0.008055 2.000000
0.465339 -0.056232 0.043397 2.000000
0.465339 -0.011444 0.029113 2.000000
0.465339 0.038624 0.067230 2.000000
0.465339 -0.032212 0.020828 2.000000
0.465339 0.049718 -0.048622 2.000000
0.465339 0.027736 0.014503 2.000000
0.465339 0.001327 -0.087512 2.000000
0.465339 0.017574 0.080397 2.000000
0.465339 -0.006947 -0.048151 2.000000
0.465339 0.054612 0.072696 2.000000
0.465339 0.009448 0.052934 2.000000
0.465339 0.094400 0.018605 2.000000
0.465339 0.044289 -0.067704 2.000000
0.465339 -0.054835 -0.013179 2.000000
0.465339 0.025485 -0.006319 2.000000
0.465339 0.065205 -0.019849 2.000000
0.465339 -0.050375 0.005608 2.000000
0.465339 -0.033073 -0.016658 2.000000
0.465339 -0.087733 0.007817 2.000000
0.465339 -0.022863 -0.031733 2.000000
0.465339 0.039314 -0.047250 2.000000
0.465339 -0.067956 0.071274 2.000000
0.465339 0.055915 0.009706 2.000000
0.465339 -0.012648 0.011020 2.000000
0.465339 0.070949 -0.022331 2.000000
0.465339 -0.020764 -0.033917 2.000000
0.465339 -0.092815 -0.008161 2.000000
0.465339 -0.046162 -0.063271 2.000000
0.465339 -0.025152 -0.024508 2.000000
0.465339 -0.071325 0.012362 2.000000
0.465339 0.068809 0.016629 2.000000
0.465339 -0.063484 -0.062789 2.000000
0.465339 0.010128 0.058711 2.000000
0.465339 0.042202 -0.024743 2.000000
0.465339 -0.027965 0.055780 2.000000
0.465339 -0.046927 -0.079976 2.000000
0.465339 -0.044294 -0.080713 2.000000
0.465339 -0.010354 0.051394 2.000000
0.465339 -0.038054 -0.043010 2.000000
0.465339 0.036461 -0.004830 2.000000
0.465339 0.041138 -0.023146 2.000000
0.465339 0.018725 -0.027893 2.000000
0.465339 -0.082763 -0.003657 2.000000
0.465339 0.028830 0.009261 2.000000
0.465339 0.020305 -0.013857 2.000000
0.465339 -0.030074 0.092409 2.000000
0.465339 0.032539 -0.010798 2.000000
0.465339 0.003295 -0.021627 2.000000
0.465339 -0.048698 0.015687 2.000000
0.465339 -0.046221 0.000960 2.000000
0.465339 -0.035621 -0.075879 2.000000
0.465339 -0.007646 -0.094246 2.000000
0.465339 -0.015742 -0.028651 2.000000
0.465339 0.068084 -0.028984 2.000000
0.465339 -0.039635 -0.032342 2.000000
0.465339 -0.085148 0.020163 2.000000
0.465339 -0.010909 -0.032664 2.000000
0.465339 0.049962 -0.030483 2.000000
0.465339 0.031440 0.061793 2.000000
0.465339 -0.071257 -0.034372 2.000000
0.465339 0.011039 0.072223 2.000000
0.465339 -0.065412 -0.030108 2.000000
0.465339 0.024806 0.056250 2.000000
0.465339 -0.052837 -0.063072 2.000000
0.465339 -0.008738 0.040565 2.000000
0.465339 0.037428 0.059836 2.000000
0.465339 -0.001616 -0.054264 2.000000
0.465339 0.020069 -0.078315 2.000000
0.465339 -0.013671 0.005540 2.000000
0.465339 0.003666 -0.073291 2.000000
0.465339 -0.080055 -0.014876 2.000000
0.465339 -0.055068 0.050214 2.000000
0.465339 -0.006112 -0.006396 2.000000
0.465339 -0.047169 0.031065 2.000000
0.465339 -0.032929 0.036533 2.000000
0.465339 -0.003574 0.066381 2.000000
0.465339 0.000489 0.005568 2.000000
0.465339 0.096410 0.007757 2.000000
0.465339 0.032667 0.048361 2.000000
0.465339 0.034077 -0.020806 2.000000
0.465339 -0.013776 -0.021786 2.000000
0.465339 0.062822 0.068055 2.000000
0.465339 -0.023422 -0.053065 2.000000
0.465339 0.087365 0.043701 2.000000
0.465339 -0.016463 0.090794 2.000000
0.465339 0.041498 0.064343 2.000000
0.465339 0.098262 -0.015058 2.000000
0.465339 -0.041038 0.031989 2.000000
0.465339 -0.033283 -0.072884 2.000000
0.465339 -0.028509 0.038419 2.000000
0.465339 -0.006002 0.042079 2.000000
0.465339 0.074689 -0.045053 2.000000
0.465339 -0.091344 -0.017501 2.000000
0.465339 -0.083679 -0.012300 2.000000
0.465339 0.014802 -0.073265 2.000000
0.465339 -0.058496 0.015366 2.000000
0.465339 0.040930 -0.003327 2.000000
0.465339 -0.036257 0.029178 2.000000
0.465339 -0.089935 -0.008846 2.000000
0.465339 0.033170 0.002034 2.000000
0.465339 -0.037068 -0.067494 2.000000
0.465339 0.052667 0.026549 2.000000
0.465339 -0.031625 -0.028209 2.000000
0.465339 0.001390 -0.032553 2.000000
0.465339 0.048046 -0.006116 2.000000
0.465339 0.094741 -0.007922 2.000000
0.465339 0.003867 -0.049390 2.000000
0.465339 0.025231 -0.090068 2.000000
0.465339 0.090014 0.041084 2.000000
0.465339 0.025058 -0.082304 2.000000
0.465339 -0.013304 0.066156 2.000000
0.465339 -0.042985 0.027715 2.000000
0.465339 -0.053400 -0.047225 2.000000
0.465339 0.059694 0.017383 2.000000
0.465339 -0.026913 0.001292 2.000000
0.465339 0.021795 -0.002152 2.000000
0.465339 0.011844 0.075187 2.000000
0.465339 -0.044574 0.023428 2.000000
0.465339 -0.067930 0.008359 2.000000
0.465339 0.019171 0.043542 2.000000
0.465339 0.049707 0.016198 2.000000
0.465339 0.042711 -0.008107 2.000000
0.465339 0.092754 0.016408 2.000000
0.465339 0.020815 0.004573 2.000000
0.465339 0.056671 -0.080484 2.000000
0.465339 -0.038121 0.049601 2.000000
0.465339 -0.084583 0.033357 2.000000
0.465339 0.082221 0.041288 2.000000
0.465339 -0.029222 -0.079931 2.000000
0.465339 0.010280 0.077993 2.000000
0.465339 -0.024606 0.058885 2.000000
0.465339 -0.040178 -0.013472 2.000000
0.465339 -0.008544 -0.084360 2.000000
0.465339 -0.040059 0.089396 2.000000
0.465339 0.074649 -0.049039 2.000000
0.465339 -0.018288 -0.040574 2.000000
0.465339 -0.088889 -0.020510 2.000000
0.465339 0.053327 -0.019709 2.000000
0.465339 0.055469 0.074071 2.000000
0.465339 0.037341 -0.019366 2.000000
0.465339 0.028515 0.004320 2.000000
0.465339 0.051671 -0.071467 2.000000
0.465339 -0.013791 -0.051484 2.000000
0.465339 -0.029322 -0.038350 2.000000
0.465339 0.003528 -0.071506 2.000000
0.465339 0.050952 -0.081191 2.000000
0.465339 0.080418 0.043284 2.000000
0.465339 -0.071833 0.015915 2.000000
0.465339 -0.034563 -0.049215 2.000000
0.465339 -0.047232 -0.040982 2.000000
0.465339 -0.029727 0.079535 2.000000
0.465339 -0.061057 0.070517 2.000000
0.465339 0.089923 -0.020072 2.000000
0.465339 0.004084 -0.086412 2.000000
0.465339 -0.080001 0.043607 2.000000
0.465339 -0.079082 0.027366 2.000000
0.465339 0.025355 -0.066262 2.000000
0.465339 -0.083156 0.032807 2.000000
0.465339 -0.069549 0.068711 2.000000
0.465339 0.066273 -0.016528 2.000000
0.465339 0.041967 0.074789 2.000000
0.465339 -0.066034 0.062551 2.000000
0.465339 0.047393 -0.013548 2.000000
0.465339 0.062158 -0.026132 2.000000
0.465339 -0.051703 -0.023551 2.000000
0.465339 -0.057982 -0.069312 2.000000
0.465339 0.028610 0.054276 2.000000
0.465339 -0.037443 0.012251 2.000000
0.465339 -0.036529 -0.030621 2.000000
0.465339 0.020488 -0.064281 2.000000
0.465339 0.002649 0.014399 2.000000
0.465339 0.011121 -0.085073 2.000000
0.465339 0.034343 -0.042580 2.000000
0.465339 0.024287 0.038908 2.000000
0.465339 0.089882 0.039279 2.000000
0.465339 0.046734 -0.074743 2.000000
0.465339 0.084090 -0.053471 2.000000
0.465339 -0.053874 -0.016102 2.000000
0.465339 -0.061201 -0.048652 2.000000
0.465339 -0.026551 0.081099 2.000000
0.465339 -0.058837 0.009068 2.000000
0.465339 -0.010449 0.048824 2.000000
0.465339 0.001251 -0.037250 2.000000
0.465339 0.008172 0.065606 2.000000
0.465339 0.006555 0.076653 2.000000
0.465339 0.083724 -0.012097 2.000000
0.465339 -0.068597 0.026157 2.000000
0.465339 0.073848 0.027042 2.000000
0.465339 -0.020592 -0.016897 2.000000
0.465339 -0.092852 0.015273 2.000000
0.465339 0.018474 0.016216 2.000000
0.465339 -0.058119 0.068883 2.000000
0.465339 0.018464 0.003754 2.000000
0.465339 -0.090769 0.013893 2.000000
0.465339 0.018514 -0.062572 2.000000
0.465339 -0.027895 0.072121 2.000000
0.465339 -0.082782 -0.021150 2.000000
0.465339 0.005143 0.028432 2.000000
0.465339 0.017783 -0.010514 2.000000
0.465339 0.020726 0.043238 2.000000
0.465339 0.009149 -0.067308 2.000000
0.465339 -0.031826 0.088782 2.000000
0.465339 -0.023561 0.053709 2.000000
0.465339 0.070284 -0.057727 2.000000
0.465339 0.033533 -0.015034 2.000000
0.465339 0.056343 -0.003732 2.000000
0.465339 0.034082 0.051117 2.000000
0.465339 -0.014967 0.013774 2.000000
0.465339 -0.010751 0.077389 2.000000
0.465339 0.092415 -0.035814 2.000000
0.465339 0.005816 -0.046668 2.000000
0.465339 0.068507 0.007511 2.000000
0.465339 0.080956 -0.008146 2.000000
0.465339 0.068011 -0.060497 2.000000
0.465339 0.032566 -0.062577 2.000000
0.465339 0.057677 -0.039106 2.000000
0.465339 -0.011712 -0.025246 2.000000
0.465339 0.056634 -0.051558 2.000000
0.465339 0.077053 0.008918 2.000000
0.465339 -0.091577 0.002812 2.000000
0.465339 -0.032190 0.028689 2.000000
0.465339 -0.088173 -0.023970 2.000000
0.465339 0.077822 -0.025265 2.000000
0.465339 0.078603 -0.033733 2.000000
0.465339 0.060013 0.063532 2.000000
0.465339 -0.068585 0.002612 2.000000
0.465339 0.046420 0.033464 2.000000
0.465339 -0.030008 -0.063983 2.000000
0.465339 0.063949 0.063363 2.000000
0.465339 0.030483 -0.044604 2.000000
0.465339 0.030558 0.086974 2.000000
0.465339 0.014673 -0.090025 2.000000
0.465339 -0.059367 -0.037861 2.000000
0.465339 -0.050128 -0.067549 2.000000
0.465339 0.072942 0.028236 2.000000
0.465339 0.031047 0.088871 2.000000
0.465339 0.021905 0.000919 2.000000
0.465339 -0.036143 -0.026367 2.000000
0.465339 0.018160 -0.046741 2.000000
0.465339 0.018191 0.034141 2.000000
