-0.466955 -0.017178 -0.086987 3.000000
-0.466955 -0.014947 -0.013922 3.000000
-0.466955 -0.001827 -0.065416 3.000000
-0.466955 0.039718 -0.090729 3.000000
-0.466955 -0.060415 -0.010766 3.000000
-0.466955 0.057005 -0.039428 3.000000
-0.466955 -0.035777 0.073229 3.000000
-0.466955 0.049363 0.048749 3.000000
-0.466955 -0.073939 0.013482 3.000000
-0.466955 0.060779 -0.042729 3.000000
-0.466955 -0.018013 0.059853 3.000000
-0.466955 -0.032049 0.013074 3.000000
-0.466955 0.021499 -0.017017 3.000000
-0.466955 -0.015054 0.043838 3.000000
-0.466955 0.069263 -0.019106 3.000000
-0.466955 0.068692 0.012420 3.000000
-0.466955 -0.027009 0.044519 3.000000
-0.466955 0.038916 -0.018201 3.000000
-0.466955 0.018746 0.008799 3.000000
-0.466955 -0.061268 -0.076032 3.000000
-0.466955 0.090210 0.009127 3.000000
-0.466955 -0.029642 -0.091581 3.000000
-0.466955 0.013526 -0.053991 3.000000
-0.466955 0.092842 0.010330 3.000000
-0.466955 -0.004285 -0.008617 3.000000
-0.466955 0.002731 -0.048680 3.000000
-0.466955 -0.045895 0.000006 3.000000
-0.466955 -0.024627 -0.035205 3.000000
-0.466955 0.046048 0.047017 3.000000
-0.466955 0.031334 -0.085489 3.000000
-0.466955 0.075958 0.007669 3.000000
-0.466955 -0.036565 -0.007594 3.000000
-0.466955 0.054306 0.066219 3.000000
-0.466955 0.023852 -0.089439 3.000000
-0.466955 0.082550 0.023267 3.000000
-0.466955 -0.056039 0.029715 3.000000
-0.466955 -0.043560 -0.048636 3.000000
-0.466955 0.032394 0.054256 3.000000
-0.466955 0.024773 0.092902 3.000000
-0.466955 -0.011653 -0.053538 3.000000
-0.466955 -0.026679 0.060658 3.000000
-0.466955 -0.075429 0.020379 3.000000
-0.466955 -0.069099 0.029891 3.000000
-0.466955 -0.087511 -0.001316 3.000000
-0.466955 -0.037960 -0.063928 3.000000
-0.466955 0.021172 -0.075714 3.000000
-0.466955 -0.023456 0.014561 3.000000
-0.466955 0.060385 0.035938 3.000000
-0.466955 -0.037789 0.080105 3.000000
-0.466955 -0.002773 -0.087191 3.000000
-0.466955 -0.017770 -0.073807 3.000000
-0.466955 0.047694 0.015118 3.000000
-0.466955 0.041818 0.088475 3.000000
-0.466955 0.044231 0.076169 3.000000
-0.466955 -0.038056 -0.068830 3.000000
-0.466955 -0.086396 0.029651 3.000000
-0.466955 0.012720 -0.063067 3.000000
-0.466955 0.082109 0.015253 3.000000
-0.466955 0.062487 -0.061505 3.000000
-0.466955 -0.048973 -0.078712 3.000000
-0.466955 -0.024711 -0.074145 3.000000
-0.466955 -0.078692 -0.050740 3.000000
-0.466955 0.017470 0.048215 3.000000
-0.466955 -0.027842 -0.082747 3.000000
-0.466955 -0.079684 0.041510 3.000000
-0.466955 0.075209 0.013173 3.000000
-0.466955 -0.047032 -0.087549 3.000000
-0.466955 0.005031 -0.011373 3.000000
-0.466955 0.006818 0.083988 3.000000
-0.466955 -0.053391 0.074341 3.000000
-0.466955 -0.014543 -0.091249 3.000000
-0.466955 0.071497 0.024966 3.000000
-0.466955 -0.070255 -0.027083 3.000000
-0.466955 0.018269 -0.004965 3.000000
-0.466955 0.082030 0.010358 3.000000
-0.466955 -0.077196 0.058841 3.000000
-0.466955 0.026883 0.094988 3.000000
-0.466955 -0.030116 0.082693 3.000000
-0.466955 -0.061996 0.069986 3.000000
-0.466955 -0.043472 0.035507 3.000000
-0.466955 0.068980 -0.031962 3.000000
-0.466955 0.010897 -0.094296 3.000000
-0.466955 0.017035 -0.004456 3.000000
-0.466955 0.034944 -0.024908 3.000000
-0.466955 -0.035567 -0.009074 3.000000
-0.466955 0.031810 -0.059003 3.000000
-0.466955 0.078768 -0.014919 3.000000
-0.466955 -0.007263 0.047554 3.000000
-0.466955 -0.017279 -0.058432 3.000000
-0.466955 -0.071160 0.053688 3.000000
-0.466955 0.021356 -0.049417 3.000000
-0.466955 0.075566 0.063658 3.000000
-0.466955 -0.053273 -0.068156 3.000000
-0.466955 -0.050603 -0.066505 3.000000
-0.466955 0.095047 0.006131 3.000000
-0.466955 0.030198 -0.078570 3.000000
-0.466955 -0.023030 0.076976 3.000000
-0.466955 0.007721 0.057885 3.000000
-0.466955 -0.045099 0.045463 3.000000
-0.466955 -0.025924 -0.055608 3.000000
-0.466955 -0.069746 0.054319 3.000000
-0.466955 0.040067 -0.081593 3.000000
-0.466955 0.048847 0.084649 3.000000
-0.466955 0.080980 -0.026259 3.000000
-0.466955 0.010124 -0.067762 3.000000
-0.466955 0.015160 0.018902 3.000000
-0.466955 -0.045159 -0.011539 3.000000
-0.466955 -0.047412 0.034613 3.000000
-0.466955 -0.004602 0.033512 3.000000
-0.466955 0.004371 -0.025329 3.000000
-0.466955 -0.026047 0.004358 3.000000
-0.466955 0.016503 0.087290 3.000000
-0.466955 0.066849 -0.065563 3.000000
-0.466955 -0.058901 -0.029162 3.000000
-0.466955 -0.030829 -0.004823 3.000000
-0.466955 0.028042 -0.071975 3.000000
-0.466955 0.053036 0.020438 3.000000
-0.466955 -0.082398 0.025710 3.000000
-0.466955 -0.038967 -0.086189 3.000000
-0.466955 -0.015065 0.015393 3.000000
-0.466955 0.079151 0.058668 3.000000
-0.466955 0.075391 0.038145 3.000000
-0.466955 0.015613 -0.031712 3.000000
-0.466955 -0.024458 -0.024011 3.000000
-0.466955 0.011954 0.015148 3.000000
-0.466955 -0.056451 -0.037922 3.000000
-0.466955 -0.009281 -0.059356 3.000000
-0.466955 0.088297 -0.027157 3.000000
-0.466955 0.050512 0.038824 3.000000
-0.466955 0.065311 -0.028168 3.000000
-0.466955 -0.024129 0.080333 3.000000
-0.466955 0.041838 -0.005368 3.000000
-0.466955 0.095162 0.015860 3.000000
-0.466955 0.029079 0.050122 3.000000
-0.466955 0.087518 -0.017813 3.000000
-0.466955 0.033092 0.056454 3.000000
-0.466955 0.076647 -0.041625 3.000000
-0.466955 -0.000886 0.063210 3.000000
-0.466955 -0.046162 0.067267 3.000000
-0.466955 -0.007513 -0.018940 3.000000
-0.466955 0.012159 -0.051714 3.000000
-0.466955 0.015084 -0.036286 3.000000
-0.466955 -0.049505 -0.020239 3.000000
-0.466955 -0.059201 -0.025297 3.000000
-0.466955 0.075223 -0.021274 3.000000
-0.466955 0.015254 0.063256 3.000000
-0.466955 0.071570 -0.061001 3.000000
-0.466955 -0.004425 -0.019720 3.000000
-0.466955 0.006780 -0.045918 3.000000
-0.466955 0.041402 0.085360 3.000000
-0.466955 0.036009 0.061482 3.000000
-0.466955 -0.029903 0.022508 3.000000
-0.466955 0.068825 0.018209 3.000000
-0.466955 0.031976 0.068669 3.000000
-0.466955 -0.054750 -0.053041 3.000000
-0.466955 -0.025191 0.016653 3.000000
-0.466955 -0.005845 -0.073169 3.000000
-0.466955 -0.035005 -0.055778 3.000000
-0.466955 0.016780 -0.083558 3.000000
-0.466955 -0.034943 0.083234 3.000000
-0.466955 0.043837 0.058617 3.000000
-0.466955 -0.068050 0.033891 3.000000
-0.466955 -0.076865 0.029644 3.000000
-0.466955 -0.020847 -0.055020 3.000000
-0.466955 -0.018709 -0.035112 3.000000
-0.466955 -0.051958 -0.046093 3.000000
-0.466955 -0.068148 -0.023266 3.000000
-0.466955 -0.056746 0.011526 3.000000
-0.466955 0.013667 -0.044360 3.000000
-0.466955 0.063568 0.001576 3.000000
-0.466955 -0.065183 -0.048038 3.000000
-0.466955 -0.017547 -0.033568 3.000000
-0.466955 -0.007898 0.094534 3.000000
-0.466955 0.054014 0.043025 3.000000
-0.466955 0.035403 -0.049620 3.000000
-0.466955 -0.076578 -0.053455 3.000000
-0.466955 -0.035530 -0.015079 3.000000
-0.466955 0.068910 0.041798 3.000000
-0.466955 0.053415 -0.040902 3.000000
-0.466955 -0.091915 -0.025470 3.000000
-0.466955 0.028317 -0.074973 3.000000
-0.466955 0.033752 0.074211 3.000000
-0.466955 0.029833 0.019326 3.000000
-0.466955 -0.050688 0.083723 3.000000
-0.466955 0.037179 0.058892 3.000000
-0.466955 0.047165 0.013023 3.000000
-0.466955 0.020133 0.074815 3.000000
-0.466955 -0.021946 -0.014873 3.000000
-0.466955 0.045013 -0.086139 3.000000
-0.466955 0.012123 -0.000568 3.000000
-0.466955 0.021915 0.058655 3.000000
-0.466955 -0.025597 -0.083770 3.000000
-0.466955 -0.079444 -0.005909 3.000000
-0.466955 -0.030420 -0.025402 3.000000
-0.466955 0.036921 0.022491 3.000000
-0.466955 -0.049005 -0.081680 3.000000
-0.466955 -0.030560 -0.063333 3.000000
-0.466955 -0.059652 -0.019797 3.000000
-0.466955 0.003604 -0.084129 3.000000
-0.466955 0.054183 0.027128 3.000000
-0.466955 0.006828 0.031286 3.000000
-0.466955 -0.074971 0.051061 3.000000
-0.466955 -0.000333 -0.005012 3.000000
-0.466955 -0.072318 -0.023383 3.000000
-0.466955 0.078794 -0.002103 3.000000
-0.466955 0.071902 -0.035362 3.000000
-0.466955 -0.034377 0.040371 3.000000
-0.466955 -0.087421 0.048256 3.000000
-0.466955 0.012270 0.032084 3.000000
-0.466955 -0.000337 -0.083594 3.000000
-0.466955 -0.097368 0.011039 3.000000
-0.466955 -0.006565 -0.080523 3.000000
-0.466955 0.036968 -0.086232 3.000000
-0.466955 0.019644 0.023752 3.000000
-0.466955 0.021870 -0.031843 3.000000
-0.466955 0.062418 0.058678 3.000000
-0.466955 0.030270 0.004946 3.000000
-0.466955 0.037504 -0.037688 3.000000
-0.466955 0.016623 -0.018665 3.000000
-0.466955 0.078139 -0.052963 3.000000
-0.466955 0.011948 -0.015011 3.000000
-0.466955 0.075935 0.014464 3.000000
-0.466955 -0.015583 -0.075448 3.000000
-0.466955 -0.021170 0.088926 3.000000
-0.466955 0.019838 0.039019 3.000000
-0.466955 0.045855 -0.066987 3.000000
-0.466955 0.043731 0.000149 3.000000
-0.466955 0.077690 0.017855 3.000000
-0.466955 -0.017018 -0.082889 3.000000
-0.466955 -0.069162 -0.007270 3.000000
-0.466955 -0.022744 0.088247 3.000000
-0.466955 -0.073185 -0.035524 3.000000
-0.466955 0.066599 0.026386 3.000000
-0.466955 -0.023281 -0.096572 3.000000
-0.466955 0.069079 0.004280 3.000000
-0.466955 -0.020915 0.091618 3.000000
-0.466955 0.002832 0.013884 3.000000
-0.466955 -0.006897 0.086750 3.000000
-0.466955 0.031325 0.002880 3.000000
-0.466955 -0.019742 -0.088759 3.000000
-0.466955 0.043544 -0.030892 3.000000
-0.466955 0.039054 0.067365 3.000000
-0.466955 -0.084845 -0.042093 3.000000
-0.466955 -0.016735 0.027851 3.000000
-0.466955 0.053487 0.062944 3.000000
-0.466955 -0.050431 0.024664 3.000000
-0.466955 -0.070642 0.028709 3.000000
-0.466955 -0.082005 -0.006072 3.000000
-0.466955 -0.033202 -0.046233 3.000000
-0.466955 -0.018394 -0.052600 3.000000
-0.466955 -0.027135 -0.028868 3.000000
-0.466955 -0.006554 -0.050859 3.000000
-0.466955 0.058251 -0.072926 3.000000
-0.466955 -0.042334 0.086850 3.000000
-0.466955 0.033827 0.014689 3.000000
-0.466955 0.005330 0.001641 3.000000
-0.466955 0.041127 -0.073558 3.000000
-0.466955 0.069939 0.057419 3.000000
-0.466955 0.051883 -0.001011 3.000000
-0.466955 0.035212 0.008416 3.000000
-0.466955 0.054347 -0.055632 3.000000
-0.466955 0.001671 0.001569 3.000000
-0.466955 0.047615 -0.018828 3.000000
-0.466955 0.082445 -0.014546 3.000000
-0.466955 0.019323 0.077791 3.000000
-0.466955 -0.037140 0.066537 3.000000
-0.466955 -0.072574 0.026323 3.000000
-0.466955 -0.009926 0.082784 3.000000
-0.466955 0.052487 0.052402 3.000000
-0.466955 -0.013139 0.056189 3.000000
-0.466955 -0.054050 0.066014 3.000000
-0.466955 -0.055151 0.031300 3.000000
-0.466955 0.079371 -0.026091 3.000000
-0.466955 -0.056991 -0.000607 3.000000
-0.466955 -0.060490 -0.039713 3.000000
-0.466955 0.028799 0.016135 3.000000
-0.466955 0.011489 -0.040336 3.000000
-0.466955 0.058954 -0.010429 3.000000
-0.466955 -0.014344 -0.023230 3.000000
-0.466955 0.043346 -0.002817 3.000000
-0.466955 0.099638 -0.005922 3.000000
-0.466955 0.071345 -0.029565 3.000000
-0.466955 0.040270 -0.055007 3.000000
-0.466955 -0.094569 0.026869 3.000000
-0.466955 -0.052156 0.022737 3.000000
-0.466955 -0.073100 0.061335 3.000000
-0.466955 -0.022883 0.050917 3.000000
-0.466955 -0.004652 0.042720 3.000000
-0.466955 -0.031456 0.059888 3.000000
-0.466955 -0.051798 0.012557 3.000000
-0.466955 0.045847 0.072582 3.000000
-0.466955 -0.088270 -0.035547 3.000000
-0.466955 0.050012 -0.019850 3.000000
-0.466955 -0.056657 -0.047991 3.000000
-0.466955 -0.076302 0.014816 3.000000
-0.466955 -0.060021 0.048094 3.000000
-0.466955 0.044075 0.033191 3.000000
-0.466955 -0.002346 0.092762 3.000000
-0.466955 0.079205 0.033969 3.000000
-0.466955 0.070283 0.040723 3.000000
-0.466955 -0.023395 -0.063910 3.000000
-0.466955 -0.044541 -0.070965 3.000000
-0.466955 0.014790 0.092101 3.000000
-0.466955 0.075172 -0.034410 3.000000
-0.466955 0.076826 -0.061237 3.000000
-0.466955 -0.019412 0.051544 3.000000
-0.466955 -0.011138 0.086082 3.000000
-0.466955 -0.073090 0.037180 3.000000
-0.466955 0.073764 0.028452 3.000000
-0.466955 -0.074196 -0.037461 3.000000
-0.466955 0.042596 -0.021119 3.000000
-0.466955 0.084971 -0.022258 3.000000
-0.466955 -0.021707 0.065618 3.000000
-0.466955 -0.068020 -0.052481 3.000000
-0.466955 -0.068098 0.028450 3.000000
-0.466955 -0.011892 0.093462 3.000000
-0.466955 -0.008453 0.096965 3.000000
-0.466955 -0.034983 0.076985 3.000000
-0.466955 0.075687 0.043386 3.000000
-0.466955 0.022827 0.039959 3.000000
-0.466955 -0.026040 0.006090 3.000000
-0.466955 -0.021306 -0.030616 3.000000
-0.466955 -0.008514 -0.074310 3.000000
-0.466955 0.099671 0.007697 3.000000
-0.466955 -0.008402 0.085926 3.000000
-0.466955 0.030395 0.062564 3.000000
-0.466955 -0.036371 -0.079999 3.000000
-0.466955 -0.029893 0.017675 3.000000
-0.466955 0.059036 0.066931 3.000000
-0.466955 0.026659 0.080680 3.000000
-0.466955 -0.060918 0.031823 3.000000
-0.466955 -0.049609 -0.009687 3.000000
-0.466955 -0.044271 0.013722 3.000000
-0.466955 0.049660 0.035991 3.000000
-0.466955 -0.044432 -0.022658 3.000000
-0.466955 0.069887 -0.041235 3.000000
-0.466955 0.007540 0.041517 3.000000
-0.466955 -0.022034 -0.041952 3.000000
-0.466955 0.075610 -0.004696 3.000000
-0.466955 -0.002774 0.042819 3.000000
-0.466955 0.061245 -0.003605 3.000000
-0.466955 -0.073083 0.011719 3.000000
-0.466955 0.056356 -0.071147 3.000000
-0.466955 -0.052450 -0.032262 3.000000
-0.466955 0.026367 -0.056203 3.000000
-0.466955 0.003363 0.059081 3.000000
-0.466955 0.045625 -0.047977 3.000000
-0.466955 0.056638 -0.026540 3.000000
-0.466955 -0.042474 0.048532 3.000000
-0.466955 0.097594 -0.020803 3.000000
-0.466955 -0.027304 0.003632 3.000000
-0.466955 0.002919 0.009838 3.000000
-0.466955 -0.041568 0.041013 3.000000
-0.466955 0.056207 0.073527 3.000000
-0.466955 -0.055954 -0.076345 3.000000
-0.466955 0.004680 0.012033 3.000000
-0.466955 0.056106 -0.059988 3.000000
-0.466955 -0.043189 0.018239 3.000000
-0.466955 -0.040205 0.066973 3.000000
-0.466955 0.024376 -0.071110 3.000000
-0.466955 -0.078779 0.037235 3.000000
-0.466955 0.047312 -0.023562 3.000000
-0.466955 0.037019 0.049363 3.000000
-0.466955 0.016830 -0.087309 3.000000
-0.466955 0.037845 0.082317 3.000000
-0.466955 0.042819 -0.087378 3.000000
-0.466955 -0.014152 0.070228 3.000000
-0.466955 -0.041830 0.016457 3.000000
-0.466955 -0.043800 0.047255 3.000000
-0.466955 0.027418 -0.020400 3.000000
-0.466955 -0.048401 -0.011511 3.000000
-0.466955 -0.013955 -0.009618 3.000000
-0.466955 0.011894 0.092700 3.000000
-0.466955 -0.084139 -0.009221 3.000000
-0.466955 0.009221 -0.013090 3.000000
-0.466955 -0.017485 0.026159 3.000000
-0.466955 -0.005313 -0.094081 3.000000
-0.466955 0.087172 0.008991 3.000000
-0.466955 -0.029170 -0.047477 3.000000
-0.466955 -0.017242 0.078678 3.000000
-0.466955 0.064971 0.014217 3.000000
-0.466955 0.000384 0.044434 3.000000
-0.466955 -0.028035 0.037227 3.000000
-0.466955 0.014506 0.013993 3.000000
-0.466955 0.001948 -0.015556 3.000000
-0.466955 0.096417 0.007946 3.000000
-0.466955 0.018772 -0.032979 3.000000
-0.466955 -0.059489 0.022599 3.000000
-0.466955 -0.057832 0.079506 3.000000
-0.466955 0.011770 0.044666 3.000000
-0.466955 -0.074310 -0.020335 3.000000
-0.466955 -0.000782 0.003723 3.000000
-0.466955 -0.030602 -0.076987 3.000000
-0.466955 0.010268 0.035863 3.000000
-0.466955 0.084802 0.046137 3.000000
-0.466955 0.086737 0.022702 3.000000
-0.466955 0.006535 -0.020556 3.000000
-0.466955 -0.033312 0.078502 3.000000
-0.466955 -0.014467 0.012416 3.000000
-0.466955 0.085088 -0.030314 3.000000
-0.466955 -0.089825 -0.043165 3.000000
-0.466955 -0.055749 0.047947 3.000000
-0.466955 0.062779 -0.010404 3.000000
-0.466955 0.029154 -0.027842 3.000000
-0.466955 -0.036836 -0.036212 3.000000
-0.466955 -0.071852 -0.062452 3.000000
-0.466955 0.007317 0.000285 3.000000
-0.466955 -0.020940 -0.043738 3.000000
-0.466955 0.057912 -0.042742 3.000000
-0.466955 0.017326 -0.040426 3.000000
-0.466955 0.055011 0.083349 3.000000
-0.466955 0.052801 0.065232 3.000000
-0.466955 0.038419 -0.021295 3.000000
-0.466955 -0.027364 0.065372 3.000000
-0.466955 0.070505 0.069659 3.000000
-0.466955 -0.075483 0.052796 3.000000
-0.466955 -0.091091 -0.036025 3.000000
-0.466955 -0.021669 0.001082 3.000000
-0.466955 0.047426 0.073636 3.000000
-0.466955 0.028814 -0.095043 3.000000
-0.466955 0.063968 0.007230 3.000000
-0.466955 -0.085612 -0.036568 3.000000
-0.466955 -0.021845 0.034340 3.000000
-0.466955 -0.063268 0.013505 3.000000
-0.466955 -0.067971 -0.019352 3.000000
-0.466955 0.067625 0.048147 3.000000
-0.466955 0.033655 -0.063184 3.000000
-0.466955 -0.061865 -0.057280 3.000000
-0.466955 0.028129 0.011338 3.000000
-0.466955 -0.067292 -0.070177 3.000000
-0.466955 -0.017864 0.076048 3.000000
-0.466955 -0.040754 -0.023217 3.000000
-0.466955 0.010643 0.025532 3.000000
-0.466955 -0.053911 0.068474 3.000000
-0.466955 -0.018662 0.071152 3.000000
-0.466955 -0.042079 -0.046279 3.000000
-0.466955 -0.056077 0.082443 3.000000
-0.466955 0.004628 0.003037 3.000000
-0.466955 0.010099 -0.019822 3.000000
-0.466955 -0.081155 0.015799 3.000000
-0.466955 0.068777 -0.061783 3.000000
-0.466955 -0.043476 -0.064027 3.000000
-0.466955 -0.087003 -0.000081 3.000000
-0.466955 -0.071599 -0.038956 3.000000
-0.466955 0.000769 -0.079581 3.000000
-0.466955 0.052878 -0.050560 3.000000
-0.466955 0.009128 -0.066493 3.000000
-0.466955 -0.065601 -0.026603 3.000000
-0.466955 0.024331 0.085207 3.000000
-0.466955 0.032587 -0.020481 3.000000
-0.466955 0.023482 0.033930 3.000000
-0.466955 -0.001795 0.051863 3.000000
-0.466955 -0.067604 0.017394 3.000000
-0.466955 0.004296 0.050596 3.000000
-0.466955 0.010837 0.008021 3.000000
-0.466955 0.015119 -0.002723 3.000000
-0.466955 0.087524 -0.033264 3.000000
-0.466955 0.009630 0.027046 3.000000
-0.466955 -0.094071 0.003759 3.000000
-0.466955 0.029480 -0.017340 3.000000
-0.466955 0.003437 0.083742 3.000000
-0.466955 0.021250 0.023744 3.000000
-0.466955 0.024963 0.057284 3.000000
-0.466955 -0.047204 0.056737 3.000000
-0.466955 0.003039 -0.026393 3.000000
-0.466955 0.019800 0.087435 3.000000
-0.466955 0.016263 -0.097710 3.000000
-0.466955 0.040278 0.087964 3.000000
-0.466955 -0.063862 -0.005594 3.000000
-0.466955 0.036611 -0.075314 3.000000
-0.466955 -0.071895 0.018947 3.000000
-0.466955 0.016812 0.098270 3.000000
-0.466955 -0.006799 0.045451 3.000000
-0.466955 0.038635 -0.029498 3.000000
-0.466955 -0.089471 0.032236 3.000000
-0.466955 -0.002712 0.088032 3.000000
-0.466955 0.041100 -0.003815 3.000000
-0.466955 -0.042087 -0.009278 3.000000
-0.466955 0.019924 0.012088 3.000000
-0.466955 -0.050071 0.066473 3.000000
-0.466955 -0.090569 -0.013024 3.000000
-0.466955 -0.053305 0.054083 3.000000
-0.466955 0.015654 -0.026589 3.000000
-0.466955 -0.006482 -0.043427 3.000000
-0.466955 -0.040498 0.027145 3.000000
-0.466955 -0.066316 0.012961 3.000000
-0.466955 0.063129 0.005686 3.000000
-0.466955 -0.072191 0.043249 3.000000
-0.466955 -0.001988 0.080825 3.000000
-0.466955 0.063786 -0.039993 3.000000
-0.466955 0.064928 -0.025943 3.000000
-0.466955 0.064503 -0.070524 3.000000
-0.466955 -0.009274 -0.042173 3.000000
-0.466955 0.030794 -0.086978 3.000000
-0.466955 0.067192 0.001503 3.000000
-0.466955 -0.017912 -0.029259 3.000000
-0.466955 0.081498 0.053735 3.000000
-0.466955 0.072697 0.019661 3.000000
-0.466955 0.006448 0.079950 3.000000
-0.466955 0.029795 -0.051109 3.000000
-0.466955 -0.062315 0.021387 3.000000
-0.466955 -0.033467 -0.066648 3.000000
-0.466955 -0.023868 0.024614 3.000000
-0.466955 -0.031207 0.016283 3.000000
-0.466955 -0.066888 0.071377 3.000000
-0.466955 0.074779 -0.026667 3.000000
-0.466955 -0.059854 0.075825 3.000000
-0.466955 -0.002651 0.014894 3.000000
-0.466955 -0.031497 0.005257 3.000000
-0.466955 -0.090444 -0.003609 3.000000
-0.466955 0.002379 0.023708 3.000000
-0.466955 0.011063 0.020402 3.000000
-0.466955 -0.072413 0.038942 3.000000
-0.466955 -0.022626 0.068651 3.000000
-0.466955 -0.066072 0.022027 3.000000
-0.466955 0.021805 -0.059492 3.000000
-0.466955 0.021455 0.054835 3.000000
-0.466955 -0.053313 -0.042241 3.000000
-0.466955 -0.010158 -0.048950 3.000000
-0.466955 -0.007736 -0.062934 3.000000
-0.466955 -0.042985 0.073151 3.000000
-0.466955 0.020148 0.030364 3.000000
-0.466955 -0.071694 0.036149 3.000000
-0.466955 -0.054585 0.003531 3.000000
-0.466955 0.081387 -0.017275 3.000000
-0.466955 -0.075848 -0.058218 3.000000
-0.466955 -0.084343 -0.027234 3.000000
-0.466955 -0.015081 0.072061 3.000000
-0.466955 -0.048703 0.029478 3.000000
-0.466955 -0.026145 0.045961 3.000000
-0.466955 0.047816 0.036235 3.000000
-0.466955 -0.004347 -0.037661 3.000000
-0.466955 -0.044615 -0.042052 3.000000
-0.466955 0.059074 -0.049832 3.000000
-0.466955 -0.071318 0.059887 3.000000
-0.466955 -0.058437 0.061754 3.000000
-0.466955 -0.060908 -0.012227 3.000000
-0.466955 -0.064900 -0.059463 3.000000
-0.466955 0.083101 0.039922 3.000000
-0.466955 -0.024234 0.022936 3.000000
-0.466955 0.043430 -0.081395 3.000000
-0.466955 0.035071 0.013329 3.000000
-0.466955 0.030825 0.030399 3.000000
-0.466955 -0.003773 0.060073 3.000000
-0.466955 -0.053488 0.041925 3.000000
-0.466955 0.085724 0.014320 3.000000
-0.466955 0.080581 0.021265 3.000000
-0.466955 0.022379 -0.044385 3.000000
-0.466955 0.046069 -0.080941 3.000000
-0.466955 -0.016510 -0.015126 3.000000
-0.466955 -0.066583 0.011400 3.000000
-0.466955 0.016206 -0.065284 3.000000
-0.466955 0.031825 0.093065 3.000000
-0.466955 -0.017379 -0.009947 3.000000
-0.466955 0.033496 -0.046465 3.000000
-0.466955 0.066235 0.071988 3.000000
-0.466955 0.047920 -0.065585 3.000000
-0.466955 -0.040722 0.020172 3.000000
-0.466955 0.057623 -0.077425 3.000000
-0.466955 -0.068913 -0.048120 3.000000
-0.466955 0.006900 -0.070422 3.000000
-0.466955 0.040104 -0.019613 3.000000
-0.466955 -0.068709 -0.071728 3.000000
-0.466955 -0.037168 -0.043851 3.000000
-0.466955 -0.020552 -0.095672 3.000000
-0.466955 -0.094276 -0.031409 3.000000
-0.466955 -0.001949 0.044369 3.000000
-0.466955 -0.079630 -0.059694 3.000000
-0.466955 -0.091369 0.004250 3.000000
-0.466955 -0.014920 -0.095212 3.000000
-0.466955 0.056381 -0.064269 3.000000
-0.466955 -0.076598 -0.050682 3.000000
-0.466955 0.071526 -0.002943 3.000000
-0.466955 0.017610 0.044911 3.000000
-0.466955 -0.043671 -0.045702 3.000000
-0.466955 0.067955 -0.001939 3.000000
-0.466955 0.004273 0.008029 3.000000
-0.466955 -0.045737 0.048966 3.000000
-0.466955 -0.009689 -0.065141 3.000000
-0.466955 0.043852 -0.017587 3.000000
-0.466955 0.058783 0.069761 3.000000
-0.466955 -0.015426 0.011352 3.000000
-0.466955 0.036013 0.072389 3.000000
-0.466955 0.015705 0.077732 3.000000
-0.466955 0.062582 0.042736 3.000000
-0.466955 0.083879 -0.034843 3.000000
-0.466955 -0.039483 -0.087427 3.000000
-0.466955 -0.005471 0.044065 3.000000
-0.466955 -0.021601 -0.018989 3.000000
-0.466955 -0.013699 -0.027153 3.000000
-0.466955 -0.014761 -0.041760 3.000000
-0.466955 -0.010594 -0.060495 3.000000
-0.466955 0.054990 -0.071971 3.000000
-0.466955 0.068241 0.024324 3.000000
-0.466955 -0.032752 0.037424 3.000000
-0.466955 -0.022620 -0.094773 3.000000
-0.466955 0.054122 0.067989 3.000000
-0.466955 0.051378 0.060536 3.000000
-0.466955 0.083777 -0.053927 3.000000
-0.466955 -0.034776 -0.057215 3.000000
-0.466955 0.000683 0.014048 3.000000
-0.466955 0.012689 0.013349 3.000000
-0.466955 0.038528 0.013322 3.000000
-0.466955 -0.063188 0.006537 3.000000
-0.466955 0.037963 0.031751 3.000000
-0.466955 -0.071443 0.008685 3.000000
-0.466955 0.005759 -0.086995 3.000000
-0.466955 -0.024283 0.026176 3.000000
-0.466955 0.004937 -0.042174 3.000000
-0.466955 0.071679 0.034210 3.000000
-0.466955 -0.093765 -0.020181 3.000000
-0.466955 -0.009751 0.004003 3.000000
-0.466955 0.031648 -0.014327 3.000000
-0.466955 0.015053 -0.037735 3.000000
-0.466955 0.037092 -0.040800 3.000000
-0.466955 -0.082626 0.046008 3.000000
-0.466955 -0.047770 0.016366 3.000000
-0.466955 0.068505 -0.041733 3.000000
-0.466955 -0.006880 -0.087618 3.000000
-0.466955 -0.056623 0.020401 3.000000
-0.466955 -0.042114 -0.043887 3.000000
-0.466955 0.067663 0.072461 3.000000
-0.466955 -0.044751 0.052389 3.000000
-0.466955 -0.042132 -0.055855 3.000000
-0.466955 -0.071301 -0.017973 3.000000
-0.466955 0.035129 0.055518 3.000000
-0.466955 -0.055808 -0.058492 3.000000
-0.466955 -0.067449 0.030641 3.000000
-0.466955 0.006388 0.029156 3.000000
-0.466955 0.024395 0.095908 3.000000
-0.466955 -0.043558 -0.060351 3.000000
-0.466955 -0.075795 -0.037612 3.000000
-0.466955 0.086260 -0.042811 3.000000
-0.466955 0.026239 0.075694 3.000000
-0.466955 -0.033234 -0.055623 3.000000
-0.466955 0.096073 0.026813 3.000000
-0.466955 0.019679 0.001860 3.000000
-0.466955 -0.010805 -0.032543 3.000000
-0.466955 -0.017177 -0.022265 3.000000
-0.466955 -0.080619 0.017166 3.000000
-0.466955 0.024234 -0.012091 3.000000
-0.466955 0.030169 -0.031406 3.000000
-0.466955 -0.022389 0.061877 3.000000
-0.466955 0.061929 -0.040737 3.000000
-0.466955 -0.021799 -0.007062 3.000000
-0.466955 -0.013332 0.076402 3.000000
-0.466955 0.006403 0.090056 3.000000
-0.466955 0.055347 -0.037813 3.000000
-0.466955 0.000496 -0.071160 3.000000
-0.466955 0.001452 -0.060852 3.000000
-0.466955 0.010759 0.009852 3.000000
-0.466955 0.033225 -0.066777 3.000000
-0.466955 0.061666 -0.056205 3.000000
-0.466955 0.039414 0.007565 3.000000
-0.466955 0.070553 -0.067226 3.000000
-0.466955 0.068104 0.066902 3.000000
-0.466955 0.002065 -0.099272 3.000000
-0.466955 0.000099 -0.081176 3.000000
-0.466955 0.029935 0.045127 3.000000
-0.466955 0.025955 -0.093070 3.000000
-0.466955 -0.065433 0.032862 3.000000
-0.466955 0.054490 0.051275 3.000000
-0.466955 0.059858 0.044003 3.000000
-0.466955 0.035773 0.074630 3.000000
-0.466955 -0.087253 0.024936 3.000000
-0.466955 -0.026357 -0.045253 3.000000
-0.466955 0.015080 0.060198 3.000000
-0.466955 -0.030682 -0.038848 3.000000
-0.466955 -0.069181 -0.070193 3.000000
-0.466955 -0.039751 0.022666 3.000000
-0.466955 -0.092940 0.018515 3.000000
-0.466955 0.048871 -0.026264 3.000000
-0.466955 0.065252 0.047606 3.000000
-0.466955 0.026968 -0.074715 3.000000
-0.466955 0.039098 0.051902 3.000000
-0.466955 0.046492 0.066670 3.000000
-0.466955 -0.028915 -0.021418 3.000000
-0.466955 0.054134 -0.034644 3.000000
-0.466955 -0.084525 -0.039350 3.000000
-0.466955 -0.076918 -0.001454 3.000000
-0.466955 -0.000526 -0.093840 3.000000
-0.466955 -0.042706 0.019721 3.000000
-0.466955 -0.002436 -0.055770 3.000000
-0.466955 -0.072368 -0.064062 3.000000
-0.466955 -0.060861 -0.054669 3.000000
-0.466955 -0.028150 -0.076568 3.000000
-0.466955 -0.065225 0.059564 3.000000
-0.466955 -0.004438 -0.091404 3.000000
-0.466955 -0.016315 -0.072692 3.000000
-0.466955 -0.033160 0.080550 3.000000
-0.466955 -0.032661 0.054339 3.000000
-0.466955 -0.047763 -0.007495 3.000000
-0.466955 -0.010781 -0.044658 3.000000
-0.466955 0.057126 0.038093 3.000000
-0.466955 0.010296 -0.014695 3.000000
-0.466955 0.006510 0.036568 3.000000
-0.466955 -0.010717 -0.030960 3.000000
-0.466955 0.055891 -0.077642 3.000000
-0.466955 0.007996 0.060349 3.000000
-0.466955 0.036003 -0.069662 3.000000
-0.466955 -0.007167 0.064631 3.000000
-0.466955 0.053425 0.006864 3.000000
-0.466955 0.026239 -0.082260 3.000000
-0.466955 -0.043405 -0.039441 3.000000
-0.466955 -0.047938 -0.032629 3.000000
-0.466955 0.081875 0.034406 3.000000
-0.466955 0.026772 0.078554 3.000000
-0.466955 0.036309 0.053275 3.000000
-0.466955 0.063890 -0.033182 3.000000
-0.466955 -0.014294 -0.007317 3.000000
-0.466955 -0.096245 0.023323 3.000000
-0.466955 -0.027542 0.066992 3.000000
-0.466955 0.092608 0.026992 3.000000
-0.466955 0.057412 0.039533 3.000000
-0.466955 -0.003071 0.094276 3.000000
-0.466955 0.061079 -0.035830 3.000000
-0.466955 0.058372 0.062263 3.000000
-0.466955 0.013850 -0.026382 3.000000
-0.466955 0.093146 0.008546 3.000000
-0.466955 0.001030 -0.044308 3.000000
-0.466955 0.071655 -0.062523 3.000000
-0.466955 0.008257 -0.098824 3.000000
-0.466955 0.020374 0.057498 3.000000
-0.466955 -0.083202 0.018424 3.000000
-0.466955 -0.087006 0.015727 3.000000
-0.466955 -0.063430 0.059166 3.000000
-0.466955 -0.076614 -0.033763 3.000000
-0.466955 -0.002136 -0.088704 3.000000
-0.466955 -0.084970 0.015001 3.000000
-0.466955 0.045251 -0.035814 3.000000
-0.466955 0.091461 0.021554 3.000000
-0.466955 0.027587 -0.093752 3.000000
-0.466955 -0.025238 0.014670 3.000000
-0.466955 0.022977 0.041496 3.000000
-0.466955 -0.008368 0.087995 3.000000
-0.466955 0.056163 -0.052263 3.000000
-0.466955 0.013946 -0.040169 3.000000
-0.466955 0.002877 0.026417 3.000000
-0.466955 0.017679 0.015633 3.000000
-0.466955 0.046250 -0.055844 3.000000
-0.466955 -0.055017 -0.035032 3.000000
-0.466955 0.003418 0.038825 3.000000
-0.466955 -0.060851 -0.023898 3.000000
-0.466955 -0.014035 0.083021 3.000000
-0.466955 -0.072787 0.017757 3.000000
-0.466955 0.016233 -0.005869 3.000000
-0.466955 -0.031329 0.045126 3.000000
-0.466955 -0.037954 -0.024233 3.000000
-0.466955 -0.027030 0.038608 3.000000
-0.466955 -0.054710 0.011169 3.000000
-0.466955 -0.093879 0.024792 3.000000
-0.466955 -0.046848 -0.013254 3.000000
-0.466955 0.010635 -0.073372 3.000000
-0.466955 0.023870 -0.007222 3.000000
-0.466955 0.076592 -0.020527 3.000000
-0.466955 -0.006770 0.060032 3.000000
-0.466955 0.047900 0.011371 3.000000
-0.466955 -0.009684 0.090788 3.000000
-0.466955 0.032556 -0.036859 3.000000
-0.466955 -0.029681 -0.007647 3.000000
-0.466955 -0.034639 -0.054371 3.000000
-0.466955 -0.073834 0.038823 3.000000
-0.466955 0.072611 -0.004121 3.000000
-0.466955 0.038500 0.016140 3.000000
-0.466955 -0.087156 -0.024811 3.000000
-0.466955 -0.002633 -0.050783 3.000000
-0.466955 -0.063170 0.041021 3.000000
-0.466955 -0.025485 -0.060057 3.000000
-0.466955 -0.061446 -0.052392 3.000000
-0.466955 -0.077085 -0.007113 3.000000
-0.466955 0.001046 -0.097857 3.000000
-0.466955 -0.046976 -0.014721 3.000000
-0.466955 0.089368 0.002260 3.000000
-0.466955 -0.066098 0.018227 3.000000
-0.466955 -0.044429 -0.044384 3.000000
-0.466955 -0.087405 -0.007334 3.000000
-0.466955 0.023235 -0.049380 3.000000
-0.466955 0.021190 -0.088017 3.000000
-0.466955 0.058297 -0.054018 3.000000
-0.466955 -0.022793 0.005131 3.000000
-0.466955 -0.094212 -0.002849 3.000000
-0.466955 0.063454 -0.064483 3.000000
-0.466955 0.039466 -0.051035 3.000000
-0.466955 0.019116 -0.079742 3.000000
-0.466955 0.029282 0.055194 3.000000
-0.466955 -0.024102 -0.029212 3.000000
-0.466955 -0.043711 0.006623 3.000000
-0.466955 -0.039788 0.032497 3.000000
-0.466955 -0.008009 0.018169 3.000000
-0.466955 -0.008675 0.084333 3.000000
-0.466955 -0.069375 -0.024135 3.000000
-0.466955 0.059736 0.013170 3.000000
-0.466955 -0.053710 -0.038145 3.000000
-0.466955 0.002810 0.050044 3.000000
-0.466955 -0.075180 0.042362 3.000000
-0.466955 0.041130 -0.008776 3.000000
-0.466955 -0.031661 -0.071337 3.000000
-0.466955 -0.032469 0.093601 3.000000
-0.466955 0.024407 0.041516 3.000000
-0.466955 -0.008393 -0.040749 3.000000
-0.466955 0.047375 -0.031434 3.000000
-0.466955 0.009470 0.072856 3.000000
-0.466955 -0.021587 0.013475 3.000000
-0.466955 -0.002189 -0.012782 3.000000
-0.466955 0.009307 0.058282 3.000000
-0.466955 -0.027538 0.075326 3.000000
-0.466955 -0.007124 0.068566 3.000000
-0.466955 -0.010542 -0.029574 3.000000
-0.466955 0.047108 -0.079818 3.000000
-0.466955 -0.010095 0.096265 3.000000
-0.466955 -0.075716 0.018101 3.000000
-0.466955 0.035812 -0.048057 3.000000
-0.466955 -0.017983 0.000178 3.000000
-0.466955 -0.007860 -0.045093 3.000000
-0.466955 0.043480 -0.010771 3.000000
-0.466955 0.045854 -0.021428 3.000000
-0.466955 -0.044932 -0.076361 3.000000
-0.466955 -0.032192 -0.010445 3.000000
-0.466955 0.066211 0.017137 3.000000
-0.466955 0.030838 0.075551 3.000000
-0.466955 -0.076503 0.019286 3.000000
-0.466955 0.060720 0.015784 3.000000
-0.466955 0.013123 0.080105 3.000000
-0.466955 0.012442 0.051565 3.000000
-0.466955 -0.002508 -0.096461 3.000000
-0.466955 0.076848 0.032217 3.000000
-0.466955 0.069430 0.059763 3.000000
-0.466955 -0.056142 -0.071743 3.000000
-0.466955 0.012053 -0.009022 3.000000
-0.466955 -0.074293 0.049394 3.000000
-0.466955 -0.064388 0.024372 3.000000
-0.466955 0.051119 -0.027256 3.000000
-0.466955 -0.012066 -0.072002 3.000000
-0.466955 -0.027722 0.026305 3.000000
-0.466955 -0.032478 -0.032923 3.000000
-0.466955 -0.075671 -0.061025 3.000000
-0.466955 -0.067015 0.032633 3.000000
-0.466955 -0.025185 -0.047258 3.000000
-0.466955 0.085501 0.008818 3.000000
-0.466955 -0.056748 -0.024027 3.000000
-0.466955 -0.003086 -0.076582 3.000000
-0.466955 -0.026505 -0.004247 3.000000
-0.466955 -0.030541 0.012120 3.000000
-0.466955 -0.080668 -0.013751 3.000000
-0.466955 -0.053948 0.012454 3.000000
-0.466955 -0.052444 -0.062515 3.000000
-0.466955 -0.057437 -0.039530 3.000000
-0.466955 -0.074715 0.001582 3.000000
-0.466955 0.078193 0.051361 3.000000
-0.466955 -0.025922 0.047599 3.000000
-0.466955 0.077865 0.036363 3.000000
-0.466955 0.071962 -0.054769 3.000000
-0.466955 -0.039368 0.088645 3.000000
-0.466955 -0.010063 -0.070005 3.000000
-0.466955 -0.002974 -0.010821 3.000000
-0.466955 0.043993 0.050478 3.000000
-0.466955 0.021977 -0.010171 3.000000
-0.466955 -0.061909 0.067468 3.000000
-0.466955 0.004950 0.028950 3.000000
-0.466955 0.002217 0.054010 3.000000
-0.466955 -0.050687 -0.068432 3.000000
-0.466955 -0.037589 0.040959 3.000000
-0.466955 -0.028803 -0.026985 3.000000
-0.466955 0.020646 0.018277 3.000000
-0.466955 0.075047 -0.032797 3.000000
-0.466955 -0.074335 -0.053251 3.000000
-0.466955 0.064634 0.022123 3.000000
-0.466955 -0.064400 0.031234 3.000000
-0.466955 -0.002266 -0.019390 3.000000
-0.466955 -0.001945 -0.071534 3.000000
-0.466955 0.035942 -0.092893 3.000000
-0.466955 0.042699 -0.019683 3.000000
-0.466955 -0.018850 0.035500 3.000000
-0.466955 -0.069636 0.044045 3.000000
-0.466955 0.046835 -0.059856 3.000000
-0.466955 0.035299 0.010167 3.000000
-0.466955 0.037648 -0.002001 3.000000
-0.466955 0.047826 0.041873 3.000000
-0.466955 -0.016754 -0.026551 3.000000
-0.466955 -0.097753 0.003295 3.000000
-0.466955 -0.050651 0.064689 3.000000
-0.466955 -0.077401 0.062033 3.000000
-0.466955 0.040560 0.010541 3.000000
-0.466955 0.062302 -0.046937 3.000000
-0.466955 -0.058238 -0.061508 3.000000
-0.466955 0.033860 0.051429 3.000000
-0.466955 -0.035798 0.064346 3.000000
-0.466955 -0.056255 -0.054977 3.000000
-0.466955 -0.064321 0.073901 3.000000
-0.466955 -0.005824 -0.069086 3.000000
-0.466955 0.071868 0.054804 3.000000
-0.466955 0.044618 0.025652 3.000000
-0.466955 -0.047849 -0.010032 3.000000
-0.466955 -0.052440 0.021279 3.000000
-0.466955 0.012712 -0.047906 3.000000
-0.466955 0.015314 0.053754 3.000000
-0.466955 0.078573 -0.039120 3.000000
-0.466955 -0.029186 -0.083605 3.000000
-0.466955 0.044662 0.084595 3.000000
-0.466955 -0.011852 -0.034166 3.000000
-0.466955 -0.069443 0.018081 3.000000
-0.466955 -0.064597 0.041797 3.000000
-0.466955 -0.051428 -0.039391 3.000000
-0.466955 -0.066138 -0.033515 3.000000
-0.466955 -0.000232 0.061788 3.000000
-0.466955 0.093849 0.016860 3.000000
-0.466955 0.090196 0.016987 3.000000
-0.466955 0.035794 -0.045315 3.000000
-0.466955 0.025560 -0.076919 3.000000
-0.466955 0.047588 -0.038071 3.000000
-0.466955 -0.040147 -0.043772 3.000000
-0.466955 0.071032 -0.065221 3.000000
-0.466955 -0.083993 0.024125 3.000000
-0.466955 0.085340 -0.028698 3.000000
-0.466955 -0.024169 -0.084418 3.000000
-0.466955 0.029198 -0.044576 3.000000
-0.466955 0.065062 0.038335 3.000000
-0.466955 -0.006496 -0.026405 3.000000
-0.466955 -0.019644 -0.054216 3.000000
-0.466955 -0.021459 0.010993 3.000000
-0.466955 -0.022858 -0.085346 3.000000
-0.466955 0.016295 0.042488 3.000000
-0.466955 -0.011027 0.031898 3.000000
-0.466955 -0.071185 -0.055821 3.000000
-0.466955 0.066840 -0.034922 3.000000
-0.466955 0.069022 0.006041 3.000000
-0.466955 0.030763 -0.006521 3.000000
-0.466955 -0.064296 -0.042609 3.000000
-0.466955 -0.052778 -0.023181 3.000000
-0.466955 -0.054372 -0.000894 3.000000
-0.466955 -0.087996 0.032356 3.000000
-0.466955 -0.014246 -0.029202 3.000000
-0.466955 -0.003844 0.011491 3.000000
-0.466955 0.007303 0.026966 3.000000
-0.466955 0.010197 0.056384 3.000000
-0.466955 0.033507 0.061693 3.000000
-0.466955 -0.089049 -0.028209 3.000000
-0.466955 0.063740 -0.023535 3.000000
-0.466955 -0.078202 0.024335 3.000000
-0.466955 -0.002322 -0.044152 3.000000
-0.466955 -0.042202 -0.017157 3.000000
-0.466955 -0.035002 -0.019152 3.000000
-0.466955 -0.004259 -0.056259 3.000000
-0.466955 0.037151 -0.018564 3.000000
-0.466955 0.060731 0.001313 3.000000
-0.466955 -0.053457 0.057112 3.000000
-0.466955 -0.024393 -0.017535 3.000000
-0.466955 -0.054087 -0.039519 3.000000
-0.466955 0.018538 -0.041498 3.000000
-0.466955 0.022725 -0.062633 3.000000
-0.466955 0.044896 -0.054666 3.000000
-0.466955 -0.011296 -0.087477 3.000000
-0.466955 -0.027301 -0.060402 3.000000
-0.466955 0.009212 0.083995 3.000000
-0.466955 0.055874 -0.009774 3.000000
-0.466955 -0.053249 -0.083769 3.000000
-0.466955 0.046028 0.053380 3.000000
-0.466955 -0.053165 0.081381 3.000000
-0.466955 -0.028480 0.088953 3.000000
-0.466955 -0.085999 0.016967 3.000000
-0.466955 0.065779 -0.055292 3.000000
-0.466955 0.010273 0.051152 3.000000
-0.466955 -0.002391 -0.052794 3.000000
-0.466955 -0.017341 -0.084759 3.000000
-0.466955 -0.049595 -0.036721 3.000000
-0.466955 0.063568 -0.048077 3.000000
-0.466955 -0.014384 0.073733 3.000000
-0.466955 0.023697 0.011677 3.000000
-0.466955 0.002223 0.066206 3.000000
-0.466955 -0.053172 -0.049822 3.000000
-0.466955 -0.011709 -0.055056 3.000000
-0.466955 -0.053985 0.000726 3.000000
-0.466955 0.041219 -0.033869 3.000000
-0.466955 0.045097 0.041449 3.000000
-0.466955 -0.060027 0.062069 3.000000
-0.466955 -0.058806 0.047291 3.000000
-0.466955 0.009597 0.043632 3.000000
-0.466955 -0.059781 0.079257 3.000000
-0.466955 0.059168 -0.077438 3.000000
-0.466955 -0.015958 -0.087817 3.000000
-0.466955 0.064514 -0.006145 3.000000
-0.466955 -0.034152 0.010166 3.000000
-0.466955 0.041128 -0.065800 3.000000
-0.466955 -0.040958 -0.032175 3.000000
-0.466955 0.020849 -0.051736 3.000000
-0.466955 -0.006929 0.049834 3.000000
-0.466955 0.034594 -0.005156 3.000000
-0.466955 -0.037569 0.052279 3.000000
-0.466955 0.066616 -0.000527 3.000000
-0.466955 0.049942 0.065099 3.000000
-0.466955 -0.014381 -0.072057 3.000000
-0.466955 -0.068093 0.051786 3.000000
-0.466955 0.046492 -0.032549 3.000000
-0.466955 -0.060113 0.015858 3.000000
-0.466955 0.025411 -0.010769 3.000000
-0.466955 0.049655 -0.008938 3.000000
-0.466955 -0.072704 -0.017542 3.000000
-0.466955 0.031198 0.055528 3.000000
-0.466955 0.018263 -0.023852 3.000000
-0.466955 0.051067 -0.004634 3.000000
-0.466955 0.090462 0.031826 3.000000
-0.466955 0.056609 0.004190 3.000000
-0.466955 -0.026543 -0.086791 3.000000
-0.466955 0.081806 0.039600 3.000000
-0.466955 -0.029311 -0.018435 3.000000
-0.466955 -0.010431 0.034784 3.000000
-0.466955 -0.073744 -0.018907 3.000000
-0.466955 -0.012418 -0.049099 3.000000
-0.466955 -0.003936 0.035064 3.000000
-0.466955 -0.025291 0.001339 3.000000
-0.466955 0.033892 0.054938 3.000000
-0.466955 0.020664 0.016574 3.000000
-0.466955 -0.075844 -0.008180 3.000000
-0.466955 0.014456 0.020060 3.000000
-0.466955 -0.090019 0.019324 3.000000
-0.466955 -0.038548 0.021585 3.000000
-0.466955 -0.071102 -0.032560 3.000000
-0.466955 0.067349 -0.017193 3.000000
-0.466955 -0.032683 0.035325 3.000000
-0.466955 0.042794 0.047013 3.000000
-0.466955 -0.078210 0.034178 3.000000
-0.466955 -0.026110 -0.052343 3.000000
-0.466955 0.067714 -0.052584 3.000000
-0.466955 0.041884 0.058207 3.000000
-0.466955 0.026264 -0.011819 3.000000
-0.466955 0.041907 -0.011350 3.000000
-0.466955 -0.076508 -0.063736 3.000000
-0.466955 0.022276 -0.038738 3.000000
-0.466955 -0.015961 -0.086304 3.000000
-0.466955 0.056119 -0.079058 3.000000
-0.466955 -0.012741 -0.077961 3.000000
-0.466955 -0.064187 0.008013 3.000000
-0.466955 -0.006865 -0.063991 3.000000
-0.466955 0.074070 0.003638 3.000000
-0.466955 0.076068 -0.011040 3.000000
-0.466955 0.071500 -0.011715 3.000000
-0.466955 -0.043838 -0.021213 3.000000
-0.466955 0.021912 -0.052625 3.000000
-0.466955 0.054018 -0.038593 3.000000
-0.466955 -0.047554 0.050949 3.000000
-0.466955 0.068953 -0.004235 3.000000
-0.466955 -0.034007 -0.016811 3.000000
-0.466955 -0.043588 0.055974 3.000000
-0.466955 0.056415 0.056072 3.000000
-0.466955 0.012404 0.088805 3.000000
-0.466955 0.018011 0.002099 3.000000
-0.466955 -0.042701 0.015241 3.000000
-0.466955 -0.048966 0.060502 3.000000
-0.466955 0.071110 0.067827 3.000000
-0.466955 -0.056178 0.016937 3.000000
-0.466955 -0.029248 -0.010921 3.000000
-0.466955 0.007047 0.050941 3.000000
-0.466955 0.018979 -0.051665 3.000000
-0.466955 0.010662 -0.075122 3.000000
-0.466955 0.075772 -0.062274 3.000000
-0.466955 0.078909 -0.037690 3.000000
-0.466955 -0.073272 0.027602 3.000000
-0.466955 -0.027726 0.073841 3.000000
-0.466955 -0.049495 0.080875 3.000000
-0.466955 -0.047097 0.026215 3.000000
-0.466955 0.002013 0.059215 3.000000
-0.466955 -0.087134 0.014067 3.000000
-0.466955 0.061057 0.050189 3.000000
-0.466955 0.077896 -0.027219 3.000000
-0.466955 -0.025065 0.038176 3.000000
-0.466955 -0.065207 -0.004686 3.000000
-0.466955 0.005623 -0.057760 3.000000
-0.466955 0.077852 0.014783 3.000000
-0.466955 -0.029550 -0.003648 3.000000
-0.466955 0.021645 0.074064 3.000000
-0.466955 0.001126 0.097734 3.000000
-0.466955 -0.024253 -0.066949 3.000000
-0.466955 -0.043572 -0.057893 3.000000
-0.466955 0.042666 0.021807 3.000000
-0.466955 -0.057618 0.030130 3.000000
-0.466955 -0.031030 0.056009 3.000000
-0.466955 0.074173 -0.059205 3.000000
-0.466955 0.078816 -0.044294 3.000000
-0.466955 0.059411 0.019137 3.000000
-0.466955 0.021132 -0.018506 3.000000
-0.466955 0.018096 -0.094541 3.000000
-0.466955 0.062406 0.018310 3.000000
-0.466955 0.008289 0.021368 3.000000
-0.466955 0.031518 0.077519 3.000000
-0.466955 -0.062752 -0.042589 3.000000
-0.466955 -0.062618 0.057423 3.000000
-0.466955 0.068906 -0.071883 3.000000
-0.466955 -0.051423 0.005475 3.000000
-0.466955 0.085906 -0.018725 3.000000
-0.466955 -0.020282 0.053139 3.000000
-0.466955 -0.065830 0.024297 3.000000
-0.466955 0.015302 0.011199 3.000000
-0.466955 0.086927 0.026286 3.000000
-0.466955 0.047736 0.009700 3.000000
-0.466955 0.040376 -0.064311 3.000000
-0.466955 -0.013776 0.033467 3.000000
-0.466955 -0.020991 -0.091539 3.000000
-0.466955 -0.063310 -0.003888 3.000000
-0.466955 -0.015347 0.006896 3.000000
-0.466955 0.049839 0.052765 3.000000
-0.466955 0.008804 -0.006281 3.000000
-0.466955 0.002507 0.087576 3.000000
-0.466955 0.014339 0.036271 3.000000
-0.466955 0.021797 -0.029023 3.000000
-0.466955 -0.026806 0.068261 3.000000
-0.466955 -0.055860 -0.070354 3.000000
-0.466955 -0.063401 -0.057266 3.000000
-0.466955 0.048197 -0.055682 3.000000
-0.466955 0.038654 -0.067856 3.000000
-0.466955 -0.021419 -0.082319 3.000000
-0.466955 0.013048 0.023063 3.000000
-0.466955 -0.037164 -0.026975 3.000000
-0.466955 0.080214 0.059753 3.000000
-0.466955 -0.056628 -0.007268 3.000000
-0.466955 -0.048857 0.065577 3.000000
-0.466955 0.006432 -0.039274 3.000000
-0.466955 0.065261 0.041975 3.000000
-0.466955 0.087515 -0.048002 3.000000
-0.466955 0.023830 -0.005758 3.000000
-0.466955 0.034565 0.032389 3.000000
-0.466955 0.087743 -0.031444 3.000000
-0.466955 -0.034604 0.057759 3.000000
-0.466955 0.013703 0.067982 3.000000
-0.466955 -0.008520 -0.017339 3.000000
-0.466955 0.013199 -0.021221 3.000000
-0.466955 -0.050416 -0.051505 3.000000
-0.466955 0.085509 -0.047709 3.000000
-0.466955 -0.023418 0.020570 3.000000
-0.466955 0.009916 -0.082400 3.000000
-0.466955 -0.026462 0.009473 3.000000
-0.466955 0.026847 0.018596 3.000000
-0.466955 -0.053442 0.033977 3.000000
-0.466955 -0.050873 -0.055913 3.000000
-0.466955 0.024350 -0.093890 3.000000
-0.466955 -0.020935 -0.078019 3.000000
-0.466955 -0.017661 0.048114 3.000000
-0.466955 0.020567 -0.026839 3.000000
-0.466955 -0.097079 0.001813 3.000000
-0.466955 -0.042199 0.079662 3.000000
-0.466955 0.023830 0.043186 3.000000
-0.466955 0.069066 -0.069932 3.000000
-0.466955 0.026230 0.054074 3.000000
-0.466955 -0.035340 0.062678 3.000000
-0.466955 -0.072076 0.004984 3.000000
-0.466955 0.042695 -0.033660 3.000000
-0.466955 -0.052824 -0.054984 3.000000
-0.466955 0.020368 -0.073308 3.000000
-0.466955 0.028213 0.072756 3.000000
-0.466955 -0.020054 -0.009066 3.000000
-0.466955 -0.001403 -0.049658 3.000000
-0.466955 -0.059720 -0.018421 3.000000
-0.466955 0.076546 0.051129 3.000000
-0.466955 -0.004637 -0.024813 3.000000
-0.466955 0.036704 -0.028817 3.000000
-0.466955 -0.065472 -0.008888 3.000000
-0.466955 0.056033 0.040618 3.000000
-0.466955 -0.084825 -0.049197 3.000000
-0.466955 -0.010042 -0.078399 3.000000
-0.466955 0.074134 0.048866 3.000000
-0.466955 -0.018850 -0.085759 3.000000
-0.466955 0.051781 0.072850 3.000000
-0.466955 0.059215 0.050222 3.000000
-0.466955 -0.024554 0.051548 3.000000
-0.466955 0.041171 0.091177 3.000000
-0.466955 0.032318 -0.006785 3.000000
-0.466955 0.067504 0.017669 3.000000
-0.466955 0.062875 -0.013638 3.000000
-0.466955 0.018288 -0.095860 3.000000
-0.466955 0.058594 0.022435 3.000000
-0.466955 0.005012 -0.046571 3.000000
-0.466955 -0.001936 -0.003772 3.000000
-0.466955 -0.058581 0.007089 3.000000
-0.466955 -0.059726 -0.001024 3.000000
-0.466955 0.090356 -0.015346 3.000000
-0.466955 -0.040136 0.041285 3.000000
-0.466955 -0.002749 0.032336 3.000000
-0.466955 0.023377 0.083395 3.000000
-0.466955 0.061981 0.000095 3.000000
-0.466955 -0.045252 -0.046622 3.000000
-0.466955 -0.085051 0.031854 3.000000
-0.466955 0.004030 0.005389 3.000000
-0.466955 -0.076937 0.044679 3.000000
-0.466955 0.023436 0.020747 3.000000
-0.466955 0.048186 -0.049066 3.000000
-0.466955 -0.019727 -0.016854 3.000000
-0.466955 -0.056820 0.053247 3.000000
-0.466955 0.043736 0.045207 3.000000
-0.466955 0.018278 0.071747 3.000000
-0.466955 -0.026595 0.015466 3.000000
-0.466955 0.028072 -0.085213 3.000000
-0.466955 0.028524 -0.077882 3.000000
-0.466955 -0.021523 0.046826 3.000000
-0.466955 0.050568 0.032397 3.000000
-0.466955 -0.024353 -0.030767 3.000000
-0.466955 0.022084 0.093770 3.000000
-0.466955 0.006355 -0.033946 3.000000
-0.466955 -0.008407 -0.051787 3.000000
-0.466955 0.013988 -0.058584 3.000000
-0.466955 0.063117 -0.041743 3.000000
-0.466955 -0.014506 -0.024584 3.000000
-0.466955 -0.000981 -0.037311 3.000000
-0.466955 -0.010657 -0.036088 3.000000
-0.466955 -0.007982 -0.022959 3.000000
-0.466955 0.036373 0.033236 3.000000
-0.466955 0.012146 -0.050153 3.000000
-0.466955 0.051605 0.046890 3.000000
-0.466955 -0.044188 0.019871 3.000000
-0.466955 0.022785 -0.064428 3.000000
-0.466955 0.024515 -0.048416 3.000000
-0.466955 -0.029607 -0.051028 3.000000
-0.466955 0.035438 -0.015664 3.000000
-0.466955 -0.051956 0.030446 3.000000
-0.466955 -0.046833 -0.051078 3.000000
-0.466955 -0.029024 -0.024616 3.000000
-0.466955 -0.018219 0.042136 3.000000
-0.466955 -0.046433 0.053811 3.000000
-0.466955 -0.031078 0.061669 3.000000
-0.466955 0.018533 -0.054218 3.000000
-0.466955 0.034507 0.077592 3.000000
-0.466955 0.087153 -0.007502 3.000000
-0.466955 0.011529 -0.048773 3.000000
-0.466955 0.071663 -0.046227 3.000000
-0.466955 -0.020688 0.026254 3.000000
-0.466955 0.065707 -0.072853 3.000000
-0.466955 -0.025967 0.029641 3.000000
-0.466955 -0.000353 0.022165 3.000000
-0.466955 -0.038528 -0.013668 3.000000
-0.466955 -0.035358 0.052742 3.000000
-0.466955 -0.035846 0.047127 3.000000
-0.466955 -0.059779 -0.016335 3.000000
-0.466955 -0.021483 0.028977 3.000000
-0.466955 0.045201 0.079149 3.000000
-0.466955 -0.031327 0.042963 3.000000
-0.466955 -0.012134 0.064526 3.000000
-0.466955 0.033757 -0.070992 3.000000
-0.466955 0.034166 0.022699 3.000000
-0.466955 -0.042196 -0.013410 3.000000
-0.466955 -0.081858 -0.023887 3.000000
-0.466955 0.054886 -0.041543 3.000000
-0.466955 0.078771 0.061175 3.000000
-0.466955 0.020731 -0.039290 3.000000
-0.466955 -0.050862 -0.070110 3.000000
-0.466955 -0.088079 -0.008778 3.000000
-0.466955 0.037526 0.037123 3.000000
-0.466955 0.007630 0.067543 3.000000
-0.466955 0.004383 -0.022853 3.000000
-0.466955 0.028996 0.079391 3.000000
-0.466955 0.077535 -0.007808 3.000000
-0.466955 0.042252 -0.038208 3.000000
-0.466955 0.032409 -0.064934 3.000000
-0.466955 -0.079290 -0.032650 3.000000
-0.466955 0.087796 0.027562 3.000000
-0.466955 -0.039649 0.002875 3.000000
-0.466955 0.083101 0.052581 3.000000
-0.466955 0.081031 0.004330 3.000000
-0.466955 0.061353 0.067463 3.000000
-0.466955 0.050505 0.027589 3.000000
-0.466955 0.048851 0.055784 3.000000
-0.466955 0.017076 0.080971 3.000000
-0.466955 -0.016810 -0.067693 3.000000
-0.466955 -0.055716 0.008588 3.000000
-0.466955 -0.051058 -0.013366 3.000000
