0.465339 0.051678 0.028077 2.000000
0.465339 0.034974 -0.078354 2.000000
0.465339 -0.022341 -0.076274 2.000000
0.465339 -0.008934 -0.055204 2.000000
0.465339 -0.000376 -0.093139 2.000000
0.465339 0.030580 -0.059084 2.000000
0.465339 0.012430 0.011394 2.000000
0.465339 -0.004523 0.015107 2.000000
0.465339 -0.092993 0.017814 2.000000
0.465339 -0.013181 0.097185 2.000000
0.465339 0.017746 0.000967 2.000000
0.465339 -0.055056 0.065721 2.000000
0.465339 -0.040228 0.006859 2.000000
0.465339 0.093081 0.000630 2.000000
0.465339 -0.065047 -0.025733 2.000000
0.465339 -0.035336 -0.039762 2.000000
0.465339 0.013596 -0.024907 2.000000
0.465339 0.042405 0.034887 2.000000
0.465339 0.061285 0.031289 2.000000
0.465339 -0.000978 -0.033573 2.000000
0.465339 0.004603 -0.022875 2.000000
0.465339 -0.064536 -0.042776 2.000000
0.465339 -0.053797 0.047842 2.000000
0.465339 0.029942 0.040773 2.000000
0.465339 0.056683 -0.024044 2.000000
0.465339 0.014374 0.094055 2.000000
0.465339 0.033070 0.038115 2.000000
0.465339 0.031314 -0.040338 2.000000
0.465339 0.062384 -0.027748 2.000000
0.465339 -0.081012 -0.053069 2.000000
0.465339 0.019497 0.011026 2.000000
0.465339 0.021465 0.045704 2.000000
0.465339 -0.037999 -0.035771 2.000000
0.465339 0.052889 0.079753 2.000000
0.465339 -0.010725 -0.083412 2.000000
0.465339 0.028583 0.039809 2.000000
0.465339 -0.026031 -0.079524 2.000000
0.465339 0.071783 -0.061681 2.000000
0.465339 0.038486 -0.029077 2.000000
0.465339 -0.092304 -0.012971 2.000000
0.465339 0.066437 0.024258 2.000000
0.465339 0.060545 -0.072850 2.000000
0.465339 -0.091827 -0.008607 2.000000
0.465339 0.024102 0.066050 2.000000
0.465339 0.035187 0.082044 2.000000
0.465339 0.037566 0.074306 2.000000
0.465339 0.064982 -0.068327 2.000000
0.465339 0.038927 -0.062009 2.000000
0.465339 -0.089755 -0.013264 2.000000
0.465339 -0.001487 0.042681 2.000000
0.465339 -0.052003 0.018300 2.000000
0.465339 0.033144 0.071368 2.000000
0.465339 0.044069 -0.073673 2.000000
0.465339 -0.071308 -0.058447 2.000000
0.465339 0.012572 -0.058313 2.000000
0.465339 -0.039070 -0.064636 2.000000
0.465339 0.057732 0.067505 2.000000
0.465339 -0.022537 0.077152 2.000000
0.465339 0.046445 -0.013645 2.000000
0.465339 0.007671 0.071266 2.000000
0.465339 -0.051188 0.066559 2.000000
0.465339 -0.025471 -0.073253 2.000000
0.465339 0.046301 0.069748 2.000000
0.465339 0.054927 0.017941 2.000000
0.465339 -0.036470 0.018042 2.000000
0.465339 -0.043176 -0.018254 2.000000
0.465339 0.047113 -0.010411 2.000000
0.465339 -0.032537 0.073385 2.000000
0.465339 0.006970 -0.056753 2.000000
0.465339 0.013114 0.005775 2.000000
0.465339 -0.072114 -0.023009 2.000000
0.465339 -0.044991 -0.008431 2.000000
0.465339 -0.058787 -0.034435 2.000000
0.465339 0.011087 0.029871 2.000000
0.465339 -0.070574 0.001362 2.000000
0.465339 0.036173 0.087396 2.000000
0.465339 -0.040771 -0.062622 2.000000
0.465339 -0.027847 0.095657 2.000000
0.465339 -0.032989 -0.088780 2.000000
0.465339 0.071732 0.048919 2.000000
0.465339 -0.029868 -0.039497 2.000000
0.465339 0.028150 0.069131 2.000000
0.465339 0.055773 0.011869 2.000000
0.465339 0.066371 0.045789 2.000000
0.465339 -0.019220 0.087242 2.000000
0.465339 -0.062832 -0.022762 2.000000
0.465339 0.003239 -0.092388 2.000000
0.465339 -0.043682 0.049312 2.000000
0.465339 0.087533 -0.046568 2.000000
0.465339 -0.016695 -0.087038 2.000000
0.465339 -0.035978 0.003795 2.000000
0.465339 0.085941 -0.015096 2.000000
0.465339 0.053832 0.080795 2.000000
0.465339 0.037944 -0.064667 2.000000
0.465339 0.033187 0.034521 2.000000
0.465339 -0.054241 -0.078440 2.000000
0.465339 0.064936 -0.051802 2.000000
0.465339 -0.080724 -0.030142 2.000000
0.465339 0.099203 0.001925 2.000000
0.465339 -0.003894 -0.023082 2.000000
0.465339 -0.021821 -0.033756 2.000000
0.465339 -0.035281 0.070755 2.000000
0.465339 -0.033949 0.025411 2.000000
0.465339 0.087488 -0.015309 2.000000
0.465339 0.062436 -0.074873 2.000000
0.465339 0.040555 0.057974 2.000000
0.465339 -0.032073 0.070481 2.000000
0.465339 0.082711 -0.049179 2.000000
0.465339 0.001970 -0.053871 2.000000
0.465339 0.024664 -0.025817 2.000000
0.465339 0.010528 0.011059 2.000000
0.465339 0.013545 0.045612 2.000000
0.465339 0.023040 -0.037924 2.000000
0.465339 -0.010033 -0.012327 2.000000
0.465339 -0.064288 -0.047122 2.000000
0.465339 0.029381 0.072636 2.000000
0.465339 0.084561 -0.003332 2.000000
0.465339 0.011998 -0.060070 2.000000
0.465339 -0.043545 0.036239 2.000000
0.465339 0.040332 0.072204 2.000000
0.465339 -0.006254 -0.046063 2.000000
0.465339 -0.071368 -0.053982 2.000000
0.465339 0.046538 0.000045 2.000000
0.465339 0.037388 -0.071348 2.000000
0.465339 0.012834 0.063364 2.000000
0.465339 0.030207 0.078019 2.000000
0.465339 -0.060121 -0.056133 2.000000
0.465339 0.066591 0.028944 2.000000
0.465339 0.027887 0.007769 2.000000
0.465339 -0.007551 0.011388 2.000000
0.465339 -0.004033 0.012896 2.000000
0.465339 0.068702 0.015651 2.000000
0.465339 0.056381 -0.002019 2.000000
0.465339 -0.087248 0.004719 2.000000
0.465339 -0.009440 0.030802 2.000000
0.465339 -0.003716 -0.089689 2.000000
0.465339 -0.023043 -0.051005 2.000000
0.465339 0.071015 -0.055816 2.000000
0.465339 -0.053801 -0.002817 2.000000
0.465339 -0.042712 0.009953 2.000000
0.465339 0.024317 0.049515 2.000000
0.465339 0.045237 -0.079653 2.000000
0.465339 0.040973 0.012499 2.000000
0.465339 -0.053968 0.064150 2.000000
0.465339 0.091581 0.032260 2.000000
0.465339 -0.024595 -0.036502 2.000000
0.465339 -0.021835 0.097379 2.000000
0.465339 0.006608 0.006319 2.000000
0.465339 0.012927 0.065540 2.000000
0.465339 -0.024523 0.065690 2.000000
0.465339 -0.006925 -0.095982 2.000000
0.465339 0.022227 -0.039919 2.000000
0.465339 0.075731 -0.063185 2.000000
0.465339 0.033364 0.073988 2.000000
0.465339 -0.014653 -0.016890 2.000000
0.465339 0.056669 0.047171 2.000000
0.465339 0.064677 0.019510 2.000000
0.465339 -0.066420 -0.059691 2.000000
0.465339 0.026101 0.094070 2.000000
0.465339 0.077389 0.016871 2.000000
0.465339 -0.019873 -0.039350 2.000000
0.465339 -0.005047 0.057518 2.000000
0.465339 0.022394 0.038737 2.000000
0.465339 0.048826 -0.020290 2.000000
0.465339 0.046117 0.057595 2.000000
0.465339 -0.090373 0.041331 2.000000
0.465339 0.081688 -0.011550 2.000000
0.465339 0.063198 -0.031570 2.000000
0.465339 -0.040445 -0.012984 2.000000
0.465339 0.080975 -0.006538 2.000000
0.465339 -0.092589 0.002558 2.000000
0.465339 -0.077291 -0.036752 2.000000
0.465339 0.048774 -0.034085 2.000000
0.465339 -0.095142 -0.025454 2.000000
0.465339 0.064166 -0.021808 2.000000
0.465339 -0.012465 -0.094468 2.000000
0.465339 0.017812 -0.086995 2.000000
0.465339 -0.043424 0.037886 2.000000
0.465339 -0.050256 0.000071 2.000000
0.465339 -0.020984 0.076029 2.000000
0.465339 0.092116 -0.013083 2.000000
0.465339 0.068223 0.035342 2.000000
0.465339 0.024523 -0.013848 2.000000
0.465339 0.003525 0.046026 2.000000
0.465339 -0.090704 -0.002615 2.000000
0.465339 0.033238 0.051040 2.000000
0.465339 0.009206 0.043660 2.000000
0.465339 0.069560 0.012951 2.000000
0.465339 -0.060474 0.005697 2.000000
0.465339 -0.084603 0.042237 2.000000
0.465339 -0.021195 -0.074901 2.000000
0.465339 -0.014212 -0.037018 2.000000
0.465339 -0.073447 -0.001861 2.000000
0.465339 0.045900 -0.018350 2.000000
0.465339 -0.031399 -0.079706 2.000000
0.465339 0.023631 0.002836 2.000000
0.465339 0.053967 -0.004844 2.000000
0.465339 -0.039160 0.023265 2.000000
0.465339 0.091168 0.026528 2.000000
0.465339 0.031783 0.071062 2.000000
0.465339 0.025713 0.037829 2.000000
0.465339 -0.048906 0.051342 2.000000
0.465339 0.032355 0.008339 2.000000
0.465339 0.052161 -0.053765 2.000000
0.465339 -0.049560 0.077668 2.000000
0.465339 0.050297 -0.009092 2.000000
0.465339 -0.020648 -0.029555 2.000000
0.465339 0.054534 0.053391 2.000000
0.465339 -0.076496 -0.042759 2.000000
0.465339 0.096413 0.015958 2.000000
0.465339 -0.011386 0.078052 2.000000
0.465339 -0.070875 -0.037305 2.000000
0.465339 -0.074900 0.065366 2.000000
0.465339 -0.043422 -0.011023 2.000000
0.465339 0.029110 0.056672 2.000000
0.465339 0.023874 0.077879 2.000000
0.465339 -0.021090 -0.077408 2.000000
0.465339 0.026619 -0.051686 2.000000
0.465339 0.051716 0.081505 2.000000
0.465339 -0.006580 0.052776 2.000000
0.465339 0.072072 0.036089 2.000000
0.465339 -0.041113 0.049291 2.000000
0.465339 0.095786 -0.013729 2.000000
0.465339 -0.030671 -0.032010 2.000000
0.465339 -0.057889 -0.050318 2.000000
0.465339 0.040441 -0.083225 2.000000
0.465339 0.001278 0.034289 2.000000
0.465339 0.083298 -0.043148 2.000000
0.465339 -0.065945 0.030692 2.000000
0.465339 -0.003269 -0.045856 2.000000
0.465339 0.057204 -0.034227 2.000000
0.465339 -0.078882 -0.045392 2.000000
0.465339 -0.029214 0.088664 2.000000
0.465339 -0.069548 -0.060248 2.000000
0.465339 -0.091602 0.016721 2.000000
0.465339 0.004510 -0.070005 2.000000
0.465339 0.029283 -0.025627 2.000000
0.465339 0.066250 0.021190 2.000000
0.465339 0.064576 -0.062327 2.000000
0.465339 0.051091 -0.046997 2.000000
0.465339 0.040631 0.034082 2.000000
0.465339 0.026452 -0.047301 2.000000
0.465339 0.050745 0.035304 2.000000
0.465339 0.057096 0.036124 2.000000
0.465339 0.003126 -0.021364 2.000000
0.465339 -0.004216 0.075150 2.000000
0.465339 -0.034332 -0.045287 2.000000
0.465339 -0.021177 0.010909 2.000000
0.465339 0.048985 0.000331 2.000000
0.465339 -0.014144 0.096175 2.000000
0.465339 0.056423 -0.010803 2.000000
0.465339 0.017868 0.066175 2.000000
0.465339 -0.046720 0.004444 2.000000
0.465339 -0.032013 0.019052 2.000000
0.465339 0.004383 -0.087440 2.000000
0.465339 -0.040612 -0.089660 2.000000
0.465339 -0.028202 -0.025625 2.000000
0.465339 0.053836 0.084125 2.000000
0.465339 0.059144 0.005805 2.000000
0.465339 0.002412 -0.012689 2.000000
0.465339 0.047075 0.024523 2.000000
0.465339 -0.069652 -0.011150 2.000000
0.465339 -0.053783 -0.043257 2.000000
0.465339 -0.010098 0.036197 2.000000
0.465339 0.034188 -0.035847 2.000000
0.465339 0.064014 -0.002007 2.000000
0.465339 -0.017557 0.036446 2.000000
0.465339 -0.028449 -0.047297 2.000000
0.465339 0.024739 -0.017256 2.000000
0.465339 0.000433 0.093778 2.000000
0.465339 -0.058362 0.066013 2.000000
0.465339 -0.056553 -0.030594 2.000000
0.465339 -0.065742 -0.018119 2.000000
0.465339 0.057575 0.027389 2.000000
0.465339 -0.054879 -0.039415 2.000000
0.465339 0.050674 0.079757 2.000000
0.465339 -0.062711 0.063473 2.000000
0.465339 0.045229 -0.043381 2.000000
0.465339 0.070143 0.035554 2.000000
0.465339 0.056621 0.042120 2.000000
0.465339 0.053312 0.017602 2.000000
0.465339 0.079709 0.042246 2.000000
0.465339 0.008320 0.045622 2.000000
0.465339 0.017085 -0.035846 2.000000
0.465339 0.093959 -0.009373 2.000000
0.465339 0.016184 0.020591 2.000000
0.465339 0.003297 0.000220 2.000000
0.465339 -0.016644 -0.001461 2.000000
0.465339 0.059554 -0.036161 2.000000
0.465339 0.038067 0.047107 2.000000
0.465339 0.089158 -0.000762 2.000000
0.465339 0.018813 0.042450 2.000000
0.465339 0.050299 0.002004 2.000000
0.465339 -0.082910 0.045295 2.000000
0.465339 -0.054050 0.078428 2.000000
0.465339 0.001043 0.008130 2.000000
0.465339 -0.084732 -0.002631 2.000000
0.465339 -0.038034 -0.053332 2.000000
0.465339 -0.021507 0.058410 2.000000
0.465339 -0.056820 -0.070713 2.000000
0.465339 -0.036463 -0.063118 2.000000
0.465339 -0.023916 0.005541 2.000000
0.465339 -0.078263 -0.014762 2.000000
0.465339 0.062964 -0.030161 2.000000
0.465339 0.027990 0.035456 2.000000
0.465339 -0.036611 -0.018129 2.000000
0.465339 0.027040 -0.079216 2.000000
0.465339 -0.060546 -0.070555 2.000000
0.465339 0.000129 0.003239 2.000000
0.465339 -0.047463 0.073488 2.000000
0.465339 -0.028317 0.078475 2.000000
0.465339 0.041667 -0.030137 2.000000
0.465339 -0.016790 -0.094000 2.000000
0.465339 -0.014846 0.015545 2.000000
0.465339 -0.022000 -0.047281 2.000000
0.465339 0.029975 0.038390 2.000000
0.465339 0.018839 -0.039692 2.000000
0.465339 0.030655 -0.013667 2.000000
0.465339 0.069576 0.041458 2.000000
0.465339 0.020879 0.092021 2.000000
0.465339 -0.069008 0.051164 2.000000
0.465339 -0.077175 -0.024966 2.000000
0.465339 -0.017222 -0.006807 2.000000
0.465339 0.009970 0.085338 2.000000
0.465339 0.035247 -0.015767 2.000000
0.465339 0.015863 -0.056393 2.000000
0.465339 -0.002022 -0.017903 2.000000
0.465339 -0.012412 0.020028 2.000000
0.465339 -0.048973 0.021805 2.000000
0.465339 -0.065572 -0.067760 2.000000
0.465339 0.084906 0.003131 2.000000
0.465339 -0.073187 0.044029 2.000000
0.465339 0.076114 -0.053787 2.000000
0.465339 -0.074788 -0.028802 2.000000
0.465339 -0.058034 0.029558 2.000000
0.465339 0.087797 0.036781 2.000000
0.465339 -0.015163 0.093065 2.000000
0.465339 0.027192 -0.028870 2.000000
0.465339 0.002236 -0.048156 2.000000
0.465339 -0.024898 0.088009 2.000000
0.465339 0.060181 0.025662 2.000000
0.465339 -0.029435 0.005467 2.000000
0.465339 -0.046794 -0.050950 2.000000
0.465339 -0.079092 -0.032400 2.000000
0.465339 0.064558 -0.070562 2.000000
0.465339 0.090509 0.039434 2.000000
0.465339 -0.075823 0.033637 2.000000
0.465339 -0.028768 -0.076256 2.000000
0.465339 -0.026656 -0.041065 2.000000
0.465339 0.052981 -0.043656 2.000000
0.465339 -0.010456 -0.048085 2.000000
0.465339 0.066292 0.004900 2.000000
0.465339 -0.017242 -0.054834 2.000000
0.465339 -0.018362 -0.083432 2.000000
0.465339 0.042194 -0.077038 2.000000
0.465339 0.023847 0.034005 2.000000
0.465339 0.028719 0.050268 2.000000
0.465339 0.027407 0.082734 2.000000
0.465339 0.059364 -0.030436 2.000000
0.465339 0.079400 -0.043263 2.000000
0.465339 0.013499 0.074356 2.000000
0.465339 -0.098167 0.009899 2.000000
0.465339 -0.029316 -0.057359 2.000000
0.465339 -0.002200 0.059596 2.000000
0.465339 -0.046796 0.055966 2.000000
0.465339 0.026252 -0.039316 2.000000
0.465339 0.039241 0.035107 2.000000
0.465339 0.002120 0.017477 2.000000
0.465339 0.018321 0.095905 2.000000
0.465339 0.046072 0.050302 2.000000
0.465339 0.043215 0.014456 2.000000
0.465339 0.083413 0.021777 2.000000
0.465339 0.008697 0.034143 2.000000
0.465339 -0.074773 -0.001262 2.000000
0.465339 0.010999 -0.074999 2.000000
0.465339 0.087474 0.016137 2.000000
0.465339 0.041940 0.024858 2.000000
0.465339 0.013663 0.095436 2.000000
0.465339 0.010094 -0.002761 2.000000
0.465339 -0.087986 0.023145 2.000000
0.465339 -0.042119 -0.083814 2.000000
0.465339 0.029197 0.037158 2.000000
0.465339 -0.072832 0.026840 2.000000
0.465339 -0.030402 0.021660 2.000000
0.465339 0.023413 -0.085663 2.000000
0.465339 0.004715 -0.043969 2.000000
0.465339 0.036601 -0.057421 2.000000
0.465339 -0.005053 -0.006692 2.000000
0.465339 -0.084441 0.024135 2.000000
0.465339 -0.048614 -0.068799 2.000000
0.465339 0.040781 -0.010352 2.000000
0.465339 0.014210 0.066318 2.000000
0.465339 -0.024708 0.055996 2.000000
0.465339 -0.008188 0.041382 2.000000
0.465339 -0.053945 -0.016504 2.000000
0.465339 -0.079713 -0.054541 2.000000
0.465339 0.031624 0.042024 2.000000
0.465339 0.090761 -0.021418 2.000000
0.465339 0.042237 -0.042513 2.000000
0.465339 0.036895 0.060194 2.000000
0.465339 0.064549 -0.003878 2.000000
0.465339 0.002399 -0.020001 2.000000
0.465339 0.038701 -0.056979 2.000000
0.465339 -0.080146 0.026806 2.000000
0.465339 -0.035782 0.012950 2.000000
0.465339 -0.048314 -0.029083 2.000000
0.465339 0.030222 -0.073949 2.000000
0.465339 0.013669 -0.004833 2.000000
0.465339 -0.089154 -0.032298 2.000000
0.465339 -0.071390 -0.061187 2.000000
0.465339 0.031340 -0.030202 2.000000
0.465339 0.050632 0.007162 2.000000
0.465339 -0.011443 0.073588 2.000000
0.465339 -0.012411 0.075106 2.000000
0.465339 0.025054 0.039517 2.000000
0.465339 -0.062198 0.015808 2.000000
0.465339 -0.033269 0.071469 2.000000
0.465339 0.066869 0.054773 2.000000
0.465339 -0.058981 0.074234 2.000000
0.465339 -0.024450 0.051665 2.000000
0.465339 -0.039152 -0.000433 2.000000
0.465339 -0.020136 -0.007088 2.000000
0.465339 -0.032999 0.054728 2.000000
0.465339 -0.034315 0.060438 2.000000
0.465339 0.012833 0.043752 2.000000
0.465339 0.008224 -0.053020 2.000000
0.465339 0.024222 0.060041 2.000000
0.465339 0.037224 -0.087313 2.000000
0.465339 0.026850 -0.017402 2.000000
0.465339 -0.025289 0.077866 2.000000
0.465339 -0.001137 0.021589 2.000000
0.465339 0.056824 -0.060097 2.000000
0.465339 0.017239 0.052956 2.000000
0.465339 0.042226 -0.082016 2.000000
0.465339 -0.047791 0.023314 2.000000
0.465339 0.077745 -0.018709 2.000000
0.465339 0.055783 -0.035238 2.000000
0.465339 0.030875 -0.067594 2.000000
0.465339 -0.072111 0.012991 2.000000
0.465339 -0.015340 0.010829 2.000000
0.465339 0.009217 0.049483 2.000000
0.465339 -0.039925 0.088877 2.000000
0.465339 0.024864 -0.085219 2.000000
0.465339 0.035168 0.029805 2.000000
0.465339 -0.077855 0.021880 2.000000
0.465339 -0.015583 -0.098152 2.000000
0.465339 -0.018164 0.025186 2.000000
0.465339 -0.028533 -0.003994 2.000000
0.465339 -0.084226 0.014691 2.000000
0.465339 -0.028970 -0.059606 2.000000
0.465339 0.028985 0.012185 2.000000
0.465339 0.082721 0.015864 2.000000
0.465339 0.073392 0.013576 2.000000
0.465339 -0.054153 -0.059207 2.000000
0.465339 0.060355 -0.065126 2.000000
0.465339 0.010076 0.035989 2.000000
0.465339 0.041686 0.013787 2.000000
0.465339 0.040494 -0.019635 2.000000
0.465339 -0.083157 0.050600 2.000000
0.465339 -0.016294 0.076222 2.000000
0.465339 0.059971 0.035295 2.000000
0.465339 0.033766 -0.089933 2.000000
0.465339 0.012456 -0.096481 2.000000
0.465339 -0.080363 0.028656 2.000000
0.465339 0.042839 -0.028247 2.000000
0.465339 -0.013320 -0.077115 2.000000
0.465339 0.006041 -0.013098 2.000000
0.465339 -0.013624 -0.001692 2.000000
0.465339 0.031067 0.092211 2.000000
0.465339 -0.014994 0.025171 2.000000
0.465339 0.046528 0.013373 2.000000
0.465339 0.028219 -0.080345 2.000000
0.465339 0.008319 -0.033075 2.000000
0.465339 -0.053287 -0.010837 2.000000
0.465339 0.057763 -0.029630 2.000000
0.465339 -0.062142 -0.012157 2.000000
0.465339 0.042721 -0.039048 2.000000
0.465339 0.021860 -0.095999 2.000000
0.465339 -0.096047 0.004305 2.000000
0.465339 -0.070450 0.038909 2.000000
0.465339 -0.006664 0.034505 2.000000
0.465339 -0.056093 -0.007226 2.000000
0.465339 -0.022876 0.055578 2.000000
0.465339 -0.052452 0.084880 2.000000
0.465339 0.013530 0.086433 2.000000
0.465339 -0.041362 -0.056484 2.000000
0.465339 0.018825 0.040306 2.000000
0.465339 0.044066 -0.022706 2.000000
0.465339 0.026883 0.009243 2.000000
0.465339 0.007836 -0.064285 2.000000
0.465339 0.095561 0.007883 2.000000
0.465339 0.032954 -0.057609 2.000000
0.465339 0.064728 0.004752 2.000000
0.465339 0.030727 0.053910 2.000000
0.465339 -0.080772 -0.017126 2.000000
0.465339 -0.080279 0.036649 2.000000
0.465339 -0.028151 -0.051970 2.000000
0.465339 0.035795 0.001344 2.000000
0.465339 0.004998 0.032193 2.000000
0.465339 -0.046559 -0.053877 2.000000
0.465339 -0.053107 -0.005925 2.000000
0.465339 0.012188 0.004088 2.000000
0.465339 -0.048036 0.079095 2.000000
0.465339 -0.040393 0.083947 2.000000
0.465339 -0.006823 0.012689 2.000000
0.465339 -0.038204 0.064628 2.000000
0.465339 -0.050044 0.013714 2.000000
0.465339 0.064083 -0.075430 2.000000
0.465339 0.047507 0.016583 2.000000
0.465339 -0.029104 -0.093231 2.000000
0.465339 0.036327 -0.079537 2.000000
0.465339 0.057608 -0.047805 2.000000
0.465339 -0.087481 0.038880 2.000000
0.465339 0.035502 0.083692 2.000000
0.465339 0.033905 0.081473 2.000000
0.465339 0.058925 0.010141 2.000000
0.465339 -0.001011 0.098310 2.000000
0.465339 0.051806 0.009852 2.000000
0.465339 0.000090 0.091488 2.000000
0.465339 0.042859 0.001030 2.000000
0.465339 0.077034 0.014922 2.000000
0.465339 -0.008049 -0.019918 2.000000
0.465339 -0.084382 0.049501 2.000000
0.465339 -0.015557 -0.008334 2.000000
0.465339 -0.084199 0.029869 2.000000
0.465339 0.021972 -0.064293 2.000000
0.465339 0.047094 0.019091 2.000000
0.465339 -0.059519 -0.040129 2.000000
0.465339 -0.018453 0.027037 2.000000
0.465339 -0.003502 0.082037 2.000000
0.465339 0.014343 0.022197 2.000000
0.465339 0.087963 -0.002924 2.000000
0.465339 -0.084043 0.052496 2.000000
0.465339 -0.028026 -0.010144 2.000000
0.465339 -0.095095 -0.015499 2.000000
0.465339 -0.027970 0.040944 2.000000
0.465339 0.060993 -0.031925 2.000000
0.465339 0.010707 0.068748 2.000000
0.465339 -0.071739 -0.047479 2.000000
0.465339 0.064692 -0.018341 2.000000
0.465339 -0.061232 -0.032648 2.000000
0.465339 -0.050628 0.007540 2.000000
0.465339 -0.022838 -0.053604 2.000000
0.465339 0.064946 0.059804 2.000000
0.465339 0.081216 -0.047409 2.000000
0.465339 0.036557 0.004681 2.000000
0.465339 0.013724 0.002288 2.000000
0.465339 -0.082070 0.043721 2.000000
0.465339 -0.060101 0.002019 2.000000
0.465339 -0.050313 -0.056647 2.000000
0.465339 0.058114 -0.001689 2.000000
0.465339 -0.099118 0.001611 2.000000
0.465339 -0.010725 0.061495 2.000000
0.465339 0.047244 -0.034292 2.000000
0.465339 -0.016266 -0.077935 2.000000
0.465339 -0.077979 0.057066 2.000000
0.465339 0.096221 0.011158 2.000000
0.465339 0.084824 0.049877 2.000000
0.465339 0.002589 -0.090402 2.000000
0.465339 -0.060011 -0.003608 2.000000
0.465339 0.019518 -0.073208 2.000000
0.465339 0.073713 0.014974 2.000000
0.465339 0.049569 -0.038275 2.000000
0.465339 -0.034379 0.020148 2.000000
0.465339 0.040377 0.053269 2.000000
0.465339 0.018133 -0.075097 2.000000
0.465339 0.084525 -0.042274 2.000000
0.465339 -0.012210 -0.075219 2.000000
0.465339 0.088884 0.037984 2.000000
0.465339 -0.041909 -0.052982 2.000000
0.465339 -0.056433 -0.058454 2.000000
0.465339 -0.068853 0.021051 2.000000
0.465339 -0.034507 0.093667 2.000000
0.465339 0.063900 0.041488 2.000000
0.465339 -0.051220 0.071008 2.000000
0.465339 0.043671 0.084353 2.000000
0.465339 0.057420 -0.068265 2.000000
0.465339 0.047301 0.031071 2.000000
0.465339 0.057986 -0.076773 2.000000
0.465339 0.002442 0.087072 2.000000
0.465339 -0.092695 0.028620 2.000000
0.465339 0.001447 -0.087354 2.000000
0.465339 0.055790 0.037253 2.000000
0.465339 0.080497 -0.002153 2.000000
0.465339 0.033508 0.093487 2.000000
0.465339 0.024946 0.072840 2.000000
0.465339 -0.050748 -0.033798 2.000000
0.465339 0.063228 -0.000770 2.000000
0.465339 0.043462 0.089317 2.000000
0.465339 -0.085920 0.008864 2.000000
0.465339 -0.036744 -0.024033 2.000000
0.465339 0.093361 0.027154 2.000000
0.465339 -0.005172 -0.004256 2.000000
0.465339 0.052138 0.036263 2.000000
0.465339 0.070001 0.014443 2.000000
0.465339 -0.065148 0.070919 2.000000
0.465339 0.088299 0.004333 2.000000
0.465339 -0.031305 0.064655 2.000000
0.465339 -0.004650 -0.024329 2.000000
0.465339 0.046020 -0.035022 2.000000
0.465339 0.026460 -0.081095 2.000000
0.465339 0.009632 -0.018186 2.000000
0.465339 0.032542 0.044292 2.000000
0.465339 -0.006943 0.087897 2.000000
0.465339 0.053188 0.012357 2.000000
0.465339 -0.063745 0.073745 2.000000
0.465339 0.039124 -0.025672 2.000000
0.465339 0.008837 0.004708 2.000000
0.465339 -0.050912 -0.058089 2.000000
0.465339 -0.069202 -0.005489 2.000000
0.465339 -0.060374 -0.011221 2.000000
0.465339 0.056896 0.023556 2.000000
0.465339 -0.028263 0.055916 2.000000
0.465339 -0.028031 -0.039998 2.000000
0.465339 -0.044800 0.060137 2.000000
0.465339 0.078813 0.030548 2.000000
0.465339 -0.017219 0.082353 2.000000
0.465339 0.001690 -0.068088 2.000000
0.465339 0.030882 0.047517 2.000000
0.465339 -0.008843 -0.065451 2.000000
0.465339 -0.005060 0.053862 2.000000
0.465339 0.048790 0.072460 2.000000
0.465339 -0.095673 0.014137 2.000000
0.465339 -0.064852 0.036487 2.000000
0.465339 -0.010218 -0.005411 2.000000
0.465339 -0.063106 0.042026 2.000000
0.465339 0.055220 -0.059322 2.000000
0.465339 0.019895 0.052091 2.000000
0.465339 -0.001878 -0.088001 2.000000
0.465339 -0.079137 0.013476 2.000000
0.465339 0.030831 0.011857 2.000000
0.465339 -0.096783 0.013324 2.000000
0.465339 0.001035 -0.099136 2.000000
0.465339 0.009601 -0.019615 2.000000
0.465339 -0.013372 0.051767 2.000000
0.465339 -0.046484 0.060561 2.000000
0.465339 0.066111 -0.070240 2.000000
0.465339 0.040026 -0.036180 2.000000
0.465339 0.049562 0.026132 2.000000
0.465339 0.070959 -0.021249 2.000000
0.465339 -0.007024 -0.010377 2.000000
0.465339 0.043157 0.074938 2.000000
0.465339 -0.021694 -0.014964 2.000000
0.465339 0.074326 0.032472 2.000000
0.465339 -0.012673 -0.050438 2.000000
0.465339 0.013797 -0.023466 2.000000
0.465339 0.040138 0.060169 2.000000
0.465339 -0.041445 0.090861 2.000000
0.465339 -0.072002 0.042628 2.000000
0.465339 0.064174 -0.044886 2.000000
0.465339 0.058913 0.026603 2.000000
0.465339 -0.069313 -0.054758 2.000000
0.465339 0.016551 -0.094103 2.000000
0.465339 0.044269 -0.088807 2.000000
0.465339 0.052046 0.006766 2.000000
0.465339 -0.000881 0.084801 2.000000
0.465339 -0.030618 0.085835 2.000000
0.465339 -0.041074 -0.043622 2.000000
0.465339 -0.028141 0.071452 2.000000
0.465339 -0.040171 -0.027845 2.000000
0.465339 0.053532 -0.011206 2.000000
0.465339 0.080110 -0.016788 2.000000
0.465339 0.030614 0.063724 2.000000
0.465339 -0.022531 -0.029652 2.000000
0.465339 0.020201 -0.044786 2.000000
0.465339 0.061905 -0.057309 2.000000
0.465339 -0.036927 0.025944 2.000000
0.465339 -0.040592 -0.082611 2.000000
0.465339 -0.030705 0.013450 2.000000
0.465339 -0.050909 0.022116 2.000000
0.465339 -0.019159 0.012717 2.000000
0.465339 0.040781 -0.042882 2.000000
0.465339 0.087832 0.047837 2.000000
0.465339 -0.026413 0.031006 2.000000
0.465339 -0.031994 0.042005 2.000000
0.465339 -0.036397 0.011312 2.000000
0.465339 0.062392 -0.024122 2.000000
0.465339 0.068510 0.064388 2.000000
0.465339 -0.016782 -0.047764 2.000000
0.465339 -0.035024 -0.087348 2.000000
0.465339 0.053736 0.078171 2.000000
0.465339 0.020542 -0.094541 2.000000
0.465339 -0.011813 0.029133 2.000000
0.465339 0.006748 -0.034858 2.000000
0.465339 0.087883 0.032207 2.000000
0.465339 -0.015793 0.022913 2.000000
0.465339 0.042888 0.026813 2.000000
0.465339 -0.094206 -0.000511 2.000000
0.465339 -0.039585 -0.015096 2.000000
0.465339 0.062231 -0.053879 2.000000
0.465339 -0.001848 0.017618 2.000000
0.465339 -0.003591 -0.059964 2.000000
0.465339 0.003096 0.003746 2.000000
0.465339 -0.050831 0.036259 2.000000
0.465339 0.059539 -0.027045 2.000000
0.465339 0.082582 -0.046607 2.000000
0.465339 0.084086 0.000294 2.000000
0.465339 -0.056745 0.019199 2.000000
0.465339 0.063358 0.002272 2.000000
0.465339 -0.074473 0.063512 2.000000
0.465339 -0.053310 -0.000642 2.000000
0.465339 -0.000402 -0.048561 2.000000
0.465339 -0.024245 -0.093704 2.000000
0.465339 0.061577 -0.052255 2.000000
0.465339 -0.014535 0.020100 2.000000
0.465339 0.060359 0.065590 2.000000
0.465339 -0.047421 0.043051 2.000000
0.465339 0.054153 -0.054013 2.000000
0.465339 0.021838 0.020871 2.000000
0.465339 0.003098 -0.030912 2.000000
0.465339 0.039073 -0.081718 2.000000
0.465339 -0.011315 -0.087061 2.000000
0.465339 -0.071936 0.017266 2.000000
0.465339 0.071804 0.063114 2.000000
0.465339 0.030217 -0.050912 2.000000
0.465339 -0.067839 0.033400 2.000000
0.465339 0.052394 -0.064244 2.000000
0.465339 -0.067301 -0.041214 2.000000
0.465339 -0.069737 0.068130 2.000000
0.465339 -0.045099 0.004424 2.000000
0.465339 0.046163 -0.080862 2.000000
0.465339 -0.001187 -0.022458 2.000000
0.465339 -0.072789 0.036532 2.000000
0.465339 -0.029769 0.065223 2.000000
0.465339 0.009993 0.016014 2.000000
0.465339 0.049629 -0.057779 2.000000
0.465339 0.040941 0.046183 2.000000
0.465339 0.096406 -0.000856 2.000000
0.465339 -0.034413 0.010064 2.000000
0.465339 -0.014813 0.073750 2.000000
0.465339 -0.027496 0.063457 2.000000
0.465339 0.071782 0.018124 2.000000
0.465339 0.005039 0.013728 2.000000
0.465339 0.052079 -0.012372 2.000000
0.465339 -0.036538 0.074110 2.000000
0.465339 -0.048628 0.000611 2.000000
0.465339 0.044149 -0.065544 2.000000
0.465339 0.019655 -0.062342 2.000000
0.465339 0.011612 -0.022639 2.000000
0.465339 -0.034749 0.077574 2.000000
0.465339 0.076226 -0.029478 2.000000
0.465339 0.051788 0.044362 2.000000
0.465339 -0.072529 -0.032896 2.000000
0.465339 -0.037766 0.042529 2.000000
0.465339 -0.034156 0.043975 2.000000
0.465339 0.068094 -0.030493 2.000000
0.465339 0.080789 -0.010290 2.000000
0.465339 0.023031 -0.034342 2.000000
0.465339 -0.082537 -0.049882 2.000000
0.465339 0.032483 0.017743 2.000000
0.465339 -0.025681 -0.031476 2.000000
0.465339 0.021917 -0.091824 2.000000
0.465339 -0.056804 -0.004114 2.000000
0.465339 0.006658 0.017800 2.000000
0.465339 -0.061909 0.062267 2.000000
0.465339 -0.068842 -0.002528 2.000000
0.465339 0.052151 0.020929 2.000000
0.465339 -0.041273 0.061733 2.000000
0.465339 -0.006855 0.091674 2.000000
0.465339 0.016779 0.090308 2.000000
0.465339 0.044705 -0.059631 2.000000
0.465339 0.033545 -0.031857 2.000000
0.465339 -0.092921 0.034479 2.000000
0.465339 -0.003477 -0.076695 2.000000
0.465339 0.015969 0.098400 2.000000
0.465339 0.051707 -0.008469 2.000000
0.465339 -0.042868 -0.028112 2.000000
0.465339 -0.074554 0.036267 2.000000
0.465339 -0.034940 0.024135 2.000000
0.465339 0.021422 0.082477 2.000000
0.465339 0.047599 0.079654 2.000000
0.465339 0.024901 0.032891 2.000000
0.465339 -0.016176 -0.004883 2.000000
0.465339 0.083483 0.024812 2.000000
0.465339 -0.043936 0.033713 2.000000
0.465339 -0.075509 0.008658 2.000000
0.465339 -0.024489 0.040635 2.000000
0.465339 -0.025959 -0.009236 2.000000
0.465339 0.098019 0.010142 2.000000
0.465339 0.052275 0.034730 2.000000
0.465339 -0.010411 0.042114 2.000000
0.465339 0.006557 0.054100 2.000000
0.465339 0.044295 0.029789 2.000000
0.465339 0.088051 -0.004276 2.000000
0.465339 -0.030333 0.041452 2.000000
0.465339 -0.036007 0.060069 2.000000
0.465339 -0.013268 -0.056598 2.000000
0.465339 -0.014588 -0.066599 2.000000
0.465339 0.069509 0.018048 2.000000
0.465339 -0.072295 -0.065618 2.000000
0.465339 0.057373 -0.002986 2.000000
0.465339 0.009790 0.046485 2.000000
0.465339 0.063947 0.009107 2.000000
0.465339 0.040205 -0.021209 2.000000
0.465339 -0.053768 -0.065791 2.000000
0.465339 -0.000613 -0.060814 2.000000
0.465339 0.051120 0.016014 2.000000
0.465339 -0.022846 0.013903 2.000000
0.465339 0.025550 0.055436 2.000000
0.465339 -0.064868 0.057857 2.000000
0.465339 0.005682 0.034285 2.000000
0.465339 0.009598 0.021611 2.000000
0.465339 -0.087494 -0.022074 2.000000
0.465339 -0.047452 0.010133 2.000000
0.465339 -0.011873 -0.013286 2.000000
0.465339 0.031623 0.022015 2.000000
0.465339 0.073330 0.058590 2.000000
0.465339 0.013314 0.098942 2.000000
0.465339 0.067256 0.056261 2.000000
0.465339 0.027725 -0.040648 2.000000
0.465339 -0.023455 -0.054995 2.000000
0.465339 -0.003025 0.024512 2.000000
0.465339 0.068945 0.062779 2.000000
0.465339 0.006568 -0.028169 2.000000
0.465339 -0.030195 0.083913 2.000000
0.465339 -0.014725 0.012127 2.000000
0.465339 -0.005639 0.004221 2.000000
0.465339 -0.037889 -0.083484 2.000000
0.465339 -0.020020 0.032046 2.000000
0.465339 0.039277 0.075174 2.000000
0.465339 -0.007874 0.006415 2.000000
0.465339 0.057817 0.046122 2.000000
0.465339 -0.082357 -0.003575 2.000000
0.465339 0.077103 -0.056164 2.000000
0.465339 0.056701 -0.041634 2.000000
0.465339 0.053734 -0.014866 2.000000
0.465339 0.085197 0.006548 2.000000
0.465339 0.019627 0.088070 2.000000
0.465339 -0.019167 -0.088891 2.000000
0.465339 -0.010850 0.070283 2.000000
0.465339 0.034097 -0.086918 2.000000
0.465339 -0.089866 0.029600 2.000000
0.465339 0.021406 -0.080188 2.000000
0.465339 -0.071994 0.041294 2.000000
0.465339 -0.046399 0.054142 2.000000
0.465339 -0.028434 0.067227 2.000000
0.465339 -0.026011 -0.044329 2.000000
0.465339 0.039835 0.055118 2.000000
0.465339 -0.060188 0.046921 2.000000
0.465339 0.080846 -0.020467 2.000000
0.465339 -0.067329 0.015493 2.000000
0.465339 -0.014746 0.040385 2.000000
0.465339 0.000467 -0.015043 2.000000
0.465339 -0.066907 -0.062348 2.000000
0.465339 0.042382 0.090558 2.000000
0.465339 0.003495 -0.096192 2.000000
0.465339 0.097097 0.017795 2.000000
0.465339 0.062658 -0.060550 2.000000
0.465339 0.002581 0.037052 2.000000
0.465339 0.076004 0.005476 2.000000
0.465339 0.019927 -0.026162 2.000000
0.465339 -0.025114 -0.039240 2.000000
0.465339 -0.045156 -0.088743 2.000000
0.465339 0.011167 -0.078851 2.000000
0.465339 -0.054415 -0.074783 2.000000
0.465339 -0.065206 -0.008043 2.000000
0.465339 0.069273 0.072109 2.000000
0.465339 -0.052088 -0.084761 2.000000
0.465339 -0.036461 0.005353 2.000000
0.465339 -0.046433 -0.079423 2.000000
0.465339 0.025348 0.086430 2.000000
0.465339 -0.050183 -0.059982 2.000000
0.465339 0.072397 0.060000 2.000000
0.465339 0.068116 -0.015894 2.000000
0.465339 0.030727 -0.054883 2.000000
0.465339 0.025610 0.004079 2.000000
0.465339 0.051456 -0.081082 2.000000
0.465339 -0.015992 -0.067258 2.000000
0.465339 0.052329 0.068401 2.000000
0.465339 0.021180 -0.078844 2.000000
0.465339 0.073528 0.021044 2.000000
0.465339 0.077363 -0.026917 2.000000
0.465339 0.001788 0.097427 2.000000
0.465339 0.051827 0.002833 2.000000
0.465339 0.096012 0.014352 2.000000
0.465339 0.072732 -0.002672 2.000000
0.465339 -0.029954 -0.035551 2.000000
0.465339 0.095666 0.029123 2.000000
0.465339 0.011556 0.000837 2.000000
0.465339 -0.077109 -0.027622 2.000000
0.465339 0.082725 -0.030715 2.000000
0.465339 0.018776 0.002055 2.000000
0.465339 -0.017698 -0.096688 2.000000
0.465339 -0.067714 0.072872 2.000000
0.465339 0.055698 0.022247 2.000000
0.465339 -0.010935 -0.003586 2.000000
0.465339 -0.015391 -0.049416 2.000000
0.465339 -0.066279 -0.033451 2.000000
0.465339 0.068111 -0.025953 2.000000
0.465339 0.038891 0.015706 2.000000
0.465339 -0.019254 0.069370 2.000000
0.465339 0.086004 0.044317 2.000000
0.465339 -0.005191 0.085550 2.000000
0.465339 0.069136 -0.000207 2.000000
0.465339 -0.025927 -0.089633 2.000000
0.465339 0.085053 0.043033 2.000000
0.465339 -0.006312 -0.062696 2.000000
0.465339 0.003722 -0.082596 2.000000
0.465339 0.036025 -0.058750 2.000000
0.465339 -0.091403 0.000035 2.000000
0.465339 -0.070214 0.011402 2.000000
0.465339 0.004730 -0.014167 2.000000
0.465339 -0.064725 -0.000865 2.000000
0.465339 0.074342 -0.060759 2.000000
0.465339 -0.086218 0.017795 2.000000
0.465339 0.094096 0.014034 2.000000
0.465339 -0.045436 -0.032398 2.000000
0.465339 0.035373 -0.032806 2.000000
0.465339 -0.024775 0.037229 2.000000
0.465339 -0.047375 -0.075486 2.000000
0.465339 -0.037179 0.002627 2.000000
0.465339 -0.022640 0.025361 2.000000
0.465339 -0.005745 0.048215 2.000000
0.465339 -0.064210 -0.053875 2.000000
0.465339 0.073530 0.050145 2.000000
0.465339 -0.063982 0.013549 2.000000
0.465339 -0.038920 -0.071845 2.000000
0.465339 0.011785 0.074172 2.000000
0.465339 0.018906 0.086183 2.000000
0.465339 0.052409 -0.035117 2.000000
0.465339 0.043309 0.011583 2.000000
0.465339 0.020395 0.037432 2.000000
0.465339 -0.019021 -0.008100 2.000000
0.465339 -0.020836 0.052798 2.000000
0.465339 0.020677 -0.083154 2.000000
0.465339 -0.085458 -0.050854 2.000000
0.465339 0.012527 -0.009362 2.000000
0.465339 -0.023783 -0.073750 2.000000
0.465339 0.040268 -0.008885 2.000000
0.465339 0.093201 -0.014016 2.000000
0.465339 -0.019347 -0.071918 2.000000
0.465339 -0.071228 -0.011507 2.000000
0.465339 0.002287 0.082139 2.000000
0.465339 0.006034 -0.000376 2.000000
0.465339 -0.016629 0.067726 2.000000
0.465339 0.089090 0.019722 2.000000
0.465339 0.032622 0.082389 2.000000
0.465339 0.074091 0.006577 2.000000
0.465339 0.009712 0.081675 2.000000
0.465339 0.072088 0.012782 2.000000
0.465339 -0.052773 0.075560 2.000000
0.465339 -0.096724 -0.000999 2.000000
0.465339 -0.037059 0.019471 2.000000
0.465339 0.005616 -0.075803 2.000000
0.465339 0.079288 0.047448 2.000000
0.465339 -0.058838 0.046077 2.000000
0.465339 -0.068842 0.039394 2.000000
0.465339 0.059623 0.015018 2.000000
0.465339 -0.062902 0.066622 2.000000
0.465339 -0.045466 0.041314 2.000000
0.465339 0.051616 -0.018138 2.000000
0.465339 0.049835 -0.015278 2.000000
0.465339 -0.082662 0.055582 2.000000
0.465339 0.067139 -0.023271 2.000000
0.465339 -0.006371 -0.034660 2.000000
0.465339 0.035407 0.007353 2.000000
0.465339 -0.002772 -0.086524 2.000000
0.465339 -0.035954 -0.033500 2.000000
0.465339 0.081856 0.053760 2.000000
0.465339 0.035724 -0.086485 2.000000
0.465339 -0.026999 0.059862 2.000000
0.465339 -0.003958 -0.037278 2.000000
0.465339 0.009322 -0.001405 2.000000
0.465339 0.057049 -0.054264 2.000000
0.465339 0.052810 0.058082 2.000000
0.465339 -0.029379 -0.078865 2.000000
0.465339 0.046790 -0.054563 2.000000
0.465339 -0.067828 -0.038023 2.000000
0.465339 0.085459 -0.020381 2.000000
0.465339 0.033966 -0.042204 2.000000
0.465339 -0.026847 0.079102 2.000000
0.465339 -0.024298 0.067292 2.000000
0.465339 -0.033814 0.049629 2.000000
0.465339 0.042484 -0.025286 2.000000
0.465339 0.046192 0.023426 2.000000
0.465339 0.083258 -0.050703 2.000000
0.465339 0.015977 0.076349 2.000000
0.465339 0.070967 0.056704 2.000000
0.465339 0.063393 -0.063372 2.000000
0.465339 0.082571 0.009581 2.000000
0.465339 -0.070392 -0.064872 2.000000
0.465339 0.055073 0.060857 2.000000
0.465339 -0.019981 -0.082757 2.000000
0.465339 -0.009435 0.051937 2.000000
0.465339 0.011789 -0.015702 2.000000
0.465339 0.059552 -0.074876 2.000000
0.465339 -0.043808 -0.062855 2.000000
0.465339 0.016941 0.007250 2.000000
0.465339 -0.010355 -0.054062 2.000000
0.465339 0.063537 0.005940 2.000000
0.465339 0.032400 -0.009924 2.000000
0.465339 0.091369 -0.039625 2.000000
0.465339 0.062122 0.003059 2.000000
0.465339 0.001666 -0.035585 2.000000
0.465339 -0.018459 0.089059 2.000000
0.465339 -0.041554 -0.008009 2.000000
0.465339 0.083590 0.054133 2.000000
0.465339 -0.053293 0.026564 2.000000
0.465339 -0.008203 0.099256 2.000000
0.465339 0.022501 -0.088103 2.000000
0.465339 -0.017654 -0.004759 2.000000
0.465339 0.051646 0.030829 2.000000
0.465339 0.081572 0.006276 2.000000
0.465339 0.037854 0.025698 2.000000
0.465339 0.010628 -0.061679 2.000000
0.465339 -0.076040 -0.058241 2.000000
0.465339 -0.020361 0.057205 2.000000
0.465339 -0.055922 0.037027 2.000000
0.465339 0.010988 -0.008462 2.000000
0.465339 0.052522 0.026427 2.000000
0.465339 -0.034949 -0.056932 2.000000
0.465339 0.062444 -0.022395 2.000000
0.465339 0.044157 0.070250 2.000000
0.465339 -0.039444 -0.078961 2.000000
0.465339 0.060487 -0.055007 2.000000
0.465339 -0.099516 0.003260 2.000000
0.465339 0.073359 -0.022083 2.000000
0.465339 0.006159 -0.065307 2.000000
0.465339 0.066566 0.008073 2.000000
0.465339 0.041295 0.077333 2.000000
0.465339 -0.015654 -0.053782 2.000000
0.465339 0.009394 -0.071242 2.000000
0.465339 -0.033500 -0.046927 2.000000
0.465339 -0.024734 -0.064230 2.000000
0.465339 -0.069032 -0.000933 2.000000
0.465339 0.009857 -0.048380 2.000000
0.465339 -0.065694 -0.062904 2.000000
0.465339 0.063587 -0.035175 2.000000
0.465339 0.036144 -0.090601 2.000000
0.465339 -0.021868 -0.019244 2.000000
0.465339 -0.034994 0.008463 2.000000
0.465339 0.073498 -0.040305 2.000000
0.465339 -0.027276 0.029647 2.000000
0.465339 -0.008468 0.069464 2.000000
0.465339 -0.038602 0.058169 2.000000
0.465339 -0.081341 -0.034100 2.000000
0.465339 0.064275 -0.033817 2.000000
0.465339 -0.051867 0.023952 2.000000
0.465339 -0.038061 0.085363 2.000000
0.465339 0.041671 0.010968 2.000000
0.465339 0.057217 -0.046242 2.000000
0.465339 0.039959 -0.023442 2.000000
0.465339 -0.018811 -0.066293 2.000000
0.465339 -0.016028 0.081359 2.000000
0.465339 -0.038291 -0.069876 2.000000
0.465339 0.042359 0.064251 2.000000
0.465339 -0.057511 -0.027701 2.000000
0.465339 -0.028061 0.036470 2.000000
0.465339 0.013483 -0.026849 2.000000
0.465339 -0.019438 -0.095928 2.000000
0.465339 -0.011496 0.081045 2.000000
0.465339 -0.053097 -0.045347 2.000000
0.465339 0.029228 0.003844 2.000000
0.465339 -0.008180 0.052525 2.000000
0.465339 0.006261 -0.030339 2.000000
0.465339 -0.001678 -0.065269 2.000000
0.465339 0.024336 0.068578 2.000000
0.465339 0.077830 -0.007229 2.000000
0.465339 -0.034284 0.069229 2.000000
0.465339 0.025204 -0.051805 2.000000
0.465339 0.069270 -0.023131 2.000000
0.465339 0.010472 -0.005741 2.000000
0.465339 0.017642 0.054485 2.000000
0.465339 -0.030236 -0.086655 2.000000
0.465339 -0.012292 -0.097010 2.000000
0.465339 -0.037143 -0.064840 2.000000
0.465339 0.073336 -0.038540 2.000000
0.465339 0.090691 0.002140 2.000000
0.465339 0.015708 -0.034662 2.000000
0.465339 0.067529 -0.043537 2.000000
0.465339 0.061871 -0.012961 2.000000
0.465339 0.016912 0.042163 2.000000
0.465339 0.045560 0.084226 2.000000
0.465339 0.002396 -0.002493 2.000000
0.465339 -0.033603 0.022964 2.000000
0.465339 0.047131 0.087835 2.000000
0.465339 0.010638 -0.059994 2.000000
0.465339 0.064465 0.000410 2.000000
0.465339 0.045704 0.056173 2.000000
0.465339 -0.006648 0.061626 2.000000
0.465339 0.054366 0.062437 2.000000
0.465339 0.068267 0.040632 2.000000
0.465339 0.075887 -0.012376 2.000000
0.465339 0.085771 0.004891 2.000000
0.465339 -0.015128 0.031422 2.000000
0.465339 0.050467 0.020537 2.000000
0.465339 -0.077504 -0.039792 2.000000
0.465339 0.030969 -0.045698 2.000000
0.465339 0.021823 0.022899 2.000000
0.465339 0.068905 -0.006901 2.000000
0.465339 0.045368 -0.038990 2.000000
0.465339 0.062894 -0.009991 2.000000
0.465339 -0.076205 0.035147 2.000000
0.465339 -0.062945 -0.008953 2.000000
0.465339 0.041978 -0.083481 2.000000
0.465339 -0.068522 0.064876 2.000000
0.465339 -0.032965 0.009719 2.000000
0.465339 -0.063069 -0.069775 2.000000
0.465339 -0.010937 -0.001996 2.000000
0.465339 0.039203 0.029121 2.000000
0.465339 -0.093368 -0.021041 2.000000
0.465339 -0.066353 -0.026813 2.000000
0.465339 -0.089392 0.037193 2.000000
0.465339 0.087959 0.018834 2.000000
0.465339 -0.045856 -0.041599 2.000000
0.465339 -0.052716 0.030338 2.000000
0.465339 0.071083 -0.006795 2.000000
0.465339 -0.053040 -0.035424 2.000000
0.465339 -0.012938 0.040504 2.000000
0.465339 0.063162 -0.052771 2.000000
0.465339 0.045668 0.071257 2.000000
0.465339 0.022499 0.007994 2.000000
0.465339 -0.024094 0.046339 2.000000
0.465339 0.018692 -0.044781 2.000000
0.465339 -0.050467 -0.061463 2.000000
0.465339 -0.019155 -0.027734 2.000000
0.465339 0.042144 0.084128 2.000000
0.465339 0.019824 0.056483 2.000000
0.465339 -0.015001 0.060151 2.000000
0.465339 0.058122 -0.063888 2.000000
0.465339 -0.093099 -0.011061 2.000000
0.465339 0.030389 -0.021771 2.000000
0.465339 0.023974 -0.007709 2.000000
0.465339 -0.038796 0.002697 2.000000
0.465339 0.063620 0.044668 2.000000
0.465339 0.090460 0.029620 2.000000
0.465339 0.044909 -0.002286 2.000000
0.465339 -0.039993 0.014634 2.000000
0.465339 -0.090187 0.031080 2.000000
0.465339 0.030848 -0.081980 2.000000
0.465339 0.026895 -0.064230 2.000000
0.465339 0.027547 -0.087366 2.000000
0.465339 -0.031473 -0.017986 2.000000
0.465339 -0.039067 0.050420 2.000000
0.465339 -0.011294 0.037034 2.000000
0.465339 -0.044695 0.028511 2.000000
0.465339 -0.039603 -0.040060 2.000000
0.465339 0.018516 -0.085821 2.000000
0.465339 -0.057461 -0.033883 2.000000
0.465339 0.004502 -0.012676 2.000000
0.465339 0.038805 -0.086095 2.000000
0.465339 0.009324 0.070149 2.000000
0.465339 -0.012845 0.073289 2.000000
0.465339 -0.071156 -0.055711 2.000000
0.465339 0.035534 -0.035783 2.000000
0.465339 0.007015 0.020761 2.000000
0.465339 0.009550 -0.004037 2.000000
0.465339 0.028422 0.095529 2.000000
0.465339 0.028827 -0.067958 2.000000
0.465339 -0.066437 0.047572 2.000000
0.465339 0.007573 0.048555 2.000000
0.465339 -0.083970 -0.049614 2.000000
0.465339 0.061539 0.019257 2.000000
0.465339 -0.050255 0.041305 2.000000
0.465339 0.022913 -0.025496 2.000000
0.465339 -0.050080 -0.083474 2.000000
0.465339 0.031406 -0.091935 2.000000
0.465339 0.004093 -0.098246 2.000000
0.465339 -0.068366 -0.062052 2.000000
0.465339 0.006767 0.076886 2.000000
0.465339 0.001042 0.031205 2.000000
0.465339 0.070276 0.030393 2.000000
0.465339 0.070516 0.037750 2.000000
0.465339 0.054184 0.073759 2.000000
0.465339 -0.061988 -0.056666 2.000000
0.465339 -0.043077 -0.078894 2.000000
0.465339 0.085951 -0.010568 2.000000
0.465339 0.049399 0.005793 2.000000
0.465339 0.048156 -0.048620 2.000000
0.465339 -0.050392 -0.003832 2.000000
0.465339 -0.008878 0.015073 2.000000
0.465339 -0.000435 0.030781 2.000000
0.465339 0.012258 -0.037318 2.000000
0.465339 -0.072144 0.014519 2.000000
0.465339 0.064516 0.070278 2.000000
0.465339 -0.051845 -0.046222 2.000000
0.465339 -0.086831 -0.048092 2.000000
0.465339 -0.002343 -0.006300 2.000000
0.465339 0.085073 0.035541 2.000000
0.465339 0.039927 0.010593 2.000000
0.465339 -0.057903 -0.044615 2.000000
0.465339 0.055963 -0.047683 2.000000
0.465339 -0.059192 -0.006194 2.000000
0.465339 0.020748 -0.090378 2.000000
0.465339 -0.031076 -0.082973 2.000000
0.465339 0.021783 0.067613 2.000000
0.465339 0.082863 0.042015 2.000000
0.465339 -0.080338 0.010477 2.000000
0.465339 0.048912 -0.059258 2.000000
0.465339 0.048225 -0.039974 2.000000
0.465339 -0.009851 0.028994 2.000000
0.465339 -0.005107 -0.031731 2.000000
0.465339 -0.084166 -0.021984 2.000000
0.465339 -0.093107 -0.024170 2.000000
0.465339 -0.072863 -0.060620 2.000000
0.465339 0.065533 -0.074863 2.000000
0.465339 -0.004364 -0.012060 2.000000
0.465339 0.062603 0.063817 2.000000
0.465339 0.078909 -0.041809 2.000000
0.465339 -0.053995 -0.056289 2.000000
0.465339 -0.037120 0.027761 2.000000
0.465339 0.075567 0.061755 2.000000
0.465339 -0.010468 -0.091955 2.000000
0.465339 0.085900 -0.041724 2.000000
0.465339 -0.026654 -0.042733 2.000000
0.465339 -0.015922 -0.017966 2.000000
0.465339 -0.037427 -0.033167 2.000000
0.465339 0.017044 0.058161 2.000000
0.465339 0.005097 -0.015927 2.000000
0.465339 0.040819 0.091332 2.000000
0.465339 -0.052690 0.059550 2.000000
0.465339 0.009589 0.092424 2.000000
0.465339 -0.000171 -0.090974 2.000000
0.465339 0.003583 0.071428 2.000000
0.465339 0.022429 0.054352 2.000000
0.465339 -0.029471 -0.037674 2.000000
0.465339 -0.028824 -0.030156 2.000000
0.465339 -0.091978 -0.017037 2.000000
0.465339 0.029334 0.015564 2.000000
0.465339 -0.048573 -0.084779 2.000000
0.465339 0.080133 0.033901 2.000000
0.465339 0.046223 -0.087802 2.000000
0.465339 0.022167 -0.074432 2.000000
0.465339 -0.013677 -0.003453 2.000000
0.465339 0.048275 0.069105 2.000000
0.465339 -0.085038 -0.047123 2.000000
0.465339 0.051191 -0.063018 2.000000
0.465339 0.016776 -0.080757 2.000000
0.465339 -0.003723 0.078461 2.000000
0.465339 0.089621 -0.011398 2.000000
0.465339 0.054678 -0.000199 2.000000
0.465339 -0.015395 0.053142 2.000000
0.465339 0.021198 -0.033130 2.000000
0.465339 0.057885 0.020786 2.000000
0.465339 -0.049666 -0.013074 2.000000
0.465339 0.005710 -0.099354 2.000000
0.465339 -0.027894 -0.050276 2.000000
0.465339 0.034750 -0.047135 2.000000
0.465339 -0.039965 -0.001933 2.000000
0.465339 0.009920 0.037677 2.000000
0.465339 -0.075622 0.045240 2.000000
0.465339 0.068201 0.024793 2.000000
0.465339 0.086655 0.045849 2.000000
0.465339 0.083619 -0.039420 2.000000
0.465339 -0.062365 -0.053422 2.000000
0.465339 -0.085047 -0.040446 2.000000
0.465339 0.080011 -0.046109 2.000000
0.465339 -0.079237 0.024411 2.000000
0.465339 -0.021213 0.061941 2.000000
0.465339 -0.014916 0.041913 2.000000
0.465339 -0.052229 -0.017430 2.000000
0.465339 -0.001074 0.062576 2.000000
0.465339 -0.005555 0.040094 2.000000
0.465339 0.087181 0.022545 2.000000
0.465339 0.053312 0.040443 2.000000
0.465339 0.007186 -0.024421 2.000000
0.465339 -0.045203 -0.067720 2.000000
0.465339 0.000769 -0.042539 2.000000
0.465339 -0.013338 0.059521 2.000000
0.465339 -0.030094 0.024432 2.000000
0.465339 -0.060912 0.066780 2.000000
0.465339 0.017064 -0.085831 2.000000
0.465339 0.047517 0.085695 2.000000
0.465339 0.087842 0.007831 2.000000
0.465339 0.026548 -0.055411 2.000000
0.465339 0.046619 0.007867 2.000000
0.465339 0.067364 0.000612 2.000000
0.465339 0.030944 0.057176 2.000000
0.465339 -0.017839 0.085302 2.000000
0.465339 0.036657 -0.083759 2.000000
0.465339 0.026882 0.052767 2.000000
0.465339 -0.028523 0.030662 2.000000
0.465339 0.027318 0.033675 2.000000
0.465339 -0.005089 0.018427 2.000000
0.465339 -0.006943 0.005177 2.000000
0.465339 0.071395 -0.003653 2.000000
0.465339 0.051538 -0.013671 2.000000
0.465339 -0.005440 -0.075998 2.000000
0.465339 -0.024644 -0.091847 2.000000
0.465339 0.034161 0.063706 2.000000
0.465339 -0.072799 -0.034541 2.000000
0.465339 0.055437 -0.069199 2.000000
0.465339 -0.001669 -0.059917 2.000000
0.465339 -0.067142 -0.028177 2.000000
0.465339 0.055378 -0.017646 2.000000
0.465339 -0.082553 0.039549 2.000000
0.465339 -0.026460 -0.006031 2.000000
0.465339 0.028713 0.043343 2.000000
0.465339 -0.025823 0.066119 2.000000
0.465339 -0.098063 -0.004705 2.000000
0.465339 -0.068427 -0.036685 2.000000
0.465339 -0.061724 -0.062552 2.000000
0.465339 0.020649 -0.039021 2.000000
0.465339 -0.027307 -0.075868 2.000000
0.465339 0.061579 0.050760 2.000000
0.465339 -0.010320 0.005827 2.000000
0.465339 0.005551 0.052718 2.000000
0.465339 0.031642 -0.015009 2.000000
