-0.466955 0.042066 -0.085485 3.000000
-0.466955 0.031468 -0.076085 3.000000
-0.466955 0.069572 0.008570 3.000000
-0.466955 0.010157 0.074860 3.000000
-0.466955 0.047945 -0.016263 3.000000
-0.466955 0.004422 0.015991 3.000000
-0.466955 -0.031488 0.034406 3.000000
-0.466955 0.057942 0.039946 3.000000
-0.466955 0.089800 -0.032258 3.000000
-0.466955 -0.022514 -0.088998 3.000000
-0.466955 0.042301 -0.032555 3.000000
-0.466955 0.005416 0.026546 3.000000
-0.466955 0.098043 0.013787 3.000000
-0.466955 0.083198 -0.055007 3.000000
-0.466955 -0.066673 0.064010 3.000000
-0.466955 -0.055355 0.001325 3.000000
-0.466955 0.049713 0.052494 3.000000
-0.466955 -0.056818 -0.027289 3.000000
-0.466955 0.044355 0.073336 3.000000
-0.466955 -0.024116 0.071789 3.000000
-0.466955 -0.078136 0.058943 3.000000
-0.466955 0.007839 0.066355 3.000000
-0.466955 0.001095 0.054496 3.000000
-0.466955 0.016206 -0.087412 3.000000
-0.466955 -0.035351 -0.035725 3.000000
-0.466955 0.097674 0.005669 3.000000
-0.466955 -0.013436 -0.046002 3.000000
-0.466955 0.071902 0.054612 3.000000
-0.466955 -0.032277 0.078071 3.000000
-0.466955 0.076361 0.009208 3.000000
-0.466955 0.020649 0.074095 3.000000
-0.466955 0.056362 -0.042947 3.000000
-0.466955 0.049025 -0.080601 3.000000
-0.466955 0.044991 0.056332 3.000000
-0.466955 -0.019656 0.017594 3.000000
-0.466955 0.015400 0.067147 3.000000
-0.466955 0.007625 0.081123 3.000000
-0.466955 -0.031844 0.076204 3.000000
-0.466955 0.035308 -0.057133 3.000000
-0.466955 -0.024405 -0.076096 3.000000
-0.466955 0.010979 -0.023676 3.000000
-0.466955 0.012806 0.036888 3.000000
-0.466955 -0.027203 0.079233 3.000000
-0.466955 -0.034596 -0.045443 3.000000
-0.466955 0.016196 -0.077652 3.000000
-0.466955 -0.080754 0.040666 3.000000
-0.466955 0.062238 -0.034260 3.000000
-0.466955 0.012902 0.008702 3.000000
-0.466955 -0.047267 0.051749 3.000000
-0.466955 0.017058 -0.036956 3.000000
-0.466955 -0.034545 -0.067486 3.000000
-0.466955 0.040774 -0.072829 3.000000
-0.466955 -0.097570 0.011271 3.000000
-0.466955 -0.070944 0.044064 3.000000
-0.466955 0.031755 -0.055514 3.000000
-0.466955 -0.037379 0.089096 3.000000
-0.466955 -0.013691 0.027026 3.000000
-0.466955 -0.020293 -0.044388 3.000000
-0.466955 0.010628 -0.076378 3.000000
-0.466955 -0.018595 0.092438 3.000000
-0.466955 0.021166 -0.083780 3.000000
-0.466955 -0.064866 -0.030741 3.000000
-0.466955 -0.054757 0.080931 3.000000
-0.466955 -0.079515 -0.034821 3.000000
-0.466955 0.032374 -0.071383 3.000000
-0.466955 -0.049631 0.062412 3.000000
-0.466955 0.025658 -0.094270 3.000000
-0.466955 0.085619 0.031512 3.000000
-0.466955 -0.085456 -0.027715 3.000000
-0.466955 0.029156 0.031515 3.000000
-0.466955 -0.057641 -0.012485 3.000000
-0.466955 -0.080638 0.027718 3.000000
-0.466955 0.029560 -0.047002 3.000000
-0.466955 0.060725 -0.026003 3.000000
-0.466955 0.074641 0.056751 3.000000
-0.466955 -0.007566 -0.011393 3.000000
-0.466955 -0.012474 -0.009692 3.000000
-0.466955 -0.093127 -0.034100 3.000000
-0.466955 -0.058376 -0.016877 3.000000
-0.466955 -0.018463 0.066302 3.000000
-0.466955 -0.004813 -0.064284 3.000000
-0.466955 -0.013771 0.069761 3.000000
-0.466955 0.005478 -0.042193 3.000000
-0.466955 0.014623 -0.053024 3.000000
-0.466955 0.038718 0.090087 3.000000
-0.466955 0.024067 0.079611 3.000000
-0.466955 -0.005148 -0.092875 3.000000
-0.466955 0.049730 0.046115 3.000000
-0.466955 0.053989 -0.032450 3.000000
-0.466955 -0.005391 -0.030541 3.000000
-0.466955 -0.023924 -0.006085 3.000000
-0.466955 0.050613 -0.044831 3.000000
-0.466955 0.019969 -0.052117 3.000000
-0.466955 0.022670 -0.069244 3.000000
-0.466955 -0.010307 0.049201 3.000000
-0.466955 0.013288 0.054076 3.000000
-0.466955 0.011511 0.072671 3.000000
-0.466955 0.009327 0.006275 3.000000
-0.466955 -0.061357 0.007891 3.000000
-0.466955 0.018552 0.006553 3.000000
-0.466955 0.068831 -0.061701 3.000000
-0.466955 -0.078506 -0.023392 3.000000
-0.466955 -0.012345 0.013204 3.000000
-0.466955 0.064452 0.007486 3.000000
-0.466955 0.023808 -0.092984 3.000000
-0.466955 0.037511 0.061674 3.000000
-0.466955 0.058736 -0.036718 3.000000
-0.466955 -0.033135 -0.088084 3.000000
-0.466955 -0.068246 0.006165 3.000000
-0.466955 0.025548 0.031754 3.000000
-0.466955 -0.008538 -0.033911 3.000000
-0.466955 -0.026237 -0.066213 3.000000
-0.466955 -0.019100 0.053697 3.000000
-0.466955 -0.006271 -0.048578 3.000000
-0.466955 -0.002324 0.085229 3.000000
-0.466955 0.091903 0.028627 3.000000
-0.466955 0.015796 -0.054204 3.000000
-0.466955 0.088412 -0.042066 3.000000
-0.466955 -0.062942 0.046977 3.000000
-0.466955 -0.019626 0.012251 3.000000
-0.466955 -0.014945 -0.019687 3.000000
-0.466955 -0.029970 -0.077114 3.000000
-0.466955 -0.060941 -0.036824 3.000000
-0.466955 0.075215 -0.027524 3.000000
-0.466955 -0.053039 -0.027668 3.000000
-0.466955 0.018335 0.061271 3.000000
-0.466955 -0.002452 0.095489 3.000000
-0.466955 -0.062190 -0.016585 3.000000
-0.466955 -0.013879 0.074640 3.000000
-0.466955 -0.047204 -0.081470 3.000000
-0.466955 0.071798 -0.021375 3.000000
-0.466955 -0.001789 -0.077661 3.000000
-0.466955 -0.035644 -0.004829 3.000000
-0.466955 0.084387 -0.046171 3.000000
-0.466955 -0.017431 -0.037181 3.000000
-0.466955 -0.062084 -0.070299 3.000000
-0.466955 0.080906 -0.040495 3.000000
-0.466955 -0.001789 -0.001052 3.000000
-0.466955 -0.064741 -0.032366 3.000000
-0.466955 0.021034 0.026451 3.000000
-0.466955 0.031356 0.030624 3.000000
-0.466955 0.037473 0.042523 3.000000
-0.466955 -0.052555 -0.056875 3.000000
-0.466955 0.038654 -0.044163 3.000000
-0.466955 0.048058 0.087800 3.000000
-0.466955 0.047995 -0.050579 3.000000
-0.466955 -0.079068 0.019290 3.000000
-0.466955 -0.018569 -0.045632 3.000000
-0.466955 -0.018666 0.021115 3.000000
-0.466955 0.018904 -0.091190 3.000000
-0.466955 0.020114 0.066365 3.000000
-0.466955 -0.032606 -0.027167 3.000000
-0.466955 0.023646 0.093139 3.000000
-0.466955 -0.041568 -0.000810 3.000000
-0.466955 0.007365 0.015722 3.000000
-0.466955 0.057108 0.038316 3.000000
-0.466955 0.076160 -0.035599 3.000000
-0.466955 0.021098 -0.010248 3.000000
-0.466955 0.055096 -0.002991 3.000000
-0.466955 -0.038570 -0.053948 3.000000
-0.466955 -0.073569 -0.059887 3.000000
-0.466955 0.030450 -0.081929 3.000000
-0.466955 -0.022599 0.043842 3.000000
-0.466955 -0.064256 -0.035027 3.000000
-0.466955 0.051492 0.076646 3.000000
-0.466955 -0.089293 0.044101 3.000000
-0.466955 0.091988 0.013500 3.000000
-0.466955 0.067772 -0.000472 3.000000
-0.466955 0.022786 -0.079487 3.000000
-0.466955 0.006014 -0.004466 3.000000
-0.466955 0.012463 0.015232 3.000000
-0.466955 0.038729 -0.003445 3.000000
-0.466955 0.082552 -0.015856 3.000000
-0.466955 0.051744 -0.040274 3.000000
-0.466955 0.074212 0.027121 3.000000
-0.466955 0.022500 -0.033527 3.000000
-0.466955 -0.031702 0.030960 3.000000
-0.466955 -0.089746 -0.015350 3.000000
-0.466955 0.020841 0.011197 3.000000
-0.466955 -0.020671 0.036833 3.000000
-0.466955 -0.029782 -0.002870 3.000000
-0.466955 0.051549 -0.019341 3.000000
-0.466955 -0.093033 0.000515 3.000000
-0.466955 0.013903 0.035355 3.000000
-0.466955 -0.070501 0.037324 3.000000
-0.466955 0.052634 -0.071370 3.000000
-0.466955 0.022061 -0.017711 3.000000
-0.466955 -0.043767 0.037976 3.000000
-0.466955 -0.073936 -0.032049 3.000000
-0.466955 0.090561 -0.040509 3.000000
-0.466955 0.078877 0.023876 3.000000
-0.466955 -0.082964 -0.009700 3.000000
-0.466955 0.020757 0.001041 3.000000
-0.466955 0.045202 0.074464 3.000000
-0.466955 -0.083298 -0.020999 3.000000
-0.466955 0.051818 -0.014074 3.000000
-0.466955 0.016885 -0.096246 3.000000
-0.466955 0.035621 -0.013080 3.000000
-0.466955 0.040975 -0.018715 3.000000
-0.466955 -0.037095 0.036302 3.000000
-0.466955 0.043570 -0.025325 3.000000
-0.466955 0.067139 0.013742 3.000000
-0.466955 -0.036856 0.003702 3.000000
-0.466955 0.003133 -0.070491 3.000000
-0.466955 -0.054406 -0.012577 3.000000
-0.466955 -0.069118 -0.011236 3.000000
-0.466955 0.000046 -0.013941 3.000000
-0.466955 0.012827 0.034306 3.000000
-0.466955 -0.035269 0.042663 3.000000
-0.466955 0.013964 -0.090926 3.000000
-0.466955 0.087635 -0.021476 3.000000
-0.466955 -0.005770 0.047078 3.000000
-0.466955 0.073910 -0.031291 3.000000
-0.466955 -0.050551 0.006693 3.000000
-0.466955 0.073715 -0.040717 3.000000
-0.466955 -0.021215 -0.090666 3.000000
-0.466955 -0.037995 0.086500 3.000000
-0.466955 0.063484 0.042985 3.000000
-0.466955 -0.080252 0.053207 3.000000
-0.466955 -0.017925 -0.002482 3.000000
-0.466955 0.030097 0.013775 3.000000
-0.466955 -0.011537 0.029296 3.000000
-0.466955 -0.071784 0.017873 3.000000
-0.466955 -0.006283 -0.047038 3.000000
-0.466955 -0.030666 0.055734 3.000000
-0.466955 0.032007 -0.011912 3.000000
-0.466955 0.037144 -0.091816 3.000000
-0.466955 -0.008549 -0.092387 3.000000
-0.466955 0.077916 0.036084 3.000000
-0.466955 0.002054 -0.035417 3.000000
-0.466955 -0.015728 0.018686 3.000000
-0.466955 -0.027212 0.038451 3.000000
-0.466955 -0.070620 0.009716 3.000000
-0.466955 0.006041 -0.018706 3.000000
-0.466955 0.019330 0.058782 3.000000
-0.466955 -0.088057 -0.011244 3.000000
-0.466955 -0.035598 -0.025765 3.000000
-0.466955 0.047550 0.052876 3.000000
-0.466955 0.019525 -0.012219 3.000000
-0.466955 0.006952 -0.032803 3.000000
-0.466955 -0.036544 0.005409 3.000000
-0.466955 0.080564 -0.032671 3.000000
-0.466955 0.006016 -0.028765 3.000000
-0.466955 -0.024806 0.077614 3.000000
-0.466955 0.039426 -0.036507 3.000000
-0.466955 -0.048775 0.075018 3.000000
-0.466955 0.091004 0.000832 3.000000
-0.466955 0.025831 -0.058267 3.000000
-0.466955 -0.059891 0.011534 3.000000
-0.466955 -0.013012 0.071051 3.000000
-0.466955 -0.045137 0.009737 3.000000
-0.466955 0.021588 -0.080468 3.000000
-0.466955 -0.057511 -0.056562 3.000000
-0.466955 -0.070333 -0.036920 3.000000
-0.466955 0.012272 0.096353 3.000000
-0.466955 -0.026442 -0.028935 3.000000
-0.466955 -0.061272 0.057093 3.000000
-0.466955 0.021910 0.031883 3.000000
-0.466955 0.071328 -0.040921 3.000000
-0.466955 0.036864 0.053972 3.000000
-0.466955 0.008437 0.064910 3.000000
-0.466955 -0.004514 -0.000512 3.000000
-0.466955 0.027517 0.060496 3.000000
-0.466955 -0.011694 -0.060582 3.000000
-0.466955 -0.034264 0.087448 3.000000
-0.466955 -0.058163 0.079395 3.000000
-0.466955 0.011769 -0.080715 3.000000
-0.466955 -0.088336 0.014847 3.000000
-0.466955 0.040661 -0.016187 3.000000
-0.466955 -0.049159 0.012898 3.000000
-0.466955 0.010565 -0.005879 3.000000
-0.466955 0.085569 -0.016313 3.000000
-0.466955 0.081287 0.018226 3.000000
-0.466955 0.028941 -0.074793 3.000000
-0.466955 0.012808 0.073704 3.000000
-0.466955 0.007165 -0.048094 3.000000
-0.466955 -0.060170 0.014728 3.000000
-0.466955 0.007258 -0.059278 3.000000
-0.466955 0.044499 0.038097 3.000000
-0.466955 0.013254 0.062554 3.000000
-0.466955 -0.046655 -0.016472 3.000000
-0.466955 0.013916 0.060054 3.000000
-0.466955 -0.018901 -0.015356 3.000000
-0.466955 -0.081620 0.026342 3.000000
-0.466955 -0.013746 -0.052994 3.000000
-0.466955 -0.019571 -0.032005 3.000000
-0.466955 -0.046068 -0.068264 3.000000
-0.466955 0.022711 0.033264 3.000000
-0.466955 -0.047922 0.086849 3.000000
-0.466955 -0.015348 -0.003624 3.000000
-0.466955 0.085160 -0.038208 3.000000
-0.466955 0.063327 -0.053981 3.000000
-0.466955 0.087988 0.009078 3.000000
-0.466955 -0.046668 0.054110 3.000000
-0.466955 -0.072230 0.009318 3.000000
-0.466955 0.026687 -0.057066 3.000000
-0.466955 -0.060166 0.001545 3.000000
-0.466955 -0.016190 -0.015773 3.000000
-0.466955 -0.064668 0.031668 3.000000
-0.466955 -0.004772 0.034950 3.000000
-0.466955 -0.001022 -0.060877 3.000000
-0.466955 0.037134 -0.079937 3.000000
-0.466955 -0.002458 0.029979 3.000000
-0.466955 -0.020229 0.051914 3.000000
-0.466955 0.019165 0.072950 3.000000
-0.466955 0.002339 0.003684 3.000000
-0.466955 0.019576 0.012070 3.000000
-0.466955 0.021527 0.028159 3.000000
-0.466955 0.063765 -0.034483 3.000000
-0.466955 -0.002423 -0.014994 3.000000
-0.466955 0.022953 0.091631 3.000000
-0.466955 -0.049352 0.046571 3.000000
-0.466955 -0.055004 0.040483 3.000000
-0.466955 0.067166 0.068825 3.000000
-0.466955 0.007964 -0.027309 3.000000
-0.466955 0.003402 -0.097356 3.000000
-0.466955 -0.000879 0.011135 3.000000
-0.466955 0.077637 0.060730 3.000000
-0.466955 -0.035446 -0.074332 3.000000
-0.466955 0.030115 -0.028091 3.000000
-0.466955 0.034187 0.072514 3.000000
-0.466955 0.087956 0.029593 3.000000
-0.466955 0.010523 0.053746 3.000000
-0.466955 0.028240 -0.026890 3.000000
-0.466955 0.078818 -0.021762 3.000000
-0.466955 0.070820 0.015064 3.000000
-0.466955 0.065720 -0.056223 3.000000
-0.466955 0.026900 -0.073447 3.000000
-0.466955 0.033495 0.053275 3.000000
-0.466955 0.040558 -0.029870 3.000000
-0.466955 -0.022134 -0.063205 3.000000
-0.466955 0.004587 -0.084614 3.000000
-0.466955 -0.064188 -0.064183 3.000000
-0.466955 -0.033637 0.024683 3.000000
-0.466955 -0.090028 0.028315 3.000000
-0.466955 0.026963 0.006292 3.000000
-0.466955 -0.057206 -0.010067 3.000000
-0.466955 0.091362 -0.014647 3.000000
-0.466955 0.012367 -0.086063 3.000000
-0.466955 -0.003288 0.092740 3.000000
-0.466955 0.066071 0.021921 3.000000
-0.466955 -0.081515 -0.052903 3.000000
-0.466955 0.056203 -0.055614 3.000000
-0.466955 0.070562 0.031925 3.000000
-0.466955 -0.007319 0.082679 3.000000
-0.466955 -0.068247 0.007668 3.000000
-0.466955 -0.043510 -0.051888 3.000000
-0.466955 0.078095 0.041730 3.000000
-0.466955 0.022414 0.017201 3.000000
-0.466955 0.040857 0.041373 3.000000
-0.466955 -0.020456 0.028396 3.000000
-0.466955 0.016580 0.078636 3.000000
-0.466955 0.043956 0.087310 3.000000
-0.466955 0.029173 -0.086252 3.000000
-0.466955 -0.050881 0.017754 3.000000
-0.466955 -0.032291 -0.040150 3.000000
-0.466955 -0.085474 0.004966 3.000000
-0.466955 -0.035297 0.044144 3.000000
-0.466955 -0.002335 0.018237 3.000000
-0.466955 -0.011448 -0.032216 3.000000
-0.466955 0.044608 -0.050815 3.000000
-0.466955 0.023209 -0.028385 3.000000
-0.466955 -0.025967 -0.020284 3.000000
-0.466955 0.008311 0.047609 3.000000
-0.466955 0.069356 -0.026643 3.000000
-0.466955 0.068746 -0.017464 3.000000
-0.466955 -0.003308 0.068902 3.000000
-0.466955 -0.062150 0.051919 3.000000
-0.466955 0.022904 -0.009585 3.000000
-0.466955 -0.043876 -0.083077 3.000000
-0.466955 0.076876 0.003416 3.000000
-0.466955 -0.007853 -0.046839 3.000000
-0.466955 0.065945 0.012359 3.000000
-0.466955 -0.003171 0.072329 3.000000
-0.466955 -0.028107 0.069100 3.000000
-0.466955 -0.006942 0.075801 3.000000
-0.466955 -0.072093 -0.058616 3.000000
-0.466955 0.031545 -0.023287 3.000000
-0.466955 -0.007733 0.091650 3.000000
-0.466955 -0.020245 0.002930 3.000000
-0.466955 -0.005411 -0.077628 3.000000
-0.466955 0.080405 0.053846 3.000000
-0.466955 0.063033 0.056717 3.000000
-0.466955 -0.034810 -0.008548 3.000000
-0.466955 -0.012121 -0.007678 3.000000
-0.466955 0.015673 -0.052014 3.000000
-0.466955 -0.029522 0.035437 3.000000
-0.466955 0.067212 -0.015973 3.000000
-0.466955 -0.021881 0.028454 3.000000
-0.466955 -0.043255 -0.027631 3.000000
-0.466955 -0.052396 0.041512 3.000000
-0.466955 -0.025059 -0.004781 3.000000
-0.466955 -0.009576 -0.074817 3.000000
-0.466955 -0.082706 -0.002132 3.000000
-0.466955 -0.077962 -0.015784 3.000000
-0.466955 -0.072423 0.006387 3.000000
-0.466955 0.074001 0.046326 3.000000
-0.466955 -0.042100 -0.016857 3.000000
-0.466955 0.086569 0.042371 3.000000
-0.466955 -0.039062 0.034069 3.000000
-0.466955 0.044747 -0.015050 3.000000
-0.466955 0.034826 0.036332 3.000000
-0.466955 0.019923 0.084055 3.000000
-0.466955 0.015651 0.091646 3.000000
-0.466955 0.013122 0.013780 3.000000
-0.466955 -0.076206 0.042329 3.000000
-0.466955 0.075119 0.031196 3.000000
-0.466955 -0.017972 0.064815 3.000000
-0.466955 -0.006128 0.089220 3.000000
-0.466955 -0.083766 0.021479 3.000000
-0.466955 0.056494 0.055250 3.000000
-0.466955 -0.016010 -0.049163 3.000000
-0.466955 -0.000912 0.012606 3.000000
-0.466955 0.090561 0.005417 3.000000
-0.466955 -0.002855 0.052785 3.000000
-0.466955 -0.048688 -0.044231 3.000000
-0.466955 -0.048876 0.065399 3.000000
-0.466955 0.064192 0.060411 3.000000
-0.466955 0.028252 0.018838 3.000000
-0.466955 0.042216 -0.066471 3.000000
-0.466955 -0.046310 0.056453 3.000000
-0.466955 -0.057460 0.001346 3.000000
-0.466955 0.047377 0.055590 3.000000
-0.466955 0.027801 0.016422 3.000000
-0.466955 0.004178 -0.008989 3.000000
-0.466955 0.082906 0.033492 3.000000
-0.466955 -0.052187 -0.044051 3.000000
-0.466955 0.009371 0.023958 3.000000
-0.466955 0.006140 0.011276 3.000000
-0.466955 -0.089600 -0.021216 3.000000
-0.466955 0.080895 0.058784 3.000000
-0.466955 -0.065983 -0.000121 3.000000
-0.466955 -0.055654 0.006509 3.000000
-0.466955 0.035837 -0.062245 3.000000
-0.466955 0.068501 0.023470 3.000000
-0.466955 -0.041898 0.037753 3.000000
-0.466955 -0.084573 -0.043672 3.000000
-0.466955 -0.043597 0.089065 3.000000
-0.466955 -0.031640 -0.012562 3.000000
-0.466955 -0.021622 -0.002905 3.000000
-0.466955 -0.040776 0.063469 3.000000
-0.466955 -0.029352 0.057949 3.000000
-0.466955 0.002573 -0.091248 3.000000
-0.466955 -0.016113 -0.057814 3.000000
-0.466955 0.058239 -0.048678 3.000000
-0.466955 -0.048688 0.006762 3.000000
-0.466955 -0.066204 -0.040583 3.000000
-0.466955 0.066060 0.057084 3.000000
-0.466955 0.065243 -0.070768 3.000000
-0.466955 -0.001394 -0.072544 3.000000
-0.466955 0.067414 -0.043435 3.000000
-0.466955 -0.027969 -0.092047 3.000000
-0.466955 0.009360 0.041533 3.000000
-0.466955 0.051268 -0.012184 3.000000
-0.466955 0.032199 0.006136 3.000000
-0.466955 0.050526 0.075110 3.000000
-0.466955 -0.051877 -0.018847 3.000000
-0.466955 0.088610 -0.033123 3.000000
-0.466955 0.052161 -0.034624 3.000000
-0.466955 -0.028045 -0.016831 3.000000
-0.466955 -0.084949 -0.021450 3.000000
-0.466955 0.075647 -0.034125 3.000000
-0.466955 0.007427 -0.070038 3.000000
-0.466955 0.054241 0.065553 3.000000
-0.466955 0.033043 -0.023786 3.000000
-0.466955 -0.029038 -0.073819 3.000000
-0.466955 -0.001521 0.015688 3.000000
-0.466955 -0.071850 0.040112 3.000000
-0.466955 0.068936 -0.015167 3.000000
-0.466955 -0.052107 0.079788 3.000000
-0.466955 -0.095599 -0.027805 3.000000
-0.466955 0.068582 0.040323 3.000000
-0.466955 -0.064429 0.008994 3.000000
-0.466955 0.071744 0.027594 3.000000
-0.466955 0.077385 -0.039088 3.000000
-0.466955 -0.083587 0.022875 3.000000
-0.466955 -0.077040 -0.006108 3.000000
-0.466955 -0.015014 -0.055753 3.000000
-0.466955 -0.061727 0.061118 3.000000
-0.466955 0.041748 0.029081 3.000000
-0.466955 0.026596 0.017386 3.000000
-0.466955 -0.016507 0.065905 3.000000
-0.466955 0.004875 0.071924 3.000000
-0.466955 -0.042604 -0.025926 3.000000
-0.466955 0.043974 0.025436 3.000000
-0.466955 -0.036955 -0.042363 3.000000
-0.466955 -0.083845 0.017834 3.000000
-0.466955 0.044641 0.043324 3.000000
-0.466955 -0.076567 0.053775 3.000000
-0.466955 -0.038143 -0.018327 3.000000
-0.466955 -0.083966 0.014872 3.000000
-0.466955 0.018393 -0.015575 3.000000
-0.466955 0.046533 -0.030053 3.000000
-0.466955 0.030125 0.017944 3.000000
-0.466955 0.053660 -0.053247 3.000000
-0.466955 0.070218 0.037300 3.000000
-0.466955 0.054848 -0.038377 3.000000
-0.466955 -0.060487 0.025324 3.000000
-0.466955 0.074728 0.021651 3.000000
-0.466955 0.073520 -0.047087 3.000000
-0.466955 0.031237 0.080239 3.000000
-0.466955 -0.022332 -0.030360 3.000000
-0.466955 -0.036203 -0.063753 3.000000
-0.466955 0.041623 -0.012237 3.000000
-0.466955 0.026374 0.036261 3.000000
-0.466955 -0.070298 -0.007372 3.000000
-0.466955 -0.033117 -0.007435 3.000000
-0.466955 -0.020203 -0.071103 3.000000
-0.466955 0.086678 -0.044874 3.000000
-0.466955 -0.004173 0.046785 3.000000
-0.466955 -0.014624 -0.017648 3.000000
-0.466955 0.025014 -0.034341 3.000000
-0.466955 0.035007 -0.006980 3.000000
-0.466955 -0.050174 -0.051232 3.000000
-0.466955 0.044539 0.016983 3.000000
-0.466955 0.069014 -0.029933 3.000000
-0.466955 0.052892 0.084625 3.000000
-0.466955 0.057440 0.008847 3.000000
-0.466955 0.038737 -0.047891 3.000000
-0.466955 -0.007614 -0.089584 3.000000
-0.466955 0.050082 -0.035182 3.000000
-0.466955 0.075662 -0.051619 3.000000
-0.466955 -0.023792 -0.003721 3.000000
-0.466955 -0.025279 -0.032518 3.000000
-0.466955 0.051836 -0.043614 3.000000
-0.466955 -0.059510 -0.079795 3.000000
-0.466955 0.018201 -0.024772 3.000000
-0.466955 -0.034893 -0.019448 3.000000
-0.466955 0.039005 0.046671 3.000000
-0.466955 -0.025218 0.090045 3.000000
-0.466955 0.008569 -0.094081 3.000000
-0.466955 0.031726 0.061765 3.000000
-0.466955 -0.057289 0.057271 3.000000
-0.466955 -0.026736 -0.095712 3.000000
-0.466955 -0.002882 0.067212 3.000000
-0.466955 0.089489 0.036911 3.000000
-0.466955 -0.037885 0.021608 3.000000
-0.466955 -0.007082 -0.029078 3.000000
-0.466955 -0.082055 0.044700 3.000000
-0.466955 -0.006628 -0.012782 3.000000
-0.466955 0.023121 0.040350 3.000000
-0.466955 0.012429 0.069580 3.000000
-0.466955 -0.055366 0.082827 3.000000
-0.466955 -0.010726 -0.007067 3.000000
-0.466955 0.059962 0.037322 3.000000
-0.466955 -0.011176 0.044875 3.000000
-0.466955 0.076441 -0.063224 3.000000
-0.466955 -0.045832 0.004433 3.000000
-0.466955 -0.047869 -0.018056 3.000000
-0.466955 0.070205 0.023399 3.000000
-0.466955 -0.046401 0.029288 3.000000
-0.466955 0.045362 -0.056249 3.000000
-0.466955 -0.088754 -0.025066 3.000000
-0.466955 -0.063128 0.059501 3.000000
-0.466955 -0.013261 0.021613 3.000000
-0.466955 -0.075234 0.062991 3.000000
-0.466955 -0.034432 0.078868 3.000000
-0.466955 0.043096 -0.015103 3.000000
-0.466955 0.080868 -0.050744 3.000000
-0.466955 -0.036022 0.008524 3.000000
-0.466955 0.002470 -0.054917 3.000000
-0.466955 0.093407 0.019235 3.000000
-0.466955 -0.021332 -0.059017 3.000000
-0.466955 -0.031776 0.028062 3.000000
-0.466955 0.033185 -0.075254 3.000000
-0.466955 -0.012232 -0.053529 3.000000
-0.466955 -0.007090 -0.020174 3.000000
-0.466955 0.029484 -0.083788 3.000000
-0.466955 -0.009611 -0.085366 3.000000
-0.466955 -0.022379 -0.034037 3.000000
-0.466955 0.063322 -0.074222 3.000000
-0.466955 0.000881 -0.015085 3.000000
-0.466955 0.010960 -0.021603 3.000000
-0.466955 0.052895 0.034355 3.000000
-0.466955 -0.064866 0.005749 3.000000
-0.466955 -0.017981 0.018112 3.000000
-0.466955 -0.004629 0.023612 3.000000
-0.466955 0.054991 0.043274 3.000000
-0.466955 0.012742 -0.005085 3.000000
-0.466955 -0.030976 0.063350 3.000000
-0.466955 -0.062388 -0.025195 3.000000
-0.466955 -0.018512 0.097276 3.000000
-0.466955 0.073831 0.059340 3.000000
-0.466955 0.093682 -0.014917 3.000000
-0.466955 -0.007755 -0.015502 3.000000
-0.466955 -0.021307 -0.019998 3.000000
-0.466955 0.034891 0.083346 3.000000
-0.466955 0.010102 -0.025858 3.000000
-0.466955 -0.042711 -0.059006 3.000000
-0.466955 0.046302 -0.062382 3.000000
-0.466955 -0.010373 -0.059654 3.000000
-0.466955 -0.028437 -0.089327 3.000000
-0.466955 -0.041162 0.061687 3.000000
-0.466955 0.031744 -0.007131 3.000000
-0.466955 0.040102 -0.046862 3.000000
-0.466955 0.046868 -0.088048 3.000000
-0.466955 -0.023311 0.096957 3.000000
-0.466955 0.061671 0.025564 3.000000
-0.466955 0.073854 -0.003904 3.000000
-0.466955 -0.031094 0.033008 3.000000
-0.466955 0.030187 0.053272 3.000000
-0.466955 -0.042459 0.050811 3.000000
-0.466955 0.002107 -0.020106 3.000000
-0.466955 -0.064627 -0.065752 3.000000
-0.466955 0.060424 -0.045389 3.000000
-0.466955 0.046170 0.044232 3.000000
-0.466955 -0.006367 -0.032372 3.000000
-0.466955 0.021742 0.075883 3.000000
-0.466955 0.047233 -0.032653 3.000000
-0.466955 -0.068431 0.035282 3.000000
-0.466955 -0.031846 0.040102 3.000000
-0.466955 -0.034618 -0.088883 3.000000
-0.466955 -0.043489 0.066504 3.000000
-0.466955 0.076304 0.028792 3.000000
-0.466955 0.006435 0.087403 3.000000
-0.466955 0.051038 -0.058209 3.000000
-0.466955 -0.049802 -0.043130 3.000000
-0.466955 0.064593 0.074040 3.000000
-0.466955 -0.006855 -0.052816 3.000000
-0.466955 -0.024081 -0.038627 3.000000
-0.466955 0.059350 -0.019828 3.000000
-0.466955 -0.036878 -0.001266 3.000000
-0.466955 -0.016149 0.001226 3.000000
-0.466955 0.076036 -0.010732 3.000000
-0.466955 0.064645 0.041912 3.000000
-0.466955 0.061251 -0.008915 3.000000
-0.466955 0.092405 0.030242 3.000000
-0.466955 -0.023736 -0.020581 3.000000
-0.466955 0.031864 0.075725 3.000000
-0.466955 -0.047720 0.029653 3.000000
-0.466955 -0.058186 0.068362 3.000000
-0.466955 -0.082583 0.020400 3.000000
-0.466955 -0.019646 0.074714 3.000000
-0.466955 0.045468 -0.001844 3.000000
-0.466955 0.057730 0.067735 3.000000
-0.466955 -0.039216 0.074529 3.000000
-0.466955 -0.045105 -0.032635 3.000000
-0.466955 0.001181 0.014519 3.000000
-0.466955 -0.021518 0.070608 3.000000
-0.466955 -0.091142 0.029654 3.000000
-0.466955 0.025300 0.012643 3.000000
-0.466955 -0.053867 0.018918 3.000000
-0.466955 0.028582 0.078942 3.000000
-0.466955 0.040799 0.039815 3.000000
-0.466955 -0.048981 -0.061740 3.000000
-0.466955 -0.026528 0.062694 3.000000
-0.466955 0.027606 -0.002081 3.000000
-0.466955 -0.072683 0.054363 3.000000
-0.466955 0.006309 0.017322 3.000000
-0.466955 0.007791 -0.085186 3.000000
-0.466955 0.007486 -0.049782 3.000000
-0.466955 -0.009268 0.090596 3.000000
-0.466955 0.054498 -0.047646 3.000000
-0.466955 -0.080811 0.043944 3.000000
-0.466955 -0.003995 0.055607 3.000000
-0.466955 -0.060194 0.068382 3.000000
-0.466955 -0.015827 0.021874 3.000000
-0.466955 0.010081 0.088562 3.000000
-0.466955 -0.053117 0.081023 3.000000
-0.466955 -0.031030 0.059801 3.000000
-0.466955 0.069288 0.022131 3.000000
-0.466955 0.075158 0.011685 3.000000
-0.466955 -0.017548 -0.016110 3.000000
-0.466955 0.057916 0.065426 3.000000
-0.466955 0.048863 0.072288 3.000000
-0.466955 0.066881 0.005481 3.000000
-0.466955 0.073461 0.034634 3.000000
-0.466955 0.013460 0.032825 3.000000
-0.466955 -0.069160 0.024835 3.000000
-0.466955 -0.014538 0.011960 3.000000
-0.466955 -0.039421 -0.015347 3.000000
-0.466955 -0.056007 -0.079588 3.000000
-0.466955 0.007515 -0.088352 3.000000
-0.466955 -0.058318 -0.050536 3.000000
-0.466955 0.013049 -0.016826 3.000000
-0.466955 -0.096527 0.012446 3.000000
-0.466955 0.078153 0.031321 3.000000
-0.466955 -0.019407 0.082675 3.000000
-0.466955 -0.013817 0.002848 3.000000
-0.466955 -0.042492 0.067833 3.000000
-0.466955 -0.038779 0.061360 3.000000
-0.466955 0.015808 0.025516 3.000000
-0.466955 0.091562 -0.029013 3.000000
-0.466955 -0.042322 0.043028 3.000000
-0.466955 0.050500 -0.039151 3.000000
-0.466955 0.063397 -0.032935 3.000000
-0.466955 0.074476 0.025737 3.000000
-0.466955 -0.037115 -0.014051 3.000000
-0.466955 0.065510 0.048809 3.000000
-0.466955 0.047274 -0.008337 3.000000
-0.466955 -0.072006 -0.053905 3.000000
-0.466955 -0.001409 0.068531 3.000000
-0.466955 -0.064555 0.016283 3.000000
-0.466955 -0.069949 0.054074 3.000000
-0.466955 0.013893 0.042981 3.000000
-0.466955 0.027538 -0.078421 3.000000
-0.466955 0.045641 -0.075947 3.000000
-0.466955 0.081332 0.030070 3.000000
-0.466955 -0.025709 0.035705 3.000000
-0.466955 -0.059208 0.063453 3.000000
-0.466955 -0.033559 0.071512 3.000000
-0.466955 -0.056976 0.013679 3.000000
-0.466955 -0.006630 0.099115 3.000000
-0.466955 -0.049635 0.021346 3.000000
-0.466955 0.064301 0.046024 3.000000
-0.466955 0.078959 -0.034588 3.000000
-0.466955 -0.008376 0.068269 3.000000
-0.466955 0.043915 -0.072736 3.000000
-0.466955 0.009085 -0.011270 3.000000
-0.466955 -0.027153 0.094075 3.000000
-0.466955 -0.025786 -0.026121 3.000000
-0.466955 0.029347 -0.052634 3.000000
-0.466955 -0.016658 0.087279 3.000000
-0.466955 -0.049362 -0.063174 3.000000
-0.466955 -0.066779 0.067969 3.000000
-0.466955 -0.018117 -0.067020 3.000000
-0.466955 0.050430 -0.079174 3.000000
-0.466955 -0.063843 -0.054181 3.000000
-0.466955 -0.004481 -0.080685 3.000000
-0.466955 -0.020828 0.096122 3.000000
-0.466955 0.046453 0.068673 3.000000
-0.466955 0.007185 -0.099046 3.000000
-0.466955 0.037763 -0.011438 3.000000
-0.466955 -0.027355 0.014078 3.000000
-0.466955 -0.048662 -0.066701 3.000000
-0.466955 0.036531 0.035398 3.000000
-0.466955 0.045549 0.034771 3.000000
-0.466955 0.088538 -0.006166 3.000000
-0.466955 0.046582 0.032804 3.000000
-0.466955 -0.057674 -0.042959 3.000000
-0.466955 0.006341 0.055572 3.000000
-0.466955 0.029155 0.025047 3.000000
-0.466955 -0.039924 0.002960 3.000000
-0.466955 -0.008378 -0.051726 3.000000
-0.466955 0.029165 -0.023639 3.000000
-0.466955 0.068012 -0.027346 3.000000
-0.466955 -0.078008 -0.048027 3.000000
-0.466955 0.009226 -0.035575 3.000000
-0.466955 -0.070926 -0.052214 3.000000
-0.466955 -0.056365 -0.074182 3.000000
-0.466955 0.028620 -0.093722 3.000000
-0.466955 0.038745 -0.049704 3.000000
-0.466955 -0.038389 0.070396 3.000000
-0.466955 -0.018804 -0.094772 3.000000
-0.466955 0.047536 -0.081650 3.000000
-0.466955 -0.080699 -0.044847 3.000000
-0.466955 0.001722 0.040725 3.000000
-0.466955 0.001234 -0.018033 3.000000
-0.466955 -0.026007 0.074622 3.000000
-0.466955 -0.026707 0.045072 3.000000
-0.466955 -0.017172 0.073713 3.000000
-0.466955 -0.077853 0.002386 3.000000
-0.466955 -0.018719 -0.051451 3.000000
-0.466955 -0.091915 -0.035064 3.000000
-0.466955 -0.051379 0.036778 3.000000
-0.466955 0.065143 0.043580 3.000000
-0.466955 -0.077288 0.025632 3.000000
-0.466955 0.031398 -0.043091 3.000000
-0.466955 0.035744 -0.087472 3.000000
-0.466955 0.055287 0.035797 3.000000
-0.466955 -0.036255 0.022318 3.000000
-0.466955 0.058495 0.077520 3.000000
-0.466955 -0.018693 0.000116 3.000000
-0.466955 -0.033098 0.014100 3.000000
-0.466955 0.001241 0.089235 3.000000
-0.466955 -0.003800 0.089626 3.000000
-0.466955 0.022148 0.085812 3.000000
-0.466955 -0.062772 -0.045659 3.000000
-0.466955 0.048409 -0.074790 3.000000
-0.466955 0.042891 -0.050838 3.000000
-0.466955 -0.083919 -0.004438 3.000000
-0.466955 -0.018582 -0.073984 3.000000
-0.466955 -0.026056 0.018200 3.000000
-0.466955 0.060132 -0.023317 3.000000
-0.466955 -0.040030 0.080670 3.000000
-0.466955 0.058270 0.028777 3.000000
-0.466955 -0.064527 -0.050189 3.000000
-0.466955 -0.005434 -0.094805 3.000000
-0.466955 -0.053887 0.066276 3.000000
-0.466955 -0.061285 0.071296 3.000000
-0.466955 0.061501 0.050048 3.000000
-0.466955 -0.000693 -0.018334 3.000000
-0.466955 -0.058810 -0.023064 3.000000
-0.466955 0.023856 0.048448 3.000000
-0.466955 0.021829 0.087915 3.000000
-0.466955 -0.053367 -0.006492 3.000000
-0.466955 -0.001196 -0.027571 3.000000
-0.466955 -0.028948 0.034051 3.000000
-0.466955 0.064059 -0.030192 3.000000
-0.466955 0.038036 0.080597 3.000000
-0.466955 -0.053817 0.071644 3.000000
-0.466955 0.054282 -0.054765 3.000000
-0.466955 -0.008328 -0.072317 3.000000
-0.466955 -0.011457 0.024254 3.000000
-0.466955 -0.050761 0.045945 3.000000
-0.466955 -0.078656 0.009819 3.000000
-0.466955 0.006443 -0.014850 3.000000
-0.466955 -0.010090 0.053857 3.000000
-0.466955 -0.056893 -0.076898 3.000000
-0.466955 -0.059335 -0.024606 3.000000
-0.466955 -0.063715 0.026687 3.000000
-0.466955 -0.045299 0.014329 3.000000
-0.466955 0.051242 0.024120 3.000000
-0.466955 -0.084503 0.038809 3.000000
-0.466955 0.016180 0.065286 3.000000
-0.466955 -0.046124 0.047241 3.000000
-0.466955 0.052305 0.069210 3.000000
-0.466955 0.083323 0.007677 3.000000
-0.466955 -0.074690 0.012504 3.000000
-0.466955 0.052685 0.059254 3.000000
-0.466955 0.061521 0.010676 3.000000
-0.466955 -0.016901 0.043103 3.000000
-0.466955 -0.071028 0.034343 3.000000
-0.466955 -0.022888 -0.072159 3.000000
-0.466955 -0.090008 0.036074 3.000000
-0.466955 -0.056962 0.030690 3.000000
-0.466955 0.009760 0.069431 3.000000
-0.466955 0.030605 0.056169 3.000000
-0.466955 0.043508 0.048069 3.000000
-0.466955 -0.057829 0.039234 3.000000
-0.466955 -0.031481 -0.072317 3.000000
-0.466955 0.063801 -0.028622 3.000000
-0.466955 -0.022099 0.006989 3.000000
-0.466955 -0.096335 -0.011705 3.000000
-0.466955 0.072985 0.023987 3.000000
-0.466955 -0.006911 0.003126 3.000000
-0.466955 0.001843 -0.069713 3.000000
-0.466955 -0.043532 -0.017961 3.000000
-0.466955 0.025744 0.049160 3.000000
-0.466955 -0.058301 -0.000003 3.000000
-0.466955 0.051639 -0.065788 3.000000
-0.466955 0.022480 0.035146 3.000000
-0.466955 -0.004634 -0.038391 3.000000
-0.466955 0.066949 0.036938 3.000000
-0.466955 0.029038 0.015229 3.000000
-0.466955 -0.085111 0.006424 3.000000
-0.466955 -0.060978 -0.031100 3.000000
-0.466955 -0.041986 -0.015267 3.000000
-0.466955 -0.065183 -0.007439 3.000000
-0.466955 -0.081496 -0.029107 3.000000
-0.466955 0.051853 0.073717 3.000000
-0.466955 0.084666 0.038738 3.000000
-0.466955 0.003959 0.023150 3.000000
-0.466955 0.079515 0.054916 3.000000
-0.466955 0.028494 0.083573 3.000000
-0.466955 0.004797 -0.040827 3.000000
-0.466955 0.017837 0.003549 3.000000
-0.466955 -0.062884 -0.034393 3.000000
-0.466955 -0.074920 0.006690 3.000000
-0.466955 -0.068111 -0.061680 3.000000
-0.466955 0.083681 0.024502 3.000000
-0.466955 0.004331 0.019686 3.000000
-0.466955 0.034571 -0.041274 3.000000
-0.466955 -0.025858 -0.076033 3.000000
-0.466955 -0.080135 -0.043120 3.000000
-0.466955 0.042878 0.057627 3.000000
-0.466955 0.054376 -0.076505 3.000000
-0.466955 -0.067695 -0.003667 3.000000
-0.466955 0.016383 0.088921 3.000000
-0.466955 -0.005609 -0.016790 3.000000
-0.466955 -0.067494 -0.072840 3.000000
-0.466955 -0.065709 -0.068878 3.000000
-0.466955 -0.000874 0.096062 3.000000
-0.466955 -0.008435 -0.076921 3.000000
-0.466955 -0.041941 0.064769 3.000000
-0.466955 -0.038902 0.072925 3.000000
-0.466955 0.017606 -0.048089 3.000000
-0.466955 0.000079 0.036853 3.000000
-0.466955 0.065375 0.066511 3.000000
-0.466955 0.021652 -0.094758 3.000000
-0.466955 -0.034521 0.089119 3.000000
-0.466955 0.036547 0.011387 3.000000
-0.466955 -0.077196 -0.022438 3.000000
-0.466955 -0.067864 0.029784 3.000000
-0.466955 -0.053895 -0.015966 3.000000
-0.466955 0.046666 0.042832 3.000000
-0.466955 -0.038487 -0.001312 3.000000
-0.466955 -0.012833 0.095137 3.000000
-0.466955 0.027145 0.040904 3.000000
-0.466955 -0.017839 0.008829 3.000000
-0.466955 0.005069 -0.024542 3.000000
-0.466955 -0.000677 0.083498 3.000000
-0.466955 -0.091988 -0.006863 3.000000
-0.466955 0.019331 -0.037148 3.000000
-0.466955 0.035118 -0.027617 3.000000
-0.466955 0.036133 -0.037453 3.000000
-0.466955 -0.039720 -0.005371 3.000000
-0.466955 -0.000198 -0.012376 3.000000
-0.466955 0.063071 -0.069722 3.000000
-0.466955 -0.008208 -0.065966 3.000000
-0.466955 0.052536 -0.067879 3.000000
-0.466955 -0.022269 -0.036006 3.000000
-0.466955 0.061814 -0.058863 3.000000
-0.466955 -0.048113 0.039005 3.000000
-0.466955 -0.081486 0.051069 3.000000
-0.466955 0.064578 0.051208 3.000000
-0.466955 -0.068627 -0.052154 3.000000
-0.466955 -0.028211 -0.066003 3.000000
-0.466955 -0.049532 -0.030422 3.000000
-0.466955 -0.015308 0.088389 3.000000
-0.466955 -0.045149 -0.010906 3.000000
-0.466955 -0.033860 0.044854 3.000000
-0.466955 -0.043153 0.080948 3.000000
-0.466955 0.045563 0.008620 3.000000
-0.466955 0.094278 -0.032814 3.000000
-0.466955 -0.040805 0.018318 3.000000
-0.466955 -0.032829 0.031961 3.000000
-0.466955 -0.075226 -0.045093 3.000000
-0.466955 0.053654 0.064314 3.000000
-0.466955 0.095858 -0.003075 3.000000
-0.466955 -0.007818 -0.037749 3.000000
-0.466955 -0.003392 -0.087289 3.000000
-0.466955 0.090512 -0.042107 3.000000
-0.466955 0.065982 0.054013 3.000000
-0.466955 0.043821 0.002647 3.000000
-0.466955 0.047547 0.005714 3.000000
-0.466955 0.060290 -0.016789 3.000000
-0.466955 -0.063794 0.044043 3.000000
-0.466955 0.033734 -0.048038 3.000000
-0.466955 0.089617 0.012491 3.000000
-0.466955 -0.054403 0.048066 3.000000
-0.466955 0.078299 0.051380 3.000000
-0.466955 0.024534 0.064424 3.000000
-0.466955 0.047199 0.082533 3.000000
-0.466955 -0.074522 0.045665 3.000000
-0.466955 0.070941 0.007902 3.000000
-0.466955 -0.087745 0.037083 3.000000
-0.466955 0.069804 -0.031472 3.000000
-0.466955 0.003853 0.052488 3.000000
-0.466955 0.000621 0.063279 3.000000
-0.466955 0.094501 -0.011612 3.000000
-0.466955 0.007487 0.070198 3.000000
-0.466955 0.061941 -0.045517 3.000000
-0.466955 0.017224 -0.072279 3.000000
-0.466955 -0.005818 -0.060736 3.000000
-0.466955 -0.086607 0.006643 3.000000
-0.466955 -0.093494 -0.017071 3.000000
-0.466955 0.023808 0.057836 3.000000
-0.466955 -0.071736 0.035609 3.000000
-0.466955 0.069253 -0.069776 3.000000
-0.466955 0.037144 -0.063532 3.000000
-0.466955 0.039123 -0.056207 3.000000
-0.466955 0.055643 -0.008344 3.000000
-0.466955 -0.044641 0.025485 3.000000
-0.466955 0.076610 -0.001181 3.000000
-0.466955 -0.082878 -0.014417 3.000000
-0.466955 0.066552 0.040174 3.000000
-0.466955 0.085981 0.033339 3.000000
-0.466955 0.027496 -0.060336 3.000000
-0.466955 -0.073680 0.015630 3.000000
-0.466955 0.067115 0.054747 3.000000
-0.466955 0.040273 -0.000162 3.000000
-0.466955 0.092262 0.012020 3.000000
-0.466955 -0.077536 0.000914 3.000000
-0.466955 0.062177 -0.014561 3.000000
-0.466955 -0.024314 0.063650 3.000000
-0.466955 -0.045346 0.072543 3.000000
-0.466955 0.087543 0.032849 3.000000
-0.466955 -0.078553 -0.037999 3.000000
-0.466955 0.033917 0.004652 3.000000
-0.466955 0.035670 -0.047554 3.000000
-0.466955 -0.015162 -0.059769 3.000000
-0.466955 -0.094165 0.016622 3.000000
-0.466955 -0.034389 -0.011534 3.000000
-0.466955 -0.053715 0.013985 3.000000
-0.466955 0.032238 -0.013344 3.000000
-0.466955 -0.002447 -0.025629 3.000000
-0.466955 -0.008701 0.003173 3.000000
-0.466955 0.033355 -0.091513 3.000000
-0.466955 -0.044772 0.029198 3.000000
-0.466955 -0.011255 -0.012715 3.000000
-0.466955 0.042934 0.053582 3.000000
-0.466955 0.024245 0.026005 3.000000
-0.466955 -0.005107 -0.067083 3.000000
-0.466955 0.053891 -0.078690 3.000000
-0.466955 0.015082 0.051843 3.000000
-0.466955 0.037235 0.019820 3.000000
-0.466955 -0.068204 0.004209 3.000000
-0.466955 0.057551 -0.014286 3.000000
-0.466955 -0.021825 -0.083223 3.000000
-0.466955 0.019182 0.062512 3.000000
-0.466955 -0.015164 -0.065662 3.000000
-0.466955 0.060856 0.021611 3.000000
-0.466955 -0.008825 -0.010917 3.000000
-0.466955 0.053424 0.074848 3.000000
-0.466955 0.042508 -0.020441 3.000000
-0.466955 -0.019270 -0.003643 3.000000
-0.466955 -0.008751 -0.086605 3.000000
-0.466955 -0.042574 -0.067867 3.000000
-0.466955 0.095785 0.002680 3.000000
-0.466955 -0.029437 -0.094688 3.000000
-0.466955 0.065071 0.013856 3.000000
-0.466955 -0.072327 -0.031236 3.000000
-0.466955 -0.045947 -0.080901 3.000000
-0.466955 0.054914 0.018490 3.000000
-0.466955 0.036523 0.074790 3.000000
-0.466955 0.030382 0.063523 3.000000
-0.466955 -0.067070 -0.054817 3.000000
-0.466955 0.048751 0.014320 3.000000
-0.466955 0.062272 0.016204 3.000000
-0.466955 -0.018602 0.019640 3.000000
-0.466955 -0.083358 0.054840 3.000000
-0.466955 -0.034837 0.038343 3.000000
-0.466955 0.010574 -0.037946 3.000000
-0.466955 0.086621 -0.049324 3.000000
-0.466955 -0.056948 0.080237 3.000000
-0.466955 0.023451 -0.075964 3.000000
-0.466955 0.034727 0.021618 3.000000
-0.466955 0.007679 0.036150 3.000000
-0.466955 0.040540 -0.048473 3.000000
-0.466955 0.064853 0.039784 3.000000
-0.466955 -0.083540 0.043368 3.000000
-0.466955 0.020483 0.031025 3.000000
-0.466955 -0.082081 0.032876 3.000000
-0.466955 0.012921 0.012235 3.000000
-0.466955 0.043578 -0.027116 3.000000
-0.466955 0.050142 -0.030919 3.000000
-0.466955 -0.011447 0.069620 3.000000
-0.466955 -0.032010 0.021396 3.000000
-0.466955 -0.023887 -0.049000 3.000000
-0.466955 -0.056873 -0.032280 3.000000
-0.466955 -0.021117 0.043871 3.000000
-0.466955 -0.043535 -0.073812 3.000000
-0.466955 0.047292 0.065847 3.000000
-0.466955 -0.044993 -0.027363 3.000000
-0.466955 -0.013293 -0.001501 3.000000
-0.466955 0.015624 -0.031639 3.000000
-0.466955 -0.076172 0.009092 3.000000
-0.466955 -0.076907 -0.040456 3.000000
-0.466955 0.073848 -0.039371 3.000000
-0.466955 -0.070255 0.030395 3.000000
-0.466955 -0.069134 0.023030 3.000000
-0.466955 0.085909 -0.027118 3.000000
-0.466955 -0.028594 -0.023404 3.000000
-0.466955 0.085872 0.014506 3.000000
-0.466955 0.055586 -0.001547 3.000000
-0.466955 0.012243 -0.041772 3.000000
-0.466955 -0.047765 0.023751 3.000000
-0.466955 -0.043827 0.064641 3.000000
-0.466955 0.049555 0.070503 3.000000
-0.466955 -0.024554 -0.046230 3.000000
-0.466955 -0.074361 -0.027905 3.000000
-0.466955 -0.026910 0.080999 3.000000
-0.466955 -0.062295 0.053929 3.000000
-0.466955 0.038805 0.092086 3.000000
-0.466955 0.018581 -0.053398 3.000000
-0.466955 -0.033228 0.076357 3.000000
-0.466955 -0.063692 0.076889 3.000000
-0.466955 -0.045218 -0.086083 3.000000
-0.466955 0.060158 -0.052491 3.000000
-0.466955 0.074570 -0.021740 3.000000
-0.466955 0.049387 0.030884 3.000000
-0.466955 0.037198 0.085243 3.000000
-0.466955 0.057477 0.071399 3.000000
-0.466955 0.069129 -0.028449 3.000000
-0.466955 0.070787 0.057775 3.000000
-0.466955 0.046133 -0.021926 3.000000
-0.466955 0.010433 0.009759 3.000000
-0.466955 -0.092318 0.014864 3.000000
-0.466955 -0.010604 -0.019584 3.000000
-0.466955 -0.026513 -0.069836 3.000000
-0.466955 -0.020525 -0.036317 3.000000
-0.466955 -0.013331 0.054065 3.000000
-0.466955 0.055457 -0.082637 3.000000
-0.466955 -0.023851 0.045185 3.000000
-0.466955 -0.062801 -0.031270 3.000000
-0.466955 0.038532 -0.041591 3.000000
-0.466955 0.007444 -0.005635 3.000000
-0.466955 0.001658 0.097554 3.000000
-0.466955 0.004294 0.000081 3.000000
-0.466955 -0.010042 -0.058062 3.000000
-0.466955 -0.051287 -0.060712 3.000000
-0.466955 0.005503 0.027934 3.000000
-0.466955 0.023862 0.072491 3.000000
-0.466955 0.091950 0.038164 3.000000
-0.466955 0.080973 0.006977 3.000000
-0.466955 -0.091817 -0.010044 3.000000
-0.466955 0.060325 -0.012539 3.000000
-0.466955 -0.022353 0.082344 3.000000
-0.466955 0.044355 0.018702 3.000000
-0.466955 -0.096854 0.022393 3.000000
-0.466955 -0.015533 0.007801 3.000000
-0.466955 -0.091331 -0.028931 3.000000
-0.466955 -0.090381 -0.036771 3.000000
-0.466955 -0.096511 -0.007979 3.000000
-0.466955 -0.012551 0.066666 3.000000
-0.466955 -0.041505 -0.006325 3.000000
-0.466955 -0.036607 -0.068863 3.000000
-0.466955 -0.059060 -0.042522 3.000000
-0.466955 0.010417 -0.086235 3.000000
-0.466955 -0.007841 0.043032 3.000000
-0.466955 -0.026274 0.076274 3.000000
-0.466955 0.060596 0.070212 3.000000
-0.466955 0.023411 0.024225 3.000000
-0.466955 0.003928 0.038285 3.000000
-0.466955 0.024242 0.085631 3.000000
-0.466955 0.054450 0.037231 3.000000
-0.466955 0.049596 0.039940 3.000000
-0.466955 -0.014276 0.093024 3.000000
-0.466955 0.042519 -0.018066 3.000000
-0.466955 -0.035887 0.074909 3.000000
-0.466955 -0.046386 0.063467 3.000000
-0.466955 0.008986 -0.076683 3.000000
-0.466955 0.005097 0.051655 3.000000
-0.466955 0.075314 -0.063989 3.000000
-0.466955 -0.082169 -0.042591 3.000000
-0.466955 -0.046151 -0.021744 3.000000
-0.466955 0.051835 -0.049098 3.000000
-0.466955 0.004930 -0.038661 3.000000
-0.466955 -0.061147 -0.043342 3.000000
-0.466955 -0.072342 -0.049454 3.000000
-0.466955 0.013191 0.051066 3.000000
-0.466955 -0.090172 -0.027011 3.000000
-0.466955 0.032004 0.089200 3.000000
-0.466955 0.076972 -0.013026 3.000000
-0.466955 0.034431 0.074023 3.000000
-0.466955 0.018170 -0.067184 3.000000
-0.466955 -0.055965 0.032757 3.000000
-0.466955 0.005417 0.037828 3.000000
-0.466955 0.049936 -0.036629 3.000000
-0.466955 -0.010716 0.085526 3.000000
-0.466955 0.041354 0.010324 3.000000
-0.466955 0.073442 -0.055979 3.000000
-0.466955 0.075883 -0.042930 3.000000
-0.466955 -0.008587 -0.079804 3.000000
-0.466955 0.012751 -0.052827 3.000000
-0.466955 -0.074943 0.047433 3.000000
-0.466955 0.014064 -0.027384 3.000000
-0.466955 -0.067050 -0.067638 3.000000
-0.466955 -0.048759 0.024872 3.000000
-0.466955 -0.042753 0.075251 3.000000
-0.466955 -0.022663 0.071351 3.000000
-0.466955 -0.028600 -0.077578 3.000000
-0.466955 -0.002499 0.040617 3.000000
-0.466955 -0.053812 0.023988 3.000000
-0.466955 -0.021051 -0.045793 3.000000
-0.466955 0.090505 0.014154 3.000000
-0.466955 -0.080356 -0.015815 3.000000
-0.466955 -0.050504 0.003576 3.000000
-0.466955 0.053580 -0.013364 3.000000
-0.466955 -0.005457 0.074592 3.000000
-0.466955 -0.021629 -0.007481 3.000000
-0.466955 -0.004791 -0.071516 3.000000
-0.466955 0.063574 -0.012470 3.000000
-0.466955 0.089585 -0.002786 3.000000
-0.466955 0.020330 -0.077935 3.000000
-0.466955 -0.017933 0.039212 3.000000
-0.466955 0.021784 0.094502 3.000000
-0.466955 -0.043833 -0.047551 3.000000
-0.466955 -0.073241 -0.052965 3.000000
-0.466955 0.096737 0.006659 3.000000
-0.466955 0.074400 -0.044075 3.000000
-0.466955 0.090696 -0.009505 3.000000
-0.466955 -0.042690 -0.036487 3.000000
-0.466955 0.001396 -0.021465 3.000000
-0.466955 0.049179 -0.048216 3.000000
-0.466955 -0.068560 -0.053935 3.000000
-0.466955 0.015011 0.058387 3.000000
-0.466955 0.028012 0.000336 3.000000
-0.466955 -0.033760 -0.014556 3.000000
-0.466955 -0.076408 -0.046057 3.000000
-0.466955 0.043151 -0.035466 3.000000
-0.466955 -0.071535 -0.027941 3.000000
-0.466955 0.087353 -0.009944 3.000000
-0.466955 0.093381 -0.010373 3.000000
-0.466955 0.001207 -0.092212 3.000000
-0.466955 -0.012501 0.097732 3.000000
-0.466955 -0.005039 -0.087705 3.000000
-0.466955 -0.074938 -0.023982 3.000000
-0.466955 0.066235 0.008266 3.000000
-0.466955 -0.032423 0.045404 3.000000
-0.466955 -0.010024 0.098118 3.000000
-0.466955 -0.062028 -0.027001 3.000000
-0.466955 -0.029845 -0.053346 3.000000
-0.466955 -0.026375 0.000134 3.000000
-0.466955 -0.023379 0.027499 3.000000
-0.466955 -0.043738 -0.035482 3.000000
-0.466955 0.011812 -0.010661 3.000000
-0.466955 0.001733 -0.001246 3.000000
-0.466955 -0.030255 -0.001304 3.000000
-0.466955 0.065481 0.026971 3.000000
-0.466955 -0.076122 0.027914 3.000000
-0.466955 0.010568 0.079699 3.000000
-0.466955 -0.029680 -0.020255 3.000000
-0.466955 0.062392 0.020453 3.000000
-0.466955 -0.044134 0.044384 3.000000
-0.466955 -0.038298 -0.066841 3.000000
-0.466955 -0.030384 -0.006892 3.000000
-0.466955 -0.057671 0.070619 3.000000
-0.466955 0.048104 0.033436 3.000000
-0.466955 -0.092066 0.022782 3.000000
-0.466955 0.053359 0.035803 3.000000
-0.466955 0.050833 0.001288 3.000000
-0.466955 -0.068106 0.048420 3.000000
-0.466955 0.003473 0.033249 3.000000
-0.466955 0.056856 -0.020124 3.000000
-0.466955 -0.086262 0.043547 3.000000
-0.466955 -0.019147 -0.034944 3.000000
-0.466955 -0.040515 0.016846 3.000000
-0.466955 0.006646 -0.090913 3.000000
-0.466955 0.034557 -0.005395 3.000000
-0.466955 -0.025359 0.015556 3.000000
-0.466955 -0.058291 -0.037969 3.000000
-0.466955 -0.024506 0.034500 3.000000
-0.466955 -0.076065 -0.059733 3.000000
-0.466955 -0.004063 0.040900 3.000000
-0.466955 0.079087 -0.048219 3.000000
-0.466955 0.037584 -0.029697 3.000000
-0.466955 0.015860 0.080255 3.000000
-0.466955 0.076368 0.064491 3.000000
-0.466955 -0.048425 0.031136 3.000000
-0.466955 -0.044594 -0.081265 3.000000
-0.466955 0.029805 0.066178 3.000000
-0.466955 -0.039866 -0.073620 3.000000
-0.466955 -0.032687 -0.025823 3.000000
-0.466955 -0.053133 0.007328 3.000000
-0.466955 0.021939 0.030198 3.000000
-0.466955 0.076839 0.011770 3.000000
-0.466955 -0.061439 -0.050246 3.000000
-0.466955 -0.054303 -0.051869 3.000000
-0.466955 0.001250 -0.057656 3.000000
-0.466955 0.006996 -0.076502 3.000000
-0.466955 0.031383 0.060068 3.000000
-0.466955 0.062980 0.073137 3.000000
-0.466955 -0.007660 -0.064363 3.000000
-0.466955 0.083225 0.017444 3.000000
-0.466955 0.056042 -0.024167 3.000000
-0.466955 -0.026808 -0.056516 3.000000
-0.466955 -0.026806 0.082448 3.000000
-0.466955 0.004466 0.010488 3.000000
-0.466955 0.063372 0.013168 3.000000
-0.466955 0.027319 0.050876 3.000000
-0.466955 0.025425 0.011196 3.000000
-0.466955 0.037357 0.005374 3.000000
-0.466955 -0.076549 -0.018868 3.000000
-0.466955 0.018059 0.011515 3.000000
-0.466955 0.006032 -0.023315 3.000000
-0.466955 -0.021966 -0.011865 3.000000
-0.466955 0.013476 0.097441 3.000000
-0.466955 0.020579 0.097707 3.000000
-0.466955 0.040130 0.035613 3.000000
-0.466955 0.047022 -0.064561 3.000000
-0.466955 0.010002 0.030989 3.000000
-0.466955 -0.037176 0.012635 3.000000
-0.466955 -0.039346 0.052942 3.000000
-0.466955 -0.046940 0.025258 3.000000
-0.466955 -0.051546 0.062919 3.000000
-0.466955 0.041301 0.067319 3.000000
-0.466955 -0.083688 0.053235 3.000000
-0.466955 0.000784 0.083634 3.000000
-0.466955 -0.067418 0.058799 3.000000
-0.466955 0.038011 -0.018768 3.000000
-0.466955 -0.037208 -0.043951 3.000000
-0.466955 0.061762 -0.064040 3.000000
-0.466955 -0.094968 -0.021277 3.000000
-0.466955 -0.000675 -0.015230 3.000000
-0.466955 0.096452 0.014975 3.000000
-0.466955 -0.045935 -0.049704 3.000000
-0.466955 -0.001992 -0.088089 3.000000
-0.466955 0.037129 0.073209 3.000000
-0.466955 0.054501 -0.018978 3.000000
-0.466955 -0.035674 -0.017554 3.000000
-0.466955 0.056752 0.014000 3.000000
