-0.234204 0.090178 -0.042979 1.000000
-0.345773 -0.098697 -0.014149 1.000000
0.080788 -0.081439 0.057799 1.000000
0.004770 -0.036683 0.093043 1.000000
-0.251411 0.027030 -0.095967 1.000000
0.241767 0.078844 0.061581 1.000000
0.456226 -0.028383 0.095869 2.000000
0.364775 -0.095055 -0.030094 1.000000
0.174982 -0.025785 0.096624 1.000000
0.398140 0.013866 -0.098725 1.000000
-0.263600 -0.072193 0.069066 1.000000
-0.353073 -0.098034 -0.018335 1.000000
-0.389949 -0.049412 -0.086520 1.000000
0.328206 0.070809 0.070683 1.000000
-0.460522 0.036463 -0.092846 3.000000
0.256528 0.089725 0.044230 1.000000
0.075563 -0.033379 -0.093872 1.000000
-0.066437 0.047719 0.087979 1.000000
-0.313867 0.098879 0.014840 1.000000
0.356719 0.036287 0.093272 1.000000
-0.194861 0.048124 -0.087410 1.000000
0.023919 0.058525 -0.080837 1.000000
-0.465062 0.017744 0.098473 3.000000
-0.084554 -0.073265 -0.067555 1.000000
-0.150106 0.068825 0.072667 1.000000
-0.189680 -0.079925 0.059887 1.000000
-0.013307 0.068918 -0.072212 1.000000
-0.453548 0.018766 -0.097949 3.000000
-0.077390 -0.099507 0.007169 1.000000
0.102681 0.097073 -0.023740 1.000000
-0.206591 0.037370 0.092847 1.000000
-0.018665 0.051517 -0.085413 1.000000
0.251169 0.008761 0.099649 1.000000
0.065100 0.022067 0.097578 1.000000
0.406296 0.099138 -0.012840 1.000000
0.258742 0.084895 0.052961 1.000000
0.275008 -0.091907 -0.038555 1.000000
-0.237160 0.055037 -0.083208 1.000000
-0.022816 -0.051027 0.085927 1.000000
0.241706 -0.013144 0.099165 1.000000
-0.238451 0.080338 -0.059293 1.000000
0.201547 -0.095401 -0.028904 1.000000
0.440109 0.047945 0.087864 2.000000
-0.171980 -0.079779 0.060075 1.000000
-0.118083 -0.060305 -0.079305 1.000000
0.144448 0.099915 0.003041 1.000000
0.356141 0.040426 -0.091162 1.000000
-0.254059 -0.094452 -0.031882 1.000000
-0.227526 0.098717 0.015863 1.000000
-0.427353 0.081087 0.058661 1.000000
-0.397166 -0.051921 -0.085036 1.000000
0.204603 0.000074 0.100069 1.000000
0.318668 -0.030834 -0.094788 1.000000
0.103181 0.031911 -0.094484 1.000000
-0.086322 -0.023876 -0.096759 1.000000
-0.282818 -0.006390 -0.099488 1.000000
-0.253440 0.015000 0.098908 1.000000
-0.052346 0.000083 0.100069 1.000000
-0.291472 0.092526 0.038026 1.000000
0.159034 -0.087206 -0.048296 1.000000
-0.030177 -0.007539 -0.099379 1.000000
-0.193747 0.020719 0.097879 1.000000
0.326731 -0.086120 -0.050132 1.000000
0.348318 0.095013 -0.030973 1.000000
-0.250477 -0.028418 0.095859 1.000000
0.247428 -0.073666 0.067463 1.000000
-0.113234 -0.065855 0.075119 1.000000
0.332755 0.093159 -0.036124 1.000000
0.410696 -0.092505 -0.037173 1.000000
0.099936 0.092373 0.038381 1.000000
-0.000237 0.099913 -0.002759 1.000000
0.174903 -0.097908 0.019323 1.000000
0.300098 0.097174 -0.023286 1.000000
-0.122548 -0.087867 0.047419 1.000000
0.090313 -0.077423 0.063112 1.000000
-0.451157 0.067906 0.073516 3.000000
0.168739 -0.095164 -0.029718 1.000000
0.207171 -0.096462 0.025612 1.000000
-0.240304 -0.016192 0.098682 1.000000
0.454350 -0.095497 -0.028573 2.000000
-0.175227 -0.082802 0.055793 1.000000
-0.298781 -0.082544 0.056174 1.000000
0.393413 -0.066154 -0.074492 1.000000
0.411322 -0.040763 -0.090915 1.000000
0.430497 0.099574 0.008926 1.000000
-0.464024 0.079158 -0.060814 3.000000
-0.060494 0.000304 -0.099701 1.000000
0.375992 -0.086936 -0.048752 1.000000
0.143194 0.089731 -0.043855 1.000000
0.412535 -0.010620 -0.099088 1.000000
0.076878 -0.010241 -0.099124 1.000000
-0.455619 0.089824 0.044035 3.000000
0.241391 -0.099054 -0.011600 1.000000
0.343788 0.025698 -0.096354 1.000000
0.237167 0.093323 -0.035667 1.000000
0.268040 -0.000122 0.100063 1.000000
0.036630 -0.050518 -0.085866 1.000000
-0.237659 0.010146 -0.099155 1.000000
0.335546 0.019595 0.098131 1.000000
0.041361 -0.094695 -0.031208 1.000000
-0.005447 -0.079340 -0.060278 1.000000
-0.336880 0.097529 0.022062 1.000000
0.125010 -0.006500 0.099840 1.000000
-0.087555 0.099913 -0.002763 1.000000
0.088853 0.065351 0.075769 1.000000
-0.378608 -0.001188 0.100029 1.000000
0.453271 -0.081937 -0.056704 2.000000
0.433553 0.042542 -0.090246 1.000000
0.261250 0.099464 -0.009729 1.000000
-0.154484 0.099880 0.004164 1.000000
-0.109038 0.098948 -0.014041 1.000000
-0.418332 0.019743 -0.097735 1.000000
0.021545 -0.085192 -0.051702 1.000000
0.052568 -0.043854 0.089829 1.000000
-0.191940 -0.005535 -0.099530 1.000000
-0.092579 -0.059897 0.079984 1.000000
0.142326 -0.096951 0.023603 1.000000
-0.102857 -0.099688 0.002858 1.000000
0.390102 0.099153 -0.012747 1.000000
0.014221 -0.053698 -0.083959 1.000000
0.059108 0.082034 -0.056904 1.000000
0.271109 -0.037859 0.092534 1.000000
-0.211182 -0.099191 -0.010152 1.000000
0.068143 0.035008 -0.093370 1.000000
-0.451089 0.078199 -0.062050 3.000000
-0.132824 -0.054126 0.084031 1.000000
0.290895 0.060130 0.079984 1.000000
-0.295582 0.031852 -0.094506 1.000000
0.205109 0.076354 0.064678 1.000000
-0.255585 0.085460 0.052006 1.000000
-0.002710 -0.070390 -0.070506 1.000000
-0.316612 0.005580 -0.099536 1.000000
0.039701 0.099579 -0.008516 1.000000
0.412370 -0.099444 0.007839 1.000000
-0.345012 0.099817 0.006184 1.000000
0.195868 -0.087181 0.048701 1.000000
0.091143 -0.073413 0.067750 1.000000
-0.005923 0.091548 -0.039924 1.000000
-0.272461 -0.072578 -0.068318 1.000000
0.025472 -0.056970 -0.081735 1.000000
0.231500 -0.058652 0.080950 1.000000
-0.100288 -0.005010 0.099909 1.000000
-0.270106 -0.014821 0.098899 1.000000
0.218325 0.081076 0.058677 1.000000
0.347913 -0.085905 0.050859 1.000000
-0.116168 0.094492 -0.032422 1.000000
-0.221329 0.035761 -0.093098 1.000000
0.417985 0.085130 0.052563 1.000000
0.226467 0.093382 0.035867 1.000000
0.432034 0.011555 0.099385 2.000000
0.065158 0.078706 0.061759 1.000000
-0.113622 0.079510 0.060722 1.000000
0.002869 -0.072369 -0.068527 1.000000
0.045788 0.078572 0.061933 1.000000
0.092706 -0.085312 -0.051498 1.000000
0.212274 0.077613 -0.062806 1.000000
0.153712 0.044457 -0.089278 1.000000
-0.271029 0.081124 0.058607 1.000000
-0.393359 -0.081314 -0.057621 1.000000
0.245253 -0.058962 0.080709 1.000000
0.203635 0.062043 -0.078138 1.000000
0.232106 -0.099552 0.006693 1.000000
0.388793 -0.036364 -0.092797 1.000000
-0.038346 -0.099711 0.002108 1.000000
-0.314477 -0.065914 0.075067 1.000000
-0.453342 0.097027 -0.023944 3.000000
-0.050596 0.099728 0.007300 1.000000
-0.314083 0.065257 -0.075489 1.000000
-0.303494 -0.035768 -0.093012 1.000000
0.182244 -0.069687 0.071572 1.000000
-0.358907 0.002293 -0.099639 1.000000
-0.253453 0.099464 0.010096 1.000000
-0.157790 -0.053596 -0.084028 1.000000
0.413616 -0.095286 -0.029299 1.000000
0.191102 0.093459 -0.035290 1.000000
0.336525 0.060556 -0.079291 1.000000
0.340065 0.029622 0.095577 1.000000
0.235530 -0.040919 -0.090847 1.000000
0.124584 0.095074 0.031167 1.000000
-0.405404 -0.029159 0.095644 1.000000
0.050665 0.021732 0.097653 1.000000
-0.180478 -0.098864 0.013459 1.000000
0.360036 -0.054807 0.083568 1.000000
-0.420273 -0.044700 0.089398 1.000000
-0.235413 -0.028112 -0.095585 1.000000
-0.178909 -0.027558 0.096109 1.000000
0.041461 0.081424 0.058165 1.000000
0.026652 0.029127 -0.095358 1.000000
-0.333932 0.025670 0.096725 1.000000
-0.055616 0.084254 -0.053638 1.000000
-0.239821 -0.091532 -0.039421 1.000000
-0.113203 0.063372 0.077469 1.000000
-0.228175 0.045201 0.089262 1.000000
0.160214 0.014063 0.099056 1.000000
0.282306 -0.093953 0.033632 1.000000
-0.004751 -0.087538 0.048065 1.000000
-0.032960 -0.063641 0.077070 1.000000
0.233728 -0.016430 -0.098282 1.000000
-0.314430 -0.040521 -0.091020 1.000000
0.318907 0.003570 0.099961 1.000000
-0.177892 0.033697 0.094204 1.000000
-0.379174 -0.050731 0.086102 1.000000
0.190251 -0.026409 -0.096080 1.000000
-0.167217 0.082027 0.057278 1.000000
0.155855 -0.098490 -0.015461 1.000000
-0.086715 -0.098895 -0.012904 1.000000
-0.021566 0.061565 0.078872 1.000000
0.171130 -0.036040 0.093277 1.000000
0.246730 0.075170 0.066021 1.000000
-0.348108 0.055012 -0.083225 1.000000
-0.175091 0.066052 0.075151 1.000000
0.128572 -0.081582 0.057589 1.000000
-0.269215 -0.098071 0.018466 1.000000
0.430280 -0.066213 -0.074441 1.000000
0.016181 -0.092757 -0.036591 1.000000
0.129946 -0.051213 -0.085454 1.000000
-0.006119 -0.099007 0.012456 1.000000
-0.144377 -0.086230 -0.049946 1.000000
0.122826 0.096355 -0.026422 1.000000
-0.207236 -0.042536 0.090501 1.000000
-0.410280 -0.007880 -0.099347 1.000000
-0.144678 0.083458 0.055172 1.000000
-0.325113 -0.086437 -0.049597 1.000000
0.310729 0.022704 -0.097073 1.000000
0.288792 0.095287 0.030462 1.000000
-0.403124 -0.088833 -0.045161 1.000000
0.436040 0.096175 -0.027043 2.000000
-0.371986 -0.071248 -0.069648 1.000000
-0.032202 0.088778 0.046089 1.000000
-0.198527 -0.095527 -0.028469 1.000000
0.101282 -0.096385 0.025878 1.000000
-0.037885 0.072681 -0.068449 1.000000
0.074469 0.047492 0.088095 1.000000
-0.377123 -0.032076 0.094704 1.000000
0.054256 0.010332 -0.099137 1.000000
-0.393601 -0.032169 -0.094308 1.000000
0.354549 0.099965 0.001465 1.000000
0.247752 0.092512 -0.037696 1.000000
-0.439566 0.098429 -0.017318 3.000000
0.397846 0.100002 0.000276 1.000000
-0.003268 0.081329 -0.057942 1.000000
-0.320045 -0.003349 -0.099598 1.000000
-0.291196 0.089748 0.044184 1.000000
-0.189045 -0.070093 0.071166 1.000000
-0.421667 0.089052 -0.045189 1.000000
-0.179283 0.099837 -0.005187 1.000000
-0.011293 0.026612 -0.096089 1.000000
0.037736 -0.018025 0.098392 1.000000
0.429591 0.092809 -0.037010 1.000000
-0.250792 0.099939 0.002279 1.000000
-0.450959 -0.005499 0.099893 3.000000
-0.239225 0.049135 -0.086821 1.000000
-0.205310 -0.099767 0.000340 1.000000
0.326105 -0.069755 -0.071141 1.000000
0.336173 0.039990 -0.091351 1.000000
0.331165 -0.096530 0.025380 1.000000
-0.446338 0.048907 -0.086956 3.000000
-0.251562 -0.077445 0.063084 1.000000
-0.430292 -0.026107 -0.096167 1.000000
-0.390428 -0.039946 0.091631 1.000000
0.078130 0.079498 -0.060376 1.000000
-0.203159 -0.060531 -0.079129 1.000000
-0.134452 -0.042083 -0.090344 1.000000
-0.231749 -0.099579 -0.005973 1.000000
0.208612 0.091747 -0.039465 1.000000
0.268744 0.039258 -0.091667 1.000000
0.195474 0.061879 0.078628 1.000000
0.225914 0.084051 0.054299 1.000000
-0.426596 0.084709 -0.052914 3.000000
0.328727 -0.041405 -0.090637 1.000000
0.068499 -0.072428 -0.068468 1.000000
-0.466823 -0.012135 0.099308 3.000000
-0.004170 0.002054 0.100009 1.000000
-0.268126 0.067305 0.074046 1.000000
0.199543 -0.099688 0.002853 1.000000
0.086885 -0.076341 -0.064066 1.000000
-0.139840 -0.057770 0.081554 1.000000
0.063024 0.074796 0.066446 1.000000
-0.146254 0.097536 -0.021668 1.000000
-0.449930 0.095554 0.029541 3.000000
-0.221910 0.096899 0.024882 1.000000
0.216756 -0.043419 0.090051 1.000000
-0.466590 0.016876 -0.098248 3.000000
0.209157 0.092822 0.037342 1.000000
-0.204325 0.025332 0.096823 1.000000
-0.298640 -0.074504 -0.066150 1.000000
0.112727 0.076612 -0.064023 1.000000
-0.200188 0.086660 -0.049614 1.000000
-0.298555 0.066100 0.075109 1.000000
-0.199727 0.099109 -0.013027 1.000000
-0.073467 0.023729 -0.096844 1.000000
0.101886 -0.035007 0.093649 1.000000
0.077556 0.024317 -0.096712 1.000000
0.378972 0.071170 -0.069960 1.000000
0.081270 0.099307 -0.011394 1.000000
0.156173 0.019047 0.098253 1.000000
-0.239538 -0.094076 0.033290 1.000000
0.057625 -0.086340 -0.049760 1.000000
0.183856 0.096911 0.024827 1.000000
0.256065 -0.000173 -0.099698 1.000000
-0.273385 0.015035 -0.098540 1.000000
-0.189050 0.008163 0.099705 1.000000
-0.183877 0.015052 0.098900 1.000000
0.464638 0.060108 -0.079639 2.000000
-0.382600 -0.046451 -0.088143 1.000000
0.126479 -0.007049 -0.099426 1.000000
-0.007550 -0.095584 -0.028272 1.000000
0.374702 0.020028 0.098034 1.000000
-0.142061 -0.025185 0.096798 1.000000
0.111757 0.009186 0.099609 1.000000
-0.173965 0.053467 -0.084260 1.000000
-0.408875 -0.098970 -0.012429 1.000000
0.410316 0.009971 -0.099171 1.000000
0.089459 -0.035590 -0.093076 1.000000
0.214579 0.034986 -0.093377 1.000000
0.340446 -0.056028 -0.082375 1.000000
0.240016 0.038624 0.092304 1.000000
-0.371754 0.094537 0.032659 1.000000
-0.251155 0.047710 0.087984 1.000000
0.166451 0.098701 0.015960 1.000000
-0.033567 0.042276 -0.090361 1.000000
-0.075184 0.017881 -0.098089 1.000000
0.465291 -0.099732 0.001466 2.000000
-0.424808 0.097952 -0.019804 1.000000
0.295726 -0.034969 -0.093299 1.000000
-0.285347 -0.099571 0.006497 1.000000
0.005031 0.050151 -0.086220 1.000000
-0.146148 0.082958 -0.055545 1.000000
0.148854 0.084057 -0.053928 1.000000
-0.087022 -0.061954 -0.078026 1.000000
0.109597 -0.068996 -0.071900 1.000000
0.199823 -0.098551 0.015434 1.000000
-0.148388 0.046847 0.088423 1.000000
-0.019951 -0.074579 -0.066065 1.000000
-0.027593 0.049573 -0.086562 1.000000
0.419713 0.091210 0.041068 1.000000
0.375113 0.006544 -0.099495 1.000000
0.087258 0.061541 -0.078527 1.000000
0.109218 -0.035638 0.093422 1.000000
-0.248204 0.076732 -0.063887 1.000000
-0.381234 0.073275 -0.067808 1.000000
0.194305 0.063236 -0.077212 1.000000
-0.325315 0.072052 0.069440 1.000000
0.202586 0.054631 0.083846 1.000000
0.419121 0.053440 -0.084276 1.000000
0.039379 0.061849 0.078651 1.000000
-0.187654 0.017758 -0.098108 1.000000
-0.331405 -0.065847 -0.074763 1.000000
0.181427 -0.094081 0.033275 1.000000
-0.024659 -0.099672 0.003364 1.000000
-0.025170 0.093393 0.035835 1.000000
-0.295068 -0.028196 0.095923 1.000000
0.345043 -0.006537 -0.099474 1.000000
-0.453023 0.099993 0.000579 3.000000
0.112465 -0.092984 0.036324 1.000000
0.433404 0.000629 -0.099691 1.000000
-0.406517 -0.001788 0.100010 1.000000
0.260880 0.096391 -0.026299 1.000000
-0.000543 0.007677 0.099751 1.000000
0.438363 0.088387 0.046857 2.000000
0.119094 0.098209 -0.018657 1.000000
-0.217792 -0.006270 -0.099499 1.000000
-0.010167 -0.005559 0.099892 1.000000
-0.103415 -0.095169 -0.029701 1.000000
0.155672 0.067355 -0.073640 1.000000
0.191981 0.095800 -0.028334 1.000000
-0.435885 -0.096685 0.024793 3.000000
-0.225480 0.097036 -0.023905 1.000000
-0.203929 -0.095658 0.028381 1.000000
0.030089 -0.001654 0.100014 1.000000
-0.427851 0.087730 -0.047783 3.000000
-0.094896 0.098637 0.016366 1.000000
-0.398310 0.041399 -0.090741 1.000000
-0.116541 0.096740 -0.025097 1.000000
0.246205 0.039632 0.091868 1.000000
-0.261599 -0.053879 -0.083836 1.000000
0.044623 -0.063677 -0.076677 1.000000
-0.211473 -0.007279 -0.099404 1.000000
-0.018468 0.001408 0.100029 1.000000
0.309786 -0.099541 0.006808 1.000000
0.023114 0.099221 -0.012304 1.000000
-0.337230 -0.008349 -0.099303 1.000000
-0.320086 0.098694 0.016009 1.000000
0.261946 -0.096267 0.026286 1.000000
0.279715 0.096348 0.026811 1.000000
0.074620 0.054913 0.083655 1.000000
0.078185 0.098098 -0.019153 1.000000
-0.455516 0.081352 -0.057909 3.000000
-0.018239 -0.082444 -0.055958 1.000000
0.093400 -0.068047 -0.072823 1.000000
0.285513 0.038973 0.092153 1.000000
0.154661 0.065066 0.076020 1.000000
0.327516 -0.069420 0.071838 1.000000
-0.223730 0.066885 -0.074054 1.000000
-0.356403 -0.046513 0.088474 1.000000
0.385414 -0.076315 0.064458 1.000000
-0.171100 -0.088860 0.045470 1.000000
0.033650 -0.093749 -0.033837 1.000000
0.251060 0.009149 -0.099249 1.000000
-0.216905 0.099767 0.006892 1.000000
0.076526 0.090936 0.041702 1.000000
0.025134 0.055621 0.083174 1.000000
-0.097709 0.031623 0.094951 1.000000
0.024042 -0.088548 -0.045718 1.000000
0.151174 0.076764 0.064214 1.000000
-0.420450 -0.096832 -0.023774 1.000000
0.296468 0.085464 0.052000 1.000000
-0.034387 0.020353 0.097961 1.000000
-0.107722 0.050496 0.086379 1.000000
0.333406 -0.025972 0.096569 1.000000
-0.008474 -0.004398 -0.099565 1.000000
-0.067709 0.099808 0.006444 1.000000
0.463259 0.097373 0.022758 2.000000
-0.319611 0.099625 -0.008023 1.000000
0.428172 -0.049147 0.087039 2.000000
-0.075729 -0.048793 -0.086886 1.000000
0.404592 0.013425 -0.098795 1.000000
-0.351260 0.064502 0.076518 1.000000
-0.047406 0.027267 0.096261 1.000000
0.377903 -0.094101 0.033221 1.000000
0.352264 -0.036198 0.093220 1.000000
0.464353 -0.049342 0.086924 2.000000
-0.077954 0.073293 0.068151 1.000000
-0.382348 -0.074065 0.067011 1.000000
0.355227 -0.020827 0.097803 1.000000
0.044502 -0.093015 0.036238 1.000000
-0.251267 0.033124 0.094411 1.000000
-0.025694 0.099544 0.009244 1.000000
-0.108702 -0.036447 0.093130 1.000000
0.456169 -0.078366 -0.061534 2.000000
0.121546 -0.065910 -0.074708 1.000000
-0.115350 0.034082 0.094066 1.000000
-0.384251 -0.044203 0.089652 1.000000
0.183968 0.089868 -0.043586 1.000000
0.403962 -0.017605 -0.098096 1.000000
0.397808 0.066536 -0.074362 1.000000
-0.162383 0.072824 0.068668 1.000000
-0.094305 -0.015939 -0.098359 1.000000
0.299582 0.016602 0.098654 1.000000
-0.400233 0.089206 0.045250 1.000000
0.372960 0.050535 -0.085993 1.000000
0.230882 -0.065004 0.075869 1.000000
0.130255 0.089786 0.044111 1.000000
-0.452018 -0.030908 -0.094761 3.000000
-0.363656 0.097215 -0.023102 1.000000
-0.209971 -0.080824 0.058704 1.000000
0.443132 0.036837 -0.092711 2.000000
0.332940 -0.097873 0.019477 1.000000
-0.089020 0.036629 -0.092786 1.000000
-0.380404 -0.068192 -0.072696 1.000000
0.393594 0.091914 0.039442 1.000000
0.321519 -0.042921 -0.089942 1.000000
0.117296 0.093376 0.035883 1.000000
-0.154040 -0.000829 -0.099677 1.000000
0.052424 -0.010706 0.099443 1.000000
0.404720 -0.042712 -0.090048 1.000000
0.449659 0.038568 -0.091966 2.000000
-0.117658 -0.091257 -0.040058 1.000000
0.380066 0.095168 0.030871 1.000000
0.207724 0.057860 0.081652 1.000000
-0.234689 0.098582 0.016715 1.000000
-0.000640 0.080148 0.059900 1.000000
0.261556 -0.012752 -0.098864 1.000000
-0.296115 -0.078816 -0.060954 1.000000
0.378648 -0.075290 -0.065258 1.000000
0.239415 0.084479 -0.053302 1.000000
0.152055 0.038542 0.092340 1.000000
-0.182128 0.027398 -0.095860 1.000000
0.210658 -0.092721 -0.036675 1.000000
-0.460733 0.098251 -0.018440 3.000000
-0.308999 0.013542 -0.098776 1.000000
0.079298 -0.012907 0.099202 1.000000
0.042721 -0.037408 0.092729 1.000000
-0.048043 0.086551 -0.049799 1.000000
0.065805 -0.089262 -0.044318 1.000000
0.254913 0.031032 -0.094801 1.000000
0.058065 0.040849 -0.090978 1.000000
-0.188984 -0.095833 -0.027417 1.000000
-0.132998 0.099827 -0.005475 1.000000
-0.400287 0.072782 -0.068347 1.000000
-0.090114 -0.067958 0.073265 1.000000
0.353233 -0.073291 0.067888 1.000000
0.149454 -0.083049 0.055431 1.000000
0.355142 -0.047586 0.087928 1.000000
-0.122503 -0.095976 -0.026925 1.000000
-0.314621 -0.072964 0.068260 1.000000
-0.245733 0.089364 0.044940 1.000000
-0.003001 0.047756 0.087960 1.000000
0.103497 -0.074989 0.065962 1.000000
0.136236 0.018019 -0.098067 1.000000
-0.465804 -0.086219 0.050328 3.000000
0.169236 0.085116 0.052588 1.000000
0.198930 0.026948 0.096354 1.000000
0.160579 0.026784 0.096401 1.000000
-0.168280 0.088417 -0.046435 1.000000
0.079536 0.099617 0.008475 1.000000
-0.061422 0.093322 0.036033 1.000000
0.044896 0.024629 -0.096643 1.000000
-0.036344 -0.058796 -0.080475 1.000000
0.439453 -0.074558 0.066451 2.000000
-0.065211 -0.075996 0.064820 1.000000
-0.090826 0.077074 0.063862 1.000000
0.215665 -0.014107 0.099012 1.000000
-0.247817 0.002896 -0.099620 1.000000
0.013028 0.089672 -0.043972 1.000000
-0.157307 0.052478 0.085207 1.000000
-0.223604 -0.069077 -0.071819 1.000000
0.157045 0.088441 0.046751 1.000000
-0.308467 0.089515 0.044642 1.000000
-0.208205 0.077759 -0.062618 1.000000
-0.458288 -0.053565 0.084413 3.000000
-0.336240 -0.003729 0.099949 1.000000
-0.388346 -0.088242 0.046683 1.000000
-0.213204 0.097373 -0.022398 1.000000
0.015920 0.059891 -0.079807 1.000000
0.188768 0.099996 -0.000114 1.000000
-0.383727 0.047884 -0.087532 1.000000
0.321662 0.098619 -0.016119 1.000000
-0.154218 -0.073476 0.067679 1.000000
-0.274627 0.026431 0.096504 1.000000
0.170299 -0.098906 -0.012830 1.000000
-0.216447 0.084375 -0.053460 1.000000
0.111770 -0.072871 0.068365 1.000000
-0.206447 0.009039 -0.099260 1.000000
0.035140 -0.064462 -0.075985 1.000000
-0.078017 0.083089 0.055715 1.000000
0.020189 -0.027678 0.096074 1.000000
-0.347287 0.014675 0.098959 1.000000
0.455165 0.099930 0.002562 2.000000
-0.266815 0.023978 0.097151 1.000000
-0.422498 -0.098379 0.016522 1.000000
-0.102692 -0.011832 -0.098973 1.000000
0.197934 0.067053 0.074269 1.000000
0.222633 0.058221 0.081407 1.000000
-0.377297 0.035730 -0.093110 1.000000
-0.432277 -0.020551 0.097865 3.000000
-0.326270 0.099946 -0.001713 1.000000
-0.038501 0.000748 0.100050 1.000000
-0.306957 0.095057 0.031213 1.000000
0.443390 -0.099334 0.009000 2.000000
0.452309 -0.039655 -0.091394 2.000000
0.230880 0.077887 -0.062453 1.000000
-0.346451 -0.011662 -0.098990 1.000000
-0.069491 -0.099217 0.010239 1.000000
-0.328694 -0.005678 0.099888 1.000000
0.126722 -0.099415 -0.007783 1.000000
0.035943 -0.099748 0.000935 1.000000
-0.045120 0.074738 -0.066149 1.000000
-0.177592 -0.018350 -0.097978 1.000000
-0.089310 0.091434 -0.040188 1.000000
0.087185 -0.009807 -0.099165 1.000000
-0.458722 -0.060305 -0.079305 3.000000
0.418774 -0.055339 -0.082844 1.000000
0.108435 -0.045809 -0.088471 1.000000
0.226156 -0.054799 -0.083211 1.000000
0.128371 0.087779 -0.047687 1.000000
0.440876 0.098833 -0.014764 2.000000
-0.132102 0.055472 0.083275 1.000000
-0.239122 0.061062 0.079261 1.000000
0.147624 -0.093301 0.035444 1.000000
-0.181184 0.098552 -0.016543 1.000000
-0.161281 -0.000455 -0.099689 1.000000
-0.387213 -0.099197 -0.010091 1.000000
0.425998 -0.091746 -0.038928 1.000000
0.393021 -0.007768 -0.099358 1.000000
-0.400441 0.054624 0.083851 1.000000
0.170008 0.064684 -0.075994 1.000000
-0.129396 0.025507 -0.096410 1.000000
-0.302722 -0.059650 -0.079813 1.000000
0.132106 -0.080827 -0.058337 1.000000
-0.466909 -0.059963 -0.079570 3.000000
0.290710 -0.089631 0.043955 1.000000
0.127824 0.092454 0.038193 1.000000
0.415498 0.099866 0.004621 1.000000
0.279544 -0.040947 0.091198 1.000000
0.110686 0.024440 0.097048 1.000000
-0.102092 0.045832 0.088940 1.000000
-0.155760 -0.016848 0.098578 1.000000
-0.116103 -0.069516 -0.071380 1.000000
-0.219241 -0.081761 -0.056963 1.000000
-0.306829 -0.095995 -0.026859 1.000000
0.370641 -0.049002 -0.086762 1.000000
-0.457797 -0.087061 0.048903 3.000000
-0.267731 -0.010864 -0.099065 1.000000
-0.283097 0.053281 0.084733 1.000000
0.422474 -0.032539 0.094537 2.000000
0.041106 -0.052791 0.084884 1.000000
-0.337779 0.069824 0.071668 1.000000
-0.101291 -0.093219 -0.035307 1.000000
-0.152609 -0.037599 -0.092284 1.000000
-0.438185 0.088649 0.046342 1.000000
0.431642 0.017651 0.098488 2.000000
-0.399146 0.065649 -0.075144 1.000000
0.287692 -0.085533 -0.051125 1.000000
-0.044618 -0.020696 -0.097469 1.000000
0.085975 -0.030373 -0.094928 1.000000
0.192459 0.026148 0.096586 1.000000
0.464861 0.028786 -0.095457 2.000000
-0.409681 0.005406 0.099904 1.000000
-0.106827 0.055866 -0.082645 1.000000
0.423404 -0.097974 -0.018663 1.000000
-0.115375 -0.019507 -0.097735 1.000000
-0.099995 -0.078709 0.061454 1.000000
-0.302084 -0.086390 -0.049676 1.000000
0.062419 -0.083612 -0.054239 1.000000
0.432661 0.002496 0.099995 2.000000
0.429600 0.037246 -0.092538 1.000000
0.463715 -0.066837 -0.073891 2.000000
0.402240 -0.058512 0.081050 1.000000
0.164662 -0.082066 0.056877 1.000000
-0.325963 0.052962 0.084921 1.000000
0.319225 0.099902 -0.003116 1.000000
0.320365 -0.051186 0.085833 1.000000
0.303413 0.068276 -0.072827 1.000000
-0.023646 -0.082633 0.056042 1.000000
-0.392800 0.084711 -0.052909 1.000000
0.180714 0.069791 0.071701 1.000000
-0.073393 -0.023993 -0.096733 1.000000
0.266446 -0.093273 -0.035157 1.000000
-0.171553 0.059404 0.080547 1.000000
0.176337 -0.094784 -0.030962 1.000000
-0.161611 -0.062460 0.077996 1.000000
-0.033444 -0.068676 -0.072220 1.000000
-0.063793 -0.050628 0.086163 1.000000
0.219373 0.049292 -0.086728 1.000000
0.262499 -0.084452 0.053315 1.000000
-0.070738 -0.085816 0.051009 1.000000
-0.318661 0.028030 -0.095676 1.000000
0.030130 0.064723 0.076323 1.000000
-0.264397 -0.065435 -0.075127 1.000000
-0.331775 0.087285 0.048921 1.000000
-0.107194 -0.069111 -0.071785 1.000000
-0.420413 0.082416 0.056705 1.000000
0.002228 0.093708 -0.034597 1.000000
0.045188 -0.099339 -0.008586 1.000000
0.061754 0.096114 0.027615 1.000000
0.089818 0.086876 0.049612 1.000000
0.322095 -0.098710 -0.014067 1.000000
-0.434604 -0.052262 0.085197 3.000000
0.145992 0.095993 0.028032 1.000000
0.003579 0.057165 0.082124 1.000000
-0.068868 -0.016009 0.098711 1.000000
0.206891 0.079573 -0.060279 1.000000
0.156622 -0.083127 0.055316 1.000000
0.239192 0.019414 0.098171 1.000000
-0.192856 -0.041801 -0.090466 1.000000
-0.040876 0.099273 -0.011751 1.000000
-0.096808 -0.033815 0.094078 1.000000
0.110293 0.030413 -0.094984 1.000000
-0.069532 -0.087599 -0.047582 1.000000
-0.067775 0.099966 -0.001069 1.000000
-0.413136 -0.030125 0.095363 1.000000
-0.265576 0.050315 0.086486 1.000000
0.217124 0.043594 0.090081 1.000000
-0.451726 -0.076018 0.064795 3.000000
0.169685 0.052275 0.085327 1.000000
0.154815 0.099969 0.001346 1.000000
0.006030 -0.087087 0.048859 1.000000
-0.089258 -0.010885 0.099426 1.000000
-0.233532 -0.047562 -0.087577 1.000000
-0.190216 -0.006454 0.099845 1.000000
-0.098961 0.021472 0.097711 1.000000
-0.270877 -0.045979 -0.088384 1.000000
0.062727 0.090362 0.042981 1.000000
-0.396549 0.098283 0.018600 1.000000
0.177018 -0.031757 0.094819 1.000000
-0.012269 0.004755 -0.099561 1.000000
-0.377109 -0.061639 0.078633 1.000000
-0.409103 0.099863 -0.004339 1.000000
-0.017408 -0.063567 0.077136 1.000000
0.233144 0.043919 0.089915 1.000000
0.150723 -0.032611 -0.094149 1.000000
0.115629 0.098433 0.017652 1.000000
-0.070906 -0.009307 -0.099212 1.000000
0.057854 0.099885 -0.003647 1.000000
0.117060 -0.099746 0.001010 1.000000
-0.059343 -0.029024 0.095683 1.000000
0.315072 0.064524 -0.076135 1.000000
-0.143933 0.099687 0.007734 1.000000
0.201707 -0.084998 -0.052030 1.000000
0.214958 0.019931 -0.097693 1.000000
0.105559 -0.093141 0.035889 1.000000
0.079955 -0.092653 0.037194 1.000000
-0.268826 0.083985 -0.054034 1.000000
-0.261831 0.096295 0.026990 1.000000
0.117540 -0.074391 0.066641 1.000000
0.415287 0.045692 -0.088649 1.000000
-0.433001 0.062827 0.077893 1.000000
-0.205188 0.067309 -0.073680 1.000000
0.067837 0.009395 -0.099226 1.000000
-0.422048 -0.011757 -0.098981 1.000000
-0.125609 0.098751 0.015648 1.000000
-0.344850 0.050010 0.086666 1.000000
-0.357486 -0.040998 0.091176 1.000000
0.158909 0.012973 -0.098866 1.000000
-0.083102 0.036294 0.093269 1.000000
0.170057 -0.074097 0.066974 1.000000
0.115464 -0.008466 -0.099292 1.000000
0.108992 0.035820 -0.093077 1.000000
0.418704 -0.092022 0.038651 1.000000
0.395498 -0.036335 0.093170 1.000000
-0.195118 -0.052826 -0.084500 1.000000
-0.408338 0.072708 -0.068421 1.000000
-0.081257 -0.096260 -0.025947 1.000000
0.234723 0.015804 -0.098418 1.000000
0.307660 -0.044788 0.089354 1.000000
0.239750 0.066094 -0.074751 1.000000
0.422723 -0.089032 0.045133 2.000000
-0.410627 0.092650 -0.037377 1.000000
0.158353 0.071339 -0.069791 1.000000
-0.045668 0.002647 0.099990 1.000000
0.273579 -0.042802 0.090365 1.000000
-0.233528 0.039632 -0.091505 1.000000
-0.093958 -0.037391 -0.092374 1.000000
-0.146218 -0.098043 -0.018281 1.000000
0.140948 -0.088975 -0.044881 1.000000
-0.249616 -0.005106 0.099906 1.000000
-0.364958 -0.086533 -0.049434 1.000000
0.454421 -0.018473 0.098321 2.000000
-0.023380 0.036526 -0.092823 1.000000
0.194977 -0.095130 -0.029835 1.000000
-0.238215 0.067165 -0.073807 1.000000
-0.331704 -0.079003 -0.060713 1.000000
0.221096 -0.026043 -0.096186 1.000000
-0.017649 0.018334 -0.098017 1.000000
-0.123773 0.033618 0.094233 1.000000
0.231745 0.099546 0.009224 1.000000
0.176970 0.052448 -0.084862 1.000000
-0.074524 0.022971 0.097376 1.000000
0.417859 -0.099260 -0.009426 1.000000
-0.425061 0.093653 0.035113 1.000000
-0.409980 0.038136 0.092515 1.000000
0.000483 0.094275 0.033387 1.000000
-0.081293 -0.012620 0.099248 1.000000
-0.371417 -0.096923 -0.023364 1.000000
0.338976 -0.038321 0.092334 1.000000
-0.183411 -0.045839 -0.088455 1.000000
-0.041440 -0.090588 -0.041602 1.000000
-0.267924 0.034440 -0.093574 1.000000
0.033459 0.090037 -0.043255 1.000000
-0.022572 0.050496 0.086379 1.000000
0.387433 0.096225 -0.026869 1.000000
-0.143289 0.061179 0.079170 1.000000
-0.055917 -0.034664 0.093772 1.000000
-0.321505 0.068921 -0.072209 1.000000
-0.102202 -0.005259 -0.099538 1.000000
-0.070692 0.029268 -0.095317 1.000000
0.063382 0.092956 0.037034 1.000000
-0.230720 0.046575 -0.088199 1.000000
0.304514 -0.094398 0.032396 1.000000
-0.265990 0.053573 -0.084197 1.000000
-0.446920 0.098273 -0.018302 3.000000
0.324173 -0.094322 -0.032244 1.000000
0.198512 -0.029851 0.095442 1.000000
-0.284247 -0.072745 0.068508 1.000000
-0.402888 0.081821 -0.057219 1.000000
0.330037 0.001143 0.100038 1.000000
0.220284 -0.099633 -0.004223 1.000000
-0.444158 0.099657 0.008053 3.000000
0.032093 0.036667 0.093135 1.000000
0.249035 0.099965 -0.001109 1.000000
-0.042863 -0.099400 0.008299 1.000000
0.089043 -0.051513 0.085640 1.000000
0.024323 -0.078119 0.062216 1.000000
-0.387885 -0.004120 0.099937 1.000000
0.430689 0.040743 0.091387 2.000000
0.422726 -0.038681 0.092179 2.000000
0.139652 0.017537 0.098506 1.000000
-0.184297 -0.092018 0.038662 1.000000
-0.346900 -0.097572 -0.020461 1.000000
-0.371410 -0.099728 -0.001226 1.000000
-0.237126 -0.054474 0.083794 1.000000
-0.466363 0.002567 -0.099630 3.000000
-0.019911 -0.098290 -0.016720 1.000000
0.181582 -0.001427 -0.099659 1.000000
-0.247037 -0.091514 -0.039463 1.000000
0.006932 0.095589 -0.029059 1.000000
-0.091720 -0.002624 0.099984 1.000000
0.225352 -0.068978 0.072281 1.000000
-0.068752 -0.099700 0.002459 1.000000
0.252874 0.068600 -0.072530 1.000000
-0.321405 -0.071019 0.070240 1.000000
0.360047 0.005170 0.099911 1.000000
0.052499 -0.092111 0.038446 1.000000
-0.105878 -0.088986 0.045222 1.000000
-0.018983 0.099791 -0.006268 1.000000
-0.131823 -0.095992 -0.026867 1.000000
0.443373 -0.086981 -0.048677 2.000000
-0.385075 -0.098948 0.012928 1.000000
-0.006946 0.010636 0.099471 1.000000
0.335659 0.056108 0.082843 1.000000
-0.253119 -0.098122 0.018143 1.000000
-0.168548 -0.015468 0.098797 1.000000
0.405093 0.097829 -0.020358 1.000000
-0.129226 0.078673 0.061801 1.000000
-0.366586 0.093911 -0.034034 1.000000
-0.264975 0.002321 -0.099638 1.000000
-0.155666 0.030571 -0.094938 1.000000
-0.055844 0.098969 0.014271 1.000000
-0.030863 -0.013689 0.099079 1.000000
-0.101664 0.092954 -0.036675 1.000000
0.022923 0.098314 0.018408 1.000000
-0.389870 0.043888 -0.089568 1.000000
-0.181817 -0.025440 -0.096361 1.000000
0.128952 -0.084201 -0.053373 1.000000
0.028561 -0.088887 0.045416 1.000000
-0.187902 -0.057431 -0.081422 1.000000
-0.068861 -0.067771 0.073430 1.000000
0.103116 -0.098888 -0.012946 1.000000
-0.024428 0.090174 0.043350 1.000000
0.436258 0.082583 -0.056096 1.000000
0.009599 0.075085 -0.065756 1.000000
-0.149082 -0.022741 0.097375 1.000000
-0.181518 0.099935 0.002430 1.000000
0.384883 0.038641 0.092297 1.000000
-0.233294 0.082786 0.056160 1.000000
-0.190247 0.055007 -0.083228 1.000000
-0.395251 -0.086669 0.049566 1.000000
0.030445 0.081536 -0.057637 1.000000
0.191731 -0.078048 -0.061944 1.000000
0.216547 -0.094491 0.032138 1.000000
0.336491 -0.038841 -0.091747 1.000000
-0.029885 0.037072 -0.092613 1.000000
0.009230 -0.006745 0.099817 1.000000
0.140573 -0.094752 0.031412 1.000000
-0.431618 0.099968 0.001374 1.000000
-0.419938 0.049502 0.086967 1.000000
0.188028 -0.066714 0.074362 1.000000
-0.266288 0.062912 -0.077464 1.000000
-0.026107 0.087961 -0.047329 1.000000
0.203360 0.094942 0.031534 1.000000
0.104913 0.095326 0.030327 1.000000
-0.250190 -0.067371 0.073783 1.000000
0.357469 0.099348 -0.010962 1.000000
0.367698 0.090922 0.041733 1.000000
-0.010556 -0.097746 0.020045 1.000000
0.372390 -0.099469 0.007576 1.000000
-0.201378 0.083466 -0.054798 1.000000
0.398143 0.030947 0.095192 1.000000
0.438303 0.057426 -0.081584 1.000000
-0.464090 -0.064750 -0.075730 3.000000
-0.103882 -0.076786 -0.063561 1.000000
-0.350637 0.087701 -0.047839 1.000000
0.079602 0.054307 -0.083704 1.000000
0.110655 0.021274 -0.097392 1.000000
-0.209896 -0.008567 0.099645 1.000000
0.220642 0.086415 0.050390 1.000000
0.393460 -0.054550 0.083743 1.000000
0.389713 0.001924 0.100013 1.000000
-0.209094 -0.063105 -0.077133 1.000000
0.235084 -0.097007 0.023354 1.000000
0.297834 -0.009825 0.099526 1.000000
-0.367764 -0.086765 0.049404 1.000000
0.116152 -0.048592 0.087367 1.000000
-0.226377 -0.094341 -0.032190 1.000000
-0.372274 0.055638 0.083162 1.000000
-0.352264 -0.086404 0.050014 1.000000
0.416426 0.098320 0.018366 1.000000
0.139834 0.025807 0.096685 1.000000
-0.255153 0.047170 -0.087896 1.000000
-0.368742 -0.072322 0.068937 1.000000
-0.019758 0.007895 0.099730 1.000000
0.065664 -0.015035 -0.098503 1.000000
-0.252085 0.098983 -0.013818 1.000000
-0.308626 -0.043760 0.089877 1.000000
0.287382 0.082000 -0.056954 1.000000
-0.149763 0.099292 0.011910 1.000000
0.250171 0.081549 -0.057618 1.000000
-0.186653 0.088458 0.046716 1.000000
0.382587 -0.038800 -0.091764 1.000000
0.193443 -0.098147 -0.017625 1.000000
-0.093005 0.081178 -0.058164 1.000000
0.388722 -0.089924 -0.043019 1.000000
0.138243 0.077044 0.063896 1.000000
0.417607 -0.098230 0.017464 1.000000
-0.280035 -0.062039 0.078323 1.000000
0.327527 0.016577 0.098658 1.000000
-0.439664 0.098330 0.018308 3.000000
0.284764 0.097593 0.021775 1.000000
0.142391 0.006678 -0.099483 1.000000
0.417599 0.092619 -0.037448 1.000000
0.200599 0.097066 -0.023769 1.000000
0.135367 -0.029231 0.095622 1.000000
-0.183557 -0.095163 -0.029723 1.000000
-0.276270 0.043313 0.090224 1.000000
0.310571 0.089062 -0.045168 1.000000
0.247525 -0.099277 0.009604 1.000000
-0.094196 -0.097392 0.021631 1.000000
0.243153 0.072000 -0.069130 1.000000
-0.350211 0.042201 -0.090394 1.000000
0.199789 -0.095722 0.028162 1.000000
0.342000 -0.078131 0.062199 1.000000
-0.162778 0.040889 -0.090962 1.000000
0.380149 0.035122 0.093691 1.000000
0.310808 0.097534 0.022038 1.000000
0.305214 -0.081234 -0.057739 1.000000
0.420607 -0.096952 0.023599 1.000000
0.155875 0.099447 0.010277 1.000000
-0.072942 -0.081894 -0.056768 1.000000
0.346302 0.040638 0.091433 1.000000
0.120461 0.022085 -0.097211 1.000000
0.372149 -0.064905 0.075957 1.000000
-0.412677 -0.097210 0.022445 1.000000
0.312563 0.099944 0.002119 1.000000
0.122044 0.087649 -0.047941 1.000000
-0.266895 -0.049406 0.086886 1.000000
-0.344932 -0.080023 -0.059397 1.000000
0.220820 0.019001 0.098263 1.000000
-0.104218 -0.019400 0.098122 1.000000
-0.342807 -0.078240 0.062059 1.000000
0.123892 0.067735 -0.073305 1.000000
-0.324008 0.047381 0.088151 1.000000
0.075697 -0.045024 0.089233 1.000000
-0.160672 -0.027679 0.096073 1.000000
0.438034 -0.093437 -0.034703 2.000000
-0.012730 -0.013868 -0.098687 1.000000
0.135601 0.071701 0.069791 1.000000
-0.253463 -0.086285 0.050216 1.000000
-0.310918 -0.097959 0.019092 1.000000
-0.110904 -0.020378 0.097903 1.000000
0.082573 0.094291 0.033340 1.000000
0.210857 0.057104 -0.081803 1.000000
0.071593 0.099547 0.009218 1.000000
0.004461 -0.061148 -0.078651 1.000000
-0.423853 0.056867 0.082326 1.000000
0.290380 -0.073951 -0.066777 1.000000
-0.157594 0.046226 -0.088377 1.000000
0.422472 -0.085415 -0.051325 1.000000
0.347208 0.099248 -0.012012 1.000000
-0.128192 -0.063314 0.077333 1.000000
-0.005241 0.026616 0.096450 1.000000
-0.450443 0.044555 -0.089228 3.000000
-0.282723 0.044131 -0.089444 1.000000
0.017311 0.020496 0.097929 1.000000
0.350765 -0.029391 0.095576 1.000000
0.176210 0.072634 0.068858 1.000000
-0.277025 0.086731 0.049856 1.000000
-0.394990 -0.099645 -0.003843 1.000000
-0.165422 0.079314 -0.060612 1.000000
-0.036994 0.099802 0.006522 1.000000
-0.446561 0.098884 0.014804 3.000000
-0.123107 0.084692 -0.052942 1.000000
0.389919 -0.081925 0.057085 1.000000
-0.438121 0.099722 -0.007004 3.000000
0.391931 -0.071056 -0.069840 1.000000
-0.312831 -0.057342 0.081845 1.000000
-0.444978 0.077926 -0.062403 3.000000
-0.006432 -0.093752 0.034189 1.000000
0.250108 -0.078106 0.062232 1.000000
-0.095444 -0.079239 -0.060408 1.000000
0.441908 0.073008 0.068475 2.000000
0.398583 0.061814 -0.078315 1.000000
-0.055193 0.034022 -0.093725 1.000000
-0.429566 0.096828 -0.024794 1.000000
0.213298 0.051047 0.086053 1.000000
0.144197 -0.076209 0.064579 1.000000
0.254743 0.022878 0.097397 1.000000
-0.284486 0.099595 -0.008345 1.000000
-0.407572 -0.048628 0.087346 1.000000
-0.250488 -0.022155 0.097506 1.000000
0.309883 -0.098849 0.013557 1.000000
0.133234 -0.065987 0.075003 1.000000
0.172920 0.067210 0.074130 1.000000
0.374983 -0.099731 0.001474 1.000000
-0.460140 0.096703 0.025589 3.000000
0.448510 0.096657 0.025746 2.000000
0.384276 0.020341 -0.097601 1.000000
-0.113475 0.018750 -0.097951 1.000000
-0.056888 -0.075499 0.065384 1.000000
0.304491 -0.049715 0.086703 1.000000
0.205586 0.099498 -0.009373 1.000000
-0.366269 0.072766 0.068727 1.000000
-0.308433 0.007033 -0.099449 1.000000
-0.389286 -0.083737 0.054418 1.000000
-0.301132 -0.099468 -0.007217 1.000000
-0.381196 -0.080523 -0.058753 1.000000
-0.040676 0.032285 0.094713 1.000000
0.174061 0.099753 0.007035 1.000000
0.217274 0.071373 0.070120 1.000000
-0.217975 -0.026657 -0.096008 1.000000
0.391732 -0.018058 0.098387 1.000000
0.206573 -0.048917 0.087175 1.000000
-0.129490 -0.030394 -0.094922 1.000000
0.393225 0.021904 0.097614 1.000000
0.271328 0.070054 -0.071076 1.000000
0.163774 0.048712 -0.087072 1.000000
-0.230870 -0.008863 0.099617 1.000000
0.044489 0.089663 0.044351 1.000000
0.320711 -0.003098 0.099969 1.000000
0.278536 0.055221 -0.083082 1.000000
-0.318985 0.027673 0.096143 1.000000
-0.396228 0.048421 0.087607 1.000000
-0.288578 0.093786 -0.034382 1.000000
-0.233780 0.099393 0.010843 1.000000
0.095612 -0.097293 0.022072 1.000000
0.160631 0.033296 0.094349 1.000000
0.319060 -0.018147 0.098372 1.000000
-0.130249 -0.090359 -0.042132 1.000000
-0.065561 0.099361 -0.010819 1.000000
0.375822 0.096628 0.025844 1.000000
-0.356080 -0.058394 0.081131 1.000000
0.339713 -0.096651 0.024944 1.000000
-0.289101 0.087142 -0.048799 1.000000
-0.128712 0.015663 -0.098440 1.000000
-0.382882 -0.092391 0.037800 1.000000
-0.185195 0.054495 0.083939 1.000000
0.428987 -0.077558 0.062938 2.000000
-0.434289 0.092029 -0.038813 3.000000
0.004811 0.038635 -0.091937 1.000000
-0.406292 -0.022109 0.097516 1.000000
0.318785 0.050268 0.086514 1.000000
0.416071 0.072840 -0.068289 1.000000
-0.441439 0.001680 -0.099658 3.000000
0.426527 0.081765 -0.057300 1.000000
-0.274194 -0.091827 -0.038739 1.000000
0.005534 0.065056 0.076029 1.000000
0.026136 0.002982 -0.099617 1.000000
-0.281269 0.099859 0.004841 1.000000
-0.350145 -0.059477 -0.079947 1.000000
-0.431216 0.022996 0.097370 1.000000
-0.243278 0.055734 0.083097 1.000000
0.218910 0.062136 0.078428 1.000000
-0.418214 -0.072320 0.068939 1.000000
0.050669 -0.030939 -0.094751 1.000000
0.424696 -0.088414 -0.045983 1.000000
0.429701 0.047877 0.087898 2.000000
-0.233266 -0.006868 -0.099443 1.000000
-0.074873 -0.079602 0.060304 1.000000
-0.447549 0.086017 -0.050700 3.000000
-0.155270 -0.082217 -0.056292 1.000000
-0.062631 0.030191 0.095412 1.000000
-0.399538 -0.064181 0.076594 1.000000
-0.049745 0.081772 0.057653 1.000000
-0.373083 -0.092781 -0.036524 1.000000
0.307104 0.004149 0.099943 1.000000
0.299330 -0.067603 0.073577 1.000000
-0.222367 -0.034191 0.093942 1.000000
0.464951 0.012923 0.099237 2.000000
0.343346 0.007506 0.099767 1.000000
0.074331 -0.061872 -0.078089 1.000000
-0.231528 0.085806 0.051420 1.000000
0.308879 -0.098507 -0.015350 1.000000
0.213454 -0.028680 -0.095420 1.000000
-0.096278 0.016641 -0.098285 1.000000
0.106272 -0.099709 -0.001806 1.000000
-0.407190 -0.028015 -0.095613 1.000000
0.271736 -0.074806 -0.065807 1.000000
-0.329368 0.011750 -0.099003 1.000000
-0.014905 -0.089289 -0.044264 1.000000
-0.373839 0.077347 0.063512 1.000000
0.076929 0.075294 0.065881 1.000000
-0.415549 0.002762 0.099987 1.000000
-0.216194 -0.038157 -0.092043 1.000000
0.024320 0.074045 0.067298 1.000000
-0.203077 0.075809 0.065297 1.000000
0.381665 -0.098541 0.015501 1.000000
-0.213310 0.019991 -0.097679 1.000000
-0.068104 -0.037338 -0.092397 1.000000
0.011554 0.099424 0.010519 1.000000
0.100104 -0.065676 0.075276 1.000000
-0.300461 0.006817 0.099832 1.000000
0.067680 -0.071704 0.069554 1.000000
0.047588 0.095110 0.031066 1.000000
0.234605 0.083503 0.055106 1.000000
-0.429027 -0.062663 0.077839 3.000000
-0.068198 -0.089880 0.043469 1.000000
0.165527 0.085635 -0.051348 1.000000
0.367013 -0.064569 -0.075889 1.000000
0.217087 -0.098464 0.015983 1.000000
-0.028315 0.052878 0.084971 1.000000
-0.416503 -0.004221 -0.099571 1.000000
0.426407 0.033133 0.094407 2.000000
0.336076 0.099712 0.007475 1.000000
-0.143131 -0.084578 0.053103 1.000000
-0.097040 -0.099371 0.008612 1.000000
0.330513 0.018049 -0.098062 1.000000
0.095235 0.077300 0.063572 1.000000
-0.208240 0.052281 0.085324 1.000000
0.313849 0.093993 -0.033806 1.000000
0.290640 -0.099616 -0.004790 1.000000
0.425641 -0.014677 -0.098559 1.000000
-0.186302 0.099903 -0.003060 1.000000
0.415011 0.038413 0.092396 1.000000
0.452882 0.086167 0.050810 2.000000
0.378996 -0.083738 -0.054054 1.000000
0.270145 0.091015 -0.041155 1.000000
-0.263025 0.083743 0.054752 1.000000
-0.044629 0.095021 0.031314 1.000000
0.060640 -0.042295 0.090615 1.000000
-0.207224 -0.032810 -0.094077 1.000000
0.413020 -0.000782 -0.099679 1.000000
-0.373617 0.028343 0.095948 1.000000
0.409055 -0.090044 0.043145 1.000000
-0.088940 0.013670 0.099119 1.000000
-0.442431 0.099981 0.000965 3.000000
0.346122 -0.081062 0.058355 1.000000
-0.453258 0.093956 0.034271 3.000000
0.263113 0.036155 -0.092957 1.000000
0.197037 0.099432 0.010429 1.000000
-0.435546 -0.099737 -0.000936 3.000000
-0.031601 0.001877 -0.099652 1.000000
0.199350 0.074050 0.067292 1.000000
0.448870 0.083184 0.055575 2.000000
-0.234424 -0.068070 -0.072803 1.000000
-0.000372 -0.006533 -0.099474 1.000000
0.377994 0.067029 0.074290 1.000000
-0.150573 0.014242 -0.098665 1.000000
-0.146289 -0.003578 -0.099591 1.000000
0.045444 0.034807 0.093805 1.000000
0.253591 0.064118 -0.076494 1.000000
-0.182624 -0.013196 -0.098794 1.000000
0.326803 0.098463 0.017466 1.000000
0.123566 0.068290 0.073178 1.000000
0.245771 -0.028025 0.095973 1.000000
-0.457901 0.028317 -0.095593 3.000000
-0.186324 -0.052749 -0.084546 1.000000
-0.073862 -0.049167 0.087027 1.000000
0.282303 0.043475 0.090142 1.000000
-0.132724 -0.031094 0.095057 1.000000
-0.251391 0.001747 0.100019 1.000000
0.290067 0.062096 -0.078097 1.000000
0.008703 -0.066644 -0.074060 1.000000
-0.247034 -0.079974 -0.059461 1.000000
-0.291349 -0.071586 -0.069310 1.000000
-0.187125 -0.029364 0.095584 1.000000
0.247398 -0.034659 -0.093411 1.000000
0.352753 0.074632 0.066632 1.000000
0.079323 -0.054318 -0.083538 1.000000
-0.001303 -0.043243 0.090141 1.000000
-0.260750 0.084018 -0.053985 1.000000
-0.100442 0.036652 -0.092778 1.000000
-0.227731 0.087998 -0.047258 1.000000
-0.154524 -0.094680 0.031612 1.000000
0.071888 -0.050215 -0.086044 1.000000
0.029245 0.014182 0.099038 1.000000
0.463199 -0.031806 -0.094438 2.000000
0.409700 0.099922 0.002824 1.000000
0.083832 0.006211 -0.099516 1.000000
-0.084943 0.068592 -0.072538 1.000000
-0.102466 -0.099019 0.012337 1.000000
0.187585 -0.081682 -0.057080 1.000000
-0.045207 -0.046965 0.088245 1.000000
0.171050 0.022163 -0.097194 1.000000
-0.253356 0.093814 0.034666 1.000000
0.325421 -0.098392 0.016439 1.000000
0.454237 0.021934 0.097608 2.000000
-0.289414 0.099003 0.014056 1.000000
0.342982 0.090473 -0.042399 1.000000
-0.056615 0.056908 0.082299 1.000000
0.414787 0.093048 0.036793 1.000000
0.346061 0.099300 0.011830 1.000000
0.346138 -0.065369 -0.075185 1.000000
-0.403051 -0.075736 -0.064753 1.000000
-0.090150 -0.099590 0.005986 1.000000
-0.121164 -0.030864 -0.094777 1.000000
-0.372926 0.055199 -0.083098 1.000000
0.319078 0.073725 0.067661 1.000000
-0.141646 -0.058022 -0.081021 1.000000
-0.465320 -0.087603 -0.047573 3.000000
0.292860 -0.058608 -0.080621 1.000000
0.428144 0.022455 0.097491 2.000000
0.291145 -0.064984 -0.075524 1.000000
0.078014 0.097339 0.022914 1.000000
-0.295200 0.097684 -0.021004 1.000000
0.324168 0.099480 0.009927 1.000000
0.274371 0.089207 -0.044884 1.000000
0.228667 -0.062620 -0.077509 1.000000
-0.129716 0.063621 0.077277 1.000000
0.075525 -0.038776 0.092138 1.000000
0.031526 -0.080250 0.059468 1.000000
-0.350349 0.069433 -0.071696 1.000000
0.346830 -0.057182 -0.081591 1.000000
-0.418845 0.077150 -0.063403 1.000000
0.325651 0.029710 -0.095188 1.000000
-0.337574 0.093592 -0.034921 1.000000
0.257038 -0.050684 0.086130 1.000000
-0.189470 -0.089713 0.043795 1.000000
0.416297 0.085777 -0.051107 1.000000
-0.153181 -0.035531 0.093460 1.000000
0.339027 0.097739 -0.020761 1.000000
-0.060970 0.099688 0.007723 1.000000
0.047891 -0.068884 0.072374 1.000000
0.372082 0.070466 0.071026 1.000000
-0.056795 -0.023572 0.097189 1.000000
-0.420491 -0.057164 0.081966 1.000000
-0.261065 -0.057753 0.081566 1.000000
-0.401634 -0.097840 -0.019265 1.000000
0.153849 -0.090468 -0.041881 1.000000
-0.233367 -0.099210 0.010314 1.000000
-0.343532 0.096465 0.026406 1.000000
0.440725 0.089599 -0.044115 2.000000
-0.026773 0.059428 -0.080166 1.000000
-0.318281 -0.029998 -0.095037 1.000000
0.071147 -0.093898 0.033784 1.000000
0.230786 -0.095727 0.028145 1.000000
-0.108796 0.098812 0.015259 1.000000
-0.167868 -0.010386 -0.099110 1.000000
0.202453 0.096890 0.024921 1.000000
0.464520 -0.077155 0.063458 2.000000
0.303052 -0.098699 -0.014138 1.000000
0.400716 -0.098093 0.018328 1.000000
-0.450298 0.025130 -0.096519 3.000000
0.256814 -0.094906 0.030971 1.000000
0.294409 -0.093846 -0.033566 1.000000
-0.012882 -0.060195 0.079753 1.000000
0.130838 0.048076 0.087797 1.000000
0.113320 0.001498 -0.099664 1.000000
-0.297535 -0.088833 -0.045159 1.000000
-0.079650 0.006828 0.099831 1.000000
0.008316 0.093062 -0.036392 1.000000
0.063319 -0.099656 0.003881 1.000000
0.217723 0.098856 0.014986 1.000000
-0.039487 0.047365 -0.087797 1.000000
-0.186848 -0.097429 0.021464 1.000000
-0.166959 -0.008922 0.099611 1.000000
-0.127448 -0.043753 0.089881 1.000000
0.090443 -0.007176 0.099776 1.000000
-0.401104 -0.094010 -0.033112 1.000000
0.352479 -0.009043 -0.099237 1.000000
0.069798 0.074861 0.066373 1.000000
-0.057828 -0.099027 0.012252 1.000000
0.146016 0.065379 -0.075382 1.000000
0.287234 -0.080027 0.059755 1.000000
0.214126 -0.092187 0.038272 1.000000
-0.110478 -0.086874 0.049219 1.000000
-0.175174 0.093546 -0.035048 1.000000
0.290237 0.022471 0.097488 1.000000
-0.270879 0.062496 0.078149 1.000000
-0.236770 0.043074 0.090346 1.000000
-0.137655 0.097632 -0.021238 1.000000
-0.289600 -0.067265 -0.073513 1.000000
0.397508 0.099608 0.008567 1.000000
0.135142 0.073434 -0.067629 1.000000
-0.028273 -0.013850 -0.098690 1.000000
0.107862 0.004256 0.099940 1.000000
0.139652 0.077767 -0.062607 1.000000
-0.101891 -0.096138 0.026729 1.000000
0.236268 -0.035862 0.093341 1.000000
-0.230987 0.097854 -0.020243 1.000000
0.196093 0.099949 -0.001621 1.000000
-0.340221 -0.099757 -0.000303 1.000000
-0.164323 0.006998 -0.099453 1.000000
0.389195 -0.039692 0.091741 1.000000
-0.412555 0.023909 0.097166 1.000000
-0.388743 0.077062 0.063876 1.000000
0.140573 -0.044943 0.089275 1.000000
0.422291 -0.022830 0.097355 2.000000
0.173983 -0.053391 -0.084166 1.000000
-0.448954 -0.053955 -0.083784 3.000000
0.052047 0.051827 0.085592 1.000000
-0.098396 0.005651 0.099896 1.000000
0.374455 -0.022553 0.097417 1.000000
0.317659 -0.098413 0.016309 1.000000
0.067596 0.083669 -0.054498 1.000000
0.037770 0.079319 -0.060606 1.000000
0.464982 0.047442 0.088120 2.000000
-0.189091 -0.091037 -0.040566 1.000000
-0.146055 0.096993 0.024460 1.000000
0.223098 -0.064914 -0.075586 1.000000
-0.089231 -0.093954 0.033628 1.000000
-0.429181 -0.094974 -0.030374 3.000000
0.254303 0.017426 -0.098161 1.000000
-0.388686 0.069654 -0.071476 1.000000
0.202511 -0.097397 0.021606 1.000000
-0.418297 -0.082592 0.056103 1.000000
-0.123006 0.058519 -0.080841 1.000000
0.002785 -0.099105 0.011428 1.000000
-0.132055 -0.075118 0.065816 1.000000
0.264857 -0.095148 -0.029774 1.000000
0.433320 -0.090612 -0.041546 1.000000
0.143417 0.085990 -0.050746 1.000000
-0.066783 -0.016767 -0.098228 1.000000
-0.084100 -0.047111 -0.087807 1.000000
-0.394760 -0.089881 -0.043103 1.000000
-0.409927 0.078791 -0.061287 1.000000
0.135896 -0.095724 0.028155 1.000000
-0.020200 -0.096837 -0.023752 1.000000
-0.168114 0.063882 -0.076701 1.000000
-0.266741 -0.092549 -0.037071 1.000000
-0.030933 0.097294 0.023112 1.000000
-0.202938 0.049276 0.087101 1.000000
