-0.114134 0.091987 -0.038910 1.000000
0.292020 -0.099609 0.005380 1.000000
-0.152490 0.077155 0.063759 1.000000
-0.365836 0.063217 0.077589 1.000000
0.013575 -0.075504 0.065378 1.000000
0.183061 0.097747 0.021087 1.000000
0.093365 -0.063393 -0.076909 1.000000
0.232167 -0.079708 0.060167 1.000000
0.162607 0.079611 -0.060230 1.000000
-0.154970 0.010133 -0.099156 1.000000
0.048666 -0.078209 -0.061737 1.000000
-0.160027 -0.082696 0.055950 1.000000
-0.054121 -0.095224 0.029873 1.000000
-0.237119 -0.096660 0.024907 1.000000
0.323671 0.017606 -0.098132 1.000000
0.415643 -0.095635 -0.028099 1.000000
-0.411310 -0.089571 0.044073 1.000000
-0.306020 -0.099618 -0.004710 1.000000
-0.346805 -0.093610 0.034584 1.000000
0.011715 -0.061397 0.078821 1.000000
-0.206139 -0.026702 0.096357 1.000000
0.260607 0.084730 0.053241 1.000000
-0.257945 -0.086424 -0.049618 1.000000
0.303870 -0.067786 0.073416 1.000000
0.016739 -0.097402 -0.021224 1.000000
-0.241647 -0.019629 0.098071 1.000000
-0.071020 -0.079873 -0.059591 1.000000
-0.108781 0.094861 0.031759 1.000000
0.464570 0.067908 -0.073152 2.000000
0.094638 -0.052316 0.085165 1.000000
-0.197221 -0.092445 -0.037312 1.000000
-0.118783 0.011887 0.099353 1.000000
0.381401 0.017952 -0.098078 1.000000
-0.187898 0.060966 0.079336 1.000000
0.282537 -0.070047 0.071212 1.000000
-0.046702 -0.085854 0.050945 1.000000
0.093912 -0.022309 -0.097109 1.000000
0.267558 -0.093518 0.034841 1.000000
0.260237 -0.096360 -0.025601 1.000000
0.172887 0.005837 -0.099527 1.000000
-0.059328 -0.099343 0.008902 1.000000
0.175694 -0.097758 -0.019629 1.000000
0.270507 0.096868 -0.024657 1.000000
-0.244425 -0.083396 -0.054557 1.000000
-0.324867 0.005617 -0.099534 1.000000
-0.311470 -0.060015 -0.079530 1.000000
-0.309112 -0.099154 -0.010542 1.000000
0.106680 0.035616 -0.093151 1.000000
0.319723 -0.092708 -0.036705 1.000000
-0.418944 0.098238 0.018888 1.000000
0.441166 -0.099551 0.006705 2.000000
-0.313105 -0.020577 -0.097496 1.000000
0.076698 -0.096593 0.025163 1.000000
0.302250 -0.055764 0.082918 1.000000
-0.423633 -0.087844 0.047463 3.000000
-0.151187 -0.006641 0.099827 1.000000
0.102916 -0.097297 0.022053 1.000000
-0.109064 0.061277 -0.078732 1.000000
0.150449 0.097210 -0.023125 1.000000
-0.020984 -0.065169 0.075724 1.000000
0.302615 0.076762 -0.063854 1.000000
0.215837 0.077197 -0.063342 1.000000
-0.361228 0.027167 0.096290 1.000000
-0.298963 0.083795 0.054676 1.000000
0.147263 -0.084996 -0.052033 1.000000
0.140867 -0.096667 0.024874 1.000000
-0.360170 0.099833 0.005669 1.000000
-0.096112 0.039877 -0.091399 1.000000
0.216356 -0.051261 0.085789 1.000000
-0.055848 -0.097202 0.022479 1.000000
-0.104240 -0.098083 -0.018029 1.000000
0.231500 -0.065766 0.075197 1.000000
0.397831 0.044477 -0.089268 1.000000
-0.041863 0.070936 -0.070194 1.000000
0.082056 -0.098747 0.014200 1.000000
0.440035 -0.034974 0.093660 2.000000
-0.398877 -0.009311 0.099575 1.000000
-0.101066 -0.053313 0.084575 1.000000
-0.055839 0.090998 0.041558 1.000000
0.174927 0.096272 -0.026707 1.000000
-0.273021 0.023930 -0.096799 1.000000
0.005315 -0.010071 0.099503 1.000000
-0.077291 -0.025885 0.096595 1.000000
0.252065 -0.048324 -0.087163 1.000000
-0.312664 -0.078349 -0.061556 1.000000
-0.023949 0.028727 0.095837 1.000000
0.128379 0.042983 0.090392 1.000000
0.076246 -0.068350 0.072909 1.000000
-0.157378 -0.042152 -0.090314 1.000000
-0.387773 0.091557 -0.039903 1.000000
0.271144 -0.082899 -0.055288 1.000000
0.338903 -0.014046 -0.098659 1.000000
0.081239 0.075549 -0.065229 1.000000
-0.051916 0.054931 -0.083279 1.000000
-0.334684 -0.085875 -0.050546 1.000000
-0.461374 -0.098350 0.016702 3.000000
0.075506 0.016603 0.098654 1.000000
0.464804 0.055555 0.083219 2.000000
0.058363 0.095000 -0.031009 1.000000
0.398759 0.081218 -0.058106 1.000000
-0.035137 -0.059576 0.080233 1.000000
0.268715 0.067397 -0.073602 1.000000
-0.319082 0.086131 -0.050508 1.000000
-0.304192 0.038752 -0.091886 1.000000
0.106587 0.011631 -0.099015 1.000000
-0.112170 -0.022708 0.097383 1.000000
0.329783 0.099509 -0.009251 1.000000
-0.159044 -0.050098 0.086477 1.000000
0.207139 -0.075988 0.064829 1.000000
0.147740 0.049958 -0.086335 1.000000
-0.341213 -0.094757 -0.031035 1.000000
-0.021183 -0.058672 0.080935 1.000000
-0.081668 -0.096414 -0.025415 1.000000
-0.286361 0.074677 -0.066218 1.000000
-0.383401 -0.058599 -0.080628 1.000000
0.422519 -0.091478 0.039910 1.000000
0.036880 0.099535 0.009339 1.000000
0.361123 -0.098825 0.013703 1.000000
-0.042590 0.015116 -0.098527 1.000000
0.351316 -0.098067 -0.018127 1.000000
0.309684 -0.058377 -0.080779 1.000000
0.049653 0.099790 0.006648 1.000000
0.384850 -0.055233 -0.082916 1.000000
-0.271128 0.061461 0.078952 1.000000
-0.277846 0.098619 -0.016120 1.000000
-0.416438 0.056739 -0.082051 1.000000
0.304186 -0.044604 0.089447 1.000000
0.086807 0.055756 -0.082719 1.000000
0.138162 -0.058868 0.080782 1.000000
-0.452729 0.010021 0.099530 3.000000
0.021969 0.076753 -0.063864 1.000000
0.119851 0.078329 -0.061883 1.000000
0.365435 -0.058888 0.080767 1.000000
-0.107666 -0.061218 -0.078596 1.000000
0.321272 -0.063483 -0.076839 1.000000
-0.201181 -0.062970 0.077600 1.000000
0.190520 -0.087915 0.047324 1.000000
0.134980 0.024324 0.097074 1.000000
0.070683 -0.096390 -0.025498 1.000000
-0.442151 -0.092069 -0.038180 3.000000
0.380022 -0.024860 -0.096530 1.000000
0.179992 -0.086364 -0.049720 1.000000
-0.012690 0.074330 0.066975 1.000000
-0.030957 -0.045156 0.089166 1.000000
-0.121636 0.096649 0.025772 1.000000
-0.341721 -0.085414 -0.051326 1.000000
0.036838 0.079967 0.060134 1.000000
-0.058373 -0.078153 -0.061809 1.000000
0.079652 -0.046245 -0.088248 1.000000
0.342340 -0.003218 0.099965 1.000000
-0.132509 -0.088683 -0.045455 1.000000
0.107717 -0.066391 -0.074284 1.000000
-0.438903 -0.073118 -0.067722 3.000000
-0.171307 -0.079164 -0.060505 1.000000
-0.061193 -0.059455 -0.079964 1.000000
-0.052286 0.043386 -0.089824 1.000000
0.181383 -0.028070 -0.095597 1.000000
-0.307059 0.007294 0.099787 1.000000
-0.091812 0.054014 -0.083903 1.000000
0.176928 0.088902 -0.045483 1.000000
-0.366353 -0.069112 -0.071785 1.000000
0.139282 0.087947 0.047721 1.000000
-0.225395 -0.025481 0.096712 1.000000
-0.453027 0.044905 0.089413 3.000000
-0.329429 0.074975 -0.065880 1.000000
0.345965 -0.091020 -0.040605 1.000000
-0.056187 -0.070498 -0.070398 1.000000
-0.065195 0.010944 -0.099080 1.000000
0.021563 0.030433 0.095341 1.000000
0.411441 -0.011271 0.099389 1.000000
-0.342779 0.098685 -0.015700 1.000000
0.367568 -0.039994 -0.091248 1.000000
-0.314244 0.046122 0.088793 1.000000
-0.134460 0.009936 -0.099175 1.000000
0.310623 -0.024268 0.097034 1.000000
0.279058 -0.044604 0.089447 1.000000
0.119535 0.086249 -0.050310 1.000000
-0.006777 0.020710 -0.097519 1.000000
0.225376 0.097803 0.020835 1.000000
-0.229427 -0.006267 -0.099500 1.000000
-0.357036 -0.072686 0.068573 1.000000
-0.238141 0.071382 -0.069747 1.000000
-0.213517 0.098440 -0.017245 1.000000
-0.374542 0.099945 0.002098 1.000000
0.464524 0.048530 0.087542 2.000000
0.355310 -0.006186 0.099870 1.000000
0.347330 -0.036748 -0.092652 1.000000
0.276646 -0.098626 0.014962 1.000000
0.051049 0.043713 -0.089657 1.000000
-0.078366 0.026228 -0.096200 1.000000
0.078019 0.099907 -0.002930 1.000000
0.461155 0.062934 -0.077447 2.000000
-0.363444 -0.037360 -0.092388 1.000000
-0.179896 0.041630 -0.090641 1.000000
0.386311 -0.047846 0.087795 1.000000
-0.443275 -0.049387 0.086897 3.000000
0.138263 -0.020341 0.097912 1.000000
-0.075579 0.060915 -0.079013 1.000000
-0.304389 -0.092682 -0.036764 1.000000
-0.246610 0.067504 0.073871 1.000000
0.151876 -0.071302 0.069957 1.000000
-0.440058 -0.017063 0.098544 3.000000
-0.108696 0.071475 -0.069655 1.000000
0.181004 0.059114 -0.080410 1.000000
0.296605 0.018661 -0.097965 1.000000
-0.073227 -0.044067 -0.089358 1.000000
-0.356148 0.030706 0.095262 1.000000
-0.237734 0.051616 0.085717 1.000000
0.302450 -0.082281 -0.056198 1.000000
0.087225 -0.022619 -0.097040 1.000000
0.052695 0.066694 0.074585 1.000000
0.233998 0.003328 0.099969 1.000000
-0.106556 -0.098037 0.018683 1.000000
-0.382170 -0.098228 0.017476 1.000000
-0.090912 -0.017919 0.098409 1.000000
-0.275738 0.058434 0.081262 1.000000
-0.048128 0.097986 0.020016 1.000000
-0.075345 0.006365 -0.099511 1.000000
-0.204146 0.030432 0.095341 1.000000
-0.371493 0.047105 -0.087929 1.000000
0.072172 0.059379 -0.080204 1.000000
0.197228 0.091304 -0.040489 1.000000
-0.166640 -0.027255 -0.095834 1.000000
0.094711 -0.085675 0.051247 1.000000
-0.140801 0.052322 0.085299 1.000000
0.186309 0.043190 0.090287 1.000000
-0.124552 -0.033744 -0.093741 1.000000
-0.242948 0.067641 -0.073388 1.000000
-0.404362 -0.097072 0.023064 1.000000
0.200888 -0.073139 0.068060 1.000000
0.290795 -0.077383 -0.062801 1.000000
-0.155902 -0.097774 0.019920 1.000000
0.151113 0.033512 0.094271 1.000000
0.097343 0.050256 -0.086158 1.000000
0.374061 -0.080057 -0.059354 1.000000
0.329183 -0.027472 0.096134 1.000000
-0.155665 -0.098264 -0.016884 1.000000
-0.065734 0.099183 0.012919 1.000000
-0.392350 -0.064134 0.076636 1.000000
-0.002989 0.088587 -0.046100 1.000000
-0.412432 0.098970 -0.013904 1.000000
-0.399966 0.059363 0.080579 1.000000
-0.296785 0.059734 -0.079929 1.000000
-0.162545 -0.092679 0.037135 1.000000
-0.076805 -0.031922 -0.094396 1.000000
0.149382 -0.099732 -0.001101 1.000000
-0.292341 0.093278 0.036156 1.000000
-0.434584 -0.096911 0.023782 3.000000
0.249222 0.030638 0.095282 1.000000
0.367274 0.082896 -0.055636 1.000000
-0.419552 0.023898 -0.096806 1.000000
0.302802 0.093885 -0.034105 1.000000
0.090918 0.098810 -0.014911 1.000000
-0.150995 0.037672 0.092716 1.000000
-0.323838 0.038721 0.092262 1.000000
-0.456141 -0.001786 -0.099647 3.000000
0.342518 0.099529 0.009409 1.000000
-0.298468 -0.067922 -0.072934 1.000000
-0.304729 -0.079228 -0.060422 1.000000
-0.062710 0.098942 -0.014081 1.000000
-0.065705 0.019453 0.098162 1.000000
0.076801 -0.078802 0.061334 1.000000
0.103707 0.008069 0.099714 1.000000
-0.442384 -0.099097 -0.011144 3.000000
-0.311484 0.094142 0.033754 1.000000
-0.327357 0.095149 -0.030573 1.000000
-0.438538 0.000809 -0.099685 3.000000
0.244562 0.048036 -0.087455 1.000000
-0.234521 0.041435 -0.090725 1.000000
0.119168 0.058743 0.081052 1.000000
0.205568 0.086598 -0.049718 1.000000
0.242643 0.070333 -0.070797 1.000000
0.009819 -0.091743 -0.038934 1.000000
-0.138066 -0.099420 -0.007733 1.000000
0.196042 -0.031167 0.095031 1.000000
-0.392377 0.050211 0.086548 1.000000
0.368181 0.098606 -0.016202 1.000000
0.222006 -0.042414 -0.090200 1.000000
-0.194951 0.091900 -0.039110 1.000000
0.094717 -0.079149 -0.060524 1.000000
-0.226904 0.038873 -0.091834 1.000000
0.161175 -0.040021 -0.091236 1.000000
0.106787 -0.076931 0.063747 1.000000
0.074719 0.092010 -0.038856 1.000000
-0.343436 -0.075734 -0.064755 1.000000
-0.242825 0.086494 0.050257 1.000000
-0.112242 -0.060427 0.079573 1.000000
-0.051000 0.047555 0.088063 1.000000
0.322386 0.078583 0.061918 1.000000
-0.168520 0.061435 -0.078609 1.000000
0.064959 0.075172 0.066020 1.000000
0.005983 0.076571 -0.064070 1.000000
-0.028152 -0.099634 0.004568 1.000000
0.411520 -0.081139 0.058241 1.000000
0.268358 -0.068972 0.072287 1.000000
0.183273 -0.099367 0.008648 1.000000
-0.345563 0.093922 -0.034003 1.000000
0.408200 0.080508 0.059437 1.000000
0.044276 0.069978 -0.071151 1.000000
0.455077 0.087404 0.048719 2.000000
0.416615 -0.091560 0.039720 1.000000
-0.153858 -0.026858 -0.095949 1.000000
-0.058214 0.075538 -0.065242 1.000000
-0.268601 0.022497 0.097482 1.000000
0.168700 -0.041562 -0.090569 1.000000
0.176257 0.070048 0.071445 1.000000
-0.092064 0.043934 0.089908 1.000000
-0.123020 -0.070488 0.070771 1.000000
-0.061056 0.097465 -0.021987 1.000000
0.070943 0.046550 -0.088212 1.000000
0.159807 0.040816 -0.090993 1.000000
-0.033653 0.058510 -0.080847 1.000000
0.095763 0.096903 0.024861 1.000000
0.089673 0.020134 -0.097647 1.000000
-0.186599 0.095399 0.030077 1.000000
-0.004754 -0.071201 -0.069695 1.000000
-0.137983 -0.067692 0.073499 1.000000
-0.074942 -0.095947 0.027385 1.000000
-0.035295 -0.049779 0.086665 1.000000
-0.137639 0.030133 0.095428 1.000000
0.402897 0.036290 0.093271 1.000000
0.189551 0.077907 0.062789 1.000000
0.429284 -0.097001 0.023380 2.000000
-0.109120 0.096494 -0.025944 1.000000
0.137522 -0.090136 0.042965 1.000000
-0.103268 -0.050519 -0.085865 1.000000
-0.371290 -0.079499 0.060435 1.000000
0.297680 0.090991 0.041575 1.000000
-0.001808 -0.049729 0.086695 1.000000
0.411121 -0.029041 0.095678 2.000000
-0.068268 -0.023630 -0.096814 1.000000
0.206575 0.033170 0.094394 1.000000
0.351604 0.050577 -0.085968 1.000000
-0.091769 -0.085062 -0.051922 1.000000
0.084037 0.097512 0.022136 1.000000
-0.297882 -0.054550 -0.083380 1.000000
-0.092363 0.095679 0.029111 1.000000
0.427896 -0.084987 0.052411 2.000000
0.249783 0.095865 -0.028107 1.000000
-0.409233 0.056036 -0.082529 1.000000
0.191098 0.095985 -0.027696 1.000000
-0.325001 0.026960 -0.095987 1.000000
0.273301 -0.045419 0.089032 1.000000
-0.003646 0.006062 -0.099520 1.000000
-0.195066 -0.014095 -0.098652 1.000000
-0.125431 -0.088430 -0.045952 1.000000
0.451370 -0.062236 0.078170 2.000000
-0.319196 0.067843 0.073572 1.000000
-0.446421 0.099911 0.003173 3.000000
-0.342660 0.096637 0.025814 1.000000
-0.032232 -0.094869 0.031087 1.000000
-0.141932 0.056748 -0.082045 1.000000
0.241190 0.098849 0.015026 1.000000
0.000814 -0.084456 0.053310 1.000000
-0.137405 0.099839 0.005463 1.000000
0.332733 -0.049396 -0.086529 1.000000
-0.278727 0.026423 0.096506 1.000000
0.108131 -0.007248 -0.099407 1.000000
-0.078282 0.020684 0.097887 1.000000
0.320447 -0.081142 -0.057874 1.000000
0.326513 -0.098389 -0.016099 1.000000
-0.372205 0.052408 -0.084886 1.000000
0.425968 0.099035 0.013855 1.000000
-0.247532 -0.098859 -0.013127 1.000000
0.254106 -0.085580 -0.051046 1.000000
-0.438086 0.014235 -0.098666 3.000000
-0.086960 -0.096866 0.023985 1.000000
0.200629 0.066150 0.075065 1.000000
-0.333051 0.073588 0.067817 1.000000
0.333135 -0.043242 -0.089779 1.000000
0.322866 0.031499 -0.094633 1.000000
0.357652 -0.075934 -0.064528 1.000000
0.204664 0.082353 0.056798 1.000000
-0.300637 -0.002761 0.099980 1.000000
0.140397 -0.073591 -0.067186 1.000000
0.222591 0.033794 -0.093807 1.000000
-0.163222 -0.059821 -0.079680 1.000000
-0.368935 -0.041508 -0.090592 1.000000
-0.129709 0.099897 0.003613 1.000000
0.139646 -0.066327 -0.074340 1.000000
0.315986 -0.014052 -0.098658 1.000000
0.301614 -0.062123 0.078257 1.000000
0.025668 0.058651 -0.080752 1.000000
-0.266298 -0.037226 0.092808 1.000000
-0.103934 0.089719 0.044241 1.000000
-0.274641 -0.054540 -0.083387 1.000000
0.075789 0.049234 0.087125 1.000000
0.319053 -0.029825 -0.095087 1.000000
0.368136 -0.023275 0.097256 1.000000
0.162160 -0.080803 0.058736 1.000000
-0.305630 0.099823 -0.005621 1.000000
0.290821 -0.056669 0.082303 1.000000
0.101826 0.064436 -0.076212 1.000000
-0.340472 0.043432 0.090163 1.000000
0.443132 0.064907 0.076160 2.000000
-0.029716 0.092454 0.038193 1.000000
-0.070261 0.004630 0.099928 1.000000
-0.094905 0.034318 -0.093618 1.000000
-0.300898 -0.095563 -0.028345 1.000000
0.259282 -0.078737 -0.061056 1.000000
0.431259 -0.089841 -0.043182 1.000000
0.430067 0.019132 -0.097871 1.000000
0.010255 -0.098104 -0.017893 1.000000
0.010768 -0.016474 0.098637 1.000000
-0.428646 0.043858 0.089946 1.000000
0.336304 0.059480 0.080489 1.000000
-0.383662 0.015441 0.098838 1.000000
0.026688 0.085392 0.052120 1.000000
-0.426163 -0.006368 0.099853 1.000000
-0.334764 0.080379 0.059603 1.000000
-0.446527 -0.047878 -0.087416 3.000000
-0.080188 0.036314 0.093262 1.000000
-0.369474 -0.078647 -0.061172 1.000000
0.287352 -0.099764 0.000425 1.000000
0.324714 0.099870 -0.004107 1.000000
0.284510 0.085256 0.052350 1.000000
-0.373006 0.080525 -0.059051 1.000000
0.285759 -0.086149 0.050446 1.000000
-0.117081 -0.013422 0.099121 1.000000
-0.369567 0.087663 -0.047914 1.000000
-0.463017 0.084868 -0.052643 3.000000
0.213835 -0.042786 -0.090011 1.000000
-0.100751 -0.089279 0.044647 1.000000
-0.308144 -0.047071 0.088190 1.000000
-0.046100 0.037234 0.092906 1.000000
0.139196 0.002631 0.099991 1.000000
0.022580 -0.095718 -0.027813 1.000000
-0.352776 0.060130 -0.079622 1.000000
0.458536 -0.062962 0.077607 2.000000
-0.140597 -0.098355 0.016674 1.000000
-0.163708 -0.094127 -0.032787 1.000000
-0.417421 0.066948 0.074361 1.000000
-0.219927 0.095666 0.029157 1.000000
0.439673 0.078707 0.061758 2.000000
0.029980 -0.099765 -0.000048 1.000000
-0.388922 0.067567 0.073815 1.000000
-0.280585 -0.075507 -0.065011 1.000000
-0.374383 0.030069 0.095447 1.000000
0.034515 -0.013608 -0.098729 1.000000
-0.200331 -0.099136 0.011098 1.000000
-0.027343 0.044364 -0.089326 1.000000
0.172720 0.035060 -0.093351 1.000000
-0.440694 0.000294 0.100064 3.000000
0.374251 0.099622 -0.008058 1.000000
-0.349675 -0.043662 -0.089564 1.000000
-0.185751 -0.097573 -0.020457 1.000000
0.042445 0.099772 0.006831 1.000000
0.046952 -0.049636 -0.086387 1.000000
0.245915 -0.061778 -0.078162 1.000000
0.099149 0.073023 0.068457 1.000000
0.078389 0.091181 0.041134 1.000000
-0.169828 -0.067448 -0.073352 1.000000
-0.126102 0.067242 -0.073739 1.000000
-0.014135 -0.089085 0.045028 1.000000
0.448075 -0.096016 -0.026787 2.000000
0.388116 -0.098167 0.017860 1.000000
0.111321 0.098122 -0.019047 1.000000
-0.066878 -0.099565 0.006558 1.000000
-0.048134 -0.031296 0.094985 1.000000
0.396523 -0.025746 -0.096272 1.000000
-0.185550 -0.032182 -0.094303 1.000000
-0.174927 0.015805 -0.098418 1.000000
-0.123022 0.009107 -0.099253 1.000000
0.178707 -0.058217 0.081251 1.000000
0.027362 0.035997 -0.093013 1.000000
-0.045195 0.005968 0.099886 1.000000
0.143540 -0.084084 0.053908 1.000000
-0.151351 0.085612 0.051749 1.000000
-0.047353 0.087748 -0.047747 1.000000
-0.134381 -0.034153 -0.093593 1.000000
-0.248137 -0.094585 -0.031515 1.000000
-0.011154 0.042427 0.090659 1.000000
0.281392 -0.088622 -0.045573 1.000000
0.128783 0.093808 0.034682 1.000000
0.104772 -0.071704 0.069555 1.000000
-0.365074 0.070923 -0.070206 1.000000
0.046669 0.099999 0.000381 1.000000
-0.059510 0.005002 0.099916 1.000000
-0.215682 0.002478 -0.099633 1.000000
-0.466328 0.098101 0.019504 3.000000
-0.466766 -0.091229 0.040485 3.000000
0.404362 -0.064662 0.076170 1.000000
0.075463 -0.093914 -0.033377 1.000000
0.255992 -0.098008 0.018862 1.000000
0.187317 0.082770 -0.055822 1.000000
-0.449885 0.091632 -0.039730 3.000000
-0.192762 0.085391 0.052123 1.000000
0.035807 0.087303 0.048889 1.000000
-0.013064 -0.073385 0.067782 1.000000
-0.340312 -0.081691 -0.057065 1.000000
-0.263761 0.068734 0.072758 1.000000
0.258801 -0.098973 -0.012410 1.000000
-0.400786 0.096886 0.024937 1.000000
-0.210258 -0.094676 0.031623 1.000000
0.460027 0.081358 -0.057899 2.000000
-0.008240 -0.061711 -0.078214 1.000000
-0.436971 0.049950 0.086702 3.000000
-0.087828 -0.050878 -0.085653 1.000000
0.392838 -0.099162 0.010820 1.000000
-0.227403 0.003973 0.099949 1.000000
-0.404229 -0.099419 0.008102 1.000000
-0.075332 0.099679 0.007819 1.000000
0.231025 -0.075650 -0.064850 1.000000
0.222663 0.019349 -0.097823 1.000000
0.199590 0.035856 -0.093064 1.000000
0.253963 -0.002811 0.099978 1.000000
-0.338118 -0.061792 0.078514 1.000000
0.296675 -0.044584 0.089458 1.000000
-0.399783 0.039915 -0.091383 1.000000
0.298530 -0.089614 -0.043627 1.000000
0.006852 0.098731 -0.015410 1.000000
-0.345744 -0.006096 0.099875 1.000000
0.103584 -0.006256 0.099863 1.000000
-0.340505 -0.032106 -0.094330 1.000000
0.099430 0.085265 -0.051972 1.000000
-0.061413 -0.072915 0.068315 1.000000
0.426504 0.022612 0.097456 2.000000
-0.065385 -0.046240 -0.088251 1.000000
0.092968 -0.021438 0.097666 1.000000
-0.294977 0.007664 -0.099390 1.000000
0.461559 0.018178 0.098405 2.000000
-0.117489 0.064898 0.076168 1.000000
0.381642 0.099135 0.013222 1.000000
0.124474 -0.086642 0.049612 1.000000
0.332816 -0.015132 -0.098487 1.000000
-0.126428 0.093535 -0.035078 1.000000
0.462876 0.084246 -0.053649 2.000000
-0.045410 -0.064983 0.075888 1.000000
-0.340917 0.081811 0.057595 1.000000
0.390006 0.019875 0.098068 1.000000
-0.381931 -0.061148 0.079014 1.000000
0.145475 0.043523 -0.089754 1.000000
-0.253969 -0.002441 0.099990 1.000000
-0.227867 -0.045794 0.088841 1.000000
0.159297 0.012151 0.099328 1.000000
0.350679 0.096200 0.027319 1.000000
-0.208501 0.056228 -0.082398 1.000000
0.353690 0.097824 0.020741 1.000000
-0.397096 -0.098076 -0.018072 1.000000
-0.252952 -0.095179 0.030030 1.000000
-0.271263 -0.083736 -0.054056 1.000000
0.384150 0.084869 -0.052642 1.000000
-0.177911 -0.098504 0.015735 1.000000
-0.272154 0.096920 0.024785 1.000000
0.140383 0.072532 -0.068597 1.000000
0.367645 -0.080685 0.058907 1.000000
-0.358560 0.069195 -0.071935 1.000000
-0.324057 -0.099526 0.006968 1.000000
0.194231 -0.074095 0.066977 1.000000
-0.390481 0.000742 0.100050 1.000000
-0.002304 0.078440 0.062103 1.000000
0.178207 0.094725 -0.031772 1.000000
0.008897 0.093350 -0.035593 1.000000
0.326316 0.051292 0.085909 1.000000
-0.457697 0.089315 -0.044671 3.000000
0.450409 -0.099764 0.000427 2.000000
0.115383 0.096838 -0.024759 1.000000
-0.200582 0.093490 -0.035204 1.000000
-0.196334 -0.008272 -0.099310 1.000000
0.285777 -0.079420 0.060538 1.000000
-0.311271 0.091082 0.041363 1.000000
-0.253865 -0.068493 0.072766 1.000000
-0.325202 -0.039403 0.091866 1.000000
0.378074 -0.003624 -0.099590 1.000000
-0.122863 -0.009637 -0.099181 1.000000
0.227503 0.098663 -0.015837 1.000000
-0.133324 -0.065637 -0.074949 1.000000
0.203510 -0.011514 0.099366 1.000000
-0.043266 -0.094768 -0.031007 1.000000
-0.400517 -0.015954 0.098720 1.000000
-0.328955 -0.055385 0.083175 1.000000
-0.206629 -0.085142 -0.051785 1.000000
-0.159465 0.058067 0.081512 1.000000
-0.025710 -0.094855 -0.030764 1.000000
-0.205260 0.012157 -0.098965 1.000000
-0.397308 -0.068016 0.073214 1.000000
-0.264159 -0.044673 -0.089049 1.000000
-0.216957 0.086250 0.050670 1.000000
0.348912 -0.069905 -0.070991 1.000000
-0.399934 0.045324 -0.088837 1.000000
-0.171538 -0.042646 -0.090082 1.000000
-0.282362 -0.047770 -0.087472 1.000000
-0.322763 -0.019954 0.097998 1.000000
0.303609 0.084041 -0.053951 1.000000
-0.190111 -0.047599 0.087921 1.000000
-0.402456 0.035052 -0.093354 1.000000
0.439265 -0.092939 0.036449 2.000000
0.261521 0.089124 -0.045047 1.000000
0.307891 0.095756 -0.028485 1.000000
0.404452 -0.047446 -0.087637 1.000000
-0.201522 -0.025645 -0.096302 1.000000
0.286901 -0.020270 0.097927 1.000000
-0.269282 0.045957 0.088877 1.000000
0.456757 -0.053603 -0.084024 2.000000
0.031542 0.098793 -0.015018 1.000000
-0.346542 0.074656 -0.066243 1.000000
0.063776 0.012026 -0.098977 1.000000
0.309002 0.036869 -0.092700 1.000000
-0.126048 0.090021 0.043650 1.000000
0.033145 0.098996 0.014100 1.000000
0.067882 -0.088186 0.046792 1.000000
-0.191776 -0.059110 -0.080232 1.000000
0.209476 -0.098470 0.015945 1.000000
-0.370494 0.051886 0.085557 1.000000
-0.217794 -0.055416 -0.082792 1.000000
-0.355204 -0.096598 0.025145 1.000000
0.333983 0.097564 -0.021543 1.000000
-0.278286 -0.099594 0.005848 1.000000
0.265436 0.092672 -0.037328 1.000000
-0.188009 0.092273 -0.038250 1.000000
-0.276619 -0.013588 0.099095 1.000000
-0.291341 -0.050933 0.085983 1.000000
0.054859 0.091140 0.041230 1.000000
0.326345 -0.035630 0.093424 1.000000
0.057036 0.075487 -0.065300 1.000000
0.199237 0.029109 -0.095363 1.000000
-0.190513 0.047950 -0.087499 1.000000
0.286733 0.092428 0.038254 1.000000
0.324985 -0.085672 0.051253 1.000000
-0.368147 -0.083300 0.055062 1.000000
0.320372 -0.054667 -0.083301 1.000000
0.134235 -0.045705 0.088887 1.000000
-0.282213 -0.082009 0.056960 1.000000
-0.228951 0.024169 -0.096746 1.000000
0.275352 -0.099685 -0.002587 1.000000
-0.140848 -0.008342 -0.099303 1.000000
-0.411425 0.070526 0.070966 1.000000
-0.440747 -0.087937 0.047282 3.000000
0.293513 -0.009885 -0.099158 1.000000
0.009661 -0.066065 0.074934 1.000000
-0.422889 -0.099756 0.000677 1.000000
0.004461 -0.091711 0.039372 1.000000
0.274666 -0.052552 -0.084663 1.000000
0.452328 0.076516 0.064495 2.000000
0.162299 0.067281 -0.073704 1.000000
0.186160 0.026882 0.096373 1.000000
0.387579 -0.078687 -0.061120 1.000000
0.101168 -0.098622 0.014990 1.000000
-0.049213 0.012683 -0.098912 1.000000
0.460131 -0.099138 0.011074 2.000000
0.113559 0.099303 -0.011436 1.000000
-0.161457 -0.096432 0.025718 1.000000
0.256116 0.099765 0.006911 1.000000
0.421627 0.060264 -0.079518 1.000000
-0.126123 0.086993 0.049414 1.000000
0.302969 0.092726 0.037565 1.000000
-0.313600 0.098905 0.014673 1.000000
-0.118616 -0.059010 -0.080310 1.000000
-0.443629 -0.098087 0.018363 3.000000
0.065523 0.092386 0.038349 1.000000
0.136303 0.084460 -0.053334 1.000000
-0.206534 -0.099730 -0.001156 1.000000
-0.376281 0.084216 0.054057 1.000000
-0.249328 0.071150 -0.069979 1.000000
0.188770 0.098440 0.017609 1.000000
0.381506 -0.090551 -0.041689 1.000000
-0.321473 -0.097091 -0.022612 1.000000
-0.221764 -0.002816 0.099978 1.000000
-0.076238 0.078918 0.061487 1.000000
0.364496 -0.082556 -0.055793 1.000000
0.341697 0.091119 -0.040916 1.000000
0.465160 0.097138 -0.023450 2.000000
-0.279192 0.079772 0.060385 1.000000
-0.351552 -0.060205 -0.079382 1.000000
0.317754 0.097665 0.021452 1.000000
0.440976 0.095505 0.029712 2.000000
-0.080764 -0.099657 0.003823 1.000000
-0.443653 0.068350 0.073125 3.000000
-0.145925 -0.056334 -0.082167 1.000000
0.157787 0.020718 0.097880 1.000000
0.133560 -0.070238 -0.070658 1.000000
-0.220961 -0.044815 0.089340 1.000000
-0.214489 0.087432 -0.048308 1.000000
-0.029072 0.027890 -0.095717 1.000000
0.382670 0.080797 -0.058701 1.000000
-0.194649 -0.097668 -0.020033 1.000000
0.060720 0.001864 -0.099652 1.000000
0.045556 0.035004 0.093734 1.000000
-0.160205 0.042600 0.090584 1.000000
-0.256087 -0.011683 0.099350 1.000000
0.043339 0.099811 -0.005996 1.000000
-0.101317 0.095489 0.029767 1.000000
0.175279 -0.037376 -0.092381 1.000000
0.236313 -0.048534 -0.087039 1.000000
-0.040919 0.099246 0.012404 1.000000
0.128290 0.056207 -0.082413 1.000000
-0.198112 0.098251 -0.018444 1.000000
0.021398 -0.098650 0.014814 1.000000
0.279438 -0.062807 -0.077364 1.000000
-0.317810 0.098535 -0.016649 1.000000
-0.117566 -0.070776 -0.070120 1.000000
-0.007737 -0.019839 0.098024 1.000000
-0.383551 -0.099159 0.010847 1.000000
0.081953 0.099701 0.007592 1.000000
-0.403541 0.011705 -0.099008 1.000000
0.295280 -0.093091 0.036025 1.000000
-0.243935 0.099919 -0.002567 1.000000
-0.364489 -0.056463 0.082443 1.000000
-0.438811 0.098523 0.017086 3.000000
-0.411007 0.097901 -0.020034 1.000000
0.182938 0.088999 0.045656 1.000000
0.145127 -0.097657 0.020443 1.000000
0.231465 -0.071934 0.069325 1.000000
-0.423478 0.054257 0.084100 1.000000
-0.417459 0.087436 -0.048302 1.000000
0.426969 0.016783 0.098626 2.000000
0.194140 0.038714 -0.091902 1.000000
0.105198 0.052867 -0.084614 1.000000
0.290662 -0.096922 0.023735 1.000000
0.231001 -0.099631 -0.004288 1.000000
-0.098238 0.071669 0.069823 1.000000
-0.202003 0.047531 0.088075 1.000000
0.337736 -0.022153 -0.097144 1.000000
-0.002259 0.024757 -0.096614 1.000000
-0.332740 -0.068580 0.072679 1.000000
-0.284392 0.039744 0.091820 1.000000
0.243331 -0.084169 0.053782 1.000000
0.224972 0.078369 -0.061831 1.000000
0.188991 -0.074688 -0.065941 1.000000
-0.068317 0.054794 0.083735 1.000000
-0.277262 0.009985 -0.099170 1.000000
0.314806 -0.064484 -0.075965 1.000000
0.223229 -0.035615 0.093430 1.000000
-0.284426 -0.087731 0.047686 1.000000
-0.295476 0.057207 0.082096 1.000000
0.111054 -0.095375 -0.028992 1.000000
0.096128 -0.046147 -0.088298 1.000000
0.109283 0.077887 -0.062452 1.000000
-0.455816 0.099451 -0.009864 3.000000
-0.440768 -0.034474 0.093840 3.000000
-0.349028 0.096366 0.026748 1.000000
0.127146 0.079804 -0.059981 1.000000
-0.445410 0.046544 -0.088215 3.000000
-0.074454 0.091681 0.039980 1.000000
0.145484 0.019448 -0.097801 1.000000
-0.376589 0.080844 0.059003 1.000000
-0.409505 0.015093 -0.098530 1.000000
-0.308236 -0.089962 0.043306 1.000000
-0.356394 0.011420 -0.099035 1.000000
0.275543 -0.090740 0.041615 1.000000
-0.392338 -0.048927 0.087169 1.000000
-0.402187 -0.063085 0.077511 1.000000
0.100381 0.092985 0.036967 1.000000
-0.185068 0.068168 -0.072923 1.000000
0.236526 0.087819 0.047971 1.000000
-0.333224 -0.098877 -0.013018 1.000000
0.269335 -0.028111 -0.095585 1.000000
-0.362990 0.092497 0.038094 1.000000
0.201134 0.094532 -0.032308 1.000000
-0.044568 -0.006876 0.099805 1.000000
-0.249729 -0.093352 0.035302 1.000000
0.151126 0.100005 0.000177 1.000000
-0.041312 -0.079421 -0.060174 1.000000
0.147904 0.098998 -0.013724 1.000000
-0.227528 0.096128 0.027567 1.000000
0.404353 0.065410 0.075717 1.000000
0.338345 0.094443 0.032919 1.000000
0.365309 -0.085824 -0.050632 1.000000
-0.045594 0.061975 0.078553 1.000000
-0.166665 -0.048184 0.087609 1.000000
-0.331000 0.099875 -0.003955 1.000000
0.110613 -0.050155 -0.086080 1.000000
0.182002 -0.092910 0.036530 1.000000
0.132605 -0.005895 -0.099518 1.000000
-0.193594 -0.062616 0.077875 1.000000
0.249834 -0.095243 -0.029446 1.000000
0.129253 0.088151 -0.046956 1.000000
0.124071 0.038404 0.092399 1.000000
0.169237 -0.099048 0.012027 1.000000
-0.458272 -0.077987 0.062386 3.000000
-0.307352 -0.086776 -0.049023 1.000000
-0.209714 -0.029912 -0.095062 1.000000
0.052954 0.097710 0.021253 1.000000
-0.200105 -0.002868 -0.099613 1.000000
0.137765 0.056530 -0.082193 1.000000
0.046263 -0.006285 0.099861 1.000000
-0.141335 -0.093395 0.035183 1.000000
-0.069744 -0.075795 0.065048 1.000000
-0.316843 -0.098728 0.014319 1.000000
-0.066398 0.052542 -0.084806 1.000000
-0.006504 0.018384 0.098372 1.000000
-0.431118 -0.014777 0.098906 3.000000
-0.205461 -0.006570 0.099834 1.000000
0.115288 -0.079696 0.060182 1.000000
-0.441191 -0.006214 0.099867 3.000000
-0.177098 -0.096308 0.026144 1.000000
-0.286236 0.046297 0.088704 1.000000
-0.246077 -0.047565 0.087938 1.000000
0.016150 0.025253 0.096846 1.000000
0.224272 0.074402 0.066893 1.000000
0.026061 -0.099614 0.005213 1.000000
-0.087982 0.069711 0.071781 1.000000
0.384375 -0.066917 0.074182 1.000000
0.264476 -0.099434 -0.007576 1.000000
0.077072 0.098845 0.015055 1.000000
0.047151 0.098138 0.019338 1.000000
0.459401 0.013044 -0.098855 2.000000
0.310603 -0.091056 0.040885 1.000000
0.244542 -0.004532 0.099924 1.000000
-0.459451 -0.057821 0.081520 3.000000
-0.112365 -0.038842 0.092109 1.000000
0.427940 0.077021 0.063923 2.000000
-0.069567 -0.098474 0.015923 1.000000
-0.025200 0.018612 -0.097973 1.000000
-0.162689 -0.043826 0.089844 1.000000
-0.035636 0.041684 0.090980 1.000000
0.078963 0.096866 0.025025 1.000000
0.398636 0.094340 0.033206 1.000000
0.290536 0.061150 -0.078830 1.000000
0.251590 -0.040277 -0.091125 1.000000
-0.452131 -0.052300 0.085174 3.000000
-0.278976 0.095902 0.028345 1.000000
-0.269001 0.067016 0.074301 1.000000
-0.434482 -0.085982 0.050729 3.000000
-0.462762 0.073817 0.067556 3.000000
-0.414894 0.027053 0.096323 1.000000
0.224230 -0.099706 -0.001919 1.000000
0.074020 -0.097881 0.019444 1.000000
-0.463960 0.060486 0.079708 3.000000
-0.172420 0.040660 -0.091061 1.000000
0.151434 -0.094253 -0.032435 1.000000
-0.021907 -0.081215 -0.057766 1.000000
0.420709 0.087844 0.047921 1.000000
-0.296418 -0.096944 -0.023273 1.000000
-0.409735 -0.041331 0.091032 1.000000
-0.093652 -0.036402 0.093146 1.000000
-0.399466 -0.073855 -0.066886 1.000000
-0.294212 0.088372 -0.046523 1.000000
-0.457462 0.039068 0.092112 3.000000
-0.049043 -0.099470 0.007561 1.000000
0.103923 0.023336 0.097294 1.000000
0.283801 -0.005538 -0.099529 1.000000
-0.132999 0.098444 -0.017220 1.000000
0.157748 -0.077080 0.063555 1.000000
0.126985 -0.061604 -0.078297 1.000000
-0.326877 0.092884 0.037200 1.000000
0.250498 -0.040094 0.091567 1.000000
-0.405637 -0.091898 0.038938 1.000000
0.183771 0.015095 0.098893 1.000000
-0.139946 -0.087012 0.048986 1.000000
0.085198 0.066914 -0.074028 1.000000
0.358538 0.088254 -0.046754 1.000000
-0.264640 0.091908 0.039455 1.000000
-0.029567 0.089942 -0.043441 1.000000
-0.352205 0.072613 -0.068517 1.000000
0.247151 0.099123 0.013297 1.000000
-0.053735 -0.012854 -0.098848 1.000000
0.331695 0.093739 0.034875 1.000000
0.295476 -0.095800 0.027892 1.000000
-0.278388 -0.069649 -0.071247 1.000000
-0.428894 -0.021520 0.097648 1.000000
-0.183606 -0.096184 -0.026208 1.000000
-0.047936 0.068514 -0.072615 1.000000
0.399122 -0.045379 0.089052 1.000000
0.256338 0.096222 -0.026882 1.000000
0.294266 0.013768 0.099103 1.000000
-0.379193 0.046371 -0.088303 1.000000
-0.362152 0.098313 0.018410 1.000000
-0.262629 -0.031817 -0.094434 1.000000
-0.004839 0.052165 0.085392 1.000000
-0.401145 0.079259 0.061046 1.000000
-0.126012 -0.095265 -0.029371 1.000000
-0.053106 -0.089110 0.044978 1.000000
-0.167242 -0.032995 -0.094010 1.000000
-0.157943 -0.030728 0.095188 1.000000
-0.317347 -0.057402 -0.081442 1.000000
0.116208 0.048871 0.087340 1.000000
0.043369 -0.079765 -0.059730 1.000000
0.415405 0.000971 -0.099680 1.000000
-0.364165 -0.023406 -0.096864 1.000000
-0.085743 -0.090863 -0.040968 1.000000
-0.147494 -0.062722 -0.077430 1.000000
0.214884 -0.020867 0.097794 1.000000
0.274056 0.053393 0.084666 1.000000
0.207965 0.095967 0.028122 1.000000
0.197650 -0.068460 0.072798 1.000000
-0.028106 0.074292 0.067018 1.000000
0.269949 -0.099057 -0.011571 1.000000
0.119919 0.016433 -0.098318 1.000000
-0.188926 0.055429 -0.082941 1.000000
0.031527 0.082733 0.056239 1.000000
-0.248495 0.009335 0.099594 1.000000
0.202558 0.081338 -0.057928 1.000000
0.243074 0.031258 0.095082 1.000000
0.155902 -0.075877 -0.064593 1.000000
-0.208253 0.030735 -0.094891 1.000000
0.255169 -0.032859 0.094422 1.000000
-0.462559 0.044955 -0.089025 3.000000
-0.265002 -0.017096 -0.098176 1.000000
-0.297650 0.096479 0.026357 1.000000
0.445412 0.035994 0.093377 2.000000
0.027461 0.099321 0.011602 1.000000
0.041835 -0.099554 0.006678 1.000000
-0.427906 0.057820 -0.081317 3.000000
0.448137 -0.093413 -0.034768 2.000000
0.139827 -0.099100 -0.011113 1.000000
-0.002857 0.030935 0.095195 1.000000
-0.094589 -0.008931 -0.099248 1.000000
-0.253447 -0.082545 -0.055810 1.000000
0.170416 -0.005193 -0.099540 1.000000
-0.414147 0.081075 0.058678 1.000000
0.079579 -0.091355 -0.039831 1.000000
0.064781 0.057371 0.081984 1.000000
0.159500 -0.016559 -0.098261 1.000000
0.284717 0.046648 -0.088162 1.000000
0.184796 -0.013570 -0.098735 1.000000
-0.000975 0.061894 0.078616 1.000000
0.257791 -0.057354 -0.081475 1.000000
0.214064 0.081072 -0.058320 1.000000
0.034580 -0.099633 0.004605 1.000000
0.127431 0.096356 -0.026420 1.000000
0.373568 -0.051476 -0.085299 1.000000
-0.093453 0.062926 -0.077453 1.000000
-0.208826 -0.001393 0.100023 1.000000
-0.305576 0.073255 0.068194 1.000000
0.174046 -0.085101 -0.051855 1.000000
-0.259044 0.041065 0.091248 1.000000
-0.293351 -0.099743 0.001087 1.000000
0.371517 -0.083291 -0.054712 1.000000
0.464617 -0.071301 0.069958 2.000000
0.224507 0.060856 -0.079058 1.000000
-0.054445 -0.010550 0.099457 1.000000
0.169596 -0.074047 0.067031 1.000000
-0.315250 -0.051524 -0.085271 1.000000
0.390732 -0.007290 0.099766 1.000000
0.051349 -0.039444 -0.091485 1.000000
0.346750 0.032798 0.094528 1.000000
0.155701 0.099882 0.004101 1.000000
0.075209 -0.055871 0.082845 1.000000
0.143128 0.082417 -0.056341 1.000000
-0.454735 -0.073219 0.067970 3.000000
-0.404388 0.084866 -0.052648 1.000000
0.036511 -0.063083 0.077513 1.000000
-0.262279 -0.010510 0.099461 1.000000
0.179242 -0.098566 -0.014979 1.000000
0.378250 -0.093136 0.035900 1.000000
-0.025826 -0.039322 0.091901 1.000000
0.151996 -0.004134 -0.099574 1.000000
-0.198629 -0.088809 0.045570 1.000000
0.170048 -0.075243 -0.065311 1.000000
0.329909 -0.099615 0.005187 1.000000
-0.425190 -0.059432 -0.079982 1.000000
-0.434773 0.069518 0.071974 1.000000
0.337659 -0.083865 0.054230 1.000000
-0.148024 -0.050976 -0.085595 1.000000
0.216055 0.074940 0.066282 1.000000
-0.452509 -0.094695 0.031571 3.000000
0.443995 0.060035 0.080058 2.000000
-0.032186 -0.098623 -0.014618 1.000000
-0.233288 0.061241 0.079122 1.000000
-0.316856 -0.026941 -0.095925 1.000000
0.237394 -0.031461 0.094925 1.000000
0.267144 0.051800 0.085608 1.000000
-0.364351 -0.094232 -0.032493 1.000000
-0.139277 -0.099714 -0.001653 1.000000
0.029875 -0.096853 0.024042 1.000000
0.282655 -0.032959 -0.094023 1.000000
-0.027741 -0.061834 0.078481 1.000000
-0.248484 0.097434 0.022487 1.000000
-0.381940 0.072056 -0.069074 1.000000
-0.218665 -0.078244 -0.061692 1.000000
-0.177218 0.096389 -0.026305 1.000000
-0.012066 -0.078662 0.061515 1.000000
-0.194166 -0.099519 0.007046 1.000000
-0.363890 0.079610 -0.060231 1.000000
0.416838 -0.097986 0.018972 1.000000
-0.021428 -0.099473 0.007536 1.000000
0.382339 0.051140 0.085998 1.000000
-0.205711 0.059998 0.080087 1.000000
0.162798 0.077819 0.062903 1.000000
0.323674 -0.049010 -0.086757 1.000000
-0.170011 0.098332 0.018292 1.000000
-0.376005 -0.092703 0.037077 1.000000
-0.147137 -0.037438 -0.092354 1.000000
-0.374862 0.065668 0.075489 1.000000
0.224493 -0.095641 0.028441 1.000000
0.129751 -0.096537 0.025354 1.000000
-0.316353 0.085414 0.052083 1.000000
0.465045 0.073139 -0.067963 2.000000
-0.155020 0.063948 -0.076643 1.000000
0.032323 -0.079275 0.060725 1.000000
0.464919 0.052572 -0.084789 2.000000
0.058914 -0.059484 -0.079942 1.000000
0.423636 0.002882 -0.099620 1.000000
-0.403175 -0.097740 -0.019710 1.000000
-0.031607 0.086670 -0.049597 1.000000
0.110613 -0.084420 -0.053008 1.000000
-0.148352 0.065501 0.075637 1.000000
-0.018215 0.081113 -0.058260 1.000000
0.071729 0.097127 -0.023499 1.000000
-0.255235 -0.095915 -0.027134 1.000000
0.411614 -0.093771 -0.033774 1.000000
-0.094095 -0.053360 -0.084185 1.000000
-0.415828 -0.004281 -0.099569 1.000000
0.128164 0.033444 0.094295 1.000000
0.124388 -0.010471 -0.099102 1.000000
0.258116 -0.070260 -0.070636 1.000000
0.033113 -0.049654 0.086739 1.000000
-0.348235 0.024782 0.096971 1.000000
0.079473 0.009349 0.099593 1.000000
-0.118489 0.086893 0.049583 1.000000
-0.364877 0.099220 0.012672 1.000000
-0.042218 -0.042520 -0.090146 1.000000
-0.213874 -0.069754 -0.071142 1.000000
-0.031898 -0.039938 -0.091272 1.000000
0.046668 0.015130 0.098887 1.000000
0.110995 -0.020040 -0.097616 1.000000
0.084388 0.039194 -0.091695 1.000000
-0.255527 0.090065 0.043564 1.000000
0.044859 -0.094193 -0.032603 1.000000
0.155005 0.097513 0.022133 1.000000
-0.358369 -0.019385 -0.097763 1.000000
0.253762 -0.072622 0.068637 1.000000
-0.080738 0.019297 -0.097834 1.000000
-0.425481 -0.068022 -0.072846 1.000000
-0.418331 -0.057385 -0.081453 1.000000
-0.356788 0.053436 -0.084278 1.000000
0.391288 0.070461 -0.070669 1.000000
-0.361006 0.023177 -0.096967 1.000000
0.338886 0.070363 -0.070766 1.000000
0.243472 0.099076 -0.013235 1.000000
0.172255 -0.030824 -0.094792 1.000000
-0.252715 0.082759 -0.055838 1.000000
-0.159664 0.052844 0.084991 1.000000
-0.250972 0.063056 0.077715 1.000000
0.158245 -0.069602 -0.071294 1.000000
0.197693 -0.098307 0.016978 1.000000
-0.390854 -0.099476 0.007498 1.000000
0.238499 -0.033336 -0.093887 1.000000
-0.007822 0.082888 0.056010 1.000000
-0.332345 0.099018 0.013963 1.000000
-0.343395 0.077918 0.062776 1.000000
0.291891 -0.083121 0.055325 1.000000
0.224268 0.001821 0.100016 1.000000
0.321716 -0.073506 0.067645 1.000000
-0.369033 -0.060495 0.079520 1.000000
0.413387 0.024696 0.096990 1.000000
-0.453081 0.079077 0.061281 3.000000
-0.325784 -0.098732 0.014293 1.000000
-0.428092 0.001870 -0.099652 1.000000
-0.370847 0.085892 0.051275 1.000000
-0.312942 0.099661 0.008009 1.000000
-0.011071 0.090186 -0.042962 1.000000
-0.101009 0.092252 -0.038297 1.000000
0.024805 -0.095488 0.028966 1.000000
0.429758 -0.099752 -0.000452 2.000000
0.019675 -0.099587 0.006054 1.000000
-0.233429 -0.035722 -0.093029 1.000000
-0.215756 0.020902 0.097838 1.000000
0.075486 -0.094685 0.031599 1.000000
-0.379774 -0.024800 0.096910 1.000000
0.089758 -0.091818 0.039123 1.000000
0.093241 0.087024 -0.048998 1.000000
0.402341 0.067308 -0.073680 1.000000
0.342601 0.092732 0.037551 1.000000
0.222332 -0.095142 -0.029793 1.000000
-0.310454 0.099963 0.001528 1.000000
-0.022055 0.091352 -0.040377 1.000000
-0.387465 0.082776 -0.055813 1.000000
0.329675 -0.072672 -0.068224 1.000000
-0.005826 0.046165 0.088771 1.000000
-0.024274 0.097727 0.021175 1.000000
0.091517 -0.009426 0.099564 1.000000
-0.096962 0.052125 0.085416 1.000000
-0.298707 0.029284 -0.095312 1.000000
-0.320480 -0.091036 -0.040568 1.000000
-0.288654 0.058341 -0.080962 1.000000
-0.175926 0.035270 -0.093275 1.000000
-0.073697 0.071483 -0.069646 1.000000
0.385105 0.029817 0.095520 1.000000
-0.404066 0.088645 -0.045986 1.000000
-0.335356 -0.099577 0.006379 1.000000
0.120845 0.007541 0.099764 1.000000
-0.079653 0.013087 -0.098848 1.000000
-0.182446 -0.091190 -0.040212 1.000000
-0.022185 -0.018036 -0.098027 1.000000
0.232343 0.062405 -0.077857 1.000000
0.188046 -0.001556 0.100017 1.000000
-0.087241 0.084443 0.053722 1.000000
0.329193 -0.074536 0.066476 1.000000
-0.316941 0.058478 -0.080869 1.000000
0.151813 0.043933 -0.089545 1.000000
0.196568 0.058432 0.081263 1.000000
-0.263479 0.085174 -0.052127 1.000000
0.431611 0.089415 -0.044476 1.000000
-0.137202 -0.074881 0.066085 1.000000
0.174317 0.004914 0.099919 1.000000
0.132329 -0.080419 -0.058887 1.000000
0.142927 0.085593 0.051782 1.000000
0.019041 0.099610 -0.008192 1.000000
0.299223 0.070229 0.071263 1.000000
0.362365 0.028864 -0.095434 1.000000
0.151345 -0.061418 -0.078442 1.000000
-0.284444 -0.082689 -0.055597 1.000000
-0.029503 -0.099206 0.010355 1.000000
-0.398352 -0.058345 -0.080801 1.000000
-0.176988 0.023981 -0.096787 1.000000
0.095653 -0.088628 0.045924 1.000000
-0.109520 -0.045633 -0.088560 1.000000
0.185801 0.031592 -0.094599 1.000000
-0.074443 -0.090596 0.041948 1.000000
0.243677 -0.066314 0.074715 1.000000
0.160042 0.062806 -0.077546 1.000000
0.425373 0.091371 0.040695 1.000000
0.053676 0.038271 0.092457 1.000000
0.413058 0.096592 -0.025608 1.000000
-0.106683 -0.099702 -0.002048 1.000000
-0.168873 0.083758 0.054731 1.000000
0.225753 -0.066765 0.074317 1.000000
0.445098 0.085723 0.051562 2.000000
0.340532 0.094819 -0.031512 1.000000
0.260272 0.096494 0.026307 1.000000
0.223673 -0.073034 0.068179 1.000000
0.402657 -0.092731 0.037013 1.000000
-0.132741 -0.074685 -0.065945 1.000000
-0.272765 0.080894 0.058939 1.000000
-0.322645 -0.050114 -0.086104 1.000000
-0.287638 -0.099246 -0.009573 1.000000
0.238781 0.076428 0.064595 1.000000
0.040351 -0.002871 0.099976 1.000000
0.166419 0.033090 -0.094060 1.000000
-0.400900 0.099892 0.003784 1.000000
-0.349191 -0.095966 0.027319 1.000000
0.425945 -0.031386 -0.094589 1.000000
-0.261311 -0.008401 -0.099298 1.000000
-0.424444 -0.007150 -0.099416 1.000000
0.433470 0.033102 0.094419 2.000000
-0.071815 -0.075818 -0.064659 1.000000
0.339137 -0.096298 0.026177 1.000000
0.400712 0.092165 0.038862 1.000000
-0.208538 0.099734 0.007239 1.000000
-0.231731 -0.091670 -0.039103 1.000000
0.169313 -0.098391 -0.016081 1.000000
-0.347777 -0.071992 -0.068904 1.000000
-0.298993 0.083988 -0.054030 1.000000
0.407392 0.025808 0.096685 1.000000
-0.187171 -0.084789 -0.052384 1.000000
0.064039 0.095475 0.029815 1.000000
-0.252813 -0.042217 0.090648 1.000000
-0.241785 0.017487 -0.098151 1.000000
-0.198901 0.007017 0.099814 1.000000
-0.460649 -0.039305 -0.091546 3.000000
-0.207015 0.069408 -0.071722 1.000000
0.265225 0.098155 0.019260 1.000000
-0.351033 -0.043703 0.089906 1.000000
-0.337716 0.027994 0.096050 1.000000
-0.409571 0.092746 0.037518 1.000000
0.107770 -0.045206 0.089141 1.000000
0.113557 0.061707 0.078761 1.000000
0.428243 0.011702 -0.099008 1.000000
-0.335509 0.003937 -0.099587 1.000000
-0.160242 -0.099761 0.000524 1.000000
0.280702 0.099870 -0.004121 1.000000
0.019940 0.072651 0.068841 1.000000
0.136314 0.062667 -0.077654 1.000000
-0.395345 0.093180 -0.036064 1.000000
0.093849 0.027227 -0.095910 1.000000
-0.397535 -0.099223 0.010177 1.000000
0.290120 0.025433 0.096794 1.000000
0.201394 0.002346 0.100000 1.000000
0.183390 0.090439 -0.042466 1.000000
0.397941 0.099215 -0.012354 1.000000
-0.257402 -0.014589 -0.098573 1.000000
0.187746 -0.099582 -0.005848 1.000000
-0.034291 0.092387 -0.037985 1.000000
0.215056 -0.023465 -0.096851 1.000000
-0.186579 0.087196 -0.048708 1.000000
-0.150992 0.026601 0.096454 1.000000
0.005951 0.040602 0.091448 1.000000
0.301332 -0.097653 -0.020100 1.000000
0.076583 0.099897 0.003622 1.000000
-0.123506 0.028908 -0.095421 1.000000
0.021650 -0.074175 0.066886 1.000000
0.243682 0.015590 -0.098452 1.000000
-0.201612 -0.055181 0.083314 1.000000
-0.328190 -0.089921 0.043388 1.000000
-0.357536 -0.092122 0.038421 1.000000
0.185691 -0.096867 0.023981 1.000000
0.396598 0.064544 0.076481 1.000000
-0.068954 0.086641 -0.049646 1.000000
0.293908 0.024271 -0.096723 1.000000
-0.355398 0.078640 0.061844 1.000000
-0.327098 -0.038654 -0.091827 1.000000
-0.246184 0.040057 0.091684 1.000000
-0.380198 -0.011281 0.099388 1.000000
-0.320070 -0.085057 -0.051929 1.000000
0.118807 -0.005146 0.099905 1.000000
0.365638 -0.056681 -0.081932 1.000000
0.168452 0.082228 0.056981 1.000000
0.444339 0.021233 -0.097402 2.000000
0.276731 -0.039059 0.092015 1.000000
-0.213914 0.034544 0.093899 1.000000
0.090756 -0.017495 -0.098113 1.000000
-0.062794 -0.099663 -0.003289 1.000000
-0.406587 0.098231 0.018923 1.000000
0.278046 -0.037367 -0.092384 1.000000
-0.425375 0.077276 0.063604 1.000000
-0.095022 -0.052479 0.085068 1.000000
-0.383546 -0.064871 -0.075624 1.000000
0.338211 -0.073050 0.068162 1.000000
0.217194 -0.082677 0.055978 1.000000
0.107413 0.020166 -0.097640 1.000000
0.294439 -0.046938 -0.087895 1.000000
-0.344674 0.093307 0.036076 1.000000
-0.464942 0.027735 -0.095762 3.000000
-0.011466 0.076968 -0.063620 1.000000
0.075075 -0.087355 -0.048044 1.000000
-0.092323 -0.057124 0.081994 1.000000
0.147362 -0.008668 0.099635 1.000000
-0.070402 0.097261 -0.022896 1.000000
0.393246 0.040853 0.091340 1.000000
-0.403259 -0.099736 0.001313 1.000000
-0.125171 -0.059208 0.080518 1.000000
-0.112841 0.092004 0.039234 1.000000
-0.155100 0.073105 0.068364 1.000000
-0.294933 -0.099472 0.007536 1.000000
0.094896 -0.096174 -0.026243 1.000000
0.049613 0.050574 -0.085971 1.000000
0.344927 0.057482 -0.081546 1.000000
0.309289 0.086696 0.049916 1.000000
-0.278940 -0.088506 -0.045802 1.000000
0.245117 0.076035 -0.064678 1.000000
0.433393 -0.066656 -0.074050 1.000000
0.129805 0.091798 -0.039346 1.000000
-0.064041 -0.080348 -0.058979 1.000000
-0.436822 -0.099340 0.008938 3.000000
0.052224 -0.056655 -0.081949 1.000000
-0.167250 -0.009040 0.099600 1.000000
-0.374835 -0.019651 0.098066 1.000000
-0.145999 0.099746 0.007114 1.000000
0.291213 0.087589 -0.048043 1.000000
0.132675 -0.084098 0.053886 1.000000
0.206342 0.099008 -0.013663 1.000000
0.208656 -0.046348 -0.088196 1.000000
-0.241837 -0.094282 0.032719 1.000000
-0.343874 -0.056616 0.082339 1.000000
-0.030632 -0.015525 -0.098425 1.000000
-0.312653 -0.091901 0.038932 1.000000
0.068380 -0.068519 0.072739 1.000000
-0.194023 0.022873 -0.097035 1.000000
0.193245 0.071692 -0.069437 1.000000
0.185179 0.096025 0.027923 1.000000
0.101125 0.095263 0.030543 1.000000
0.277912 0.096277 -0.026691 1.000000
-0.432120 0.013005 -0.098861 3.000000
0.447741 -0.098528 -0.015216 2.000000
-0.142576 -0.084232 -0.053324 1.000000
0.192970 -0.099230 -0.009744 1.000000
0.356922 0.074807 -0.066070 1.000000
0.300165 -0.001358 0.100024 1.000000
0.098006 0.074135 -0.066833 1.000000
-0.274290 0.086938 0.049507 1.000000
-0.216797 -0.090339 -0.042178 1.000000
-0.379545 0.099903 -0.003084 1.000000
0.101469 -0.005591 -0.099528 1.000000
-0.228101 -0.086260 0.050259 1.000000
-0.384473 0.040664 -0.091059 1.000000
-0.381776 0.041887 0.090892 1.000000
-0.405400 0.095698 -0.028684 1.000000
-0.256677 0.047513 -0.087721 1.000000
0.261704 -0.059556 0.080248 1.000000
0.179807 -0.063393 0.077272 1.000000
-0.034739 -0.055684 -0.082609 1.000000
-0.053369 0.084087 -0.053884 1.000000
0.108032 -0.099003 0.012506 1.000000
0.089939 0.089922 -0.043481 1.000000
0.047262 0.097094 -0.023643 1.000000
-0.085710 -0.091381 0.040134 1.000000
-0.433001 0.045548 -0.088723 3.000000
-0.403538 0.090865 0.041865 1.000000
0.250151 -0.046283 0.088592 1.000000
-0.132385 0.055316 0.083381 1.000000
0.145396 -0.094089 -0.032891 1.000000
0.230463 -0.091215 0.040517 1.000000
-0.023064 -0.098812 -0.013425 1.000000
-0.273477 0.009696 0.099560 1.000000
-0.021947 0.068829 -0.072301 1.000000
-0.045970 0.097591 -0.021423 1.000000
0.383609 0.032165 -0.094393 1.000000
