-0.170808 -0.078534 -0.061318 1.000000
-0.277786 0.000071 0.100069 1.000000
-0.189156 0.094541 -0.032283 1.000000
0.086418 -0.038332 0.092330 1.000000
0.209252 -0.097539 0.020973 1.000000
-0.452900 -0.076309 0.064465 3.000000
0.098783 0.046783 0.088456 1.000000
-0.028308 0.002708 -0.099626 1.000000
-0.080584 0.045360 -0.088818 1.000000
-0.061490 -0.081186 -0.057809 1.000000
-0.413326 0.097389 0.022686 1.000000
0.223575 -0.099582 -0.005849 1.000000
-0.038911 0.083901 -0.054158 1.000000
0.139379 0.096190 0.027353 1.000000
-0.354200 -0.092678 0.037136 1.000000
0.093075 0.099939 0.002303 1.000000
-0.394531 0.051957 0.085515 1.000000
0.195592 0.042360 -0.090325 1.000000
0.257414 -0.061661 0.078615 1.000000
0.075312 0.051476 0.085800 1.000000
0.332839 0.056060 0.082875 1.000000
-0.265155 -0.091793 -0.038818 1.000000
-0.123371 -0.007058 0.099788 1.000000
-0.061235 0.099860 -0.004432 1.000000
0.187535 0.096366 -0.026383 1.000000
-0.178033 0.054181 0.084152 1.000000
-0.411560 0.080691 -0.058838 1.000000
-0.261670 0.014075 -0.098692 1.000000
-0.262017 -0.099581 -0.005901 1.000000
0.377869 0.099921 0.002861 1.000000
0.416105 -0.065375 -0.075179 1.000000
0.402669 0.066732 -0.074189 1.000000
-0.050041 0.088222 -0.046818 1.000000
0.292058 -0.089124 0.044951 1.000000
-0.345003 0.040051 0.091687 1.000000
0.196701 -0.060569 -0.079100 1.000000
-0.311932 0.097494 0.022216 1.000000
0.343739 -0.093578 0.034673 1.000000
0.001964 0.058084 -0.081137 1.000000
-0.311360 -0.043958 0.089776 1.000000
-0.243687 0.048980 0.087276 1.000000
-0.138365 0.080745 0.059131 1.000000
0.016668 -0.066323 0.074706 1.000000
-0.284862 0.046408 0.088647 1.000000
-0.393669 -0.014922 0.098883 1.000000
0.159579 -0.071726 0.069532 1.000000
0.110918 -0.094778 0.031341 1.000000
0.338047 -0.074526 0.066488 1.000000
0.155535 -0.010066 -0.099140 1.000000
0.370395 -0.097631 -0.020199 1.000000
-0.196634 0.002025 -0.099647 1.000000
0.008957 -0.092600 0.037316 1.000000
0.059836 0.091024 -0.041135 1.000000
0.141915 -0.037419 -0.092362 1.000000
0.093306 0.002978 0.099980 1.000000
-0.300055 -0.072880 0.068354 1.000000
-0.209349 0.095453 -0.029529 1.000000
-0.092613 -0.075665 -0.064833 1.000000
0.023590 0.049287 0.087094 1.000000
0.124021 0.073493 0.067924 1.000000
-0.056657 -0.068122 0.073120 1.000000
0.435235 0.056722 0.082426 2.000000
0.010136 0.062676 -0.077646 1.000000
-0.114278 -0.093499 -0.034530 1.000000
-0.302948 -0.018851 -0.097882 1.000000
-0.241958 0.051679 -0.085317 1.000000
0.057741 0.074761 -0.066123 1.000000
-0.051132 -0.051509 0.085642 1.000000
0.222190 -0.022087 -0.097159 1.000000
-0.340542 -0.092976 0.036345 1.000000
0.426837 -0.096917 -0.023394 1.000000
-0.142752 -0.025144 0.096810 1.000000
-0.327455 -0.093584 -0.034295 1.000000
0.183857 -0.013707 0.099076 1.000000
-0.452397 -0.065442 0.075483 3.000000
0.208458 -0.083029 -0.055098 1.000000
-0.128277 -0.090428 -0.041972 1.000000
0.128926 0.099349 -0.010950 1.000000
0.164402 0.020546 0.097918 1.000000
-0.250812 0.010487 0.099485 1.000000
0.232667 0.083425 0.055221 1.000000
0.242893 -0.063808 -0.076561 1.000000
0.141257 -0.001468 -0.099657 1.000000
0.211101 -0.071796 0.069463 1.000000
0.186909 0.084715 0.053265 1.000000
-0.150880 -0.000525 -0.099687 1.000000
-0.150352 -0.033725 0.094110 1.000000
-0.466700 0.075118 -0.065718 3.000000
-0.073401 0.099896 0.003654 1.000000
0.342837 -0.035446 0.093491 1.000000
0.180779 0.098525 0.017073 1.000000
0.239674 -0.079610 -0.059930 1.000000
-0.353262 -0.096329 -0.025709 1.000000
0.464439 0.056070 -0.082506 2.000000
0.068811 0.067388 0.073973 1.000000
0.108132 0.010508 -0.099121 1.000000
0.303664 -0.014731 -0.098551 1.000000
0.125015 -0.022460 0.097438 1.000000
-0.316002 -0.062452 0.078002 1.000000
0.205022 -0.051726 -0.085151 1.000000
0.400181 -0.084349 -0.053127 1.000000
-0.378431 0.090465 0.042779 1.000000
0.074931 -0.098847 -0.013205 1.000000
-0.351708 -0.094037 -0.033035 1.000000
-0.065276 -0.090403 -0.042031 1.000000
-0.178054 0.022689 0.097439 1.000000
0.082905 -0.057130 -0.081626 1.000000
-0.407578 -0.078682 -0.061127 1.000000
0.158049 0.094816 0.031882 1.000000
-0.070631 -0.013975 0.099033 1.000000
0.260359 0.090554 0.042584 1.000000
-0.288275 0.074229 0.067089 1.000000
-0.071490 -0.069733 0.071526 1.000000
-0.182669 -0.021165 -0.097365 1.000000
-0.152620 0.086163 0.050817 1.000000
-0.369113 -0.099588 -0.005682 1.000000
0.360059 0.059722 -0.079938 1.000000
0.048908 0.046342 0.088681 1.000000
0.240131 -0.055365 -0.082826 1.000000
-0.121726 0.003319 0.099969 1.000000
0.296682 0.097944 -0.019842 1.000000
0.440095 0.099963 -0.001160 2.000000
-0.346578 0.079584 -0.060265 1.000000
-0.303797 -0.085963 -0.050398 1.000000
0.006569 -0.037505 0.092688 1.000000
0.358201 0.039654 -0.091496 1.000000
-0.087645 -0.072630 -0.068266 1.000000
0.431544 0.093099 -0.036290 1.000000
-0.344390 0.070012 0.071481 1.000000
0.242856 0.099981 0.000937 1.000000
-0.107929 -0.008438 0.099657 1.000000
-0.287299 0.021795 0.097639 1.000000
0.446211 0.092801 0.037391 2.000000
-0.444979 0.009458 0.099583 3.000000
0.055579 -0.051222 0.085812 1.000000
0.421591 -0.054224 0.083964 2.000000
0.363387 -0.020053 -0.097613 1.000000
0.229514 0.091789 -0.039367 1.000000
-0.413180 0.087992 0.047632 1.000000
-0.281386 -0.014994 -0.098509 1.000000
0.143872 -0.006028 0.099877 1.000000
0.322403 0.003557 0.099962 1.000000
-0.031914 -0.002365 -0.099629 1.000000
0.409257 -0.023790 0.097141 1.000000
-0.074681 0.073177 0.068282 1.000000
-0.237746 0.056322 0.082697 1.000000
-0.081086 0.092061 0.039102 1.000000
-0.103164 -0.099610 0.005349 1.000000
-0.297267 -0.088423 -0.045964 1.000000
-0.005452 -0.097550 -0.020560 1.000000
0.441161 0.004846 0.099921 2.000000
0.135018 0.099512 -0.009223 1.000000
-0.197768 -0.099760 0.000572 1.000000
-0.322380 0.099334 0.011467 1.000000
0.087824 -0.095644 0.028428 1.000000
-0.064519 0.080429 -0.059175 1.000000
-0.211708 0.092670 -0.037332 1.000000
-0.301843 -0.024417 0.097000 1.000000
-0.072271 -0.055672 0.082980 1.000000
-0.024620 0.090479 -0.042387 1.000000
-0.274039 0.095470 -0.029469 1.000000
0.247301 -0.088744 0.045698 1.000000
0.455661 0.058298 -0.080991 2.000000
-0.134266 -0.069755 0.071503 1.000000
-0.019549 0.071468 -0.069661 1.000000
-0.048101 0.090858 -0.041518 1.000000
0.427114 0.099977 0.001093 1.000000
-0.163006 0.097928 0.020274 1.000000
0.335477 -0.089410 -0.044028 1.000000
-0.177326 -0.069820 0.071439 1.000000
0.035665 -0.029824 0.095450 1.000000
0.114036 -0.034864 -0.093337 1.000000
0.258948 -0.084786 0.052751 1.000000
0.094937 0.047366 -0.087796 1.000000
0.016148 -0.098103 0.018264 1.000000
0.068918 0.029602 0.095583 1.000000
-0.424025 -0.099589 0.005988 3.000000
-0.269929 -0.071780 -0.069116 1.000000
-0.130560 -0.053069 0.084720 1.000000
0.432876 0.099855 -0.004589 2.000000
-0.183990 -0.093500 0.034889 1.000000
0.312804 0.015140 0.098886 1.000000
-0.406471 -0.025597 -0.096316 1.000000
-0.466828 0.043594 0.090081 3.000000
-0.429713 -0.039816 -0.091325 1.000000
0.278186 -0.090493 0.042186 1.000000
-0.197140 0.093513 -0.035139 1.000000
-0.466312 0.098707 0.015923 3.000000
0.330427 -0.082741 0.055883 1.000000
-0.360519 -0.048582 -0.087011 1.000000
-0.013544 -0.005398 -0.099534 1.000000
-0.372523 -0.092417 -0.037377 1.000000
0.087079 -0.067199 0.073934 1.000000
0.064553 0.043205 -0.089916 1.000000
-0.355976 0.099870 -0.004116 1.000000
0.168556 -0.059536 0.080264 1.000000
-0.396918 0.078578 0.061925 1.000000
0.360434 0.092555 -0.037597 1.000000
-0.277581 0.033166 0.094395 1.000000
0.232558 0.015525 -0.098462 1.000000
0.322601 0.064235 -0.076390 1.000000
0.192574 -0.066460 -0.074222 1.000000
-0.284286 0.051572 -0.085380 1.000000
-0.397999 -0.019266 0.098152 1.000000
-0.074893 0.023281 -0.096944 1.000000
0.097214 -0.097673 0.020373 1.000000
0.190008 -0.080754 -0.058445 1.000000
0.429758 -0.090012 -0.042847 1.000000
0.365571 0.005011 0.099916 1.000000
0.026952 0.011748 0.099366 1.000000
0.114367 0.027924 -0.095707 1.000000
0.302227 -0.098710 0.014432 1.000000
0.140996 -0.094900 -0.030629 1.000000
-0.281612 -0.006343 0.099855 1.000000
0.229222 -0.076968 0.063699 1.000000
-0.243847 -0.060590 0.079447 1.000000
-0.243003 0.057002 -0.081873 1.000000
0.096700 0.085988 -0.050750 1.000000
0.170557 0.041798 0.090931 1.000000
0.093432 -0.098490 -0.015460 1.000000
-0.186099 0.071042 0.070450 1.000000
0.183886 -0.035128 0.093605 1.000000
0.082347 -0.048174 0.087614 1.000000
0.303689 0.005348 -0.099543 1.000000
0.162531 0.043435 0.090162 1.000000
-0.295553 0.050205 -0.086189 1.000000
-0.030714 0.085168 -0.052136 1.000000
-0.462835 0.048501 -0.087196 3.000000
0.060999 0.046935 0.088379 1.000000
0.449175 0.052849 0.084988 2.000000
0.312481 0.036987 0.093013 1.000000
-0.153055 0.084492 -0.053280 1.000000
0.261682 0.084723 -0.052889 1.000000
-0.076153 -0.094867 -0.030731 1.000000
-0.077156 0.006444 0.099868 1.000000
0.317870 -0.072245 0.069013 1.000000
-0.338196 0.085398 -0.051748 1.000000
0.095987 0.014283 -0.098659 1.000000
0.207631 0.100003 0.000110 1.000000
-0.188041 -0.055140 0.083342 1.000000
0.040124 0.084426 0.053747 1.000000
-0.310047 0.073762 0.067619 1.000000
-0.064428 -0.010182 0.099492 1.000000
0.153265 -0.072066 0.069192 1.000000
0.089789 -0.004333 0.099930 1.000000
0.043434 0.098160 -0.018876 1.000000
-0.331646 0.000630 0.100054 1.000000
-0.064874 0.096843 -0.024742 1.000000
0.420519 0.030111 0.095435 2.000000
-0.253003 -0.097139 -0.022398 1.000000
0.333166 0.088752 0.046141 1.000000
0.298632 -0.098294 -0.016695 1.000000
0.325553 -0.069118 0.072141 1.000000
-0.248044 -0.077648 0.062822 1.000000
-0.278019 0.073039 -0.068076 1.000000
0.333429 -0.046612 0.088424 1.000000
0.345469 0.089643 -0.044028 1.000000
0.007675 -0.006731 0.099818 1.000000
0.285880 -0.099438 0.007904 1.000000
-0.373689 -0.044024 -0.089380 1.000000
-0.048446 -0.094248 -0.032451 1.000000
-0.156136 0.005867 0.099889 1.000000
-0.260050 0.042285 0.090720 1.000000
0.378842 -0.098747 0.014199 1.000000
0.342214 0.076643 -0.063988 1.000000
0.430629 -0.071974 0.069284 2.000000
0.399291 -0.001399 -0.099660 1.000000
-0.269766 0.099588 0.008778 1.000000
-0.259301 -0.011496 -0.099005 1.000000
-0.005111 -0.011692 -0.098987 1.000000
0.089872 0.034856 -0.093424 1.000000
0.143204 0.072188 -0.068942 1.000000
-0.187387 -0.060863 0.079235 1.000000
-0.116463 0.029967 -0.095114 1.000000
0.126532 0.064166 -0.076451 1.000000
0.404056 0.075890 0.065205 1.000000
0.173064 0.022230 -0.097179 1.000000
-0.422270 0.055071 0.083548 1.000000
-0.397909 0.005597 0.099898 1.000000
-0.421127 -0.091808 0.039146 3.000000
-0.116559 0.092688 0.037653 1.000000
0.216951 -0.099611 0.005313 1.000000
-0.206974 0.099017 -0.013606 1.000000
-0.059790 0.097810 0.020804 1.000000
0.050272 -0.099151 0.010937 1.000000
0.386002 0.020662 -0.097529 1.000000
0.311725 -0.075931 0.064894 1.000000
0.010242 -0.024938 0.096870 1.000000
-0.071353 -0.098314 -0.016571 1.000000
0.375317 0.090342 -0.042657 1.000000
-0.187313 0.064329 -0.076307 1.000000
0.057091 0.087032 -0.048984 1.000000
0.223278 -0.088198 0.046769 1.000000
0.103527 0.098538 0.016992 1.000000
-0.115607 0.041505 -0.090695 1.000000
-0.390467 0.065881 -0.074939 1.000000
0.184968 0.092370 0.038386 1.000000
0.407572 0.029508 0.095610 1.000000
-0.317075 0.061964 -0.078199 1.000000
-0.175291 0.006456 0.099867 1.000000
-0.052158 0.025748 -0.096340 1.000000
0.443593 0.084098 0.054230 2.000000
-0.129938 0.081512 -0.057673 1.000000
0.363076 0.074018 0.067328 1.000000
-0.065508 -0.040047 0.091587 1.000000
-0.373350 -0.036580 0.093082 1.000000
0.194820 -0.099154 -0.010543 1.000000
0.421807 0.082943 0.055930 2.000000
-0.141151 0.061634 0.078818 1.000000
-0.045413 0.061814 -0.078316 1.000000
-0.154914 0.094377 0.033101 1.000000
-0.459197 -0.035187 -0.093221 3.000000
-0.054397 0.098931 -0.014146 1.000000
-0.395515 -0.035543 0.093456 1.000000
-0.074689 -0.026667 0.096367 1.000000
-0.032072 -0.076712 0.064008 1.000000
0.435644 0.068427 0.073057 2.000000
0.311751 0.063929 -0.076660 1.000000
0.196755 0.092363 0.038403 1.000000
0.187656 -0.097313 0.021985 1.000000
-0.109048 0.092881 0.037206 1.000000
0.394999 -0.080338 0.059355 1.000000
0.336345 0.037820 0.092652 1.000000
-0.089043 -0.044868 0.089313 1.000000
-0.003907 0.090398 0.042909 1.000000
0.356612 0.034199 0.094023 1.000000
0.377264 -0.095095 -0.029957 1.000000
0.302982 0.048738 0.087419 1.000000
-0.049112 0.084945 0.052876 1.000000
0.108889 -0.030322 0.095305 1.000000
-0.108612 -0.065246 0.075656 1.000000
-0.037059 -0.057930 0.081445 1.000000
0.291589 0.000236 0.100066 1.000000
-0.274556 -0.086574 -0.049364 1.000000
-0.312857 0.099957 0.001717 1.000000
-0.330801 -0.078937 -0.060798 1.000000
-0.097780 0.029178 -0.095343 1.000000
-0.358739 0.073845 0.067525 1.000000
0.286124 -0.046994 0.088230 1.000000
0.215590 -0.098313 -0.016578 1.000000
-0.063671 -0.059497 0.080295 1.000000
0.160469 0.014474 0.098991 1.000000
-0.210049 -0.032268 -0.094272 1.000000
0.198832 0.053299 0.084722 1.000000
-0.276875 0.098929 0.014522 1.000000
-0.059876 0.067400 -0.073600 1.000000
0.389405 -0.029525 0.095537 1.000000
0.367820 0.099566 -0.008656 1.000000
-0.384872 -0.082072 -0.056505 1.000000
0.149776 0.009894 -0.099179 1.000000
-0.013138 -0.066821 -0.073905 1.000000
0.302634 0.016676 -0.098280 1.000000
0.387055 -0.051073 -0.085537 1.000000
-0.168378 0.099999 -0.000012 1.000000
-0.006040 0.085533 -0.051519 1.000000
0.079071 -0.005533 -0.099530 1.000000
-0.182812 -0.000353 0.100055 1.000000
0.249159 -0.099722 -0.001404 1.000000
-0.290947 -0.093321 -0.035024 1.000000
0.415158 0.050725 -0.085881 1.000000
0.188361 -0.049263 -0.086608 1.000000
0.381413 0.091815 -0.039308 1.000000
-0.099748 -0.004025 -0.099577 1.000000
0.440722 0.096274 -0.026700 2.000000
0.172821 0.099190 -0.012509 1.000000
-0.057578 -0.051869 0.085429 1.000000
0.060331 0.093440 -0.035343 1.000000
0.297991 0.099047 -0.013417 1.000000
-0.285593 -0.092490 0.037571 1.000000
-0.138594 -0.099240 0.009998 1.000000
0.014836 -0.020535 -0.097506 1.000000
0.414056 0.027387 0.096226 1.000000
-0.335760 0.031706 -0.094559 1.000000
-0.395809 0.021790 0.097640 1.000000
-0.262959 0.095762 0.028827 1.000000
0.263615 -0.069084 0.072175 1.000000
0.240579 0.046871 0.088411 1.000000
-0.090611 0.079394 0.060873 1.000000
0.037121 0.054407 0.083999 1.000000
-0.377289 0.001432 0.100029 1.000000
0.174262 0.075760 -0.064990 1.000000
-0.097432 0.071585 0.069908 1.000000
0.261583 -0.050381 -0.085947 1.000000
0.006125 -0.092676 -0.036778 1.000000
0.044349 -0.010210 -0.099127 1.000000
0.427833 0.055660 0.083147 2.000000
0.401849 -0.033749 0.094101 1.000000
-0.260021 0.090279 -0.042780 1.000000
-0.312686 0.022058 0.097580 1.000000
-0.257648 0.097959 0.020137 1.000000
-0.021133 0.047858 0.087908 1.000000
-0.448825 0.002816 -0.099622 3.000000
-0.190910 0.092018 -0.038839 1.000000
-0.374848 0.099959 0.001660 1.000000
-0.052254 0.003588 0.099961 1.000000
-0.107395 0.098079 -0.019237 1.000000
-0.068879 -0.072117 -0.068779 1.000000
-0.418214 0.077748 0.062994 1.000000
-0.076902 0.013543 0.099139 1.000000
-0.257139 -0.049131 0.087049 1.000000
-0.270921 0.098444 0.017583 1.000000
-0.391735 0.046782 0.088457 1.000000
0.148114 -0.067279 0.073864 1.000000
0.159915 0.068213 0.073246 1.000000
0.266996 -0.080600 -0.058654 1.000000
0.066849 -0.023333 0.097243 1.000000
-0.106638 -0.053600 -0.084026 1.000000
-0.083382 -0.090403 0.042394 1.000000
-0.251842 -0.030753 -0.094817 1.000000
0.443631 -0.071935 -0.068961 2.000000
0.067554 0.099680 0.007808 1.000000
0.208032 -0.079455 -0.060130 1.000000
0.014348 -0.046708 -0.088012 1.000000
-0.255336 0.083423 -0.054861 1.000000
0.054389 0.077651 0.063120 1.000000
-0.313555 -0.034615 -0.093427 1.000000
0.447380 0.061647 -0.078444 2.000000
-0.044316 0.098490 0.017296 1.000000
-0.338171 0.025405 0.096802 1.000000
-0.438301 -0.098369 -0.016221 3.000000
-0.300579 -0.045270 -0.088745 1.000000
0.219091 0.080848 0.058998 1.000000
-0.234088 -0.007995 0.099699 1.000000
-0.050686 -0.021549 -0.097279 1.000000
0.187876 0.042779 -0.090133 1.000000
0.250153 0.099953 0.001841 1.000000
0.009873 -0.066578 -0.074119 1.000000
0.241305 -0.091953 0.038811 1.000000
-0.125723 -0.095805 0.027875 1.000000
0.295660 0.017040 -0.098222 1.000000
-0.238816 0.013022 -0.098858 1.000000
0.369074 -0.004336 0.099930 1.000000
-0.209958 -0.043009 -0.089897 1.000000
0.292845 0.031848 -0.094507 1.000000
0.256003 0.095718 0.028979 1.000000
-0.398715 -0.039091 -0.091638 1.000000
0.105774 -0.098578 -0.014902 1.000000
0.422195 0.077853 -0.062496 1.000000
-0.211549 -0.053593 -0.084030 1.000000
-0.274620 -0.034375 -0.093514 1.000000
-0.164556 0.052374 0.085269 1.000000
0.139992 0.065635 0.075519 1.000000
-0.230468 0.095499 -0.029369 1.000000
-0.215919 -0.078993 -0.060725 1.000000
-0.138515 0.088669 -0.045940 1.000000
0.387828 0.026728 -0.096055 1.000000
-0.326350 -0.093925 0.033710 1.000000
-0.240329 0.074262 -0.066689 1.000000
-0.187767 0.076142 0.064919 1.000000
-0.064499 0.085728 -0.051190 1.000000
0.317288 0.097122 0.023882 1.000000
-0.385036 -0.071021 0.070238 1.000000
0.427781 -0.018110 -0.098016 1.000000
-0.407862 0.083710 0.054801 1.000000
0.182397 -0.053395 0.084527 1.000000
0.051891 0.089743 0.044196 1.000000
0.283992 -0.099694 -0.002295 1.000000
-0.058085 -0.005735 0.099886 1.000000
-0.299237 -0.037516 -0.092320 1.000000
0.423273 0.099835 -0.005244 1.000000
-0.083701 0.035226 0.093654 1.000000
0.434161 0.061062 -0.078899 1.000000
-0.325735 0.055806 0.083048 1.000000
-0.133882 -0.063153 -0.077096 1.000000
0.149821 -0.056979 0.082092 1.000000
0.182455 -0.020175 -0.097586 1.000000
-0.268162 -0.035955 0.093307 1.000000
-0.080580 0.075503 0.065644 1.000000
-0.435586 0.053673 -0.084135 3.000000
0.308313 0.086520 0.050213 1.000000
0.363547 0.080334 -0.059298 1.000000
-0.443304 0.085599 -0.051407 3.000000
-0.087065 -0.099244 0.009953 1.000000
0.402047 -0.098546 0.015471 1.000000
-0.069196 -0.087055 -0.048551 1.000000
-0.375421 0.087416 -0.048335 1.000000
-0.424517 0.049567 -0.086566 3.000000
-0.357647 0.016340 0.098696 1.000000
0.461033 -0.018251 -0.097993 2.000000
0.249860 -0.075493 -0.065028 1.000000
0.250671 -0.099163 0.010811 1.000000
-0.225909 0.081803 0.057607 1.000000
-0.127801 -0.016402 0.098649 1.000000
0.293509 -0.013657 0.099084 1.000000
0.127387 -0.041837 0.090813 1.000000
-0.413818 -0.077182 -0.063060 1.000000
0.191009 0.058277 -0.081006 1.000000
0.440898 0.014577 0.098975 2.000000
0.235790 -0.035701 0.093399 1.000000
-0.466857 0.085370 -0.051795 3.000000
0.088170 -0.030569 0.095234 1.000000
0.223686 0.023422 0.097275 1.000000
0.020239 0.079201 -0.060759 1.000000
0.199987 0.094784 -0.031609 1.000000
-0.076017 -0.003727 0.099949 1.000000
0.104656 0.099546 0.009228 1.000000
-0.418011 -0.013213 -0.098791 1.000000
0.061234 -0.063652 -0.076698 1.000000
-0.385797 -0.084691 0.052912 1.000000
0.090332 -0.093607 0.034592 1.000000
-0.103475 0.081989 -0.056971 1.000000
0.379182 0.090970 0.041623 1.000000
0.018572 0.018772 0.098311 1.000000
-0.451934 -0.080767 0.058787 3.000000
-0.171823 -0.014747 0.098911 1.000000
0.191344 -0.089481 0.044252 1.000000
-0.456529 -0.030623 0.095218 3.000000
-0.286496 -0.078376 0.061883 1.000000
0.328518 0.091568 0.040241 1.000000
-0.123008 -0.099209 0.010324 1.000000
0.382785 -0.032551 0.094533 1.000000
0.252641 -0.058505 0.081055 1.000000
-0.022763 -0.049963 -0.086194 1.000000
0.384692 -0.045791 -0.088480 1.000000
-0.048338 0.099488 -0.009481 1.000000
0.246912 -0.056016 -0.082383 1.000000
0.295312 0.048821 -0.087007 1.000000
0.303981 -0.074881 0.066084 1.000000
0.313561 -0.099613 0.005249 1.000000
-0.399390 -0.041244 0.091069 1.000000
-0.064165 -0.069509 0.071749 1.000000
0.189409 -0.084203 0.053733 1.000000
0.255109 -0.019392 0.098124 1.000000
-0.369110 -0.029716 0.095481 1.000000
0.319087 0.036162 0.093317 1.000000
-0.187683 -0.094957 -0.030432 1.000000
0.443208 -0.095144 -0.029788 2.000000
-0.251424 -0.007290 0.099766 1.000000
-0.165067 -0.055686 -0.082608 1.000000
0.017321 0.097806 -0.020459 1.000000
0.397769 -0.098037 -0.018316 1.000000
0.383345 -0.035532 -0.093097 1.000000
0.410841 0.098772 0.015517 1.000000
-0.291933 -0.025964 -0.096209 1.000000
-0.235111 -0.086298 -0.049831 1.000000
-0.423020 0.099044 0.013799 1.000000
0.257344 0.035194 -0.093303 1.000000
-0.196529 0.069648 0.071844 1.000000
-0.015997 0.008283 -0.099331 1.000000
-0.121214 -0.091446 0.039984 1.000000
-0.336317 0.099924 -0.002397 1.000000
0.463458 -0.010750 -0.099076 2.000000
0.182883 0.081646 0.057838 1.000000
0.276569 0.063971 -0.076623 1.000000
-0.087659 -0.090988 -0.040679 1.000000
0.053824 -0.098459 0.016020 1.000000
0.216268 0.090835 0.041935 1.000000
-0.456337 0.049278 -0.086737 3.000000
0.374367 -0.007743 -0.099360 1.000000
0.278228 -0.020894 0.097788 1.000000
-0.094806 0.025398 0.096804 1.000000
0.040315 0.035822 -0.093076 1.000000
0.388709 -0.090958 0.041111 1.000000
-0.081227 -0.070775 -0.070121 1.000000
-0.319131 0.025687 -0.096357 1.000000
0.146226 0.089002 -0.045286 1.000000
-0.038453 -0.079506 0.060427 1.000000
-0.264510 0.003814 0.099954 1.000000
-0.316898 -0.087222 0.048632 1.000000
-0.309034 0.090292 -0.042754 1.000000
-0.146216 -0.022961 -0.096963 1.000000
0.082909 -0.093491 -0.034552 1.000000
-0.281904 -0.068552 0.072707 1.000000
0.418998 0.097178 -0.023269 1.000000
0.099994 0.061041 0.079277 1.000000
-0.389266 0.099493 -0.009424 1.000000
0.115970 0.020755 -0.097508 1.000000
0.115860 0.099968 0.001366 1.000000
0.174227 -0.099658 0.003791 1.000000
-0.422107 0.099850 -0.004760 1.000000
0.390421 -0.094709 0.031533 1.000000
0.350134 -0.018657 0.098288 1.000000
-0.291117 -0.016569 -0.098260 1.000000
0.104081 -0.041148 0.091111 1.000000
-0.361324 0.099183 0.012922 1.000000
0.207639 0.053147 -0.084448 1.000000
-0.115177 0.031342 0.095052 1.000000
0.101921 0.025862 0.096669 1.000000
-0.041557 0.064748 0.076301 1.000000
0.193155 0.078252 -0.061982 1.000000
0.464880 0.067153 -0.073817 2.000000
0.072886 -0.099591 0.005933 1.000000
0.090700 0.061088 -0.078878 1.000000
-0.233145 0.080476 0.059477 1.000000
0.317015 0.093912 0.034394 1.000000
-0.373124 0.058341 -0.080963 1.000000
0.023422 -0.067000 0.074109 1.000000
-0.299221 0.073737 0.067647 1.000000
0.249888 0.097625 -0.021269 1.000000
0.227562 0.083058 -0.055397 1.000000
-0.273422 -0.093765 0.034155 1.000000
0.212559 0.092484 -0.037761 1.000000
-0.136657 0.071495 -0.069634 1.000000
-0.011056 0.099576 -0.008546 1.000000
-0.417656 -0.099261 0.009770 1.000000
0.174107 -0.092493 -0.037201 1.000000
-0.354415 0.097635 -0.021227 1.000000
0.325327 0.099525 -0.009085 1.000000
-0.138335 -0.075250 -0.065303 1.000000
-0.371049 0.097950 0.020178 1.000000
0.291339 -0.085743 0.051132 1.000000
0.192756 0.074213 -0.066745 1.000000
0.084205 0.028133 0.096009 1.000000
-0.292653 -0.003163 -0.099604 1.000000
0.030410 -0.066611 0.074453 1.000000
0.273641 -0.095854 0.027708 1.000000
0.075761 0.045883 -0.088552 1.000000
-0.059314 -0.095587 -0.028262 1.000000
-0.284441 -0.043961 -0.089412 1.000000
-0.314556 0.002009 0.100010 1.000000
-0.037839 -0.046520 0.088471 1.000000
-0.405928 0.072522 -0.068607 1.000000
0.196207 -0.090075 -0.042722 1.000000
0.384429 -0.081553 -0.057269 1.000000
0.427895 -0.098329 0.016839 2.000000
-0.184703 0.086394 0.050427 1.000000
0.004847 0.087813 -0.047619 1.000000
0.324976 0.099020 0.013949 1.000000
0.190596 -0.044418 -0.089179 1.000000
0.455060 -0.099580 -0.005934 2.000000
0.036215 0.006525 0.099860 1.000000
-0.176803 -0.089360 -0.044126 1.000000
0.229890 -0.084266 -0.053268 1.000000
-0.241423 -0.099629 -0.004371 1.000000
-0.185855 0.095728 0.028943 1.000000
0.033851 0.032629 -0.094226 1.000000
-0.158622 -0.098726 0.014333 1.000000
-0.015922 -0.046278 0.088594 1.000000
-0.025393 0.035203 0.093662 1.000000
0.393106 0.099885 0.004006 1.000000
-0.442038 -0.064099 0.076667 3.000000
0.319767 0.098991 -0.013771 1.000000
-0.270503 -0.041446 0.090982 1.000000
-0.420405 -0.094978 -0.030357 1.000000
0.198811 0.031251 0.095085 1.000000
0.024467 0.021705 -0.097296 1.000000
-0.106895 -0.098254 0.017313 1.000000
0.183037 0.050445 -0.086047 1.000000
0.093967 0.064375 0.076630 1.000000
0.149987 -0.054288 -0.083558 1.000000
0.446192 0.014569 -0.098613 2.000000
0.218617 -0.043110 0.090208 1.000000
-0.059830 0.074062 -0.066916 1.000000
0.117659 0.018655 0.098329 1.000000
0.087435 0.048531 0.087541 1.000000
0.329181 -0.028794 -0.095387 1.000000
0.178965 -0.092018 0.038661 1.000000
0.423400 0.067131 0.074199 2.000000
0.416317 -0.056999 0.082079 2.000000
-0.453126 -0.045305 0.089090 3.000000
0.241426 -0.000841 -0.099677 1.000000
0.455991 -0.051975 -0.085003 2.000000
0.053699 -0.053122 -0.084325 1.000000
0.334642 -0.027193 0.096215 1.000000
0.450077 -0.099366 0.008663 2.000000
-0.011788 0.053141 -0.084452 1.000000
0.380379 -0.025759 0.096631 1.000000
-0.105945 -0.057683 0.081613 1.000000
-0.304132 0.082860 0.056052 1.000000
0.126516 0.083973 0.054415 1.000000
-0.036234 0.097990 -0.019635 1.000000
0.154853 -0.076371 0.064395 1.000000
0.339938 0.088637 0.046365 1.000000
0.370224 0.074898 -0.065967 1.000000
-0.025466 0.041756 0.090949 1.000000
-0.061830 -0.085863 0.050929 1.000000
0.390264 -0.049999 0.086536 1.000000
0.462238 -0.083770 -0.054007 2.000000
-0.339888 0.098034 -0.019439 1.000000
0.254630 -0.099629 0.004730 1.000000
-0.253333 0.054682 -0.083449 1.000000
0.191876 0.099426 0.010491 1.000000
0.390097 0.032189 -0.094384 1.000000
0.193587 -0.074197 0.066861 1.000000
0.240726 -0.091229 -0.040122 1.000000
0.380922 -0.017906 0.098411 1.000000
0.369390 -0.014791 -0.098541 1.000000
0.015325 0.098967 -0.013922 1.000000
0.399819 -0.068735 0.072524 1.000000
0.405726 -0.045828 0.088824 1.000000
0.190201 -0.020245 -0.097570 1.000000
0.422154 -0.079888 0.059934 2.000000
-0.418438 0.084304 -0.053565 1.000000
0.277066 0.094761 0.032037 1.000000
0.230976 0.092560 0.037947 1.000000
0.457471 0.032128 -0.094406 2.000000
-0.341788 0.094817 0.031882 1.000000
0.089667 0.096630 -0.025476 1.000000
0.110373 0.099896 0.003652 1.000000
0.143051 -0.053919 0.084171 1.000000
-0.095808 0.096234 0.027203 1.000000
-0.131166 -0.008660 -0.099273 1.000000
0.285906 0.086146 -0.050483 1.000000
-0.239761 0.098189 0.019109 1.000000
0.441723 0.040942 -0.090939 1.000000
-0.128940 0.022310 -0.097161 1.000000
-0.014736 -0.080105 -0.059292 1.000000
-0.242666 0.096691 -0.025267 1.000000
-0.010100 -0.003358 0.099961 1.000000
-0.341637 -0.087830 0.047492 1.000000
-0.278394 0.099858 -0.004491 1.000000
0.413835 -0.092007 -0.038324 1.000000
0.345413 0.095232 0.030652 1.000000
0.121558 -0.068294 0.072965 1.000000
-0.452388 -0.099769 0.000283 3.000000
-0.096475 0.011293 -0.099047 1.000000
-0.240171 -0.039614 -0.091412 1.000000
-0.127785 0.085344 -0.051839 1.000000
-0.009121 0.065834 0.075343 1.000000
-0.423722 0.042247 -0.090374 1.000000
-0.448815 0.081639 0.057849 3.000000
-0.250343 0.073702 0.067687 1.000000
0.323039 0.079315 0.060975 1.000000
-0.262917 0.073257 0.068192 1.000000
-0.277113 -0.097490 0.021194 1.000000
0.232059 -0.052642 -0.084609 1.000000
-0.008012 -0.027447 0.096141 1.000000
-0.075485 0.097378 0.022736 1.000000
0.301428 -0.052210 -0.084865 1.000000
0.246472 -0.004327 0.099930 1.000000
0.176709 -0.099129 0.011172 1.000000
-0.015010 0.036270 -0.092915 1.000000
0.270921 0.089560 -0.044191 1.000000
-0.405947 -0.099719 -0.001515 1.000000
-0.374484 0.084139 0.054170 1.000000
0.378192 -0.010445 0.099467 1.000000
-0.149400 -0.017133 0.098533 1.000000
0.137723 -0.082450 -0.055949 1.000000
0.409317 0.099997 -0.000075 1.000000
0.163344 0.038528 -0.091983 1.000000
0.451267 0.060836 0.079437 2.000000
0.326500 0.063106 0.077676 1.000000
0.376653 0.097626 0.021627 1.000000
0.198800 0.087066 0.049291 1.000000
0.121975 -0.097783 -0.019519 1.000000
0.099998 -0.098695 -0.014165 1.000000
0.457306 0.099953 0.001855 2.000000
-0.388766 -0.046073 -0.088336 1.000000
-0.104018 0.074079 0.067260 1.000000
-0.404057 -0.093675 -0.034041 1.000000
0.141303 -0.042906 -0.089950 1.000000
0.119982 -0.073443 0.067716 1.000000
-0.232788 -0.096437 0.025700 1.000000
-0.272945 -0.046449 -0.088145 1.000000
-0.158799 0.061368 0.079024 1.000000
0.181321 -0.011369 -0.099017 1.000000
-0.156867 0.044721 0.089507 1.000000
-0.401081 0.094373 -0.032751 1.000000
-0.391377 -0.075926 -0.064536 1.000000
-0.304635 -0.096530 -0.025018 1.000000
-0.048290 0.072055 -0.069074 1.000000
-0.353388 0.075776 0.065335 1.000000
-0.428676 -0.081920 0.057092 3.000000
-0.026122 0.081699 -0.057398 1.000000
0.335120 0.092045 0.039140 1.000000
-0.263785 0.022036 -0.097222 1.000000
0.360830 -0.007934 -0.099342 1.000000
0.411190 0.089412 -0.044483 1.000000
-0.459304 0.064601 0.076430 3.000000
0.094959 0.026801 0.096396 1.000000
-0.333344 0.066646 -0.074265 1.000000
0.337704 0.015695 -0.098435 1.000000
0.261711 -0.095787 -0.027574 1.000000
-0.406202 0.025432 0.096794 1.000000
0.351033 -0.081259 -0.057701 1.000000
-0.323951 0.086898 -0.049211 1.000000
0.055060 -0.097753 -0.019653 1.000000
0.094541 0.097422 -0.022177 1.000000
0.245602 -0.046112 0.088679 1.000000
-0.003567 0.075873 -0.064862 1.000000
0.180110 -0.004187 0.099935 1.000000
0.058729 0.069781 -0.071349 1.000000
-0.017071 0.056617 -0.082134 1.000000
0.268764 0.081685 -0.057418 1.000000
0.031797 0.082270 0.056921 1.000000
-0.369844 -0.098674 0.014659 1.000000
-0.239927 -0.081970 -0.056655 1.000000
0.411028 0.086493 0.050259 1.000000
-0.142919 -0.035641 -0.093058 1.000000
0.260397 0.024968 0.096929 1.000000
0.396619 0.048075 0.087798 1.000000
0.020084 -0.099684 -0.002629 1.000000
0.448932 0.016070 0.098738 2.000000
-0.335231 0.049928 -0.086353 1.000000
-0.375462 -0.018992 -0.097851 1.000000
-0.243204 -0.023465 -0.096851 1.000000
0.364639 -0.089910 -0.043045 1.000000
0.088743 0.022905 0.097391 1.000000
0.239282 0.084961 -0.052486 1.000000
-0.284705 -0.056403 0.082484 1.000000
0.147323 0.000889 0.100046 1.000000
-0.120079 -0.098226 0.017489 1.000000
0.334925 0.054752 -0.083402 1.000000
-0.301812 -0.097967 -0.018695 1.000000
-0.251807 -0.098816 0.013763 1.000000
-0.307416 0.030894 0.095207 1.000000
0.285523 -0.092138 -0.038021 1.000000
0.176067 0.001489 0.100027 1.000000
-0.110055 0.098848 0.015037 1.000000
-0.353289 0.087068 0.049287 1.000000
-0.204164 0.019727 -0.097738 1.000000
0.239336 0.016180 -0.098358 1.000000
-0.325752 -0.083856 0.054243 1.000000
0.314673 -0.089375 -0.044097 1.000000
0.165813 0.055627 0.083170 1.000000
-0.209989 0.066337 -0.074537 1.000000
0.316198 -0.055507 -0.082730 1.000000
-0.464782 0.096760 -0.025027 3.000000
0.333471 -0.017486 -0.098114 1.000000
0.259285 0.098328 -0.017953 1.000000
0.057484 -0.099355 -0.008412 1.000000
-0.119240 0.079193 -0.060769 1.000000
0.002977 -0.090664 0.041790 1.000000
0.143059 -0.092267 -0.037722 1.000000
-0.369708 0.089997 -0.043334 1.000000
0.360900 -0.093847 -0.033563 1.000000
-0.202670 -0.082541 0.056178 1.000000
-0.227292 -0.054689 0.083649 1.000000
-0.228211 0.059539 0.080443 1.000000
0.149757 0.091419 0.040584 1.000000
0.307361 -0.093255 0.035570 1.000000
0.342341 -0.099709 -0.001818 1.000000
0.245913 0.066064 0.075141 1.000000
-0.339378 -0.043692 -0.089549 1.000000
-0.006761 0.096435 -0.026146 1.000000
-0.055163 -0.098212 -0.017213 1.000000
-0.466868 0.031912 -0.094484 3.000000
-0.279177 -0.091367 -0.039803 1.000000
-0.084143 0.099882 -0.003755 1.000000
-0.425395 0.087131 -0.048818 3.000000
-0.370560 -0.096239 0.026381 1.000000
0.154675 -0.084716 0.052868 1.000000
0.310663 0.026594 0.096457 1.000000
0.308267 -0.097967 0.019059 1.000000
0.078068 0.063746 -0.076817 1.000000
-0.189120 0.029316 -0.095303 1.000000
0.307064 0.097918 0.020320 1.000000
0.176964 0.096139 0.027529 1.000000
0.230385 -0.070586 0.070673 1.000000
-0.083404 -0.064581 0.076242 1.000000
-0.367766 0.009328 0.099595 1.000000
0.390700 0.090858 -0.041519 1.000000
0.079900 -0.038701 0.092170 1.000000
0.345543 0.098627 -0.016064 1.000000
0.097500 -0.059282 0.080461 1.000000
-0.448434 -0.007483 0.099747 3.000000
-0.258780 0.093882 0.034477 1.000000
0.212265 0.098550 0.016916 1.000000
-0.312950 -0.091353 0.040197 1.000000
0.371041 0.082691 0.056300 1.000000
0.220704 -0.089466 -0.043918 1.000000
0.400476 -0.067725 -0.073108 1.000000
-0.088554 -0.061159 0.079005 1.000000
-0.330876 0.057925 0.081608 1.000000
0.186196 0.097990 -0.019638 1.000000
0.050756 -0.099766 0.000356 1.000000
-0.130132 0.099236 -0.012142 1.000000
0.061656 -0.092556 0.037419 1.000000
0.295090 -0.004483 -0.099563 1.000000
-0.094139 -0.082383 -0.056048 1.000000
-0.240575 -0.077664 0.062802 1.000000
0.194461 0.099856 0.004929 1.000000
0.109311 -0.086070 -0.050217 1.000000
-0.110195 -0.076242 0.064541 1.000000
0.026323 0.077824 0.062896 1.000000
0.274829 -0.022471 -0.097073 1.000000
0.050360 -0.086610 0.049667 1.000000
-0.160182 -0.089185 -0.044469 1.000000
-0.198143 0.080400 0.059575 1.000000
0.093491 -0.064793 0.076055 1.000000
-0.437309 0.046301 0.088701 3.000000
0.354773 0.074085 0.067252 1.000000
0.031007 -0.074207 -0.066487 1.000000
0.272688 -0.016278 -0.098306 1.000000
-0.002120 -0.033403 0.094226 1.000000
0.320004 0.014669 0.098960 1.000000
-0.267252 0.058910 0.080931 1.000000
0.405255 -0.091312 -0.039931 1.000000
-0.196892 -0.077941 -0.062082 1.000000
0.295955 0.018508 0.098352 1.000000
0.416214 -0.038567 -0.091865 1.000000
-0.071728 -0.089923 -0.043020 1.000000
0.128448 0.090944 0.041683 1.000000
0.176747 0.018855 0.098296 1.000000
0.040728 -0.099149 0.010954 1.000000
-0.463827 -0.078824 -0.060943 3.000000
0.098697 0.073944 -0.067049 1.000000
0.227532 0.099828 0.005836 1.000000
-0.092703 -0.087606 0.047931 1.000000
-0.457327 -0.013560 -0.098736 3.000000
-0.028905 0.021792 -0.097277 1.000000
-0.459834 0.030778 -0.094878 3.000000
-0.386255 -0.038970 -0.091691 1.000000
0.026950 0.059538 -0.080081 1.000000
-0.025831 0.062243 0.078345 1.000000
-0.087430 0.046376 -0.088301 1.000000
-0.438758 -0.050014 0.086526 3.000000
0.161276 -0.078389 0.061867 1.000000
0.081743 0.018062 -0.098060 1.000000
0.169070 0.035579 -0.093164 1.000000
-0.076747 0.082596 0.056440 1.000000
-0.214665 0.094406 -0.032660 1.000000
-0.433201 -0.074004 -0.066716 3.000000
0.457491 0.099809 -0.006069 2.000000
0.054895 -0.084163 0.053792 1.000000
-0.142169 0.036851 0.093069 1.000000
-0.047743 0.097357 -0.022470 1.000000
-0.150464 0.070391 -0.070738 1.000000
-0.447469 0.044726 0.089504 3.000000
0.010688 0.032530 0.094625 1.000000
0.438366 0.077907 -0.062426 1.000000
-0.050310 -0.098879 -0.013004 1.000000
0.414169 0.096294 -0.026633 1.000000
0.455084 -0.080532 -0.058741 2.000000
-0.319423 -0.016787 0.098588 1.000000
-0.264870 0.057336 -0.081645 1.000000
-0.165314 -0.094079 0.033281 1.000000
0.244065 -0.099285 -0.009160 1.000000
0.284066 -0.098757 0.014135 1.000000
-0.331182 -0.087979 -0.046837 1.000000
-0.335179 0.060147 -0.079608 1.000000
-0.145033 0.045421 -0.088787 1.000000
-0.105285 -0.013811 0.099059 1.000000
-0.349580 -0.042192 0.090659 1.000000
-0.249685 0.060630 -0.079234 1.000000
-0.061313 -0.033304 0.094262 1.000000
-0.193454 -0.060243 0.079716 1.000000
0.407865 0.018108 -0.098053 1.000000
-0.270169 -0.094022 -0.033079 1.000000
0.385486 -0.054091 0.084055 1.000000
-0.177610 0.095122 -0.030667 1.000000
-0.150541 -0.031208 -0.094653 1.000000
-0.155902 0.098317 0.018385 1.000000
0.176410 -0.001798 -0.099647 1.000000
-0.196130 -0.025141 0.096811 1.000000
-0.214003 0.044587 -0.089212 1.000000
0.206124 0.019823 0.098080 1.000000
-0.037393 -0.038762 0.092144 1.000000
0.352716 -0.077542 -0.062597 1.000000
0.039353 -0.096900 -0.023469 1.000000
0.269286 0.074207 0.067114 1.000000
0.403472 -0.089292 0.044622 1.000000
0.275396 0.051951 -0.085156 1.000000
0.343656 0.051743 -0.085279 1.000000
0.110070 0.059256 0.080662 1.000000
-0.047776 0.075048 0.066160 1.000000
-0.332354 0.092153 -0.038526 1.000000
-0.407462 0.086104 -0.050555 1.000000
0.157721 0.097512 -0.021777 1.000000
-0.115539 0.079917 0.060198 1.000000
0.141326 -0.008167 -0.099320 1.000000
-0.088272 0.088947 -0.045394 1.000000
0.182639 -0.043220 0.090153 1.000000
0.119565 0.048970 0.087282 1.000000
-0.097496 -0.035583 -0.093078 1.000000
0.029539 -0.055309 0.083227 1.000000
0.150286 -0.099417 0.008121 1.000000
-0.339837 0.039961 -0.091363 1.000000
0.156186 0.027256 0.096264 1.000000
0.334960 -0.099052 -0.011620 1.000000
0.451274 -0.055224 0.083285 2.000000
0.163132 -0.047097 0.088177 1.000000
0.395852 0.075554 0.065586 1.000000
0.080005 0.090292 -0.042755 1.000000
-0.424581 -0.099650 -0.003692 1.000000
-0.437331 -0.063839 -0.076534 3.000000
0.110365 0.020167 0.098003 1.000000
-0.212768 -0.024764 0.096920 1.000000
0.089605 -0.082324 -0.056135 1.000000
0.018363 -0.027419 0.096149 1.000000
0.096725 -0.054212 -0.083609 1.000000
-0.312277 -0.076718 0.064001 1.000000
0.049685 -0.000169 -0.099698 1.000000
0.057751 0.021789 -0.097277 1.000000
-0.414154 -0.064210 0.076569 1.000000
0.369327 0.043695 0.090030 1.000000
-0.445445 -0.059716 0.080124 3.000000
-0.150619 -0.085975 -0.050377 1.000000
-0.299063 -0.092969 -0.036002 1.000000
0.203723 -0.045191 -0.088785 1.000000
0.213813 0.001387 -0.099667 1.000000
-0.422270 0.094146 -0.033380 1.000000
0.236850 -0.042706 0.090414 1.000000
0.006802 -0.068625 0.072634 1.000000
-0.416986 0.098732 -0.015407 1.000000
-0.300105 0.095307 0.030392 1.000000
0.255638 -0.002693 -0.099619 1.000000
-0.209656 -0.097432 0.021449 1.000000
0.353960 0.094925 0.031581 1.000000
0.332650 -0.023383 -0.096869 1.000000
-0.285160 -0.001152 -0.099667 1.000000
-0.403686 -0.096099 0.026862 1.000000
-0.433872 0.053014 0.084890 1.000000
-0.383062 -0.016288 0.098667 1.000000
-0.231743 -0.093507 -0.034509 1.000000
-0.353562 0.047381 0.088151 1.000000
0.421507 0.083878 -0.054191 1.000000
-0.018569 0.093937 -0.033961 1.000000
-0.280670 -0.095279 -0.029323 1.000000
0.262702 0.081498 -0.057693 1.000000
0.195115 -0.078068 0.062280 1.000000
0.112747 -0.054894 -0.083146 1.000000
-0.422035 0.035148 -0.093319 1.000000
-0.136386 -0.083733 -0.054061 1.000000
-0.459369 0.083442 -0.054833 3.000000
0.424953 -0.079575 -0.059975 1.000000
0.075446 -0.097433 -0.021085 1.000000
0.046723 0.084921 0.052918 1.000000
0.287309 0.037546 -0.092408 1.000000
-0.039589 0.069289 0.072203 1.000000
-0.416399 -0.099478 -0.007120 1.000000
0.353077 0.061817 -0.078313 1.000000
-0.397349 -0.054104 0.084046 1.000000
0.363159 0.082046 0.057250 1.000000
0.422951 -0.033572 -0.093802 1.000000
-0.385171 -0.042531 0.090503 1.000000
-0.106759 -0.092357 0.037877 1.000000
0.012790 0.000903 -0.099682 1.000000
0.073203 0.085909 -0.050884 1.000000
-0.343538 -0.059534 -0.079903 1.000000
-0.391841 0.001135 0.100038 1.000000
0.279959 0.022733 0.097429 1.000000
0.052542 -0.089259 -0.044325 1.000000
-0.222991 0.086270 -0.050274 1.000000
-0.047293 -0.029852 -0.095080 1.000000
0.452509 0.094095 0.033887 2.000000
0.010441 -0.072018 -0.068879 1.000000
-0.366794 0.015413 -0.098480 1.000000
0.103787 0.097335 -0.022565 1.000000
-0.366436 -0.097659 0.020437 1.000000
0.301983 0.056069 -0.082507 1.000000
0.416215 -0.025644 0.096665 2.000000
0.441499 -0.083328 -0.054658 2.000000
-0.045436 0.001936 0.100013 1.000000
-0.425978 -0.087673 -0.047436 1.000000
0.258429 0.095650 -0.028850 1.000000
0.139065 -0.089424 -0.044001 1.000000
-0.271964 -0.053755 0.084283 1.000000
0.135179 0.092598 -0.037497 1.000000
0.345713 -0.090544 -0.041705 1.000000
-0.170922 -0.092227 -0.037815 1.000000
-0.126445 0.098561 -0.016487 1.000000
0.206588 0.076713 -0.063909 1.000000
0.465318 -0.047272 -0.087725 2.000000
-0.445137 -0.060793 -0.078926 3.000000
-0.042944 -0.053023 0.084747 1.000000
0.344334 -0.011253 -0.099028 1.000000
-0.332853 -0.090496 0.042179 1.000000
0.062904 -0.020970 -0.097408 1.000000
0.232650 0.057137 -0.081780 1.000000
-0.209847 0.037010 0.093003 1.000000
0.457712 0.095261 0.030551 2.000000
0.399784 0.053537 -0.084218 1.000000
0.267336 0.069815 0.071677 1.000000
0.304822 -0.072348 -0.068548 1.000000
-0.011595 0.025140 0.096879 1.000000
0.023857 0.052838 -0.084632 1.000000
0.279620 -0.098256 -0.016937 1.000000
-0.465071 0.000088 0.100069 3.000000
-0.256227 -0.069085 0.072174 1.000000
-0.272188 -0.091265 -0.040039 1.000000
0.291426 -0.070113 -0.070783 1.000000
-0.187166 -0.023231 0.097266 1.000000
-0.056313 -0.052885 -0.084466 1.000000
0.211938 0.088218 0.047188 1.000000
0.142361 0.049766 0.086811 1.000000
0.457805 0.082080 -0.056837 2.000000
0.406364 -0.086188 -0.050017 1.000000
0.177216 0.057683 0.081772 1.000000
-0.092184 0.099969 -0.000982 1.000000
-0.267612 0.099687 -0.007372 1.000000
0.018009 0.072846 0.068646 1.000000
-0.387368 0.082581 -0.056099 1.000000
0.222308 0.048383 -0.087266 1.000000
0.078219 0.036884 -0.092694 1.000000
-0.074281 0.039278 -0.091658 1.000000
0.079276 0.023395 -0.096918 1.000000
-0.060779 0.058670 -0.080739 1.000000
-0.348226 0.075174 -0.065654 1.000000
-0.250160 -0.050749 0.086092 1.000000
-0.024359 0.013405 -0.098798 1.000000
0.056254 -0.022777 0.097367 1.000000
-0.208228 0.073788 -0.067226 1.000000
-0.277682 -0.061575 0.078682 1.000000
0.263610 -0.097889 0.019406 1.000000
0.421257 -0.065629 0.075318 2.000000
-0.142394 -0.080492 0.059156 1.000000
-0.006119 0.093928 -0.033986 1.000000
0.029933 0.098190 0.019103 1.000000
0.008857 0.096476 0.026369 1.000000
0.195514 -0.098053 -0.018219 1.000000
0.387356 -0.061233 0.078948 1.000000
-0.209860 0.087871 0.047869 1.000000
0.376997 -0.098210 -0.017225 1.000000
0.039289 0.096826 -0.024800 1.000000
0.271229 -0.002294 -0.099631 1.000000
-0.445773 -0.077438 0.063094 3.000000
0.061169 -0.035231 -0.093205 1.000000
-0.115772 -0.096044 -0.026690 1.000000
0.051602 0.099855 -0.004615 1.000000
0.236444 0.076302 0.064738 1.000000
0.314192 0.091925 0.039416 1.000000
0.291474 -0.099614 -0.004841 1.000000
0.011605 0.051234 -0.085580 1.000000
-0.130246 -0.098706 0.014458 1.000000
0.244301 -0.098988 0.012659 1.000000
0.159470 -0.093339 0.035336 1.000000
-0.075616 0.085651 -0.051320 1.000000
-0.115279 0.064652 0.076385 1.000000
0.226845 0.067869 -0.073186 1.000000
-0.445640 0.015547 0.098821 3.000000
0.115057 -0.087241 -0.048236 1.000000
-0.307405 0.096592 0.025970 1.000000
-0.105843 -0.072022 0.069237 1.000000
-0.373600 0.014450 -0.098632 1.000000
-0.300291 0.097519 0.022108 1.000000
-0.023203 -0.058308 0.081189 1.000000
0.377006 0.099025 0.013917 1.000000
0.458299 -0.088791 0.045605 2.000000
-0.374430 0.096959 -0.024248 1.000000
-0.190193 -0.088145 0.046873 1.000000
0.377465 0.082083 -0.056832 1.000000
-0.336188 -0.059131 -0.080216 1.000000
0.201547 0.054278 -0.083724 1.000000
0.180476 0.024545 0.097024 1.000000
-0.340244 -0.096703 -0.024351 1.000000
0.364284 -0.026657 -0.096007 1.000000
-0.150658 0.043282 0.090240 1.000000
-0.166450 0.058232 0.081399 1.000000
0.224662 0.078692 0.061778 1.000000
0.107772 -0.073473 0.067681 1.000000
-0.240747 -0.046687 0.088386 1.000000
0.261554 -0.039320 0.091902 1.000000
-0.099770 -0.099227 0.010129 1.000000
0.035729 -0.031322 -0.094612 1.000000
0.118072 -0.097051 0.023158 1.000000
0.131309 0.078850 0.061573 1.000000
-0.257225 0.043048 -0.089996 1.000000
-0.431941 0.078510 -0.061649 3.000000
-0.298624 -0.053166 -0.084300 1.000000
0.268209 -0.042349 0.090591 1.000000
0.344503 0.091041 0.041459 1.000000
0.254528 -0.095311 -0.029214 1.000000
-0.232830 0.097039 -0.023893 1.000000
-0.037814 0.009770 -0.099190 1.000000
0.459538 0.070485 -0.070644 2.000000
0.216583 0.099490 -0.009453 1.000000
-0.401881 0.099116 -0.012977 1.000000
-0.153094 0.091542 0.040302 1.000000
-0.000918 -0.097637 0.020532 1.000000
-0.367520 -0.086109 0.050514 1.000000
0.465020 -0.056428 -0.082103 2.000000
-0.408977 -0.053804 0.084250 1.000000
0.357365 -0.002757 0.099980 1.000000
-0.081943 0.099453 -0.009846 1.000000
-0.106649 -0.088873 -0.045081 1.000000
-0.019410 0.079759 -0.060039 1.000000
0.062248 0.069802 0.071690 1.000000
0.446877 -0.097248 0.022273 2.000000
-0.305890 -0.098822 -0.013360 1.000000
0.267877 0.082025 0.057280 1.000000
0.291317 -0.033311 0.094259 1.000000
0.464732 0.062263 0.078330 2.000000
-0.360137 -0.098216 0.017554 1.000000
-0.219049 -0.025425 0.096728 1.000000
-0.416120 -0.006854 -0.099444 1.000000
0.169109 0.000594 -0.099692 1.000000
0.319842 -0.018397 0.098333 1.000000
0.050634 -0.080745 -0.058458 1.000000
0.445534 0.049460 -0.086629 2.000000
-0.294267 -0.078002 0.062366 1.000000
-0.373923 0.039286 0.092018 1.000000
0.235350 -0.076884 0.063807 1.000000
-0.190861 -0.075796 0.065047 1.000000
0.343022 0.083979 -0.054042 1.000000
0.325413 0.015892 -0.098404 1.000000
0.141858 0.008010 0.099720 1.000000
0.082423 -0.096433 0.025713 1.000000
0.246709 0.003313 -0.099607 1.000000
-0.241893 -0.076465 -0.063925 1.000000
-0.386706 0.049359 -0.086689 1.000000
-0.277315 -0.076456 0.064298 1.000000
0.315038 0.040079 -0.091312 1.000000
0.298649 0.099194 0.012851 1.000000
0.049770 -0.095419 -0.028842 1.000000
0.197841 -0.059415 0.080358 1.000000
0.306285 -0.083912 -0.053798 1.000000
0.244840 0.073353 -0.067720 1.000000
-0.104004 0.094240 -0.033121 1.000000
-0.165367 -0.080882 -0.058256 1.000000
0.417191 0.099307 0.011755 1.000000
0.400520 -0.079152 0.060884 1.000000
0.066821 -0.059213 -0.080152 1.000000
0.016919 -0.092460 0.037640 1.000000
-0.442859 0.050865 -0.085799 3.000000
0.006634 -0.089999 -0.042872 1.000000
0.158671 -0.002095 -0.099638 1.000000
-0.370301 0.030748 0.095250 1.000000
0.024170 0.090141 -0.043051 1.000000
-0.212390 0.081611 -0.057527 1.000000
0.141891 0.087377 0.048765 1.000000
-0.162151 0.080448 0.059513 1.000000
-0.388699 -0.036961 0.092923 1.000000
-0.288718 0.097081 0.024065 1.000000
-0.136177 0.065197 0.075905 1.000000
-0.049437 0.002534 -0.099631 1.000000
0.018435 0.094364 0.033138 1.000000
0.006203 0.047191 -0.087885 1.000000
0.308230 -0.065922 -0.074697 1.000000
-0.264743 0.080960 -0.058484 1.000000
0.323077 -0.068979 -0.071917 1.000000
-0.095384 -0.018345 0.098341 1.000000
-0.094859 0.008220 0.099700 1.000000
-0.167831 0.093136 -0.036186 1.000000
-0.200866 0.047083 -0.087940 1.000000
-0.241863 -0.068741 -0.072155 1.000000
0.207976 0.098807 -0.014929 1.000000
-0.326259 -0.068287 0.072972 1.000000
0.096252 0.038816 0.092221 1.000000
0.014566 0.039110 0.092094 1.000000
0.177675 -0.040209 -0.091155 1.000000
0.247770 0.096110 0.027627 1.000000
-0.146530 0.096455 0.026441 1.000000
0.390527 -0.090123 -0.042627 1.000000
-0.310915 0.084899 0.052954 1.000000
0.243914 0.097811 0.020801 1.000000
0.315482 0.048584 0.087510 1.000000
-0.148926 -0.060292 0.079678 1.000000
0.463882 0.044658 0.089539 2.000000
-0.432312 0.090956 -0.041293 3.000000
0.400756 -0.089247 -0.044348 1.000000
0.463955 -0.087511 -0.047755 2.000000
0.016398 -0.004326 0.099930 1.000000
-0.326973 -0.090663 0.041792 1.000000
0.294420 0.073302 -0.067778 1.000000
0.418654 -0.093773 -0.033768 1.000000
0.407436 -0.008914 -0.099249 1.000000
0.338952 0.081131 0.058596 1.000000
-0.102908 -0.099732 -0.001084 1.000000
0.022873 -0.027548 -0.095749 1.000000
-0.121436 -0.064529 -0.075925 1.000000
0.063079 0.093345 0.035969 1.000000
-0.098969 0.050065 0.086634 1.000000
0.022353 -0.000253 0.100058 1.000000
-0.123819 -0.054271 -0.083570 1.000000
0.254897 -0.099607 -0.005079 1.000000
0.197443 -0.089469 0.044275 1.000000
0.117447 0.054548 -0.083540 1.000000
-0.060021 0.042893 -0.090075 1.000000
0.029576 -0.098531 -0.015199 1.000000
-0.233618 -0.040557 -0.091004 1.000000
0.345920 0.008928 -0.099270 1.000000
0.464472 0.099744 0.007132 2.000000
-0.074688 -0.099536 0.006862 1.000000
0.357802 -0.063260 0.077376 1.000000
-0.232795 0.034935 0.093759 1.000000
-0.352306 -0.015181 -0.098480 1.000000
0.199991 0.075838 -0.064901 1.000000
-0.257985 -0.064677 0.076158 1.000000
0.326343 -0.095157 0.030106 1.000000
-0.289577 -0.048603 -0.086998 1.000000
0.312056 -0.009658 0.099542 1.000000
-0.076668 0.069853 -0.071276 1.000000
-0.065459 -0.064822 0.076030 1.000000
-0.207356 -0.084678 0.052933 1.000000
-0.177672 -0.095761 -0.027665 1.000000
0.112298 -0.004768 -0.099554 1.000000
0.225153 0.014907 0.098923 1.000000
0.439842 -0.016794 -0.098224 1.000000
-0.069093 0.099862 -0.004381 1.000000
0.089781 0.099880 -0.003795 1.000000
-0.291424 -0.041454 -0.090616 1.000000
-0.327266 -0.097289 -0.021727 1.000000
0.416600 -0.097157 0.022680 1.000000
0.172794 0.098208 0.019026 1.000000
-0.264477 -0.047810 0.087814 1.000000
-0.367753 0.081511 -0.057674 1.000000
0.195496 -0.084900 0.052558 1.000000
-0.419867 -0.014663 0.098924 1.000000
-0.171310 -0.099736 0.001326 1.000000
0.157376 -0.081643 -0.057137 1.000000
