-0.466955 0.076201 -0.046121 3.000000
-0.466955 -0.033940 0.029315 3.000000
-0.466955 -0.014387 0.049707 3.000000
-0.466955 0.096449 0.004378 3.000000
-0.466955 -0.000570 0.057215 3.000000
-0.466955 -0.064656 0.076162 3.000000
-0.466955 0.066311 -0.011326 3.000000
-0.466955 0.025515 -0.029144 3.000000
-0.466955 -0.028815 0.049084 3.000000
-0.466955 0.018605 0.009472 3.000000
-0.466955 0.063664 0.025831 3.000000
-0.466955 -0.027918 -0.075352 3.000000
-0.466955 0.001456 0.021697 3.000000
-0.466955 0.046487 0.050410 3.000000
-0.466955 -0.010807 0.082363 3.000000
-0.466955 -0.017123 -0.028416 3.000000
-0.466955 -0.072214 -0.049577 3.000000
-0.466955 -0.094622 0.014209 3.000000
-0.466955 0.017273 -0.055973 3.000000
-0.466955 -0.064700 -0.020844 3.000000
-0.466955 0.046139 0.024965 3.000000
-0.466955 -0.033653 -0.081089 3.000000
-0.466955 -0.054906 0.064468 3.000000
-0.466955 -0.075909 0.047305 3.000000
-0.466955 -0.021128 -0.018105 3.000000
-0.466955 -0.003273 0.077781 3.000000
-0.466955 -0.033268 -0.057393 3.000000
-0.466955 0.084867 0.029417 3.000000
-0.466955 -0.081754 0.032437 3.000000
-0.466955 0.056382 0.040876 3.000000
-0.466955 0.047345 -0.041073 3.000000
-0.466955 -0.010271 0.049699 3.000000
-0.466955 -0.035628 0.049015 3.000000
-0.466955 -0.044250 -0.036874 3.000000
-0.466955 0.060115 -0.073915 3.000000
-0.466955 0.024513 0.009296 3.000000
-0.466955 -0.045159 -0.041797 3.000000
-0.466955 -0.034086 -0.056054 3.000000
-0.466955 -0.014594 -0.071841 3.000000
-0.466955 -0.059028 0.073402 3.000000
-0.466955 0.025191 -0.069466 3.000000
-0.466955 0.072879 0.047859 3.000000
-0.466955 -0.038890 0.046280 3.000000
-0.466955 -0.033156 0.069898 3.000000
-0.466955 0.052225 0.079168 3.000000
-0.466955 0.037290 -0.074006 3.000000
-0.466955 0.079321 0.053746 3.000000
-0.466955 0.039372 -0.009767 3.000000
-0.466955 -0.003091 0.023223 3.000000
-0.466955 0.006644 0.061951 3.000000
-0.466955 0.057516 0.056412 3.000000
-0.466955 -0.011481 -0.025282 3.000000
-0.466955 0.090142 0.042774 3.000000
-0.466955 -0.079981 -0.018249 3.000000
-0.466955 -0.078389 -0.024658 3.000000
-0.466955 0.067869 0.040056 3.000000
-0.466955 -0.033545 0.001770 3.000000
-0.466955 -0.044842 -0.026688 3.000000
-0.466955 0.068824 -0.008302 3.000000
-0.466955 -0.005039 0.004917 3.000000
-0.466955 -0.055228 -0.056495 3.000000
-0.466955 -0.010224 0.084147 3.000000
-0.466955 0.084627 -0.010600 3.000000
-0.466955 0.084341 -0.016145 3.000000
-0.466955 0.062959 0.005496 3.000000
-0.466955 -0.058975 0.000265 3.000000
-0.466955 -0.074382 0.018642 3.000000
-0.466955 0.027670 0.069527 3.000000
-0.466955 0.060907 0.056069 3.000000
-0.466955 -0.062320 0.047994 3.000000
-0.466955 0.069184 -0.058184 3.000000
-0.466955 -0.032907 -0.031811 3.000000
-0.466955 0.070882 0.048713 3.000000
-0.466955 0.080396 0.022709 3.000000
-0.466955 0.043468 -0.050667 3.000000
-0.466955 -0.049550 -0.024627 3.000000
-0.466955 -0.024075 0.029567 3.000000
-0.466955 -0.071698 -0.015055 3.000000
-0.466955 0.066887 -0.022280 3.000000
-0.466955 -0.024947 -0.070594 3.000000
-0.466955 0.045279 -0.045032 3.000000
-0.466955 0.077602 0.051145 3.000000
-0.466955 0.078628 -0.047751 3.000000
-0.466955 -0.035708 -0.022114 3.000000
-0.466955 0.009324 0.098883 3.000000
-0.466955 -0.068837 -0.015935 3.000000
-0.466955 -0.040000 -0.034776 3.000000
-0.466955 -0.000194 -0.064544 3.000000
-0.466955 -0.050005 -0.002389 3.000000
-0.466955 0.077443 -0.008098 3.000000
-0.466955 0.037146 0.046750 3.000000
-0.466955 -0.052234 0.000260 3.000000
-0.466955 -0.036806 0.089897 3.000000
-0.466955 0.000368 -0.013450 3.000000
-0.466955 -0.030286 -0.057426 3.000000
-0.466955 0.049986 -0.038680 3.000000
-0.466955 -0.083014 0.001570 3.000000
-0.466955 -0.060707 -0.061360 3.000000
-0.466955 0.038334 0.080705 3.000000
-0.466955 0.052249 0.075067 3.000000
-0.466955 -0.004300 -0.018348 3.000000
-0.466955 -0.004061 -0.016625 3.000000
-0.466955 0.030747 -0.065155 3.000000
-0.466955 0.044398 0.033854 3.000000
-0.466955 0.066762 0.015004 3.000000
-0.466955 -0.035996 -0.085823 3.000000
-0.466955 -0.055942 0.047196 3.000000
-0.466955 0.067194 0.049154 3.000000
-0.466955 0.042758 0.076247 3.000000
-0.466955 0.006514 0.088714 3.000000
-0.466955 0.086353 -0.009580 3.000000
-0.466955 -0.035850 0.083656 3.000000
-0.466955 -0.066414 -0.047892 3.000000
-0.466955 -0.035860 -0.070643 3.000000
-0.466955 -0.095241 -0.002427 3.000000
-0.466955 0.000353 0.088203 3.000000
-0.466955 0.052326 -0.001016 3.000000
-0.466955 -0.017568 0.012532 3.000000
-0.466955 0.076295 -0.008919 3.000000
-0.466955 -0.020311 0.043576 3.000000
-0.466955 0.004293 0.071388 3.000000
-0.466955 0.032077 -0.049780 3.000000
-0.466955 -0.020977 0.041953 3.000000
-0.466955 -0.078982 0.011966 3.000000
-0.466955 -0.010132 -0.093164 3.000000
-0.466955 -0.059510 0.062939 3.000000
-0.466955 -0.071839 0.022175 3.000000
-0.466955 -0.024964 -0.044049 3.000000
-0.466955 -0.082756 0.055814 3.000000
-0.466955 -0.028066 -0.008666 3.000000
-0.466955 0.085998 0.014484 3.000000
-0.466955 -0.040045 -0.053953 3.000000
-0.466955 0.018001 0.064772 3.000000
-0.466955 0.066351 0.050200 3.000000
-0.466955 -0.046585 0.072306 3.000000
-0.466955 -0.089901 -0.020920 3.000000
-0.466955 -0.002933 0.083697 3.000000
-0.466955 -0.008681 -0.003355 3.000000
-0.466955 0.044345 0.037769 3.000000
-0.466955 -0.034826 -0.046966 3.000000
-0.466955 -0.045650 0.029313 3.000000
-0.466955 0.055274 -0.073982 3.000000
-0.466955 -0.070331 -0.019871 3.000000
-0.466955 -0.004720 0.097064 3.000000
-0.466955 -0.026855 0.093585 3.000000
-0.466955 -0.023439 0.025414 3.000000
-0.466955 0.075737 0.040713 3.000000
-0.466955 -0.023431 0.041651 3.000000
-0.466955 0.012362 0.029433 3.000000
-0.466955 0.067531 -0.009574 3.000000
-0.466955 -0.019517 -0.032066 3.000000
-0.466955 0.085283 -0.046042 3.000000
-0.466955 0.002794 0.029898 3.000000
-0.466955 0.009693 -0.072716 3.000000
-0.466955 -0.060744 -0.076881 3.000000
-0.466955 -0.022405 -0.089667 3.000000
-0.466955 -0.029351 0.050948 3.000000
-0.466955 -0.012752 -0.014958 3.000000
-0.466955 -0.040543 0.049669 3.000000
-0.466955 0.034882 0.013793 3.000000
-0.466955 -0.068410 -0.038536 3.000000
-0.466955 -0.087004 0.025767 3.000000
-0.466955 -0.014880 -0.001167 3.000000
-0.466955 -0.042956 0.034713 3.000000
-0.466955 -0.018395 -0.047868 3.000000
-0.466955 -0.059376 0.020875 3.000000
-0.466955 0.048324 -0.004511 3.000000
-0.466955 0.027891 -0.033451 3.000000
-0.466955 -0.018120 -0.005121 3.000000
-0.466955 0.053922 -0.048616 3.000000
-0.466955 -0.060248 -0.064453 3.000000
-0.466955 0.041374 -0.027558 3.000000
-0.466955 -0.038864 0.043491 3.000000
-0.466955 -0.057611 0.027184 3.000000
-0.466955 0.081564 0.043154 3.000000
-0.466955 0.000424 0.050109 3.000000
-0.466955 -0.081429 0.045476 3.000000
-0.466955 0.084072 -0.053481 3.000000
-0.466955 0.020851 -0.015699 3.000000
-0.466955 0.000208 0.031689 3.000000
-0.466955 -0.022774 -0.005805 3.000000
-0.466955 0.035200 0.087896 3.000000
-0.466955 0.078470 0.058511 3.000000
-0.466955 0.012243 -0.020948 3.000000
-0.466955 0.098342 0.013502 3.000000
-0.466955 0.063441 0.063076 3.000000
-0.466955 -0.009566 -0.009498 3.000000
-0.466955 0.073918 0.045605 3.000000
-0.466955 0.082718 0.002302 3.000000
-0.466955 -0.022357 0.026697 3.000000
-0.466955 -0.018472 -0.056977 3.000000
-0.466955 0.092061 0.020750 3.000000
-0.466955 0.042127 -0.057577 3.000000
-0.466955 0.089811 0.007552 3.000000
-0.466955 -0.073377 -0.061158 3.000000
-0.466955 -0.012497 0.028549 3.000000
-0.466955 -0.058451 -0.066828 3.000000
-0.466955 0.066205 0.043147 3.000000
-0.466955 0.053105 0.031475 3.000000
-0.466955 0.005022 0.070209 3.000000
-0.466955 -0.048722 0.064159 3.000000
-0.466955 -0.014956 0.064542 3.000000
-0.466955 0.040331 0.088076 3.000000
-0.466955 -0.053457 -0.056567 3.000000
-0.466955 0.032078 -0.064391 3.000000
-0.466955 0.024816 0.059510 3.000000
-0.466955 -0.044620 -0.053859 3.000000
-0.466955 0.046981 0.062762 3.000000
-0.466955 -0.061837 0.055218 3.000000
-0.466955 0.078005 -0.025589 3.000000
-0.466955 0.088769 -0.045396 3.000000
-0.466955 0.072218 -0.059823 3.000000
-0.466955 -0.029353 0.054972 3.000000
-0.466955 -0.007187 -0.085168 3.000000
-0.466955 -0.029960 0.068288 3.000000
-0.466955 -0.044625 -0.031491 3.000000
-0.466955 -0.058986 0.041919 3.000000
-0.466955 -0.025740 -0.027288 3.000000
-0.466955 -0.032335 -0.025346 3.000000
-0.466955 0.020338 0.083501 3.000000
-0.466955 0.094478 -0.002347 3.000000
-0.466955 0.068426 -0.052731 3.000000
-0.466955 -0.066121 0.029751 3.000000
-0.466955 0.051687 -0.004049 3.000000
-0.466955 -0.030222 -0.071454 3.000000
-0.466955 0.006365 0.010702 3.000000
-0.466955 -0.050942 -0.082444 3.000000
-0.466955 0.038629 0.050694 3.000000
-0.466955 -0.055023 0.001336 3.000000
-0.466955 0.013533 0.064383 3.000000
-0.466955 0.013790 -0.071205 3.000000
-0.466955 -0.086540 0.011992 3.000000
-0.466955 0.025391 -0.055438 3.000000
-0.466955 0.037353 -0.087345 3.000000
-0.466955 0.012323 0.059209 3.000000
-0.466955 0.048364 0.063667 3.000000
-0.466955 -0.093803 -0.023751 3.000000
-0.466955 -0.059575 -0.007438 3.000000
-0.466955 0.090685 -0.041435 3.000000
-0.466955 -0.004114 0.011850 3.000000
-0.466955 0.039293 -0.035749 3.000000
-0.466955 0.037897 0.071202 3.000000
-0.466955 -0.012214 -0.098743 3.000000
-0.466955 -0.060502 -0.026669 3.000000
-0.466955 -0.021385 0.045428 3.000000
-0.466955 0.023962 0.041052 3.000000
-0.466955 -0.011094 0.028603 3.000000
-0.466955 -0.079599 0.025488 3.000000
-0.466955 -0.089630 0.043514 3.000000
-0.466955 0.009394 0.004363 3.000000
-0.466955 -0.027395 0.023614 3.000000
-0.466955 -0.081050 0.031161 3.000000
-0.466955 -0.051774 -0.021468 3.000000
-0.466955 0.069193 -0.023098 3.000000
-0.466955 0.042362 -0.020629 3.000000
-0.466955 -0.055628 0.077037 3.000000
-0.466955 -0.020765 -0.043429 3.000000
-0.466955 -0.077864 0.030309 3.000000
-0.466955 -0.081890 -0.016109 3.000000
-0.466955 0.058956 -0.016719 3.000000
-0.466955 0.086132 -0.022665 3.000000
-0.466955 0.043301 0.036316 3.000000
-0.466955 -0.019510 -0.053768 3.000000
-0.466955 -0.040209 0.009271 3.000000
-0.466955 0.051133 0.047220 3.000000
-0.466955 -0.041073 0.058488 3.000000
-0.466955 -0.009251 0.006854 3.000000
-0.466955 -0.051906 0.001655 3.000000
-0.466955 0.074120 0.017187 3.000000
-0.466955 -0.044973 -0.058979 3.000000
-0.466955 -0.057491 0.080370 3.000000
-0.466955 0.074764 -0.025979 3.000000
-0.466955 -0.002787 -0.051201 3.000000
-0.466955 0.099643 0.001587 3.000000
-0.466955 -0.085136 -0.030205 3.000000
-0.466955 -0.011389 0.032112 3.000000
-0.466955 -0.012310 -0.052908 3.000000
-0.466955 0.058968 -0.014295 3.000000
-0.466955 -0.004089 0.044056 3.000000
-0.466955 0.069531 0.034284 3.000000
-0.466955 0.067031 0.031939 3.000000
-0.466955 0.072957 -0.062095 3.000000
-0.466955 0.071605 -0.069498 3.000000
-0.466955 0.031734 0.018395 3.000000
-0.466955 0.052071 -0.066788 3.000000
-0.466955 -0.019505 0.060598 3.000000
-0.466955 0.093897 0.031154 3.000000
-0.466955 -0.047832 -0.020497 3.000000
-0.466955 -0.094137 0.018743 3.000000
-0.466955 -0.045002 0.014587 3.000000
-0.466955 -0.062127 -0.018150 3.000000
-0.466955 0.045374 0.028782 3.000000
-0.466955 -0.074074 -0.035425 3.000000
-0.466955 0.043850 -0.077212 3.000000
-0.466955 -0.085692 0.046506 3.000000
-0.466955 0.027287 0.017883 3.000000
-0.466955 -0.000821 0.079194 3.000000
-0.466955 0.015666 -0.008494 3.000000
-0.466955 -0.092584 -0.027639 3.000000
-0.466955 -0.062653 0.013430 3.000000
-0.466955 -0.039345 0.037639 3.000000
-0.466955 0.028969 0.084986 3.000000
-0.466955 -0.071759 -0.038853 3.000000
-0.466955 -0.043301 0.053335 3.000000
-0.466955 -0.060903 -0.006352 3.000000
-0.466955 0.069756 0.038490 3.000000
-0.466955 -0.053895 0.011270 3.000000
-0.466955 0.086334 0.015990 3.000000
-0.466955 -0.019697 0.027066 3.000000
-0.466955 -0.047135 -0.062794 3.000000
-0.466955 -0.023526 -0.033558 3.000000
-0.466955 -0.002509 0.027529 3.000000
-0.466955 -0.064692 0.045066 3.000000
-0.466955 0.053423 -0.029911 3.000000
-0.466955 -0.021218 0.009944 3.000000
-0.466955 -0.059783 -0.035066 3.000000
-0.466955 0.029127 0.075546 3.000000
-0.466955 0.080234 0.007830 3.000000
-0.466955 0.079478 -0.027165 3.000000
-0.466955 0.049149 -0.002535 3.000000
-0.466955 0.009754 0.073664 3.000000
-0.466955 0.051337 -0.012736 3.000000
-0.466955 0.021340 -0.035726 3.000000
-0.466955 -0.094682 -0.008824 3.000000
-0.466955 0.012764 -0.023697 3.000000
-0.466955 0.044535 0.076329 3.000000
-0.466955 0.010781 -0.051052 3.000000
-0.466955 0.079963 -0.014149 3.000000
-0.466955 -0.065750 0.052476 3.000000
-0.466955 -0.075533 0.036612 3.000000
-0.466955 0.033460 -0.044294 3.000000
-0.466955 0.032810 0.019827 3.000000
-0.466955 -0.072512 -0.029851 3.000000
-0.466955 -0.001304 0.050599 3.000000
-0.466955 -0.041442 0.011048 3.000000
-0.466955 0.057033 -0.078091 3.000000
-0.466955 0.040371 -0.007046 3.000000
-0.466955 0.021996 0.087279 3.000000
-0.466955 -0.003321 0.056444 3.000000
-0.466955 -0.012164 -0.019800 3.000000
-0.466955 -0.011262 -0.053939 3.000000
-0.466955 0.091905 -0.008684 3.000000
-0.466955 -0.034699 0.014967 3.000000
-0.466955 0.086408 -0.047593 3.000000
-0.466955 -0.083251 -0.050875 3.000000
-0.466955 -0.001895 0.020335 3.000000
-0.466955 0.091991 0.027133 3.000000
-0.466955 -0.028656 0.038383 3.000000
-0.466955 -0.029489 0.045561 3.000000
-0.466955 -0.073125 0.061623 3.000000
-0.466955 -0.062659 -0.043055 3.000000
-0.466955 -0.072123 0.023984 3.000000
-0.466955 -0.000920 0.043134 3.000000
-0.466955 -0.021211 0.001217 3.000000
-0.466955 0.009104 -0.091289 3.000000
-0.466955 0.003685 0.055896 3.000000
-0.466955 0.040047 -0.028286 3.000000
-0.466955 -0.060771 0.068467 3.000000
-0.466955 -0.010566 -0.087859 3.000000
-0.466955 -0.079774 -0.008033 3.000000
-0.466955 0.080330 0.012482 3.000000
-0.466955 -0.030595 0.003584 3.000000
-0.466955 0.079950 0.040943 3.000000
-0.466955 -0.018826 -0.086853 3.000000
-0.466955 0.025922 0.018744 3.000000
-0.466955 -0.019467 -0.092233 3.000000
-0.466955 0.091282 0.022443 3.000000
-0.466955 -0.017336 -0.012678 3.000000
-0.466955 -0.047180 -0.075167 3.000000
-0.466955 0.062426 0.051841 3.000000
-0.466955 0.065330 -0.074829 3.000000
-0.466955 -0.024147 0.005890 3.000000
-0.466955 0.010694 -0.068513 3.000000
-0.466955 -0.065778 -0.033305 3.000000
-0.466955 -0.011330 0.046856 3.000000
-0.466955 -0.032004 -0.076313 3.000000
-0.466955 -0.004604 -0.066624 3.000000
-0.466955 0.049170 0.085327 3.000000
-0.466955 0.020490 0.068066 3.000000
-0.466955 0.032716 -0.060055 3.000000
-0.466955 -0.031801 0.062712 3.000000
-0.466955 -0.020643 0.011346 3.000000
-0.466955 -0.008527 0.093901 3.000000
-0.466955 0.002015 0.050927 3.000000
-0.466955 0.053629 0.018015 3.000000
-0.466955 -0.006976 0.060089 3.000000
-0.466955 -0.042570 -0.052823 3.000000
-0.466955 -0.003560 0.067544 3.000000
-0.466955 0.080402 0.010147 3.000000
-0.466955 0.064311 0.068521 3.000000
-0.466955 -0.012730 -0.048410 3.000000
-0.466955 -0.024950 -0.038835 3.000000
-0.466955 -0.013845 0.059013 3.000000
-0.466955 -0.019609 -0.027518 3.000000
-0.466955 -0.081757 -0.013449 3.000000
-0.466955 0.002486 0.049533 3.000000
-0.466955 -0.005892 0.058127 3.000000
-0.466955 -0.015947 0.077822 3.000000
-0.466955 -0.032143 -0.091617 3.000000
-0.466955 0.081704 -0.041252 3.000000
-0.466955 0.003619 0.037305 3.000000
-0.466955 -0.036356 0.077530 3.000000
-0.466955 -0.066346 -0.026814 3.000000
-0.466955 -0.063853 -0.012879 3.000000
-0.466955 0.042893 0.046457 3.000000
-0.466955 -0.017337 -0.085836 3.000000
-0.466955 -0.075289 -0.050048 3.000000
-0.466955 0.081645 0.019084 3.000000
-0.466955 0.053933 0.077794 3.000000
-0.466955 0.030245 0.029609 3.000000
-0.466955 -0.052996 -0.061733 3.000000
-0.466955 -0.077130 -0.046771 3.000000
-0.466955 -0.041419 0.088816 3.000000
-0.466955 -0.088109 -0.011755 3.000000
-0.466955 -0.091726 0.000935 3.000000
-0.466955 -0.006828 0.098125 3.000000
-0.466955 0.042345 0.030127 3.000000
-0.466955 -0.049594 0.033630 3.000000
-0.466955 0.008058 0.097065 3.000000
-0.466955 -0.091344 -0.002080 3.000000
-0.466955 -0.071348 0.016735 3.000000
-0.466955 -0.058763 -0.045275 3.000000
-0.466955 0.041416 -0.001127 3.000000
-0.466955 0.006174 -0.056029 3.000000
-0.466955 -0.086408 -0.039164 3.000000
-0.466955 -0.016048 0.015396 3.000000
-0.466955 0.014482 -0.065350 3.000000
-0.466955 -0.036340 -0.030693 3.000000
-0.466955 0.078420 0.016207 3.000000
-0.466955 -0.068889 -0.017490 3.000000
-0.466955 -0.072915 -0.008091 3.000000
-0.466955 0.050678 -0.034211 3.000000
-0.466955 0.015374 0.038946 3.000000
-0.466955 -0.055903 0.062930 3.000000
-0.466955 -0.009912 0.018345 3.000000
-0.466955 0.091074 0.025549 3.000000
-0.466955 0.076361 -0.062994 3.000000
-0.466955 -0.098134 0.014302 3.000000
-0.466955 -0.083893 0.023930 3.000000
-0.466955 0.054035 0.062232 3.000000
-0.466955 0.021093 0.091728 3.000000
-0.466955 0.040036 0.021496 3.000000
-0.466955 0.094962 -0.022929 3.000000
-0.466955 0.028267 -0.039437 3.000000
-0.466955 0.049865 -0.013916 3.000000
-0.466955 -0.096273 -0.020440 3.000000
-0.466955 -0.056354 0.013567 3.000000
-0.466955 -0.078594 -0.031578 3.000000
-0.466955 -0.019465 0.003876 3.000000
-0.466955 -0.097576 -0.006606 3.000000
-0.466955 -0.074099 0.042687 3.000000
-0.466955 0.088064 0.004512 3.000000
-0.466955 0.065631 0.011798 3.000000
-0.466955 0.049979 0.010187 3.000000
-0.466955 0.021225 0.078707 3.000000
-0.466955 -0.034981 0.008755 3.000000
-0.466955 0.070714 -0.000512 3.000000
-0.466955 -0.062300 0.018417 3.000000
-0.466955 -0.057330 -0.064527 3.000000
-0.466955 0.098673 0.015275 3.000000
-0.466955 -0.010159 -0.027761 3.000000
-0.466955 0.046671 -0.036988 3.000000
-0.466955 -0.051154 -0.053263 3.000000
-0.466955 -0.009156 -0.016739 3.000000
-0.466955 -0.068679 -0.048990 3.000000
-0.466955 0.072470 0.014670 3.000000
-0.466955 0.042769 -0.001224 3.000000
-0.466955 -0.031251 0.035896 3.000000
-0.466955 0.072532 -0.056426 3.000000
-0.466955 -0.031655 0.028289 3.000000
-0.466955 0.098030 -0.016196 3.000000
-0.466955 -0.018307 0.074008 3.000000
-0.466955 -0.074714 -0.006546 3.000000
-0.466955 -0.054149 0.067836 3.000000
-0.466955 0.017962 -0.033368 3.000000
-0.466955 -0.057640 -0.011061 3.000000
-0.466955 -0.067212 -0.071274 3.000000
-0.466955 -0.017667 -0.091433 3.000000
-0.466955 0.014144 -0.006258 3.000000
-0.466955 0.057611 0.079117 3.000000
-0.466955 0.035692 0.003926 3.000000
-0.466955 -0.048987 0.004371 3.000000
-0.466955 -0.032743 -0.003848 3.000000
-0.466955 -0.032773 -0.069628 3.000000
-0.466955 0.062062 -0.014381 3.000000
-0.466955 -0.021387 -0.020414 3.000000
-0.466955 -0.052904 0.056249 3.000000
-0.466955 0.023717 -0.052948 3.000000
-0.466955 0.072854 -0.042293 3.000000
-0.466955 0.088581 0.001750 3.000000
-0.466955 -0.026166 0.096483 3.000000
-0.466955 0.058097 -0.026100 3.000000
-0.466955 -0.045799 0.005999 3.000000
-0.466955 -0.034386 -0.032417 3.000000
-0.466955 -0.061447 -0.025581 3.000000
-0.466955 0.044347 0.073259 3.000000
-0.466955 -0.030529 -0.076440 3.000000
-0.466955 0.048101 -0.087038 3.000000
-0.466955 0.044574 0.041107 3.000000
-0.466955 0.001165 0.045298 3.000000
-0.466955 -0.009643 0.085481 3.000000
-0.466955 -0.029983 -0.016707 3.000000
-0.466955 0.039332 0.045006 3.000000
-0.466955 0.087250 0.002303 3.000000
-0.466955 -0.010664 -0.016624 3.000000
-0.466955 -0.016826 0.040042 3.000000
-0.466955 0.004602 0.019699 3.000000
-0.466955 0.020053 0.069984 3.000000
-0.466955 0.002737 -0.040899 3.000000
-0.466955 0.058374 -0.003152 3.000000
-0.466955 0.022347 -0.088594 3.000000
-0.466955 0.092516 0.009849 3.000000
-0.466955 -0.042441 -0.069857 3.000000
-0.466955 0.074522 0.011372 3.000000
-0.466955 0.043445 -0.035679 3.000000
-0.466955 0.069875 -0.059902 3.000000
-0.466955 0.027929 0.034162 3.000000
-0.466955 -0.052082 0.060130 3.000000
-0.466955 -0.010902 0.041111 3.000000
-0.466955 -0.008133 0.032353 3.000000
-0.466955 -0.054407 -0.059302 3.000000
-0.466955 -0.074990 -0.058906 3.000000
-0.466955 -0.043692 0.023332 3.000000
-0.466955 0.074954 0.030438 3.000000
-0.466955 -0.050579 0.049059 3.000000
-0.466955 -0.020640 0.004702 3.000000
-0.466955 0.072216 -0.020482 3.000000
-0.466955 0.087435 0.038983 3.000000
-0.466955 0.046921 -0.047747 3.000000
-0.466955 0.004696 0.040119 3.000000
-0.466955 -0.003134 -0.003521 3.000000
-0.466955 0.027617 -0.088462 3.000000
-0.466955 0.047025 -0.009245 3.000000
-0.466955 0.000638 0.093142 3.000000
-0.466955 0.050877 -0.065990 3.000000
-0.466955 0.002622 0.038324 3.000000
-0.466955 -0.029449 -0.081349 3.000000
-0.466955 0.061980 0.004399 3.000000
-0.466955 0.056247 -0.072279 3.000000
-0.466955 0.031683 -0.087686 3.000000
-0.466955 0.001308 -0.007441 3.000000
-0.466955 -0.018565 -0.052397 3.000000
-0.466955 0.052528 -0.036445 3.000000
-0.466955 -0.074874 -0.019629 3.000000
-0.466955 -0.049903 -0.010897 3.000000
-0.466955 0.031406 0.077578 3.000000
-0.466955 0.041940 0.032088 3.000000
-0.466955 0.024916 -0.095984 3.000000
-0.466955 0.072946 0.026143 3.000000
-0.466955 0.052219 0.032652 3.000000
-0.466955 0.076296 -0.055320 3.000000
-0.466955 0.080659 0.006000 3.000000
-0.466955 -0.060770 0.060515 3.000000
-0.466955 -0.021296 0.022646 3.000000
-0.466955 -0.070245 -0.050232 3.000000
-0.466955 0.053834 0.021144 3.000000
-0.466955 0.024141 0.056944 3.000000
-0.466955 0.051100 -0.082957 3.000000
-0.466955 -0.061981 0.026646 3.000000
-0.466955 -0.082370 -0.040274 3.000000
-0.466955 0.055049 0.076622 3.000000
-0.466955 -0.008089 0.048154 3.000000
-0.466955 -0.038858 0.080421 3.000000
-0.466955 -0.022336 0.053716 3.000000
-0.466955 0.002015 -0.002307 3.000000
-0.466955 0.090029 0.009604 3.000000
-0.466955 -0.023803 -0.000601 3.000000
-0.466955 -0.042074 -0.013993 3.000000
-0.466955 -0.000308 0.019755 3.000000
-0.466955 -0.056869 -0.028262 3.000000
-0.466955 0.006290 -0.002265 3.000000
-0.466955 -0.033397 -0.061968 3.000000
-0.466955 -0.072532 0.068237 3.000000
-0.466955 -0.036748 -0.067502 3.000000
-0.466955 -0.090806 0.041411 3.000000
-0.466955 -0.020965 0.088590 3.000000
-0.466955 -0.027651 -0.007294 3.000000
-0.466955 0.051342 0.048790 3.000000
-0.466955 0.077461 0.034180 3.000000
-0.466955 0.026240 -0.081559 3.000000
-0.466955 0.004287 0.032538 3.000000
-0.466955 -0.041088 -0.081074 3.000000
-0.466955 0.025167 0.086933 3.000000
-0.466955 0.002446 -0.012206 3.000000
-0.466955 0.013846 0.017635 3.000000
-0.466955 -0.011306 0.061209 3.000000
-0.466955 0.014348 0.009267 3.000000
-0.466955 0.007866 0.018646 3.000000
-0.466955 -0.052501 -0.039587 3.000000
-0.466955 -0.002860 0.053767 3.000000
-0.466955 -0.012593 -0.077781 3.000000
-0.466955 0.008511 -0.040205 3.000000
-0.466955 -0.010283 0.005596 3.000000
-0.466955 -0.079080 -0.044840 3.000000
-0.466955 -0.030949 -0.003833 3.000000
-0.466955 -0.045906 0.031263 3.000000
-0.466955 0.050778 -0.031595 3.000000
-0.466955 0.017857 -0.090052 3.000000
-0.466955 -0.038816 -0.000671 3.000000
-0.466955 -0.010765 0.037775 3.000000
-0.466955 -0.077524 -0.032728 3.000000
-0.466955 -0.050284 -0.048396 3.000000
-0.466955 -0.074379 -0.057535 3.000000
-0.466955 -0.018385 -0.041764 3.000000
-0.466955 -0.042797 -0.035873 3.000000
-0.466955 -0.006281 0.043028 3.000000
-0.466955 -0.072793 0.058633 3.000000
-0.466955 0.045262 0.069280 3.000000
-0.466955 -0.002276 0.040530 3.000000
-0.466955 0.018698 -0.022505 3.000000
-0.466955 0.092755 -0.028739 3.000000
-0.466955 -0.022445 0.068700 3.000000
-0.466955 -0.065053 0.018856 3.000000
-0.466955 -0.012559 0.048733 3.000000
-0.466955 -0.093247 -0.032899 3.000000
-0.466955 0.088843 -0.038470 3.000000
-0.466955 0.041649 -0.059065 3.000000
-0.466955 0.005667 0.033439 3.000000
-0.466955 -0.023554 0.056821 3.000000
-0.466955 -0.071418 0.027633 3.000000
-0.466955 0.088343 0.028600 3.000000
-0.466955 0.093551 0.002479 3.000000
-0.466955 -0.053746 0.069309 3.000000
-0.466955 0.061773 -0.057353 3.000000
-0.466955 0.064292 0.064190 3.000000
-0.466955 0.045654 0.074470 3.000000
-0.466955 -0.080627 0.016911 3.000000
-0.466955 0.096102 0.025783 3.000000
-0.466955 0.026271 -0.044676 3.000000
-0.466955 -0.061932 0.008337 3.000000
-0.466955 -0.000623 -0.073040 3.000000
-0.466955 0.065314 -0.014388 3.000000
-0.466955 -0.019098 -0.038451 3.000000
-0.466955 -0.037478 -0.026560 3.000000
-0.466955 -0.035287 -0.017823 3.000000
-0.466955 0.036623 -0.007352 3.000000
-0.466955 0.032808 0.085036 3.000000
-0.466955 -0.006493 0.018144 3.000000
-0.466955 -0.025081 -0.040782 3.000000
-0.466955 0.053184 0.012108 3.000000
-0.466955 0.028892 -0.092061 3.000000
-0.466955 0.057839 0.032575 3.000000
-0.466955 0.074819 -0.055270 3.000000
-0.466955 -0.011138 0.069679 3.000000
-0.466955 0.065937 -0.025764 3.000000
-0.466955 0.038066 0.069462 3.000000
-0.466955 -0.036883 0.009091 3.000000
-0.466955 -0.009746 -0.061885 3.000000
-0.466955 0.032636 -0.085818 3.000000
-0.466955 -0.084694 0.041317 3.000000
-0.466955 -0.007782 0.079225 3.000000
-0.466955 0.060274 0.028312 3.000000
-0.466955 -0.013107 0.014413 3.000000
-0.466955 0.032831 0.055665 3.000000
-0.466955 0.030230 0.041369 3.000000
-0.466955 0.027356 -0.074826 3.000000
-0.466955 0.039770 -0.001810 3.000000
-0.466955 -0.040158 0.051363 3.000000
-0.466955 0.046497 -0.055200 3.000000
-0.466955 -0.079324 0.030636 3.000000
-0.466955 0.011474 0.054345 3.000000
-0.466955 0.051029 -0.048161 3.000000
-0.466955 0.016218 0.084481 3.000000
-0.466955 0.049249 0.074715 3.000000
-0.466955 0.061306 -0.061269 3.000000
-0.466955 -0.018187 0.060119 3.000000
-0.466955 -0.069877 -0.042894 3.000000
-0.466955 -0.024784 0.017584 3.000000
-0.466955 0.038801 -0.054208 3.000000
-0.466955 -0.051699 0.025808 3.000000
-0.466955 0.080706 0.020578 3.000000
-0.466955 0.017534 0.022300 3.000000
-0.466955 -0.038369 -0.032876 3.000000
-0.466955 0.060435 0.047165 3.000000
-0.466955 -0.068718 -0.071507 3.000000
-0.466955 0.022007 0.090415 3.000000
-0.466955 0.072716 0.055040 3.000000
-0.466955 0.046752 0.019164 3.000000
-0.466955 0.027810 0.031314 3.000000
-0.466955 0.023243 -0.064647 3.000000
-0.466955 0.027771 -0.077227 3.000000
-0.466955 0.084066 0.014321 3.000000
-0.466955 -0.000775 0.089281 3.000000
-0.466955 -0.028405 0.088218 3.000000
-0.466955 0.049850 0.062955 3.000000
-0.466955 0.055169 0.068470 3.000000
-0.466955 -0.090249 -0.019244 3.000000
-0.466955 0.006894 -0.051573 3.000000
-0.466955 0.063657 0.032145 3.000000
-0.466955 0.044371 -0.080930 3.000000
-0.466955 -0.001949 0.039091 3.000000
-0.466955 -0.029461 -0.062833 3.000000
-0.466955 -0.018449 0.092875 3.000000
-0.466955 0.051801 -0.009456 3.000000
-0.466955 -0.023950 0.044607 3.000000
-0.466955 0.021363 0.035847 3.000000
-0.466955 0.047369 0.023502 3.000000
-0.466955 0.070013 -0.035121 3.000000
-0.466955 -0.063911 0.016862 3.000000
-0.466955 0.002288 -0.085369 3.000000
-0.466955 0.059850 -0.045588 3.000000
-0.466955 0.053735 -0.074582 3.000000
-0.466955 -0.020920 -0.062362 3.000000
-0.466955 0.052171 0.008690 3.000000
-0.466955 0.027244 0.076563 3.000000
-0.466955 -0.067964 -0.067612 3.000000
-0.466955 -0.046067 -0.047772 3.000000
-0.466955 -0.025743 -0.013344 3.000000
-0.466955 0.017159 -0.027485 3.000000
-0.466955 -0.032854 -0.045218 3.000000
-0.466955 -0.024234 0.026704 3.000000
-0.466955 -0.008414 -0.043313 3.000000
-0.466955 -0.062710 0.009652 3.000000
-0.466955 0.065284 0.010102 3.000000
-0.466955 0.087410 0.018514 3.000000
-0.466955 -0.088793 0.006342 3.000000
-0.466955 -0.022920 -0.038210 3.000000
-0.466955 -0.044750 0.056294 3.000000
-0.466955 -0.023942 0.068469 3.000000
-0.466955 -0.045993 -0.076742 3.000000
-0.466955 -0.026520 -0.061593 3.000000
-0.466955 0.072688 0.013236 3.000000
-0.466955 -0.047143 0.066771 3.000000
-0.466955 -0.025152 0.019632 3.000000
-0.466955 0.044907 0.050932 3.000000
-0.466955 -0.003613 -0.094353 3.000000
-0.466955 -0.071142 0.059608 3.000000
-0.466955 -0.012568 -0.062816 3.000000
-0.466955 0.032162 -0.028575 3.000000
-0.466955 -0.073437 0.022531 3.000000
-0.466955 0.033584 -0.073443 3.000000
-0.466955 0.075826 0.008805 3.000000
-0.466955 -0.073238 -0.039030 3.000000
-0.466955 0.018994 0.081946 3.000000
-0.466955 0.074591 -0.033136 3.000000
-0.466955 0.000683 0.016110 3.000000
-0.466955 -0.052659 -0.027597 3.000000
-0.466955 -0.050561 -0.000601 3.000000
-0.466955 -0.022383 -0.000101 3.000000
-0.466955 -0.014028 -0.036730 3.000000
-0.466955 -0.042328 -0.071610 3.000000
-0.466955 0.056648 -0.023316 3.000000
-0.466955 0.046563 0.061193 3.000000
-0.466955 -0.009850 0.065093 3.000000
-0.466955 -0.006064 0.079176 3.000000
-0.466955 0.028518 -0.021761 3.000000
-0.466955 -0.008684 -0.028996 3.000000
-0.466955 0.075289 0.048530 3.000000
-0.466955 -0.052221 0.038820 3.000000
-0.466955 -0.017060 0.020376 3.000000
-0.466955 0.088589 0.010064 3.000000
-0.466955 -0.042706 0.084171 3.000000
-0.466955 0.063954 0.047043 3.000000
-0.466955 -0.028228 0.002743 3.000000
-0.466955 0.058309 -0.064688 3.000000
-0.466955 0.001995 -0.056899 3.000000
-0.466955 -0.030770 0.025707 3.000000
-0.466955 0.028763 0.038759 3.000000
-0.466955 0.065868 -0.005392 3.000000
-0.466955 0.066647 0.066238 3.000000
-0.466955 -0.096725 -0.023284 3.000000
-0.466955 0.016564 -0.040930 3.000000
-0.466955 0.003471 0.002868 3.000000
-0.466955 -0.076435 0.028463 3.000000
-0.466955 0.026756 0.080978 3.000000
-0.466955 -0.068029 -0.043700 3.000000
-0.466955 0.066891 0.010015 3.000000
-0.466955 0.076287 0.050370 3.000000
-0.466955 0.082788 0.017054 3.000000
-0.466955 -0.024599 0.000801 3.000000
-0.466955 -0.046314 -0.059589 3.000000
-0.466955 0.084127 0.031278 3.000000
-0.466955 -0.019596 0.022540 3.000000
-0.466955 0.024467 -0.056492 3.000000
-0.466955 0.077739 -0.038064 3.000000
-0.466955 0.099468 -0.008688 3.000000
-0.466955 -0.047785 0.074171 3.000000
-0.466955 -0.066762 -0.063693 3.000000
-0.466955 -0.034647 -0.058074 3.000000
-0.466955 0.026305 0.049734 3.000000
-0.466955 -0.090659 0.025008 3.000000
-0.466955 0.014551 -0.037796 3.000000
-0.466955 -0.021276 -0.093221 3.000000
-0.466955 0.097608 -0.001622 3.000000
-0.466955 0.040779 -0.041193 3.000000
-0.466955 -0.012266 0.054945 3.000000
-0.466955 0.095745 -0.019988 3.000000
-0.466955 0.039423 -0.000190 3.000000
-0.466955 -0.067071 0.016414 3.000000
-0.466955 0.019997 -0.009200 3.000000
-0.466955 0.006931 0.041421 3.000000
-0.466955 -0.020507 -0.055019 3.000000
-0.466955 -0.065308 0.024048 3.000000
-0.466955 0.043694 0.011809 3.000000
-0.466955 -0.049886 -0.066298 3.000000
-0.466955 -0.036985 -0.086734 3.000000
-0.466955 0.012787 0.013413 3.000000
-0.466955 -0.007153 -0.081775 3.000000
-0.466955 -0.026457 -0.084957 3.000000
-0.466955 -0.061853 0.062389 3.000000
-0.466955 -0.005754 0.095409 3.000000
-0.466955 0.034630 -0.019681 3.000000
-0.466955 -0.005772 0.027902 3.000000
-0.466955 0.036066 0.079171 3.000000
-0.466955 -0.039733 -0.037492 3.000000
-0.466955 -0.041933 0.060879 3.000000
-0.466955 0.025969 -0.052404 3.000000
-0.466955 -0.061310 0.014313 3.000000
-0.466955 0.063854 0.076911 3.000000
-0.466955 -0.058552 -0.052805 3.000000
-0.466955 -0.013860 0.045924 3.000000
-0.466955 0.080839 -0.027943 3.000000
-0.466955 -0.025299 0.055700 3.000000
-0.466955 -0.006604 -0.015048 3.000000
-0.466955 -0.007020 0.035079 3.000000
-0.466955 0.058440 -0.066075 3.000000
-0.466955 0.016940 0.007829 3.000000
-0.466955 0.048754 -0.005949 3.000000
-0.466955 -0.040077 0.026598 3.000000
-0.466955 -0.002997 -0.022395 3.000000
-0.466955 -0.074243 0.038696 3.000000
-0.466955 0.040180 0.034545 3.000000
-0.466955 0.002778 0.018949 3.000000
-0.466955 -0.061162 0.052699 3.000000
-0.466955 0.025813 -0.063044 3.000000
-0.466955 -0.019956 0.032787 3.000000
-0.466955 -0.040442 0.023515 3.000000
-0.466955 0.088076 0.013319 3.000000
-0.466955 -0.079093 -0.006838 3.000000
-0.466955 -0.063306 0.067590 3.000000
-0.466955 -0.004149 -0.024048 3.000000
-0.466955 -0.006057 0.092428 3.000000
-0.466955 0.037480 0.082092 3.000000
-0.466955 -0.026651 -0.036094 3.000000
-0.466955 0.004603 0.073192 3.000000
-0.466955 0.023901 -0.047153 3.000000
-0.466955 0.043146 -0.047314 3.000000
-0.466955 -0.019953 0.076512 3.000000
-0.466955 0.005684 0.083066 3.000000
-0.466955 -0.035303 0.090218 3.000000
-0.466955 0.001817 -0.082391 3.000000
-0.466955 0.087320 -0.029638 3.000000
-0.466955 0.016192 0.029319 3.000000
-0.466955 0.008926 -0.026138 3.000000
-0.466955 -0.035830 -0.084366 3.000000
-0.466955 0.000669 -0.057723 3.000000
-0.466955 -0.021136 -0.008666 3.000000
-0.466955 -0.013227 0.081084 3.000000
-0.466955 0.022409 0.061746 3.000000
-0.466955 0.029426 -0.076651 3.000000
-0.466955 0.022538 0.040398 3.000000
-0.466955 -0.082594 0.042735 3.000000
-0.466955 0.015610 -0.097049 3.000000
-0.466955 0.087561 -0.022442 3.000000
-0.466955 0.089024 -0.007583 3.000000
-0.466955 0.007509 0.027480 3.000000
-0.466955 -0.002706 -0.070434 3.000000
-0.466955 0.074490 0.057062 3.000000
-0.466955 -0.087081 -0.008808 3.000000
-0.466955 -0.054011 0.070768 3.000000
-0.466955 0.037300 -0.035287 3.000000
-0.466955 -0.066914 0.054026 3.000000
-0.466955 -0.042614 -0.090067 3.000000
-0.466955 -0.041476 0.068873 3.000000
-0.466955 -0.010668 -0.071781 3.000000
-0.466955 0.053561 0.048579 3.000000
-0.466955 -0.044002 -0.056980 3.000000
-0.466955 -0.062635 -0.053618 3.000000
-0.466955 0.016254 0.012764 3.000000
-0.466955 0.071445 0.029345 3.000000
-0.466955 0.026459 -0.007610 3.000000
-0.466955 0.033735 0.026812 3.000000
-0.466955 0.057747 -0.033730 3.000000
-0.466955 -0.020129 -0.084188 3.000000
-0.466955 -0.046238 -0.012995 3.000000
-0.466955 -0.057385 -0.077195 3.000000
-0.466955 -0.057158 -0.053887 3.000000
-0.466955 -0.034107 -0.078839 3.000000
-0.466955 0.066848 0.013397 3.000000
-0.466955 0.060969 0.012969 3.000000
-0.466955 -0.013768 -0.047256 3.000000
-0.466955 -0.086905 0.009790 3.000000
-0.466955 0.016896 0.015520 3.000000
-0.466955 0.065425 -0.012534 3.000000
-0.466955 -0.024151 0.096979 3.000000
-0.466955 0.093765 -0.034211 3.000000
-0.466955 -0.002917 -0.058962 3.000000
-0.466955 0.007715 -0.057148 3.000000
-0.466955 -0.002931 -0.095881 3.000000
-0.466955 -0.022441 0.028191 3.000000
-0.466955 0.024082 -0.086760 3.000000
-0.466955 -0.026794 -0.073919 3.000000
-0.466955 -0.050185 0.067716 3.000000
-0.466955 -0.019136 0.000210 3.000000
-0.466955 0.068807 -0.063054 3.000000
-0.466955 0.052799 -0.041741 3.000000
-0.466955 -0.041425 0.031667 3.000000
-0.466955 -0.065095 -0.072557 3.000000
-0.466955 0.061099 -0.012824 3.000000
-0.466955 0.001017 -0.070742 3.000000
-0.466955 -0.069690 0.014612 3.000000
-0.466955 -0.012028 0.025760 3.000000
-0.466955 0.076707 0.059459 3.000000
-0.466955 0.076367 -0.052511 3.000000
-0.466955 -0.040891 -0.008641 3.000000
-0.466955 0.032086 0.022850 3.000000
-0.466955 0.094954 -0.028159 3.000000
-0.466955 -0.003638 -0.077134 3.000000
-0.466955 -0.070626 0.062897 3.000000
-0.466955 0.022548 0.021493 3.000000
-0.466955 -0.011285 -0.076857 3.000000
-0.466955 -0.047607 -0.008528 3.000000
-0.466955 0.047176 -0.001391 3.000000
-0.466955 0.001964 -0.071933 3.000000
-0.466955 0.016171 -0.062076 3.000000
-0.466955 -0.058233 -0.068344 3.000000
-0.466955 0.075553 0.062204 3.000000
-0.466955 0.068645 -0.069491 3.000000
-0.466955 -0.061094 0.048896 3.000000
-0.466955 -0.034986 0.066064 3.000000
-0.466955 0.090136 -0.017930 3.000000
-0.466955 -0.001209 -0.039370 3.000000
-0.466955 0.026724 -0.049562 3.000000
-0.466955 0.029770 -0.036603 3.000000
-0.466955 -0.017269 0.023421 3.000000
-0.466955 -0.013671 -0.073077 3.000000
-0.466955 0.029651 0.070036 3.000000
-0.466955 0.004610 -0.001132 3.000000
-0.466955 0.047594 0.021639 3.000000
-0.466955 -0.057235 0.010782 3.000000
-0.466955 0.012041 -0.089357 3.000000
-0.466955 -0.027663 -0.040924 3.000000
-0.466955 -0.074601 -0.063925 3.000000
-0.466955 0.063690 -0.065403 3.000000
-0.466955 0.032760 0.021398 3.000000
-0.466955 -0.009935 -0.085170 3.000000
-0.466955 0.001631 0.069650 3.000000
-0.466955 0.017443 -0.096110 3.000000
-0.466955 -0.034088 0.041934 3.000000
-0.466955 -0.028933 0.092586 3.000000
-0.466955 0.059089 -0.077112 3.000000
-0.466955 -0.042460 0.071099 3.000000
-0.466955 0.061026 0.074213 3.000000
-0.466955 -0.059200 -0.040412 3.000000
-0.466955 0.092994 -0.036216 3.000000
-0.466955 -0.091796 -0.019681 3.000000
-0.466955 -0.050374 -0.015892 3.000000
-0.466955 0.044379 0.056640 3.000000
-0.466955 -0.001393 -0.028886 3.000000
-0.466955 -0.034520 -0.054500 3.000000
-0.466955 -0.072758 0.060308 3.000000
-0.466955 -0.008295 0.073834 3.000000
-0.466955 0.014205 0.098656 3.000000
-0.466955 0.076235 0.027663 3.000000
-0.466955 0.049559 0.001075 3.000000
-0.466955 -0.062670 0.076913 3.000000
-0.466955 -0.064377 -0.000668 3.000000
-0.466955 -0.070199 -0.030112 3.000000
-0.466955 0.080181 -0.038882 3.000000
-0.466955 -0.029600 0.031635 3.000000
-0.466955 -0.041046 0.012489 3.000000
-0.466955 -0.072095 0.053063 3.000000
-0.466955 -0.068809 -0.019142 3.000000
-0.466955 -0.060440 0.026147 3.000000
-0.466955 0.020314 -0.024990 3.000000
-0.466955 -0.017109 -0.059810 3.000000
-0.466955 -0.016992 -0.065116 3.000000
-0.466955 -0.079994 -0.000962 3.000000
-0.466955 -0.092116 0.018956 3.000000
-0.466955 -0.035018 0.005896 3.000000
-0.466955 0.028601 -0.006060 3.000000
-0.466955 -0.031767 0.058115 3.000000
-0.466955 -0.070769 0.006439 3.000000
-0.466955 -0.009556 -0.032793 3.000000
-0.466955 -0.000747 -0.086950 3.000000
-0.466955 0.008725 0.014678 3.000000
-0.466955 0.096135 -0.012706 3.000000
-0.466955 0.042134 0.064594 3.000000
-0.466955 -0.028184 -0.067018 3.000000
-0.466955 -0.065969 -0.019383 3.000000
-0.466955 0.056619 0.082416 3.000000
-0.466955 0.048172 0.071194 3.000000
-0.466955 -0.036878 -0.071949 3.000000
-0.466955 -0.013011 0.031906 3.000000
-0.466955 -0.044153 -0.061586 3.000000
-0.466955 -0.010590 0.035710 3.000000
-0.466955 -0.010303 0.001535 3.000000
-0.466955 -0.077731 -0.016287 3.000000
-0.466955 -0.038342 -0.091873 3.000000
-0.466955 -0.088974 -0.009172 3.000000
-0.466955 -0.052962 -0.008302 3.000000
-0.466955 0.015165 -0.098393 3.000000
-0.466955 -0.024193 0.095167 3.000000
-0.466955 0.078849 -0.036944 3.000000
-0.466955 -0.006931 -0.007312 3.000000
-0.466955 0.024410 -0.036912 3.000000
-0.466955 -0.063108 -0.057882 3.000000
-0.466955 -0.052211 0.071270 3.000000
-0.466955 0.023644 0.083811 3.000000
-0.466955 -0.015696 0.058701 3.000000
-0.466955 0.084752 -0.004959 3.000000
-0.466955 -0.060745 -0.014250 3.000000
-0.466955 -0.076119 0.024349 3.000000
-0.466955 0.018938 0.015226 3.000000
-0.466955 -0.071691 -0.006338 3.000000
-0.466955 0.020415 0.081296 3.000000
-0.466955 -0.064685 -0.046087 3.000000
-0.466955 -0.064658 0.034530 3.000000
-0.466955 -0.038854 -0.054932 3.000000
-0.466955 -0.066677 0.039615 3.000000
-0.466955 -0.042127 0.057177 3.000000
-0.466955 -0.012357 -0.067686 3.000000
-0.466955 0.078429 -0.016771 3.000000
-0.466955 -0.063195 -0.025808 3.000000
-0.466955 0.015455 -0.064230 3.000000
-0.466955 0.063923 0.071935 3.000000
-0.466955 0.066166 0.030103 3.000000
-0.466955 0.090982 0.041023 3.000000
-0.466955 -0.048909 0.055289 3.000000
-0.466955 -0.067371 -0.016446 3.000000
-0.466955 0.005398 -0.067997 3.000000
-0.466955 0.029187 0.072000 3.000000
-0.466955 0.073175 0.030079 3.000000
-0.466955 -0.083328 -0.045164 3.000000
-0.466955 -0.065733 0.033182 3.000000
-0.466955 -0.081241 -0.004131 3.000000
-0.466955 -0.041714 -0.064693 3.000000
-0.466955 0.070988 -0.028715 3.000000
-0.466955 0.040155 -0.015715 3.000000
-0.466955 -0.036249 0.063596 3.000000
-0.466955 -0.074644 -0.014991 3.000000
-0.466955 0.033511 -0.005968 3.000000
-0.466955 0.011869 0.043993 3.000000
-0.466955 -0.060193 0.047741 3.000000
-0.466955 -0.043421 -0.023443 3.000000
-0.466955 -0.009392 -0.038962 3.000000
-0.466955 -0.011296 -0.061739 3.000000
-0.466955 0.043355 -0.031356 3.000000
-0.466955 0.007662 -0.063967 3.000000
-0.466955 -0.049270 -0.036536 3.000000
-0.466955 0.094520 0.007169 3.000000
-0.466955 -0.081407 0.020369 3.000000
-0.466955 -0.063884 -0.022700 3.000000
-0.466955 -0.040807 -0.088244 3.000000
-0.466955 0.024908 -0.032208 3.000000
-0.466955 -0.043375 -0.045133 3.000000
-0.466955 -0.020454 0.069153 3.000000
-0.466955 0.052257 0.046231 3.000000
-0.466955 -0.041332 0.054523 3.000000
-0.466955 0.085251 0.025213 3.000000
-0.466955 -0.016654 -0.030206 3.000000
-0.466955 -0.058320 -0.076177 3.000000
-0.466955 0.011332 0.057774 3.000000
-0.466955 -0.041965 0.017321 3.000000
-0.466955 0.019691 0.092867 3.000000
-0.466955 -0.073093 0.043879 3.000000
-0.466955 0.007575 0.008606 3.000000
-0.466955 -0.037439 -0.062216 3.000000
-0.466955 -0.075528 0.033916 3.000000
-0.466955 -0.089427 -0.006719 3.000000
-0.466955 0.062005 0.022096 3.000000
-0.466955 -0.007446 0.058679 3.000000
-0.466955 -0.015484 -0.004553 3.000000
-0.466955 0.011093 -0.058844 3.000000
-0.466955 0.049592 -0.056687 3.000000
-0.466955 -0.076027 -0.021080 3.000000
-0.466955 0.008577 -0.009236 3.000000
-0.466955 -0.026546 -0.005097 3.000000
-0.466955 -0.032115 0.024051 3.000000
-0.466955 -0.055150 0.078626 3.000000
-0.466955 0.026310 -0.032446 3.000000
-0.466955 -0.051980 -0.079778 3.000000
-0.466955 -0.081223 0.021908 3.000000
-0.466955 0.031402 0.024296 3.000000
-0.466955 -0.088167 -0.023062 3.000000
-0.466955 -0.038942 -0.039270 3.000000
-0.466955 0.025925 -0.014745 3.000000
-0.466955 -0.042482 0.019392 3.000000
-0.466955 0.059919 -0.003158 3.000000
-0.466955 -0.062415 0.041544 3.000000
-0.466955 -0.085349 -0.019011 3.000000
-0.466955 -0.041609 -0.032058 3.000000
-0.466955 -0.068410 0.068724 3.000000
-0.466955 0.017957 0.027931 3.000000
-0.466955 -0.019863 -0.051070 3.000000
-0.466955 0.067094 0.006279 3.000000
-0.466955 0.041881 -0.044663 3.000000
-0.466955 0.031231 0.039781 3.000000
-0.466955 0.066553 -0.008265 3.000000
-0.466955 0.087895 0.021669 3.000000
-0.466955 -0.027656 -0.092881 3.000000
-0.466955 0.039548 0.073647 3.000000
-0.466955 0.079341 0.014520 3.000000
-0.466955 0.002220 0.086804 3.000000
-0.466955 0.006896 0.070632 3.000000
-0.466955 0.069625 0.015000 3.000000
-0.466955 -0.029569 -0.008100 3.000000
-0.466955 -0.018628 0.008610 3.000000
-0.466955 0.066715 0.045005 3.000000
-0.466955 0.061969 -0.022059 3.000000
-0.466955 0.097920 -0.003870 3.000000
-0.466955 -0.071512 0.020803 3.000000
-0.466955 -0.090233 0.015939 3.000000
-0.466955 0.027645 0.072170 3.000000
-0.466955 0.022472 0.065410 3.000000
-0.466955 -0.019054 -0.055510 3.000000
-0.466955 -0.065375 0.046596 3.000000
-0.466955 -0.054098 -0.039897 3.000000
-0.466955 -0.084811 -0.044783 3.000000
-0.466955 0.016050 0.040435 3.000000
-0.466955 -0.080771 -0.031020 3.000000
-0.466955 -0.055669 -0.022158 3.000000
-0.466955 0.054006 -0.076527 3.000000
-0.466955 -0.014353 -0.015358 3.000000
-0.466955 0.082927 0.015511 3.000000
-0.466955 0.078935 0.012431 3.000000
-0.466955 -0.039250 -0.062491 3.000000
-0.466955 -0.079917 -0.029665 3.000000
-0.466955 -0.015266 -0.079807 3.000000
-0.466955 0.014787 -0.068466 3.000000
-0.466955 -0.029892 0.015538 3.000000
-0.466955 -0.017898 -0.039969 3.000000
-0.466955 -0.045470 -0.033151 3.000000
-0.466955 -0.089740 0.008328 3.000000
-0.466955 0.033019 -0.023370 3.000000
-0.466955 0.049191 -0.012545 3.000000
-0.466955 -0.061686 0.075816 3.000000
-0.466955 0.040867 0.074841 3.000000
-0.466955 0.021127 0.025358 3.000000
-0.466955 -0.057859 -0.061320 3.000000
-0.466955 -0.092553 0.013580 3.000000
-0.466955 0.072114 0.051608 3.000000
-0.466955 -0.044853 -0.076055 3.000000
-0.466955 -0.031000 -0.048650 3.000000
-0.466955 0.051661 -0.032936 3.000000
-0.466955 -0.012472 -0.058814 3.000000
-0.466955 -0.012546 -0.074188 3.000000
-0.466955 0.030645 -0.049356 3.000000
-0.466955 0.049414 0.057523 3.000000
-0.466955 -0.046931 -0.032576 3.000000
-0.466955 0.093193 -0.024239 3.000000
-0.466955 -0.060453 0.054420 3.000000
-0.466955 -0.050403 -0.035251 3.000000
-0.466955 -0.052190 0.074189 3.000000
-0.466955 0.065733 -0.053668 3.000000
-0.466955 0.066366 -0.019337 3.000000
-0.466955 0.004060 0.051153 3.000000
-0.466955 -0.076021 -0.030186 3.000000
-0.466955 -0.047263 -0.073150 3.000000
-0.466955 -0.020780 -0.072920 3.000000
-0.466955 -0.050694 0.006744 3.000000
-0.466955 0.034355 0.058141 3.000000
-0.466955 0.031887 -0.006143 3.000000
-0.466955 -0.038552 -0.036489 3.000000
-0.466955 -0.074459 0.058221 3.000000
-0.466955 -0.072712 -0.031493 3.000000
-0.466955 -0.071372 0.054320 3.000000
-0.466955 -0.093929 -0.031330 3.000000
-0.466955 -0.074920 0.063805 3.000000
-0.466955 0.010627 0.014813 3.000000
-0.466955 0.001730 -0.050017 3.000000
-0.466955 0.016285 -0.029277 3.000000
-0.466955 0.092497 0.016223 3.000000
-0.466955 -0.019607 -0.059453 3.000000
-0.466955 -0.072108 0.066144 3.000000
-0.466955 -0.015420 0.019529 3.000000
-0.466955 0.012581 0.048228 3.000000
-0.466955 -0.049644 -0.068166 3.000000
-0.466955 -0.008766 0.063725 3.000000
-0.466955 0.096886 0.023034 3.000000
-0.466955 0.032819 -0.069047 3.000000
-0.466955 0.007568 0.034541 3.000000
-0.466955 0.061276 0.002080 3.000000
-0.466955 -0.039852 -0.041781 3.000000
-0.466955 -0.012161 0.075368 3.000000
-0.466955 0.062710 0.033258 3.000000
-0.466955 0.047507 0.076262 3.000000
-0.466955 -0.051384 -0.043862 3.000000
-0.466955 0.074948 -0.061932 3.000000
-0.466955 0.041143 0.013038 3.000000
-0.466955 -0.009767 0.045728 3.000000
-0.466955 -0.006100 -0.009142 3.000000
-0.466955 0.020044 0.043058 3.000000
-0.466955 -0.032811 -0.089920 3.000000
-0.466955 0.055984 0.056009 3.000000
-0.466955 -0.052051 -0.034013 3.000000
-0.466955 -0.071976 -0.060549 3.000000
-0.466955 0.052095 0.053791 3.000000
-0.466955 0.052336 -0.047763 3.000000
-0.466955 0.051942 0.023686 3.000000
-0.466955 -0.026405 0.090372 3.000000
-0.466955 -0.088560 0.024964 3.000000
-0.466955 -0.026059 0.056943 3.000000
-0.466955 -0.080151 -0.056012 3.000000
-0.466955 0.030342 0.050892 3.000000
-0.466955 0.006119 -0.047126 3.000000
-0.466955 -0.074445 0.040754 3.000000
-0.466955 -0.040536 -0.000892 3.000000
-0.466955 -0.085477 -0.028252 3.000000
-0.466955 -0.091899 0.017151 3.000000
-0.466955 0.044951 0.031782 3.000000
-0.466955 -0.055639 0.002941 3.000000
-0.466955 0.094152 -0.020210 3.000000
-0.466955 0.014858 -0.084662 3.000000
-0.466955 0.063376 0.058277 3.000000
-0.466955 -0.060706 -0.068821 3.000000
-0.466955 -0.071162 -0.004008 3.000000
-0.466955 0.031014 0.088629 3.000000
-0.466955 -0.011255 0.017929 3.000000
-0.466955 0.016671 0.010921 3.000000
-0.466955 0.032669 -0.025606 3.000000
-0.466955 0.020330 0.017251 3.000000
-0.466955 -0.086422 0.030262 3.000000
-0.466955 0.023367 -0.019585 3.000000
-0.466955 -0.007978 -0.008719 3.000000
-0.466955 -0.038873 0.078809 3.000000
-0.466955 -0.015458 -0.039341 3.000000
-0.466955 0.009331 -0.015232 3.000000
-0.466955 -0.052271 0.065444 3.000000
-0.466955 -0.003911 0.075587 3.000000
-0.466955 -0.064528 -0.035377 3.000000
-0.466955 0.016764 -0.009790 3.000000
-0.466955 -0.055330 0.074681 3.000000
-0.466955 -0.049051 0.017721 3.000000
-0.466955 -0.095821 0.012477 3.000000
-0.466955 -0.014185 -0.085330 3.000000
-0.466955 -0.024981 -0.042544 3.000000
-0.466955 0.027037 0.007726 3.000000
-0.466955 0.042346 -0.041946 3.000000
-0.466955 -0.065125 -0.031313 3.000000
-0.466955 -0.037964 -0.049782 3.000000
-0.466955 0.010993 -0.077225 3.000000
-0.466955 0.006812 0.058289 3.000000
-0.466955 0.047701 -0.035122 3.000000
-0.466955 -0.038902 0.049170 3.000000
-0.466955 -0.036902 -0.060168 3.000000
-0.466955 -0.063378 0.032903 3.000000
-0.466955 0.035540 0.047161 3.000000
-0.466955 -0.019271 -0.007396 3.000000
-0.466955 0.001485 0.058500 3.000000
-0.466955 0.035202 0.070799 3.000000
-0.466955 -0.079944 0.020214 3.000000
-0.466955 -0.068503 0.013464 3.000000
-0.466955 0.072497 -0.049754 3.000000
-0.466955 -0.050286 0.063899 3.000000
-0.466955 -0.065575 0.022507 3.000000
-0.466955 -0.079310 0.050615 3.000000
-0.466955 -0.070433 -0.002369 3.000000
-0.466955 0.024261 0.085508 3.000000
-0.466955 0.042719 0.028695 3.000000
-0.466955 -0.000192 0.070505 3.000000
-0.466955 -0.047131 -0.027035 3.000000
-0.466955 -0.047123 0.037317 3.000000
-0.466955 0.061782 0.042174 3.000000
-0.466955 0.018476 -0.038439 3.000000
-0.466955 0.006707 0.067008 3.000000
-0.466955 -0.008249 0.030194 3.000000
-0.466955 0.087781 -0.008875 3.000000
-0.466955 -0.047948 0.057621 3.000000
-0.466955 0.081012 0.058606 3.000000
-0.466955 -0.080644 0.041874 3.000000
-0.466955 -0.089111 0.041693 3.000000
