-0.466955 -0.079642 0.056859 3.000000
-0.466955 0.002578 -0.036278 3.000000
-0.466955 0.069053 0.063217 3.000000
-0.466955 0.029834 0.061704 3.000000
-0.466955 -0.020526 -0.097505 3.000000
-0.466955 0.054032 0.055900 3.000000
-0.466955 0.050058 0.001791 3.000000
-0.466955 -0.041922 0.030772 3.000000
-0.466955 0.061452 -0.001830 3.000000
-0.466955 0.013439 -0.048026 3.000000
-0.466955 -0.064272 -0.040775 3.000000
-0.466955 0.095883 0.013025 3.000000
-0.466955 0.012962 0.068506 3.000000
-0.466955 0.035015 -0.077463 3.000000
-0.466955 -0.014723 -0.031268 3.000000
-0.466955 -0.007969 -0.020543 3.000000
-0.466955 -0.057368 -0.002215 3.000000
-0.466955 0.037470 -0.044129 3.000000
-0.466955 0.077926 0.029493 3.000000
-0.466955 0.030104 0.084199 3.000000
-0.466955 -0.062454 0.027049 3.000000
-0.466955 0.004908 -0.014102 3.000000
-0.466955 -0.075831 0.004362 3.000000
-0.466955 0.013845 0.046629 3.000000
-0.466955 -0.065678 -0.025437 3.000000
-0.466955 -0.039084 -0.012040 3.000000
-0.466955 0.036301 0.020461 3.000000
-0.466955 -0.019189 0.091407 3.000000
-0.466955 0.043178 -0.053461 3.000000
-0.466955 -0.052689 0.065025 3.000000
-0.466955 -0.076107 0.031218 3.000000
-0.466955 0.028489 -0.050930 3.000000
-0.466955 0.072226 0.069207 3.000000
-0.466955 0.075281 -0.062233 3.000000
-0.466955 0.020184 -0.010835 3.000000
-0.466955 0.042965 0.062648 3.000000
-0.466955 0.028810 -0.053345 3.000000
-0.466955 0.074760 -0.023648 3.000000
-0.466955 0.009535 -0.085646 3.000000
-0.466955 0.022038 0.037987 3.000000
-0.466955 0.069311 0.071889 3.000000
-0.466955 -0.024391 -0.075962 3.000000
-0.466955 -0.080690 -0.015243 3.000000
-0.466955 -0.059229 0.067526 3.000000
-0.466955 -0.009420 -0.098552 3.000000
-0.466955 0.077590 -0.048441 3.000000
-0.466955 -0.073172 0.021352 3.000000
-0.466955 0.028731 0.024791 3.000000
-0.466955 0.062984 0.040344 3.000000
-0.466955 -0.057537 0.077092 3.000000
-0.466955 -0.087036 -0.007389 3.000000
-0.466955 0.065559 0.029444 3.000000
-0.466955 0.084972 -0.013218 3.000000
-0.466955 0.086139 -0.027413 3.000000
-0.466955 0.031012 -0.011414 3.000000
-0.466955 0.037167 -0.066294 3.000000
-0.466955 -0.083568 -0.021513 3.000000
-0.466955 -0.012581 0.054823 3.000000
-0.466955 0.039986 -0.079975 3.000000
-0.466955 0.005061 -0.040811 3.000000
-0.466955 -0.031419 -0.000534 3.000000
-0.466955 0.018948 -0.036413 3.000000
-0.466955 0.074762 0.061177 3.000000
-0.466955 -0.031918 0.055000 3.000000
-0.466955 -0.067572 0.035370 3.000000
-0.466955 0.062899 0.046116 3.000000
-0.466955 -0.074958 -0.013988 3.000000
-0.466955 0.048107 -0.073848 3.000000
-0.466955 0.071084 -0.039196 3.000000
-0.466955 0.038340 -0.067264 3.000000
-0.466955 -0.027875 0.045936 3.000000
-0.466955 -0.002906 -0.037999 3.000000
-0.466955 0.003371 -0.032283 3.000000
-0.466955 -0.044699 0.054386 3.000000
-0.466955 -0.037613 -0.083948 3.000000
-0.466955 0.058114 0.039787 3.000000
-0.466955 0.024006 0.050773 3.000000
-0.466955 -0.041582 -0.021262 3.000000
-0.466955 0.065986 0.011013 3.000000
-0.466955 -0.023629 0.068688 3.000000
-0.466955 0.062653 0.065186 3.000000
-0.466955 0.026473 -0.002136 3.000000
-0.466955 0.060688 -0.004619 3.000000
-0.466955 -0.064652 -0.070463 3.000000
-0.466955 -0.052916 0.046708 3.000000
-0.466955 0.023669 0.084211 3.000000
-0.466955 -0.021528 -0.055288 3.000000
-0.466955 0.058417 -0.052042 3.000000
-0.466955 -0.046012 -0.037667 3.000000
-0.466955 -0.031960 -0.042850 3.000000
-0.466955 -0.040402 0.058048 3.000000
-0.466955 -0.025899 0.059233 3.000000
-0.466955 0.012183 -0.040499 3.000000
-0.466955 0.071350 0.047513 3.000000
-0.466955 -0.009009 0.092441 3.000000
-0.466955 -0.082216 -0.006437 3.000000
-0.466955 -0.018393 -0.074391 3.000000
-0.466955 -0.079860 0.013298 3.000000
-0.466955 -0.083707 0.038854 3.000000
-0.466955 0.040327 0.015357 3.000000
-0.466955 0.015347 0.061187 3.000000
-0.466955 0.006041 0.049942 3.000000
-0.466955 0.032162 -0.034769 3.000000
-0.466955 -0.028495 -0.090036 3.000000
-0.466955 0.010932 0.054906 3.000000
-0.466955 -0.052987 0.036680 3.000000
-0.466955 0.003423 -0.057978 3.000000
-0.466955 0.032521 -0.066556 3.000000
-0.466955 -0.039838 0.031372 3.000000
-0.466955 0.036755 -0.042143 3.000000
-0.466955 -0.012473 0.042725 3.000000
-0.466955 0.022279 -0.074223 3.000000
-0.466955 -0.018908 -0.067666 3.000000
-0.466955 -0.069900 0.055385 3.000000
-0.466955 0.081032 0.024892 3.000000
-0.466955 0.080001 0.034342 3.000000
-0.466955 -0.041658 -0.052680 3.000000
-0.466955 0.091634 -0.008707 3.000000
-0.466955 -0.004842 -0.021955 3.000000
-0.466955 -0.051168 -0.068948 3.000000
-0.466955 0.039535 0.081103 3.000000
-0.466955 -0.031793 -0.006302 3.000000
-0.466955 0.032039 0.038523 3.000000
-0.466955 -0.020182 0.022239 3.000000
-0.466955 -0.053137 0.008237 3.000000
-0.466955 -0.095060 -0.029323 3.000000
-0.466955 -0.020789 -0.049883 3.000000
-0.466955 0.001266 -0.006905 3.000000
-0.466955 0.023295 -0.085818 3.000000
-0.466955 0.058391 0.058281 3.000000
-0.466955 0.097302 -0.012138 3.000000
-0.466955 -0.053599 0.076881 3.000000
-0.466955 0.018372 -0.035022 3.000000
-0.466955 0.053832 0.009025 3.000000
-0.466955 0.020218 0.004978 3.000000
-0.466955 0.053303 0.060683 3.000000
-0.466955 -0.021925 0.090896 3.000000
-0.466955 -0.013819 -0.093413 3.000000
-0.466955 -0.089718 0.017652 3.000000
-0.466955 0.069993 0.010729 3.000000
-0.466955 -0.011060 0.057741 3.000000
-0.466955 -0.015929 0.039449 3.000000
-0.466955 -0.021235 -0.017189 3.000000
-0.466955 -0.026287 -0.053816 3.000000
-0.466955 0.001519 -0.041920 3.000000
-0.466955 0.050110 0.047352 3.000000
-0.466955 -0.022405 -0.035891 3.000000
-0.466955 -0.041559 0.074457 3.000000
-0.466955 0.092150 -0.027413 3.000000
-0.466955 0.013813 0.097079 3.000000
-0.466955 -0.079000 -0.031371 3.000000
-0.466955 0.004136 -0.006556 3.000000
-0.466955 0.032739 0.070126 3.000000
-0.466955 0.025326 0.046150 3.000000
-0.466955 0.065669 -0.035558 3.000000
-0.466955 -0.010802 0.082524 3.000000
-0.466955 0.006645 0.047162 3.000000
-0.466955 -0.026434 0.050435 3.000000
-0.466955 -0.013228 -0.013915 3.000000
-0.466955 0.072888 -0.019696 3.000000
-0.466955 0.057278 -0.015532 3.000000
-0.466955 0.036574 0.028642 3.000000
-0.466955 0.012833 0.011968 3.000000
-0.466955 -0.060447 0.007169 3.000000
-0.466955 -0.087331 -0.016712 3.000000
-0.466955 0.050987 0.053693 3.000000
-0.466955 0.047811 -0.080400 3.000000
-0.466955 0.016236 -0.025574 3.000000
-0.466955 -0.022802 0.067075 3.000000
-0.466955 -0.067160 0.034077 3.000000
-0.466955 -0.044137 -0.063568 3.000000
-0.466955 0.057041 -0.069555 3.000000
-0.466955 -0.018816 0.058473 3.000000
-0.466955 0.082890 -0.043894 3.000000
-0.466955 -0.077502 -0.044265 3.000000
-0.466955 0.024404 -0.023520 3.000000
-0.466955 0.021421 -0.036972 3.000000
-0.466955 -0.001646 0.063721 3.000000
-0.466955 0.072160 0.046283 3.000000
-0.466955 -0.058895 0.047388 3.000000
-0.466955 -0.058086 0.008207 3.000000
-0.466955 -0.034567 0.091051 3.000000
-0.466955 0.097259 -0.013557 3.000000
-0.466955 -0.047324 -0.035640 3.000000
-0.466955 -0.064518 0.024332 3.000000
-0.466955 0.033317 -0.029481 3.000000
-0.466955 -0.009157 0.018703 3.000000
-0.466955 0.080270 0.055670 3.000000
-0.466955 0.000668 -0.013636 3.000000
-0.466955 -0.031990 -0.069748 3.000000
-0.466955 0.020696 0.034892 3.000000
-0.466955 0.076040 -0.061140 3.000000
-0.466955 0.005987 -0.052225 3.000000
-0.466955 -0.009805 0.073836 3.000000
-0.466955 -0.071235 0.043614 3.000000
-0.466955 0.028453 0.083253 3.000000
-0.466955 -0.031857 0.049791 3.000000
-0.466955 0.035976 0.034704 3.000000
-0.466955 0.012730 -0.068523 3.000000
-0.466955 0.036854 -0.001959 3.000000
-0.466955 -0.084876 0.030221 3.000000
-0.466955 0.099442 -0.002899 3.000000
-0.466955 -0.074300 -0.002049 3.000000
-0.466955 0.060607 -0.060621 3.000000
-0.466955 0.039265 -0.026255 3.000000
-0.466955 -0.076269 -0.000096 3.000000
-0.466955 0.076793 0.040205 3.000000
-0.466955 0.081139 0.057503 3.000000
-0.466955 -0.045669 0.073024 3.000000
-0.466955 0.019535 0.044583 3.000000
-0.466955 -0.085733 0.019108 3.000000
-0.466955 0.060885 0.037963 3.000000
-0.466955 0.035671 -0.009538 3.000000
-0.466955 -0.013392 0.052290 3.000000
-0.466955 0.044634 0.048487 3.000000
-0.466955 0.007705 -0.079135 3.000000
-0.466955 0.007985 0.046654 3.000000
-0.466955 0.017084 0.087186 3.000000
-0.466955 -0.010354 -0.015602 3.000000
-0.466955 -0.074127 -0.044932 3.000000
-0.466955 -0.078245 0.044667 3.000000
-0.466955 0.052749 -0.047109 3.000000
-0.466955 0.019738 -0.081852 3.000000
-0.466955 0.032739 -0.063259 3.000000
-0.466955 0.006476 -0.061289 3.000000
-0.466955 0.021376 -0.038372 3.000000
-0.466955 0.053588 -0.030704 3.000000
-0.466955 -0.036687 0.057024 3.000000
-0.466955 -0.026461 -0.019687 3.000000
-0.466955 -0.027036 -0.067062 3.000000
-0.466955 0.007767 -0.077661 3.000000
-0.466955 0.053694 -0.001061 3.000000
-0.466955 -0.025672 0.005964 3.000000
-0.466955 0.003408 0.081247 3.000000
-0.466955 -0.043045 -0.051940 3.000000
-0.466955 -0.022883 0.012127 3.000000
-0.466955 0.058819 0.069319 3.000000
-0.466955 -0.000655 0.072895 3.000000
-0.466955 -0.055256 0.010229 3.000000
-0.466955 0.079079 0.003410 3.000000
-0.466955 0.014165 0.067520 3.000000
-0.466955 0.054132 -0.055225 3.000000
-0.466955 -0.084894 -0.016996 3.000000
-0.466955 0.022558 0.070481 3.000000
-0.466955 -0.083882 0.009269 3.000000
-0.466955 -0.098096 -0.003787 3.000000
-0.466955 -0.026266 0.041801 3.000000
-0.466955 -0.028221 -0.088360 3.000000
-0.466955 0.064313 -0.029424 3.000000
-0.466955 -0.008993 0.059585 3.000000
-0.466955 0.061072 0.012867 3.000000
-0.466955 0.026403 0.052781 3.000000
-0.466955 0.009365 0.016649 3.000000
-0.466955 -0.063706 0.017815 3.000000
-0.466955 -0.022011 0.042814 3.000000
-0.466955 0.060191 0.008724 3.000000
-0.466955 0.032383 -0.011191 3.000000
-0.466955 0.009766 0.083418 3.000000
-0.466955 0.025937 -0.072170 3.000000
-0.466955 -0.000536 0.041282 3.000000
-0.466955 0.091624 0.035700 3.000000
-0.466955 -0.045231 -0.016672 3.000000
-0.466955 -0.036782 0.049798 3.000000
-0.466955 -0.017031 -0.014981 3.000000
-0.466955 0.049758 -0.013047 3.000000
-0.466955 0.079630 -0.051460 3.000000
-0.466955 0.056678 0.053548 3.000000
-0.466955 0.025827 0.085355 3.000000
-0.466955 -0.075371 0.024178 3.000000
-0.466955 -0.052072 -0.011794 3.000000
-0.466955 0.085081 -0.035601 3.000000
-0.466955 0.093144 0.012254 3.000000
-0.466955 0.073018 0.061341 3.000000
-0.466955 -0.090188 -0.000647 3.000000
-0.466955 -0.030275 0.022255 3.000000
-0.466955 0.074301 0.058257 3.000000
-0.466955 0.075979 0.050670 3.000000
-0.466955 -0.029980 0.057193 3.000000
-0.466955 -0.007004 -0.072551 3.000000
-0.466955 0.027961 -0.007694 3.000000
-0.466955 0.014803 -0.012703 3.000000
-0.466955 -0.058293 -0.035883 3.000000
-0.466955 -0.030149 -0.014955 3.000000
-0.466955 0.016170 -0.003432 3.000000
-0.466955 0.034177 0.032434 3.000000
-0.466955 0.043702 -0.001947 3.000000
-0.466955 0.002668 0.042257 3.000000
-0.466955 0.004158 -0.007958 3.000000
-0.466955 -0.012995 -0.017304 3.000000
-0.466955 -0.030689 -0.084517 3.000000
-0.466955 0.034675 0.062498 3.000000
-0.466955 -0.032772 0.077777 3.000000
-0.466955 0.023675 0.089515 3.000000
-0.466955 -0.048980 0.023369 3.000000
-0.466955 -0.049424 -0.005810 3.000000
-0.466955 -0.025597 0.083127 3.000000
-0.466955 -0.092593 -0.004082 3.000000
-0.466955 -0.038308 0.066213 3.000000
-0.466955 -0.012179 0.067186 3.000000
-0.466955 -0.005291 0.022182 3.000000
-0.466955 0.033344 -0.059370 3.000000
-0.466955 0.074367 -0.040550 3.000000
-0.466955 -0.030850 -0.041737 3.000000
-0.466955 0.034276 0.061109 3.000000
-0.466955 -0.078576 0.023608 3.000000
-0.466955 -0.025140 0.071559 3.000000
-0.466955 0.011650 0.041333 3.000000
-0.466955 -0.085306 0.044085 3.000000
-0.466955 -0.071547 -0.049259 3.000000
-0.466955 0.046740 -0.011322 3.000000
-0.466955 0.061819 -0.041377 3.000000
-0.466955 0.069252 -0.041009 3.000000
-0.466955 -0.068969 0.035571 3.000000
-0.466955 -0.055843 -0.022397 3.000000
-0.466955 0.066210 0.071062 3.000000
-0.466955 -0.038671 0.046758 3.000000
-0.466955 -0.051695 0.034063 3.000000
-0.466955 -0.063799 -0.015193 3.000000
-0.466955 0.040166 -0.028475 3.000000
-0.466955 -0.058739 0.006806 3.000000
-0.466955 -0.073248 -0.059837 3.000000
-0.466955 0.092338 -0.006287 3.000000
-0.466955 0.014120 0.044986 3.000000
-0.466955 0.045478 0.019594 3.000000
-0.466955 -0.071281 0.032165 3.000000
-0.466955 0.038435 -0.051902 3.000000
-0.466955 0.031740 -0.077496 3.000000
-0.466955 -0.011749 0.093378 3.000000
-0.466955 -0.027950 0.053447 3.000000
-0.466955 -0.010284 -0.012432 3.000000
-0.466955 0.075888 0.000991 3.000000
-0.466955 0.069222 0.057862 3.000000
-0.466955 -0.068708 0.018165 3.000000
-0.466955 0.014771 -0.056665 3.000000
-0.466955 0.031441 -0.038023 3.000000
-0.466955 0.090255 -0.032445 3.000000
-0.466955 0.093947 -0.033688 3.000000
-0.466955 -0.012692 0.051052 3.000000
-0.466955 0.019769 0.066649 3.000000
-0.466955 0.003153 -0.079486 3.000000
-0.466955 -0.029468 -0.078370 3.000000
-0.466955 -0.008772 -0.078588 3.000000
-0.466955 0.043559 -0.029359 3.000000
-0.466955 -0.015780 -0.018322 3.000000
-0.466955 -0.053107 -0.028262 3.000000
-0.466955 -0.058502 -0.064541 3.000000
-0.466955 0.002309 0.075421 3.000000
-0.466955 -0.050700 0.046936 3.000000
-0.466955 0.041827 0.048751 3.000000
-0.466955 -0.034449 0.077115 3.000000
-0.466955 -0.075285 -0.042166 3.000000
-0.466955 -0.038875 -0.017655 3.000000
-0.466955 -0.060015 0.071196 3.000000
-0.466955 -0.042342 -0.008435 3.000000
-0.466955 0.025296 -0.007440 3.000000
-0.466955 -0.068999 0.030417 3.000000
-0.466955 0.042410 0.066148 3.000000
-0.466955 -0.084077 -0.014975 3.000000
-0.466955 0.074565 -0.037089 3.000000
-0.466955 -0.005002 0.098993 3.000000
-0.466955 -0.041600 -0.062100 3.000000
-0.466955 -0.084436 -0.012630 3.000000
-0.466955 0.043457 0.085856 3.000000
-0.466955 0.063128 -0.026827 3.000000
-0.466955 0.082867 -0.012851 3.000000
-0.466955 0.032582 0.019174 3.000000
-0.466955 0.012150 0.096300 3.000000
-0.466955 0.021107 0.083428 3.000000
-0.466955 0.012653 0.061651 3.000000
-0.466955 -0.015259 -0.008970 3.000000
-0.466955 -0.026852 -0.006730 3.000000
-0.466955 0.016267 0.064612 3.000000
-0.466955 -0.037726 -0.078416 3.000000
-0.466955 0.078977 0.018830 3.000000
-0.466955 0.067499 -0.011919 3.000000
-0.466955 0.039559 0.076578 3.000000
-0.466955 0.045428 -0.051123 3.000000
-0.466955 -0.050709 0.010347 3.000000
-0.466955 0.049951 -0.042132 3.000000
-0.466955 0.026011 -0.023331 3.000000
-0.466955 0.003601 0.055227 3.000000
-0.466955 -0.012789 0.094550 3.000000
-0.466955 -0.080348 -0.009161 3.000000
-0.466955 0.050610 0.003318 3.000000
-0.466955 -0.046557 -0.032675 3.000000
-0.466955 0.000838 -0.023059 3.000000
-0.466955 0.060652 -0.046173 3.000000
-0.466955 -0.066624 -0.057140 3.000000
-0.466955 -0.037038 -0.055499 3.000000
-0.466955 0.002144 0.092455 3.000000
-0.466955 0.099334 -0.010732 3.000000
-0.466955 0.049313 0.073835 3.000000
-0.466955 -0.007909 0.047815 3.000000
-0.466955 -0.065468 0.017611 3.000000
-0.466955 -0.028015 0.029811 3.000000
-0.466955 -0.006961 0.016534 3.000000
-0.466955 -0.051089 0.076729 3.000000
-0.466955 0.036783 -0.014144 3.000000
-0.466955 -0.006217 0.077890 3.000000
-0.466955 -0.007047 0.029551 3.000000
-0.466955 -0.031322 -0.008590 3.000000
-0.466955 0.031641 -0.006522 3.000000
-0.466955 0.060845 -0.058754 3.000000
-0.466955 -0.056668 -0.068093 3.000000
-0.466955 -0.017304 0.029454 3.000000
-0.466955 0.028403 -0.025136 3.000000
-0.466955 -0.011712 0.029175 3.000000
-0.466955 0.047373 0.042925 3.000000
-0.466955 -0.047730 -0.017162 3.000000
-0.466955 -0.074786 0.014391 3.000000
-0.466955 0.046144 0.004620 3.000000
-0.466955 0.059220 -0.038089 3.000000
-0.466955 -0.055399 0.069042 3.000000
-0.466955 -0.007759 -0.030580 3.000000
-0.466955 -0.078677 -0.036215 3.000000
-0.466955 -0.037725 -0.004365 3.000000
-0.466955 -0.092253 -0.006778 3.000000
-0.466955 0.039798 0.008136 3.000000
-0.466955 0.072052 -0.018239 3.000000
-0.466955 0.089390 -0.003441 3.000000
-0.466955 -0.063504 -0.071255 3.000000
-0.466955 0.009257 -0.091252 3.000000
-0.466955 -0.035728 0.015031 3.000000
-0.466955 0.008787 0.095011 3.000000
-0.466955 -0.010411 0.001072 3.000000
-0.466955 -0.038774 -0.067921 3.000000
-0.466955 -0.007285 -0.075992 3.000000
-0.466955 0.019866 0.013242 3.000000
-0.466955 -0.063468 -0.030865 3.000000
-0.466955 0.005604 -0.007968 3.000000
-0.466955 -0.003344 0.012291 3.000000
-0.466955 0.039275 0.028545 3.000000
-0.466955 0.063441 -0.051950 3.000000
-0.466955 0.009550 -0.074381 3.000000
-0.466955 -0.067218 0.056510 3.000000
-0.466955 -0.021350 0.021020 3.000000
-0.466955 0.057595 -0.000447 3.000000
-0.466955 -0.066898 -0.061077 3.000000
-0.466955 0.017270 0.095956 3.000000
-0.466955 -0.038300 0.040002 3.000000
-0.466955 -0.058560 -0.058059 3.000000
-0.466955 0.067843 -0.019542 3.000000
-0.466955 0.031924 -0.053733 3.000000
-0.466955 -0.050762 0.029853 3.000000
-0.466955 0.016091 -0.047300 3.000000
-0.466955 -0.031853 -0.018509 3.000000
-0.466955 0.065814 0.053412 3.000000
-0.466955 -0.071172 0.023940 3.000000
-0.466955 0.075167 -0.055002 3.000000
-0.466955 0.020624 -0.086641 3.000000
-0.466955 0.022111 -0.026711 3.000000
-0.466955 -0.057289 0.000675 3.000000
-0.466955 0.047130 0.016748 3.000000
-0.466955 0.007495 0.094357 3.000000
-0.466955 -0.029563 0.016513 3.000000
-0.466955 0.023783 0.058968 3.000000
-0.466955 0.099246 0.012007 3.000000
-0.466955 0.072539 0.058380 3.000000
-0.466955 0.062745 -0.004889 3.000000
-0.466955 0.017710 0.072304 3.000000
-0.466955 -0.029787 0.001828 3.000000
-0.466955 0.022132 0.076551 3.000000
-0.466955 -0.043893 0.066407 3.000000
-0.466955 0.009590 -0.038891 3.000000
-0.466955 -0.013020 -0.003259 3.000000
-0.466955 -0.067986 0.023560 3.000000
-0.466955 0.054736 -0.040177 3.000000
-0.466955 0.083158 0.032940 3.000000
-0.466955 -0.033583 0.086189 3.000000
-0.466955 -0.031489 -0.036839 3.000000
-0.466955 -0.072322 0.059208 3.000000
-0.466955 -0.029209 0.034018 3.000000
-0.466955 0.063320 0.074530 3.000000
-0.466955 -0.021768 -0.031105 3.000000
-0.466955 0.065789 0.062168 3.000000
-0.466955 0.051192 0.023220 3.000000
-0.466955 0.089828 0.018454 3.000000
-0.466955 0.028014 -0.034280 3.000000
-0.466955 -0.040897 -0.009728 3.000000
-0.466955 0.049989 -0.085070 3.000000
-0.466955 0.069390 -0.019829 3.000000
-0.466955 -0.058122 0.042280 3.000000
-0.466955 -0.050784 -0.065920 3.000000
-0.466955 0.064622 0.030865 3.000000
-0.466955 0.017872 0.012022 3.000000
-0.466955 -0.002208 -0.087338 3.000000
-0.466955 0.029095 -0.040060 3.000000
-0.466955 -0.093483 0.032300 3.000000
-0.466955 0.022487 0.055021 3.000000
-0.466955 0.065214 -0.012040 3.000000
-0.466955 0.036481 -0.067940 3.000000
-0.466955 0.054091 -0.056819 3.000000
-0.466955 0.086339 0.042762 3.000000
-0.466955 0.044865 -0.061017 3.000000
-0.466955 0.040550 0.087526 3.000000
-0.466955 -0.001765 0.034912 3.000000
-0.466955 0.023149 0.024192 3.000000
-0.466955 -0.024714 -0.091077 3.000000
-0.466955 -0.085179 0.036812 3.000000
-0.466955 0.027453 -0.064868 3.000000
-0.466955 0.036241 0.038425 3.000000
-0.466955 -0.038163 -0.024247 3.000000
-0.466955 -0.024423 -0.063460 3.000000
-0.466955 0.033545 -0.033949 3.000000
-0.466955 -0.012155 0.010810 3.000000
-0.466955 0.096025 0.014653 3.000000
-0.466955 0.007405 -0.097180 3.000000
-0.466955 -0.065365 0.021534 3.000000
-0.466955 0.090506 0.005383 3.000000
-0.466955 -0.079549 -0.018623 3.000000
-0.466955 -0.032888 0.071802 3.000000
-0.466955 -0.068449 0.032328 3.000000
-0.466955 -0.058058 -0.000795 3.000000
-0.466955 -0.017232 -0.084500 3.000000
-0.466955 -0.079530 0.034180 3.000000
-0.466955 -0.047665 -0.080038 3.000000
-0.466955 -0.054403 0.045301 3.000000
-0.466955 0.082789 0.034364 3.000000
-0.466955 -0.015531 0.016265 3.000000
-0.466955 0.079445 -0.004158 3.000000
-0.466955 -0.070519 -0.005850 3.000000
-0.466955 -0.081077 0.014723 3.000000
-0.466955 -0.062677 0.046456 3.000000
-0.466955 -0.041643 0.084110 3.000000
-0.466955 -0.074447 0.000200 3.000000
-0.466955 0.012484 -0.044089 3.000000
-0.466955 -0.051278 0.042335 3.000000
-0.466955 0.087853 0.009680 3.000000
-0.466955 0.050514 -0.027597 3.000000
-0.466955 0.094465 -0.017180 3.000000
-0.466955 -0.005026 -0.047206 3.000000
-0.466955 0.015509 -0.022511 3.000000
-0.466955 -0.000839 0.047683 3.000000
-0.466955 0.018377 -0.097340 3.000000
-0.466955 -0.049607 0.068827 3.000000
-0.466955 -0.019786 0.088609 3.000000
-0.466955 0.073238 0.057025 3.000000
-0.466955 0.001836 0.020201 3.000000
-0.466955 0.026412 0.030043 3.000000
-0.466955 0.053865 0.014917 3.000000
-0.466955 0.013183 -0.086593 3.000000
-0.466955 0.047114 0.002772 3.000000
-0.466955 -0.056512 0.060966 3.000000
-0.466955 0.059728 -0.043167 3.000000
-0.466955 0.094490 0.031617 3.000000
-0.466955 0.047663 -0.060582 3.000000
-0.466955 0.073847 0.029647 3.000000
-0.466955 0.022218 0.092274 3.000000
-0.466955 -0.052611 0.013676 3.000000
-0.466955 -0.018395 0.004315 3.000000
-0.466955 0.038890 -0.081921 3.000000
-0.466955 -0.011462 0.026298 3.000000
-0.466955 0.009262 -0.081638 3.000000
-0.466955 0.040354 -0.033408 3.000000
-0.466955 -0.037308 0.011531 3.000000
-0.466955 -0.082244 0.020499 3.000000
-0.466955 0.065962 -0.059678 3.000000
-0.466955 -0.032582 0.084456 3.000000
-0.466955 -0.015727 0.049225 3.000000
-0.466955 -0.055572 -0.053187 3.000000
-0.466955 -0.011873 0.024563 3.000000
-0.466955 -0.046641 0.086915 3.000000
-0.466955 0.079134 -0.047902 3.000000
-0.466955 0.024215 -0.027701 3.000000
-0.466955 0.049828 0.012371 3.000000
-0.466955 -0.040171 -0.043531 3.000000
-0.466955 -0.027396 0.039191 3.000000
-0.466955 0.042107 0.011107 3.000000
-0.466955 -0.021596 0.085514 3.000000
-0.466955 -0.063996 0.045452 3.000000
-0.466955 0.017627 0.006654 3.000000
-0.466955 0.087811 0.028114 3.000000
-0.466955 -0.003106 -0.014745 3.000000
-0.466955 0.000441 -0.056627 3.000000
-0.466955 -0.089525 -0.027962 3.000000
-0.466955 0.003016 0.043690 3.000000
-0.466955 0.080862 -0.011270 3.000000
-0.466955 -0.041986 0.090745 3.000000
-0.466955 0.080808 -0.004470 3.000000
-0.466955 -0.062929 0.029096 3.000000
-0.466955 -0.087726 0.040618 3.000000
-0.466955 0.083292 0.005327 3.000000
-0.466955 -0.095564 -0.017297 3.000000
-0.466955 -0.015583 0.019846 3.000000
-0.466955 -0.006741 -0.019728 3.000000
-0.466955 -0.049630 -0.020328 3.000000
-0.466955 0.062739 0.030320 3.000000
-0.466955 0.016243 0.094229 3.000000
-0.466955 -0.046574 0.022117 3.000000
-0.466955 -0.080126 -0.012497 3.000000
-0.466955 -0.054084 0.047829 3.000000
-0.466955 -0.061350 0.053034 3.000000
-0.466955 -0.066129 -0.074477 3.000000
-0.466955 -0.013014 -0.096907 3.000000
-0.466955 -0.022466 0.032551 3.000000
-0.466955 -0.003711 -0.002137 3.000000
-0.466955 -0.033659 0.063552 3.000000
-0.466955 -0.017205 0.097270 3.000000
-0.466955 -0.010274 -0.077371 3.000000
-0.466955 0.042805 0.067435 3.000000
-0.466955 -0.023814 -0.021816 3.000000
-0.466955 -0.086171 -0.045138 3.000000
-0.466955 0.000206 0.043050 3.000000
-0.466955 -0.035310 -0.048325 3.000000
-0.466955 0.014670 0.051285 3.000000
-0.466955 -0.039676 -0.041885 3.000000
-0.466955 0.015870 -0.020421 3.000000
-0.466955 -0.025388 0.017125 3.000000
-0.466955 0.000786 0.066325 3.000000
-0.466955 0.077476 -0.042029 3.000000
-0.466955 0.089684 -0.016013 3.000000
-0.466955 0.030218 0.027025 3.000000
-0.466955 -0.059553 0.058042 3.000000
-0.466955 -0.054521 0.021582 3.000000
-0.466955 0.011254 -0.016137 3.000000
-0.466955 -0.079815 0.024643 3.000000
-0.466955 0.061516 0.039984 3.000000
-0.466955 0.022708 0.072818 3.000000
-0.466955 -0.026072 -0.074177 3.000000
-0.466955 -0.091348 0.002007 3.000000
-0.466955 0.024049 -0.049187 3.000000
-0.466955 0.015714 0.049999 3.000000
-0.466955 -0.065353 0.073346 3.000000
-0.466955 -0.025048 -0.065319 3.000000
-0.466955 -0.067989 0.068124 3.000000
-0.466955 -0.022495 0.005445 3.000000
-0.466955 -0.042574 -0.018532 3.000000
-0.466955 -0.036917 -0.049252 3.000000
-0.466955 -0.061758 -0.055690 3.000000
-0.466955 -0.065511 -0.017218 3.000000
-0.466955 -0.017428 -0.004353 3.000000
-0.466955 -0.051629 -0.064503 3.000000
-0.466955 -0.081098 0.012521 3.000000
-0.466955 0.062073 -0.044950 3.000000
-0.466955 -0.023467 -0.092077 3.000000
-0.466955 -0.025927 -0.029429 3.000000
-0.466955 -0.006227 0.092348 3.000000
-0.466955 0.056913 0.015007 3.000000
-0.466955 0.004965 0.075311 3.000000
-0.466955 0.030043 0.077469 3.000000
-0.466955 -0.007716 -0.007831 3.000000
-0.466955 0.027145 0.078553 3.000000
-0.466955 -0.066186 -0.048585 3.000000
-0.466955 -0.025653 -0.036182 3.000000
-0.466955 0.060471 0.064613 3.000000
-0.466955 0.018199 -0.057880 3.000000
-0.466955 0.025820 -0.032407 3.000000
-0.466955 -0.048408 -0.008183 3.000000
-0.466955 0.061308 0.053441 3.000000
-0.466955 -0.007260 -0.000316 3.000000
-0.466955 0.021820 -0.000903 3.000000
-0.466955 -0.046070 0.031896 3.000000
-0.466955 -0.050622 0.050367 3.000000
-0.466955 -0.009909 -0.074105 3.000000
-0.466955 0.027461 0.077054 3.000000
-0.466955 0.069926 -0.057978 3.000000
-0.466955 -0.031532 0.061058 3.000000
-0.466955 -0.025815 -0.016361 3.000000
-0.466955 -0.014603 -0.021303 3.000000
-0.466955 0.094490 0.008035 3.000000
-0.466955 0.030585 0.073608 3.000000
-0.466955 0.033091 0.061920 3.000000
-0.466955 -0.039665 -0.008422 3.000000
-0.466955 -0.012088 0.098083 3.000000
-0.466955 -0.058241 0.080700 3.000000
-0.466955 -0.012089 0.019810 3.000000
-0.466955 0.041837 0.024839 3.000000
-0.466955 -0.021223 -0.086387 3.000000
-0.466955 0.040999 -0.017689 3.000000
-0.466955 -0.090145 -0.032408 3.000000
-0.466955 0.018276 -0.037727 3.000000
-0.466955 0.053170 -0.082241 3.000000
-0.466955 -0.008867 -0.006698 3.000000
-0.466955 0.014225 -0.078844 3.000000
-0.466955 0.018736 0.081997 3.000000
-0.466955 0.042274 0.046466 3.000000
-0.466955 -0.032400 0.009275 3.000000
-0.466955 -0.033826 0.014409 3.000000
-0.466955 -0.023196 0.034339 3.000000
-0.466955 0.061637 -0.048999 3.000000
-0.466955 -0.081278 -0.018828 3.000000
-0.466955 0.036874 -0.012514 3.000000
-0.466955 0.010836 -0.031094 3.000000
-0.466955 0.060127 0.050053 3.000000
-0.466955 0.035321 -0.084657 3.000000
-0.466955 -0.003745 0.098278 3.000000
-0.466955 -0.021067 0.001794 3.000000
-0.466955 -0.064254 -0.006269 3.000000
-0.466955 0.038128 0.060678 3.000000
-0.466955 0.055781 0.025542 3.000000
-0.466955 0.047469 -0.023495 3.000000
-0.466955 -0.087596 0.006026 3.000000
-0.466955 0.018401 -0.076842 3.000000
-0.466955 0.033992 0.005462 3.000000
-0.466955 -0.032890 -0.017444 3.000000
-0.466955 -0.028011 0.082345 3.000000
-0.466955 0.089925 -0.034388 3.000000
-0.466955 0.063040 -0.002488 3.000000
-0.466955 0.003604 0.039420 3.000000
-0.466955 -0.025759 -0.058587 3.000000
-0.466955 -0.062151 -0.032271 3.000000
-0.466955 0.074247 -0.057522 3.000000
-0.466955 -0.008169 -0.085058 3.000000
-0.466955 0.021013 -0.062995 3.000000
-0.466955 -0.076085 0.038707 3.000000
-0.466955 0.067435 0.062813 3.000000
-0.466955 -0.031768 0.038257 3.000000
-0.466955 -0.004303 -0.077968 3.000000
-0.466955 0.044153 -0.023910 3.000000
-0.466955 0.007486 -0.098559 3.000000
-0.466955 -0.061040 0.019026 3.000000
-0.466955 0.000831 -0.074380 3.000000
-0.466955 -0.058794 0.039081 3.000000
-0.466955 -0.009420 -0.014164 3.000000
-0.466955 0.080886 0.031183 3.000000
-0.466955 -0.072543 0.067999 3.000000
-0.466955 -0.020793 -0.064963 3.000000
-0.466955 -0.075957 0.036216 3.000000
-0.466955 -0.071833 -0.013526 3.000000
-0.466955 -0.083030 -0.025790 3.000000
-0.466955 -0.002225 -0.089626 3.000000
-0.466955 0.005833 -0.019042 3.000000
-0.466955 0.016579 0.077548 3.000000
-0.466955 0.008325 -0.096166 3.000000
-0.466955 -0.046721 0.005221 3.000000
-0.466955 -0.046532 0.060414 3.000000
-0.466955 -0.009677 -0.088668 3.000000
-0.466955 -0.044101 0.020034 3.000000
-0.466955 0.055086 0.000197 3.000000
-0.466955 -0.068987 0.021848 3.000000
-0.466955 0.085664 -0.048839 3.000000
-0.466955 -0.064665 0.028431 3.000000
-0.466955 0.067046 0.004609 3.000000
-0.466955 -0.077825 -0.021413 3.000000
-0.466955 0.081090 -0.034409 3.000000
-0.466955 -0.017581 -0.040225 3.000000
-0.466955 -0.023141 -0.017895 3.000000
-0.466955 -0.004518 0.068399 3.000000
-0.466955 0.075920 0.002492 3.000000
-0.466955 0.009436 0.055081 3.000000
-0.466955 -0.071787 -0.058901 3.000000
-0.466955 0.016873 0.027731 3.000000
-0.466955 -0.037636 -0.031786 3.000000
-0.466955 -0.042587 -0.019982 3.000000
-0.466955 0.098801 0.013832 3.000000
-0.466955 0.032999 0.071658 3.000000
-0.466955 0.051399 0.016785 3.000000
-0.466955 0.094155 0.017853 3.000000
-0.466955 0.028318 0.084832 3.000000
-0.466955 -0.084512 -0.032484 3.000000
-0.466955 0.026711 -0.008983 3.000000
-0.466955 0.088849 -0.006426 3.000000
-0.466955 -0.021594 0.034205 3.000000
-0.466955 -0.037199 -0.008072 3.000000
-0.466955 -0.052275 -0.081574 3.000000
-0.466955 -0.016668 -0.094006 3.000000
-0.466955 0.026079 -0.015468 3.000000
-0.466955 -0.045076 0.070514 3.000000
-0.466955 0.023451 0.031159 3.000000
-0.466955 0.009219 -0.030724 3.000000
-0.466955 0.014170 -0.082698 3.000000
-0.466955 0.039015 0.051685 3.000000
-0.466955 -0.007387 0.012705 3.000000
-0.466955 0.047439 -0.033865 3.000000
-0.466955 -0.048382 0.042484 3.000000
-0.466955 -0.061410 0.070220 3.000000
-0.466955 -0.068154 0.004402 3.000000
-0.466955 -0.080484 -0.055086 3.000000
-0.466955 -0.009239 -0.068039 3.000000
-0.466955 0.000911 0.078609 3.000000
-0.466955 0.054488 0.075794 3.000000
-0.466955 0.099227 -0.001151 3.000000
-0.466955 -0.048690 -0.049270 3.000000
-0.466955 0.040847 -0.014498 3.000000
-0.466955 -0.078237 -0.017884 3.000000
-0.466955 0.008479 -0.023086 3.000000
-0.466955 -0.061099 -0.027512 3.000000
-0.466955 0.088435 0.019371 3.000000
-0.466955 0.028380 0.052025 3.000000
-0.466955 -0.060968 0.078276 3.000000
-0.466955 -0.011714 0.014063 3.000000
-0.466955 -0.054976 0.075505 3.000000
-0.466955 -0.010798 0.027646 3.000000
-0.466955 0.023909 -0.051039 3.000000
-0.466955 0.056814 0.055730 3.000000
-0.466955 0.015542 0.097043 3.000000
-0.466955 0.022811 -0.035643 3.000000
-0.466955 -0.050429 -0.071583 3.000000
-0.466955 -0.043575 -0.053711 3.000000
-0.466955 -0.096731 0.000059 3.000000
-0.466955 -0.009154 0.002451 3.000000
-0.466955 -0.018940 -0.079672 3.000000
-0.466955 0.047362 0.014653 3.000000
-0.466955 -0.011978 0.006295 3.000000
-0.466955 0.047296 0.087896 3.000000
-0.466955 0.045078 0.070077 3.000000
-0.466955 0.049417 0.031567 3.000000
-0.466955 0.035733 -0.040203 3.000000
-0.466955 0.093134 0.030538 3.000000
-0.466955 0.006954 0.078611 3.000000
-0.466955 0.048943 -0.063055 3.000000
-0.466955 0.009813 -0.077039 3.000000
-0.466955 -0.020219 0.087146 3.000000
-0.466955 0.024605 0.025586 3.000000
-0.466955 -0.055543 -0.072907 3.000000
-0.466955 -0.027117 -0.035202 3.000000
-0.466955 0.089471 -0.017791 3.000000
-0.466955 0.054997 0.039356 3.000000
-0.466955 0.034416 0.034607 3.000000
-0.466955 0.020961 0.032744 3.000000
-0.466955 0.007386 -0.024055 3.000000
-0.466955 0.023146 -0.002299 3.000000
-0.466955 -0.025834 0.066324 3.000000
-0.466955 -0.077441 0.037974 3.000000
-0.466955 0.042378 -0.050755 3.000000
-0.466955 0.048194 0.074949 3.000000
-0.466955 -0.011970 -0.015577 3.000000
-0.466955 0.017842 0.049422 3.000000
-0.466955 0.016298 -0.010991 3.000000
-0.466955 0.094178 -0.022234 3.000000
-0.466955 0.013217 -0.012982 3.000000
-0.466955 -0.005893 -0.067887 3.000000
-0.466955 0.064067 0.057555 3.000000
-0.466955 0.094608 0.009775 3.000000
-0.466955 0.040755 -0.073663 3.000000
-0.466955 0.052744 0.000352 3.000000
-0.466955 -0.006778 -0.086700 3.000000
-0.466955 0.050197 -0.023930 3.000000
-0.466955 0.003939 -0.004984 3.000000
-0.466955 -0.042205 0.085556 3.000000
-0.466955 -0.030889 -0.043850 3.000000
-0.466955 0.074840 -0.003987 3.000000
-0.466955 0.063812 -0.068638 3.000000
-0.466955 -0.069660 -0.021552 3.000000
-0.466955 0.062750 0.023750 3.000000
-0.466955 -0.008526 0.030019 3.000000
-0.466955 0.055326 -0.054155 3.000000
-0.466955 0.034303 -0.005855 3.000000
-0.466955 0.039661 -0.068005 3.000000
-0.466955 -0.069391 -0.065405 3.000000
-0.466955 -0.091636 -0.032641 3.000000
-0.466955 0.035030 0.011127 3.000000
-0.466955 -0.086403 0.022785 3.000000
-0.466955 0.058568 -0.011450 3.000000
-0.466955 -0.042759 -0.087946 3.000000
-0.466955 -0.051863 0.020338 3.000000
-0.466955 -0.016620 0.043369 3.000000
-0.466955 0.050780 -0.037424 3.000000
-0.466955 0.008309 0.029178 3.000000
-0.466955 -0.004783 -0.003781 3.000000
-0.466955 -0.025516 0.015369 3.000000
-0.466955 -0.031961 0.027415 3.000000
-0.466955 0.060647 -0.055747 3.000000
-0.466955 -0.096945 0.006939 3.000000
-0.466955 0.049299 -0.033053 3.000000
-0.466955 0.076248 0.060252 3.000000
-0.466955 -0.058669 -0.062604 3.000000
-0.466955 -0.089663 -0.034734 3.000000
-0.466955 -0.052258 -0.051003 3.000000
-0.466955 0.083221 -0.016852 3.000000
-0.466955 -0.037449 -0.042218 3.000000
-0.466955 0.030191 -0.093250 3.000000
-0.466955 0.033155 -0.045962 3.000000
-0.466955 -0.052278 -0.045735 3.000000
-0.466955 0.040678 -0.060193 3.000000
-0.466955 0.043900 0.019431 3.000000
-0.466955 -0.044966 0.060301 3.000000
-0.466955 0.048076 -0.018511 3.000000
-0.466955 0.022555 -0.063554 3.000000
-0.466955 -0.019025 -0.000985 3.000000
-0.466955 0.041198 -0.010251 3.000000
-0.466955 -0.046594 -0.009993 3.000000
-0.466955 0.011603 0.077661 3.000000
-0.466955 0.016524 0.000913 3.000000
-0.466955 0.030061 -0.074240 3.000000
-0.466955 0.004410 -0.037699 3.000000
-0.466955 -0.062004 0.020182 3.000000
-0.466955 0.084509 -0.017891 3.000000
-0.466955 -0.044082 0.061884 3.000000
-0.466955 -0.041566 0.012052 3.000000
-0.466955 0.082069 -0.015603 3.000000
-0.466955 0.003543 0.022929 3.000000
-0.466955 -0.046588 0.074662 3.000000
-0.466955 -0.059253 -0.028130 3.000000
-0.466955 -0.040366 0.039286 3.000000
-0.466955 0.041340 0.090875 3.000000
-0.466955 -0.028293 -0.015895 3.000000
-0.466955 -0.064952 -0.019622 3.000000
-0.466955 -0.090609 0.026885 3.000000
-0.466955 0.038247 0.070926 3.000000
-0.466955 -0.017731 0.064837 3.000000
-0.466955 -0.036844 -0.041002 3.000000
-0.466955 0.012533 -0.025906 3.000000
-0.466955 0.077541 -0.007105 3.000000
-0.466955 0.074461 0.040477 3.000000
-0.466955 0.011074 -0.017692 3.000000
-0.466955 0.053934 -0.038962 3.000000
-0.466955 0.048556 0.017860 3.000000
-0.466955 -0.050418 0.017341 3.000000
-0.466955 0.002038 -0.082888 3.000000
-0.466955 -0.014469 -0.035084 3.000000
-0.466955 0.070114 -0.014292 3.000000
-0.466955 -0.083807 0.021929 3.000000
-0.466955 -0.071819 -0.011331 3.000000
-0.466955 -0.047417 0.010459 3.000000
-0.466955 -0.032793 0.067381 3.000000
-0.466955 0.050923 0.025638 3.000000
-0.466955 0.056578 0.061961 3.000000
-0.466955 0.021103 0.062227 3.000000
-0.466955 0.080797 0.017654 3.000000
-0.466955 0.026147 0.044551 3.000000
-0.466955 -0.004576 -0.088324 3.000000
-0.466955 -0.030669 0.018812 3.000000
-0.466955 0.054637 -0.060977 3.000000
-0.466955 0.036279 -0.045666 3.000000
-0.466955 -0.082409 0.003155 3.000000
-0.466955 0.084844 0.012059 3.000000
-0.466955 0.046469 0.036047 3.000000
-0.466955 -0.047646 0.028631 3.000000
-0.466955 0.023818 -0.089002 3.000000
-0.466955 -0.036599 -0.079947 3.000000
-0.466955 -0.002257 0.001964 3.000000
-0.466955 -0.008273 0.007057 3.000000
-0.466955 0.047284 0.020790 3.000000
-0.466955 0.046312 -0.080207 3.000000
-0.466955 0.054688 0.034295 3.000000
-0.466955 -0.069416 0.071656 3.000000
-0.466955 0.089865 0.029571 3.000000
-0.466955 0.039231 0.030061 3.000000
-0.466955 -0.039537 0.026790 3.000000
-0.466955 0.098352 0.017374 3.000000
-0.466955 0.086028 0.012751 3.000000
-0.466955 0.012705 0.008139 3.000000
-0.466955 -0.075985 -0.008154 3.000000
-0.466955 0.045313 -0.070079 3.000000
-0.466955 0.066239 0.014939 3.000000
-0.466955 0.031967 -0.046984 3.000000
-0.466955 -0.014261 -0.042002 3.000000
-0.466955 0.017915 0.094515 3.000000
-0.466955 -0.014478 -0.074082 3.000000
-0.466955 -0.004461 0.048746 3.000000
-0.466955 -0.037659 0.077930 3.000000
-0.466955 0.043787 0.052110 3.000000
-0.466955 -0.008524 0.016841 3.000000
-0.466955 -0.063768 0.011674 3.000000
-0.466955 -0.070137 0.013623 3.000000
-0.466955 -0.042443 -0.026245 3.000000
-0.466955 0.026913 -0.057443 3.000000
-0.466955 -0.028554 0.067642 3.000000
-0.466955 -0.005957 -0.023619 3.000000
-0.466955 0.016310 -0.054507 3.000000
-0.466955 0.074321 0.027452 3.000000
-0.466955 -0.036241 0.029954 3.000000
-0.466955 0.000785 -0.053730 3.000000
-0.466955 0.090842 -0.039581 3.000000
-0.466955 0.090775 0.003326 3.000000
-0.466955 0.077708 -0.003226 3.000000
-0.466955 -0.032842 -0.000467 3.000000
-0.466955 0.044388 0.065886 3.000000
-0.466955 -0.088294 0.038634 3.000000
-0.466955 -0.003230 -0.065884 3.000000
-0.466955 0.086792 0.049375 3.000000
-0.466955 0.068055 0.050147 3.000000
-0.466955 0.077219 0.004512 3.000000
-0.466955 0.033633 -0.010548 3.000000
-0.466955 0.012168 -0.067140 3.000000
-0.466955 0.095605 -0.001311 3.000000
-0.466955 -0.084029 -0.024579 3.000000
-0.466955 -0.051344 -0.041324 3.000000
-0.466955 0.084167 -0.015736 3.000000
-0.466955 0.012387 0.032250 3.000000
-0.466955 0.030587 0.030876 3.000000
-0.466955 0.008716 0.042502 3.000000
-0.466955 0.067563 0.053888 3.000000
-0.466955 -0.052758 0.006489 3.000000
-0.466955 -0.020860 0.070351 3.000000
-0.466955 0.040070 -0.054180 3.000000
-0.466955 0.059217 -0.031568 3.000000
-0.466955 0.020901 -0.014955 3.000000
-0.466955 -0.062757 0.004749 3.000000
-0.466955 0.088916 0.031351 3.000000
-0.466955 -0.008838 0.071851 3.000000
-0.466955 0.058455 -0.057538 3.000000
-0.466955 0.050879 0.015216 3.000000
-0.466955 0.051238 0.000160 3.000000
-0.466955 -0.046235 -0.014175 3.000000
-0.466955 0.050187 0.028057 3.000000
-0.466955 -0.035918 -0.057006 3.000000
-0.466955 -0.063609 0.008135 3.000000
-0.466955 0.052363 -0.033994 3.000000
-0.466955 0.028330 0.042529 3.000000
-0.466955 -0.066668 -0.029854 3.000000
-0.466955 -0.007186 0.065189 3.000000
-0.466955 -0.001322 0.020250 3.000000
-0.466955 0.074062 0.020437 3.000000
-0.466955 -0.042469 -0.013651 3.000000
-0.466955 -0.068869 0.061026 3.000000
-0.466955 -0.018986 0.083812 3.000000
-0.466955 -0.060231 0.061147 3.000000
-0.466955 -0.067197 -0.006440 3.000000
-0.466955 -0.044352 0.007372 3.000000
-0.466955 -0.006931 0.031129 3.000000
-0.466955 -0.003980 -0.095065 3.000000
-0.466955 0.026941 0.059462 3.000000
-0.466955 -0.017644 0.084870 3.000000
-0.466955 0.081087 -0.046883 3.000000
-0.466955 0.003470 -0.068670 3.000000
-0.466955 0.028350 -0.021393 3.000000
-0.466955 0.031390 -0.084184 3.000000
-0.466955 0.036216 0.017101 3.000000
-0.466955 0.049088 0.080413 3.000000
-0.466955 0.037054 -0.083068 3.000000
-0.466955 -0.019016 -0.037956 3.000000
-0.466955 -0.035274 0.061558 3.000000
-0.466955 -0.031925 -0.085918 3.000000
-0.466955 0.001925 -0.055800 3.000000
-0.466955 0.043657 -0.011432 3.000000
-0.466955 -0.010637 -0.093545 3.000000
-0.466955 -0.084304 0.048530 3.000000
-0.466955 -0.041415 -0.063541 3.000000
-0.466955 -0.016607 -0.033975 3.000000
-0.466955 0.081963 -0.005627 3.000000
-0.466955 -0.050133 -0.079678 3.000000
-0.466955 0.025310 -0.052965 3.000000
-0.466955 -0.010695 0.075346 3.000000
-0.466955 0.096587 0.009082 3.000000
-0.466955 -0.024592 0.012495 3.000000
-0.466955 -0.051519 0.031085 3.000000
-0.466955 -0.064946 -0.073572 3.000000
-0.466955 0.069591 -0.012638 3.000000
-0.466955 0.060361 0.021441 3.000000
-0.466955 0.060265 0.004926 3.000000
-0.466955 0.036280 -0.091967 3.000000
-0.466955 0.043707 0.025538 3.000000
-0.466955 -0.042317 -0.075689 3.000000
-0.466955 0.047837 -0.009115 3.000000
-0.466955 0.048861 0.029848 3.000000
-0.466955 0.060482 -0.072166 3.000000
-0.466955 0.079525 0.022691 3.000000
-0.466955 0.056444 0.011795 3.000000
-0.466955 0.053596 0.041342 3.000000
-0.466955 -0.029373 0.083904 3.000000
-0.466955 -0.049085 0.010574 3.000000
-0.466955 0.048406 0.052094 3.000000
-0.466955 0.050275 0.013763 3.000000
-0.466955 -0.094241 -0.000677 3.000000
-0.466955 -0.079210 -0.023759 3.000000
-0.466955 -0.043221 0.089720 3.000000
-0.466955 -0.008722 0.061176 3.000000
-0.466955 -0.073948 -0.019048 3.000000
-0.466955 0.004922 0.023010 3.000000
-0.466955 0.027424 -0.082236 3.000000
-0.466955 -0.017278 0.058256 3.000000
-0.466955 -0.002981 -0.003560 3.000000
-0.466955 -0.045016 -0.033530 3.000000
-0.466955 -0.072676 -0.015036 3.000000
-0.466955 -0.064101 0.040680 3.000000
-0.466955 -0.063514 0.036155 3.000000
-0.466955 -0.090782 0.000588 3.000000
-0.466955 0.028447 -0.044924 3.000000
-0.466955 0.003739 0.072825 3.000000
-0.466955 -0.042907 -0.062675 3.000000
-0.466955 -0.001601 -0.068980 3.000000
-0.466955 -0.022343 -0.020067 3.000000
-0.466955 -0.059127 0.076342 3.000000
-0.466955 -0.009485 0.098750 3.000000
-0.466955 0.055158 0.007307 3.000000
-0.466955 -0.026501 -0.065512 3.000000
-0.466955 0.029702 0.042393 3.000000
-0.466955 -0.065398 0.046665 3.000000
-0.466955 -0.020678 -0.062315 3.000000
-0.466955 -0.070997 -0.009613 3.000000
-0.466955 0.059734 0.059035 3.000000
-0.466955 0.030892 -0.066883 3.000000
-0.466955 -0.034189 -0.027789 3.000000
-0.466955 -0.069094 0.059403 3.000000
-0.466955 -0.063812 -0.029129 3.000000
-0.466955 0.018708 0.005451 3.000000
-0.466955 0.037676 0.047153 3.000000
-0.466955 -0.026328 0.084396 3.000000
-0.466955 0.065453 -0.041756 3.000000
-0.466955 -0.042741 0.050648 3.000000
-0.466955 0.069713 0.009256 3.000000
-0.466955 0.022045 0.031693 3.000000
-0.466955 -0.027573 0.089993 3.000000
-0.466955 0.064394 -0.075955 3.000000
-0.466955 0.025936 -0.003483 3.000000
-0.466955 0.011181 -0.050066 3.000000
-0.466955 -0.029432 0.025329 3.000000
-0.466955 0.028323 0.034779 3.000000
-0.466955 -0.015828 -0.079601 3.000000
-0.466955 0.000467 0.079972 3.000000
-0.466955 0.019451 0.031873 3.000000
-0.466955 0.021584 -0.012101 3.000000
-0.466955 -0.068133 0.037020 3.000000
-0.466955 0.012358 -0.037619 3.000000
-0.466955 0.008826 -0.087550 3.000000
-0.466955 -0.047805 0.037406 3.000000
-0.466955 0.007063 -0.049560 3.000000
-0.466955 0.070835 0.032110 3.000000
-0.466955 -0.015285 -0.044435 3.000000
-0.466955 -0.014413 0.015281 3.000000
-0.466955 0.026887 0.081848 3.000000
-0.466955 -0.071555 0.053915 3.000000
-0.466955 -0.001371 0.092099 3.000000
-0.466955 -0.087716 -0.003528 3.000000
-0.466955 -0.065459 0.025508 3.000000
-0.466955 -0.005786 0.065884 3.000000
-0.466955 0.004360 0.052165 3.000000
-0.466955 -0.020162 0.055676 3.000000
-0.466955 -0.036714 0.038107 3.000000
-0.466955 0.028423 -0.072055 3.000000
-0.466955 0.075198 0.012795 3.000000
-0.466955 0.022394 0.053102 3.000000
-0.466955 -0.013287 0.058390 3.000000
-0.466955 0.032570 -0.012629 3.000000
-0.466955 0.056670 -0.060610 3.000000
-0.466955 0.030095 0.024311 3.000000
-0.466955 0.049656 -0.071553 3.000000
-0.466955 -0.047913 -0.006173 3.000000
-0.466955 -0.054038 -0.040380 3.000000
-0.466955 0.063702 -0.018284 3.000000
-0.466955 -0.042592 0.049195 3.000000
-0.466955 0.002210 -0.028014 3.000000
-0.466955 -0.008973 -0.009808 3.000000
-0.466955 0.017636 -0.041719 3.000000
-0.466955 0.090681 0.012653 3.000000
-0.466955 0.021197 -0.091752 3.000000
-0.466955 0.059233 0.052279 3.000000
-0.466955 -0.044732 0.069153 3.000000
-0.466955 -0.033640 0.044043 3.000000
-0.466955 -0.078211 -0.004189 3.000000
-0.466955 0.032835 -0.071655 3.000000
-0.466955 0.052418 -0.070584 3.000000
-0.466955 -0.025996 0.036151 3.000000
-0.466955 -0.041230 -0.042099 3.000000
-0.466955 0.093286 -0.015693 3.000000
-0.466955 -0.043568 0.013259 3.000000
-0.466955 0.025161 -0.056618 3.000000
-0.466955 -0.001677 0.051023 3.000000
-0.466955 -0.080125 0.028237 3.000000
-0.466955 -0.025969 0.027414 3.000000
-0.466955 -0.026410 0.037721 3.000000
-0.466955 -0.022994 0.041123 3.000000
-0.466955 -0.020546 -0.005241 3.000000
-0.466955 -0.018656 -0.081342 3.000000
-0.466955 -0.039923 0.014966 3.000000
-0.466955 0.061846 -0.030149 3.000000
-0.466955 -0.057700 -0.076993 3.000000
-0.466955 -0.019805 0.069278 3.000000
-0.466955 -0.035914 -0.064620 3.000000
-0.466955 0.033076 0.068655 3.000000
-0.466955 -0.088798 0.012541 3.000000
-0.466955 0.020273 0.079586 3.000000
-0.466955 0.027144 0.080295 3.000000
-0.466955 0.016674 -0.074829 3.000000
-0.466955 -0.031302 -0.067370 3.000000
-0.466955 -0.043430 -0.037275 3.000000
-0.466955 0.024464 0.043281 3.000000
-0.466955 0.033489 0.029483 3.000000
-0.466955 0.066878 0.042952 3.000000
-0.466955 -0.031119 0.068597 3.000000
-0.466955 -0.061931 -0.070515 3.000000
-0.466955 0.093374 -0.018612 3.000000
-0.466955 -0.052312 0.075715 3.000000
-0.466955 -0.035530 -0.017976 3.000000
-0.466955 -0.044380 -0.032217 3.000000
-0.466955 -0.017390 -0.038581 3.000000
-0.466955 -0.063649 0.062920 3.000000
-0.466955 0.017354 0.025978 3.000000
-0.466955 -0.016014 -0.082569 3.000000
-0.466955 0.097413 -0.021398 3.000000
-0.466955 0.057914 0.035903 3.000000
-0.466955 0.013837 -0.033021 3.000000
-0.466955 0.053100 0.030595 3.000000
-0.466955 0.058106 0.077238 3.000000
-0.466955 -0.041677 0.047465 3.000000
-0.466955 -0.006801 0.043075 3.000000
-0.466955 -0.023157 0.077266 3.000000
-0.466955 0.003395 0.084096 3.000000
-0.466955 -0.019568 -0.050544 3.000000
-0.466955 0.076016 -0.043330 3.000000
-0.466955 0.036533 -0.020467 3.000000
-0.466955 -0.033721 0.032889 3.000000
-0.466955 -0.044232 -0.088965 3.000000
-0.466955 -0.022406 -0.063853 3.000000
-0.466955 0.042188 -0.023371 3.000000
-0.466955 0.024322 -0.039770 3.000000
-0.466955 -0.026965 0.002852 3.000000
-0.466955 0.069957 -0.006762 3.000000
-0.466955 -0.091527 -0.019388 3.000000
-0.466955 0.085745 -0.046989 3.000000
-0.466955 0.045076 -0.036105 3.000000
-0.466955 -0.028654 -0.023910 3.000000
-0.466955 0.089293 0.033424 3.000000
-0.466955 0.008413 0.088804 3.000000
-0.466955 0.074452 -0.042732 3.000000
-0.466955 0.003302 -0.029860 3.000000
-0.466955 0.002162 0.039019 3.000000
-0.466955 0.060563 -0.050155 3.000000
-0.466955 0.006202 0.091925 3.000000
-0.466955 0.062924 -0.014475 3.000000
-0.466955 0.002744 0.071694 3.000000
-0.466955 0.027161 0.000215 3.000000
-0.466955 -0.061982 0.024783 3.000000
-0.466955 -0.077664 0.028102 3.000000
-0.466955 0.006569 0.004322 3.000000
-0.466955 0.068825 0.027589 3.000000
-0.466955 0.061453 -0.068821 3.000000
-0.466955 0.047232 -0.047981 3.000000
-0.466955 0.085834 -0.050524 3.000000
-0.466955 -0.053286 -0.033654 3.000000
-0.466955 0.024316 0.008267 3.000000
-0.466955 0.052330 0.010752 3.000000
-0.466955 -0.041746 0.057053 3.000000
-0.466955 0.005829 0.011712 3.000000
-0.466955 -0.013323 0.093233 3.000000
-0.466955 -0.073510 -0.009547 3.000000
-0.466955 -0.055461 -0.031513 3.000000
-0.466955 0.013639 0.065890 3.000000
-0.466955 -0.008392 0.066142 3.000000
-0.466955 0.068663 0.020161 3.000000
-0.466955 -0.037839 -0.052280 3.000000
-0.466955 0.076933 0.038543 3.000000
-0.466955 0.002826 0.094296 3.000000
-0.466955 0.028240 -0.056615 3.000000
-0.466955 0.020009 0.040914 3.000000
-0.466955 0.018644 -0.091903 3.000000
-0.466955 -0.083484 0.037427 3.000000
-0.466955 0.080459 0.045639 3.000000
-0.466955 -0.071756 0.060470 3.000000
-0.466955 -0.063048 -0.018923 3.000000
-0.466955 0.039465 -0.056913 3.000000
-0.466955 -0.071784 0.037447 3.000000
-0.466955 -0.089294 -0.031122 3.000000
-0.466955 0.072901 0.053653 3.000000
-0.466955 -0.079971 0.017070 3.000000
-0.466955 -0.003540 0.060794 3.000000
-0.466955 -0.039307 0.054146 3.000000
-0.466955 0.017082 -0.090637 3.000000
-0.466955 0.086975 -0.038523 3.000000
-0.466955 -0.048144 0.018923 3.000000
-0.466955 0.014318 0.005377 3.000000
-0.466955 0.048949 0.015519 3.000000
-0.466955 -0.044034 -0.011548 3.000000
-0.466955 0.023082 -0.030404 3.000000
-0.466955 0.070908 0.063465 3.000000
-0.466955 -0.024265 0.050683 3.000000
-0.466955 -0.065102 0.063451 3.000000
-0.466955 0.029170 0.093694 3.000000
-0.466955 0.058052 0.012238 3.000000
-0.466955 0.020137 0.010311 3.000000
-0.466955 0.009891 -0.045808 3.000000
-0.466955 -0.071555 0.055954 3.000000
-0.466955 -0.007939 0.038586 3.000000
-0.466955 -0.060844 0.021750 3.000000
-0.466955 -0.046582 -0.059858 3.000000
-0.466955 0.025460 0.080953 3.000000
-0.466955 0.019530 -0.032529 3.000000
-0.466955 0.040677 0.069886 3.000000
-0.466955 -0.034774 -0.002325 3.000000
-0.466955 0.029748 -0.045349 3.000000
-0.466955 0.090173 0.037467 3.000000
-0.466955 0.083045 -0.022429 3.000000
