0.465339 -0.075224 -0.001296 2.000000
0.465339 0.013386 -0.077936 2.000000
0.465339 -0.010811 0.052708 2.000000
0.465339 -0.045430 0.046419 2.000000
0.465339 -0.069846 0.044509 2.000000
0.465339 -0.036702 -0.072432 2.000000
-0.466955 -0.048513 0.046554 3.000000
-0.466955 -0.023795 0.027344 3.000000
-0.466955 0.010158 -0.034985 3.000000
-0.466955 -0.041324 -0.050780 3.000000
-0.466955 -0.001901 -0.087693 3.000000
-0.466955 -0.018479 -0.054635 3.000000
-0.466955 0.032779 0.068668 3.000000
-0.466955 0.082436 0.018786 3.000000
-0.466955 -0.053531 0.039753 3.000000
-0.466955 0.011712 -0.097525 3.000000
-0.466955 -0.084676 -0.026035 3.000000
-0.466955 0.006273 -0.045811 3.000000
-0.466955 -0.007228 0.019159 3.000000
-0.466955 0.061844 0.061616 3.000000
-0.466955 0.055734 0.050082 3.000000
-0.466955 -0.026892 -0.086035 3.000000
-0.466955 -0.012681 0.025993 3.000000
-0.466955 -0.043353 -0.056865 3.000000
-0.466955 0.001197 -0.094099 3.000000
-0.466955 0.051569 0.054013 3.000000
-0.466955 -0.019255 0.055742 3.000000
-0.466955 -0.053981 -0.034957 3.000000
-0.466955 -0.074557 -0.066019 3.000000
-0.466955 0.049094 0.015840 3.000000
-0.466955 0.035383 -0.089020 3.000000
-0.466955 -0.037088 -0.092295 3.000000
-0.466955 -0.070573 -0.009110 3.000000
-0.466955 -0.008725 -0.037928 3.000000
-0.466955 0.053816 0.078475 3.000000
-0.466955 -0.073869 -0.015120 3.000000
-0.466955 -0.033377 0.092060 3.000000
-0.466955 0.022839 -0.000801 3.000000
-0.466955 0.013215 0.073740 3.000000
-0.466955 0.027656 0.012317 3.000000
-0.466955 0.040885 0.067119 3.000000
-0.466955 0.062327 0.064700 3.000000
-0.466955 -0.066336 -0.011580 3.000000
-0.466955 0.066569 0.016267 3.000000
-0.466955 0.061773 -0.043453 3.000000
-0.466955 0.009244 -0.036222 3.000000
-0.466955 0.091960 0.026167 3.000000
-0.466955 -0.006807 -0.012243 3.000000
-0.466955 0.049567 0.044772 3.000000
-0.466955 0.040476 0.038434 3.000000
-0.466955 0.052207 -0.060149 3.000000
-0.466955 0.060973 0.007788 3.000000
-0.466955 0.010333 0.080168 3.000000
-0.466955 0.020533 -0.059602 3.000000
-0.466955 -0.032849 0.049572 3.000000
-0.466955 0.074777 0.022421 3.000000
-0.466955 -0.090737 -0.016121 3.000000
-0.466955 0.033020 0.065009 3.000000
-0.466955 -0.037900 -0.047401 3.000000
-0.466955 -0.087673 -0.034168 3.000000
-0.466955 0.007564 -0.050330 3.000000
-0.466955 -0.031547 -0.032143 3.000000
-0.466955 0.024739 -0.094409 3.000000
-0.466955 0.072597 -0.009347 3.000000
-0.466955 0.071013 -0.031255 3.000000
-0.466955 -0.060512 0.004961 3.000000
-0.466955 -0.093430 -0.015099 3.000000
-0.466955 -0.096901 -0.008741 3.000000
-0.466955 -0.074147 0.009595 3.000000
-0.466955 0.005490 0.021907 3.000000
-0.466955 0.086512 -0.039301 3.000000
-0.466955 0.006424 -0.014524 3.000000
-0.466955 0.084290 -0.041116 3.000000
-0.466955 0.056556 -0.065898 3.000000
-0.466955 -0.048059 -0.072105 3.000000
-0.466955 -0.094334 -0.028150 3.000000
-0.466955 -0.036825 -0.081463 3.000000
-0.466955 0.052783 -0.079858 3.000000
-0.466955 -0.000126 -0.050816 3.000000
-0.466955 -0.045154 0.071052 3.000000
-0.466955 0.037363 0.082709 3.000000
-0.466955 0.009089 -0.029658 3.000000
-0.466955 0.024304 0.020494 3.000000
-0.466955 -0.013224 0.069861 3.000000
-0.466955 -0.060601 0.033263 3.000000
-0.466955 -0.001192 -0.044116 3.000000
-0.466955 0.050301 -0.052033 3.000000
-0.466955 0.081171 0.016172 3.000000
-0.466955 0.052916 -0.024152 3.000000
-0.466955 0.060328 -0.058106 3.000000
-0.466955 -0.020147 0.063714 3.000000
-0.466955 0.092486 -0.020951 3.000000
-0.466955 -0.014728 -0.084440 3.000000
-0.466955 0.041753 -0.053704 3.000000
-0.466955 -0.011970 -0.077590 3.000000
-0.466955 -0.053237 -0.024940 3.000000
-0.466955 -0.049190 0.007344 3.000000
-0.466955 0.063577 0.069806 3.000000
-0.466955 -0.016006 0.078039 3.000000
-0.466955 0.027958 0.043976 3.000000
-0.466955 0.088743 0.015297 3.000000
-0.466955 -0.003572 -0.055499 3.000000
-0.466955 0.049859 -0.072218 3.000000
-0.466955 0.028803 0.028389 3.000000
-0.466955 -0.035765 0.069328 3.000000
-0.466955 0.031447 0.065293 3.000000
-0.466955 -0.052064 -0.060449 3.000000
-0.466955 0.053506 -0.004755 3.000000
-0.466955 0.090875 0.040190 3.000000
-0.466955 0.061686 -0.004631 3.000000
-0.466955 -0.006681 -0.029803 3.000000
-0.466955 -0.070724 0.014476 3.000000
-0.466955 0.042197 0.085151 3.000000
-0.466955 -0.093277 -0.012302 3.000000
-0.466955 -0.002951 0.045116 3.000000
-0.466955 -0.065615 0.062499 3.000000
-0.466955 0.011327 0.041585 3.000000
-0.466955 -0.003982 0.092329 3.000000
-0.466955 -0.046114 -0.022209 3.000000
-0.466955 0.003772 -0.027184 3.000000
-0.466955 0.053202 0.081945 3.000000
-0.466955 -0.008678 -0.017483 3.000000
-0.466955 -0.049704 -0.065844 3.000000
-0.466955 -0.087691 -0.023085 3.000000
-0.466955 0.012768 -0.073745 3.000000
-0.466955 0.069657 0.045142 3.000000
-0.466955 0.028804 0.036088 3.000000
-0.466955 0.083022 0.039239 3.000000
-0.466955 -0.045700 0.038200 3.000000
-0.466955 0.029624 -0.080876 3.000000
-0.466955 0.066034 0.008707 3.000000
-0.466955 0.002233 -0.034235 3.000000
-0.466955 -0.021783 -0.022665 3.000000
-0.466955 -0.063935 -0.028763 3.000000
-0.466955 -0.069981 0.070953 3.000000
-0.466955 -0.015315 0.022211 3.000000
-0.466955 -0.033250 0.000682 3.000000
-0.466955 -0.060841 0.054182 3.000000
-0.466955 0.053327 0.020970 3.000000
-0.466955 -0.019249 0.014146 3.000000
-0.466955 -0.046872 -0.012487 3.000000
-0.466955 -0.001091 0.077035 3.000000
-0.466955 -0.051115 -0.012795 3.000000
-0.466955 0.029790 -0.001829 3.000000
-0.466955 0.044272 -0.051980 3.000000
-0.466955 0.047295 -0.019268 3.000000
-0.466955 -0.059192 0.004631 3.000000
-0.466955 0.038426 -0.080182 3.000000
-0.466955 0.004307 -0.053463 3.000000
-0.466955 -0.016388 0.030258 3.000000
-0.466955 0.087301 0.032130 3.000000
-0.466955 -0.010960 -0.022082 3.000000
-0.466955 0.052810 -0.062257 3.000000
-0.466955 -0.033299 0.080737 3.000000
-0.466955 -0.002699 0.060699 3.000000
-0.466955 -0.043717 -0.040465 3.000000
-0.466955 0.013543 0.050554 3.000000
-0.466955 0.027332 0.066106 3.000000
-0.466955 -0.089677 -0.012941 3.000000
-0.466955 0.061314 -0.017231 3.000000
-0.466955 0.088863 -0.034065 3.000000
-0.466955 -0.014363 0.085047 3.000000
-0.466955 -0.067587 -0.022280 3.000000
-0.466955 0.052845 0.025105 3.000000
-0.466955 -0.019364 -0.094400 3.000000
-0.466955 0.007940 -0.072929 3.000000
-0.466955 -0.093489 0.017611 3.000000
-0.466955 0.001768 0.037294 3.000000
-0.466955 0.065579 -0.015374 3.000000
-0.466955 -0.051902 -0.039280 3.000000
-0.466955 0.041337 -0.030807 3.000000
-0.466955 -0.003439 0.026877 3.000000
-0.466955 0.001969 -0.065057 3.000000
-0.466955 0.071636 0.050019 3.000000
-0.466955 0.018111 0.054967 3.000000
-0.466955 -0.050755 0.066257 3.000000
-0.466955 0.043249 -0.088985 3.000000
-0.466955 0.038156 0.091987 3.000000
-0.466955 -0.010789 0.067951 3.000000
-0.466955 -0.052207 -0.044174 3.000000
-0.466955 0.098392 0.000565 3.000000
-0.466955 0.067451 0.000043 3.000000
-0.466955 -0.045889 0.005650 3.000000
-0.466955 -0.069478 0.046627 3.000000
-0.466955 0.042486 -0.018228 3.000000
-0.466955 -0.046305 -0.026862 3.000000
-0.466955 -0.015973 0.057283 3.000000
-0.466955 0.041876 -0.046796 3.000000
-0.466955 -0.039758 0.018730 3.000000
-0.466955 0.029883 0.058148 3.000000
-0.466955 0.084622 0.016073 3.000000
-0.466955 -0.079280 -0.043524 3.000000
-0.466955 0.031047 0.039955 3.000000
-0.466955 0.079045 0.051126 3.000000
-0.466955 0.023850 0.073438 3.000000
-0.466955 0.022738 0.092599 3.000000
-0.466955 0.065459 -0.026427 3.000000
-0.466955 0.024492 0.048239 3.000000
-0.466955 0.019177 -0.094847 3.000000
-0.466955 0.088853 0.029990 3.000000
-0.466955 0.048022 0.071360 3.000000
-0.466955 0.056315 -0.014096 3.000000
-0.466955 0.043094 0.077031 3.000000
-0.466955 -0.043098 -0.083910 3.000000
-0.466955 -0.076349 -0.050893 3.000000
-0.466955 -0.025729 0.059023 3.000000
-0.466955 -0.092758 0.003121 3.000000
-0.466955 0.021977 0.060742 3.000000
-0.466955 -0.029847 0.073602 3.000000
-0.466955 -0.054486 0.083722 3.000000
-0.466955 0.002432 0.017027 3.000000
-0.466955 0.016735 -0.041356 3.000000
-0.466955 -0.002959 0.013611 3.000000
-0.466955 -0.042481 -0.065584 3.000000
-0.466955 -0.007031 0.044959 3.000000
-0.466955 -0.000927 -0.098251 3.000000
-0.466955 0.045853 0.050226 3.000000
-0.466955 -0.017629 -0.003701 3.000000
-0.466955 -0.037560 0.037702 3.000000
-0.466955 0.073959 0.020844 3.000000
-0.466955 -0.065230 0.073173 3.000000
-0.466955 -0.042919 -0.043571 3.000000
-0.466955 0.045759 0.043523 3.000000
-0.466955 0.040034 0.008779 3.000000
-0.466955 -0.069158 0.050100 3.000000
-0.466955 -0.039328 -0.000802 3.000000
-0.466955 -0.039184 -0.084988 3.000000
-0.466955 -0.003213 0.097577 3.000000
-0.466955 0.030551 -0.023825 3.000000
-0.466955 -0.073634 0.014439 3.000000
-0.466955 -0.034001 -0.040393 3.000000
-0.466955 0.082753 0.027683 3.000000
-0.466955 0.010681 -0.049905 3.000000
-0.466955 -0.079863 0.056365 3.000000
-0.466955 0.042280 -0.032758 3.000000
-0.466955 -0.044240 -0.028797 3.000000
-0.466955 0.063699 0.003448 3.000000
-0.466955 -0.008654 0.021063 3.000000
-0.466955 0.073776 0.041306 3.000000
-0.466955 -0.047638 0.067351 3.000000
-0.466955 -0.078907 -0.001282 3.000000
-0.466955 0.060611 -0.066859 3.000000
-0.466955 0.048057 0.032317 3.000000
-0.466955 -0.068548 0.035279 3.000000
-0.466955 0.028651 -0.032140 3.000000
-0.466955 -0.006205 -0.043493 3.000000
-0.466955 0.094874 0.019923 3.000000
-0.466955 -0.060621 0.079266 3.000000
-0.466955 0.071119 -0.009478 3.000000
-0.466955 -0.034584 -0.027959 3.000000
-0.466955 -0.024002 0.067759 3.000000
-0.466955 0.021449 0.035577 3.000000
-0.466955 0.064144 -0.066277 3.000000
-0.466955 0.060150 0.000294 3.000000
-0.466955 0.043306 0.025207 3.000000
-0.466955 0.021197 -0.085116 3.000000
-0.466955 -0.035366 -0.042547 3.000000
-0.466955 -0.045199 -0.081469 3.000000
-0.466955 -0.027272 -0.088469 3.000000
-0.466955 -0.003613 -0.075521 3.000000
-0.466955 0.059681 0.002871 3.000000
-0.466955 -0.081745 0.052772 3.000000
-0.466955 -0.019185 0.087848 3.000000
-0.466955 0.013445 -0.040160 3.000000
-0.466955 0.063617 -0.001232 3.000000
-0.466955 0.039514 -0.008436 3.000000
-0.466955 -0.050431 -0.046978 3.000000
-0.466955 -0.083016 -0.038954 3.000000
-0.466955 0.011288 0.075932 3.000000
-0.466955 0.044937 -0.026282 3.000000
-0.466955 0.083532 -0.031106 3.000000
-0.466955 0.069733 0.060137 3.000000
-0.466955 0.050520 0.022855 3.000000
-0.466955 -0.055043 -0.053020 3.000000
-0.466955 -0.012338 -0.052852 3.000000
-0.466955 -0.075174 -0.011776 3.000000
-0.466955 -0.063989 0.058295 3.000000
-0.466955 -0.044532 -0.087541 3.000000
-0.466955 0.014677 -0.064470 3.000000
-0.466955 -0.027163 0.000324 3.000000
-0.466955 0.059593 -0.015866 3.000000
-0.466955 -0.035803 0.084350 3.000000
-0.466955 0.061653 -0.018884 3.000000
-0.466955 -0.032223 0.041224 3.000000
-0.466955 -0.045739 0.056626 3.000000
-0.466955 -0.058651 0.003188 3.000000
-0.466955 -0.096203 -0.025613 3.000000
-0.466955 -0.059455 0.072217 3.000000
-0.466955 0.003702 -0.018839 3.000000
-0.466955 0.024439 0.070003 3.000000
-0.466955 0.058519 0.001621 3.000000
-0.466955 -0.002413 0.092442 3.000000
-0.466955 0.067447 -0.001656 3.000000
-0.466955 0.006615 0.042791 3.000000
-0.466955 -0.037911 0.072237 3.000000
-0.466955 0.099778 0.004063 3.000000
-0.466955 -0.004655 0.088768 3.000000
-0.466955 -0.051141 -0.001504 3.000000
-0.466955 -0.028967 -0.029524 3.000000
-0.466955 -0.013898 -0.080235 3.000000
-0.466955 0.048826 -0.044315 3.000000
-0.466955 0.077280 0.022527 3.000000
-0.466955 0.065890 -0.033726 3.000000
-0.466955 -0.044158 0.083842 3.000000
-0.466955 0.024299 0.002910 3.000000
-0.466955 -0.082798 0.042463 3.000000
-0.466955 0.059290 -0.070464 3.000000
-0.466955 -0.075235 0.046386 3.000000
-0.466955 0.057683 -0.004647 3.000000
-0.466955 0.063605 0.061895 3.000000
-0.466955 -0.019537 0.082792 3.000000
-0.466955 -0.026898 -0.022803 3.000000
-0.466955 0.079099 0.009707 3.000000
-0.466955 0.050760 -0.055106 3.000000
-0.466955 0.060981 -0.021262 3.000000
-0.466955 -0.042699 0.043543 3.000000
-0.466955 0.051166 0.002927 3.000000
-0.466955 0.005475 0.047922 3.000000
-0.466955 0.046318 0.012621 3.000000
-0.466955 -0.038089 -0.067076 3.000000
-0.466955 0.042780 -0.028706 3.000000
-0.466955 0.045864 0.082786 3.000000
-0.466955 -0.032737 -0.075219 3.000000
-0.466955 0.061892 -0.015680 3.000000
-0.466955 -0.022452 -0.087231 3.000000
-0.466955 0.028421 -0.084664 3.000000
-0.466955 0.002364 -0.010328 3.000000
-0.466955 -0.065085 0.027133 3.000000
-0.466955 -0.003311 0.062754 3.000000
-0.466955 -0.018602 0.037200 3.000000
-0.466955 -0.004652 -0.098857 3.000000
-0.466955 0.050275 0.010774 3.000000
-0.466955 0.070329 0.018244 3.000000
-0.466955 0.063792 -0.032678 3.000000
-0.466955 -0.096865 -0.023027 3.000000
-0.466955 0.001058 0.008668 3.000000
-0.466955 0.092371 0.017125 3.000000
-0.466955 -0.006321 -0.081054 3.000000
-0.466955 -0.052334 0.066235 3.000000
-0.466955 -0.082559 0.038989 3.000000
-0.466955 -0.047906 0.037658 3.000000
-0.466955 -0.024100 -0.087977 3.000000
-0.466955 0.004705 0.086199 3.000000
-0.466955 0.091134 -0.011185 3.000000
-0.466955 -0.015891 0.086918 3.000000
-0.466955 0.064504 -0.011005 3.000000
-0.466955 0.046904 -0.071841 3.000000
-0.466955 -0.081786 -0.001284 3.000000
-0.466955 -0.049735 0.004794 3.000000
-0.466955 0.001613 -0.043911 3.000000
-0.466955 -0.001098 0.096070 3.000000
-0.466955 -0.044954 -0.041197 3.000000
-0.466955 0.026402 0.076787 3.000000
-0.466955 -0.021225 0.080309 3.000000
-0.466955 -0.035191 -0.037400 3.000000
-0.466955 0.020044 0.082362 3.000000
-0.466955 0.080402 0.029679 3.000000
-0.466955 -0.038294 0.007540 3.000000
-0.466955 -0.074503 0.061311 3.000000
-0.466955 0.041676 0.044864 3.000000
-0.466955 -0.080490 -0.007567 3.000000
-0.466955 -0.024577 0.040247 3.000000
-0.466955 -0.013932 0.098559 3.000000
-0.466955 -0.062069 0.046399 3.000000
-0.466955 -0.001940 -0.097115 3.000000
-0.466955 0.054410 -0.030740 3.000000
-0.466955 0.073784 0.046059 3.000000
-0.466955 -0.068356 0.072530 3.000000
-0.466955 -0.020062 -0.023018 3.000000
-0.466955 0.025523 -0.085910 3.000000
-0.466955 0.002253 0.009589 3.000000
-0.466955 -0.085008 0.006436 3.000000
-0.466955 0.083110 -0.045525 3.000000
-0.466955 0.034945 -0.018893 3.000000
-0.466955 -0.066933 -0.056467 3.000000
-0.466955 0.041382 -0.064513 3.000000
-0.466955 -0.028369 0.033128 3.000000
-0.466955 -0.078040 -0.046237 3.000000
-0.466955 -0.010219 -0.010086 3.000000
-0.466955 -0.033653 -0.044177 3.000000
-0.466955 0.001625 0.061422 3.000000
-0.466955 -0.015561 0.024474 3.000000
-0.466955 -0.033038 0.084664 3.000000
-0.466955 -0.045727 0.028424 3.000000
-0.466955 -0.015535 0.008691 3.000000
-0.466955 0.060136 0.061577 3.000000
-0.466955 -0.017426 -0.007764 3.000000
-0.466955 -0.010171 0.071171 3.000000
-0.466955 0.031327 0.029459 3.000000
-0.466955 0.071267 0.021783 3.000000
-0.466955 0.093731 -0.028473 3.000000
-0.466955 -0.092149 -0.037202 3.000000
-0.466955 -0.057260 -0.001032 3.000000
-0.466955 -0.087943 -0.010742 3.000000
-0.466955 0.041635 0.068761 3.000000
-0.466955 -0.048959 0.027258 3.000000
-0.466955 -0.034978 -0.068170 3.000000
-0.466955 -0.018751 -0.040177 3.000000
-0.466955 -0.075295 0.044841 3.000000
-0.466955 -0.015852 0.006698 3.000000
-0.466955 0.062546 -0.038111 3.000000
-0.466955 -0.004263 -0.074208 3.000000
-0.466955 -0.015436 0.037630 3.000000
-0.466955 -0.061469 -0.059149 3.000000
-0.466955 -0.093076 0.030077 3.000000
-0.466955 -0.002014 0.068203 3.000000
-0.466955 -0.067291 -0.058526 3.000000
-0.466955 0.050010 0.028418 3.000000
-0.466955 0.014880 -0.040265 3.000000
-0.466955 -0.018384 0.039367 3.000000
-0.466955 0.002165 -0.072781 3.000000
-0.466955 0.009536 0.024869 3.000000
-0.466955 0.054166 -0.035202 3.000000
-0.466955 0.041666 0.017651 3.000000
-0.466955 0.048306 -0.053759 3.000000
-0.466955 0.048702 -0.086894 3.000000
-0.466955 0.047106 -0.047141 3.000000
-0.466955 -0.088171 0.026539 3.000000
-0.466955 -0.078508 0.000105 3.000000
-0.466955 -0.033762 -0.013723 3.000000
-0.466955 -0.016268 -0.061518 3.000000
-0.466955 -0.011297 0.043618 3.000000
-0.466955 0.047355 0.030748 3.000000
-0.466955 0.001428 -0.090008 3.000000
-0.466955 0.042189 0.062472 3.000000
-0.466955 0.025490 0.040566 3.000000
-0.466955 -0.094045 0.031099 3.000000
-0.466955 -0.020460 -0.091509 3.000000
-0.466955 0.032090 0.022141 3.000000
-0.466955 -0.059495 -0.009980 3.000000
-0.466955 0.020321 -0.010456 3.000000
-0.466955 0.005975 0.013577 3.000000
-0.466955 0.001048 -0.049069 3.000000
-0.466955 0.007310 -0.090134 3.000000
-0.466955 0.049962 -0.060830 3.000000
-0.466955 -0.005301 0.030784 3.000000
-0.466955 -0.037665 -0.036369 3.000000
-0.466955 -0.024011 -0.028735 3.000000
-0.466955 0.069045 0.028531 3.000000
-0.466955 0.075067 -0.024713 3.000000
-0.466955 -0.035558 -0.055124 3.000000
-0.466955 0.043281 0.053221 3.000000
-0.466955 -0.070539 -0.017842 3.000000
-0.466955 0.047865 0.012277 3.000000
-0.466955 -0.038181 -0.075549 3.000000
-0.466955 -0.020101 -0.076599 3.000000
-0.466955 -0.013824 0.022784 3.000000
-0.466955 0.047268 0.016034 3.000000
-0.466955 -0.039952 -0.033746 3.000000
-0.466955 -0.043130 -0.070157 3.000000
-0.466955 0.020472 0.090009 3.000000
-0.466955 0.026419 0.017897 3.000000
-0.466955 -0.007062 0.020798 3.000000
-0.466955 -0.002056 0.010957 3.000000
-0.466955 -0.006657 0.086892 3.000000
-0.466955 -0.046138 0.020272 3.000000
-0.466955 -0.062658 -0.018054 3.000000
-0.466955 0.034508 0.087133 3.000000
-0.466955 0.034291 0.068106 3.000000
-0.466955 -0.003606 0.049496 3.000000
-0.466955 -0.049867 -0.056562 3.000000
-0.466955 -0.097999 -0.001607 3.000000
-0.466955 -0.006054 -0.022701 3.000000
-0.466955 -0.040076 0.012621 3.000000
-0.466955 0.009719 0.026659 3.000000
-0.466955 0.059673 0.051381 3.000000
-0.466955 -0.020636 -0.061872 3.000000
-0.466955 -0.007039 0.057690 3.000000
-0.466955 -0.013625 0.006203 3.000000
-0.466955 0.007852 -0.045789 3.000000
-0.466955 -0.042045 -0.010299 3.000000
-0.466955 -0.075368 0.048757 3.000000
-0.466955 0.026894 -0.047400 3.000000
-0.466955 -0.022534 0.014621 3.000000
-0.466955 0.029920 -0.069710 3.000000
-0.466955 -0.070029 0.052129 3.000000
-0.466955 0.024518 -0.002577 3.000000
-0.466955 -0.038620 -0.035167 3.000000
-0.466955 -0.046708 -0.069104 3.000000
-0.466955 0.035577 -0.059961 3.000000
-0.466955 0.044115 -0.029104 3.000000
-0.466955 -0.025790 0.015119 3.000000
-0.466955 0.098167 0.007204 3.000000
-0.466955 -0.028971 -0.037520 3.000000
-0.466955 0.068843 0.041914 3.000000
-0.466955 -0.030533 -0.086288 3.000000
-0.466955 -0.080386 -0.028228 3.000000
-0.466955 0.022599 -0.084903 3.000000
-0.466955 0.002770 -0.068311 3.000000
-0.466955 0.074081 -0.043952 3.000000
-0.466955 0.044530 -0.035538 3.000000
-0.466955 -0.086141 0.033272 3.000000
-0.466955 -0.035878 -0.013950 3.000000
-0.466955 -0.037416 0.077902 3.000000
-0.466955 -0.060048 0.037095 3.000000
-0.466955 -0.031173 -0.030679 3.000000
-0.466955 0.037235 -0.060223 3.000000
-0.466955 0.069765 0.007945 3.000000
-0.466955 -0.062241 -0.037012 3.000000
-0.466955 -0.020320 -0.037117 3.000000
-0.466955 0.075631 -0.061835 3.000000
-0.466955 -0.024609 -0.095270 3.000000
-0.466955 -0.009382 0.086920 3.000000
-0.466955 0.090237 -0.029102 3.000000
-0.466955 -0.023732 -0.033153 3.000000
-0.466955 0.014112 0.069827 3.000000
-0.466955 0.041150 0.076195 3.000000
-0.466955 -0.014637 -0.078611 3.000000
-0.466955 -0.045119 -0.072653 3.000000
-0.466955 0.048624 -0.008475 3.000000
-0.466955 -0.026429 -0.080232 3.000000
-0.466955 0.070045 0.054781 3.000000
-0.466955 0.008517 -0.041713 3.000000
-0.466955 -0.081718 0.037162 3.000000
-0.466955 -0.008426 0.035923 3.000000
-0.466955 -0.061720 0.047806 3.000000
-0.466955 -0.026341 -0.038213 3.000000
-0.466955 0.013239 -0.097496 3.000000
-0.466955 -0.006306 0.031791 3.000000
-0.466955 0.092632 -0.036540 3.000000
-0.466955 0.065003 0.011975 3.000000
-0.466955 0.038944 0.081023 3.000000
-0.466955 0.008130 0.029633 3.000000
-0.466955 -0.011699 -0.019275 3.000000
-0.466955 0.027565 -0.033547 3.000000
-0.466955 -0.025243 -0.011822 3.000000
-0.466955 -0.098934 0.009835 3.000000
-0.466955 0.070789 0.001945 3.000000
-0.466955 0.002695 -0.028302 3.000000
-0.466955 -0.015711 0.064399 3.000000
-0.466955 0.041056 0.019049 3.000000
-0.466955 0.068469 -0.043206 3.000000
-0.466955 0.093218 -0.031723 3.000000
-0.466955 -0.065451 0.011598 3.000000
-0.466955 -0.000438 0.009007 3.000000
-0.466955 0.002383 0.026966 3.000000
-0.466955 -0.028988 -0.006835 3.000000
-0.466955 0.064392 0.050536 3.000000
-0.466955 -0.079808 -0.053645 3.000000
-0.466955 0.016647 0.002604 3.000000
-0.466955 -0.044056 -0.009849 3.000000
-0.466955 -0.020690 -0.035496 3.000000
-0.466955 -0.004594 0.018175 3.000000
-0.466955 0.096013 0.027956 3.000000
-0.466955 0.004141 -0.068883 3.000000
-0.466955 0.010109 0.022999 3.000000
-0.466955 -0.021904 0.053670 3.000000
-0.466955 -0.038011 -0.059534 3.000000
-0.466955 -0.041442 -0.030857 3.000000
-0.466955 -0.043022 0.010630 3.000000
-0.466955 0.031234 -0.020712 3.000000
-0.466955 0.088828 0.037285 3.000000
-0.466955 0.010907 -0.061257 3.000000
-0.466955 0.079605 -0.039853 3.000000
-0.466955 0.092998 -0.017216 3.000000
-0.466955 0.057410 -0.042838 3.000000
-0.466955 0.010567 -0.069235 3.000000
-0.466955 0.014152 -0.030291 3.000000
-0.466955 0.016702 0.061957 3.000000
-0.466955 0.017702 -0.075880 3.000000
-0.466955 0.003800 -0.035481 3.000000
-0.466955 0.091949 -0.027302 3.000000
-0.466955 -0.033291 -0.054436 3.000000
-0.466955 0.004474 0.002951 3.000000
-0.466955 -0.000421 0.035976 3.000000
-0.466955 0.014202 0.052112 3.000000
-0.466955 0.031890 0.086106 3.000000
-0.466955 0.011133 -0.024686 3.000000
-0.466955 -0.042955 0.013318 3.000000
-0.466955 -0.074505 0.047626 3.000000
-0.466955 -0.034574 0.042149 3.000000
-0.466955 0.025284 0.044914 3.000000
-0.466955 -0.004357 -0.006651 3.000000
-0.466955 0.062642 -0.024421 3.000000
-0.466955 -0.026920 -0.060430 3.000000
-0.466955 -0.035275 0.030784 3.000000
-0.466955 0.049039 0.029523 3.000000
-0.466955 0.062648 -0.020701 3.000000
-0.466955 -0.071538 0.018510 3.000000
-0.466955 0.096342 -0.015088 3.000000
-0.466955 -0.034806 0.075441 3.000000
-0.466955 0.080195 0.041291 3.000000
-0.466955 -0.024526 -0.081642 3.000000
-0.466955 0.085327 0.049391 3.000000
-0.466955 -0.081929 -0.048887 3.000000
-0.466955 0.018920 0.040482 3.000000
-0.466955 -0.065067 0.018248 3.000000
-0.466955 -0.042300 0.001102 3.000000
-0.466955 0.023535 0.061523 3.000000
-0.466955 0.043458 -0.070241 3.000000
-0.466955 -0.015392 -0.045148 3.000000
-0.466955 -0.060121 0.067294 3.000000
-0.466955 -0.067213 -0.052187 3.000000
-0.466955 0.002346 0.080329 3.000000
-0.466955 -0.055792 -0.028161 3.000000
-0.466955 0.074339 0.050076 3.000000
-0.466955 -0.012966 -0.081359 3.000000
-0.466955 0.068350 0.054967 3.000000
-0.466955 -0.054864 0.069570 3.000000
-0.466955 -0.044493 0.004743 3.000000
-0.466955 0.007321 -0.095656 3.000000
-0.466955 0.031542 -0.027117 3.000000
-0.466955 0.047332 -0.011038 3.000000
-0.466955 -0.044358 0.045757 3.000000
-0.466955 -0.012723 0.085759 3.000000
-0.466955 0.066046 -0.019701 3.000000
-0.466955 -0.030874 -0.024373 3.000000
-0.466955 -0.054464 -0.043059 3.000000
-0.466955 -0.067739 0.057663 3.000000
-0.466955 0.064791 0.022268 3.000000
-0.466955 0.028349 0.006057 3.000000
-0.466955 -0.006217 -0.044955 3.000000
-0.466955 0.054216 -0.038543 3.000000
-0.466955 -0.025607 0.008198 3.000000
-0.466955 0.015924 -0.052836 3.000000
-0.466955 0.076393 -0.011855 3.000000
-0.466955 0.085841 0.002473 3.000000
-0.466955 0.026804 -0.019915 3.000000
-0.466955 -0.012406 0.057614 3.000000
-0.466955 0.017477 0.028703 3.000000
-0.466955 0.054728 -0.045762 3.000000
-0.466955 0.054339 0.030403 3.000000
-0.466955 0.024597 -0.092273 3.000000
-0.466955 0.041229 -0.008302 3.000000
-0.466955 0.002995 -0.062965 3.000000
-0.466955 -0.015080 0.054334 3.000000
-0.466955 0.027500 0.049880 3.000000
-0.466955 -0.062103 0.070252 3.000000
-0.466955 0.011056 -0.009726 3.000000
-0.466955 0.021404 0.007853 3.000000
-0.466955 -0.013754 0.052709 3.000000
-0.466955 0.066049 0.031360 3.000000
-0.466955 0.020414 -0.056779 3.000000
-0.466955 -0.027711 0.034664 3.000000
-0.466955 0.003011 0.066132 3.000000
-0.466955 -0.024497 -0.076257 3.000000
-0.466955 -0.035210 -0.004736 3.000000
-0.466955 0.057869 -0.023863 3.000000
-0.466955 0.048736 0.051102 3.000000
-0.466955 0.052364 -0.019253 3.000000
-0.466955 -0.032685 0.066037 3.000000
-0.466955 0.011187 0.093380 3.000000
-0.466955 -0.004116 -0.072118 3.000000
-0.466955 0.024004 0.052409 3.000000
-0.466955 -0.041170 -0.088764 3.000000
-0.466955 0.098428 0.002228 3.000000
-0.466955 -0.000030 0.082497 3.000000
-0.466955 0.060149 0.030895 3.000000
-0.466955 -0.020463 0.004222 3.000000
-0.466955 -0.008960 -0.075818 3.000000
-0.466955 -0.048387 -0.014980 3.000000
-0.466955 -0.065330 0.025326 3.000000
-0.466955 -0.053332 -0.074170 3.000000
-0.466955 -0.088351 -0.018709 3.000000
-0.466955 0.003521 -0.022168 3.000000
-0.466955 0.061595 -0.023569 3.000000
-0.466955 0.024090 -0.074421 3.000000
-0.466955 -0.007115 -0.031212 3.000000
-0.466955 0.062852 0.047245 3.000000
-0.466955 -0.063360 0.028072 3.000000
-0.466955 0.082317 -0.014751 3.000000
-0.466955 -0.032065 -0.010051 3.000000
-0.466955 0.071041 0.059638 3.000000
-0.466955 -0.041725 0.027889 3.000000
-0.466955 -0.005577 -0.060755 3.000000
-0.466955 0.070746 0.033686 3.000000
-0.466955 0.061020 0.067985 3.000000
-0.466955 -0.008128 -0.063668 3.000000
-0.466955 0.007336 -0.038414 3.000000
-0.466955 0.006554 0.080858 3.000000
-0.466955 -0.009611 -0.034880 3.000000
-0.466955 0.046049 0.028300 3.000000
-0.466955 0.059918 0.004407 3.000000
-0.466955 -0.055637 -0.068037 3.000000
-0.466955 -0.036143 -0.084974 3.000000
-0.466955 -0.035442 -0.046271 3.000000
-0.466955 -0.042434 0.078712 3.000000
-0.466955 0.074190 0.026100 3.000000
-0.466955 -0.021590 0.060149 3.000000
-0.466955 -0.046544 -0.085622 3.000000
-0.466955 0.005773 -0.058581 3.000000
-0.466955 0.053490 -0.000663 3.000000
-0.466955 0.095303 0.001768 3.000000
-0.466955 0.035891 0.035767 3.000000
-0.466955 0.002320 0.004773 3.000000
-0.466955 -0.042035 -0.040641 3.000000
-0.466955 -0.013716 -0.013497 3.000000
-0.466955 -0.078582 0.058609 3.000000
-0.466955 -0.054735 -0.064893 3.000000
-0.466955 -0.078887 0.002007 3.000000
-0.466955 -0.018479 -0.068504 3.000000
-0.466955 -0.067158 0.023300 3.000000
-0.466955 0.025981 0.021921 3.000000
-0.466955 0.041363 -0.024103 3.000000
-0.466955 0.013554 -0.036950 3.000000
-0.466955 -0.034347 0.049005 3.000000
-0.466955 -0.023762 0.043972 3.000000
-0.466955 -0.078367 -0.029609 3.000000
-0.466955 -0.028737 0.082524 3.000000
-0.466955 0.054082 0.000702 3.000000
-0.466955 -0.035973 0.051497 3.000000
-0.466955 -0.050812 -0.040741 3.000000
-0.466955 0.000772 0.088747 3.000000
-0.466955 -0.082205 -0.007990 3.000000
-0.466955 0.037311 0.014980 3.000000
-0.466955 -0.008580 0.069532 3.000000
-0.466955 0.058631 -0.053710 3.000000
-0.466955 0.012152 -0.062222 3.000000
-0.466955 -0.003952 0.081430 3.000000
-0.466955 -0.012608 0.014245 3.000000
-0.466955 0.065720 -0.051928 3.000000
-0.466955 0.043702 0.048341 3.000000
-0.466955 -0.012430 0.023188 3.000000
-0.466955 0.022971 0.011504 3.000000
-0.466955 0.084877 -0.012485 3.000000
-0.466955 0.055121 0.056701 3.000000
-0.466955 -0.033265 -0.005520 3.000000
-0.466955 0.010607 -0.039486 3.000000
-0.466955 0.002914 0.091152 3.000000
-0.466955 -0.092119 -0.031991 3.000000
-0.466955 0.026667 -0.012112 3.000000
-0.466955 0.052806 -0.054991 3.000000
-0.466955 0.003584 -0.009403 3.000000
-0.466955 0.093134 0.012504 3.000000
-0.466955 -0.004178 -0.061882 3.000000
-0.466955 -0.073846 0.044561 3.000000
-0.466955 0.059989 -0.009460 3.000000
-0.466955 0.032763 0.009156 3.000000
-0.466955 -0.001895 0.024012 3.000000
-0.466955 -0.087202 0.029216 3.000000
-0.466955 -0.073186 -0.065324 3.000000
-0.466955 0.020627 -0.025149 3.000000
-0.466955 -0.008939 0.017667 3.000000
-0.466955 0.074936 -0.026604 3.000000
-0.466955 -0.016093 0.067838 3.000000
-0.466955 0.088289 0.000480 3.000000
-0.466955 0.003719 0.076449 3.000000
-0.466955 -0.098292 0.012478 3.000000
-0.466955 0.051777 0.085531 3.000000
-0.466955 0.053897 0.002801 3.000000
-0.466955 -0.045677 0.077062 3.000000
-0.466955 -0.015451 0.079862 3.000000
-0.466955 0.002642 0.056297 3.000000
-0.466955 -0.024087 0.006530 3.000000
-0.466955 0.083650 -0.051959 3.000000
-0.466955 -0.033933 0.028491 3.000000
-0.466955 0.002159 0.076306 3.000000
-0.466955 -0.055579 -0.019779 3.000000
-0.466955 0.032201 -0.029019 3.000000
-0.466955 0.017770 0.074816 3.000000
-0.466955 -0.027054 0.016855 3.000000
-0.466955 -0.036429 -0.007247 3.000000
-0.466955 -0.046124 -0.045217 3.000000
-0.466955 0.099695 0.006295 3.000000
-0.466955 0.048340 -0.036126 3.000000
-0.466955 -0.007904 0.022553 3.000000
-0.466955 -0.097768 -0.010566 3.000000
-0.466955 0.002767 0.033158 3.000000
-0.466955 0.083699 -0.053411 3.000000
-0.466955 -0.066009 -0.059466 3.000000
-0.466955 -0.040187 -0.044940 3.000000
-0.466955 -0.021359 -0.053091 3.000000
-0.466955 0.042743 -0.060303 3.000000
-0.466955 -0.056303 0.055682 3.000000
-0.466955 -0.020358 -0.082983 3.000000
-0.466955 -0.002862 0.057734 3.000000
-0.466955 -0.043665 0.047786 3.000000
-0.466955 -0.042721 0.046353 3.000000
-0.466955 -0.032947 -0.042523 3.000000
-0.466955 -0.065414 0.007253 3.000000
-0.466955 -0.072033 0.061392 3.000000
-0.466955 -0.011790 0.020577 3.000000
-0.466955 0.058273 -0.036839 3.000000
-0.466955 -0.002991 0.080309 3.000000
-0.466955 0.001578 -0.032474 3.000000
-0.466955 -0.044635 -0.056240 3.000000
-0.466955 -0.047197 0.048156 3.000000
-0.466955 -0.085301 -0.007167 3.000000
-0.466955 -0.052774 0.044987 3.000000
-0.466955 0.059910 -0.017762 3.000000
-0.466955 0.044229 0.082609 3.000000
-0.466955 -0.060962 -0.048407 3.000000
-0.466955 0.016943 0.085125 3.000000
-0.466955 0.041472 -0.035536 3.000000
-0.466955 0.006969 -0.066724 3.000000
-0.466955 -0.082036 -0.023604 3.000000
-0.466955 0.071226 -0.036136 3.000000
-0.466955 -0.026874 0.082813 3.000000
-0.466955 -0.054354 -0.061743 3.000000
-0.466955 -0.092827 0.009359 3.000000
-0.466955 0.049173 0.024628 3.000000
-0.466955 0.003687 0.034419 3.000000
-0.466955 0.034143 -0.011727 3.000000
-0.466955 0.085530 0.019322 3.000000
-0.466955 0.001580 0.034381 3.000000
-0.466955 -0.084320 -0.043323 3.000000
-0.466955 0.009963 -0.033125 3.000000
-0.466955 0.074459 -0.045630 3.000000
-0.466955 -0.051382 0.074578 3.000000
-0.466955 -0.039982 -0.053515 3.000000
-0.466955 -0.020249 -0.010074 3.000000
-0.466955 -0.079569 0.010026 3.000000
-0.466955 0.010712 -0.059565 3.000000
-0.466955 0.018449 0.071564 3.000000
-0.466955 0.037366 0.026855 3.000000
-0.466955 -0.018581 0.041301 3.000000
-0.466955 -0.052460 0.062794 3.000000
-0.466955 0.014005 0.030836 3.000000
-0.466955 0.024337 0.026711 3.000000
-0.466955 0.078345 0.060008 3.000000
-0.466955 0.024615 0.077725 3.000000
-0.466955 0.016999 0.070879 3.000000
-0.466955 -0.009329 -0.040810 3.000000
-0.466955 0.021791 -0.045833 3.000000
-0.466955 0.008466 -0.057788 3.000000
-0.466955 -0.006047 0.082060 3.000000
-0.466955 0.068809 -0.011374 3.000000
-0.466955 0.054826 0.066669 3.000000
-0.466955 0.024804 -0.000022 3.000000
-0.466955 -0.034943 -0.019894 3.000000
-0.466955 -0.003055 0.001935 3.000000
-0.466955 0.046074 -0.025069 3.000000
-0.466955 -0.085869 -0.011412 3.000000
-0.466955 0.072409 0.059616 3.000000
-0.466955 0.010315 -0.022716 3.000000
-0.466955 0.029736 0.090682 3.000000
-0.466955 -0.086027 -0.035168 3.000000
-0.466955 0.007616 -0.047467 3.000000
-0.466955 0.081382 0.017843 3.000000
-0.466955 -0.022600 0.075287 3.000000
-0.466955 -0.012041 -0.037374 3.000000
-0.466955 0.049351 0.003767 3.000000
-0.466955 0.015576 0.090994 3.000000
-0.466955 -0.006462 0.036571 3.000000
-0.466955 0.076536 -0.027538 3.000000
-0.466955 0.014811 -0.048401 3.000000
-0.466955 -0.028890 0.079310 3.000000
-0.466955 0.065776 0.064393 3.000000
-0.466955 -0.065337 -0.034823 3.000000
-0.466955 -0.068095 -0.024198 3.000000
-0.466955 -0.061375 -0.015831 3.000000
-0.466955 -0.030805 0.039135 3.000000
-0.466955 -0.011514 -0.039030 3.000000
-0.466955 0.023153 0.059804 3.000000
-0.466955 0.050827 0.056752 3.000000
-0.466955 0.055904 -0.063744 3.000000
-0.466955 -0.074567 -0.002246 3.000000
-0.466955 0.065037 0.037179 3.000000
-0.466955 0.037673 -0.073152 3.000000
-0.466955 -0.000997 -0.017544 3.000000
-0.466955 -0.075914 0.036283 3.000000
-0.466955 -0.077123 -0.045114 3.000000
-0.466955 0.011576 -0.005920 3.000000
-0.466955 0.014551 0.035242 3.000000
-0.466955 -0.051048 0.028710 3.000000
-0.466955 -0.072677 0.022761 3.000000
-0.466955 0.071343 0.027113 3.000000
-0.466955 0.047579 -0.015043 3.000000
-0.466955 -0.005235 0.064619 3.000000
-0.466955 -0.063363 0.073574 3.000000
-0.466955 0.035645 -0.087548 3.000000
-0.466955 -0.052693 0.080726 3.000000
-0.466955 0.073836 0.067479 3.000000
-0.466955 0.027346 -0.058764 3.000000
-0.466955 -0.014904 0.075662 3.000000
-0.466955 0.028474 -0.035237 3.000000
-0.466955 -0.019988 0.060678 3.000000
-0.466955 0.001787 0.051713 3.000000
-0.466955 -0.063535 -0.056395 3.000000
-0.466955 -0.014608 -0.016917 3.000000
-0.466955 0.003254 0.099202 3.000000
-0.466955 0.058009 -0.001507 3.000000
-0.466955 0.023867 -0.032165 3.000000
-0.466955 0.087547 0.002803 3.000000
-0.466955 -0.046896 0.046602 3.000000
-0.466955 0.085460 -0.004354 3.000000
-0.466955 0.034036 -0.060789 3.000000
-0.466955 -0.028252 0.091762 3.000000
-0.466955 0.040702 0.057046 3.000000
-0.466955 0.031254 -0.068590 3.000000
-0.466955 -0.002852 0.090823 3.000000
-0.466955 0.000984 0.043099 3.000000
-0.466955 0.028065 0.074757 3.000000
-0.466955 -0.072266 0.041271 3.000000
-0.466955 -0.077864 0.012088 3.000000
-0.466955 -0.060651 -0.062147 3.000000
-0.466955 -0.073818 -0.061303 3.000000
-0.466955 0.020564 -0.032140 3.000000
-0.466955 0.044420 -0.022601 3.000000
-0.466955 0.017309 0.013643 3.000000
-0.466955 0.017241 -0.060125 3.000000
-0.466955 -0.007815 -0.035058 3.000000
-0.466955 0.075215 0.020159 3.000000
-0.466955 -0.024949 0.054135 3.000000
-0.466955 -0.029808 0.013219 3.000000
-0.466955 -0.059708 -0.022590 3.000000
-0.466955 -0.039054 0.010043 3.000000
-0.466955 0.058785 0.029750 3.000000
-0.466955 -0.066882 0.042808 3.000000
-0.466955 -0.022158 0.051853 3.000000
-0.466955 0.056850 -0.056008 3.000000
-0.466955 0.043300 -0.079191 3.000000
-0.466955 -0.003393 -0.059451 3.000000
-0.466955 0.005102 -0.013318 3.000000
-0.466955 0.048512 -0.016443 3.000000
-0.466955 0.052214 0.033569 3.000000
-0.466955 0.025322 0.088663 3.000000
-0.466955 -0.024295 0.064720 3.000000
-0.466955 -0.014763 -0.031105 3.000000
-0.466955 -0.032146 0.032135 3.000000
-0.466955 -0.053601 -0.001572 3.000000
-0.466955 -0.060716 -0.037389 3.000000
-0.466955 0.068782 -0.069968 3.000000
-0.466955 -0.071422 -0.031922 3.000000
-0.466955 -0.064315 -0.066079 3.000000
-0.466955 0.073636 0.004351 3.000000
-0.466955 0.042658 -0.085022 3.000000
-0.466955 0.015222 0.068383 3.000000
-0.466955 -0.055901 -0.007368 3.000000
-0.466955 0.004581 0.072385 3.000000
-0.466955 0.078784 0.022594 3.000000
-0.466955 0.065019 -0.036183 3.000000
-0.466955 -0.097314 -0.000057 3.000000
-0.466955 -0.069540 -0.069794 3.000000
-0.466955 0.007889 -0.065447 3.000000
-0.466955 0.035348 -0.050980 3.000000
-0.466955 0.057087 -0.037938 3.000000
-0.466955 0.090277 0.021212 3.000000
-0.466955 -0.007317 0.051896 3.000000
-0.466955 -0.031246 0.070058 3.000000
-0.466955 -0.053445 0.038352 3.000000
-0.466955 0.036564 0.046618 3.000000
-0.466955 -0.011091 -0.093830 3.000000
-0.466955 0.090801 0.016655 3.000000
-0.466955 0.041406 0.065738 3.000000
-0.466955 0.049743 0.035771 3.000000
-0.466955 0.013616 0.019585 3.000000
-0.466955 -0.030936 0.085286 3.000000
-0.466955 -0.017535 0.086276 3.000000
-0.466955 -0.029383 0.043496 3.000000
-0.466955 0.016612 0.056557 3.000000
-0.466955 -0.025024 -0.067779 3.000000
-0.466955 0.081210 -0.052330 3.000000
-0.466955 0.039409 0.013222 3.000000
-0.466955 0.079599 -0.015410 3.000000
-0.466955 0.034242 0.054847 3.000000
-0.466955 -0.020861 -0.096901 3.000000
-0.466955 -0.032052 -0.058626 3.000000
-0.466955 0.030507 -0.025918 3.000000
-0.466955 -0.059987 0.014066 3.000000
-0.466955 0.039599 0.061541 3.000000
-0.466955 -0.067905 -0.068988 3.000000
-0.466955 -0.075690 0.027068 3.000000
-0.466955 -0.072664 -0.030658 3.000000
-0.466955 -0.014947 0.046894 3.000000
-0.466955 0.007599 -0.063954 3.000000
-0.466955 -0.012394 -0.082754 3.000000
-0.466955 -0.006614 0.000740 3.000000
-0.466955 -0.098101 0.015251 3.000000
-0.466955 -0.059254 0.017463 3.000000
-0.466955 0.085034 0.013569 3.000000
-0.466955 0.005779 -0.068720 3.000000
-0.466955 0.084270 0.030579 3.000000
-0.466955 -0.022270 -0.028268 3.000000
-0.466955 0.062978 -0.052809 3.000000
-0.466955 -0.058899 -0.067288 3.000000
-0.466955 0.028117 0.088984 3.000000
-0.466955 0.049469 -0.021475 3.000000
-0.466955 0.056995 0.004884 3.000000
-0.466955 0.020126 0.060695 3.000000
-0.466955 0.030190 0.050987 3.000000
-0.466955 0.042338 -0.022737 3.000000
-0.466955 -0.053782 -0.083588 3.000000
-0.466955 -0.055217 -0.031107 3.000000
-0.466955 -0.089025 -0.031821 3.000000
-0.466955 0.009806 -0.097797 3.000000
-0.466955 0.030949 -0.016213 3.000000
-0.466955 0.015371 -0.057159 3.000000
-0.466955 0.093546 -0.015772 3.000000
-0.466955 0.002199 0.038594 3.000000
-0.466955 -0.091695 -0.028512 3.000000
-0.466955 -0.023601 0.051382 3.000000
-0.466955 -0.057145 0.068256 3.000000
-0.466955 -0.010592 0.088817 3.000000
-0.466955 0.020693 -0.097269 3.000000
-0.466955 0.025692 -0.025015 3.000000
-0.466955 0.055187 -0.058980 3.000000
-0.466955 -0.013157 -0.074563 3.000000
-0.466955 -0.051338 -0.063126 3.000000
-0.466955 -0.086592 -0.016493 3.000000
-0.466955 -0.086919 -0.028157 3.000000
-0.466955 -0.030575 -0.037868 3.000000
-0.466955 0.054827 -0.067386 3.000000
-0.466955 0.050503 0.037493 3.000000
-0.466955 -0.005987 0.014771 3.000000
-0.466955 0.078994 -0.037583 3.000000
-0.466955 -0.023961 0.014736 3.000000
-0.466955 -0.063296 -0.030617 3.000000
-0.466955 -0.042726 -0.006759 3.000000
-0.466955 -0.061323 0.025707 3.000000
-0.466955 0.038700 -0.053711 3.000000
-0.466955 0.017121 0.011143 3.000000
-0.466955 -0.001670 0.078359 3.000000
-0.466955 0.006803 -0.018300 3.000000
-0.466955 -0.031093 0.091003 3.000000
-0.466955 0.035542 0.088302 3.000000
-0.466955 -0.019464 -0.066145 3.000000
-0.466955 -0.036222 0.078727 3.000000
-0.466955 0.011712 -0.075408 3.000000
-0.466955 0.093595 0.021813 3.000000
-0.466955 -0.081954 -0.020962 3.000000
-0.466955 0.047945 -0.076695 3.000000
-0.466955 0.072848 0.043400 3.000000
-0.466955 -0.027182 -0.094833 3.000000
-0.466955 -0.056142 0.023813 3.000000
-0.466955 0.024475 -0.072088 3.000000
-0.466955 0.054056 0.072886 3.000000
-0.466955 0.064004 0.020362 3.000000
-0.466955 -0.054628 -0.044748 3.000000
-0.466955 -0.068167 0.002451 3.000000
-0.466955 -0.004856 0.051777 3.000000
-0.466955 0.007692 -0.051803 3.000000
-0.466955 0.081568 0.057898 3.000000
-0.466955 0.033804 0.091265 3.000000
-0.466955 -0.065919 0.009021 3.000000
-0.466955 0.078014 0.005101 3.000000
-0.466955 -0.001293 -0.029766 3.000000
-0.466955 -0.038795 -0.002187 3.000000
-0.466955 0.047739 -0.020611 3.000000
-0.466955 0.096767 -0.000946 3.000000
-0.466955 -0.058744 -0.023965 3.000000
-0.466955 -0.014521 -0.024379 3.000000
-0.466955 0.063734 -0.062288 3.000000
-0.466955 -0.086774 0.017840 3.000000
-0.466955 0.043920 0.057789 3.000000
-0.466955 -0.092741 -0.017082 3.000000
-0.466955 0.024989 0.001381 3.000000
-0.466955 -0.028104 -0.074165 3.000000
-0.466955 -0.046635 0.058175 3.000000
-0.466955 -0.041549 -0.054426 3.000000
-0.466955 -0.043559 -0.055142 3.000000
-0.466955 0.090277 -0.005147 3.000000
-0.466955 -0.014730 0.097000 3.000000
-0.466955 0.003191 -0.040321 3.000000
-0.466955 0.064090 -0.027105 3.000000
-0.466955 -0.095478 -0.007481 3.000000
-0.466955 -0.016204 -0.095567 3.000000
-0.466955 0.012470 0.038652 3.000000
-0.466955 0.042970 -0.035915 3.000000
-0.466955 -0.049239 -0.070243 3.000000
-0.466955 -0.053713 0.062101 3.000000
-0.466955 0.076047 0.056718 3.000000
-0.466955 0.098459 -0.011961 3.000000
-0.466955 0.076734 -0.000420 3.000000
-0.466955 -0.046580 -0.064328 3.000000
-0.466955 0.003832 -0.057749 3.000000
-0.466955 -0.002200 -0.028644 3.000000
-0.466955 -0.008853 0.083748 3.000000
-0.466955 -0.068375 -0.032212 3.000000
-0.466955 -0.074235 0.059238 3.000000
-0.466955 -0.069691 -0.026262 3.000000
-0.466955 0.018700 -0.096233 3.000000
-0.466955 -0.047569 -0.084591 3.000000
-0.466955 0.045121 -0.036797 3.000000
-0.466955 -0.040915 -0.052186 3.000000
-0.466955 -0.030671 -0.084956 3.000000
-0.466955 -0.072579 -0.002456 3.000000
-0.466955 0.050399 -0.078701 3.000000
-0.466955 0.010929 0.019503 3.000000
-0.466955 -0.012296 0.009465 3.000000
-0.466955 -0.009620 -0.090763 3.000000
-0.466955 0.063633 -0.030758 3.000000
-0.466955 0.017077 -0.009547 3.000000
-0.466955 0.009549 0.001682 3.000000
-0.466955 -0.040183 -0.072931 3.000000
-0.466955 0.022178 -0.017442 3.000000
-0.466955 -0.042213 -0.015880 3.000000
-0.466955 -0.025944 0.003704 3.000000
-0.466955 0.000135 0.005645 3.000000
-0.466955 -0.060011 -0.025579 3.000000
-0.466955 0.008211 -0.007555 3.000000
-0.466955 0.071198 0.043623 3.000000
-0.466955 0.007732 0.077489 3.000000
-0.466955 0.088498 -0.042636 3.000000
-0.466955 0.007655 -0.068636 3.000000
-0.466955 -0.059722 -0.051114 3.000000
-0.466955 -0.049649 0.001737 3.000000
-0.466955 -0.056341 0.076579 3.000000
-0.466955 0.064855 0.027425 3.000000
-0.466955 0.072731 -0.000079 3.000000
-0.466955 -0.002465 0.082346 3.000000
-0.466955 -0.059263 -0.003209 3.000000
-0.466955 0.001810 0.015463 3.000000
-0.466955 0.094195 -0.030432 3.000000
-0.466955 -0.042274 0.054390 3.000000
-0.466955 0.066562 0.045610 3.000000
-0.466955 -0.074367 -0.023757 3.000000
-0.466955 0.052897 0.035837 3.000000
-0.466955 -0.005299 -0.024877 3.000000
-0.466955 0.007315 0.019424 3.000000
-0.466955 -0.003694 0.067442 3.000000
-0.466955 -0.056802 -0.059984 3.000000
-0.466955 0.061054 0.059967 3.000000
-0.466955 0.013765 0.008180 3.000000
-0.466955 0.067581 -0.052979 3.000000
-0.466955 -0.037559 0.042152 3.000000
-0.466955 -0.031607 -0.002876 3.000000
-0.466955 0.012520 -0.050048 3.000000
-0.466955 -0.031842 0.026406 3.000000
-0.466955 -0.036954 -0.083337 3.000000
-0.466955 0.059362 0.074727 3.000000
-0.466955 0.024919 -0.059728 3.000000
-0.466955 0.099592 -0.007321 3.000000
-0.466955 -0.013926 -0.023043 3.000000
-0.466955 -0.077791 0.055659 3.000000
-0.466955 -0.067755 -0.043820 3.000000
-0.466955 0.049254 -0.046597 3.000000
-0.466955 0.038341 -0.065346 3.000000
-0.466955 -0.018634 0.064258 3.000000
-0.466955 0.086576 -0.026997 3.000000
-0.466955 -0.075922 -0.055268 3.000000
-0.466955 0.034141 -0.054358 3.000000
-0.466955 0.095143 -0.006020 3.000000
-0.466955 0.036876 0.059884 3.000000
-0.466955 -0.054239 -0.072488 3.000000
-0.466955 -0.057564 0.050670 3.000000
-0.466955 -0.095886 0.020913 3.000000
-0.466955 -0.068273 0.006166 3.000000
-0.466955 0.088256 0.028555 3.000000
-0.466955 -0.064656 -0.062783 3.000000
-0.466955 0.076626 0.023754 3.000000
-0.466955 -0.019928 0.011626 3.000000
-0.466955 0.046285 -0.076839 3.000000
-0.466955 -0.088643 0.041978 3.000000
-0.466955 -0.089558 0.037857 3.000000
-0.466955 -0.095145 -0.000589 3.000000
-0.466955 -0.012132 0.067707 3.000000
-0.466955 0.006813 -0.026288 3.000000
-0.466955 -0.033612 -0.009376 3.000000
-0.466955 0.060358 0.058146 3.000000
-0.466955 0.005786 -0.092282 3.000000
-0.466955 0.035092 0.027360 3.000000
-0.466955 0.076258 -0.034206 3.000000
-0.466955 0.000850 -0.046503 3.000000
-0.466955 0.001974 -0.088656 3.000000
-0.466955 0.003372 -0.082063 3.000000
-0.466955 0.025894 -0.076859 3.000000
-0.466955 -0.063001 0.007085 3.000000
-0.466955 0.050317 0.015276 3.000000
-0.466955 0.097140 -0.021988 3.000000
-0.466955 -0.065128 -0.037504 3.000000
-0.466955 -0.003917 -0.005038 3.000000
-0.466955 -0.053790 0.054997 3.000000
-0.466955 -0.013760 0.000573 3.000000
-0.466955 -0.076477 0.024278 3.000000
-0.466955 -0.093157 0.004451 3.000000
-0.466955 0.016825 0.053034 3.000000
-0.466955 0.048877 0.053440 3.000000
-0.466955 -0.038874 0.053175 3.000000
-0.466955 0.079985 0.039690 3.000000
-0.466955 -0.016131 -0.021585 3.000000
-0.466955 -0.007285 -0.005040 3.000000
-0.466955 -0.094086 0.007893 3.000000
-0.466955 -0.022396 -0.047768 3.000000
-0.466955 0.051968 0.083947 3.000000
-0.466955 -0.067137 -0.033486 3.000000
-0.466955 -0.068498 0.048231 3.000000
-0.466955 0.000536 0.080304 3.000000
-0.466955 -0.090880 -0.006896 3.000000
-0.466955 -0.026990 -0.035343 3.000000
-0.466955 0.048599 0.055217 3.000000
-0.466955 -0.018491 -0.096148 3.000000
-0.466955 0.032219 -0.046459 3.000000
-0.466955 -0.025667 -0.013652 3.000000
-0.466955 -0.023047 0.054813 3.000000
-0.466955 0.077158 0.025185 3.000000
-0.466955 -0.084537 0.038087 3.000000
-0.466955 0.043095 0.068518 3.000000
-0.466955 0.094277 -0.023830 3.000000
-0.466955 -0.087790 0.008823 3.000000
-0.466955 -0.028508 -0.030827 3.000000
-0.466955 0.045386 -0.063732 3.000000
-0.466955 0.059393 -0.060968 3.000000
-0.466955 -0.033985 -0.064989 3.000000
-0.466955 0.079965 -0.028608 3.000000
-0.466955 -0.066162 -0.065589 3.000000
-0.466955 -0.053233 -0.066253 3.000000
-0.466955 0.080174 0.004308 3.000000
-0.466955 0.008559 -0.083731 3.000000
-0.466955 -0.064143 0.055750 3.000000
-0.466955 -0.031054 0.064559 3.000000
-0.466955 0.040172 -0.088721 3.000000
-0.466955 0.006057 0.068573 3.000000
-0.466955 0.088979 0.002063 3.000000
-0.466955 -0.039768 -0.047552 3.000000
-0.466955 0.041823 0.034300 3.000000
-0.466955 -0.009638 -0.061004 3.000000
-0.466955 -0.079019 0.050481 3.000000
-0.466955 -0.006457 -0.093585 3.000000
-0.466955 -0.011077 -0.055384 3.000000
-0.466955 -0.076727 -0.011295 3.000000
-0.466955 0.009393 -0.079483 3.000000
-0.466955 0.020291 0.000852 3.000000
-0.466955 -0.085224 0.040301 3.000000
-0.466955 0.033404 0.014115 3.000000
-0.466955 0.096210 -0.007660 3.000000
-0.466955 -0.076355 -0.057004 3.000000
-0.466955 -0.036632 0.019563 3.000000
-0.466955 0.044284 0.020447 3.000000
-0.466955 -0.044558 0.017177 3.000000
-0.466955 0.073571 -0.001577 3.000000
-0.466955 0.014909 -0.038226 3.000000
-0.466955 0.029810 0.088852 3.000000
-0.466955 -0.022789 -0.036207 3.000000
-0.466955 0.025897 0.002515 3.000000
-0.466955 0.069290 0.062876 3.000000
-0.466955 0.023330 -0.049894 3.000000
-0.466955 0.001429 -0.035612 3.000000
-0.466955 0.025576 -0.058352 3.000000
-0.466955 0.039289 -0.050375 3.000000
-0.466955 0.076176 -0.053499 3.000000
-0.466955 0.002542 -0.092948 3.000000
-0.466955 0.042481 0.059710 3.000000
-0.466955 0.038452 0.040983 3.000000
-0.466955 0.049917 -0.049486 3.000000
-0.466955 -0.077068 0.020337 3.000000
-0.466955 -0.002008 -0.070189 3.000000
-0.466955 -0.093679 -0.029397 3.000000
-0.466955 -0.010338 0.035571 3.000000
-0.466955 -0.060639 0.038893 3.000000
-0.466955 -0.051989 -0.050022 3.000000
-0.466955 -0.040960 0.058566 3.000000
-0.466955 -0.002868 -0.026300 3.000000
-0.466955 -0.036357 -0.051066 3.000000
-0.466955 0.006148 0.035932 3.000000
-0.466955 -0.027289 0.073108 3.000000
-0.466955 -0.073036 -0.042545 3.000000
-0.466955 -0.055394 -0.036673 3.000000
-0.466955 0.035909 0.045272 3.000000
-0.466955 -0.057836 -0.080107 3.000000
-0.466955 0.082548 -0.024653 3.000000
-0.466955 -0.019091 0.003927 3.000000
-0.466955 -0.055004 -0.015792 3.000000
-0.466955 0.007557 0.007265 3.000000
-0.466955 -0.061115 0.019872 3.000000
-0.466955 -0.033349 0.073305 3.000000
-0.466955 0.083729 0.025073 3.000000
-0.466955 0.010346 -0.028994 3.000000
-0.466955 0.029382 0.083236 3.000000
-0.466955 -0.074754 -0.006414 3.000000
-0.466955 -0.048286 -0.041904 3.000000
-0.466955 0.054698 -0.074493 3.000000
-0.466955 0.068106 -0.008039 3.000000
-0.466955 -0.060586 -0.065201 3.000000
-0.466955 -0.027366 0.056875 3.000000
-0.466955 0.099321 -0.009713 3.000000
-0.466955 -0.033760 0.061587 3.000000
-0.466955 -0.004706 -0.009901 3.000000
-0.466955 0.004381 0.000555 3.000000
-0.466955 0.034287 -0.073447 3.000000
-0.466955 -0.027305 0.069908 3.000000
-0.466955 0.070629 -0.013915 3.000000
