0.465339 0.014087 -0.008309 2.000000
0.465339 0.089262 0.011965 2.000000
0.465339 0.024477 -0.039287 2.000000
0.465339 0.091823 -0.013850 2.000000
0.465339 0.045306 -0.013782 2.000000
0.465339 0.065418 0.048557 2.000000
0.465339 -0.010230 -0.014868 2.000000
0.465339 0.002768 0.082400 2.000000
0.465339 0.012629 0.079479 2.000000
0.465339 0.033649 0.080803 2.000000
0.465339 -0.043973 0.071607 2.000000
0.465339 -0.072450 0.067000 2.000000
0.465339 0.073703 0.003362 2.000000
0.465339 0.074871 -0.016022 2.000000
0.465339 0.028556 0.092178 2.000000
0.465339 0.063950 0.069313 2.000000
0.465339 -0.007780 0.032766 2.000000
0.465339 0.008182 0.076471 2.000000
0.465339 0.057396 0.003614 2.000000
0.465339 -0.025061 0.049201 2.000000
0.465339 0.079284 -0.026501 2.000000
0.465339 -0.018100 -0.094698 2.000000
0.465339 -0.013615 0.025060 2.000000
0.465339 -0.016444 0.031117 2.000000
0.465339 0.078274 -0.025118 2.000000
0.465339 -0.018670 0.025045 2.000000
0.465339 0.064040 -0.047309 2.000000
0.465339 -0.097645 -0.009895 2.000000
0.465339 0.026828 -0.073252 2.000000
0.465339 0.010371 0.087023 2.000000
0.465339 0.013764 -0.032062 2.000000
0.465339 0.060159 0.060701 2.000000
0.465339 0.022444 0.003425 2.000000
0.465339 -0.011648 -0.047213 2.000000
0.465339 -0.031580 0.060346 2.000000
0.465339 0.013591 -0.088266 2.000000
0.465339 -0.071884 0.009949 2.000000
0.465339 0.010701 -0.005270 2.000000
0.465339 -0.022087 0.038660 2.000000
0.465339 -0.021902 0.090444 2.000000
0.465339 0.068011 0.013409 2.000000
0.465339 0.023422 0.024744 2.000000
0.465339 -0.026114 0.048271 2.000000
0.465339 0.038842 -0.066561 2.000000
0.465339 0.015756 0.047010 2.000000
0.465339 0.028512 0.057790 2.000000
0.465339 0.068247 0.011862 2.000000
0.465339 -0.047063 -0.031205 2.000000
0.465339 -0.033748 0.055763 2.000000
0.465339 -0.008982 0.041844 2.000000
0.465339 -0.069952 -0.003868 2.000000
0.465339 -0.052231 0.023537 2.000000
0.465339 -0.054461 0.058645 2.000000
0.465339 0.056357 -0.027052 2.000000
0.465339 0.081159 0.045276 2.000000
0.465339 0.072208 -0.030485 2.000000
0.465339 0.023814 -0.054224 2.000000
0.465339 0.073337 0.064510 2.000000
0.465339 0.011094 0.023406 2.000000
0.465339 -0.071569 0.007372 2.000000
0.465339 -0.091091 -0.019311 2.000000
0.465339 -0.075962 -0.028991 2.000000
0.465339 -0.038279 0.007083 2.000000
0.465339 0.003656 -0.059722 2.000000
0.465339 -0.044953 0.019141 2.000000
0.465339 -0.030037 -0.046071 2.000000
0.465339 -0.031445 0.037683 2.000000
0.465339 -0.030818 0.049992 2.000000
0.465339 -0.078285 0.060791 2.000000
0.465339 0.099480 0.008874 2.000000
0.465339 -0.046153 -0.004991 2.000000
0.465339 -0.012112 0.089625 2.000000
0.465339 -0.061321 0.014812 2.000000
0.465339 0.075781 0.036081 2.000000
0.465339 0.056003 0.074005 2.000000
0.465339 -0.016984 -0.040051 2.000000
0.465339 0.053900 0.050069 2.000000
0.465339 -0.060981 -0.054728 2.000000
0.465339 -0.061794 0.036100 2.000000
0.465339 -0.068098 0.025232 2.000000
0.465339 -0.042924 -0.059785 2.000000
0.465339 0.028945 0.072145 2.000000
0.465339 0.035120 -0.014016 2.000000
0.465339 0.016451 0.026160 2.000000
0.465339 0.027101 0.053812 2.000000
0.465339 -0.059522 -0.060589 2.000000
0.465339 -0.013754 0.051495 2.000000
0.465339 -0.076589 0.011574 2.000000
0.465339 -0.044760 0.060328 2.000000
0.465339 0.031464 -0.020110 2.000000
0.465339 0.041017 -0.019801 2.000000
0.465339 -0.054943 -0.056874 2.000000
0.465339 0.065656 -0.016845 2.000000
0.465339 0.070510 0.032993 2.000000
0.465339 -0.063791 0.067543 2.000000
0.465339 -0.039617 -0.091078 2.000000
0.465339 0.051586 -0.008074 2.000000
0.465339 0.053103 0.025922 2.000000
0.465339 0.018892 0.067917 2.000000
0.465339 0.006898 0.009112 2.000000
0.465339 -0.028767 0.070317 2.000000
0.465339 0.062010 0.034316 2.000000
0.465339 0.014173 0.031699 2.000000
0.465339 -0.029740 0.004463 2.000000
0.465339 -0.082226 -0.021946 2.000000
0.465339 -0.009018 -0.032859 2.000000
0.465339 -0.073649 -0.002018 2.000000
0.465339 0.022344 0.040320 2.000000
0.465339 0.014394 -0.036459 2.000000
0.465339 0.012047 0.013418 2.000000
0.465339 -0.060634 0.063609 2.000000
0.465339 -0.008644 -0.087789 2.000000
0.465339 -0.093853 0.002340 2.000000
0.465339 0.045234 -0.048755 2.000000
0.465339 -0.034775 -0.005147 2.000000
0.465339 -0.086300 0.031505 2.000000
0.465339 -0.091439 -0.027367 2.000000
0.465339 -0.051680 0.085477 2.000000
0.465339 0.042086 0.021586 2.000000
0.465339 -0.077222 0.053619 2.000000
0.465339 0.050268 -0.042278 2.000000
0.465339 0.016276 -0.090809 2.000000
0.465339 -0.002080 0.019206 2.000000
0.465339 0.015427 0.093512 2.000000
0.465339 -0.075127 -0.016429 2.000000
0.465339 0.026225 -0.089663 2.000000
0.465339 0.018310 0.013704 2.000000
0.465339 0.052424 0.061333 2.000000
0.465339 0.002207 0.027795 2.000000
0.465339 -0.035908 0.014345 2.000000
0.465339 0.038678 -0.072227 2.000000
0.465339 -0.023402 0.036182 2.000000
0.465339 -0.083278 0.001942 2.000000
0.465339 0.011779 -0.075385 2.000000
0.465339 -0.004233 -0.078437 2.000000
0.465339 -0.014467 -0.006111 2.000000
0.465339 -0.032064 0.064155 2.000000
0.465339 -0.019889 -0.096898 2.000000
0.465339 0.085524 0.037772 2.000000
0.465339 -0.051253 0.046642 2.000000
0.465339 0.071945 0.055897 2.000000
0.465339 0.046989 0.083545 2.000000
0.465339 -0.050810 -0.019705 2.000000
0.465339 0.044075 0.049214 2.000000
0.465339 -0.046954 -0.052398 2.000000
0.465339 0.062508 -0.012867 2.000000
0.465339 0.021390 0.077984 2.000000
0.465339 -0.009503 0.057269 2.000000
0.465339 -0.026772 0.075325 2.000000
0.465339 0.097955 0.011370 2.000000
0.465339 0.021034 -0.092814 2.000000
0.465339 0.088095 -0.015824 2.000000
0.465339 0.098075 0.018731 2.000000
0.465339 -0.007764 0.064158 2.000000
0.465339 0.050515 0.011083 2.000000
0.465339 -0.068057 0.007541 2.000000
0.465339 0.039614 0.005157 2.000000
0.465339 -0.048241 0.020988 2.000000
0.465339 0.027245 -0.019068 2.000000
0.465339 -0.039829 -0.028658 2.000000
0.465339 0.059240 0.064072 2.000000
0.465339 -0.023965 -0.039280 2.000000
0.465339 0.040992 0.019374 2.000000
0.465339 0.008072 0.042489 2.000000
0.465339 -0.051524 0.004316 2.000000
0.465339 0.076308 0.046855 2.000000
0.465339 -0.015677 0.086142 2.000000
0.465339 -0.041735 -0.053233 2.000000
0.465339 0.036949 0.016640 2.000000
0.465339 -0.004265 0.083780 2.000000
0.465339 -0.019270 -0.002693 2.000000
0.465339 -0.035017 0.000152 2.000000
0.465339 -0.026004 0.059816 2.000000
0.465339 -0.053531 -0.015405 2.000000
0.465339 -0.041204 -0.041272 2.000000
0.465339 -0.006870 0.003526 2.000000
0.465339 -0.050581 -0.015808 2.000000
0.465339 -0.006138 0.023963 2.000000
0.465339 -0.064511 -0.021960 2.000000
0.465339 0.006100 -0.086988 2.000000
0.465339 0.029734 0.023582 2.000000
0.465339 0.069476 -0.041442 2.000000
0.465339 0.003658 0.089261 2.000000
0.465339 0.017123 0.087746 2.000000
0.465339 -0.089652 -0.034323 2.000000
0.465339 -0.072208 0.035417 2.000000
0.465339 0.044021 0.070217 2.000000
0.465339 -0.038835 0.080074 2.000000
0.465339 0.039886 -0.000646 2.000000
0.465339 -0.040706 0.062762 2.000000
0.465339 0.026722 -0.037173 2.000000
0.465339 -0.034101 0.042419 2.000000
0.465339 -0.042394 0.074781 2.000000
0.465339 -0.061694 0.007340 2.000000
0.465339 -0.058309 -0.057562 2.000000
0.465339 0.033400 -0.005349 2.000000
0.465339 0.049546 -0.071666 2.000000
0.465339 -0.062661 -0.037833 2.000000
0.465339 -0.073114 -0.042510 2.000000
0.465339 -0.034822 0.051891 2.000000
0.465339 -0.079088 -0.055922 2.000000
0.465339 -0.026249 0.027981 2.000000
0.465339 -0.080420 0.041551 2.000000
0.465339 0.018711 0.048597 2.000000
0.465339 0.028148 -0.041744 2.000000
0.465339 0.021194 -0.013761 2.000000
0.465339 -0.069022 0.051958 2.000000
0.465339 -0.028670 -0.063234 2.000000
0.465339 -0.041504 -0.082401 2.000000
0.465339 0.030759 0.045835 2.000000
0.465339 -0.044649 0.034838 2.000000
0.465339 0.063841 0.050251 2.000000
0.465339 0.039565 0.060545 2.000000
0.465339 -0.030310 0.091439 2.000000
0.465339 -0.045436 0.072232 2.000000
0.465339 -0.033641 0.030942 2.000000
0.465339 -0.086799 0.019186 2.000000
0.465339 -0.020161 -0.040657 2.000000
0.465339 -0.028696 -0.025911 2.000000
0.465339 0.055017 0.008557 2.000000
0.465339 0.041994 -0.048086 2.000000
0.465339 0.023623 0.075241 2.000000
0.465339 0.042143 -0.062880 2.000000
0.465339 -0.045809 -0.077637 2.000000
0.465339 -0.041816 -0.086694 2.000000
0.465339 -0.023430 0.005179 2.000000
0.465339 -0.098187 0.016899 2.000000
0.465339 0.065660 0.063226 2.000000
0.465339 -0.012208 -0.073431 2.000000
0.465339 0.070808 -0.051149 2.000000
0.465339 0.012319 -0.059011 2.000000
0.465339 -0.018971 -0.051842 2.000000
0.465339 -0.049660 0.042763 2.000000
0.465339 0.077634 0.030208 2.000000
0.465339 0.003657 -0.045847 2.000000
0.465339 -0.041342 0.020530 2.000000
0.465339 0.030784 -0.078209 2.000000
0.465339 0.048068 -0.081381 2.000000
0.465339 0.069151 0.067566 2.000000
0.465339 -0.016070 -0.042843 2.000000
0.465339 0.055934 0.033415 2.000000
0.465339 -0.080227 -0.027251 2.000000
0.465339 -0.037617 0.038807 2.000000
0.465339 -0.003945 -0.039234 2.000000
0.465339 -0.091454 -0.038034 2.000000
0.465339 -0.025381 -0.074284 2.000000
0.465339 -0.038416 -0.033460 2.000000
0.465339 -0.062903 -0.007250 2.000000
0.465339 -0.076216 -0.043533 2.000000
0.465339 -0.070220 0.008258 2.000000
0.465339 0.002871 -0.073288 2.000000
0.465339 -0.062966 0.041721 2.000000
0.465339 -0.014315 0.048993 2.000000
0.465339 0.015820 -0.069680 2.000000
0.465339 -0.085061 -0.021102 2.000000
0.465339 -0.015262 0.016299 2.000000
0.465339 0.056466 -0.063346 2.000000
0.465339 0.054193 0.067750 2.000000
0.465339 0.023520 -0.048299 2.000000
0.465339 0.007746 -0.003893 2.000000
0.465339 0.004452 0.085489 2.000000
0.465339 0.001542 -0.096159 2.000000
0.465339 -0.082090 0.025925 2.000000
0.465339 0.081515 0.042213 2.000000
0.465339 -0.076126 -0.052159 2.000000
0.465339 0.055557 0.020377 2.000000
0.465339 -0.077622 0.035249 2.000000
0.465339 -0.018484 -0.097864 2.000000
0.465339 0.009508 -0.077066 2.000000
0.465339 0.078785 0.022722 2.000000
0.465339 0.074582 -0.048238 2.000000
0.465339 0.072936 0.047555 2.000000
0.465339 -0.021117 -0.028473 2.000000
0.465339 0.052027 0.065694 2.000000
0.465339 0.032209 0.044137 2.000000
0.465339 0.090820 -0.037269 2.000000
0.465339 0.056513 0.045452 2.000000
0.465339 -0.013896 -0.051940 2.000000
0.465339 0.056244 -0.064994 2.000000
0.465339 0.027286 0.091237 2.000000
0.465339 -0.007014 0.061104 2.000000
0.465339 0.075956 -0.001079 2.000000
0.465339 -0.014123 0.028220 2.000000
0.465339 -0.021850 0.018822 2.000000
0.465339 0.053251 -0.036981 2.000000
0.465339 0.025831 0.016968 2.000000
0.465339 -0.082883 -0.052970 2.000000
0.465339 0.017732 -0.016785 2.000000
0.465339 -0.064651 0.055810 2.000000
0.465339 0.027544 0.062034 2.000000
0.465339 -0.059904 0.055357 2.000000
0.465339 -0.003705 0.080632 2.000000
0.465339 -0.064213 0.057380 2.000000
0.465339 -0.010721 0.031793 2.000000
0.465339 -0.012633 -0.096168 2.000000
0.465339 -0.079459 -0.046750 2.000000
0.465339 -0.038329 -0.079948 2.000000
0.465339 0.020554 -0.065353 2.000000
0.465339 0.017637 0.075574 2.000000
0.465339 0.018544 0.070474 2.000000
0.465339 -0.001997 -0.038529 2.000000
0.465339 -0.077500 -0.006884 2.000000
0.465339 0.021139 0.045183 2.000000
0.465339 -0.004340 0.063874 2.000000
0.465339 -0.045631 0.061449 2.000000
0.465339 0.009501 -0.051916 2.000000
0.465339 -0.092638 0.036314 2.000000
0.465339 0.056095 -0.019397 2.000000
0.465339 0.094701 0.010540 2.000000
0.465339 -0.002986 0.023130 2.000000
0.465339 -0.034061 0.090670 2.000000
0.465339 0.060787 -0.076454 2.000000
0.465339 -0.039441 -0.041690 2.000000
0.465339 0.087066 -0.032742 2.000000
0.465339 0.068778 -0.052000 2.000000
0.465339 0.079357 0.030589 2.000000
0.465339 -0.044779 -0.012358 2.000000
0.465339 0.083174 -0.042467 2.000000
0.465339 -0.080598 -0.008582 2.000000
0.465339 0.031503 -0.066527 2.000000
0.465339 0.049298 -0.039996 2.000000
0.465339 0.079570 0.005789 2.000000
0.465339 0.030719 -0.045141 2.000000
0.465339 0.086704 0.026453 2.000000
0.465339 -0.031838 -0.045474 2.000000
0.465339 -0.008392 -0.030333 2.000000
0.465339 -0.030474 -0.094731 2.000000
0.465339 -0.054731 -0.027604 2.000000
0.465339 -0.000050 -0.001916 2.000000
0.465339 0.009610 0.010928 2.000000
0.465339 -0.043723 0.012824 2.000000
0.465339 -0.060078 -0.004615 2.000000
0.465339 -0.068244 0.062529 2.000000
0.465339 -0.021194 -0.036260 2.000000
0.465339 0.060011 -0.048076 2.000000
0.465339 -0.030456 -0.018756 2.000000
0.465339 0.039143 0.000983 2.000000
0.465339 0.071542 0.008583 2.000000
0.465339 0.048896 -0.060666 2.000000
0.465339 -0.048099 0.009621 2.000000
0.465339 -0.072552 -0.006515 2.000000
0.465339 0.011579 0.041485 2.000000
0.465339 0.050333 -0.073560 2.000000
0.465339 -0.029461 0.011812 2.000000
0.465339 0.018720 -0.017981 2.000000
0.465339 -0.055864 -0.010551 2.000000
0.465339 0.045682 -0.085512 2.000000
0.465339 -0.000299 0.057596 2.000000
0.465339 -0.058696 0.017008 2.000000
0.465339 0.021201 0.031390 2.000000
0.465339 0.062589 0.053656 2.000000
0.465339 -0.045582 0.052541 2.000000
0.465339 -0.025241 -0.087404 2.000000
0.465339 0.034793 -0.012262 2.000000
0.465339 -0.022591 0.050058 2.000000
0.465339 0.054834 0.045757 2.000000
0.465339 -0.000478 0.050075 2.000000
0.465339 0.091032 0.005054 2.000000
0.465339 0.060088 0.055480 2.000000
0.465339 -0.052471 -0.045250 2.000000
0.465339 0.037837 0.005722 2.000000
0.465339 -0.060244 0.020679 2.000000
0.465339 -0.043626 0.039575 2.000000
0.465339 -0.011421 -0.004750 2.000000
0.465339 0.047757 0.003914 2.000000
0.465339 -0.010013 -0.048379 2.000000
0.465339 -0.013732 0.069998 2.000000
0.465339 -0.093013 -0.019304 2.000000
0.465339 -0.066796 -0.021778 2.000000
0.465339 -0.040238 0.088605 2.000000
0.465339 0.031043 -0.069811 2.000000
0.465339 -0.002392 -0.088038 2.000000
0.465339 0.011685 0.007707 2.000000
0.465339 -0.062560 0.003412 2.000000
0.465339 0.036113 -0.090681 2.000000
0.465339 -0.075581 -0.034436 2.000000
0.465339 0.060851 0.012907 2.000000
0.465339 -0.003472 -0.089270 2.000000
0.465339 -0.036084 -0.056130 2.000000
0.465339 -0.040668 -0.017192 2.000000
0.465339 0.023840 -0.056111 2.000000
0.465339 -0.025224 -0.011823 2.000000
0.465339 0.067239 0.056581 2.000000
0.465339 0.053048 -0.011607 2.000000
0.465339 0.061754 0.017572 2.000000
0.465339 0.084183 0.003860 2.000000
0.465339 0.005705 0.086219 2.000000
0.465339 0.058794 -0.007605 2.000000
0.465339 -0.016288 -0.038577 2.000000
0.465339 0.030037 0.030709 2.000000
0.465339 0.035635 0.086426 2.000000
0.465339 -0.047158 0.072717 2.000000
0.465339 0.044947 -0.042209 2.000000
0.465339 -0.028041 0.007241 2.000000
0.465339 -0.020603 0.064191 2.000000
0.465339 0.002230 -0.018126 2.000000
0.465339 0.020442 0.011526 2.000000
0.465339 -0.026294 0.024177 2.000000
0.465339 -0.022186 0.028044 2.000000
0.465339 0.070561 -0.031855 2.000000
0.465339 -0.000853 -0.000740 2.000000
0.465339 0.031322 0.042533 2.000000
0.465339 -0.025154 0.058758 2.000000
0.465339 -0.012501 -0.013575 2.000000
0.465339 0.090891 0.001965 2.000000
0.465339 0.017320 -0.001784 2.000000
0.465339 0.009707 0.074929 2.000000
0.465339 0.027122 -0.047761 2.000000
0.465339 -0.094976 0.009834 2.000000
0.465339 0.085492 0.014212 2.000000
0.465339 0.081217 0.021241 2.000000
0.465339 0.064984 0.070821 2.000000
0.465339 0.012965 -0.070524 2.000000
0.465339 0.033761 -0.093310 2.000000
0.465339 0.019576 -0.062861 2.000000
0.465339 0.008992 0.035858 2.000000
0.465339 0.019117 0.063636 2.000000
0.465339 0.079031 0.015662 2.000000
0.465339 -0.045161 0.070106 2.000000
0.465339 0.048564 -0.053160 2.000000
0.465339 0.078925 -0.040746 2.000000
0.465339 0.068892 0.025413 2.000000
0.465339 -0.073012 0.022312 2.000000
0.465339 0.020153 0.072251 2.000000
0.465339 -0.052047 -0.016351 2.000000
0.465339 -0.052353 -0.012095 2.000000
0.465339 0.086318 0.024884 2.000000
0.465339 -0.043037 0.051026 2.000000
0.465339 0.030980 -0.015230 2.000000
0.465339 -0.003525 -0.053056 2.000000
0.465339 0.012816 0.005915 2.000000
0.465339 -0.082039 0.006557 2.000000
0.465339 -0.056914 0.032568 2.000000
0.465339 -0.010472 -0.071359 2.000000
0.465339 -0.042010 0.067509 2.000000
0.465339 0.026238 -0.020328 2.000000
0.465339 -0.074114 -0.060707 2.000000
0.465339 -0.030817 0.065494 2.000000
0.465339 0.092921 0.019569 2.000000
0.465339 -0.020899 0.026820 2.000000
0.465339 0.033089 0.090793 2.000000
0.465339 -0.044723 0.036336 2.000000
0.465339 -0.041460 0.051975 2.000000
0.465339 0.034761 0.055640 2.000000
0.465339 0.013211 0.052938 2.000000
0.465339 -0.085153 -0.037664 2.000000
0.465339 -0.060018 0.040323 2.000000
0.465339 0.067595 0.064648 2.000000
0.465339 -0.069505 0.065480 2.000000
0.465339 -0.029633 0.066426 2.000000
0.465339 0.024293 -0.094384 2.000000
0.465339 0.069496 0.030204 2.000000
0.465339 -0.001628 0.011562 2.000000
0.465339 -0.043406 0.000588 2.000000
0.465339 0.077055 0.018517 2.000000
0.465339 -0.062639 0.068413 2.000000
0.465339 -0.036541 0.021036 2.000000
0.465339 0.050465 0.028914 2.000000
0.465339 -0.009385 0.005374 2.000000
0.465339 -0.040346 0.037599 2.000000
0.465339 -0.034760 0.009476 2.000000
0.465339 0.016893 0.028908 2.000000
0.465339 -0.078768 0.052478 2.000000
0.465339 0.013758 -0.010913 2.000000
0.465339 -0.007174 0.062774 2.000000
0.465339 -0.024842 0.068030 2.000000
0.465339 0.016491 -0.035033 2.000000
0.465339 -0.014561 0.007494 2.000000
0.465339 0.096875 0.024647 2.000000
0.465339 0.068517 0.023370 2.000000
0.465339 -0.050293 -0.047771 2.000000
0.465339 0.035377 0.078193 2.000000
0.465339 0.020780 -0.087204 2.000000
0.465339 -0.084190 -0.052553 2.000000
0.465339 -0.044659 0.063635 2.000000
0.465339 0.009202 0.021685 2.000000
0.465339 -0.007222 0.022202 2.000000
0.465339 0.017018 0.073925 2.000000
0.465339 -0.084559 0.009931 2.000000
0.465339 0.061336 0.047326 2.000000
0.465339 -0.039698 0.033994 2.000000
0.465339 0.057759 -0.038496 2.000000
0.465339 0.088258 0.030911 2.000000
0.465339 -0.067884 -0.067779 2.000000
0.465339 0.084936 -0.035129 2.000000
0.465339 -0.099353 -0.001917 2.000000
0.465339 0.042734 -0.007109 2.000000
0.465339 -0.055531 0.038669 2.000000
0.465339 -0.031966 -0.061207 2.000000
0.465339 0.080534 -0.023664 2.000000
0.465339 0.038596 0.087044 2.000000
0.465339 0.027424 -0.057033 2.000000
0.465339 0.043665 -0.026979 2.000000
0.465339 -0.032040 0.031371 2.000000
0.465339 0.029828 -0.053212 2.000000
0.465339 0.054836 0.083044 2.000000
0.465339 0.011470 0.038696 2.000000
0.465339 0.034120 0.093496 2.000000
0.465339 -0.052873 -0.073676 2.000000
0.465339 0.039299 -0.003182 2.000000
0.465339 -0.009490 -0.013469 2.000000
0.465339 -0.015540 0.042032 2.000000
0.465339 -0.063636 -0.028914 2.000000
0.465339 -0.085650 -0.043979 2.000000
0.465339 -0.022141 -0.020872 2.000000
0.465339 -0.054182 -0.026296 2.000000
0.465339 0.015070 0.077028 2.000000
0.465339 0.016937 -0.040603 2.000000
0.465339 0.026672 -0.052883 2.000000
0.465339 -0.077437 0.008634 2.000000
0.465339 -0.036751 0.019311 2.000000
0.465339 0.083311 0.054756 2.000000
0.465339 0.003744 0.058002 2.000000
0.465339 0.017110 0.031179 2.000000
0.465339 -0.071201 0.034116 2.000000
0.465339 -0.037402 0.088311 2.000000
0.465339 -0.052695 -0.004490 2.000000
0.465339 -0.055448 -0.073436 2.000000
0.465339 0.003594 -0.033358 2.000000
0.465339 0.074162 0.006174 2.000000
0.465339 0.036479 0.044398 2.000000
0.465339 0.016268 0.043739 2.000000
0.465339 -0.051364 -0.067118 2.000000
0.465339 -0.082177 0.024008 2.000000
0.465339 -0.046192 0.042369 2.000000
0.465339 0.079317 0.019150 2.000000
0.465339 -0.059817 0.078722 2.000000
0.465339 -0.029999 0.007637 2.000000
0.465339 0.034314 0.018615 2.000000
0.465339 0.022370 -0.080337 2.000000
0.465339 0.080572 -0.015044 2.000000
0.465339 -0.018463 0.087320 2.000000
0.465339 -0.028313 0.068813 2.000000
0.465339 0.097655 0.003847 2.000000
0.465339 0.025843 -0.066900 2.000000
0.465339 0.089287 0.015917 2.000000
0.465339 0.041275 0.062398 2.000000
0.465339 -0.020889 -0.062713 2.000000
0.465339 -0.075744 0.004389 2.000000
0.465339 -0.056588 0.015132 2.000000
0.465339 -0.000699 0.099933 2.000000
0.465339 0.011711 -0.079171 2.000000
0.465339 0.000674 -0.088125 2.000000
0.465339 0.000165 0.023996 2.000000
0.465339 -0.012295 -0.066009 2.000000
0.465339 0.042452 -0.075628 2.000000
0.465339 0.027631 0.012057 2.000000
0.465339 -0.053121 0.048733 2.000000
0.465339 0.080596 0.056411 2.000000
0.465339 -0.012750 0.033974 2.000000
0.465339 -0.002422 0.038091 2.000000
0.465339 0.085325 -0.019759 2.000000
0.465339 0.008671 0.099484 2.000000
0.465339 0.019821 0.002161 2.000000
0.465339 0.045196 -0.058568 2.000000
0.465339 -0.022416 -0.096226 2.000000
0.465339 0.002193 -0.066752 2.000000
0.465339 0.001280 -0.073614 2.000000
0.465339 -0.042057 -0.000762 2.000000
0.465339 0.044725 0.067174 2.000000
0.465339 -0.017655 0.052048 2.000000
0.465339 -0.036457 0.027188 2.000000
0.465339 -0.064561 0.019466 2.000000
0.465339 0.031222 -0.017854 2.000000
0.465339 0.048670 -0.066783 2.000000
0.465339 -0.095106 0.017043 2.000000
0.465339 0.023878 0.027264 2.000000
0.465339 0.066770 0.020814 2.000000
0.465339 0.003540 -0.036649 2.000000
0.465339 -0.042633 -0.054349 2.000000
0.465339 -0.005624 -0.076752 2.000000
0.465339 -0.066670 0.015265 2.000000
0.465339 0.061524 0.024219 2.000000
0.465339 -0.023553 -0.050553 2.000000
0.465339 -0.041961 0.044200 2.000000
0.465339 -0.000794 0.042434 2.000000
0.465339 -0.055077 0.011346 2.000000
0.465339 -0.021846 0.022535 2.000000
0.465339 -0.007859 -0.081609 2.000000
0.465339 0.052734 -0.031373 2.000000
0.465339 -0.024680 -0.036263 2.000000
0.465339 -0.032909 -0.021607 2.000000
0.465339 -0.029242 0.080428 2.000000
0.465339 -0.008792 0.084349 2.000000
0.465339 0.053323 -0.052380 2.000000
0.465339 -0.051515 0.052750 2.000000
0.465339 0.018127 0.090295 2.000000
0.465339 -0.042529 -0.076683 2.000000
0.465339 -0.026398 0.077041 2.000000
0.465339 0.047226 0.019517 2.000000
0.465339 -0.061307 -0.033817 2.000000
0.465339 0.047277 0.005440 2.000000
0.465339 -0.066208 0.007494 2.000000
0.465339 0.081536 -0.004506 2.000000
0.465339 -0.005765 0.094051 2.000000
0.465339 0.013031 0.057448 2.000000
0.465339 0.041178 -0.046542 2.000000
0.465339 -0.010850 -0.017524 2.000000
0.465339 0.066101 0.073649 2.000000
0.465339 -0.054706 0.047366 2.000000
0.465339 0.061945 0.031493 2.000000
0.465339 0.059376 -0.075547 2.000000
0.465339 -0.062761 -0.071250 2.000000
0.465339 0.071942 -0.017771 2.000000
0.465339 0.083090 0.005967 2.000000
0.465339 0.052109 0.045173 2.000000
0.465339 0.014552 0.090072 2.000000
0.465339 -0.074326 0.005709 2.000000
0.465339 0.047461 0.081251 2.000000
0.465339 0.048168 0.007911 2.000000
0.465339 -0.028201 -0.057612 2.000000
0.465339 0.014199 0.068778 2.000000
0.465339 0.059354 -0.013276 2.000000
0.465339 -0.064362 -0.060439 2.000000
0.465339 -0.021613 -0.088464 2.000000
0.465339 0.041633 0.056717 2.000000
0.465339 0.077130 0.012616 2.000000
0.465339 0.015384 0.088803 2.000000
0.465339 -0.008703 0.047819 2.000000
0.465339 -0.005273 -0.031303 2.000000
0.465339 0.039624 0.013964 2.000000
0.465339 0.023365 0.068102 2.000000
0.465339 0.082273 0.031508 2.000000
0.465339 0.041721 0.090663 2.000000
0.465339 -0.082665 -0.029010 2.000000
0.465339 0.015927 0.071177 2.000000
0.465339 0.025811 0.081566 2.000000
0.465339 0.046705 -0.002542 2.000000
0.465339 -0.044832 -0.055119 2.000000
0.465339 -0.084006 0.031045 2.000000
0.465339 0.023499 0.086085 2.000000
0.465339 0.029724 -0.027280 2.000000
0.465339 0.003826 -0.025569 2.000000
0.465339 -0.052271 0.056231 2.000000
0.465339 0.088959 -0.039451 2.000000
0.465339 0.059093 -0.049585 2.000000
0.465339 -0.008446 0.070019 2.000000
0.465339 -0.041902 0.089785 2.000000
0.465339 -0.041492 0.065714 2.000000
0.465339 0.062216 0.039312 2.000000
0.465339 0.021309 0.043405 2.000000
0.465339 -0.023401 0.064040 2.000000
0.465339 0.068178 -0.053591 2.000000
0.465339 -0.048138 0.015964 2.000000
0.465339 -0.055602 -0.045054 2.000000
0.465339 -0.008630 0.018937 2.000000
0.465339 -0.010706 0.003627 2.000000
0.465339 0.083126 0.018352 2.000000
0.465339 -0.052176 -0.000714 2.000000
0.465339 -0.045868 0.003360 2.000000
0.465339 -0.068422 -0.001535 2.000000
0.465339 -0.042211 -0.039928 2.000000
0.465339 0.031512 0.036783 2.000000
0.465339 -0.005137 -0.067284 2.000000
0.465339 -0.096730 0.003615 2.000000
0.465339 -0.053292 0.047221 2.000000
0.465339 0.003645 0.070953 2.000000
0.465339 0.062772 0.004878 2.000000
0.465339 0.004849 0.033803 2.000000
0.465339 -0.053295 -0.041085 2.000000
0.465339 -0.008954 0.021041 2.000000
0.465339 0.072228 0.057469 2.000000
0.465339 0.055222 -0.071242 2.000000
0.465339 -0.013198 -0.070261 2.000000
0.465339 0.044409 0.005939 2.000000
0.465339 -0.049064 -0.012348 2.000000
0.465339 -0.030711 0.034867 2.000000
0.465339 -0.081842 0.029180 2.000000
0.465339 -0.052452 0.081161 2.000000
0.465339 0.035864 -0.016687 2.000000
0.465339 -0.014163 -0.098582 2.000000
0.465339 -0.091052 -0.029825 2.000000
0.465339 -0.010960 0.044273 2.000000
0.465339 -0.072427 -0.065585 2.000000
0.465339 0.072225 -0.015628 2.000000
0.465339 0.073019 0.041780 2.000000
0.465339 -0.040917 -0.001618 2.000000
0.465339 0.006166 0.011710 2.000000
0.465339 0.046377 0.023842 2.000000
0.465339 -0.008176 0.068039 2.000000
0.465339 0.092330 0.031068 2.000000
0.465339 0.051334 0.043823 2.000000
0.465339 -0.063892 -0.076335 2.000000
0.465339 0.077395 0.036442 2.000000
0.465339 0.038591 0.059405 2.000000
0.465339 0.046847 -0.005663 2.000000
0.465339 0.006843 -0.011635 2.000000
0.465339 -0.079971 0.018748 2.000000
0.465339 -0.023438 -0.064279 2.000000
0.465339 0.014776 -0.091058 2.000000
0.465339 -0.075918 0.055034 2.000000
0.465339 -0.002816 0.085901 2.000000
0.465339 0.069130 -0.058059 2.000000
0.465339 0.041799 0.041323 2.000000
0.465339 -0.075892 -0.017999 2.000000
0.465339 0.082107 0.056298 2.000000
0.465339 0.042282 0.004569 2.000000
0.465339 0.015244 0.045235 2.000000
0.465339 0.072087 0.016077 2.000000
0.465339 0.083861 -0.030355 2.000000
0.465339 -0.049055 -0.014994 2.000000
0.465339 -0.032009 0.072423 2.000000
0.465339 0.068272 0.038542 2.000000
0.465339 -0.043422 -0.012772 2.000000
0.465339 0.007399 -0.096236 2.000000
0.465339 -0.019505 0.035277 2.000000
0.465339 -0.022319 0.051865 2.000000
0.465339 0.093407 -0.027213 2.000000
0.465339 -0.007920 -0.028923 2.000000
0.465339 -0.056119 0.052479 2.000000
0.465339 -0.000947 0.029288 2.000000
0.465339 -0.056794 0.067669 2.000000
0.465339 -0.058500 0.032245 2.000000
0.465339 0.068577 0.059843 2.000000
0.465339 -0.077858 -0.034946 2.000000
0.465339 -0.027063 0.095812 2.000000
0.465339 -0.081392 0.022761 2.000000
0.465339 0.057379 0.067276 2.000000
0.465339 -0.024050 -0.012761 2.000000
0.465339 0.045805 0.038599 2.000000
0.465339 0.029844 -0.008360 2.000000
0.465339 -0.087362 -0.003562 2.000000
0.465339 0.065195 0.043839 2.000000
0.465339 0.052383 0.081999 2.000000
0.465339 -0.009148 0.033502 2.000000
0.465339 -0.046788 -0.058898 2.000000
0.465339 -0.001994 0.063316 2.000000
0.465339 0.071030 -0.028863 2.000000
0.465339 0.063646 -0.038823 2.000000
0.465339 0.039918 -0.071175 2.000000
0.465339 0.069749 0.040038 2.000000
0.465339 0.093983 -0.028839 2.000000
0.465339 -0.035743 0.057095 2.000000
0.465339 -0.000495 -0.066230 2.000000
0.465339 0.058954 -0.077189 2.000000
0.465339 0.070629 0.007113 2.000000
0.465339 0.066516 -0.035764 2.000000
0.465339 0.098402 0.006527 2.000000
0.465339 -0.066604 -0.042113 2.000000
0.465339 -0.008367 0.097592 2.000000
0.465339 -0.007219 -0.036264 2.000000
0.465339 -0.027904 -0.073067 2.000000
0.465339 -0.002511 0.017846 2.000000
0.465339 0.007566 0.014676 2.000000
0.465339 -0.009511 0.071235 2.000000
0.465339 0.040079 0.015433 2.000000
0.465339 0.042010 -0.070561 2.000000
0.465339 -0.043916 0.021941 2.000000
0.465339 -0.077726 -0.040762 2.000000
0.465339 0.078661 0.032028 2.000000
0.465339 0.015179 -0.010926 2.000000
0.465339 -0.068908 0.000406 2.000000
0.465339 0.046827 0.062552 2.000000
0.465339 -0.015278 0.073293 2.000000
0.465339 -0.020325 -0.026512 2.000000
0.465339 -0.029980 -0.072031 2.000000
0.465339 0.030389 0.052715 2.000000
0.465339 0.037591 0.000995 2.000000
0.465339 -0.008390 -0.009666 2.000000
0.465339 -0.001112 0.032137 2.000000
0.465339 -0.011075 -0.006141 2.000000
0.465339 0.004268 0.082002 2.000000
0.465339 0.027073 -0.077113 2.000000
0.465339 -0.003463 0.034819 2.000000
0.465339 0.041593 0.084706 2.000000
0.465339 -0.097129 0.021086 2.000000
0.465339 -0.063126 0.056578 2.000000
0.465339 -0.061967 0.026874 2.000000
0.465339 0.026625 -0.060596 2.000000
0.465339 -0.051330 -0.035732 2.000000
0.465339 -0.020820 0.054462 2.000000
0.465339 -0.019587 0.092661 2.000000
0.465339 -0.063218 0.018235 2.000000
0.465339 0.069459 0.001516 2.000000
0.465339 0.047294 -0.067147 2.000000
0.465339 -0.026436 0.082114 2.000000
0.465339 -0.016815 -0.062344 2.000000
0.465339 0.053463 -0.017515 2.000000
0.465339 0.071819 -0.023571 2.000000
0.465339 -0.088209 0.033279 2.000000
0.465339 0.012688 -0.053905 2.000000
0.465339 0.036317 -0.074630 2.000000
0.465339 -0.089614 -0.010214 2.000000
0.465339 -0.043150 -0.069402 2.000000
0.465339 -0.051350 0.038520 2.000000
0.465339 -0.080355 0.056363 2.000000
0.465339 -0.002526 -0.068357 2.000000
0.465339 0.003741 -0.066851 2.000000
0.465339 -0.045825 -0.030152 2.000000
0.465339 0.050412 -0.052070 2.000000
0.465339 0.018223 -0.067764 2.000000
0.465339 0.040224 -0.068059 2.000000
0.465339 -0.048891 0.027684 2.000000
0.465339 -0.016286 -0.007050 2.000000
0.465339 -0.032315 0.050070 2.000000
0.465339 -0.059658 -0.063578 2.000000
0.465339 -0.035527 0.078406 2.000000
0.465339 -0.053798 -0.072439 2.000000
0.465339 -0.009452 -0.057748 2.000000
0.465339 -0.080596 0.043188 2.000000
0.465339 0.060661 -0.070872 2.000000
0.465339 0.021838 0.065285 2.000000
0.465339 0.062212 -0.001329 2.000000
0.465339 -0.064875 -0.064612 2.000000
0.465339 0.056580 -0.021285 2.000000
0.465339 -0.055307 -0.011861 2.000000
0.465339 -0.088264 -0.045615 2.000000
0.465339 0.065462 0.020225 2.000000
0.465339 0.057919 0.010580 2.000000
0.465339 0.075240 0.023235 2.000000
0.465339 -0.054066 -0.010789 2.000000
0.465339 0.010651 0.009451 2.000000
0.465339 -0.063744 0.076922 2.000000
0.465339 0.022161 -0.021360 2.000000
0.465339 0.013162 -0.006976 2.000000
0.465339 -0.028545 -0.007264 2.000000
0.465339 0.032283 -0.089172 2.000000
0.465339 -0.073224 0.039923 2.000000
0.465339 0.036632 0.051259 2.000000
0.465339 -0.012757 0.076016 2.000000
0.465339 0.009422 -0.034965 2.000000
0.465339 0.043285 0.082017 2.000000
0.465339 -0.055601 -0.055444 2.000000
0.465339 0.083430 -0.023678 2.000000
0.465339 -0.086891 -0.016034 2.000000
0.465339 0.067625 -0.069680 2.000000
0.465339 0.004238 0.043198 2.000000
0.465339 0.085152 0.039510 2.000000
0.465339 0.042987 0.067567 2.000000
0.465339 -0.022019 -0.003412 2.000000
0.465339 0.022054 -0.082488 2.000000
0.465339 0.016128 -0.003548 2.000000
0.465339 0.015745 -0.037691 2.000000
0.465339 -0.069635 0.033474 2.000000
0.465339 0.036667 -0.051186 2.000000
0.465339 -0.041807 -0.033030 2.000000
0.465339 0.036231 0.019698 2.000000
0.465339 -0.011144 -0.040497 2.000000
0.465339 0.082991 -0.011369 2.000000
0.465339 -0.000410 -0.052191 2.000000
0.465339 -0.042061 -0.037755 2.000000
0.465339 0.016366 -0.088703 2.000000
0.465339 -0.026484 -0.022060 2.000000
0.465339 0.033189 0.039784 2.000000
0.465339 -0.021203 0.035215 2.000000
0.465339 -0.015985 0.044077 2.000000
0.465339 0.069294 -0.031118 2.000000
0.465339 0.036239 0.001015 2.000000
0.465339 0.084350 -0.020997 2.000000
0.465339 0.055879 -0.045549 2.000000
0.465339 -0.067043 -0.029004 2.000000
0.465339 0.002426 -0.084003 2.000000
0.465339 -0.054545 0.005987 2.000000
0.465339 0.072070 0.043286 2.000000
0.465339 -0.032702 -0.012079 2.000000
0.465339 -0.018797 0.084956 2.000000
0.465339 0.080623 -0.009649 2.000000
0.465339 -0.008831 -0.089466 2.000000
0.465339 0.064494 0.029453 2.000000
0.465339 0.010241 -0.058877 2.000000
0.465339 -0.008071 -0.005499 2.000000
0.465339 -0.004308 0.046862 2.000000
0.465339 -0.020996 -0.007068 2.000000
0.465339 -0.013088 0.022484 2.000000
0.465339 -0.032828 -0.091284 2.000000
0.465339 -0.033452 0.044096 2.000000
0.465339 -0.025386 0.088455 2.000000
0.465339 0.075430 0.048516 2.000000
0.465339 -0.002694 0.046840 2.000000
0.465339 -0.033877 -0.046954 2.000000
0.465339 -0.089450 0.018741 2.000000
0.465339 -0.091401 0.005946 2.000000
0.465339 0.057161 0.000828 2.000000
0.465339 -0.030486 -0.051671 2.000000
0.465339 -0.020300 -0.048291 2.000000
0.465339 -0.023227 -0.057941 2.000000
0.465339 0.018616 0.058457 2.000000
0.465339 -0.091651 -0.025701 2.000000
0.465339 0.056999 0.041461 2.000000
0.465339 0.026479 0.025233 2.000000
0.465339 -0.046361 -0.086432 2.000000
0.465339 0.001804 0.083766 2.000000
0.465339 0.085131 -0.023713 2.000000
0.465339 0.015217 0.013802 2.000000
0.465339 0.034281 0.091856 2.000000
0.465339 -0.047058 -0.050559 2.000000
0.465339 -0.020677 -0.020999 2.000000
0.465339 -0.070466 0.053393 2.000000
0.465339 -0.016218 0.070191 2.000000
0.465339 0.095230 -0.022110 2.000000
0.465339 0.015321 -0.068037 2.000000
0.465339 0.081758 0.013784 2.000000
0.465339 -0.017512 0.032152 2.000000
0.465339 -0.061586 0.030269 2.000000
0.465339 -0.035845 -0.084395 2.000000
0.465339 0.019081 0.095479 2.000000
0.465339 -0.052950 0.058375 2.000000
0.465339 -0.043300 0.056597 2.000000
0.465339 -0.067352 0.003253 2.000000
0.465339 0.017050 -0.087382 2.000000
0.465339 0.073389 0.025422 2.000000
0.465339 -0.008761 -0.053020 2.000000
0.465339 0.093515 0.013796 2.000000
0.465339 -0.091099 0.021824 2.000000
0.465339 0.061446 0.060050 2.000000
0.465339 0.055901 -0.037720 2.000000
0.465339 0.007768 -0.044498 2.000000
0.465339 -0.032436 0.056535 2.000000
0.465339 -0.011442 0.026039 2.000000
0.465339 -0.050276 -0.075680 2.000000
0.465339 -0.028131 -0.033181 2.000000
0.465339 -0.021387 0.029160 2.000000
0.465339 -0.000973 0.033721 2.000000
0.465339 -0.016697 -0.004670 2.000000
0.465339 0.061559 0.062258 2.000000
0.465339 -0.037241 0.079239 2.000000
0.465339 0.039276 0.006809 2.000000
0.465339 0.057865 -0.026589 2.000000
0.465339 -0.006812 -0.042927 2.000000
0.465339 -0.064638 -0.036023 2.000000
0.465339 -0.021789 0.009622 2.000000
0.465339 0.046146 0.025291 2.000000
0.465339 0.064281 -0.030552 2.000000
0.465339 -0.025434 0.038229 2.000000
0.465339 0.023865 -0.086374 2.000000
0.465339 0.083706 0.045915 2.000000
0.465339 0.070938 -0.044000 2.000000
0.465339 0.043293 -0.057092 2.000000
0.465339 0.024404 0.066728 2.000000
0.465339 -0.063224 -0.067615 2.000000
0.465339 -0.056498 -0.006799 2.000000
0.465339 -0.080706 -0.021759 2.000000
0.465339 0.054715 -0.018529 2.000000
0.465339 0.021490 0.021834 2.000000
0.465339 0.009608 0.076956 2.000000
0.465339 -0.061780 -0.004021 2.000000
0.465339 0.045835 -0.074930 2.000000
0.465339 -0.082858 -0.034417 2.000000
0.465339 -0.018132 0.038530 2.000000
0.465339 -0.048969 -0.026052 2.000000
0.465339 -0.081578 -0.005679 2.000000
0.465339 0.008714 0.046154 2.000000
0.465339 0.065989 -0.032200 2.000000
0.465339 -0.027101 0.069874 2.000000
0.465339 -0.089967 -0.021126 2.000000
0.465339 -0.008378 0.093053 2.000000
0.465339 0.017234 -0.070528 2.000000
0.465339 -0.075549 -0.012757 2.000000
0.465339 -0.056573 -0.051274 2.000000
0.465339 -0.074177 0.041321 2.000000
0.465339 -0.046817 0.081436 2.000000
0.465339 0.055928 -0.070100 2.000000
0.465339 0.004863 0.098497 2.000000
0.465339 -0.066766 -0.012265 2.000000
0.465339 -0.028244 0.010413 2.000000
0.465339 -0.014015 -0.033634 2.000000
0.465339 -0.007751 -0.026844 2.000000
0.465339 0.007506 0.089044 2.000000
0.465339 0.053458 -0.015108 2.000000
0.465339 -0.058714 -0.003155 2.000000
0.465339 0.023836 -0.001176 2.000000
0.465339 0.048110 -0.062731 2.000000
0.465339 -0.069845 0.056382 2.000000
0.465339 0.015383 -0.062134 2.000000
0.465339 0.019112 0.022045 2.000000
0.465339 0.031071 0.054540 2.000000
0.465339 -0.059902 0.045786 2.000000
0.465339 0.070853 0.038617 2.000000
0.465339 0.004832 0.080633 2.000000
0.465339 -0.022041 -0.072457 2.000000
0.465339 0.015111 0.074271 2.000000
0.465339 -0.034834 0.024609 2.000000
0.465339 -0.065452 -0.010002 2.000000
0.465339 -0.057609 -0.067083 2.000000
0.465339 -0.014846 -0.080912 2.000000
0.465339 -0.031645 -0.004119 2.000000
0.465339 0.073481 -0.035959 2.000000
0.465339 0.057130 0.039855 2.000000
0.465339 -0.027470 -0.066130 2.000000
0.465339 -0.027020 -0.015404 2.000000
0.465339 0.019456 -0.073067 2.000000
0.465339 0.016154 0.077872 2.000000
0.465339 0.031815 0.049850 2.000000
0.465339 0.002493 0.088006 2.000000
0.465339 0.035131 -0.020494 2.000000
0.465339 -0.022400 -0.032476 2.000000
0.465339 -0.053873 -0.021418 2.000000
0.465339 -0.024791 -0.041882 2.000000
0.465339 0.014417 0.061252 2.000000
0.465339 0.049412 0.034856 2.000000
0.465339 0.037677 0.002423 2.000000
0.465339 -0.025288 -0.090907 2.000000
0.465339 -0.001074 -0.032432 2.000000
0.465339 -0.026563 0.050174 2.000000
0.465339 0.017912 0.001507 2.000000
0.465339 -0.031332 0.076878 2.000000
0.465339 -0.014344 -0.012897 2.000000
0.465339 -0.082462 0.032107 2.000000
0.465339 -0.049505 -0.004148 2.000000
0.465339 -0.008753 0.022751 2.000000
0.465339 0.011168 -0.061613 2.000000
0.465339 -0.058220 -0.038202 2.000000
0.465339 0.007382 -0.052834 2.000000
0.465339 -0.028283 -0.086220 2.000000
0.465339 0.065755 -0.038942 2.000000
0.465339 -0.018637 -0.089553 2.000000
0.465339 0.062567 -0.072533 2.000000
0.465339 0.018676 -0.037163 2.000000
0.465339 0.051749 -0.080323 2.000000
0.465339 -0.090569 0.035244 2.000000
0.465339 -0.004627 -0.005776 2.000000
0.465339 0.026810 0.083204 2.000000
0.465339 0.020378 0.065990 2.000000
0.465339 0.096454 -0.014421 2.000000
0.465339 0.050933 0.061283 2.000000
0.465339 -0.028349 0.077446 2.000000
0.465339 0.006270 -0.092611 2.000000
0.465339 0.036335 -0.018034 2.000000
0.465339 0.030013 0.087618 2.000000
0.465339 0.039167 0.062320 2.000000
0.465339 0.020460 -0.000464 2.000000
0.465339 0.024126 0.079201 2.000000
0.465339 0.033606 -0.010477 2.000000
0.465339 0.026691 0.040668 2.000000
0.465339 -0.021796 -0.008675 2.000000
0.465339 0.031895 -0.005649 2.000000
0.465339 0.076087 -0.052146 2.000000
0.465339 0.018890 -0.030191 2.000000
0.465339 0.041491 0.033030 2.000000
0.465339 -0.042377 0.081950 2.000000
0.465339 0.069304 -0.064315 2.000000
0.465339 -0.030393 0.001317 2.000000
0.465339 -0.000786 -0.035971 2.000000
0.465339 -0.027848 0.081857 2.000000
0.465339 -0.096810 -0.005243 2.000000
0.465339 0.059575 0.051826 2.000000
0.465339 0.089248 -0.020906 2.000000
0.465339 0.021329 0.073271 2.000000
0.465339 0.075822 0.015666 2.000000
0.465339 0.062712 0.030014 2.000000
0.465339 -0.016100 0.071957 2.000000
0.465339 -0.076555 -0.032242 2.000000
0.465339 -0.073554 0.049361 2.000000
0.465339 -0.045245 0.084427 2.000000
0.465339 0.080601 0.017109 2.000000
0.465339 -0.040677 0.026883 2.000000
0.465339 0.034906 0.025569 2.000000
0.465339 0.092187 -0.007291 2.000000
0.465339 0.037675 -0.079824 2.000000
0.465339 0.002079 0.079480 2.000000
0.465339 -0.073816 0.038226 2.000000
0.465339 -0.095865 -0.004089 2.000000
0.465339 0.032995 -0.077006 2.000000
0.465339 0.022813 0.061692 2.000000
0.465339 -0.062126 -0.056863 2.000000
0.465339 0.021769 0.014202 2.000000
0.465339 0.008056 0.019624 2.000000
0.465339 0.036670 0.029665 2.000000
0.465339 -0.056989 0.005448 2.000000
0.465339 -0.044942 -0.086267 2.000000
0.465339 0.001873 -0.013251 2.000000
0.465339 0.001859 0.033543 2.000000
0.465339 -0.051006 -0.023608 2.000000
0.465339 0.054787 0.021715 2.000000
0.465339 -0.024181 -0.092209 2.000000
0.465339 0.067804 0.053332 2.000000
0.465339 0.028763 0.086483 2.000000
0.465339 -0.041747 0.006330 2.000000
0.465339 0.065420 0.041470 2.000000
0.465339 0.083910 -0.053567 2.000000
0.465339 -0.012942 -0.021772 2.000000
0.465339 0.039136 0.012604 2.000000
0.465339 -0.040736 -0.012841 2.000000
0.465339 -0.083137 -0.006665 2.000000
0.465339 -0.034746 0.020260 2.000000
0.465339 0.012022 0.078177 2.000000
0.465339 0.070243 0.064348 2.000000
0.465339 -0.050236 0.035051 2.000000
0.465339 -0.003974 0.089016 2.000000
0.465339 0.001279 0.085651 2.000000
0.465339 0.068269 0.032674 2.000000
0.465339 -0.024790 0.005293 2.000000
0.465339 -0.017374 -0.051614 2.000000
0.465339 -0.085377 -0.000316 2.000000
0.465339 0.077677 -0.013433 2.000000
0.465339 0.085753 -0.004325 2.000000
0.465339 0.076019 0.002020 2.000000
0.465339 0.057641 -0.019080 2.000000
0.465339 0.050030 -0.007160 2.000000
0.465339 0.025127 -0.029993 2.000000
0.465339 -0.007027 0.066187 2.000000
0.465339 0.064516 -0.059531 2.000000
0.465339 0.009856 0.028914 2.000000
0.465339 0.078024 -0.000826 2.000000
0.465339 -0.047189 -0.035291 2.000000
0.465339 -0.071462 -0.057255 2.000000
0.465339 -0.010320 0.066721 2.000000
0.465339 -0.071702 -0.061067 2.000000
0.465339 -0.047173 0.059494 2.000000
0.465339 -0.026477 0.006458 2.000000
0.465339 -0.040052 -0.007862 2.000000
0.465339 0.059328 -0.079819 2.000000
0.465339 -0.022923 0.003560 2.000000
0.465339 0.088505 -0.028876 2.000000
0.465339 -0.001636 0.060816 2.000000
0.465339 0.035270 0.047217 2.000000
0.465339 0.051824 -0.081769 2.000000
0.465339 0.011456 -0.082349 2.000000
0.465339 0.061035 0.072921 2.000000
0.465339 -0.026609 0.054355 2.000000
0.465339 -0.029790 -0.027403 2.000000
0.465339 -0.042862 0.062794 2.000000
0.465339 0.067480 0.069986 2.000000
0.465339 -0.048478 0.039312 2.000000
0.465339 -0.026703 -0.062664 2.000000
0.465339 0.036987 -0.045256 2.000000
0.465339 0.030623 -0.011967 2.000000
0.465339 0.072022 -0.039323 2.000000
0.465339 -0.082463 0.012988 2.000000
0.465339 0.031111 0.079542 2.000000
0.465339 0.020955 0.059252 2.000000
0.465339 -0.045859 -0.047645 2.000000
0.465339 -0.028106 0.012847 2.000000
0.465339 0.021647 -0.004507 2.000000
0.465339 0.060098 -0.038073 2.000000
0.465339 -0.036492 -0.083112 2.000000
0.465339 0.041965 -0.008586 2.000000
0.465339 0.070822 0.009814 2.000000
0.465339 0.042815 -0.028770 2.000000
0.465339 -0.044716 0.023704 2.000000
0.465339 0.065060 0.005776 2.000000
0.465339 0.011790 -0.093852 2.000000
0.465339 0.081965 0.037668 2.000000
0.465339 -0.080946 0.040187 2.000000
0.465339 -0.054330 0.035145 2.000000
0.465339 -0.012895 0.091589 2.000000
0.465339 -0.053984 0.067201 2.000000
0.465339 0.015906 -0.012339 2.000000
0.465339 0.046127 -0.004160 2.000000
0.465339 0.019289 0.059718 2.000000
0.465339 0.047640 0.014510 2.000000
0.465339 0.017770 0.004395 2.000000
0.465339 -0.032416 -0.014165 2.000000
0.465339 0.071878 -0.036732 2.000000
0.465339 -0.015112 0.078132 2.000000
0.465339 -0.087564 0.022314 2.000000
0.465339 0.015276 -0.033915 2.000000
0.465339 -0.004271 -0.004000 2.000000
0.465339 -0.005978 -0.072087 2.000000
0.465339 -0.074413 0.028229 2.000000
0.465339 -0.043363 0.030628 2.000000
0.465339 -0.043719 -0.016084 2.000000
0.465339 0.046885 0.036862 2.000000
0.465339 0.054427 -0.024663 2.000000
0.465339 0.026410 0.075568 2.000000
0.465339 -0.018249 0.095914 2.000000
0.465339 0.031396 0.051419 2.000000
0.465339 -0.046955 0.075772 2.000000
0.465339 0.018722 -0.032399 2.000000
0.465339 -0.082894 0.030204 2.000000
0.465339 0.002266 0.065047 2.000000
0.465339 -0.015115 0.017972 2.000000
0.465339 0.016908 -0.048485 2.000000
0.465339 -0.070954 0.025634 2.000000
0.465339 -0.074496 -0.065142 2.000000
0.465339 -0.016621 -0.098104 2.000000
0.465339 -0.053649 -0.061599 2.000000
0.465339 -0.026962 -0.038885 2.000000
0.465339 0.000521 -0.024029 2.000000
0.465339 -0.070928 -0.024178 2.000000
0.465339 0.017775 -0.045379 2.000000
0.465339 -0.045337 -0.028014 2.000000
0.465339 0.036859 0.055954 2.000000
0.465339 -0.081470 0.035458 2.000000
0.465339 0.063272 0.015487 2.000000
0.465339 0.063178 0.028521 2.000000
0.465339 0.067680 0.050954 2.000000
0.465339 0.054407 -0.070017 2.000000
0.465339 -0.067066 -0.064761 2.000000
0.465339 -0.003452 0.052534 2.000000
0.465339 -0.026011 -0.032250 2.000000
0.465339 0.000840 -0.067154 2.000000
0.465339 -0.055459 0.013034 2.000000
0.465339 0.026028 0.089998 2.000000
0.465339 -0.063418 -0.047911 2.000000
0.465339 0.000035 0.072903 2.000000
0.465339 0.066160 0.025902 2.000000
0.465339 -0.041402 0.017193 2.000000
0.465339 0.039738 -0.089714 2.000000
0.465339 0.088180 0.010720 2.000000
0.465339 0.038790 0.051158 2.000000
0.465339 -0.028227 -0.034785 2.000000
0.465339 0.033333 0.052665 2.000000
0.465339 -0.014344 -0.003139 2.000000
0.465339 0.063682 0.044291 2.000000
0.465339 0.046510 0.072099 2.000000
0.465339 -0.002068 0.002049 2.000000
0.465339 0.029740 -0.092544 2.000000
0.465339 0.020108 0.048297 2.000000
0.465339 -0.017472 -0.096290 2.000000
0.465339 0.060870 -0.012600 2.000000
0.465339 0.002556 -0.014849 2.000000
0.465339 -0.017454 -0.037337 2.000000
0.465339 0.022068 -0.014993 2.000000
0.465339 -0.046020 0.022703 2.000000
0.465339 0.061447 -0.067719 2.000000
0.465339 -0.056086 -0.079386 2.000000
0.465339 -0.075484 -0.014268 2.000000
0.465339 0.011350 0.043111 2.000000
0.465339 -0.052599 -0.013852 2.000000
0.465339 0.065058 0.068346 2.000000
0.465339 -0.007644 0.054800 2.000000
0.465339 0.063123 -0.026925 2.000000
0.465339 -0.027226 0.093692 2.000000
0.465339 0.050207 -0.003084 2.000000
0.465339 0.075379 0.063091 2.000000
0.465339 0.001505 -0.055790 2.000000
0.465339 0.007522 0.083122 2.000000
0.465339 0.005306 0.075276 2.000000
0.465339 0.019255 -0.003270 2.000000
0.465339 -0.036368 -0.061129 2.000000
0.465339 -0.016124 -0.054456 2.000000
0.465339 -0.056608 0.036942 2.000000
0.465339 -0.001529 0.025254 2.000000
0.465339 0.006927 -0.033690 2.000000
0.465339 0.036845 0.089676 2.000000
0.465339 -0.025916 -0.071639 2.000000
0.465339 0.044645 -0.078665 2.000000
0.465339 -0.012722 -0.037901 2.000000
0.465339 -0.058143 0.030593 2.000000
0.465339 0.082793 0.015559 2.000000
0.465339 -0.036570 -0.037591 2.000000
0.465339 0.010302 -0.040423 2.000000
0.465339 0.019757 0.027772 2.000000
0.465339 0.022536 -0.026401 2.000000
0.465339 -0.023457 0.053685 2.000000
0.465339 -0.045640 0.028316 2.000000
0.465339 -0.041320 0.001420 2.000000
0.465339 -0.037176 0.001088 2.000000
0.465339 0.025294 0.043476 2.000000
0.465339 0.000720 -0.057166 2.000000
0.465339 0.044051 0.033927 2.000000
0.465339 0.085859 0.020135 2.000000
0.465339 -0.052461 -0.064679 2.000000
0.465339 -0.039902 -0.082284 2.000000
0.465339 0.077459 -0.048676 2.000000
0.465339 -0.056577 -0.052649 2.000000
0.465339 -0.068115 -0.020779 2.000000
0.465339 0.078294 -0.042309 2.000000
0.465339 -0.005981 -0.048641 2.000000
0.465339 0.039938 0.049708 2.000000
0.465339 0.057058 -0.049342 2.000000
0.465339 -0.089428 0.031325 2.000000
0.465339 -0.013081 0.062310 2.000000
0.465339 0.034424 -0.065908 2.000000
0.465339 0.049112 0.014632 2.000000
0.465339 0.033922 -0.041739 2.000000
0.465339 -0.027177 0.009545 2.000000
0.465339 0.013143 -0.012751 2.000000
0.465339 0.083067 -0.008658 2.000000
0.465339 -0.007063 0.070025 2.000000
0.465339 0.051552 0.012707 2.000000
0.465339 -0.081193 0.017511 2.000000
0.465339 -0.090636 -0.008831 2.000000
0.465339 0.017534 -0.093023 2.000000
0.465339 0.019328 -0.079810 2.000000
0.465339 -0.038581 -0.043094 2.000000
0.465339 0.015840 -0.055547 2.000000
0.465339 -0.016332 -0.022091 2.000000
0.465339 0.060593 -0.007243 2.000000
0.465339 -0.093125 0.008824 2.000000
0.465339 0.047332 -0.065656 2.000000
0.465339 0.050459 -0.029894 2.000000
0.465339 -0.037454 0.076849 2.000000
0.465339 0.035473 -0.088323 2.000000
0.465339 -0.040632 -0.069855 2.000000
0.465339 -0.043172 0.054857 2.000000
0.465339 0.062474 -0.030822 2.000000
0.465339 0.007536 0.043958 2.000000
0.465339 0.017650 0.061564 2.000000
0.465339 0.024996 0.022661 2.000000
0.465339 -0.037789 0.025511 2.000000
0.465339 -0.074392 -0.023769 2.000000
0.465339 0.084218 0.044216 2.000000
0.465339 0.023181 0.063083 2.000000
0.465339 -0.070278 -0.052924 2.000000
0.465339 0.038135 -0.050154 2.000000
0.465339 -0.034566 0.089306 2.000000
0.465339 0.088710 0.034437 2.000000
0.465339 -0.048644 -0.008488 2.000000
0.465339 -0.061280 -0.040320 2.000000
0.465339 -0.087679 -0.001822 2.000000
0.465339 -0.043530 -0.083521 2.000000
0.465339 0.009639 -0.068336 2.000000
0.465339 -0.019862 -0.013885 2.000000
0.465339 0.071912 -0.027591 2.000000
0.465339 -0.027554 -0.056226 2.000000
0.465339 0.067158 0.054755 2.000000
