-0.466955 0.033118 -0.058881 3.000000
-0.466955 -0.006598 -0.056794 3.000000
-0.466955 -0.015205 -0.007659 3.000000
-0.466955 -0.068972 0.006101 3.000000
-0.466955 -0.028651 0.011171 3.000000
-0.466955 0.043468 -0.051204 3.000000
-0.466955 -0.026704 -0.020344 3.000000
-0.466955 0.051874 0.000387 3.000000
-0.466955 0.076511 -0.058683 3.000000
-0.466955 0.073718 0.031519 3.000000
-0.466955 -0.015341 0.098498 3.000000
-0.466955 0.083147 -0.047308 3.000000
-0.466955 0.085136 0.005446 3.000000
-0.466955 -0.015156 0.015242 3.000000
-0.466955 0.007604 0.044781 3.000000
-0.466955 0.043304 -0.007633 3.000000
-0.466955 -0.047203 -0.009882 3.000000
-0.466955 -0.040045 0.087563 3.000000
-0.466955 -0.072832 -0.031938 3.000000
-0.466955 -0.011845 -0.019699 3.000000
-0.466955 0.057548 0.008392 3.000000
-0.466955 -0.005361 0.084694 3.000000
-0.466955 0.012779 -0.071586 3.000000
-0.466955 -0.083158 0.013232 3.000000
-0.466955 -0.005947 0.012919 3.000000
-0.466955 0.032406 0.015746 3.000000
-0.466955 0.015771 0.025236 3.000000
-0.466955 0.029828 0.079771 3.000000
-0.466955 -0.015180 0.026850 3.000000
-0.466955 -0.087415 -0.035527 3.000000
-0.466955 -0.068765 -0.041861 3.000000
-0.466955 0.085305 -0.045241 3.000000
-0.466955 0.044396 0.011371 3.000000
-0.466955 -0.013555 0.083757 3.000000
-0.466955 -0.022199 0.019460 3.000000
-0.466955 -0.082791 0.048272 3.000000
-0.466955 0.008066 0.063928 3.000000
-0.466955 -0.016424 -0.013578 3.000000
-0.466955 0.052276 -0.073159 3.000000
-0.466955 0.027106 0.031191 3.000000
-0.466955 -0.012503 0.040017 3.000000
-0.466955 -0.074212 0.031747 3.000000
-0.466955 -0.015017 0.005534 3.000000
-0.466955 -0.056994 0.070693 3.000000
-0.466955 -0.059268 0.054836 3.000000
-0.466955 0.000744 0.045725 3.000000
-0.466955 0.031209 0.004900 3.000000
-0.466955 -0.087599 0.014985 3.000000
-0.466955 0.038131 0.035301 3.000000
-0.466955 -0.029769 0.039317 3.000000
-0.466955 -0.088975 -0.007217 3.000000
-0.466955 0.025868 -0.021328 3.000000
-0.466955 0.096927 -0.009593 3.000000
-0.466955 0.076118 -0.063825 3.000000
-0.466955 -0.039658 0.011168 3.000000
-0.466955 0.081548 0.006247 3.000000
-0.466955 0.008045 0.046068 3.000000
-0.466955 -0.045928 -0.081418 3.000000
-0.466955 0.019442 -0.078854 3.000000
-0.466955 -0.000849 0.031944 3.000000
-0.466955 0.005627 -0.062373 3.000000
-0.466955 -0.039528 -0.086515 3.000000
-0.466955 0.064182 0.047349 3.000000
-0.466955 -0.073091 0.037194 3.000000
-0.466955 -0.039846 -0.067068 3.000000
-0.466955 -0.059532 -0.070285 3.000000
-0.466955 0.054813 -0.036799 3.000000
-0.466955 0.075997 0.019780 3.000000
-0.466955 -0.034696 -0.067360 3.000000
-0.466955 -0.064369 0.065604 3.000000
-0.466955 0.001235 0.051842 3.000000
-0.466955 -0.001551 0.077440 3.000000
-0.466955 -0.036950 0.016766 3.000000
-0.466955 0.076326 0.057285 3.000000
-0.466955 -0.005861 -0.013794 3.000000
-0.466955 -0.084236 -0.050141 3.000000
-0.466955 -0.016411 0.052512 3.000000
-0.466955 0.000194 -0.029145 3.000000
-0.466955 -0.044753 0.004595 3.000000
-0.466955 -0.035385 0.058282 3.000000
-0.466955 -0.007964 -0.085250 3.000000
-0.466955 0.068731 -0.047430 3.000000
-0.466955 0.008253 0.049443 3.000000
-0.466955 -0.008738 0.084454 3.000000
-0.466955 0.005973 0.067171 3.000000
-0.466955 -0.047410 0.083920 3.000000
-0.466955 0.026051 0.016271 3.000000
-0.466955 0.004282 0.018422 3.000000
-0.466955 -0.060972 -0.067177 3.000000
-0.466955 0.055283 -0.057439 3.000000
-0.466955 -0.089011 -0.044043 3.000000
-0.466955 0.028497 -0.013417 3.000000
-0.466955 -0.005336 -0.009840 3.000000
-0.466955 -0.034072 -0.016183 3.000000
-0.466955 0.004534 -0.025448 3.000000
-0.466955 0.022376 0.082650 3.000000
-0.466955 -0.032018 0.012460 3.000000
-0.466955 0.063295 0.068838 3.000000
-0.466955 0.096685 -0.000025 3.000000
-0.466955 0.033203 -0.077309 3.000000
-0.466955 0.096824 -0.007303 3.000000
-0.466955 0.053081 -0.036927 3.000000
-0.466955 -0.078740 0.020071 3.000000
-0.466955 0.029165 0.031644 3.000000
-0.466955 0.040476 -0.020680 3.000000
-0.466955 -0.044972 -0.064421 3.000000
-0.466955 0.039746 0.087508 3.000000
-0.466955 -0.061478 -0.024414 3.000000
-0.466955 0.026642 0.063055 3.000000
-0.466955 -0.038024 0.005810 3.000000
-0.466955 -0.013904 -0.015791 3.000000
-0.466955 0.010992 -0.018990 3.000000
-0.466955 -0.020264 0.005870 3.000000
-0.466955 0.057233 -0.051151 3.000000
-0.466955 0.067675 -0.004180 3.000000
-0.466955 0.063401 0.013529 3.000000
-0.466955 0.015052 -0.000139 3.000000
-0.466955 0.001140 -0.077432 3.000000
-0.466955 0.054415 -0.003076 3.000000
-0.466955 0.021436 -0.058744 3.000000
-0.466955 -0.003663 -0.030604 3.000000
-0.466955 0.067878 -0.028177 3.000000
-0.466955 0.011705 -0.061277 3.000000
-0.466955 -0.018612 0.092591 3.000000
-0.466955 0.042887 0.061029 3.000000
-0.466955 0.012403 -0.016261 3.000000
-0.466955 0.004779 0.032827 3.000000
-0.466955 -0.025280 0.094537 3.000000
-0.466955 -0.034579 0.068524 3.000000
-0.466955 -0.060848 -0.004356 3.000000
-0.466955 0.050585 -0.024735 3.000000
-0.466955 0.013290 -0.040198 3.000000
-0.466955 -0.019887 0.077756 3.000000
-0.466955 0.009723 -0.073550 3.000000
-0.466955 0.079490 0.019596 3.000000
-0.466955 -0.007682 0.077489 3.000000
-0.466955 0.029330 0.095454 3.000000
-0.466955 -0.014550 0.013234 3.000000
-0.466955 -0.007628 -0.083320 3.000000
-0.466955 -0.064032 -0.019140 3.000000
-0.466955 -0.038426 0.089502 3.000000
-0.466955 0.007866 0.097784 3.000000
-0.466955 0.006941 -0.023840 3.000000
-0.466955 0.072962 0.041417 3.000000
-0.466955 0.041361 0.007455 3.000000
-0.466955 0.039381 -0.068100 3.000000
-0.466955 0.020979 0.047024 3.000000
-0.466955 0.067040 -0.069372 3.000000
-0.466955 0.049450 -0.007568 3.000000
-0.466955 0.005450 0.099118 3.000000
-0.466955 0.074801 -0.059220 3.000000
-0.466955 -0.086262 0.032944 3.000000
-0.466955 -0.084938 -0.000460 3.000000
-0.466955 -0.020802 0.002864 3.000000
-0.466955 0.046989 -0.065027 3.000000
-0.466955 0.049318 -0.066515 3.000000
-0.466955 -0.000511 0.039639 3.000000
-0.466955 0.077754 0.019903 3.000000
-0.466955 0.060784 -0.028401 3.000000
-0.466955 0.050327 0.054750 3.000000
-0.466955 -0.012472 0.075875 3.000000
-0.466955 0.040708 -0.084794 3.000000
-0.466955 0.042855 0.084907 3.000000
-0.466955 0.052407 -0.068201 3.000000
-0.466955 0.087342 -0.033306 3.000000
-0.466955 -0.032865 -0.054472 3.000000
-0.466955 -0.038878 -0.055375 3.000000
-0.466955 0.024598 0.040932 3.000000
-0.466955 0.062455 -0.013810 3.000000
-0.466955 0.007174 -0.068741 3.000000
-0.466955 0.072308 -0.009814 3.000000
-0.466955 -0.033283 0.045203 3.000000
-0.466955 -0.090976 -0.009731 3.000000
-0.466955 0.020479 0.000554 3.000000
-0.466955 0.067297 -0.058218 3.000000
-0.466955 0.065567 0.053649 3.000000
-0.466955 -0.019836 0.072603 3.000000
-0.466955 0.048974 -0.084653 3.000000
-0.466955 -0.056717 0.034376 3.000000
-0.466955 0.084297 -0.031280 3.000000
-0.466955 0.002026 -0.039890 3.000000
-0.466955 0.050253 -0.060404 3.000000
-0.466955 0.075583 -0.014594 3.000000
-0.466955 -0.047507 0.072539 3.000000
-0.466955 -0.008492 0.063697 3.000000
-0.466955 -0.014329 -0.047310 3.000000
-0.466955 0.020142 0.072355 3.000000
-0.466955 0.002035 0.007626 3.000000
-0.466955 -0.001960 -0.094074 3.000000
-0.466955 -0.039092 -0.012161 3.000000
-0.466955 -0.023579 0.011305 3.000000
-0.466955 0.063967 -0.038924 3.000000
-0.466955 -0.044089 0.076858 3.000000
-0.466955 0.067057 0.066966 3.000000
-0.466955 -0.077207 -0.029990 3.000000
-0.466955 -0.027525 0.056929 3.000000
-0.466955 -0.014644 0.046088 3.000000
-0.466955 -0.077200 -0.008913 3.000000
-0.466955 -0.059035 0.042589 3.000000
-0.466955 -0.004142 0.068775 3.000000
-0.466955 -0.049549 -0.066788 3.000000
-0.466955 0.003743 -0.044207 3.000000
-0.466955 -0.065946 -0.038213 3.000000
-0.466955 0.059990 0.077806 3.000000
-0.466955 -0.020655 0.032468 3.000000
-0.466955 -0.038361 -0.040021 3.000000
-0.466955 -0.003857 -0.035999 3.000000
-0.466955 0.075840 -0.030542 3.000000
-0.466955 -0.050430 -0.084045 3.000000
-0.466955 -0.012592 0.069303 3.000000
-0.466955 0.040405 -0.041103 3.000000
-0.466955 0.043586 -0.004981 3.000000
-0.466955 -0.042729 -0.016833 3.000000
-0.466955 0.073645 -0.050091 3.000000
-0.466955 -0.063840 0.044728 3.000000
-0.466955 -0.057779 -0.076851 3.000000
-0.466955 0.026188 0.044073 3.000000
-0.466955 -0.033070 -0.088697 3.000000
-0.466955 -0.046496 -0.064908 3.000000
-0.466955 -0.001648 0.024266 3.000000
-0.466955 0.001299 -0.053167 3.000000
-0.466955 -0.020633 0.049860 3.000000
-0.466955 -0.010317 -0.038475 3.000000
-0.466955 -0.094684 0.026703 3.000000
-0.466955 0.068486 0.015427 3.000000
-0.466955 -0.063057 -0.024491 3.000000
-0.466955 -0.039054 0.013469 3.000000
-0.466955 -0.069888 -0.018948 3.000000
-0.466955 0.051493 -0.037355 3.000000
-0.466955 0.067841 0.046517 3.000000
-0.466955 0.015647 0.042654 3.000000
-0.466955 -0.076045 -0.047208 3.000000
-0.466955 0.078622 0.004970 3.000000
-0.466955 -0.016304 0.017083 3.000000
-0.466955 -0.091135 0.025636 3.000000
-0.466955 0.033738 0.061374 3.000000
-0.466955 0.036614 0.050966 3.000000
-0.466955 0.047034 0.087611 3.000000
-0.466955 0.059316 0.059366 3.000000
-0.466955 -0.003012 0.083547 3.000000
-0.466955 -0.058324 -0.035184 3.000000
-0.466955 0.042081 0.043302 3.000000
-0.466955 -0.021542 0.015313 3.000000
-0.466955 0.025723 0.073011 3.000000
-0.466955 -0.051285 -0.049558 3.000000
-0.466955 0.075360 -0.065275 3.000000
-0.466955 -0.020571 -0.078445 3.000000
-0.466955 -0.055388 0.038539 3.000000
-0.466955 -0.056750 -0.010165 3.000000
-0.466955 0.014364 0.060019 3.000000
-0.466955 0.091643 0.000102 3.000000
-0.466955 -0.059737 0.059931 3.000000
-0.466955 -0.050538 0.007523 3.000000
-0.466955 -0.051131 0.033152 3.000000
-0.466955 0.059133 0.037277 3.000000
-0.466955 -0.095019 -0.004769 3.000000
-0.466955 0.025021 0.093294 3.000000
-0.466955 -0.006732 0.036101 3.000000
-0.466955 -0.000102 -0.090109 3.000000
-0.466955 -0.002360 0.011761 3.000000
-0.466955 -0.022117 0.087794 3.000000
-0.466955 0.003860 -0.009694 3.000000
-0.466955 -0.014879 0.043719 3.000000
-0.466955 0.091022 -0.020811 3.000000
-0.466955 -0.096724 0.009470 3.000000
-0.466955 -0.012887 -0.033891 3.000000
-0.466955 0.073327 -0.062854 3.000000
-0.466955 0.010894 0.064295 3.000000
-0.466955 0.016038 0.066523 3.000000
-0.466955 0.030905 0.019211 3.000000
-0.466955 0.038629 0.058011 3.000000
-0.466955 0.009253 0.097531 3.000000
-0.466955 0.064620 0.008053 3.000000
-0.466955 -0.028514 0.073102 3.000000
-0.466955 -0.080696 -0.012502 3.000000
-0.466955 0.010709 -0.006476 3.000000
-0.466955 0.097628 0.021186 3.000000
-0.466955 0.042189 -0.030430 3.000000
-0.466955 0.005881 -0.089214 3.000000
-0.466955 -0.042688 0.037856 3.000000
-0.466955 0.005795 0.079534 3.000000
-0.466955 0.060529 -0.040416 3.000000
-0.466955 0.019214 0.067544 3.000000
-0.466955 0.044956 0.073888 3.000000
-0.466955 -0.053034 -0.074041 3.000000
-0.466955 0.031703 -0.056109 3.000000
-0.466955 -0.016205 -0.097947 3.000000
-0.466955 -0.046153 0.029472 3.000000
-0.466955 0.060945 -0.067297 3.000000
-0.466955 0.067855 -0.048700 3.000000
-0.466955 -0.079693 0.059072 3.000000
-0.466955 -0.062395 -0.015836 3.000000
-0.466955 -0.084835 -0.048042 3.000000
-0.466955 0.035777 0.039404 3.000000
-0.466955 0.057884 0.022785 3.000000
-0.466955 0.023923 0.024186 3.000000
-0.466955 0.074863 0.046783 3.000000
-0.466955 -0.025047 -0.054834 3.000000
-0.466955 0.070997 -0.052679 3.000000
-0.466955 -0.009699 -0.009372 3.000000
-0.466955 -0.056921 0.000034 3.000000
-0.466955 -0.031874 0.089284 3.000000
-0.466955 0.095799 0.004832 3.000000
-0.466955 0.074061 -0.018762 3.000000
-0.466955 0.026214 -0.077661 3.000000
-0.466955 -0.049942 0.046724 3.000000
-0.466955 -0.026456 0.069505 3.000000
-0.466955 -0.075085 0.055844 3.000000
-0.466955 -0.013467 0.090617 3.000000
-0.466955 -0.074796 0.036679 3.000000
-0.466955 0.074420 0.024327 3.000000
-0.466955 0.019971 -0.056755 3.000000
-0.466955 -0.040868 -0.062446 3.000000
-0.466955 0.007284 -0.057279 3.000000
-0.466955 -0.003044 -0.069741 3.000000
-0.466955 0.079140 -0.038019 3.000000
-0.466955 0.049755 0.085512 3.000000
-0.466955 0.077580 0.010622 3.000000
-0.466955 -0.079010 0.022192 3.000000
-0.466955 0.039814 -0.076124 3.000000
-0.466955 -0.043064 0.032273 3.000000
-0.466955 -0.063704 -0.038684 3.000000
-0.466955 0.009699 0.004018 3.000000
-0.466955 -0.020645 0.036346 3.000000
-0.466955 0.048605 0.010253 3.000000
-0.466955 -0.071081 -0.017116 3.000000
-0.466955 -0.064842 0.007887 3.000000
-0.466955 0.008298 0.002729 3.000000
-0.466955 0.028731 0.068686 3.000000
-0.466955 -0.070570 -0.062416 3.000000
-0.466955 0.023750 -0.091197 3.000000
-0.466955 -0.065430 -0.022500 3.000000
-0.466955 0.051213 -0.004693 3.000000
-0.466955 -0.062313 0.027799 3.000000
-0.466955 0.057082 0.063719 3.000000
-0.466955 0.021899 -0.011814 3.000000
-0.466955 -0.082814 -0.005766 3.000000
-0.466955 0.011943 0.074952 3.000000
-0.466955 0.011240 0.008432 3.000000
-0.466955 0.095582 -0.024370 3.000000
-0.466955 -0.048355 -0.066012 3.000000
-0.466955 0.028413 -0.020498 3.000000
-0.466955 0.013686 -0.001170 3.000000
-0.466955 -0.023543 -0.080646 3.000000
-0.466955 -0.051754 0.058933 3.000000
-0.466955 0.009738 0.034334 3.000000
-0.466955 0.012473 0.005949 3.000000
-0.466955 0.060919 -0.068833 3.000000
-0.466955 0.085667 0.044443 3.000000
-0.466955 -0.002095 0.039746 3.000000
-0.466955 -0.022933 -0.073748 3.000000
-0.466955 -0.048071 0.045744 3.000000
-0.466955 0.024472 0.068412 3.000000
-0.466955 -0.066379 -0.047505 3.000000
-0.466955 0.028638 -0.015156 3.000000
-0.466955 0.075600 0.034560 3.000000
-0.466955 -0.017279 0.031378 3.000000
-0.466955 -0.041871 -0.053730 3.000000
-0.466955 0.053004 -0.061493 3.000000
-0.466955 0.041278 0.022548 3.000000
-0.466955 -0.012572 -0.036747 3.000000
-0.466955 0.013996 -0.091969 3.000000
-0.466955 0.033627 -0.048587 3.000000
-0.466955 0.076031 0.043265 3.000000
-0.466955 0.081104 -0.028486 3.000000
-0.466955 -0.073879 0.067178 3.000000
-0.466955 0.019445 -0.069365 3.000000
-0.466955 0.099418 0.010011 3.000000
-0.466955 -0.011085 0.019013 3.000000
-0.466955 0.072892 0.013753 3.000000
-0.466955 0.052427 -0.028125 3.000000
-0.466955 -0.024063 -0.061111 3.000000
-0.466955 0.035788 0.019444 3.000000
-0.466955 -0.063917 -0.073236 3.000000
-0.466955 0.030384 0.060222 3.000000
-0.466955 0.056254 0.074705 3.000000
-0.466955 -0.003181 0.030098 3.000000
-0.466955 -0.059943 0.070253 3.000000
-0.466955 0.087401 0.029912 3.000000
-0.466955 0.081157 -0.014315 3.000000
-0.466955 -0.048611 0.080418 3.000000
-0.466955 0.013614 0.051326 3.000000
-0.466955 0.047132 0.076765 3.000000
-0.466955 0.035419 -0.066640 3.000000
-0.466955 -0.002924 -0.032022 3.000000
-0.466955 -0.015958 -0.000940 3.000000
-0.466955 0.005354 0.042014 3.000000
-0.466955 -0.001653 -0.066504 3.000000
-0.466955 0.082115 0.007704 3.000000
-0.466955 0.031216 -0.025435 3.000000
-0.466955 -0.023824 -0.045846 3.000000
-0.466955 -0.092518 -0.003024 3.000000
-0.466955 0.060587 -0.033376 3.000000
-0.466955 0.006346 -0.008216 3.000000
-0.466955 0.031364 0.061565 3.000000
-0.466955 0.076950 0.007235 3.000000
-0.466955 -0.067591 0.036998 3.000000
-0.466955 -0.059983 0.007057 3.000000
-0.466955 0.063624 -0.073947 3.000000
-0.466955 0.047969 0.047660 3.000000
-0.466955 0.023715 -0.067304 3.000000
-0.466955 0.035351 -0.044930 3.000000
-0.466955 -0.078608 -0.019378 3.000000
-0.466955 0.057518 0.043226 3.000000
-0.466955 -0.025402 0.087110 3.000000
-0.466955 0.093120 0.028287 3.000000
-0.466955 -0.099216 -0.008864 3.000000
-0.466955 0.039902 -0.061511 3.000000
-0.466955 0.034120 0.020172 3.000000
-0.466955 -0.042363 -0.066157 3.000000
-0.466955 -0.032300 0.057873 3.000000
-0.466955 -0.025222 0.020838 3.000000
-0.466955 0.004066 -0.050518 3.000000
-0.466955 0.015471 -0.075178 3.000000
-0.466955 0.001028 0.044241 3.000000
-0.466955 -0.022380 0.061793 3.000000
-0.466955 0.002394 -0.057967 3.000000
-0.466955 0.030835 -0.036190 3.000000
-0.466955 -0.013593 -0.014184 3.000000
-0.466955 0.071604 -0.028312 3.000000
-0.466955 -0.050371 0.009478 3.000000
-0.466955 0.032269 -0.057599 3.000000
-0.466955 -0.057682 -0.072586 3.000000
-0.466955 0.028097 0.076700 3.000000
-0.466955 -0.004982 0.005609 3.000000
-0.466955 -0.073143 -0.038804 3.000000
-0.466955 -0.085112 -0.007708 3.000000
-0.466955 -0.052047 0.006661 3.000000
-0.466955 -0.072230 -0.003370 3.000000
-0.466955 0.038243 -0.016486 3.000000
-0.466955 -0.006761 0.098674 3.000000
-0.466955 -0.035679 0.000089 3.000000
-0.466955 0.030442 0.043966 3.000000
-0.466955 0.024595 -0.037328 3.000000
-0.466955 0.025501 0.094789 3.000000
-0.466955 -0.021300 -0.007677 3.000000
-0.466955 0.054826 -0.055712 3.000000
-0.466955 -0.055606 -0.031737 3.000000
-0.466955 -0.009089 -0.062140 3.000000
-0.466955 -0.018865 0.058464 3.000000
-0.466955 -0.087444 -0.022259 3.000000
-0.466955 0.025075 0.048243 3.000000
-0.466955 -0.030364 0.095124 3.000000
-0.466955 -0.000026 -0.065347 3.000000
-0.466955 0.080023 0.029425 3.000000
-0.466955 -0.038582 -0.053653 3.000000
-0.466955 0.022387 0.079390 3.000000
-0.466955 0.087873 -0.027882 3.000000
-0.466955 0.044990 -0.045230 3.000000
-0.466955 -0.012546 0.073578 3.000000
-0.466955 -0.076573 -0.001415 3.000000
-0.466955 -0.045620 0.080935 3.000000
-0.466955 0.016684 0.073991 3.000000
-0.466955 -0.007824 0.031718 3.000000
-0.466955 -0.056433 -0.012517 3.000000
-0.466955 0.056492 0.042015 3.000000
-0.466955 -0.018197 -0.039616 3.000000
-0.466955 -0.064392 0.055633 3.000000
-0.466955 0.056125 -0.007909 3.000000
-0.466955 -0.033298 -0.072462 3.000000
-0.466955 0.055510 0.002464 3.000000
-0.466955 -0.039861 -0.004787 3.000000
-0.466955 -0.031751 0.063332 3.000000
-0.466955 -0.000128 0.077933 3.000000
-0.466955 -0.000600 0.094315 3.000000
-0.466955 -0.056347 -0.052507 3.000000
-0.466955 -0.023351 -0.058836 3.000000
-0.466955 0.088170 -0.024310 3.000000
-0.466955 -0.065755 0.049981 3.000000
-0.466955 -0.066972 -0.011447 3.000000
-0.466955 0.052875 -0.082947 3.000000
-0.466955 0.002132 0.092268 3.000000
-0.466955 0.061880 0.071870 3.000000
-0.466955 0.061874 0.022709 3.000000
-0.466955 -0.040518 -0.042534 3.000000
-0.466955 0.090273 -0.039672 3.000000
-0.466955 -0.066039 -0.023946 3.000000
-0.466955 -0.008883 -0.017384 3.000000
-0.466955 0.042849 0.064182 3.000000
-0.466955 0.075454 0.007990 3.000000
-0.466955 -0.067850 -0.027159 3.000000
-0.466955 -0.056690 -0.043176 3.000000
-0.466955 -0.041627 -0.015697 3.000000
-0.466955 -0.018263 0.044832 3.000000
-0.466955 0.065680 0.011823 3.000000
-0.466955 0.032222 0.068823 3.000000
-0.466955 0.031560 0.057059 3.000000
-0.466955 -0.066124 0.010082 3.000000
-0.466955 -0.005793 0.002444 3.000000
-0.466955 0.033859 0.024743 3.000000
-0.466955 -0.058631 -0.074206 3.000000
-0.466955 0.023030 0.032367 3.000000
-0.466955 -0.041253 0.064287 3.000000
-0.466955 0.050983 -0.033964 3.000000
-0.466955 -0.061387 0.003637 3.000000
-0.466955 -0.086123 0.031231 3.000000
-0.466955 0.008931 -0.029821 3.000000
-0.466955 0.023163 0.094147 3.000000
-0.466955 0.034079 -0.060022 3.000000
-0.466955 -0.033061 -0.070051 3.000000
-0.466955 0.092370 0.019819 3.000000
-0.466955 0.028053 -0.070731 3.000000
-0.466955 0.005970 -0.022695 3.000000
-0.466955 0.065063 -0.037473 3.000000
-0.466955 -0.039210 0.024098 3.000000
-0.466955 0.062257 0.011654 3.000000
-0.466955 0.034496 -0.039070 3.000000
-0.466955 0.094572 -0.027884 3.000000
-0.466955 0.032344 -0.074445 3.000000
-0.466955 0.010443 -0.052391 3.000000
-0.466955 0.089758 -0.023498 3.000000
-0.466955 -0.042954 -0.045153 3.000000
-0.466955 0.085107 0.052561 3.000000
-0.466955 0.001664 -0.031732 3.000000
-0.466955 0.022449 0.012316 3.000000
-0.466955 0.095160 -0.017889 3.000000
-0.466955 -0.050236 0.041523 3.000000
-0.466955 0.025935 0.064597 3.000000
-0.466955 -0.050248 -0.068691 3.000000
-0.466955 -0.019156 0.094000 3.000000
-0.466955 -0.044359 0.073630 3.000000
-0.466955 0.029075 0.090924 3.000000
-0.466955 -0.028444 0.040477 3.000000
-0.466955 -0.027782 -0.002600 3.000000
-0.466955 -0.071793 0.003936 3.000000
-0.466955 0.019993 0.020906 3.000000
-0.466955 -0.070883 0.039737 3.000000
-0.466955 -0.061705 -0.048984 3.000000
-0.466955 0.013163 0.091143 3.000000
-0.466955 0.017073 -0.082690 3.000000
-0.466955 -0.080817 0.043381 3.000000
-0.466955 -0.031114 -0.008518 3.000000
-0.466955 -0.000172 -0.048216 3.000000
-0.466955 -0.096633 -0.022937 3.000000
-0.466955 -0.004296 -0.013940 3.000000
-0.466955 0.062620 -0.028074 3.000000
-0.466955 0.062890 0.064600 3.000000
-0.466955 -0.016397 0.071329 3.000000
-0.466955 0.062999 0.057422 3.000000
-0.466955 -0.003179 0.071978 3.000000
-0.466955 0.026839 -0.004320 3.000000
-0.466955 0.028726 -0.057646 3.000000
-0.466955 -0.014107 -0.048700 3.000000
-0.466955 0.034099 0.005362 3.000000
-0.466955 0.008372 0.022880 3.000000
-0.466955 -0.022807 0.092608 3.000000
-0.466955 -0.030587 0.043777 3.000000
-0.466955 0.046848 -0.014668 3.000000
-0.466955 -0.018559 -0.015984 3.000000
-0.466955 0.072279 -0.045838 3.000000
-0.466955 0.027517 0.057608 3.000000
-0.466955 -0.011668 0.060016 3.000000
-0.466955 0.078385 -0.006352 3.000000
-0.466955 0.014278 0.043141 3.000000
-0.466955 0.035602 -0.072969 3.000000
-0.466955 -0.086612 0.027947 3.000000
-0.466955 0.027855 0.046109 3.000000
-0.466955 0.003280 0.015615 3.000000
-0.466955 -0.013950 0.000412 3.000000
-0.466955 0.036153 -0.038800 3.000000
-0.466955 -0.086035 -0.004627 3.000000
-0.466955 -0.089596 0.032996 3.000000
-0.466955 -0.023104 0.079407 3.000000
-0.466955 -0.021309 -0.060429 3.000000
-0.466955 0.031997 0.041051 3.000000
-0.466955 0.035112 0.064476 3.000000
-0.466955 0.097943 0.009191 3.000000
-0.466955 0.031154 -0.065624 3.000000
-0.466955 0.091096 0.036033 3.000000
-0.466955 0.031334 -0.030293 3.000000
-0.466955 0.037168 0.061582 3.000000
-0.466955 -0.072041 -0.034159 3.000000
-0.466955 0.058370 -0.068878 3.000000
-0.466955 -0.073298 0.058113 3.000000
-0.466955 -0.014436 -0.035253 3.000000
-0.466955 0.030716 0.055737 3.000000
-0.466955 0.016466 -0.096575 3.000000
-0.466955 0.058576 -0.001424 3.000000
-0.466955 0.004099 0.076129 3.000000
-0.466955 0.074386 0.041063 3.000000
-0.466955 -0.073995 0.013942 3.000000
-0.466955 -0.077022 0.057371 3.000000
-0.466955 0.005987 -0.011578 3.000000
-0.466955 -0.071130 0.023607 3.000000
-0.466955 -0.019801 0.013584 3.000000
-0.466955 -0.002556 -0.079208 3.000000
-0.466955 0.033919 0.081998 3.000000
-0.466955 -0.011749 -0.011746 3.000000
-0.466955 -0.020674 -0.081881 3.000000
-0.466955 0.037859 -0.037518 3.000000
-0.466955 -0.033404 -0.048468 3.000000
-0.466955 0.022428 0.026590 3.000000
-0.466955 0.062397 -0.008909 3.000000
-0.466955 0.094363 0.004143 3.000000
-0.466955 0.008352 -0.089565 3.000000
-0.466955 0.051611 0.055528 3.000000
-0.466955 0.038487 -0.091722 3.000000
-0.466955 0.059229 -0.038784 3.000000
-0.466955 -0.076075 0.022135 3.000000
-0.466955 0.000272 0.083552 3.000000
-0.466955 -0.027844 -0.016852 3.000000
-0.466955 -0.013488 -0.025088 3.000000
-0.466955 -0.022619 -0.075249 3.000000
-0.466955 -0.019606 0.042032 3.000000
-0.466955 0.052401 -0.060196 3.000000
-0.466955 0.069568 -0.021312 3.000000
-0.466955 -0.093555 -0.029532 3.000000
-0.466955 0.035698 -0.032451 3.000000
-0.466955 -0.041942 0.047715 3.000000
-0.466955 0.015329 0.068116 3.000000
-0.466955 0.007936 0.091932 3.000000
-0.466955 0.000514 -0.091453 3.000000
-0.466955 0.027592 -0.078922 3.000000
-0.466955 0.085834 0.029220 3.000000
-0.466955 0.037916 -0.050700 3.000000
-0.466955 -0.054231 0.040877 3.000000
-0.466955 0.072296 -0.060352 3.000000
-0.466955 0.028090 -0.007177 3.000000
-0.466955 0.091813 0.039144 3.000000
-0.466955 -0.018009 -0.029622 3.000000
-0.466955 0.085099 -0.040785 3.000000
-0.466955 0.004561 0.096818 3.000000
-0.466955 -0.030751 0.052543 3.000000
-0.466955 0.015898 -0.025790 3.000000
-0.466955 0.055080 0.064017 3.000000
-0.466955 -0.076160 -0.022326 3.000000
-0.466955 0.064589 -0.027179 3.000000
-0.466955 0.022227 0.042245 3.000000
-0.466955 -0.065653 0.001688 3.000000
-0.466955 0.078799 0.007371 3.000000
-0.466955 -0.017457 -0.070145 3.000000
-0.466955 0.078767 0.021080 3.000000
-0.466955 -0.013453 0.087723 3.000000
-0.466955 0.072040 -0.054245 3.000000
-0.466955 0.072031 0.044332 3.000000
-0.466955 0.051391 -0.065234 3.000000
-0.466955 -0.062504 -0.035578 3.000000
-0.466955 0.038626 0.022118 3.000000
-0.466955 -0.019874 -0.045748 3.000000
-0.466955 -0.011265 -0.048612 3.000000
-0.466955 -0.039018 -0.024228 3.000000
-0.466955 0.052612 0.025148 3.000000
-0.466955 -0.016166 -0.010512 3.000000
-0.466955 -0.037193 0.034562 3.000000
-0.466955 0.006194 -0.019595 3.000000
-0.466955 0.000988 -0.017172 3.000000
-0.466955 -0.066522 -0.050206 3.000000
-0.466955 -0.092376 0.028572 3.000000
-0.466955 0.094479 0.031818 3.000000
-0.466955 -0.079912 -0.028983 3.000000
-0.466955 -0.070419 0.022434 3.000000
-0.466955 -0.029021 -0.041830 3.000000
-0.466955 0.021144 0.077995 3.000000
-0.466955 0.051466 -0.002823 3.000000
-0.466955 0.085313 0.025013 3.000000
-0.466955 0.005707 -0.083318 3.000000
-0.466955 -0.078050 0.061905 3.000000
-0.466955 0.081963 0.047973 3.000000
-0.466955 0.090712 -0.017630 3.000000
-0.466955 0.014560 0.033960 3.000000
-0.466955 -0.085640 0.003993 3.000000
-0.466955 -0.025528 0.043780 3.000000
-0.466955 0.060152 0.029290 3.000000
-0.466955 -0.024962 0.056929 3.000000
-0.466955 -0.012795 0.056405 3.000000
-0.466955 -0.045757 -0.026974 3.000000
-0.466955 -0.042237 0.012593 3.000000
-0.466955 -0.073772 0.049419 3.000000
-0.466955 -0.054803 0.078112 3.000000
-0.466955 0.077968 -0.044564 3.000000
-0.466955 -0.037002 0.030266 3.000000
-0.466955 0.003459 -0.061802 3.000000
-0.466955 0.001601 -0.019368 3.000000
-0.466955 0.029866 0.033591 3.000000
-0.466955 -0.012337 0.049171 3.000000
-0.466955 -0.053892 0.034339 3.000000
-0.466955 0.086728 0.010628 3.000000
-0.466955 0.025927 -0.075008 3.000000
-0.466955 0.024153 0.061215 3.000000
-0.466955 -0.004982 -0.069824 3.000000
-0.466955 0.027564 0.006296 3.000000
-0.466955 0.074763 -0.044084 3.000000
-0.466955 0.032730 0.039877 3.000000
-0.466955 -0.038503 0.039494 3.000000
-0.466955 0.084109 -0.005127 3.000000
-0.466955 0.033139 0.033990 3.000000
-0.466955 0.070460 -0.027314 3.000000
-0.466955 -0.070649 0.027550 3.000000
-0.466955 0.039848 0.023022 3.000000
-0.466955 -0.010264 0.079591 3.000000
-0.466955 -0.008267 -0.050385 3.000000
-0.466955 -0.087160 -0.031826 3.000000
-0.466955 -0.037541 -0.002463 3.000000
-0.466955 0.021022 -0.022884 3.000000
-0.466955 0.050013 -0.078295 3.000000
-0.466955 -0.095713 0.007595 3.000000
-0.466955 0.025173 -0.031165 3.000000
-0.466955 -0.036452 0.051531 3.000000
-0.466955 0.005119 -0.007099 3.000000
-0.466955 0.074541 -0.053059 3.000000
-0.466955 0.084563 0.001483 3.000000
-0.466955 -0.029772 0.070657 3.000000
-0.466955 -0.008461 -0.046516 3.000000
-0.466955 -0.041456 0.003868 3.000000
-0.466955 -0.036160 0.032987 3.000000
-0.466955 -0.040146 0.005592 3.000000
-0.466955 -0.068187 -0.006857 3.000000
-0.466955 0.008760 -0.072261 3.000000
-0.466955 -0.009949 -0.089989 3.000000
-0.466955 -0.027181 -0.007431 3.000000
-0.466955 0.025328 -0.082420 3.000000
-0.466955 -0.071300 -0.018528 3.000000
-0.466955 -0.082638 0.037096 3.000000
-0.466955 0.052926 0.042326 3.000000
-0.466955 -0.006077 -0.083509 3.000000
-0.466955 -0.028741 0.018191 3.000000
-0.466955 -0.062643 -0.047327 3.000000
-0.466955 0.022662 -0.047586 3.000000
-0.466955 0.011745 -0.022046 3.000000
-0.466955 -0.003304 0.099171 3.000000
-0.466955 0.051598 -0.030130 3.000000
-0.466955 0.018853 0.033401 3.000000
-0.466955 -0.085102 0.023427 3.000000
-0.466955 -0.077562 0.021297 3.000000
-0.466955 -0.087899 -0.003580 3.000000
-0.466955 -0.027252 0.092572 3.000000
-0.466955 -0.005748 -0.043591 3.000000
-0.466955 0.052985 -0.039569 3.000000
-0.466955 -0.086108 -0.017150 3.000000
-0.466955 -0.094457 -0.015443 3.000000
-0.466955 -0.043230 0.058588 3.000000
-0.466955 0.043064 0.006034 3.000000
-0.466955 -0.051379 0.003821 3.000000
-0.466955 -0.082601 -0.007437 3.000000
-0.466955 0.028573 0.093599 3.000000
-0.466955 -0.000276 -0.019862 3.000000
-0.466955 0.040057 0.045948 3.000000
-0.466955 0.008636 -0.068726 3.000000
-0.466955 0.069927 0.022111 3.000000
-0.466955 0.018714 0.039310 3.000000
-0.466955 -0.026714 -0.056272 3.000000
-0.466955 0.072227 0.023423 3.000000
-0.466955 -0.008844 -0.073244 3.000000
-0.466955 0.031800 -0.012374 3.000000
-0.466955 0.083928 0.002857 3.000000
-0.466955 -0.054369 -0.047173 3.000000
-0.466955 -0.062529 -0.004568 3.000000
-0.466955 -0.074691 -0.058371 3.000000
-0.466955 -0.004699 0.057421 3.000000
-0.466955 -0.030300 -0.030296 3.000000
-0.466955 -0.083160 -0.018858 3.000000
-0.466955 0.077679 0.018033 3.000000
-0.466955 -0.044229 0.064999 3.000000
-0.466955 0.084149 0.041502 3.000000
-0.466955 -0.016351 -0.012165 3.000000
-0.466955 -0.021487 0.035070 3.000000
-0.466955 -0.045521 0.077364 3.000000
-0.466955 0.018158 -0.085102 3.000000
-0.466955 -0.060389 -0.069013 3.000000
-0.466955 -0.061119 0.078322 3.000000
-0.466955 0.060535 -0.038543 3.000000
-0.466955 -0.010347 -0.075855 3.000000
-0.466955 0.005193 0.000059 3.000000
-0.466955 -0.033471 0.003801 3.000000
-0.466955 0.071616 0.019477 3.000000
-0.466955 -0.059652 0.014464 3.000000
-0.466955 -0.042694 0.023527 3.000000
-0.466955 0.051482 0.008228 3.000000
-0.466955 -0.018833 0.047189 3.000000
-0.466955 0.033160 -0.079227 3.000000
-0.466955 -0.077009 0.018011 3.000000
-0.466955 -0.046658 0.047059 3.000000
-0.466955 0.041160 -0.053947 3.000000
-0.466955 -0.046300 -0.070162 3.000000
-0.466955 -0.077547 0.033132 3.000000
-0.466955 0.073494 0.047453 3.000000
-0.466955 -0.085265 0.040954 3.000000
-0.466955 -0.029819 0.042119 3.000000
-0.466955 -0.094450 0.032100 3.000000
-0.466955 0.024844 -0.026387 3.000000
-0.466955 0.046347 0.068909 3.000000
-0.466955 -0.040649 0.007050 3.000000
-0.466955 0.049287 -0.019847 3.000000
-0.466955 0.048872 -0.009657 3.000000
-0.466955 -0.097315 -0.015123 3.000000
-0.466955 -0.061621 0.018469 3.000000
-0.466955 0.098952 0.004541 3.000000
-0.466955 0.091551 0.006571 3.000000
-0.466955 0.009472 -0.022602 3.000000
-0.466955 -0.058620 -0.044966 3.000000
-0.466955 0.055724 -0.027120 3.000000
-0.466955 -0.095301 0.004313 3.000000
-0.466955 0.068764 0.049674 3.000000
-0.466955 -0.058286 0.071813 3.000000
-0.466955 0.057959 -0.065036 3.000000
-0.466955 0.075792 -0.057236 3.000000
-0.466955 0.023590 -0.009124 3.000000
-0.466955 0.032754 0.072519 3.000000
-0.466955 -0.007505 -0.086603 3.000000
-0.466955 0.059266 0.024584 3.000000
-0.466955 -0.071000 0.033743 3.000000
-0.466955 -0.045196 -0.085175 3.000000
-0.466955 0.058650 0.007220 3.000000
-0.466955 -0.006643 -0.002188 3.000000
-0.466955 -0.047278 0.028059 3.000000
-0.466955 0.068217 -0.019414 3.000000
-0.466955 0.018980 -0.044495 3.000000
-0.466955 0.010053 -0.061826 3.000000
-0.466955 0.017107 0.064951 3.000000
-0.466955 -0.027761 -0.085024 3.000000
-0.466955 0.014074 0.006697 3.000000
-0.466955 0.038048 -0.002092 3.000000
-0.466955 -0.039689 -0.016393 3.000000
-0.466955 -0.060464 0.066031 3.000000
-0.466955 0.070236 -0.057216 3.000000
-0.466955 0.040192 -0.008179 3.000000
-0.466955 0.017346 -0.067157 3.000000
-0.466955 0.099372 0.003192 3.000000
-0.466955 -0.011889 -0.047012 3.000000
-0.466955 0.088398 0.041899 3.000000
-0.466955 0.062086 0.007253 3.000000
-0.466955 -0.045992 -0.062973 3.000000
-0.466955 0.097252 0.013498 3.000000
-0.466955 -0.060720 0.042530 3.000000
-0.466955 0.025781 0.033779 3.000000
-0.466955 0.090834 0.018190 3.000000
-0.466955 -0.043804 0.012046 3.000000
-0.466955 0.063933 0.074869 3.000000
-0.466955 0.043227 0.012275 3.000000
-0.466955 0.063143 0.067477 3.000000
-0.466955 0.008032 -0.077661 3.000000
-0.466955 0.064275 0.052726 3.000000
-0.466955 0.020044 -0.094279 3.000000
-0.466955 0.013866 0.030146 3.000000
-0.466955 -0.059100 0.038973 3.000000
-0.466955 -0.029958 0.060815 3.000000
-0.466955 0.070759 -0.066390 3.000000
-0.466955 -0.028323 -0.072925 3.000000
-0.466955 0.052691 0.069598 3.000000
-0.466955 -0.029310 0.081047 3.000000
-0.466955 -0.073034 -0.006734 3.000000
-0.466955 -0.068527 -0.052727 3.000000
-0.466955 -0.051139 -0.029102 3.000000
-0.466955 -0.069200 -0.071385 3.000000
-0.466955 0.095252 0.020573 3.000000
-0.466955 -0.015685 0.067366 3.000000
-0.466955 0.005850 0.043736 3.000000
-0.466955 0.060692 -0.072032 3.000000
-0.466955 0.019710 -0.085986 3.000000
-0.466955 -0.014709 -0.012134 3.000000
-0.466955 0.001069 0.086819 3.000000
-0.466955 0.062555 -0.050467 3.000000
-0.466955 -0.072763 0.044575 3.000000
-0.466955 0.011303 0.004688 3.000000
-0.466955 0.071616 0.066747 3.000000
-0.466955 0.093585 0.007593 3.000000
-0.466955 -0.039362 -0.052423 3.000000
-0.466955 -0.038091 -0.028158 3.000000
-0.466955 -0.067363 -0.013011 3.000000
-0.466955 0.028506 0.004813 3.000000
-0.466955 -0.020538 -0.048124 3.000000
-0.466955 -0.057565 -0.031265 3.000000
-0.466955 -0.014914 -0.019096 3.000000
-0.466955 0.002701 -0.029278 3.000000
-0.466955 0.038693 0.052618 3.000000
-0.466955 0.007292 0.065818 3.000000
-0.466955 -0.024886 0.069448 3.000000
-0.466955 0.064911 0.026717 3.000000
-0.466955 -0.065704 -0.030531 3.000000
-0.466955 0.014974 0.028743 3.000000
-0.466955 -0.088605 0.009719 3.000000
-0.466955 0.056558 0.035670 3.000000
-0.466955 -0.067610 0.043488 3.000000
-0.466955 -0.043757 -0.069849 3.000000
-0.466955 0.028070 0.002191 3.000000
-0.466955 0.041916 -0.048833 3.000000
-0.466955 -0.040400 0.037068 3.000000
-0.466955 -0.017728 -0.082990 3.000000
-0.466955 -0.077462 -0.036640 3.000000
-0.466955 -0.011889 -0.063210 3.000000
-0.466955 -0.019527 -0.059318 3.000000
-0.466955 0.072223 -0.019232 3.000000
-0.466955 0.075275 0.042080 3.000000
-0.466955 -0.004298 -0.075947 3.000000
-0.466955 -0.055965 0.008469 3.000000
-0.466955 0.030282 -0.084340 3.000000
-0.466955 -0.020493 -0.026728 3.000000
-0.466955 -0.070049 -0.051306 3.000000
-0.466955 -0.024991 0.074041 3.000000
-0.466955 -0.037336 -0.012904 3.000000
-0.466955 0.050699 0.053316 3.000000
-0.466955 -0.012896 -0.073438 3.000000
-0.466955 -0.082681 0.021259 3.000000
-0.466955 0.045499 0.035298 3.000000
-0.466955 0.057353 0.027706 3.000000
-0.466955 0.077654 -0.025807 3.000000
-0.466955 -0.001586 -0.064076 3.000000
-0.466955 -0.011283 -0.044713 3.000000
-0.466955 0.043449 0.014505 3.000000
-0.466955 -0.061451 -0.042850 3.000000
-0.466955 0.002647 -0.066291 3.000000
-0.466955 0.068520 0.019131 3.000000
-0.466955 -0.067755 0.046070 3.000000
-0.466955 0.064754 0.038104 3.000000
-0.466955 0.005501 -0.026993 3.000000
-0.466955 0.054909 -0.014335 3.000000
-0.466955 -0.040763 0.012475 3.000000
-0.466955 0.012983 0.057570 3.000000
-0.466955 0.050536 0.083652 3.000000
-0.466955 -0.025402 -0.085650 3.000000
-0.466955 -0.038703 0.044639 3.000000
-0.466955 -0.024814 -0.018314 3.000000
-0.466955 -0.036275 -0.001986 3.000000
-0.466955 -0.035726 0.003021 3.000000
-0.466955 -0.036616 0.073525 3.000000
-0.466955 0.088621 -0.022557 3.000000
-0.466955 0.085101 -0.014803 3.000000
-0.466955 0.065400 0.029429 3.000000
-0.466955 0.025279 -0.046712 3.000000
-0.466955 0.037498 0.046519 3.000000
-0.466955 0.051508 0.024183 3.000000
-0.466955 0.062470 0.008717 3.000000
-0.466955 0.022733 -0.059674 3.000000
-0.466955 -0.044738 -0.071029 3.000000
-0.466955 0.013393 -0.076882 3.000000
-0.466955 0.012718 -0.087414 3.000000
-0.466955 -0.021908 -0.077054 3.000000
-0.466955 0.048954 -0.013289 3.000000
-0.466955 -0.081020 -0.054528 3.000000
-0.466955 -0.042217 -0.009549 3.000000
-0.466955 -0.057738 0.020816 3.000000
-0.466955 -0.034513 -0.055030 3.000000
-0.466955 0.001410 -0.068082 3.000000
-0.466955 0.013191 0.017390 3.000000
-0.466955 0.028901 -0.051215 3.000000
-0.466955 0.035322 -0.000880 3.000000
-0.466955 0.026240 -0.002387 3.000000
-0.466955 0.051669 0.011843 3.000000
-0.466955 0.045817 0.055343 3.000000
-0.466955 -0.069544 0.071658 3.000000
-0.466955 0.013582 -0.090631 3.000000
-0.466955 -0.000659 0.070316 3.000000
-0.466955 0.053245 0.000123 3.000000
-0.466955 -0.067096 0.026973 3.000000
-0.466955 -0.003286 -0.009602 3.000000
-0.466955 0.025686 -0.050599 3.000000
-0.466955 -0.084795 -0.026242 3.000000
-0.466955 0.020681 -0.072963 3.000000
-0.466955 -0.051998 0.045238 3.000000
-0.466955 0.062490 -0.031290 3.000000
-0.466955 -0.024827 -0.044682 3.000000
-0.466955 -0.048531 0.082824 3.000000
-0.466955 0.022670 0.084114 3.000000
-0.466955 0.076110 0.022227 3.000000
-0.466955 0.011083 0.057077 3.000000
-0.466955 0.039418 -0.001260 3.000000
-0.466955 0.051924 0.003086 3.000000
-0.466955 0.003606 -0.023971 3.000000
-0.466955 -0.032565 0.036493 3.000000
-0.466955 -0.046004 -0.072475 3.000000
-0.466955 0.078729 -0.002348 3.000000
-0.466955 -0.020984 0.031102 3.000000
-0.466955 -0.023055 -0.092267 3.000000
-0.466955 0.091951 -0.038781 3.000000
-0.466955 -0.029874 0.014428 3.000000
-0.466955 -0.012187 0.089886 3.000000
-0.466955 -0.076794 0.015756 3.000000
-0.466955 0.070680 -0.029687 3.000000
-0.466955 -0.018132 0.023586 3.000000
-0.466955 -0.020484 0.084444 3.000000
-0.466955 0.032568 0.036056 3.000000
-0.466955 0.027123 -0.085715 3.000000
-0.466955 0.054696 -0.023888 3.000000
-0.466955 -0.049905 -0.051224 3.000000
-0.466955 0.077354 0.042216 3.000000
-0.466955 -0.069433 -0.063928 3.000000
-0.466955 0.012591 0.065155 3.000000
-0.466955 0.043468 0.019449 3.000000
-0.466955 0.076244 -0.000953 3.000000
-0.466955 0.090748 -0.002385 3.000000
-0.466955 0.070014 0.059911 3.000000
-0.466955 0.092720 0.025179 3.000000
-0.466955 0.083513 -0.029542 3.000000
-0.466955 -0.059172 -0.019583 3.000000
-0.466955 0.023152 -0.096733 3.000000
-0.466955 -0.027950 0.094592 3.000000
-0.466955 -0.037624 0.085225 3.000000
-0.466955 0.003017 0.001137 3.000000
-0.466955 0.058665 0.080787 3.000000
-0.466955 -0.028647 -0.076383 3.000000
-0.466955 0.021706 -0.043768 3.000000
-0.466955 0.054800 -0.073187 3.000000
-0.466955 -0.084704 -0.024153 3.000000
-0.466955 -0.033641 -0.013900 3.000000
-0.466955 -0.053694 0.083196 3.000000
-0.466955 0.095869 -0.011160 3.000000
-0.466955 -0.026632 0.080649 3.000000
-0.466955 -0.083763 0.018344 3.000000
-0.466955 0.001311 -0.089593 3.000000
-0.466955 -0.009747 0.077505 3.000000
-0.466955 0.003014 0.090924 3.000000
-0.466955 0.039241 -0.071629 3.000000
-0.466955 -0.038132 0.073606 3.000000
-0.466955 -0.053099 0.008276 3.000000
-0.466955 0.015975 -0.076646 3.000000
-0.466955 -0.055128 0.011438 3.000000
-0.466955 0.033808 0.074768 3.000000
-0.466955 -0.036030 0.078132 3.000000
-0.466955 0.048017 -0.058069 3.000000
-0.466955 -0.020377 -0.085387 3.000000
-0.466955 -0.069352 -0.000266 3.000000
-0.466955 0.040651 -0.032893 3.000000
-0.466955 -0.032474 0.079218 3.000000
-0.466955 0.066099 -0.033334 3.000000
-0.466955 0.010426 -0.072357 3.000000
-0.466955 0.017504 0.066927 3.000000
-0.466955 -0.053260 -0.065081 3.000000
-0.466955 -0.036412 -0.044612 3.000000
-0.466955 -0.080090 -0.021941 3.000000
-0.466955 0.067712 -0.025594 3.000000
-0.466955 -0.053729 -0.038107 3.000000
-0.466955 -0.036566 -0.038037 3.000000
-0.466955 0.074283 -0.041150 3.000000
-0.466955 -0.054666 0.066404 3.000000
-0.466955 0.017296 0.088440 3.000000
-0.466955 -0.017299 -0.008246 3.000000
-0.466955 0.015450 -0.088373 3.000000
-0.466955 0.099891 0.000971 3.000000
-0.466955 0.079429 0.025970 3.000000
-0.466955 0.023379 0.045503 3.000000
-0.466955 0.058349 -0.050138 3.000000
-0.466955 0.010516 0.093029 3.000000
-0.466955 -0.013858 0.066792 3.000000
-0.466955 -0.025600 0.028284 3.000000
-0.466955 -0.043653 -0.013607 3.000000
-0.466955 -0.088768 -0.012441 3.000000
-0.466955 -0.045678 0.000521 3.000000
-0.466955 -0.084863 -0.001880 3.000000
-0.466955 0.009251 0.056595 3.000000
-0.466955 0.028898 0.071898 3.000000
-0.466955 -0.010083 -0.065558 3.000000
-0.466955 0.072150 0.003484 3.000000
-0.466955 0.042881 -0.003330 3.000000
-0.466955 -0.024520 -0.016847 3.000000
-0.466955 -0.049463 -0.061907 3.000000
-0.466955 -0.033134 0.067037 3.000000
-0.466955 -0.065425 0.041747 3.000000
-0.466955 0.073050 0.054065 3.000000
-0.466955 0.012646 -0.069903 3.000000
-0.466955 0.013133 -0.083645 3.000000
-0.466955 0.041619 0.041983 3.000000
-0.466955 0.009646 0.066986 3.000000
-0.466955 0.004709 0.036521 3.000000
-0.466955 0.002341 0.002933 3.000000
-0.466955 -0.022447 0.001993 3.000000
-0.466955 -0.089748 -0.024513 3.000000
-0.466955 -0.071566 -0.055201 3.000000
-0.466955 0.015314 -0.052063 3.000000
-0.466955 -0.037822 0.080935 3.000000
-0.466955 -0.020941 0.040520 3.000000
-0.466955 0.042020 -0.027982 3.000000
-0.466955 0.058011 -0.012958 3.000000
-0.466955 -0.096759 0.020758 3.000000
-0.466955 0.056738 -0.044426 3.000000
-0.466955 -0.006213 0.061724 3.000000
-0.466955 -0.053970 0.065199 3.000000
-0.466955 0.084829 -0.052495 3.000000
-0.466955 -0.097395 -0.006653 3.000000
-0.466955 -0.041593 -0.027719 3.000000
-0.466955 0.062252 0.074584 3.000000
-0.466955 0.052775 0.081874 3.000000
-0.466955 0.052353 0.013947 3.000000
-0.466955 -0.060684 0.062518 3.000000
-0.466955 -0.021612 0.089298 3.000000
-0.466955 0.019557 0.030383 3.000000
-0.466955 0.077747 -0.010407 3.000000
-0.466955 -0.044568 0.025297 3.000000
-0.466955 0.075915 -0.061981 3.000000
-0.466955 -0.070023 0.047571 3.000000
-0.466955 -0.031789 0.016759 3.000000
-0.466955 -0.083227 -0.017295 3.000000
-0.466955 0.042321 -0.026472 3.000000
-0.466955 0.057585 0.066275 3.000000
-0.466955 -0.009369 0.052343 3.000000
-0.466955 -0.070512 0.059134 3.000000
-0.466955 -0.001702 -0.070770 3.000000
-0.466955 0.002007 0.028085 3.000000
-0.466955 0.051931 0.066216 3.000000
-0.466955 0.000095 0.068004 3.000000
-0.466955 0.004432 -0.035879 3.000000
-0.466955 0.063876 0.060446 3.000000
-0.466955 0.034539 -0.031296 3.000000
-0.466955 0.060320 0.004681 3.000000
-0.466955 0.035918 0.089668 3.000000
-0.466955 0.070831 -0.013276 3.000000
-0.466955 -0.060549 0.072021 3.000000
-0.466955 -0.008880 0.027263 3.000000
-0.466955 0.000023 -0.063659 3.000000
-0.466955 -0.015620 -0.043239 3.000000
-0.466955 -0.076721 -0.035332 3.000000
-0.466955 0.014507 -0.041225 3.000000
-0.466955 0.005679 0.001774 3.000000
-0.466955 -0.018704 0.048815 3.000000
-0.466955 -0.055601 0.019543 3.000000
-0.466955 0.087864 0.015065 3.000000
-0.466955 0.086202 -0.030977 3.000000
-0.466955 0.029885 0.066594 3.000000
-0.466955 0.023543 0.065834 3.000000
-0.466955 0.079438 -0.021263 3.000000
-0.466955 -0.014420 0.081024 3.000000
-0.466955 0.077883 0.036986 3.000000
-0.466955 0.051447 -0.001149 3.000000
-0.466955 -0.002770 0.086272 3.000000
-0.466955 0.048134 0.023044 3.000000
-0.466955 0.084415 0.040134 3.000000
-0.466955 -0.002757 -0.011609 3.000000
-0.466955 -0.041969 -0.013959 3.000000
-0.466955 -0.012047 -0.028480 3.000000
-0.466955 0.020569 0.064072 3.000000
-0.466955 0.009254 0.040850 3.000000
-0.466955 -0.022770 -0.070582 3.000000
-0.466955 0.013133 -0.059579 3.000000
-0.466955 -0.017237 0.073619 3.000000
-0.466955 0.080896 0.058835 3.000000
-0.466955 0.058100 -0.066790 3.000000
-0.466955 -0.020860 -0.089167 3.000000
-0.466955 -0.088645 -0.042018 3.000000
-0.466955 0.031629 -0.064242 3.000000
-0.466955 0.014021 -0.066314 3.000000
-0.466955 -0.009146 0.003628 3.000000
-0.466955 -0.046591 0.062888 3.000000
-0.466955 0.042693 0.083558 3.000000
-0.466955 0.040742 0.044233 3.000000
-0.466955 -0.041866 0.054113 3.000000
-0.466955 0.024948 -0.093968 3.000000
-0.466955 -0.007785 -0.024516 3.000000
-0.466955 0.029776 0.050076 3.000000
-0.466955 0.098433 -0.012952 3.000000
-0.466955 0.044100 -0.000931 3.000000
-0.466955 -0.016047 0.041697 3.000000
-0.466955 0.011937 -0.089610 3.000000
-0.466955 0.014364 -0.034882 3.000000
-0.466955 0.095344 -0.021971 3.000000
-0.466955 -0.042839 0.050566 3.000000
-0.466955 -0.074411 0.033526 3.000000
-0.466955 -0.044678 -0.080648 3.000000
-0.466955 -0.004813 -0.064799 3.000000
-0.466955 0.020827 -0.027895 3.000000
-0.466955 0.062818 -0.012528 3.000000
-0.466955 0.057087 0.021235 3.000000
-0.466955 -0.018696 -0.031009 3.000000
-0.466955 0.046070 0.019391 3.000000
-0.466955 -0.058105 0.026415 3.000000
-0.466955 -0.004281 0.022607 3.000000
-0.466955 -0.089671 0.023523 3.000000
-0.466955 -0.090186 0.042608 3.000000
-0.466955 -0.023876 0.002742 3.000000
-0.466955 -0.048514 -0.012605 3.000000
-0.466955 0.092647 -0.002824 3.000000
-0.466955 -0.079733 0.005897 3.000000
-0.466955 -0.073271 -0.015322 3.000000
-0.466955 -0.071271 -0.006946 3.000000
-0.466955 0.058357 0.074893 3.000000
-0.466955 -0.017286 -0.001753 3.000000
-0.466955 -0.016283 0.079619 3.000000
-0.466955 -0.031732 -0.066242 3.000000
-0.466955 -0.033884 0.005224 3.000000
-0.466955 -0.046947 0.081166 3.000000
-0.466955 -0.088262 0.037826 3.000000
-0.466955 -0.023140 -0.009992 3.000000
-0.466955 0.061784 -0.075222 3.000000
-0.466955 0.048325 -0.049428 3.000000
-0.466955 -0.002197 -0.049102 3.000000
-0.466955 -0.019854 -0.029773 3.000000
-0.466955 0.014769 -0.006362 3.000000
-0.466955 0.068460 0.013110 3.000000
-0.466955 0.016397 0.005401 3.000000
-0.466955 -0.032404 0.029900 3.000000
-0.466955 0.048348 0.036305 3.000000
-0.466955 -0.000280 -0.076716 3.000000
-0.466955 -0.082513 -0.020551 3.000000
-0.466955 0.073903 0.020786 3.000000
-0.466955 0.067015 -0.024277 3.000000
-0.466955 0.001705 0.039074 3.000000
-0.466955 -0.007715 0.076083 3.000000
-0.466955 0.024879 0.058173 3.000000
-0.466955 -0.054454 0.001918 3.000000
-0.466955 -0.051086 -0.017072 3.000000
-0.466955 -0.051183 -0.057377 3.000000
-0.466955 0.041852 -0.047314 3.000000
-0.466955 -0.058906 -0.023486 3.000000
-0.466955 0.010762 0.015777 3.000000
-0.466955 -0.022793 0.058562 3.000000
-0.466955 -0.003987 -0.066324 3.000000
-0.466955 0.003398 -0.013191 3.000000
-0.466955 -0.011117 -0.034014 3.000000
-0.466955 0.045018 -0.064771 3.000000
-0.466955 -0.069653 0.017781 3.000000
-0.466955 0.055891 -0.015800 3.000000
-0.466955 -0.011321 -0.078047 3.000000
-0.466955 0.042979 0.034773 3.000000
-0.466955 -0.083735 -0.010520 3.000000
-0.466955 0.056623 0.070027 3.000000
-0.466955 -0.012685 -0.061883 3.000000
-0.466955 0.019135 -0.036825 3.000000
-0.466955 0.003881 0.089323 3.000000
-0.466955 -0.048088 -0.016314 3.000000
-0.466955 -0.072748 0.063138 3.000000
-0.466955 -0.088784 0.001299 3.000000
-0.466955 0.020444 -0.087546 3.000000
-0.466955 -0.052460 0.070462 3.000000
-0.466955 0.066600 0.026909 3.000000
-0.466955 -0.011569 0.043622 3.000000
-0.466955 -0.076958 0.013813 3.000000
-0.466955 0.067258 -0.062733 3.000000
-0.466955 0.009906 -0.049374 3.000000
-0.466955 0.043986 -0.033871 3.000000
-0.466955 0.031860 -0.014308 3.000000
-0.466955 -0.014903 -0.074665 3.000000
-0.466955 0.064331 -0.048269 3.000000
-0.466955 -0.006465 0.030863 3.000000
-0.466955 -0.056277 0.025509 3.000000
-0.466955 -0.002996 0.092536 3.000000
-0.466955 -0.049506 -0.063764 3.000000
-0.466955 -0.012853 0.067820 3.000000
-0.466955 0.021961 -0.079931 3.000000
-0.466955 -0.035858 -0.023005 3.000000
-0.466955 0.033298 0.083604 3.000000
-0.466955 0.063740 -0.075578 3.000000
-0.466955 0.081370 -0.018519 3.000000
-0.466955 -0.053692 -0.002111 3.000000
-0.466955 0.022833 -0.086712 3.000000
-0.466955 0.092119 0.009603 3.000000
-0.466955 0.026224 -0.079368 3.000000
-0.466955 0.017541 -0.088504 3.000000
-0.466955 0.035867 0.052617 3.000000
-0.466955 0.012336 -0.042791 3.000000
-0.466955 -0.059383 0.046086 3.000000
-0.466955 0.062707 -0.076591 3.000000
-0.466955 0.060316 -0.036668 3.000000
-0.466955 0.006917 -0.076302 3.000000
-0.466955 -0.041466 0.025592 3.000000
-0.466955 0.035395 0.072715 3.000000
-0.466955 -0.062592 0.021922 3.000000
-0.466955 0.035996 -0.087972 3.000000
-0.466955 -0.030409 -0.023701 3.000000
-0.466955 0.020018 -0.084502 3.000000
-0.466955 0.059247 -0.073833 3.000000
-0.466955 -0.022875 -0.036787 3.000000
-0.466955 -0.040502 0.042823 3.000000
-0.466955 0.028519 -0.024887 3.000000
-0.466955 -0.006624 0.033887 3.000000
-0.466955 0.024783 0.025345 3.000000
-0.466955 0.029498 0.019558 3.000000
-0.466955 -0.055746 0.001389 3.000000
-0.466955 0.035515 -0.064448 3.000000
-0.466955 0.032494 0.042878 3.000000
-0.466955 0.001554 0.093911 3.000000
-0.466955 0.091549 -0.019071 3.000000
-0.466955 0.047538 -0.053292 3.000000
-0.466955 -0.020878 0.076500 3.000000
-0.466955 -0.080038 -0.014120 3.000000
-0.466955 -0.089357 0.004371 3.000000
-0.466955 -0.058767 0.041066 3.000000
