-0.466955 -0.071216 0.052728 3.000000
-0.466955 -0.057594 0.029964 3.000000
-0.466955 0.099238 -0.011231 3.000000
-0.466955 -0.084895 0.003935 3.000000
-0.466955 0.056549 -0.075710 3.000000
-0.466955 0.066857 0.002605 3.000000
-0.466955 0.054030 -0.079892 3.000000
-0.466955 -0.051325 0.035029 3.000000
-0.466955 -0.073056 0.042323 3.000000
-0.466955 0.023932 0.019869 3.000000
-0.466955 -0.069691 0.071347 3.000000
-0.466955 -0.005016 -0.034106 3.000000
-0.466955 0.006329 0.023423 3.000000
-0.466955 0.034245 0.087716 3.000000
-0.466955 -0.088560 -0.024687 3.000000
-0.466955 0.020069 -0.005299 3.000000
-0.466955 0.021185 0.012789 3.000000
-0.466955 -0.007158 0.013733 3.000000
-0.466955 -0.003500 0.088571 3.000000
-0.466955 0.040290 -0.061761 3.000000
-0.466955 -0.052691 -0.016838 3.000000
-0.466955 -0.093264 -0.034531 3.000000
-0.466955 0.000602 -0.016690 3.000000
-0.466955 -0.043830 0.040249 3.000000
-0.466955 -0.092714 0.034189 3.000000
-0.466955 0.036871 0.003851 3.000000
-0.466955 -0.038651 -0.083390 3.000000
-0.466955 -0.066339 0.033667 3.000000
-0.466955 -0.091251 -0.036571 3.000000
-0.466955 0.022732 -0.000951 3.000000
-0.466955 -0.070171 -0.031916 3.000000
-0.466955 0.041931 0.050954 3.000000
-0.466955 -0.007451 0.023338 3.000000
-0.466955 -0.027862 0.094110 3.000000
-0.466955 -0.040139 0.078902 3.000000
-0.466955 -0.062865 -0.002511 3.000000
-0.466955 -0.071850 0.020671 3.000000
-0.466955 0.015408 -0.058725 3.000000
-0.466955 -0.034721 0.041510 3.000000
-0.466955 -0.077913 -0.055400 3.000000
-0.466955 -0.005759 -0.026113 3.000000
-0.466955 -0.044518 0.045915 3.000000
-0.466955 -0.037545 0.037961 3.000000
-0.466955 -0.002559 0.011033 3.000000
-0.466955 -0.011154 0.035392 3.000000
-0.466955 -0.007612 0.049148 3.000000
-0.466955 0.036889 -0.018687 3.000000
-0.466955 -0.052649 0.059112 3.000000
-0.466955 -0.013426 0.082630 3.000000
-0.466955 -0.085486 0.014107 3.000000
-0.466955 0.056128 -0.025075 3.000000
-0.466955 0.026441 -0.021311 3.000000
-0.466955 0.002905 -0.092738 3.000000
-0.466955 -0.067694 0.055961 3.000000
-0.466955 -0.052688 -0.020144 3.000000
-0.466955 -0.038783 0.022339 3.000000
-0.466955 -0.065963 -0.002014 3.000000
-0.466955 0.056048 0.000148 3.000000
-0.466955 -0.010807 0.023544 3.000000
-0.466955 -0.066555 0.021515 3.000000
-0.466955 -0.071074 -0.063764 3.000000
-0.466955 0.066129 -0.049960 3.000000
-0.466955 0.036736 -0.031158 3.000000
-0.466955 0.028349 0.053555 3.000000
-0.466955 -0.004475 0.050813 3.000000
-0.466955 0.031912 -0.028403 3.000000
-0.466955 0.087176 0.003923 3.000000
-0.466955 -0.097431 -0.020266 3.000000
-0.466955 0.090271 -0.025929 3.000000
-0.466955 -0.071534 0.038474 3.000000
-0.466955 -0.042071 0.083538 3.000000
-0.466955 0.091863 -0.034961 3.000000
-0.466955 -0.020006 0.062241 3.000000
-0.466955 0.051727 0.024109 3.000000
-0.466955 0.025550 0.057859 3.000000
-0.466955 -0.047306 -0.058857 3.000000
-0.466955 0.073326 -0.016680 3.000000
-0.466955 -0.051624 -0.058525 3.000000
-0.466955 -0.057037 -0.004944 3.000000
-0.466955 -0.043738 0.020470 3.000000
-0.466955 0.010246 -0.037867 3.000000
-0.466955 -0.005098 -0.069774 3.000000
-0.466955 0.077130 0.063707 3.000000
-0.466955 -0.008942 0.059769 3.000000
-0.466955 -0.075193 0.005588 3.000000
-0.466955 0.019372 0.091596 3.000000
-0.466955 0.034365 -0.073502 3.000000
-0.466955 -0.093852 0.025773 3.000000
-0.466955 0.075506 -0.018116 3.000000
-0.466955 0.078704 0.020976 3.000000
-0.466955 -0.033288 0.093587 3.000000
-0.466955 -0.047871 0.076729 3.000000
-0.466955 -0.035832 0.042391 3.000000
-0.466955 -0.041204 0.077592 3.000000
-0.466955 -0.034416 0.079649 3.000000
-0.466955 0.005678 -0.068498 3.000000
-0.466955 -0.053508 -0.003489 3.000000
-0.466955 0.093413 0.024970 3.000000
-0.466955 -0.006211 0.035276 3.000000
-0.466955 0.057426 -0.006344 3.000000
-0.466955 -0.032230 -0.083626 3.000000
-0.466955 -0.014418 0.041168 3.000000
-0.466955 -0.010360 -0.053151 3.000000
-0.466955 0.013607 0.067627 3.000000
-0.466955 0.016961 -0.008846 3.000000
-0.466955 0.024385 0.007702 3.000000
-0.466955 0.061828 -0.052820 3.000000
-0.466955 -0.074649 0.066071 3.000000
-0.466955 -0.033139 0.011444 3.000000
-0.466955 -0.050103 -0.006785 3.000000
-0.466955 0.000982 -0.001923 3.000000
-0.466955 -0.018208 -0.065128 3.000000
-0.466955 0.060205 0.032141 3.000000
-0.466955 0.058912 -0.034689 3.000000
-0.466955 0.061224 -0.001475 3.000000
-0.466955 0.033232 -0.046846 3.000000
-0.466955 0.079723 -0.004216 3.000000
-0.466955 0.034379 -0.040825 3.000000
-0.466955 -0.044954 -0.088901 3.000000
-0.466955 -0.019463 0.031777 3.000000
-0.466955 -0.001876 -0.068513 3.000000
-0.466955 -0.099410 0.005496 3.000000
-0.466955 0.032041 0.072629 3.000000
-0.466955 -0.057533 -0.079976 3.000000
-0.466955 -0.077830 0.020458 3.000000
-0.466955 0.006820 0.050867 3.000000
-0.466955 -0.037269 0.022996 3.000000
-0.466955 0.008699 0.088940 3.000000
-0.466955 -0.027309 0.044932 3.000000
-0.466955 0.032172 -0.014529 3.000000
-0.466955 0.083291 0.019138 3.000000
-0.466955 -0.000357 -0.073183 3.000000
-0.466955 -0.002986 0.035690 3.000000
-0.466955 -0.032776 0.003661 3.000000
-0.466955 -0.041243 -0.040159 3.000000
-0.466955 -0.073057 0.023057 3.000000
-0.466955 -0.019203 -0.083046 3.000000
-0.466955 -0.031918 0.094301 3.000000
-0.466955 0.047120 -0.079239 3.000000
-0.466955 -0.052230 -0.032087 3.000000
-0.466955 0.025862 0.046863 3.000000
-0.466955 -0.041378 -0.052689 3.000000
-0.466955 -0.062007 -0.077706 3.000000
-0.466955 -0.065080 -0.066387 3.000000
-0.466955 -0.055139 -0.028528 3.000000
-0.466955 -0.057729 -0.020060 3.000000
-0.466955 0.018218 0.022000 3.000000
-0.466955 0.052666 -0.018740 3.000000
-0.466955 -0.062241 -0.050824 3.000000
-0.466955 0.004426 -0.091016 3.000000
-0.466955 0.010861 0.025920 3.000000
-0.466955 0.005481 -0.015499 3.000000
-0.466955 0.068937 0.060455 3.000000
-0.466955 0.020656 -0.097123 3.000000
-0.466955 -0.025934 -0.086470 3.000000
-0.466955 0.034197 0.035819 3.000000
-0.466955 0.014132 0.040252 3.000000
-0.466955 -0.039737 -0.051711 3.000000
-0.466955 -0.073283 -0.009194 3.000000
-0.466955 -0.068661 0.068978 3.000000
-0.466955 -0.010889 0.077714 3.000000
-0.466955 0.050947 0.035552 3.000000
-0.466955 -0.083782 0.042665 3.000000
-0.466955 -0.024271 0.079278 3.000000
-0.466955 0.009276 -0.089539 3.000000
-0.466955 0.008889 0.030254 3.000000
-0.466955 -0.044874 0.072131 3.000000
-0.466955 0.033487 0.002768 3.000000
-0.466955 0.014142 0.081130 3.000000
-0.466955 -0.024482 -0.052009 3.000000
-0.466955 -0.015405 -0.010070 3.000000
-0.466955 0.018598 0.045613 3.000000
-0.466955 0.072348 -0.066197 3.000000
-0.466955 0.028923 0.021430 3.000000
-0.466955 0.033686 0.069601 3.000000
-0.466955 0.057632 -0.024239 3.000000
-0.466955 0.091946 0.010209 3.000000
-0.466955 0.037060 0.006765 3.000000
-0.466955 0.027633 0.035289 3.000000
-0.466955 -0.060260 0.036037 3.000000
-0.466955 0.020781 -0.065139 3.000000
-0.466955 -0.065152 -0.020600 3.000000
-0.466955 -0.020458 -0.001035 3.000000
-0.466955 -0.044084 -0.049756 3.000000
-0.466955 0.023917 0.026883 3.000000
-0.466955 0.036031 0.064441 3.000000
-0.466955 0.017582 0.062455 3.000000
-0.466955 0.042024 -0.076956 3.000000
-0.466955 -0.061031 -0.032609 3.000000
-0.466955 0.002547 -0.053876 3.000000
-0.466955 -0.003364 0.018362 3.000000
-0.466955 0.012184 0.037338 3.000000
-0.466955 0.072684 0.006836 3.000000
-0.466955 0.084452 0.033523 3.000000
-0.466955 -0.069360 0.063889 3.000000
-0.466955 0.040935 0.052764 3.000000
-0.466955 -0.054421 0.014596 3.000000
-0.466955 -0.045432 -0.069996 3.000000
-0.466955 0.069802 -0.064429 3.000000
-0.466955 -0.016135 0.053305 3.000000
-0.466955 -0.024924 0.040009 3.000000
-0.466955 -0.070533 0.006140 3.000000
-0.466955 0.034555 -0.047636 3.000000
-0.466955 0.047043 -0.077651 3.000000
-0.466955 -0.039860 0.055865 3.000000
-0.466955 -0.066815 -0.057976 3.000000
-0.466955 -0.055087 0.060505 3.000000
-0.466955 -0.077985 0.011340 3.000000
-0.466955 0.020089 0.069548 3.000000
-0.466955 0.072284 -0.055192 3.000000
-0.466955 -0.050207 -0.051231 3.000000
-0.466955 0.047232 -0.064283 3.000000
-0.466955 0.042345 0.001111 3.000000
-0.466955 0.013749 0.050422 3.000000
-0.466955 -0.016669 0.054888 3.000000
-0.466955 -0.017104 -0.030009 3.000000
-0.466955 -0.063536 0.048691 3.000000
-0.466955 0.077106 -0.027695 3.000000
-0.466955 0.044146 0.079050 3.000000
-0.466955 0.000828 -0.019444 3.000000
-0.466955 -0.016862 0.082462 3.000000
-0.466955 0.060845 0.073949 3.000000
-0.466955 0.005787 0.053375 3.000000
-0.466955 -0.022451 -0.064373 3.000000
-0.466955 -0.027064 -0.046035 3.000000
-0.466955 0.036639 0.032366 3.000000
-0.466955 -0.054688 -0.071343 3.000000
-0.466955 -0.020976 0.016062 3.000000
-0.466955 -0.001748 0.093447 3.000000
-0.466955 0.037369 0.084730 3.000000
-0.466955 -0.050647 -0.028716 3.000000
-0.466955 -0.044050 -0.006020 3.000000
-0.466955 0.031348 0.049021 3.000000
-0.466955 0.001072 -0.041057 3.000000
-0.466955 -0.053615 -0.005376 3.000000
-0.466955 0.008745 -0.033518 3.000000
-0.466955 -0.000629 -0.069457 3.000000
-0.466955 -0.064529 -0.045295 3.000000
-0.466955 0.024070 0.077736 3.000000
-0.466955 -0.085035 -0.006472 3.000000
-0.466955 0.000590 0.036382 3.000000
-0.466955 -0.021574 -0.019117 3.000000
-0.466955 -0.041099 -0.075442 3.000000
-0.466955 0.087121 -0.048752 3.000000
-0.466955 -0.015175 -0.057271 3.000000
-0.466955 0.008165 -0.043179 3.000000
-0.466955 -0.090622 0.021026 3.000000
-0.466955 0.030938 0.000611 3.000000
-0.466955 0.014411 -0.065112 3.000000
-0.466955 -0.043109 0.076899 3.000000
-0.466955 -0.073112 -0.004410 3.000000
-0.466955 -0.033196 -0.025593 3.000000
-0.466955 -0.020779 -0.037216 3.000000
-0.466955 0.042182 0.072867 3.000000
-0.466955 0.028834 0.072762 3.000000
-0.466955 0.089039 0.016806 3.000000
-0.466955 -0.021854 -0.031343 3.000000
-0.466955 -0.049773 -0.049612 3.000000
-0.466955 -0.037792 -0.051017 3.000000
-0.466955 0.068785 -0.066331 3.000000
-0.466955 -0.013673 -0.072013 3.000000
-0.466955 -0.072450 -0.039999 3.000000
-0.466955 0.043698 -0.036365 3.000000
-0.466955 -0.065919 0.029772 3.000000
-0.466955 -0.028185 0.061638 3.000000
-0.466955 -0.086119 0.050121 3.000000
-0.466955 -0.009322 0.092982 3.000000
-0.466955 0.018595 -0.082046 3.000000
-0.466955 -0.035340 0.026601 3.000000
-0.466955 -0.025948 0.092619 3.000000
-0.466955 -0.054129 0.073133 3.000000
-0.466955 -0.035996 -0.089628 3.000000
-0.466955 0.013022 0.051867 3.000000
-0.466955 0.020820 -0.036016 3.000000
-0.466955 0.041164 0.027663 3.000000
-0.466955 0.031256 0.083380 3.000000
-0.466955 0.010946 0.068614 3.000000
-0.466955 0.027143 -0.056519 3.000000
-0.466955 -0.092089 -0.032672 3.000000
-0.466955 0.005105 0.083084 3.000000
-0.466955 0.030117 0.090339 3.000000
-0.466955 0.042631 0.049174 3.000000
-0.466955 0.027617 -0.095549 3.000000
-0.466955 0.000775 0.094821 3.000000
-0.466955 0.083054 -0.031770 3.000000
-0.466955 0.016406 -0.074225 3.000000
-0.466955 -0.060550 0.033432 3.000000
-0.466955 0.082901 -0.006992 3.000000
-0.466955 -0.055587 -0.059948 3.000000
-0.466955 0.058474 0.050569 3.000000
-0.466955 -0.031979 -0.077902 3.000000
-0.466955 -0.078787 -0.015757 3.000000
-0.466955 0.030684 0.075935 3.000000
-0.466955 0.054600 0.013034 3.000000
-0.466955 0.023103 0.094378 3.000000
-0.466955 0.002922 -0.065912 3.000000
-0.466955 -0.004310 -0.094580 3.000000
-0.466955 -0.041829 -0.080992 3.000000
-0.466955 -0.001364 -0.093815 3.000000
-0.466955 -0.047484 -0.056948 3.000000
-0.466955 -0.005973 0.046334 3.000000
-0.466955 0.062576 0.032438 3.000000
-0.466955 0.032462 0.032191 3.000000
-0.466955 -0.098506 0.015228 3.000000
-0.466955 -0.036999 0.006157 3.000000
-0.466955 0.027707 0.074510 3.000000
-0.466955 -0.044793 0.080358 3.000000
-0.466955 0.003964 -0.016780 3.000000
-0.466955 -0.023893 0.070321 3.000000
-0.466955 -0.037739 0.034862 3.000000
-0.466955 0.006801 -0.069779 3.000000
-0.466955 0.010395 0.029894 3.000000
-0.466955 -0.057569 -0.001172 3.000000
-0.466955 -0.075058 0.036986 3.000000
-0.466955 -0.065045 0.034803 3.000000
-0.466955 0.023125 -0.032687 3.000000
-0.466955 -0.075978 -0.042738 3.000000
-0.466955 -0.020834 0.085140 3.000000
-0.466955 -0.050076 -0.052653 3.000000
-0.466955 0.068014 -0.068003 3.000000
-0.466955 -0.084068 -0.048290 3.000000
-0.466955 -0.049318 -0.058059 3.000000
-0.466955 -0.014349 -0.076270 3.000000
-0.466955 0.048850 -0.023545 3.000000
-0.466955 0.041075 -0.043379 3.000000
-0.466955 0.065380 0.052411 3.000000
-0.466955 0.036519 0.043837 3.000000
-0.466955 0.038279 -0.038063 3.000000
-0.466955 -0.064911 -0.017105 3.000000
-0.466955 0.051252 -0.078803 3.000000
-0.466955 -0.069504 -0.045224 3.000000
-0.466955 -0.033566 0.002018 3.000000
-0.466955 -0.031020 0.058119 3.000000
-0.466955 0.097496 -0.008111 3.000000
-0.466955 0.079966 -0.023770 3.000000
-0.466955 -0.064378 -0.048262 3.000000
-0.466955 -0.018616 -0.019285 3.000000
-0.466955 -0.010506 -0.001284 3.000000
-0.466955 0.030907 0.081768 3.000000
-0.466955 -0.042685 -0.045824 3.000000
-0.466955 0.076284 -0.042213 3.000000
-0.466955 -0.044749 -0.035408 3.000000
-0.466955 0.003678 -0.088190 3.000000
-0.466955 0.062982 -0.005554 3.000000
-0.466955 -0.029989 0.032067 3.000000
-0.466955 -0.061712 0.031000 3.000000
-0.466955 0.024232 0.092046 3.000000
-0.466955 0.073761 -0.047339 3.000000
-0.466955 -0.020162 0.028306 3.000000
-0.466955 -0.039735 -0.016344 3.000000
-0.466955 -0.081871 -0.021355 3.000000
-0.466955 0.003777 -0.050946 3.000000
-0.466955 -0.024920 0.088916 3.000000
-0.466955 0.064207 -0.063582 3.000000
-0.466955 -0.092640 -0.036045 3.000000
-0.466955 0.003998 -0.009567 3.000000
-0.466955 -0.042188 0.039621 3.000000
-0.466955 0.011076 0.085734 3.000000
-0.466955 -0.037164 0.079803 3.000000
-0.466955 -0.031320 -0.039707 3.000000
-0.466955 0.042903 0.047084 3.000000
-0.466955 -0.026640 -0.019392 3.000000
-0.466955 -0.022908 0.006942 3.000000
-0.466955 -0.004974 -0.056154 3.000000
-0.466955 -0.024205 -0.048631 3.000000
-0.466955 0.010701 -0.023209 3.000000
-0.466955 -0.073926 0.011671 3.000000
-0.466955 -0.063605 0.054469 3.000000
-0.466955 -0.044371 0.041867 3.000000
-0.466955 0.060688 0.003697 3.000000
-0.466955 0.014254 0.025187 3.000000
-0.466955 0.013991 0.002597 3.000000
-0.466955 0.060745 -0.031567 3.000000
-0.466955 -0.009514 -0.076088 3.000000
-0.466955 -0.091263 -0.034469 3.000000
-0.466955 0.063402 0.003026 3.000000
-0.466955 -0.076049 0.003903 3.000000
-0.466955 -0.013911 0.044797 3.000000
-0.466955 -0.034910 -0.022874 3.000000
-0.466955 -0.042175 -0.065431 3.000000
-0.466955 -0.037973 0.060745 3.000000
-0.466955 -0.031083 -0.080716 3.000000
-0.466955 -0.004989 0.091402 3.000000
-0.466955 -0.060399 -0.017542 3.000000
-0.466955 -0.002893 0.079847 3.000000
-0.466955 -0.018633 -0.066554 3.000000
-0.466955 -0.039124 0.005902 3.000000
-0.466955 -0.050046 0.076719 3.000000
-0.466955 -0.051577 -0.018175 3.000000
-0.466955 0.016442 -0.068454 3.000000
-0.466955 0.029631 0.035518 3.000000
-0.466955 0.035888 0.080266 3.000000
-0.466955 0.055151 -0.042344 3.000000
-0.466955 -0.044042 0.059555 3.000000
-0.466955 -0.019788 -0.062472 3.000000
-0.466955 -0.096972 -0.014890 3.000000
-0.466955 0.033094 -0.019597 3.000000
-0.466955 0.069808 -0.028528 3.000000
-0.466955 0.076689 0.055466 3.000000
-0.466955 0.015360 0.029510 3.000000
-0.466955 0.031969 -0.090735 3.000000
-0.466955 -0.021277 -0.077621 3.000000
-0.466955 -0.038465 0.041476 3.000000
-0.466955 0.057057 0.016433 3.000000
-0.466955 0.011673 0.017939 3.000000
-0.466955 -0.014746 -0.098185 3.000000
-0.466955 0.014531 0.088247 3.000000
-0.466955 0.039678 0.000945 3.000000
-0.466955 0.097799 -0.017481 3.000000
-0.466955 -0.009402 0.001316 3.000000
-0.466955 -0.033502 0.049721 3.000000
-0.466955 0.059283 0.020746 3.000000
-0.466955 0.052776 0.061495 3.000000
-0.466955 -0.044750 -0.016092 3.000000
-0.466955 0.088248 -0.019579 3.000000
-0.466955 0.043455 0.090015 3.000000
-0.466955 0.010501 0.014718 3.000000
-0.466955 0.035314 0.034884 3.000000
-0.466955 -0.022142 0.031360 3.000000
-0.466955 0.007907 0.086609 3.000000
-0.466955 -0.028627 0.053013 3.000000
-0.466955 0.066946 0.009536 3.000000
-0.466955 0.050372 -0.058220 3.000000
-0.466955 -0.028784 -0.045093 3.000000
-0.466955 -0.013100 0.056652 3.000000
-0.466955 0.029294 0.095072 3.000000
-0.466955 0.009402 -0.064720 3.000000
-0.466955 0.045766 0.030367 3.000000
-0.466955 0.023051 -0.071592 3.000000
-0.466955 0.040814 0.073721 3.000000
-0.466955 -0.030516 -0.045333 3.000000
-0.466955 0.025273 0.086361 3.000000
-0.466955 -0.064970 0.049154 3.000000
-0.466955 -0.079470 0.053175 3.000000
-0.466955 -0.087030 -0.018944 3.000000
-0.466955 -0.000508 0.063189 3.000000
-0.466955 0.065415 0.071269 3.000000
-0.466955 -0.057658 0.004719 3.000000
-0.466955 0.002507 -0.041083 3.000000
-0.466955 -0.032202 0.038040 3.000000
-0.466955 -0.052492 -0.060220 3.000000
-0.466955 0.034299 0.065331 3.000000
-0.466955 -0.067464 -0.027083 3.000000
-0.466955 -0.070780 0.070343 3.000000
-0.466955 0.074689 -0.058793 3.000000
-0.466955 0.001560 -0.008187 3.000000
-0.466955 0.044374 0.004424 3.000000
-0.466955 -0.021146 0.014689 3.000000
-0.466955 -0.029583 0.084554 3.000000
-0.466955 0.035411 -0.070194 3.000000
-0.466955 -0.013517 -0.039393 3.000000
-0.466955 -0.078508 0.035677 3.000000
-0.466955 0.004461 -0.043799 3.000000
-0.466955 -0.016212 -0.031237 3.000000
-0.466955 -0.024855 0.048371 3.000000
-0.466955 0.003998 -0.059916 3.000000
-0.466955 0.068604 0.068777 3.000000
-0.466955 -0.060335 0.021867 3.000000
-0.466955 -0.019164 0.079754 3.000000
-0.466955 -0.039979 0.026788 3.000000
-0.466955 -0.064826 -0.005949 3.000000
-0.466955 -0.048695 0.046957 3.000000
-0.466955 0.067413 -0.044854 3.000000
-0.466955 -0.016560 -0.001878 3.000000
-0.466955 0.067328 -0.003286 3.000000
-0.466955 0.048548 0.041170 3.000000
-0.466955 0.038311 0.060722 3.000000
-0.466955 -0.097057 -0.021834 3.000000
-0.466955 -0.045881 -0.066611 3.000000
-0.466955 -0.022807 -0.043179 3.000000
-0.466955 0.078659 0.009626 3.000000
-0.466955 0.066456 -0.056591 3.000000
-0.466955 0.026428 -0.054733 3.000000
-0.466955 0.022734 -0.047725 3.000000
-0.466955 -0.002992 -0.083269 3.000000
-0.466955 0.020345 -0.051209 3.000000
-0.466955 0.048350 0.037751 3.000000
-0.466955 0.097652 0.018542 3.000000
-0.466955 0.001057 -0.022705 3.000000
-0.466955 -0.095517 0.001088 3.000000
-0.466955 -0.010090 0.028996 3.000000
-0.466955 -0.013502 0.089078 3.000000
-0.466955 -0.058306 0.019223 3.000000
-0.466955 0.026874 0.025242 3.000000
-0.466955 -0.040532 -0.033986 3.000000
-0.466955 0.008687 0.072047 3.000000
-0.466955 0.087638 0.025159 3.000000
-0.466955 0.005452 0.004812 3.000000
-0.466955 0.013830 -0.006092 3.000000
-0.466955 0.030008 -0.056444 3.000000
-0.466955 -0.001156 -0.017018 3.000000
-0.466955 -0.018592 -0.070044 3.000000
-0.466955 -0.000275 -0.092842 3.000000
-0.466955 0.030481 0.088860 3.000000
-0.466955 0.060149 0.041666 3.000000
-0.466955 -0.041771 -0.054206 3.000000
-0.466955 -0.036417 0.028066 3.000000
-0.466955 -0.051059 -0.015985 3.000000
-0.466955 -0.090805 0.019622 3.000000
-0.466955 0.020254 0.027785 3.000000
-0.466955 -0.012628 -0.006698 3.000000
-0.466955 -0.007035 -0.030854 3.000000
-0.466955 -0.099596 -0.000556 3.000000
-0.466955 -0.022394 0.039830 3.000000
-0.466955 -0.080236 -0.020783 3.000000
-0.466955 0.062128 0.030001 3.000000
-0.466955 0.010020 0.070770 3.000000
-0.466955 0.057385 -0.057521 3.000000
-0.466955 -0.074911 -0.059188 3.000000
-0.466955 -0.059439 0.023474 3.000000
-0.466955 0.012701 0.053447 3.000000
-0.466955 0.035562 0.084441 3.000000
-0.466955 0.056632 0.055277 3.000000
-0.466955 0.022551 0.012488 3.000000
-0.466955 0.054634 0.080784 3.000000
-0.466955 0.000953 -0.037821 3.000000
-0.466955 -0.093284 -0.014458 3.000000
-0.466955 0.043741 0.074707 3.000000
-0.466955 0.049273 0.055840 3.000000
-0.466955 0.011978 -0.013127 3.000000
-0.466955 -0.061924 -0.011353 3.000000
-0.466955 0.006128 -0.013929 3.000000
-0.466955 0.069682 0.067523 3.000000
-0.466955 0.007813 -0.001070 3.000000
-0.466955 0.023542 0.022848 3.000000
-0.466955 -0.002143 0.045201 3.000000
-0.466955 0.079708 0.029652 3.000000
-0.466955 -0.094512 0.014944 3.000000
-0.466955 -0.056367 -0.080845 3.000000
-0.466955 0.012806 -0.069368 3.000000
-0.466955 0.022207 -0.043896 3.000000
-0.466955 0.010204 -0.073226 3.000000
-0.466955 -0.038733 0.004190 3.000000
-0.466955 -0.055881 -0.072209 3.000000
-0.466955 -0.060477 -0.038214 3.000000
-0.466955 0.015671 -0.019580 3.000000
-0.466955 0.077110 -0.046585 3.000000
-0.466955 -0.048462 0.087144 3.000000
-0.466955 0.025518 0.089226 3.000000
-0.466955 0.070168 -0.053145 3.000000
-0.466955 -0.081488 -0.035770 3.000000
-0.466955 0.076968 0.037248 3.000000
-0.466955 0.023614 -0.010581 3.000000
-0.466955 0.077298 -0.049319 3.000000
-0.466955 0.094289 -0.012973 3.000000
-0.466955 -0.042966 0.056298 3.000000
-0.466955 0.032678 0.024243 3.000000
-0.466955 0.060745 0.023757 3.000000
-0.466955 0.039601 0.054631 3.000000
-0.466955 -0.027114 -0.089493 3.000000
-0.466955 -0.026272 -0.050093 3.000000
-0.466955 -0.014948 0.065400 3.000000
-0.466955 0.030257 -0.046840 3.000000
-0.466955 0.003546 0.010968 3.000000
-0.466955 -0.099352 -0.008325 3.000000
-0.466955 -0.033150 0.082445 3.000000
-0.466955 0.020035 0.058561 3.000000
-0.466955 0.076440 0.032074 3.000000
-0.466955 -0.088116 0.009473 3.000000
-0.466955 -0.046673 0.019080 3.000000
-0.466955 0.040648 0.082419 3.000000
-0.466955 -0.060016 0.025015 3.000000
-0.466955 -0.035958 -0.056697 3.000000
-0.466955 0.058802 0.040686 3.000000
-0.466955 0.085552 0.041718 3.000000
-0.466955 0.068130 0.013747 3.000000
-0.466955 -0.097785 0.017285 3.000000
-0.466955 -0.035058 -0.010336 3.000000
-0.466955 -0.055641 -0.066967 3.000000
-0.466955 0.020672 0.039910 3.000000
-0.466955 0.087324 0.033119 3.000000
-0.466955 0.066905 -0.043297 3.000000
-0.466955 -0.047363 0.013734 3.000000
-0.466955 0.004041 0.029744 3.000000
-0.466955 -0.029881 -0.018817 3.000000
-0.466955 0.064187 0.017367 3.000000
-0.466955 0.089120 -0.030125 3.000000
-0.466955 -0.014804 0.014859 3.000000
-0.466955 -0.007576 0.036017 3.000000
-0.466955 0.001266 -0.044410 3.000000
-0.466955 0.027116 -0.047649 3.000000
-0.466955 0.023711 -0.068585 3.000000
-0.466955 -0.051430 0.037218 3.000000
-0.466955 0.085524 0.007354 3.000000
-0.466955 0.043043 0.065452 3.000000
-0.466955 0.053184 0.034890 3.000000
-0.466955 0.004964 -0.006060 3.000000
-0.466955 -0.029681 0.089944 3.000000
-0.466955 0.004028 -0.057935 3.000000
-0.466955 0.072613 -0.030105 3.000000
-0.466955 -0.049528 0.080222 3.000000
-0.466955 -0.022584 -0.059316 3.000000
-0.466955 -0.037181 0.056609 3.000000
-0.466955 0.009188 0.041251 3.000000
-0.466955 0.052282 -0.074005 3.000000
-0.466955 -0.074820 0.038943 3.000000
-0.466955 -0.007133 -0.076891 3.000000
-0.466955 0.060900 -0.067256 3.000000
-0.466955 0.088079 -0.044256 3.000000
-0.466955 0.059084 -0.052067 3.000000
-0.466955 -0.031219 -0.060625 3.000000
-0.466955 -0.045495 0.024801 3.000000
-0.466955 0.033824 0.017188 3.000000
-0.466955 0.008401 0.024350 3.000000
-0.466955 0.053866 0.009754 3.000000
-0.466955 -0.028618 0.047266 3.000000
-0.466955 -0.083655 0.038468 3.000000
-0.466955 -0.091967 0.023924 3.000000
-0.466955 0.092118 0.017177 3.000000
-0.466955 -0.029549 0.037469 3.000000
-0.466955 0.009869 0.055217 3.000000
-0.466955 0.092363 -0.029617 3.000000
-0.466955 0.023868 -0.072967 3.000000
-0.466955 -0.063254 -0.031863 3.000000
-0.466955 -0.062329 0.064148 3.000000
-0.466955 0.095856 -0.012977 3.000000
-0.466955 0.017833 -0.083886 3.000000
-0.466955 -0.077784 0.044338 3.000000
-0.466955 -0.000144 0.080690 3.000000
-0.466955 -0.076226 0.034395 3.000000
-0.466955 0.084040 -0.012024 3.000000
-0.466955 -0.046193 0.001256 3.000000
-0.466955 0.058762 0.054532 3.000000
-0.466955 0.002354 -0.076828 3.000000
-0.466955 -0.046075 -0.025145 3.000000
-0.466955 -0.066855 -0.007677 3.000000
-0.466955 -0.033235 0.020202 3.000000
-0.466955 0.022549 -0.061828 3.000000
-0.466955 -0.047843 0.075250 3.000000
-0.466955 -0.037708 0.009659 3.000000
-0.466955 0.052422 -0.046773 3.000000
-0.466955 0.075225 0.008274 3.000000
-0.466955 -0.020913 -0.050233 3.000000
-0.466955 0.078211 0.054166 3.000000
-0.466955 0.022879 -0.084745 3.000000
-0.466955 -0.038521 0.083614 3.000000
-0.466955 -0.086989 -0.020535 3.000000
-0.466955 -0.063824 -0.070742 3.000000
-0.466955 -0.076837 0.005416 3.000000
-0.466955 -0.020003 -0.043584 3.000000
-0.466955 -0.039995 0.059517 3.000000
-0.466955 -0.065735 0.013334 3.000000
-0.466955 -0.021378 0.019559 3.000000
-0.466955 0.051206 0.039739 3.000000
-0.466955 -0.063021 0.067404 3.000000
-0.466955 0.012992 -0.075614 3.000000
-0.466955 -0.086368 -0.048193 3.000000
-0.466955 -0.007110 -0.047237 3.000000
-0.466955 -0.006586 0.050947 3.000000
-0.466955 0.042785 0.016807 3.000000
-0.466955 -0.011987 0.055044 3.000000
-0.466955 0.048926 0.079129 3.000000
-0.466955 -0.046661 0.016143 3.000000
-0.466955 0.026774 0.081461 3.000000
-0.466955 0.085313 0.002359 3.000000
-0.466955 -0.018897 -0.050595 3.000000
-0.466955 0.005669 0.098928 3.000000
-0.466955 -0.039653 0.061511 3.000000
-0.466955 -0.063495 -0.062315 3.000000
-0.466955 0.077970 0.032212 3.000000
-0.466955 -0.092948 0.014088 3.000000
-0.466955 0.057637 -0.034197 3.000000
-0.466955 -0.015496 0.089825 3.000000
-0.466955 -0.052307 0.044605 3.000000
-0.466955 -0.046637 0.087054 3.000000
-0.466955 -0.005650 0.098969 3.000000
-0.466955 0.080285 0.005629 3.000000
-0.466955 -0.008171 -0.010912 3.000000
-0.466955 -0.057872 0.011691 3.000000
-0.466955 0.047062 0.008347 3.000000
-0.466955 0.034473 -0.025111 3.000000
-0.466955 0.031824 -0.000608 3.000000
-0.466955 0.067278 0.005643 3.000000
-0.466955 0.022290 0.082414 3.000000
-0.466955 0.023181 -0.088370 3.000000
-0.466955 0.037964 0.072575 3.000000
-0.466955 0.000297 0.002863 3.000000
-0.466955 -0.085891 0.026700 3.000000
-0.466955 0.052034 0.048886 3.000000
-0.466955 -0.045969 -0.056456 3.000000
-0.466955 0.027890 -0.089457 3.000000
-0.466955 0.040116 -0.019898 3.000000
-0.466955 0.061496 -0.017989 3.000000
-0.466955 0.069910 -0.033595 3.000000
-0.466955 -0.030633 0.043164 3.000000
-0.466955 -0.016557 0.066477 3.000000
-0.466955 0.096020 -0.027315 3.000000
-0.466955 -0.086654 -0.024065 3.000000
-0.466955 -0.078821 -0.053691 3.000000
-0.466955 0.005620 -0.022576 3.000000
-0.466955 0.043319 0.019764 3.000000
-0.466955 -0.044448 -0.079565 3.000000
-0.466955 -0.078270 -0.004944 3.000000
-0.466955 0.048406 0.063658 3.000000
-0.466955 -0.064952 -0.038665 3.000000
-0.466955 0.072294 -0.057693 3.000000
-0.466955 0.015539 -0.063460 3.000000
-0.466955 -0.034448 -0.064939 3.000000
-0.466955 0.017117 -0.019258 3.000000
-0.466955 0.029985 0.084325 3.000000
-0.466955 -0.054442 -0.045661 3.000000
-0.466955 -0.014483 0.053000 3.000000
-0.466955 -0.043767 -0.085243 3.000000
-0.466955 0.074723 -0.028321 3.000000
-0.466955 -0.063911 0.035654 3.000000
-0.466955 0.092172 -0.038022 3.000000
-0.466955 -0.036701 -0.003141 3.000000
-0.466955 0.017879 0.028476 3.000000
-0.466955 -0.060761 0.049950 3.000000
-0.466955 -0.084732 -0.029260 3.000000
-0.466955 0.051720 -0.049769 3.000000
-0.466955 -0.077075 -0.039917 3.000000
-0.466955 0.073770 -0.055387 3.000000
-0.466955 0.052720 0.050310 3.000000
-0.466955 0.043788 -0.018882 3.000000
-0.466955 -0.003809 0.078440 3.000000
-0.466955 0.070629 0.045210 3.000000
-0.466955 -0.024877 -0.083797 3.000000
-0.466955 0.009690 0.003803 3.000000
-0.466955 -0.016262 0.006409 3.000000
-0.466955 -0.047107 -0.077014 3.000000
-0.466955 -0.016594 -0.075452 3.000000
-0.466955 0.005454 0.077059 3.000000
-0.466955 0.046934 0.085048 3.000000
-0.466955 -0.088952 -0.010009 3.000000
-0.466955 0.048178 -0.053222 3.000000
-0.466955 0.019796 -0.091953 3.000000
-0.466955 -0.085076 -0.051495 3.000000
-0.466955 0.009248 -0.092029 3.000000
-0.466955 -0.065996 0.036076 3.000000
-0.466955 -0.002984 0.019986 3.000000
-0.466955 -0.029774 0.067673 3.000000
-0.466955 -0.051995 0.000989 3.000000
-0.466955 -0.009321 0.004480 3.000000
-0.466955 0.007669 0.054173 3.000000
-0.466955 -0.036664 -0.081999 3.000000
-0.466955 0.043443 0.007419 3.000000
-0.466955 -0.073151 -0.049447 3.000000
-0.466955 -0.005988 -0.082107 3.000000
-0.466955 -0.017283 -0.088243 3.000000
-0.466955 -0.050465 -0.023308 3.000000
-0.466955 0.014699 -0.056111 3.000000
-0.466955 0.027835 -0.032861 3.000000
-0.466955 0.004224 -0.080793 3.000000
-0.466955 -0.060442 -0.076829 3.000000
-0.466955 0.077420 0.058614 3.000000
-0.466955 -0.066056 -0.034488 3.000000
-0.466955 -0.005103 -0.079276 3.000000
-0.466955 0.074693 -0.038864 3.000000
-0.466955 0.013379 -0.020031 3.000000
-0.466955 -0.035621 0.013930 3.000000
-0.466955 -0.068317 0.046206 3.000000
-0.466955 0.074669 0.061729 3.000000
-0.466955 0.046212 0.010217 3.000000
-0.466955 -0.059789 0.063542 3.000000
-0.466955 -0.065317 -0.019153 3.000000
-0.466955 0.068595 -0.045718 3.000000
-0.466955 0.028556 0.026082 3.000000
-0.466955 0.008555 -0.076715 3.000000
-0.466955 0.031551 0.068810 3.000000
-0.466955 -0.062302 -0.066674 3.000000
-0.466955 -0.011786 -0.002101 3.000000
-0.466955 -0.014165 -0.030191 3.000000
-0.466955 -0.021793 -0.065703 3.000000
-0.466955 0.038131 0.037184 3.000000
-0.466955 0.092544 0.030478 3.000000
-0.466955 0.034720 -0.077513 3.000000
-0.466955 -0.029282 -0.015581 3.000000
-0.466955 0.022969 -0.020324 3.000000
-0.466955 -0.068183 0.064719 3.000000
-0.466955 0.017077 0.072858 3.000000
-0.466955 0.025077 -0.087464 3.000000
-0.466955 -0.042983 -0.038178 3.000000
-0.466955 0.096974 -0.001100 3.000000
-0.466955 0.081474 -0.022408 3.000000
-0.466955 -0.038095 -0.002719 3.000000
-0.466955 -0.028616 -0.004854 3.000000
-0.466955 -0.002163 -0.025707 3.000000
-0.466955 -0.037236 -0.062514 3.000000
-0.466955 -0.059811 0.077159 3.000000
-0.466955 0.084153 0.032081 3.000000
-0.466955 0.071167 0.032066 3.000000
-0.466955 -0.085289 -0.007989 3.000000
-0.466955 -0.050949 0.032112 3.000000
-0.466955 0.025682 -0.006722 3.000000
-0.466955 0.041787 0.010161 3.000000
-0.466955 0.007116 0.072146 3.000000
-0.466955 0.051127 0.061985 3.000000
-0.466955 -0.033598 0.046931 3.000000
-0.466955 0.012111 -0.016859 3.000000
-0.466955 -0.055584 0.076658 3.000000
-0.466955 -0.023152 -0.006067 3.000000
-0.466955 0.074273 -0.021229 3.000000
-0.466955 0.020439 0.073347 3.000000
-0.466955 0.086704 0.043251 3.000000
-0.466955 -0.045707 -0.019683 3.000000
-0.466955 0.008358 0.004715 3.000000
-0.466955 -0.057118 -0.033064 3.000000
-0.466955 -0.073609 -0.014987 3.000000
-0.466955 -0.029934 0.091396 3.000000
-0.466955 -0.045791 -0.003556 3.000000
-0.466955 -0.072268 -0.047654 3.000000
-0.466955 -0.033316 0.029702 3.000000
-0.466955 -0.037128 -0.080214 3.000000
-0.466955 -0.088208 0.030075 3.000000
-0.466955 0.067700 0.036489 3.000000
-0.466955 -0.061982 -0.053857 3.000000
-0.466955 -0.080142 0.029591 3.000000
-0.466955 -0.031460 -0.089328 3.000000
-0.466955 -0.018045 0.007990 3.000000
-0.466955 0.009518 -0.026685 3.000000
-0.466955 0.066967 0.014744 3.000000
-0.466955 0.087924 0.047051 3.000000
-0.466955 -0.000888 0.017660 3.000000
-0.466955 0.039705 0.079618 3.000000
-0.466955 0.037115 -0.086910 3.000000
-0.466955 -0.064418 0.002820 3.000000
-0.466955 0.059410 0.074944 3.000000
-0.466955 0.071385 -0.002688 3.000000
-0.466955 0.040210 0.026569 3.000000
-0.466955 -0.014365 0.069450 3.000000
-0.466955 -0.089675 0.013202 3.000000
-0.466955 0.021985 -0.006935 3.000000
-0.466955 -0.044043 0.063472 3.000000
-0.466955 0.072927 -0.018246 3.000000
-0.466955 0.086160 0.030334 3.000000
-0.466955 0.045591 0.086018 3.000000
-0.466955 0.022673 0.078587 3.000000
-0.466955 -0.075351 -0.057423 3.000000
-0.466955 0.058336 0.031453 3.000000
-0.466955 0.050410 0.048202 3.000000
-0.466955 -0.003739 -0.033365 3.000000
-0.466955 0.032880 0.036059 3.000000
-0.466955 0.015634 0.077518 3.000000
-0.466955 0.044199 -0.087764 3.000000
-0.466955 -0.001292 0.013889 3.000000
-0.466955 -0.073945 0.019227 3.000000
-0.466955 -0.087958 -0.015936 3.000000
-0.466955 -0.073281 -0.058948 3.000000
-0.466955 -0.026836 0.090878 3.000000
-0.466955 -0.049368 0.085804 3.000000
-0.466955 -0.035923 0.007563 3.000000
-0.466955 0.065799 0.042308 3.000000
-0.466955 0.007835 0.043466 3.000000
-0.466955 0.080441 -0.015897 3.000000
-0.466955 0.053107 -0.052728 3.000000
-0.466955 -0.036760 -0.031314 3.000000
-0.466955 0.040599 0.062851 3.000000
-0.466955 -0.045424 0.003685 3.000000
-0.466955 -0.096019 0.016781 3.000000
-0.466955 0.077507 0.018167 3.000000
-0.466955 0.013260 0.090171 3.000000
-0.466955 0.010440 0.097470 3.000000
-0.466955 0.047808 -0.076084 3.000000
-0.466955 -0.011935 0.089036 3.000000
-0.466955 -0.048607 0.078529 3.000000
-0.466955 0.015705 0.040649 3.000000
-0.466955 0.015917 0.047872 3.000000
-0.466955 0.058495 -0.020454 3.000000
-0.466955 0.014360 -0.070099 3.000000
-0.466955 -0.034850 -0.069925 3.000000
-0.466955 0.079975 0.026863 3.000000
-0.466955 -0.024599 0.091071 3.000000
-0.466955 -0.045714 -0.032209 3.000000
-0.466955 0.049619 0.069611 3.000000
-0.466955 -0.020778 0.003104 3.000000
-0.466955 -0.072624 0.010611 3.000000
-0.466955 -0.053789 -0.067591 3.000000
-0.466955 -0.044220 0.050705 3.000000
-0.466955 0.063828 -0.001041 3.000000
-0.466955 0.018163 -0.011937 3.000000
-0.466955 -0.083444 -0.003164 3.000000
-0.466955 0.035466 -0.005396 3.000000
-0.466955 0.062833 -0.019179 3.000000
-0.466955 -0.078843 -0.040901 3.000000
-0.466955 -0.089096 0.001116 3.000000
-0.466955 -0.009936 -0.036968 3.000000
-0.466955 0.005489 0.030525 3.000000
-0.466955 -0.069461 -0.006076 3.000000
-0.466955 -0.039654 -0.084628 3.000000
-0.466955 -0.048061 0.040939 3.000000
-0.466955 -0.052455 0.013357 3.000000
-0.466955 0.051224 -0.040871 3.000000
-0.466955 0.029338 0.085578 3.000000
-0.466955 -0.086721 0.040071 3.000000
-0.466955 -0.062788 -0.023443 3.000000
-0.466955 -0.040933 -0.064237 3.000000
-0.466955 -0.033535 -0.070885 3.000000
-0.466955 -0.049869 0.031200 3.000000
-0.466955 0.033785 -0.076498 3.000000
-0.466955 0.032108 0.093783 3.000000
-0.466955 0.002097 0.046670 3.000000
-0.466955 -0.029383 0.040690 3.000000
-0.466955 -0.001801 0.061718 3.000000
-0.466955 0.004797 -0.052209 3.000000
-0.466955 -0.067462 0.028498 3.000000
-0.466955 0.052271 -0.011633 3.000000
-0.466955 0.030306 0.062600 3.000000
-0.466955 -0.025936 -0.010212 3.000000
-0.466955 0.006847 -0.094594 3.000000
-0.466955 -0.044412 0.007141 3.000000
-0.466955 -0.041971 0.011383 3.000000
-0.466955 -0.005098 -0.002346 3.000000
-0.466955 -0.027394 0.084569 3.000000
-0.466955 -0.091026 -0.017374 3.000000
-0.466955 -0.017406 0.061788 3.000000
-0.466955 0.057330 -0.013206 3.000000
-0.466955 0.002690 -0.045092 3.000000
-0.466955 -0.075627 -0.039241 3.000000
-0.466955 0.091548 -0.003463 3.000000
-0.466955 0.023189 0.006687 3.000000
-0.466955 0.006748 -0.005780 3.000000
-0.466955 0.044388 0.031297 3.000000
-0.466955 0.057631 0.027812 3.000000
-0.466955 -0.065114 -0.058782 3.000000
-0.466955 -0.015134 0.071210 3.000000
-0.466955 0.038214 -0.089790 3.000000
-0.466955 -0.044280 -0.024597 3.000000
-0.466955 0.014755 -0.092247 3.000000
-0.466955 -0.046385 -0.075844 3.000000
-0.466955 -0.060863 0.041768 3.000000
-0.466955 -0.008854 -0.030940 3.000000
-0.466955 0.096186 -0.003104 3.000000
-0.466955 0.081388 -0.001434 3.000000
-0.466955 -0.065690 0.003322 3.000000
-0.466955 -0.012837 0.097574 3.000000
-0.466955 -0.048456 -0.070931 3.000000
-0.466955 -0.062203 0.025781 3.000000
-0.466955 0.045367 0.036126 3.000000
-0.466955 0.080531 0.017068 3.000000
-0.466955 0.033343 -0.012311 3.000000
-0.466955 0.003892 0.018705 3.000000
-0.466955 -0.002070 0.057803 3.000000
-0.466955 -0.000660 0.041410 3.000000
-0.466955 -0.053213 0.038900 3.000000
-0.466955 -0.035098 0.016072 3.000000
-0.466955 0.040862 -0.039476 3.000000
-0.466955 0.027415 -0.004336 3.000000
-0.466955 0.004210 -0.000145 3.000000
-0.466955 0.006193 0.074685 3.000000
-0.466955 -0.019478 -0.045145 3.000000
-0.466955 0.008076 0.025822 3.000000
-0.466955 0.047954 0.083524 3.000000
-0.466955 -0.062423 -0.013251 3.000000
-0.466955 0.062227 -0.040827 3.000000
-0.466955 -0.071208 -0.049971 3.000000
-0.466955 -0.065104 -0.051554 3.000000
-0.466955 0.019069 -0.035976 3.000000
-0.466955 0.002151 -0.086823 3.000000
-0.466955 0.064199 0.007310 3.000000
-0.466955 0.094745 0.023993 3.000000
-0.466955 0.009573 0.075177 3.000000
-0.466955 -0.052458 0.042518 3.000000
-0.466955 -0.060099 0.043931 3.000000
-0.466955 -0.059242 -0.029977 3.000000
-0.466955 -0.059188 -0.020629 3.000000
-0.466955 0.036069 -0.078096 3.000000
-0.466955 -0.064348 0.044677 3.000000
-0.466955 0.017570 -0.046355 3.000000
-0.466955 0.009966 0.019387 3.000000
-0.466955 -0.072064 -0.015857 3.000000
-0.466955 -0.038270 -0.070298 3.000000
-0.466955 0.054023 -0.056606 3.000000
-0.466955 -0.029830 0.013687 3.000000
-0.466955 0.018211 0.012579 3.000000
-0.466955 -0.032174 -0.079630 3.000000
-0.466955 0.078469 0.017071 3.000000
-0.466955 -0.034575 0.078108 3.000000
-0.466955 -0.027972 -0.080209 3.000000
-0.466955 0.005319 -0.004663 3.000000
-0.466955 0.050687 -0.075453 3.000000
-0.466955 -0.068635 0.008953 3.000000
-0.466955 0.085632 0.004408 3.000000
-0.466955 -0.082009 0.010798 3.000000
-0.466955 -0.070613 0.011112 3.000000
-0.466955 0.091071 -0.018140 3.000000
-0.466955 -0.057184 0.055626 3.000000
-0.466955 0.073209 0.014091 3.000000
-0.466955 -0.049192 -0.024556 3.000000
-0.466955 0.037939 0.047014 3.000000
-0.466955 -0.007180 -0.079636 3.000000
-0.466955 -0.054201 0.025269 3.000000
-0.466955 0.090359 0.042464 3.000000
-0.466955 0.031755 -0.068227 3.000000
-0.466955 -0.048035 0.016964 3.000000
-0.466955 0.058366 0.080656 3.000000
-0.466955 0.045048 0.057214 3.000000
-0.466955 0.067223 -0.012352 3.000000
-0.466955 0.091385 -0.023235 3.000000
-0.466955 0.002252 -0.050200 3.000000
-0.466955 -0.075874 0.062730 3.000000
-0.466955 0.040065 -0.028095 3.000000
-0.466955 -0.060956 0.038290 3.000000
-0.466955 0.090543 0.007298 3.000000
-0.466955 -0.009426 0.094582 3.000000
-0.466955 0.082220 0.007096 3.000000
-0.466955 0.005921 -0.089977 3.000000
-0.466955 0.050140 0.086144 3.000000
-0.466955 -0.071840 0.032998 3.000000
-0.466955 0.010668 -0.002719 3.000000
-0.466955 0.057521 0.006584 3.000000
-0.466955 -0.028474 -0.038366 3.000000
-0.466955 0.055797 -0.006134 3.000000
-0.466955 -0.034723 -0.091827 3.000000
-0.466955 0.036099 -0.008247 3.000000
-0.466955 -0.017977 -0.011895 3.000000
-0.466955 -0.076071 0.045352 3.000000
-0.466955 0.040774 -0.007602 3.000000
-0.466955 0.055312 0.029407 3.000000
-0.466955 -0.074294 0.062869 3.000000
-0.466955 -0.049454 -0.069217 3.000000
-0.466955 -0.053735 0.002731 3.000000
-0.466955 0.034587 0.021125 3.000000
-0.466955 0.058818 0.003545 3.000000
-0.466955 -0.056134 0.073474 3.000000
-0.466955 0.083669 0.008506 3.000000
-0.466955 -0.062964 0.023465 3.000000
-0.466955 -0.017382 0.038837 3.000000
-0.466955 0.065277 0.030862 3.000000
-0.466955 -0.037272 -0.013894 3.000000
-0.466955 -0.089254 0.019583 3.000000
-0.466955 0.039935 -0.088003 3.000000
-0.466955 -0.054003 -0.009866 3.000000
-0.466955 0.023860 -0.026858 3.000000
-0.466955 0.029468 -0.042668 3.000000
-0.466955 -0.045312 -0.009608 3.000000
-0.466955 0.009650 -0.044312 3.000000
-0.466955 0.001623 0.034999 3.000000
-0.466955 -0.062746 -0.048002 3.000000
-0.466955 0.068737 0.054403 3.000000
-0.466955 -0.039142 -0.057991 3.000000
-0.466955 0.040777 0.089947 3.000000
-0.466955 -0.010404 0.065332 3.000000
-0.466955 -0.014589 -0.051833 3.000000
-0.466955 -0.017053 -0.000230 3.000000
-0.466955 -0.065616 -0.048947 3.000000
-0.466955 -0.064981 0.053871 3.000000
-0.466955 0.035344 0.017327 3.000000
-0.466955 0.079578 0.053443 3.000000
-0.466955 0.016159 -0.088462 3.000000
-0.466955 -0.067065 0.016718 3.000000
-0.466955 0.041622 -0.066991 3.000000
-0.466955 -0.082865 0.023982 3.000000
-0.466955 0.078978 -0.058427 3.000000
-0.466955 -0.024985 -0.047423 3.000000
-0.466955 -0.082767 0.051855 3.000000
-0.466955 0.061674 0.057631 3.000000
-0.466955 0.008406 -0.028428 3.000000
-0.466955 -0.002082 -0.015739 3.000000
-0.466955 -0.066367 0.067086 3.000000
-0.466955 0.044216 -0.086132 3.000000
-0.466955 0.009847 0.078435 3.000000
-0.466955 -0.075058 -0.034563 3.000000
-0.466955 -0.036732 0.067794 3.000000
-0.466955 -0.067655 -0.018480 3.000000
-0.466955 0.002816 -0.074939 3.000000
-0.466955 -0.091809 0.006394 3.000000
-0.466955 -0.001332 0.030673 3.000000
-0.466955 -0.063604 -0.036212 3.000000
-0.466955 0.035502 -0.083927 3.000000
-0.466955 -0.022202 -0.000575 3.000000
-0.466955 -0.091236 0.030097 3.000000
-0.466955 0.050709 -0.027971 3.000000
-0.466955 -0.074043 -0.001712 3.000000
-0.466955 0.079528 0.008424 3.000000
-0.466955 0.066676 -0.070757 3.000000
-0.466955 0.031363 -0.008208 3.000000
-0.466955 -0.023858 0.047402 3.000000
-0.466955 -0.085656 -0.015462 3.000000
-0.466955 0.075289 -0.046916 3.000000
-0.466955 -0.054199 -0.049574 3.000000
-0.466955 0.011274 -0.065115 3.000000
-0.466955 -0.089852 0.014804 3.000000
-0.466955 0.071697 0.054898 3.000000
-0.466955 0.044132 -0.022571 3.000000
-0.466955 0.058689 -0.079629 3.000000
-0.466955 0.030924 0.012670 3.000000
-0.466955 0.074323 0.024012 3.000000
-0.466955 -0.076351 -0.030247 3.000000
-0.466955 0.079689 0.004405 3.000000
-0.466955 -0.050326 0.029457 3.000000
-0.466955 -0.062729 -0.018026 3.000000
-0.466955 0.040567 -0.037754 3.000000
-0.466955 -0.058408 0.039409 3.000000
-0.466955 0.042741 0.059091 3.000000
-0.466955 0.032941 -0.074796 3.000000
-0.466955 0.048460 -0.065315 3.000000
-0.466955 0.034415 -0.069282 3.000000
-0.466955 -0.036567 0.001226 3.000000
-0.466955 -0.044027 -0.063276 3.000000
-0.466955 -0.013806 0.039366 3.000000
-0.466955 -0.080634 -0.000129 3.000000
-0.466955 0.052050 -0.027451 3.000000
-0.466955 0.009875 -0.032738 3.000000
-0.466955 0.000544 0.031689 3.000000
-0.466955 -0.024888 0.082093 3.000000
-0.466955 0.080540 -0.007920 3.000000
-0.466955 0.035064 0.040733 3.000000
-0.466955 0.008180 -0.098136 3.000000
-0.466955 0.061780 0.011744 3.000000
-0.466955 -0.009401 0.078150 3.000000
-0.466955 0.022499 0.028770 3.000000
-0.466955 0.021450 0.080982 3.000000
-0.466955 -0.020469 0.025457 3.000000
-0.466955 -0.001196 0.048055 3.000000
-0.466955 0.025268 0.020293 3.000000
-0.466955 0.056950 0.001263 3.000000
-0.466955 0.031240 -0.072238 3.000000
-0.466955 -0.083591 0.007121 3.000000
-0.466955 -0.030630 0.038448 3.000000
-0.466955 -0.027283 -0.021984 3.000000
-0.466955 -0.042444 -0.023290 3.000000
-0.466955 -0.044881 -0.023309 3.000000
-0.466955 -0.093526 -0.023770 3.000000
-0.466955 -0.043885 0.033480 3.000000
-0.466955 -0.031406 -0.024635 3.000000
-0.466955 0.069477 -0.048945 3.000000
-0.466955 0.004015 -0.030903 3.000000
-0.466955 0.032578 -0.059600 3.000000
-0.466955 0.075737 -0.020622 3.000000
-0.466955 0.016417 -0.081266 3.000000
-0.466955 0.021850 0.031562 3.000000
-0.466955 0.004705 -0.095825 3.000000
-0.466955 -0.047056 -0.065678 3.000000
-0.466955 -0.063964 0.063754 3.000000
-0.466955 -0.022277 0.056960 3.000000
-0.466955 -0.001990 -0.037396 3.000000
-0.466955 -0.013348 0.008940 3.000000
-0.466955 -0.060948 -0.012576 3.000000
-0.466955 -0.052144 -0.084732 3.000000
-0.466955 -0.013293 0.036938 3.000000
-0.466955 -0.017425 0.004287 3.000000
-0.466955 0.006774 -0.037172 3.000000
-0.466955 0.000118 -0.063406 3.000000
-0.466955 0.080904 0.049173 3.000000
-0.466955 0.047768 -0.008656 3.000000
-0.466955 0.090295 0.033706 3.000000
-0.466955 0.026864 0.000569 3.000000
-0.466955 -0.054185 0.040515 3.000000
-0.466955 0.015086 0.036974 3.000000
-0.466955 -0.002879 0.066261 3.000000
-0.466955 0.008807 0.051356 3.000000
-0.466955 -0.078217 -0.034659 3.000000
-0.466955 0.010113 0.018042 3.000000
-0.466955 -0.016824 0.025479 3.000000
-0.466955 -0.012374 0.068653 3.000000
-0.466955 0.065973 0.024908 3.000000
-0.466955 0.005557 -0.085068 3.000000
-0.466955 0.084673 -0.022143 3.000000
-0.466955 0.035565 0.022074 3.000000
-0.466955 0.039468 0.087353 3.000000
-0.466955 0.085203 0.000717 3.000000
-0.466955 0.041856 -0.044712 3.000000
-0.466955 0.095346 0.030053 3.000000
-0.466955 0.043353 0.051322 3.000000
-0.466955 -0.053193 0.074427 3.000000
-0.466955 -0.004345 -0.063084 3.000000
-0.466955 0.074318 -0.037059 3.000000
-0.466955 -0.026133 -0.032774 3.000000
-0.466955 -0.007482 0.082355 3.000000
-0.466955 -0.052931 0.035109 3.000000
-0.466955 0.072071 -0.021636 3.000000
-0.466955 0.031144 0.010142 3.000000
-0.466955 -0.077076 -0.033836 3.000000
-0.466955 -0.020998 0.000580 3.000000
-0.466955 -0.013123 0.058548 3.000000
-0.466955 0.028781 -0.043907 3.000000
-0.466955 0.041874 0.061144 3.000000
-0.466955 -0.045749 0.054937 3.000000
-0.466955 -0.066295 0.061345 3.000000
-0.466955 0.056865 -0.009528 3.000000
-0.466955 0.087973 0.010434 3.000000
-0.466955 0.015387 0.043684 3.000000
-0.466955 -0.008843 -0.080280 3.000000
-0.466955 -0.015689 -0.091917 3.000000
-0.466955 -0.082523 0.015556 3.000000
-0.466955 0.019152 -0.037786 3.000000
-0.466955 0.000344 0.075166 3.000000
-0.466955 -0.035598 -0.086447 3.000000
-0.466955 0.060317 -0.069142 3.000000
-0.466955 0.002457 -0.010570 3.000000
-0.466955 -0.007072 -0.015434 3.000000
-0.466955 0.073838 0.048340 3.000000
-0.466955 -0.056694 0.046572 3.000000
-0.466955 0.036805 0.016352 3.000000
-0.466955 -0.046607 0.082701 3.000000
-0.466955 -0.011593 0.048521 3.000000
-0.466955 -0.028895 -0.021572 3.000000
-0.466955 -0.001748 0.038889 3.000000
-0.466955 -0.068950 0.035401 3.000000
-0.466955 -0.052637 0.083916 3.000000
-0.466955 -0.069223 -0.039340 3.000000
-0.466955 0.034410 -0.055550 3.000000
-0.466955 0.027388 -0.020065 3.000000
-0.466955 0.005272 0.095568 3.000000
-0.466955 -0.015158 -0.020675 3.000000
-0.466955 -0.044556 0.073794 3.000000
-0.466955 0.058410 0.029413 3.000000
-0.466955 -0.050116 -0.034064 3.000000
-0.466955 0.015569 -0.086927 3.000000
-0.466955 -0.060583 0.029089 3.000000
-0.466955 -0.013088 -0.088345 3.000000
-0.466955 -0.023083 0.054296 3.000000
-0.466955 -0.053132 -0.030683 3.000000
-0.466955 -0.068222 -0.065960 3.000000
-0.466955 0.013239 -0.091959 3.000000
-0.466955 0.074507 0.036286 3.000000
-0.466955 0.025372 -0.030870 3.000000
-0.466955 0.034176 -0.080586 3.000000
-0.466955 -0.054893 0.019209 3.000000
-0.466955 -0.083417 0.030376 3.000000
-0.466955 -0.022065 0.036696 3.000000
-0.466955 -0.015434 -0.053358 3.000000
-0.466955 -0.002735 0.094486 3.000000
-0.466955 -0.069611 -0.037734 3.000000
-0.466955 -0.029146 0.050679 3.000000
-0.466955 0.048680 0.022291 3.000000
-0.466955 0.030789 -0.070795 3.000000
-0.466955 0.037635 -0.035039 3.000000
-0.466955 -0.057396 -0.070523 3.000000
-0.466955 0.010429 0.008891 3.000000
-0.466955 -0.031863 0.028934 3.000000
-0.466955 -0.031590 -0.053609 3.000000
-0.466955 -0.061673 0.020235 3.000000
-0.466955 0.007304 -0.080350 3.000000
-0.466955 -0.033199 0.073931 3.000000
-0.466955 -0.014982 -0.060449 3.000000
-0.466955 0.022690 -0.003110 3.000000
-0.466955 -0.041963 0.079484 3.000000
-0.466955 0.015999 -0.056743 3.000000
-0.466955 0.087893 -0.039289 3.000000
-0.466955 0.071600 0.048482 3.000000
-0.466955 0.010423 -0.052311 3.000000
-0.466955 -0.045337 0.020498 3.000000
-0.466955 -0.037457 -0.036660 3.000000
-0.466955 0.001546 -0.039674 3.000000
-0.466955 0.033366 0.073681 3.000000
-0.466955 0.051982 0.068366 3.000000
-0.466955 -0.050278 -0.048112 3.000000
-0.466955 0.054327 0.008295 3.000000
-0.466955 0.051098 -0.001510 3.000000
-0.466955 0.065977 -0.030054 3.000000
-0.466955 0.015032 0.046625 3.000000
-0.466955 0.021674 0.056433 3.000000
-0.466955 0.045164 0.028802 3.000000
-0.466955 -0.024639 0.019800 3.000000
-0.466955 -0.016724 -0.027568 3.000000
-0.466955 -0.078027 -0.029864 3.000000
-0.466955 -0.063568 0.059959 3.000000
-0.466955 -0.024740 -0.031719 3.000000
-0.466955 0.054532 0.014633 3.000000
-0.466955 -0.035277 -0.040263 3.000000
-0.466955 0.000740 0.028983 3.000000
-0.466955 -0.099566 -0.002283 3.000000
-0.466955 -0.065974 -0.047548 3.000000
-0.466955 -0.020039 -0.002428 3.000000
-0.466955 0.002511 -0.022633 3.000000
-0.466955 0.006693 -0.038835 3.000000
-0.466955 0.050645 0.052335 3.000000
-0.466955 0.070637 0.023435 3.000000
-0.466955 -0.019214 -0.058974 3.000000
-0.466955 -0.012818 -0.054972 3.000000
-0.466955 0.005686 -0.053532 3.000000
