0.465339 0.042939 -0.086646 2.000000
0.465339 0.060129 0.076110 2.000000
0.465339 -0.058460 -0.016081 2.000000
0.465339 -0.063651 -0.037964 2.000000
0.465339 -0.050042 -0.044996 2.000000
0.465339 0.082904 0.001972 2.000000
0.465339 0.054311 -0.000086 2.000000
0.465339 0.003306 -0.097918 2.000000
0.465339 0.066926 -0.016115 2.000000
0.465339 -0.069612 0.002230 2.000000
0.465339 0.075039 0.007356 2.000000
0.465339 0.022703 -0.017542 2.000000
0.465339 0.068922 -0.068873 2.000000
0.465339 0.089804 0.032612 2.000000
0.465339 0.034685 -0.018544 2.000000
0.465339 -0.084559 0.034822 2.000000
0.465339 0.037814 -0.038649 2.000000
0.465339 -0.049008 -0.002303 2.000000
0.465339 -0.017417 0.087492 2.000000
0.465339 -0.089452 0.003234 2.000000
0.465339 -0.049654 -0.075056 2.000000
0.465339 -0.017583 0.053122 2.000000
0.465339 -0.012516 0.057939 2.000000
0.465339 -0.032834 -0.057430 2.000000
0.465339 0.090798 0.001262 2.000000
0.465339 0.002425 -0.008136 2.000000
0.465339 0.004912 0.050849 2.000000
0.465339 -0.043978 0.047910 2.000000
0.465339 -0.063960 0.042861 2.000000
0.465339 0.032887 -0.034979 2.000000
0.465339 0.085852 -0.044286 2.000000
0.465339 -0.067566 -0.070665 2.000000
0.465339 -0.030378 -0.008013 2.000000
0.465339 -0.009262 0.083579 2.000000
0.465339 -0.007719 0.094715 2.000000
0.465339 -0.087833 -0.005498 2.000000
0.465339 -0.097808 -0.002259 2.000000
0.465339 -0.069992 0.032259 2.000000
0.465339 0.057016 0.056672 2.000000
0.465339 0.051264 -0.078637 2.000000
0.465339 0.023313 -0.076426 2.000000
0.465339 0.041676 -0.007485 2.000000
0.465339 0.061795 -0.033715 2.000000
0.465339 0.014380 -0.088841 2.000000
0.465339 -0.026606 0.001344 2.000000
0.465339 0.014314 -0.010034 2.000000
0.465339 -0.022366 -0.005643 2.000000
0.465339 0.030061 -0.029604 2.000000
0.465339 -0.009007 -0.037773 2.000000
0.465339 0.077290 0.034169 2.000000
0.465339 0.057929 0.012874 2.000000
0.465339 0.020449 0.013715 2.000000
0.465339 -0.029932 0.032802 2.000000
0.465339 -0.042015 -0.064191 2.000000
0.465339 0.038587 0.077102 2.000000
0.465339 0.056825 0.043165 2.000000
0.465339 -0.007622 -0.009210 2.000000
0.465339 -0.091369 -0.038856 2.000000
0.465339 0.026049 0.073470 2.000000
0.465339 -0.050599 0.063314 2.000000
0.465339 -0.014667 -0.009823 2.000000
0.465339 0.073289 -0.022860 2.000000
0.465339 -0.019178 -0.036490 2.000000
0.465339 0.030359 -0.082750 2.000000
0.465339 0.005839 0.042433 2.000000
0.465339 0.038890 0.007184 2.000000
0.465339 0.063097 -0.036460 2.000000
0.465339 0.034948 -0.003981 2.000000
0.465339 0.084313 0.046702 2.000000
0.465339 -0.007703 -0.086791 2.000000
0.465339 -0.034586 0.048567 2.000000
0.465339 -0.010653 0.087829 2.000000
0.465339 -0.032938 -0.004484 2.000000
0.465339 0.026994 -0.072813 2.000000
0.465339 -0.030294 0.082456 2.000000
0.465339 0.001173 0.002784 2.000000
0.465339 0.024666 0.008678 2.000000
0.465339 0.079892 -0.039004 2.000000
0.465339 0.062801 -0.038052 2.000000
0.465339 0.043878 0.025663 2.000000
0.465339 0.009303 -0.034382 2.000000
0.465339 -0.047077 0.027364 2.000000
0.465339 -0.006000 -0.091290 2.000000
0.465339 -0.047078 0.005049 2.000000
0.465339 0.061824 -0.007352 2.000000
0.465339 -0.080963 -0.018187 2.000000
0.465339 -0.060546 -0.038496 2.000000
0.465339 -0.008896 -0.023057 2.000000
0.465339 0.048250 0.052899 2.000000
0.465339 0.047450 -0.042516 2.000000
0.465339 0.076835 0.062745 2.000000
0.465339 0.069167 -0.004726 2.000000
0.465339 0.052520 0.007161 2.000000
0.465339 0.096094 0.000809 2.000000
0.465339 -0.085869 -0.017975 2.000000
0.465339 -0.047256 -0.055507 2.000000
0.465339 -0.029141 0.051148 2.000000
0.465339 0.039989 0.057436 2.000000
0.465339 -0.059111 -0.002846 2.000000
0.465339 -0.012777 0.087718 2.000000
0.465339 -0.032045 -0.033469 2.000000
0.465339 0.086534 0.043057 2.000000
0.465339 0.018781 -0.000935 2.000000
0.465339 -0.047376 0.024446 2.000000
0.465339 0.007654 0.013230 2.000000
0.465339 -0.094992 0.005911 2.000000
0.465339 -0.079421 -0.052762 2.000000
0.465339 0.055503 0.044115 2.000000
0.465339 0.059951 0.009768 2.000000
0.465339 0.082631 -0.043934 2.000000
0.465339 -0.027563 -0.015954 2.000000
0.465339 -0.005558 -0.003886 2.000000
0.465339 0.056648 0.001972 2.000000
0.465339 -0.041299 -0.015567 2.000000
0.465339 -0.036543 0.018547 2.000000
0.465339 -0.037161 -0.010979 2.000000
0.465339 -0.054609 -0.025045 2.000000
0.465339 0.049562 -0.026616 2.000000
0.465339 -0.046760 0.056398 2.000000
0.465339 -0.020554 0.061148 2.000000
0.465339 -0.007589 0.037442 2.000000
0.465339 -0.002524 0.061648 2.000000
0.465339 0.010139 -0.009218 2.000000
0.465339 -0.008903 0.066503 2.000000
0.465339 -0.003260 0.051436 2.000000
0.465339 -0.090006 -0.000453 2.000000
0.465339 -0.004638 -0.093395 2.000000
0.465339 -0.036186 0.062430 2.000000
0.465339 0.021546 0.002963 2.000000
0.465339 -0.004564 -0.002345 2.000000
0.465339 0.053112 0.043016 2.000000
0.465339 -0.056993 0.038540 2.000000
0.465339 0.067238 0.067893 2.000000
0.465339 0.051700 0.073493 2.000000
0.465339 -0.078870 -0.006521 2.000000
0.465339 0.097421 0.013321 2.000000
0.465339 0.099179 0.002488 2.000000
0.465339 0.090656 -0.010763 2.000000
0.465339 -0.012148 0.022201 2.000000
0.465339 0.084523 -0.014932 2.000000
0.465339 0.066713 -0.071493 2.000000
0.465339 -0.000525 -0.001892 2.000000
0.465339 0.024409 0.052827 2.000000
0.465339 0.002381 0.074261 2.000000
0.465339 0.024176 0.093907 2.000000
0.465339 0.050987 -0.007187 2.000000
0.465339 0.032053 0.023511 2.000000
0.465339 -0.035867 -0.044016 2.000000
0.465339 -0.020550 0.047110 2.000000
0.465339 -0.031287 0.005594 2.000000
0.465339 0.060454 0.048906 2.000000
0.465339 -0.012573 -0.092750 2.000000
0.465339 0.047153 0.081567 2.000000
0.465339 0.024702 0.036852 2.000000
0.465339 -0.086994 0.011741 2.000000
0.465339 -0.014603 0.036957 2.000000
0.465339 -0.009748 0.019993 2.000000
0.465339 -0.073687 0.004141 2.000000
0.465339 -0.016063 -0.027056 2.000000
0.465339 -0.041619 -0.019199 2.000000
0.465339 0.036301 -0.065382 2.000000
0.465339 -0.057366 0.045089 2.000000
0.465339 0.048198 -0.011577 2.000000
0.465339 0.080672 0.056690 2.000000
0.465339 0.005401 -0.045155 2.000000
0.465339 0.039637 -0.087390 2.000000
0.465339 -0.068329 -0.021981 2.000000
0.465339 -0.018445 -0.042468 2.000000
0.465339 -0.027331 -0.000039 2.000000
0.465339 -0.024010 0.013797 2.000000
0.465339 0.015159 0.041737 2.000000
0.465339 -0.023096 0.053785 2.000000
0.465339 0.027191 0.081668 2.000000
0.465339 -0.003289 -0.041217 2.000000
0.465339 0.036667 -0.031727 2.000000
0.465339 -0.062642 0.017051 2.000000
0.465339 0.046879 -0.028317 2.000000
0.465339 0.072300 -0.064639 2.000000
0.465339 0.076605 -0.055936 2.000000
0.465339 -0.091094 0.002996 2.000000
0.465339 -0.013215 -0.020879 2.000000
0.465339 0.016481 0.032388 2.000000
0.465339 -0.027882 0.070900 2.000000
0.465339 0.049256 -0.041451 2.000000
0.465339 0.039778 0.091576 2.000000
0.465339 -0.017646 -0.065899 2.000000
0.465339 0.075518 0.004386 2.000000
0.465339 0.047230 -0.048164 2.000000
0.465339 -0.017216 -0.054684 2.000000
0.465339 0.040997 -0.064968 2.000000
0.465339 -0.061812 -0.009342 2.000000
0.465339 -0.000078 0.033166 2.000000
0.465339 -0.025472 0.002210 2.000000
0.465339 0.026587 -0.051362 2.000000
0.465339 -0.026873 0.082444 2.000000
0.465339 0.075948 0.053722 2.000000
0.465339 0.056112 -0.063868 2.000000
0.465339 -0.008394 -0.072861 2.000000
0.465339 -0.072902 -0.044764 2.000000
0.465339 -0.064831 -0.019195 2.000000
0.465339 -0.060938 0.061727 2.000000
0.465339 -0.045992 -0.007119 2.000000
0.465339 -0.043885 0.039877 2.000000
0.465339 0.006542 -0.038480 2.000000
0.465339 -0.024395 -0.029884 2.000000
0.465339 0.069813 0.004374 2.000000
0.465339 0.081528 0.037409 2.000000
0.465339 -0.048476 -0.020383 2.000000
0.465339 -0.003674 0.074740 2.000000
0.465339 -0.033232 -0.072911 2.000000
0.465339 -0.003414 -0.053244 2.000000
0.465339 -0.037127 0.042520 2.000000
0.465339 -0.043804 0.077879 2.000000
0.465339 0.054451 0.034100 2.000000
0.465339 -0.028260 0.064616 2.000000
0.465339 -0.042257 -0.032200 2.000000
0.465339 0.038669 0.088373 2.000000
0.465339 -0.027176 -0.027904 2.000000
0.465339 0.074979 0.047245 2.000000
0.465339 -0.045027 0.087221 2.000000
0.465339 0.084569 0.000870 2.000000
0.465339 0.055969 0.014728 2.000000
0.465339 -0.046815 0.049282 2.000000
0.465339 -0.002659 -0.069920 2.000000
0.465339 0.009773 0.044505 2.000000
0.465339 0.060551 -0.027658 2.000000
0.465339 0.057465 0.022819 2.000000
0.465339 0.088585 0.031781 2.000000
0.465339 0.054142 -0.034303 2.000000
0.465339 -0.062699 0.044447 2.000000
0.465339 0.056270 -0.051629 2.000000
0.465339 0.029408 0.032019 2.000000
0.465339 -0.032604 -0.001256 2.000000
0.465339 0.038154 -0.091314 2.000000
0.465339 0.063254 0.022031 2.000000
0.465339 0.084201 0.045334 2.000000
0.465339 0.073514 -0.049924 2.000000
0.465339 -0.071287 -0.040805 2.000000
0.465339 0.032852 -0.058821 2.000000
0.465339 0.025631 0.085931 2.000000
0.465339 0.020298 -0.000259 2.000000
0.465339 -0.045828 0.006308 2.000000
0.465339 0.052353 0.079940 2.000000
0.465339 0.057144 0.009065 2.000000
0.465339 -0.029599 0.088483 2.000000
0.465339 -0.067083 0.004173 2.000000
0.465339 -0.037500 0.074964 2.000000
0.465339 -0.076046 -0.018265 2.000000
0.465339 -0.037771 -0.053712 2.000000
0.465339 -0.039242 0.058378 2.000000
0.465339 -0.016878 -0.006419 2.000000
0.465339 -0.060048 -0.052842 2.000000
0.465339 -0.088349 -0.020051 2.000000
0.465339 -0.050131 -0.013401 2.000000
0.465339 -0.031739 -0.086014 2.000000
0.465339 -0.014244 0.031431 2.000000
0.465339 -0.001532 -0.087407 2.000000
0.465339 0.064454 -0.016429 2.000000
0.465339 -0.026583 0.092931 2.000000
0.465339 0.024978 -0.082438 2.000000
0.465339 0.053984 0.003834 2.000000
0.465339 -0.007192 0.049122 2.000000
0.465339 -0.054415 -0.073839 2.000000
0.465339 0.070936 -0.068078 2.000000
0.465339 0.039914 -0.016413 2.000000
0.465339 0.026459 0.005894 2.000000
0.465339 -0.067807 0.057899 2.000000
0.465339 -0.048212 -0.013654 2.000000
0.465339 0.037748 0.010705 2.000000
0.465339 0.059341 0.006748 2.000000
0.465339 -0.055140 -0.069067 2.000000
0.465339 0.080413 -0.021323 2.000000
0.465339 -0.041825 -0.007411 2.000000
0.465339 0.038085 0.092406 2.000000
0.465339 0.008550 -0.092907 2.000000
0.465339 0.049967 0.055435 2.000000
0.465339 -0.048893 0.040488 2.000000
0.465339 -0.014130 -0.084273 2.000000
0.465339 -0.038928 -0.025684 2.000000
0.465339 0.025941 0.053201 2.000000
0.465339 -0.023563 -0.004321 2.000000
0.465339 0.025992 0.070133 2.000000
0.465339 -0.008488 -0.013516 2.000000
0.465339 -0.003473 -0.074059 2.000000
0.465339 0.072478 0.011696 2.000000
0.465339 0.079672 0.059747 2.000000
0.465339 -0.001000 0.031676 2.000000
0.465339 -0.001829 -0.026873 2.000000
0.465339 0.041738 -0.049135 2.000000
0.465339 -0.050959 0.014500 2.000000
0.465339 0.037139 0.068614 2.000000
0.465339 -0.028607 0.020303 2.000000
0.465339 -0.052228 -0.001353 2.000000
0.465339 -0.062416 -0.046436 2.000000
0.465339 -0.057802 -0.062487 2.000000
0.465339 0.032683 -0.012687 2.000000
0.465339 0.050384 0.059583 2.000000
0.465339 0.024518 -0.022933 2.000000
0.465339 -0.000605 0.043186 2.000000
0.465339 0.002221 -0.039696 2.000000
0.465339 0.012141 -0.016596 2.000000
0.465339 -0.062364 0.075184 2.000000
0.465339 -0.060891 -0.059270 2.000000
0.465339 -0.044398 -0.015227 2.000000
0.465339 0.035814 -0.006912 2.000000
0.465339 0.011851 0.077932 2.000000
0.465339 0.037250 0.076528 2.000000
0.465339 -0.017157 -0.026073 2.000000
0.465339 -0.005085 0.063907 2.000000
0.465339 0.084853 0.050837 2.000000
0.465339 0.044570 0.027697 2.000000
0.465339 0.041370 -0.079864 2.000000
0.465339 0.049219 0.035386 2.000000
0.465339 -0.061398 0.003427 2.000000
0.465339 -0.005472 -0.098799 2.000000
0.465339 0.025419 0.009975 2.000000
0.465339 -0.062518 -0.038895 2.000000
0.465339 -0.004630 -0.022292 2.000000
0.465339 0.000607 -0.051009 2.000000
0.465339 -0.059795 0.045089 2.000000
0.465339 0.011386 -0.049623 2.000000
0.465339 0.009959 0.053170 2.000000
0.465339 0.022906 0.047155 2.000000
0.465339 0.048856 0.007731 2.000000
0.465339 -0.067665 -0.056691 2.000000
0.465339 -0.084184 -0.025674 2.000000
0.465339 -0.073755 -0.046448 2.000000
0.465339 -0.024376 0.051450 2.000000
0.465339 -0.039932 -0.067787 2.000000
0.465339 -0.060958 0.064670 2.000000
0.465339 -0.067120 0.061950 2.000000
0.465339 0.003953 0.007403 2.000000
0.465339 0.050537 -0.082198 2.000000
0.465339 0.033979 0.055844 2.000000
0.465339 0.062676 -0.067550 2.000000
0.465339 -0.087675 -0.043582 2.000000
0.465339 0.061236 0.003499 2.000000
0.465339 -0.051937 -0.058805 2.000000
0.465339 -0.044210 -0.026191 2.000000
0.465339 0.001116 0.084815 2.000000
0.465339 0.034281 0.081516 2.000000
0.465339 0.048480 -0.038856 2.000000
0.465339 -0.035919 0.029989 2.000000
0.465339 0.019365 0.001971 2.000000
0.465339 -0.093949 0.021838 2.000000
0.465339 -0.071431 0.024058 2.000000
0.465339 0.027329 0.029514 2.000000
0.465339 -0.034402 0.051142 2.000000
0.465339 -0.059481 -0.075853 2.000000
0.465339 0.014220 -0.084130 2.000000
0.465339 -0.074239 0.008949 2.000000
0.465339 0.060148 0.037267 2.000000
0.465339 0.015546 -0.065601 2.000000
0.465339 -0.081688 0.036341 2.000000
0.465339 -0.044873 -0.071435 2.000000
0.465339 0.014848 0.035447 2.000000
0.465339 0.007680 -0.013617 2.000000
0.465339 -0.078315 0.001813 2.000000
0.465339 0.017409 0.023026 2.000000
0.465339 -0.001739 -0.088930 2.000000
0.465339 -0.066781 -0.053372 2.000000
0.465339 0.039958 -0.053472 2.000000
0.465339 -0.082399 0.049655 2.000000
0.465339 0.015656 0.082206 2.000000
0.465339 0.006952 -0.078187 2.000000
0.465339 0.068477 -0.013174 2.000000
0.465339 0.007788 0.005242 2.000000
0.465339 -0.057767 -0.049973 2.000000
0.465339 0.053998 0.014897 2.000000
0.465339 -0.040724 0.019968 2.000000
0.465339 0.065720 -0.070262 2.000000
0.465339 0.017859 0.024688 2.000000
0.465339 -0.026996 0.065499 2.000000
0.465339 -0.031081 -0.052128 2.000000
0.465339 0.043565 0.015576 2.000000
0.465339 0.010131 0.050851 2.000000
0.465339 -0.021035 -0.092140 2.000000
0.465339 -0.081178 0.003457 2.000000
0.465339 0.013607 0.022090 2.000000
0.465339 0.067418 0.030175 2.000000
0.465339 0.031436 -0.037489 2.000000
0.465339 0.047850 -0.001256 2.000000
0.465339 -0.090744 0.040610 2.000000
0.465339 0.084440 -0.032034 2.000000
0.465339 0.062547 -0.054636 2.000000
0.465339 -0.049614 0.018746 2.000000
0.465339 -0.043341 -0.066038 2.000000
0.465339 0.087442 0.013111 2.000000
0.465339 -0.009479 -0.001713 2.000000
0.465339 -0.048942 0.060473 2.000000
0.465339 -0.076384 -0.015001 2.000000
0.465339 -0.040903 0.026568 2.000000
0.465339 -0.069811 0.043110 2.000000
0.465339 0.024272 -0.058498 2.000000
0.465339 0.060424 -0.002228 2.000000
0.465339 -0.083660 0.040993 2.000000
0.465339 -0.043820 0.072146 2.000000
0.465339 -0.014613 0.059792 2.000000
0.465339 0.017633 -0.047347 2.000000
0.465339 -0.049946 -0.081640 2.000000
0.465339 0.014988 0.076668 2.000000
0.465339 -0.048659 -0.023812 2.000000
0.465339 0.064524 0.028341 2.000000
0.465339 0.046730 0.062300 2.000000
0.465339 0.022419 0.093333 2.000000
0.465339 -0.013489 -0.040550 2.000000
0.465339 0.003949 -0.044891 2.000000
0.465339 0.066828 -0.073690 2.000000
0.465339 0.082706 -0.007617 2.000000
0.465339 -0.004052 -0.014835 2.000000
0.465339 -0.033307 0.043107 2.000000
0.465339 -0.044202 -0.052665 2.000000
0.465339 -0.094702 0.024837 2.000000
0.465339 0.004266 0.009311 2.000000
0.465339 -0.045090 0.065356 2.000000
0.465339 0.055991 -0.000796 2.000000
0.465339 -0.073217 -0.036235 2.000000
0.465339 -0.045486 -0.049873 2.000000
0.465339 -0.014906 -0.093593 2.000000
0.465339 -0.054201 -0.064616 2.000000
0.465339 -0.065151 -0.010596 2.000000
0.465339 0.041112 -0.090780 2.000000
0.465339 -0.017858 0.083715 2.000000
0.465339 0.007202 -0.096163 2.000000
0.465339 -0.073311 -0.050625 2.000000
0.465339 -0.086439 0.004992 2.000000
0.465339 -0.073957 0.037659 2.000000
0.465339 0.061671 -0.060765 2.000000
0.465339 0.065192 -0.015029 2.000000
0.465339 0.031274 0.073571 2.000000
0.465339 0.014486 -0.033375 2.000000
0.465339 0.012272 0.033849 2.000000
0.465339 0.071431 -0.047711 2.000000
0.465339 -0.019959 -0.077746 2.000000
0.465339 -0.053850 -0.075248 2.000000
0.465339 0.031301 0.041053 2.000000
0.465339 -0.098906 0.005809 2.000000
0.465339 0.055092 -0.013554 2.000000
0.465339 -0.051921 -0.025869 2.000000
0.465339 -0.084720 -0.028592 2.000000
0.465339 -0.057761 -0.008468 2.000000
0.465339 -0.077442 -0.033493 2.000000
0.465339 -0.002077 -0.048685 2.000000
0.465339 0.050082 -0.079869 2.000000
0.465339 -0.057181 0.067020 2.000000
0.465339 0.006731 -0.045554 2.000000
0.465339 -0.054090 -0.077504 2.000000
0.465339 -0.034013 0.068993 2.000000
0.465339 -0.024254 -0.055097 2.000000
0.465339 -0.013434 0.065799 2.000000
0.465339 -0.033937 0.054485 2.000000
0.465339 -0.067350 -0.058218 2.000000
0.465339 -0.055999 0.079339 2.000000
0.465339 0.035874 -0.000948 2.000000
0.465339 -0.071031 -0.000545 2.000000
0.465339 -0.065740 0.012492 2.000000
0.465339 0.063315 -0.046214 2.000000
0.465339 -0.059796 -0.060460 2.000000
0.465339 0.044252 -0.072754 2.000000
0.465339 -0.055069 -0.000169 2.000000
0.465339 0.024979 -0.019959 2.000000
0.465339 -0.091043 -0.020874 2.000000
0.465339 0.049451 0.009145 2.000000
0.465339 0.073540 0.048079 2.000000
0.465339 0.063529 -0.074250 2.000000
0.465339 0.012929 -0.084619 2.000000
0.465339 0.037353 0.072979 2.000000
0.465339 0.051950 0.021363 2.000000
0.465339 0.067947 0.057344 2.000000
0.465339 0.045586 -0.029730 2.000000
0.465339 0.045805 0.021921 2.000000
0.465339 -0.027353 0.053180 2.000000
0.465339 -0.044230 0.041916 2.000000
0.465339 0.014999 -0.015520 2.000000
0.465339 0.011664 0.044512 2.000000
0.465339 -0.011255 -0.016103 2.000000
0.465339 0.019726 -0.085740 2.000000
0.465339 0.046846 0.007912 2.000000
0.465339 0.054030 0.049861 2.000000
0.465339 -0.043523 -0.060446 2.000000
0.465339 -0.052711 0.053716 2.000000
0.465339 0.044021 0.080341 2.000000
0.465339 0.020533 -0.057255 2.000000
0.465339 0.048639 -0.054131 2.000000
0.465339 -0.046307 0.069262 2.000000
0.465339 0.004618 0.027016 2.000000
0.465339 0.071280 -0.026605 2.000000
0.465339 -0.053112 -0.060099 2.000000
0.465339 0.018593 0.098265 2.000000
0.465339 -0.079308 0.018142 2.000000
0.465339 0.013272 0.041263 2.000000
0.465339 0.067328 -0.047995 2.000000
0.465339 0.042279 -0.070855 2.000000
0.465339 0.059437 -0.004187 2.000000
0.465339 0.069515 0.059791 2.000000
0.465339 -0.025185 -0.068557 2.000000
0.465339 -0.049718 -0.085806 2.000000
0.465339 -0.038438 -0.017618 2.000000
0.465339 0.040656 0.016009 2.000000
0.465339 0.031316 0.019527 2.000000
0.465339 -0.038291 0.026586 2.000000
0.465339 -0.083426 0.021141 2.000000
0.465339 0.000702 -0.015141 2.000000
0.465339 -0.081063 -0.057891 2.000000
0.465339 0.005436 -0.023572 2.000000
0.465339 -0.005365 0.041942 2.000000
0.465339 -0.065176 -0.021483 2.000000
0.465339 0.051883 0.059418 2.000000
0.465339 0.063012 -0.024181 2.000000
0.465339 0.090769 -0.034273 2.000000
0.465339 0.050972 -0.034163 2.000000
0.465339 0.020407 -0.038117 2.000000
0.465339 0.041018 -0.056770 2.000000
0.465339 -0.095468 -0.017561 2.000000
0.465339 0.015184 0.051940 2.000000
0.465339 0.012798 0.092008 2.000000
0.465339 0.064395 -0.038023 2.000000
0.465339 0.025574 -0.030315 2.000000
0.465339 -0.047430 -0.067145 2.000000
0.465339 -0.000762 0.001420 2.000000
0.465339 0.008314 0.054448 2.000000
0.465339 0.005587 0.052921 2.000000
0.465339 -0.010548 -0.050270 2.000000
0.465339 0.081868 -0.000653 2.000000
0.465339 -0.005633 -0.057472 2.000000
0.465339 0.019384 0.059776 2.000000
0.465339 0.039420 -0.052167 2.000000
0.465339 0.018092 0.057963 2.000000
0.465339 0.031414 0.053225 2.000000
0.465339 -0.033624 0.049921 2.000000
0.465339 -0.021141 0.081213 2.000000
0.465339 0.065461 -0.006950 2.000000
0.465339 -0.037780 -0.020782 2.000000
0.465339 -0.034455 -0.040104 2.000000
0.465339 -0.057169 -0.073610 2.000000
0.465339 0.050853 -0.055511 2.000000
0.465339 -0.015493 -0.029190 2.000000
0.465339 0.058740 0.022159 2.000000
0.465339 0.031589 0.025606 2.000000
0.465339 -0.056231 -0.016418 2.000000
0.465339 0.036973 -0.049074 2.000000
0.465339 -0.018093 -0.033935 2.000000
0.465339 -0.061833 0.001436 2.000000
0.465339 0.036514 0.047662 2.000000
0.465339 -0.079471 -0.050556 2.000000
0.465339 0.003439 -0.040403 2.000000
0.465339 0.097297 -0.001601 2.000000
0.465339 0.084584 0.008954 2.000000
0.465339 0.022561 -0.033617 2.000000
0.465339 0.049606 -0.018514 2.000000
0.465339 0.010449 -0.013498 2.000000
0.465339 0.070933 0.040289 2.000000
0.465339 0.092251 0.019646 2.000000
0.465339 -0.077070 -0.002469 2.000000
0.465339 -0.039848 -0.049419 2.000000
0.465339 -0.012192 -0.007665 2.000000
0.465339 -0.026532 -0.093615 2.000000
0.465339 0.075413 -0.064604 2.000000
0.465339 -0.000315 -0.012968 2.000000
0.465339 0.008239 -0.062218 2.000000
0.465339 -0.035976 0.006810 2.000000
0.465339 0.001411 -0.019358 2.000000
0.465339 0.007134 0.055862 2.000000
0.465339 -0.044642 0.017501 2.000000
0.465339 0.031297 -0.007456 2.000000
0.465339 0.054351 0.032653 2.000000
0.465339 -0.097353 0.021539 2.000000
0.465339 0.090249 0.010812 2.000000
0.465339 -0.042501 0.000739 2.000000
0.465339 0.062848 -0.030895 2.000000
0.465339 0.057443 -0.061341 2.000000
0.465339 -0.052043 -0.014071 2.000000
0.465339 0.012713 -0.040022 2.000000
0.465339 -0.078964 0.024488 2.000000
0.465339 0.073703 0.010241 2.000000
0.465339 0.019255 0.081091 2.000000
0.465339 -0.028941 0.094748 2.000000
0.465339 -0.017017 -0.010937 2.000000
0.465339 0.094583 0.015510 2.000000
0.465339 0.049316 0.065632 2.000000
0.465339 -0.064612 0.028149 2.000000
0.465339 -0.000152 -0.060703 2.000000
0.465339 0.030662 0.001750 2.000000
0.465339 0.016155 -0.074687 2.000000
0.465339 0.031699 0.038300 2.000000
0.465339 0.003012 0.052622 2.000000
0.465339 0.044144 0.045475 2.000000
0.465339 -0.055076 -0.078887 2.000000
0.465339 0.065047 -0.035237 2.000000
0.465339 0.030743 -0.044639 2.000000
0.465339 0.078820 0.049239 2.000000
0.465339 -0.092209 -0.016598 2.000000
0.465339 0.051395 -0.039071 2.000000
0.465339 -0.016312 0.007057 2.000000
0.465339 0.090510 0.022137 2.000000
0.465339 0.085328 -0.019830 2.000000
0.465339 0.057689 0.075845 2.000000
0.465339 -0.028528 0.001117 2.000000
0.465339 0.095869 0.012521 2.000000
0.465339 -0.053872 -0.081989 2.000000
0.465339 0.070970 0.025210 2.000000
0.465339 0.040166 -0.023282 2.000000
0.465339 -0.041273 0.064482 2.000000
0.465339 -0.043934 -0.059127 2.000000
0.465339 -0.054438 0.022040 2.000000
0.465339 -0.034637 -0.050459 2.000000
0.465339 -0.093387 0.034144 2.000000
0.465339 0.088006 -0.012533 2.000000
0.465339 -0.096135 -0.024266 2.000000
0.465339 0.016918 -0.049229 2.000000
0.465339 -0.071804 -0.036585 2.000000
0.465339 -0.046059 0.014733 2.000000
0.465339 -0.042610 0.050383 2.000000
0.465339 -0.068488 0.067253 2.000000
0.465339 0.019687 -0.073106 2.000000
0.465339 -0.018704 -0.016310 2.000000
0.465339 -0.030575 0.020450 2.000000
0.465339 -0.078437 0.050301 2.000000
0.465339 -0.032551 -0.060777 2.000000
0.465339 -0.078529 -0.022285 2.000000
0.465339 -0.044979 0.030567 2.000000
0.465339 0.001600 -0.002758 2.000000
0.465339 0.055128 -0.082986 2.000000
0.465339 0.011793 0.094685 2.000000
0.465339 0.062946 -0.010878 2.000000
0.465339 0.092749 0.017941 2.000000
0.465339 0.038442 0.039636 2.000000
0.465339 -0.091158 0.020338 2.000000
0.465339 0.033166 -0.024722 2.000000
0.465339 -0.022967 0.072012 2.000000
0.465339 -0.082380 -0.019511 2.000000
0.465339 0.056917 0.020587 2.000000
0.465339 0.074541 -0.018552 2.000000
0.465339 -0.026440 -0.061183 2.000000
0.465339 0.035481 0.077929 2.000000
0.465339 -0.011525 0.098861 2.000000
0.465339 -0.081559 -0.045078 2.000000
0.465339 -0.040577 0.042678 2.000000
0.465339 -0.039232 0.042614 2.000000
0.465339 0.025145 0.087522 2.000000
0.465339 0.086543 -0.014031 2.000000
0.465339 -0.022086 -0.042704 2.000000
0.465339 -0.061600 -0.036689 2.000000
0.465339 0.059097 -0.064739 2.000000
0.465339 -0.061989 -0.053246 2.000000
0.465339 0.089699 -0.043911 2.000000
0.465339 -0.091206 0.033512 2.000000
0.465339 0.078949 -0.020932 2.000000
0.465339 -0.031701 0.047314 2.000000
0.465339 0.015707 0.006251 2.000000
0.465339 -0.032402 -0.007819 2.000000
0.465339 -0.070501 0.026643 2.000000
0.465339 -0.076092 -0.033391 2.000000
0.465339 0.015409 -0.045723 2.000000
0.465339 -0.045901 0.039571 2.000000
0.465339 0.029666 0.067661 2.000000
0.465339 0.069313 0.058258 2.000000
0.465339 0.027272 -0.086307 2.000000
0.465339 -0.007531 -0.059687 2.000000
0.465339 0.024037 0.032345 2.000000
0.465339 0.093254 0.027359 2.000000
0.465339 0.014035 0.043109 2.000000
0.465339 0.052797 0.066408 2.000000
0.465339 -0.069010 -0.008250 2.000000
0.465339 0.005446 -0.075666 2.000000
0.465339 -0.075122 0.062177 2.000000
0.465339 0.029759 -0.051379 2.000000
0.465339 -0.052941 -0.072898 2.000000
0.465339 -0.044137 -0.020807 2.000000
0.465339 -0.004058 -0.071926 2.000000
0.465339 -0.058931 0.027199 2.000000
0.465339 -0.019497 -0.041552 2.000000
0.465339 0.008702 0.099151 2.000000
0.465339 0.061092 -0.041964 2.000000
0.465339 -0.095800 0.010348 2.000000
0.465339 -0.056372 0.042029 2.000000
0.465339 0.043676 0.090001 2.000000
0.465339 0.038361 -0.016535 2.000000
0.465339 0.007486 0.088969 2.000000
0.465339 -0.092465 0.028642 2.000000
0.465339 -0.056867 -0.063737 2.000000
0.465339 0.021534 -0.031769 2.000000
0.465339 0.078846 -0.042785 2.000000
0.465339 0.084090 0.027697 2.000000
0.465339 -0.076305 -0.019879 2.000000
0.465339 -0.017065 0.012787 2.000000
0.465339 0.039523 -0.065663 2.000000
0.465339 -0.016817 0.028136 2.000000
0.465339 -0.002877 -0.007555 2.000000
0.465339 -0.043304 0.073717 2.000000
0.465339 0.064298 0.063222 2.000000
0.465339 -0.051522 -0.055224 2.000000
0.465339 -0.059096 -0.045685 2.000000
0.465339 0.040406 0.024439 2.000000
0.465339 0.045179 -0.056357 2.000000
0.465339 0.030294 -0.040781 2.000000
0.465339 -0.030483 -0.031186 2.000000
0.465339 -0.011250 0.024978 2.000000
0.465339 -0.037809 0.051935 2.000000
0.465339 -0.086162 -0.031574 2.000000
0.465339 0.009014 0.047803 2.000000
0.465339 -0.014020 -0.079827 2.000000
0.465339 -0.019546 -0.024183 2.000000
0.465339 -0.066138 -0.007977 2.000000
0.465339 0.005558 0.097751 2.000000
0.465339 0.085283 -0.025912 2.000000
0.465339 -0.046940 -0.048021 2.000000
0.465339 -0.052805 -0.016017 2.000000
0.465339 0.074143 0.053943 2.000000
0.465339 -0.030447 0.014285 2.000000
0.465339 -0.067956 -0.011391 2.000000
0.465339 0.031702 -0.011502 2.000000
0.465339 0.049507 0.015764 2.000000
0.465339 0.011817 -0.078847 2.000000
0.465339 0.052788 -0.013034 2.000000
0.465339 -0.053997 0.063216 2.000000
0.465339 -0.035991 0.015468 2.000000
0.465339 -0.065258 0.049701 2.000000
0.465339 -0.012758 0.098039 2.000000
0.465339 0.011226 0.081165 2.000000
0.465339 -0.039603 0.046973 2.000000
0.465339 0.048780 -0.059061 2.000000
0.465339 0.007967 -0.050251 2.000000
0.465339 -0.000957 0.039199 2.000000
0.465339 0.022203 -0.021718 2.000000
0.465339 0.019547 0.083313 2.000000
0.465339 -0.002091 0.032863 2.000000
0.465339 0.073502 -0.038759 2.000000
0.465339 0.061775 0.050263 2.000000
0.465339 0.067377 0.001491 2.000000
0.465339 0.070199 -0.035636 2.000000
0.465339 -0.014668 -0.023737 2.000000
0.465339 0.034998 -0.031935 2.000000
0.465339 -0.039242 -0.077792 2.000000
0.465339 0.070598 0.043196 2.000000
0.465339 -0.037466 0.014795 2.000000
0.465339 -0.094444 -0.009401 2.000000
0.465339 -0.070806 -0.002561 2.000000
0.465339 -0.013435 0.022816 2.000000
0.465339 0.050514 -0.048205 2.000000
0.465339 0.027047 -0.005741 2.000000
0.465339 0.003568 0.040750 2.000000
0.465339 0.047221 0.073462 2.000000
0.465339 0.089171 -0.005775 2.000000
0.465339 -0.035970 0.051420 2.000000
0.465339 -0.008910 -0.020125 2.000000
0.465339 0.033419 -0.046232 2.000000
0.465339 0.033832 0.068860 2.000000
0.465339 -0.000648 -0.048283 2.000000
0.465339 -0.047634 -0.079051 2.000000
0.465339 0.084311 0.003806 2.000000
0.465339 -0.011083 -0.061036 2.000000
0.465339 -0.003855 0.091521 2.000000
0.465339 -0.048398 -0.046504 2.000000
0.465339 0.076399 0.051406 2.000000
0.465339 0.047740 0.006771 2.000000
0.465339 0.043566 -0.036372 2.000000
0.465339 -0.028566 0.040362 2.000000
0.465339 0.001956 0.041339 2.000000
0.465339 -0.012702 -0.096693 2.000000
0.465339 0.088556 -0.039159 2.000000
0.465339 -0.000265 0.029286 2.000000
0.465339 0.066030 -0.008511 2.000000
0.465339 0.025673 0.060655 2.000000
0.465339 0.012280 -0.097973 2.000000
0.465339 -0.077861 0.031679 2.000000
0.465339 0.024368 -0.056835 2.000000
0.465339 0.027150 0.035078 2.000000
0.465339 0.073000 0.019926 2.000000
0.465339 0.047571 0.071805 2.000000
0.465339 -0.040628 0.032810 2.000000
0.465339 0.043175 0.085491 2.000000
0.465339 0.055207 0.053973 2.000000
0.465339 0.054885 0.072981 2.000000
0.465339 0.034033 -0.042937 2.000000
0.465339 -0.035635 0.052971 2.000000
0.465339 -0.038934 -0.058622 2.000000
0.465339 0.004770 0.076567 2.000000
0.465339 0.004150 -0.047795 2.000000
0.465339 0.044923 0.016151 2.000000
0.465339 -0.003849 -0.077421 2.000000
0.465339 0.016905 -0.022743 2.000000
0.465339 -0.069872 0.015887 2.000000
0.465339 0.055362 0.003166 2.000000
0.465339 -0.048603 -0.060847 2.000000
0.465339 0.000308 0.034843 2.000000
0.465339 -0.000451 -0.018036 2.000000
0.465339 -0.012949 0.045902 2.000000
0.465339 0.048425 0.049939 2.000000
0.465339 0.018542 0.079627 2.000000
0.465339 0.019116 0.061954 2.000000
0.465339 0.030483 0.012463 2.000000
0.465339 -0.022030 -0.093854 2.000000
0.465339 0.036067 0.049160 2.000000
0.465339 -0.082878 0.015204 2.000000
0.465339 -0.021865 -0.048706 2.000000
0.465339 0.016923 -0.078245 2.000000
0.465339 0.039993 0.090179 2.000000
0.465339 0.091130 0.016317 2.000000
0.465339 0.081367 -0.010620 2.000000
0.465339 -0.036033 -0.055531 2.000000
0.465339 -0.055210 0.041261 2.000000
0.465339 -0.055846 -0.045607 2.000000
0.465339 -0.021533 0.024854 2.000000
0.465339 0.063474 -0.009130 2.000000
0.465339 0.055260 0.069904 2.000000
0.465339 -0.024429 -0.061505 2.000000
0.465339 0.020810 -0.028818 2.000000
0.465339 -0.057833 -0.010573 2.000000
0.465339 0.092179 0.032333 2.000000
0.465339 0.005039 0.096197 2.000000
0.465339 0.039933 -0.003422 2.000000
0.465339 -0.042244 -0.027748 2.000000
0.465339 -0.010496 -0.082724 2.000000
0.465339 -0.038733 0.045719 2.000000
0.465339 -0.077095 -0.006977 2.000000
0.465339 -0.063537 0.015606 2.000000
0.465339 -0.030143 0.079494 2.000000
0.465339 -0.069334 -0.017999 2.000000
0.465339 -0.049705 0.011183 2.000000
0.465339 0.001089 -0.090434 2.000000
0.465339 -0.065685 -0.042941 2.000000
0.465339 -0.004539 -0.060959 2.000000
0.465339 0.094868 0.022740 2.000000
0.465339 0.020204 -0.077595 2.000000
0.465339 0.038472 0.056009 2.000000
0.465339 0.001882 0.019214 2.000000
0.465339 -0.039753 0.084748 2.000000
0.465339 0.014687 -0.011694 2.000000
0.465339 -0.006958 0.071210 2.000000
0.465339 0.001125 -0.069602 2.000000
0.465339 0.058814 -0.016365 2.000000
0.465339 -0.031052 0.012336 2.000000
0.465339 0.017048 0.068072 2.000000
0.465339 0.038945 -0.040537 2.000000
0.465339 -0.095710 0.018023 2.000000
0.465339 0.082451 0.020039 2.000000
0.465339 -0.035849 0.056723 2.000000
0.465339 0.065890 0.020010 2.000000
0.465339 0.000387 0.066638 2.000000
0.465339 -0.018108 0.007241 2.000000
0.465339 -0.002632 -0.075491 2.000000
0.465339 0.002765 -0.077954 2.000000
0.465339 -0.037647 0.029812 2.000000
0.465339 0.018765 -0.020619 2.000000
0.465339 -0.071967 0.051768 2.000000
0.465339 -0.070837 0.037136 2.000000
0.465339 0.017465 0.056071 2.000000
0.465339 -0.031531 0.041924 2.000000
0.465339 -0.068217 0.026606 2.000000
0.465339 0.045158 0.025042 2.000000
0.465339 0.045907 -0.046732 2.000000
0.465339 -0.084550 0.017109 2.000000
0.465339 0.002167 0.006318 2.000000
0.465339 -0.022377 -0.089971 2.000000
0.465339 -0.026200 -0.033358 2.000000
0.465339 -0.043266 -0.070884 2.000000
0.465339 -0.011005 -0.079574 2.000000
0.465339 -0.080592 -0.054314 2.000000
0.465339 -0.011373 -0.008879 2.000000
0.465339 0.038132 -0.063710 2.000000
0.465339 -0.035148 -0.086783 2.000000
0.465339 -0.006849 0.093338 2.000000
0.465339 -0.056231 -0.049820 2.000000
0.465339 -0.036592 0.046290 2.000000
0.465339 0.057362 0.000440 2.000000
0.465339 0.001799 -0.087450 2.000000
0.465339 0.064068 -0.054878 2.000000
0.465339 0.003048 0.018230 2.000000
0.465339 -0.022570 0.046791 2.000000
0.465339 -0.013264 -0.074509 2.000000
0.465339 0.080082 0.017833 2.000000
0.465339 -0.097710 0.017647 2.000000
0.465339 -0.013787 -0.007682 2.000000
0.465339 0.006559 -0.093665 2.000000
0.465339 0.036920 -0.071106 2.000000
0.465339 0.071269 0.010860 2.000000
0.465339 0.004351 0.031890 2.000000
0.465339 -0.067547 0.015796 2.000000
0.465339 0.050786 -0.046481 2.000000
0.465339 -0.053214 0.057210 2.000000
0.465339 -0.080974 0.005031 2.000000
0.465339 0.097200 0.021248 2.000000
0.465339 -0.041521 0.055121 2.000000
0.465339 -0.033227 0.026896 2.000000
0.465339 0.010176 0.042922 2.000000
0.465339 0.070759 0.053462 2.000000
0.465339 0.011248 -0.034777 2.000000
0.465339 0.042425 0.064288 2.000000
0.465339 -0.065407 0.072853 2.000000
0.465339 0.053058 0.015846 2.000000
0.465339 -0.035713 0.035418 2.000000
0.465339 -0.017317 0.035738 2.000000
0.465339 -0.092452 0.002399 2.000000
0.465339 -0.056009 0.082459 2.000000
0.465339 0.025585 -0.045937 2.000000
0.465339 0.034027 0.007689 2.000000
0.465339 -0.049674 0.027310 2.000000
0.465339 -0.083415 -0.035266 2.000000
0.465339 -0.079019 0.035076 2.000000
0.465339 -0.036268 -0.026654 2.000000
0.465339 0.013011 -0.032885 2.000000
0.465339 0.056899 -0.070604 2.000000
0.465339 -0.034198 0.085763 2.000000
0.465339 0.028496 -0.059106 2.000000
0.465339 -0.030457 -0.022980 2.000000
0.465339 0.000763 0.091315 2.000000
0.465339 -0.062726 0.004008 2.000000
0.465339 0.085822 0.046566 2.000000
0.465339 0.095783 0.003244 2.000000
0.465339 -0.023994 0.043479 2.000000
0.465339 0.049427 0.073127 2.000000
0.465339 0.009992 0.086412 2.000000
0.465339 -0.092718 0.026109 2.000000
0.465339 -0.065342 0.058065 2.000000
0.465339 -0.059744 0.032251 2.000000
0.465339 0.096396 -0.011460 2.000000
0.465339 0.083203 -0.004948 2.000000
0.465339 -0.008238 0.055320 2.000000
0.465339 -0.056535 -0.040453 2.000000
0.465339 -0.060695 -0.012297 2.000000
0.465339 0.018813 -0.076265 2.000000
0.465339 -0.021030 0.095745 2.000000
0.465339 -0.020356 0.052742 2.000000
0.465339 0.038176 0.019987 2.000000
0.465339 -0.023939 -0.037148 2.000000
0.465339 0.015827 0.046454 2.000000
0.465339 -0.002735 0.038824 2.000000
0.465339 -0.089076 -0.037281 2.000000
0.465339 -0.019556 -0.048690 2.000000
0.465339 0.043962 -0.062629 2.000000
0.465339 -0.048691 -0.065864 2.000000
0.465339 -0.065199 0.001921 2.000000
0.465339 0.021499 -0.043329 2.000000
0.465339 -0.015050 -0.069067 2.000000
0.465339 0.058515 -0.051371 2.000000
0.465339 -0.031710 -0.062216 2.000000
0.465339 -0.074449 0.060403 2.000000
0.465339 0.055638 -0.080040 2.000000
0.465339 -0.000136 0.089815 2.000000
0.465339 0.082327 -0.003259 2.000000
0.465339 -0.033128 -0.011678 2.000000
0.465339 -0.063355 0.049410 2.000000
0.465339 0.057063 0.054626 2.000000
0.465339 0.018754 0.014670 2.000000
0.465339 -0.086020 -0.040721 2.000000
0.465339 -0.066035 0.035340 2.000000
0.465339 0.046106 -0.041243 2.000000
0.465339 0.090984 -0.005462 2.000000
0.465339 -0.063830 0.054733 2.000000
0.465339 0.065820 0.051662 2.000000
0.465339 0.087836 -0.043673 2.000000
0.465339 -0.032319 0.093516 2.000000
0.465339 0.071639 0.021549 2.000000
0.465339 -0.002291 0.096369 2.000000
0.465339 -0.044684 0.023906 2.000000
0.465339 0.024251 0.048496 2.000000
0.465339 -0.037990 -0.016261 2.000000
0.465339 -0.055499 -0.012361 2.000000
0.465339 -0.065842 0.043238 2.000000
0.465339 -0.036174 -0.034912 2.000000
0.465339 0.007567 0.073171 2.000000
0.465339 -0.034896 0.074072 2.000000
0.465339 -0.032991 -0.013332 2.000000
0.465339 0.000981 -0.001467 2.000000
0.465339 0.065681 -0.005501 2.000000
0.465339 0.003278 0.068248 2.000000
0.465339 -0.063124 0.018470 2.000000
0.465339 -0.007508 -0.094426 2.000000
0.465339 0.004834 -0.090752 2.000000
0.465339 -0.015217 0.009834 2.000000
0.465339 -0.046768 0.022035 2.000000
0.465339 -0.041459 0.022910 2.000000
0.465339 -0.020256 -0.045632 2.000000
0.465339 -0.049847 0.025231 2.000000
0.465339 -0.024194 0.076423 2.000000
0.465339 -0.078467 -0.060881 2.000000
0.465339 -0.007359 0.035870 2.000000
0.465339 -0.040882 0.053759 2.000000
0.465339 0.003558 0.024526 2.000000
0.465339 0.017211 0.003287 2.000000
0.465339 0.022533 -0.085277 2.000000
0.465339 0.017046 0.047351 2.000000
0.465339 -0.001247 0.011022 2.000000
0.465339 -0.032388 0.082763 2.000000
0.465339 -0.005791 0.078851 2.000000
0.465339 -0.004034 0.081194 2.000000
0.465339 -0.049687 -0.054446 2.000000
0.465339 -0.060844 0.043602 2.000000
0.465339 0.049009 -0.081687 2.000000
0.465339 -0.009303 -0.009279 2.000000
0.465339 -0.048038 0.075866 2.000000
0.465339 -0.041706 -0.045958 2.000000
0.465339 -0.007115 -0.022462 2.000000
0.465339 0.086325 0.049847 2.000000
0.465339 -0.027310 0.089820 2.000000
0.465339 0.017353 0.044033 2.000000
0.465339 0.083609 -0.049971 2.000000
0.465339 -0.046986 0.085506 2.000000
0.465339 -0.000018 -0.070969 2.000000
0.465339 0.023373 -0.093908 2.000000
0.465339 -0.040477 0.079564 2.000000
0.465339 0.056850 0.072720 2.000000
0.465339 -0.062928 -0.001767 2.000000
0.465339 0.003909 -0.052576 2.000000
0.465339 0.085484 -0.006298 2.000000
0.465339 -0.042117 -0.069898 2.000000
0.465339 0.009760 0.077921 2.000000
0.465339 -0.021214 -0.031693 2.000000
0.465339 -0.008815 0.050792 2.000000
0.465339 0.063290 0.077485 2.000000
0.465339 -0.021161 -0.047357 2.000000
0.465339 -0.004237 0.024214 2.000000
0.465339 0.098962 0.012530 2.000000
0.465339 0.017712 -0.041414 2.000000
0.465339 -0.010577 0.054930 2.000000
0.465339 0.029432 0.000188 2.000000
0.465339 -0.034942 0.045468 2.000000
0.465339 0.081351 -0.002099 2.000000
0.465339 0.050444 -0.083680 2.000000
0.465339 -0.009163 -0.071631 2.000000
0.465339 -0.003816 -0.018632 2.000000
0.465339 0.069590 -0.001858 2.000000
0.465339 -0.070500 0.018632 2.000000
0.465339 -0.015723 0.050529 2.000000
0.465339 -0.002193 -0.050413 2.000000
0.465339 0.010106 0.011617 2.000000
0.465339 0.093409 -0.031090 2.000000
0.465339 -0.060446 0.075011 2.000000
0.465339 0.063672 0.056663 2.000000
0.465339 -0.001725 -0.071317 2.000000
0.465339 -0.017968 0.072942 2.000000
0.465339 -0.076031 -0.000224 2.000000
0.465339 0.006700 -0.081469 2.000000
0.465339 -0.048147 0.022223 2.000000
0.465339 -0.062383 0.034380 2.000000
0.465339 0.042093 -0.084594 2.000000
0.465339 -0.053438 -0.026119 2.000000
0.465339 0.040365 -0.085948 2.000000
0.465339 -0.042441 0.072156 2.000000
0.465339 -0.036761 -0.017463 2.000000
0.465339 -0.041061 0.024568 2.000000
0.465339 -0.068278 0.009068 2.000000
0.465339 -0.003633 -0.001071 2.000000
0.465339 0.037173 -0.026432 2.000000
0.465339 0.049167 0.060949 2.000000
0.465339 0.075817 -0.041319 2.000000
0.465339 -0.024899 0.088155 2.000000
0.465339 -0.090583 -0.022913 2.000000
0.465339 0.033996 0.002271 2.000000
0.465339 0.001673 -0.054851 2.000000
0.465339 0.039280 0.075518 2.000000
0.465339 -0.002809 0.040404 2.000000
0.465339 -0.065318 0.068200 2.000000
0.465339 -0.044379 0.052593 2.000000
0.465339 0.009465 0.023434 2.000000
0.465339 0.018460 0.033487 2.000000
0.465339 0.078516 0.003135 2.000000
0.465339 0.025283 -0.075092 2.000000
0.465339 0.033346 0.039085 2.000000
0.465339 0.048678 -0.025249 2.000000
0.465339 0.009682 -0.090207 2.000000
0.465339 0.035425 -0.090166 2.000000
0.465339 0.054969 -0.076075 2.000000
0.465339 -0.041210 -0.009387 2.000000
0.465339 -0.000879 0.056020 2.000000
0.465339 -0.018862 0.078361 2.000000
0.465339 0.018571 0.029076 2.000000
0.465339 0.022412 0.029482 2.000000
0.465339 0.057374 -0.075599 2.000000
0.465339 0.035095 -0.049823 2.000000
0.465339 -0.026549 -0.069368 2.000000
0.465339 0.094032 -0.019162 2.000000
0.465339 0.011343 0.039741 2.000000
0.465339 0.051908 -0.043214 2.000000
0.465339 0.030493 0.076489 2.000000
0.465339 0.017521 -0.012332 2.000000
0.465339 -0.013556 -0.064868 2.000000
0.465339 -0.051223 0.068916 2.000000
0.465339 0.012994 -0.023559 2.000000
0.465339 -0.064614 0.030611 2.000000
0.465339 -0.087291 -0.046635 2.000000
0.465339 0.021508 0.053258 2.000000
0.465339 -0.051722 0.010336 2.000000
0.465339 0.004274 -0.024524 2.000000
0.465339 -0.020417 0.020816 2.000000
0.465339 0.047041 -0.053777 2.000000
0.465339 0.071300 -0.030617 2.000000
0.465339 0.013944 0.020201 2.000000
0.465339 0.064172 -0.020755 2.000000
0.465339 0.050402 -0.054006 2.000000
0.465339 0.080355 0.006151 2.000000
0.465339 0.004223 -0.050899 2.000000
0.465339 0.021137 0.075270 2.000000
0.465339 0.063310 0.064826 2.000000
0.465339 0.001256 -0.078917 2.000000
0.465339 -0.091219 0.025144 2.000000
0.465339 -0.011816 0.042225 2.000000
0.465339 -0.039584 0.013323 2.000000
0.465339 -0.032057 0.021306 2.000000
0.465339 -0.080183 -0.029918 2.000000
0.465339 0.024340 0.046376 2.000000
0.465339 -0.017583 0.043657 2.000000
0.465339 0.015585 -0.049803 2.000000
0.465339 -0.025440 -0.066931 2.000000
0.465339 0.030628 -0.039296 2.000000
0.465339 0.061587 0.078728 2.000000
0.465339 0.050717 -0.042113 2.000000
0.465339 -0.052851 0.048959 2.000000
0.465339 -0.066443 -0.022150 2.000000
0.465339 0.003911 -0.008721 2.000000
0.465339 -0.005294 -0.000777 2.000000
0.465339 0.011171 0.097348 2.000000
0.465339 -0.070044 -0.044010 2.000000
0.465339 0.059732 -0.014912 2.000000
0.465339 0.082316 -0.013161 2.000000
0.465339 0.037028 -0.003928 2.000000
0.465339 -0.061472 0.021989 2.000000
0.465339 0.018351 0.077007 2.000000
0.465339 -0.059052 -0.064926 2.000000
0.465339 -0.072555 -0.018470 2.000000
0.465339 0.006861 -0.055473 2.000000
0.465339 0.022599 0.074584 2.000000
0.465339 -0.070189 0.039442 2.000000
0.465339 0.022243 0.089314 2.000000
0.465339 -0.097895 -0.012726 2.000000
0.465339 -0.000475 0.005219 2.000000
0.465339 -0.068115 0.023544 2.000000
0.465339 -0.061381 -0.000056 2.000000
0.465339 -0.043168 -0.016314 2.000000
0.465339 0.004628 -0.007516 2.000000
0.465339 -0.048955 0.085363 2.000000
0.465339 0.028948 0.007795 2.000000
0.465339 -0.059444 0.079626 2.000000
0.465339 0.054039 -0.005043 2.000000
0.465339 -0.061100 0.006338 2.000000
0.465339 -0.011112 -0.096021 2.000000
0.465339 -0.033325 -0.076585 2.000000
0.465339 0.047934 -0.030619 2.000000
0.465339 -0.092751 0.006116 2.000000
0.465339 0.066629 0.046720 2.000000
0.465339 0.069553 0.020251 2.000000
0.465339 0.027343 -0.007231 2.000000
0.465339 -0.019540 0.073187 2.000000
0.465339 -0.053400 -0.004748 2.000000
0.465339 0.054091 0.007341 2.000000
0.465339 -0.028743 -0.027412 2.000000
0.465339 -0.003486 -0.049730 2.000000
0.465339 0.023978 -0.034351 2.000000
0.465339 0.056993 -0.024258 2.000000
0.465339 -0.032412 -0.028725 2.000000
0.465339 -0.057936 -0.070831 2.000000
0.465339 0.014617 0.018344 2.000000
0.465339 0.000418 0.072181 2.000000
0.465339 0.054290 -0.052309 2.000000
0.465339 -0.018377 0.034558 2.000000
0.465339 -0.041791 0.075240 2.000000
0.465339 -0.058556 0.046016 2.000000
0.465339 -0.041114 -0.021571 2.000000
0.465339 0.046273 -0.072806 2.000000
0.465339 0.046752 -0.016140 2.000000
0.465339 0.025873 -0.009732 2.000000
0.465339 0.027072 -0.011563 2.000000
0.465339 0.062509 -0.039416 2.000000
0.465339 0.067928 -0.024394 2.000000
0.465339 0.047285 -0.018401 2.000000
0.465339 -0.040867 0.018059 2.000000
0.465339 0.049130 -0.048979 2.000000
0.465339 -0.010052 0.095219 2.000000
0.465339 -0.076878 0.010437 2.000000
0.465339 0.064455 0.076494 2.000000
0.465339 0.021341 0.088171 2.000000
0.465339 0.002517 -0.092568 2.000000
0.465339 0.011294 0.061326 2.000000
0.465339 0.063022 0.009083 2.000000
0.465339 -0.019672 0.088337 2.000000
0.465339 0.042706 0.043772 2.000000
0.465339 0.008605 0.058949 2.000000
0.465339 0.007876 0.031263 2.000000
0.465339 0.003204 -0.033750 2.000000
0.465339 0.020735 0.045387 2.000000
0.465339 0.001256 0.070745 2.000000
0.465339 0.013233 0.061032 2.000000
0.465339 0.040662 0.076537 2.000000
0.465339 -0.096553 0.014636 2.000000
0.465339 0.002777 -0.051019 2.000000
0.465339 -0.015406 -0.031207 2.000000
0.465339 0.024282 -0.079645 2.000000
0.465339 0.018150 -0.085578 2.000000
0.465339 -0.018547 -0.010028 2.000000
0.465339 0.073770 0.033235 2.000000
0.465339 0.091695 0.012337 2.000000
0.465339 0.045365 0.012050 2.000000
0.465339 -0.078846 0.032735 2.000000
0.465339 0.084635 -0.039305 2.000000
0.465339 0.002760 0.081922 2.000000
0.465339 0.067010 -0.061478 2.000000
0.465339 -0.068658 -0.038725 2.000000
0.465339 -0.069466 0.033876 2.000000
0.465339 -0.041409 0.051935 2.000000
0.465339 0.046911 0.057864 2.000000
0.465339 -0.007396 0.000699 2.000000
0.465339 -0.032275 -0.025874 2.000000
0.465339 0.022540 0.036806 2.000000
0.465339 -0.043624 0.075203 2.000000
0.465339 -0.019745 0.057796 2.000000
0.465339 -0.018703 0.018227 2.000000
0.465339 -0.035123 0.016809 2.000000
0.465339 -0.008891 0.081069 2.000000
0.465339 0.042155 0.018643 2.000000
0.465339 -0.012266 -0.052596 2.000000
0.465339 -0.001839 -0.083325 2.000000
0.465339 0.083951 0.036157 2.000000
0.465339 -0.074991 0.059177 2.000000
0.465339 -0.010999 0.026297 2.000000
0.465339 -0.072320 0.050247 2.000000
0.465339 0.049299 0.022971 2.000000
0.465339 0.020539 0.028511 2.000000
0.465339 0.023409 -0.026090 2.000000
0.465339 -0.034776 -0.022355 2.000000
0.465339 0.054304 -0.036919 2.000000
0.465339 0.029182 0.075905 2.000000
0.465339 -0.000687 -0.032580 2.000000
0.465339 0.017706 0.007666 2.000000
0.465339 -0.053410 -0.022224 2.000000
0.465339 0.028216 -0.027322 2.000000
0.465339 -0.028309 -0.073175 2.000000
0.465339 -0.000568 -0.019541 2.000000
0.465339 -0.064043 -0.042965 2.000000
0.465339 -0.014305 -0.087359 2.000000
0.465339 -0.075879 0.048126 2.000000
0.465339 -0.072298 -0.032647 2.000000
0.465339 0.061676 0.048299 2.000000
0.465339 0.065372 0.036667 2.000000
0.465339 0.018092 0.066854 2.000000
0.465339 -0.056044 0.022873 2.000000
0.465339 0.096911 0.002333 2.000000
0.465339 0.023012 -0.059189 2.000000
0.465339 0.090654 -0.009246 2.000000
0.465339 -0.015578 0.054663 2.000000
0.465339 -0.031573 -0.055559 2.000000
0.465339 0.018782 0.044032 2.000000
0.465339 0.090518 0.015102 2.000000
0.465339 0.057527 -0.059285 2.000000
0.465339 0.062645 -0.040949 2.000000
0.465339 0.073704 -0.011903 2.000000
0.465339 -0.051972 -0.075226 2.000000
0.465339 0.062803 0.061084 2.000000
0.465339 0.015815 -0.010596 2.000000
0.465339 -0.009649 0.010981 2.000000
0.465339 0.030025 -0.025288 2.000000
0.465339 -0.025494 -0.052659 2.000000
0.465339 0.077098 -0.047001 2.000000
0.465339 0.019040 0.000466 2.000000
0.465339 0.058815 0.019190 2.000000
0.465339 0.035497 -0.027221 2.000000
0.465339 0.016328 0.050922 2.000000
0.465339 -0.031509 -0.027223 2.000000
0.465339 0.093696 -0.014178 2.000000
0.465339 0.014761 0.031115 2.000000
0.465339 0.024561 -0.011939 2.000000
0.465339 0.018132 0.094954 2.000000
0.465339 0.066034 0.067276 2.000000
0.465339 -0.016830 -0.050131 2.000000
0.465339 0.056207 0.058184 2.000000
0.465339 0.024450 0.012767 2.000000
0.465339 -0.043401 -0.049179 2.000000
0.465339 0.042429 0.023376 2.000000
0.465339 -0.089820 0.013368 2.000000
0.465339 0.047944 0.048117 2.000000
0.465339 0.022290 -0.025269 2.000000
0.465339 -0.015422 -0.042732 2.000000
0.465339 0.070761 -0.006665 2.000000
0.465339 -0.003898 -0.012923 2.000000
0.465339 0.030841 -0.052620 2.000000
0.465339 -0.002015 0.088018 2.000000
0.465339 -0.047520 -0.009956 2.000000
0.465339 -0.050911 0.021845 2.000000
0.465339 -0.018918 0.039196 2.000000
0.465339 -0.088388 -0.008354 2.000000
0.465339 0.047683 -0.023056 2.000000
0.465339 0.068526 0.021395 2.000000
0.465339 0.012105 0.043042 2.000000
0.465339 0.019500 -0.084077 2.000000
0.465339 -0.023494 0.010281 2.000000
0.465339 0.060819 0.019810 2.000000
0.465339 0.071996 -0.003462 2.000000
0.465339 0.022875 0.060936 2.000000
0.465339 -0.023257 0.034884 2.000000
0.465339 0.083240 -0.028155 2.000000
0.465339 -0.074459 -0.055155 2.000000
0.465339 -0.023365 -0.083376 2.000000
0.465339 0.008863 -0.079690 2.000000
0.465339 -0.035665 -0.091119 2.000000
0.465339 0.031742 0.057790 2.000000
0.465339 -0.052297 0.076839 2.000000
0.465339 0.017216 0.052430 2.000000
