0.465339 0.090723 0.023081 2.000000
0.465339 -0.076852 0.030714 2.000000
0.465339 -0.035989 0.075511 2.000000
0.465339 0.058728 -0.055081 2.000000
0.465339 -0.054519 -0.073636 2.000000
0.465339 -0.061644 0.078037 2.000000
0.465339 -0.010515 -0.020301 2.000000
0.465339 -0.017773 0.057157 2.000000
0.465339 0.048466 -0.022009 2.000000
0.465339 0.000836 -0.081783 2.000000
0.465339 -0.095177 -0.026547 2.000000
0.465339 0.041867 -0.017408 2.000000
0.465339 0.010510 -0.097138 2.000000
0.465339 0.003221 0.007363 2.000000
0.465339 -0.030849 -0.062640 2.000000
0.465339 0.042682 0.004822 2.000000
0.465339 0.076893 -0.015961 2.000000
0.465339 -0.054273 0.046049 2.000000
0.465339 -0.048507 0.045761 2.000000
0.465339 0.017720 0.033846 2.000000
0.465339 0.058175 -0.026439 2.000000
0.465339 -0.087153 0.007687 2.000000
0.465339 0.018074 -0.031669 2.000000
0.465339 -0.062644 -0.010689 2.000000
0.465339 0.029810 -0.005223 2.000000
0.465339 -0.009725 -0.082865 2.000000
0.465339 0.025344 0.002145 2.000000
0.465339 -0.008247 -0.055196 2.000000
0.465339 -0.003857 0.018158 2.000000
0.465339 0.042640 -0.005213 2.000000
0.465339 0.024852 -0.041527 2.000000
0.465339 0.075911 0.039119 2.000000
0.465339 0.006291 -0.002489 2.000000
0.465339 -0.057800 0.052892 2.000000
0.465339 -0.042322 0.015543 2.000000
0.465339 -0.091903 -0.012746 2.000000
0.465339 -0.065920 -0.016710 2.000000
0.465339 -0.038548 -0.035484 2.000000
0.465339 -0.032591 -0.076009 2.000000
0.465339 -0.070152 0.030186 2.000000
0.465339 0.077165 -0.049042 2.000000
0.465339 0.040857 -0.026762 2.000000
0.465339 0.074692 -0.005670 2.000000
0.465339 0.004991 0.077999 2.000000
0.465339 -0.097083 -0.014127 2.000000
0.465339 0.082055 0.012759 2.000000
0.465339 0.038804 0.076876 2.000000
0.465339 0.078178 -0.036401 2.000000
0.465339 0.011149 0.051702 2.000000
0.465339 -0.016907 -0.092155 2.000000
0.465339 -0.000704 -0.027501 2.000000
0.465339 0.024902 -0.023140 2.000000
0.465339 0.061897 -0.010058 2.000000
0.465339 0.029158 0.010162 2.000000
0.465339 0.077483 -0.022740 2.000000
0.465339 -0.019786 0.032538 2.000000
0.465339 -0.006676 0.081972 2.000000
0.465339 -0.045684 -0.012999 2.000000
0.465339 -0.019796 -0.078756 2.000000
0.465339 -0.042723 -0.064208 2.000000
0.465339 -0.087792 0.040550 2.000000
0.465339 -0.030585 0.053093 2.000000
0.465339 -0.087820 -0.027457 2.000000
0.465339 0.042417 -0.051623 2.000000
0.465339 0.017951 -0.085058 2.000000
0.465339 0.058746 0.058385 2.000000
0.465339 0.048560 0.071668 2.000000
0.465339 -0.028023 -0.083027 2.000000
0.465339 0.001633 0.041113 2.000000
0.465339 0.037304 -0.019337 2.000000
0.465339 0.008710 0.020246 2.000000
0.465339 -0.024263 0.052507 2.000000
0.465339 0.027405 0.031385 2.000000
0.465339 -0.083033 0.040611 2.000000
0.465339 0.076225 0.014082 2.000000
0.465339 0.002773 -0.002187 2.000000
0.465339 -0.046046 -0.032066 2.000000
0.465339 -0.032071 -0.073139 2.000000
0.465339 0.089857 0.035219 2.000000
0.465339 0.083380 0.018175 2.000000
0.465339 -0.048250 0.067627 2.000000
0.465339 0.084229 0.053539 2.000000
0.465339 0.011240 0.015373 2.000000
0.465339 0.032927 0.051798 2.000000
0.465339 0.034354 0.090937 2.000000
0.465339 -0.033259 -0.086189 2.000000
0.465339 0.047625 0.042950 2.000000
0.465339 -0.016121 -0.008780 2.000000
0.465339 0.037489 0.026343 2.000000
0.465339 -0.077501 0.032262 2.000000
0.465339 0.050398 0.000295 2.000000
0.465339 0.027564 0.088225 2.000000
0.465339 0.064786 -0.029138 2.000000
0.465339 -0.006414 0.022562 2.000000
0.465339 -0.096865 -0.023589 2.000000
0.465339 0.070004 0.002072 2.000000
0.465339 0.039797 -0.043883 2.000000
0.465339 0.037051 -0.005521 2.000000
0.465339 -0.037576 -0.037683 2.000000
0.465339 -0.025637 0.009196 2.000000
0.465339 0.035306 0.002205 2.000000
0.465339 -0.025941 0.004351 2.000000
0.465339 -0.022025 -0.090987 2.000000
0.465339 -0.043657 0.029686 2.000000
0.465339 0.021960 -0.070428 2.000000
0.465339 0.066189 -0.038167 2.000000
0.465339 -0.079529 0.022530 2.000000
0.465339 0.055576 -0.000033 2.000000
0.465339 -0.049590 -0.033851 2.000000
0.465339 -0.034267 -0.033261 2.000000
0.465339 0.018027 0.024407 2.000000
0.465339 -0.061926 0.040243 2.000000
0.465339 0.024407 0.052231 2.000000
0.465339 0.002026 -0.079391 2.000000
0.465339 -0.056360 0.066696 2.000000
0.465339 -0.033571 -0.070869 2.000000
0.465339 -0.033647 0.017606 2.000000
0.465339 -0.013613 -0.046054 2.000000
0.465339 -0.055283 0.073387 2.000000
0.465339 -0.005876 -0.022965 2.000000
0.465339 -0.007341 0.093170 2.000000
0.465339 -0.008076 0.043063 2.000000
0.465339 0.069527 -0.023745 2.000000
0.465339 -0.008434 0.024458 2.000000
0.465339 0.017444 -0.096141 2.000000
0.465339 -0.030890 -0.090055 2.000000
0.465339 0.061870 -0.012100 2.000000
0.465339 0.089976 0.009391 2.000000
0.465339 -0.041947 -0.025278 2.000000
0.465339 -0.026740 -0.049806 2.000000
0.465339 -0.071249 0.006255 2.000000
0.465339 -0.054982 -0.080238 2.000000
0.465339 -0.006111 0.086091 2.000000
0.465339 0.034169 0.066655 2.000000
0.465339 0.091763 0.024480 2.000000
0.465339 0.092693 0.015884 2.000000
0.465339 -0.022022 0.075084 2.000000
0.465339 0.084526 0.050077 2.000000
0.465339 0.065036 0.075851 2.000000
0.465339 -0.036313 -0.019830 2.000000
0.465339 0.080624 0.049277 2.000000
0.465339 -0.074522 -0.035173 2.000000
0.465339 -0.080485 0.024926 2.000000
0.465339 -0.059442 -0.048797 2.000000
0.465339 0.024857 -0.083403 2.000000
0.465339 0.005065 0.076545 2.000000
0.465339 0.027459 -0.080985 2.000000
0.465339 0.019112 -0.000698 2.000000
0.465339 -0.064576 -0.045264 2.000000
0.465339 0.009367 -0.056906 2.000000
0.465339 0.020491 -0.020720 2.000000
0.465339 -0.048124 0.030737 2.000000
0.465339 -0.009687 -0.024793 2.000000
0.465339 -0.007645 0.052804 2.000000
0.465339 0.019992 -0.088001 2.000000
0.465339 -0.052362 -0.020910 2.000000
0.465339 0.049021 0.023618 2.000000
0.465339 0.011896 0.037749 2.000000
0.465339 0.045614 0.009322 2.000000
0.465339 0.023763 0.087516 2.000000
0.465339 0.068082 -0.017998 2.000000
0.465339 -0.027709 0.073313 2.000000
0.465339 0.009006 -0.031863 2.000000
0.465339 0.008550 0.062184 2.000000
0.465339 0.047900 -0.057523 2.000000
0.465339 -0.048297 0.021314 2.000000
0.465339 0.021610 0.046635 2.000000
0.465339 -0.080976 -0.033292 2.000000
0.465339 -0.050651 0.018420 2.000000
0.465339 -0.040953 0.066392 2.000000
0.465339 0.032167 0.062593 2.000000
0.465339 -0.056552 -0.041641 2.000000
0.465339 -0.029184 0.087764 2.000000
0.465339 0.066345 0.062302 2.000000
0.465339 -0.032237 -0.088998 2.000000
0.465339 -0.041696 0.082025 2.000000
0.465339 -0.088898 0.011553 2.000000
0.465339 -0.000937 0.065046 2.000000
0.465339 -0.015296 0.056013 2.000000
0.465339 -0.005948 -0.091412 2.000000
0.465339 0.034146 -0.013308 2.000000
0.465339 -0.029490 -0.041536 2.000000
0.465339 0.090840 -0.006141 2.000000
0.465339 -0.053846 0.005922 2.000000
0.465339 -0.021751 0.076717 2.000000
0.465339 0.004172 -0.047536 2.000000
0.465339 0.073148 -0.056210 2.000000
0.465339 0.011451 -0.065730 2.000000
0.465339 0.051193 0.030042 2.000000
0.465339 -0.021514 0.092996 2.000000
0.465339 -0.022780 0.068688 2.000000
0.465339 0.063112 -0.050319 2.000000
0.465339 0.025034 0.034700 2.000000
0.465339 -0.092955 -0.028518 2.000000
0.465339 0.052597 0.017922 2.000000
0.465339 -0.019161 0.034050 2.000000
0.465339 0.052144 0.060552 2.000000
0.465339 0.008723 0.060108 2.000000
0.465339 0.011787 0.099070 2.000000
0.465339 0.044326 -0.038652 2.000000
0.465339 0.008546 -0.061447 2.000000
0.465339 -0.058246 0.032742 2.000000
0.465339 -0.013826 0.062489 2.000000
0.465339 -0.009516 0.016123 2.000000
0.465339 -0.068881 -0.052040 2.000000
0.465339 -0.016435 0.022885 2.000000
0.465339 0.028135 -0.042105 2.000000
0.465339 0.013612 0.011174 2.000000
0.465339 0.040828 -0.051445 2.000000
0.465339 0.000945 0.075304 2.000000
0.465339 -0.044631 0.071792 2.000000
0.465339 -0.037381 -0.039639 2.000000
0.465339 0.031966 0.060023 2.000000
0.465339 -0.004031 0.060740 2.000000
0.465339 -0.080865 -0.053058 2.000000
0.465339 0.013982 0.078170 2.000000
0.465339 -0.052914 -0.031730 2.000000
0.465339 -0.026178 0.007543 2.000000
0.465339 0.039842 -0.035057 2.000000
0.465339 0.016144 0.016661 2.000000
0.465339 0.080197 -0.008148 2.000000
0.465339 0.044791 0.042258 2.000000
0.465339 0.019575 0.040323 2.000000
0.465339 -0.045426 0.017323 2.000000
0.465339 -0.055252 -0.050740 2.000000
0.465339 0.043708 -0.037275 2.000000
0.465339 0.070734 0.068179 2.000000
0.465339 0.008497 -0.006006 2.000000
0.465339 0.066521 -0.029483 2.000000
0.465339 -0.021145 0.012748 2.000000
0.465339 -0.013624 0.032435 2.000000
0.465339 0.008549 -0.084557 2.000000
0.465339 0.068200 -0.014890 2.000000
0.465339 0.088361 -0.016085 2.000000
0.465339 0.024543 -0.057510 2.000000
0.465339 -0.068928 -0.021738 2.000000
0.465339 -0.027349 0.057751 2.000000
0.465339 0.046671 -0.015064 2.000000
0.465339 -0.071616 -0.032512 2.000000
0.465339 0.013601 0.089495 2.000000
0.465339 0.021724 0.042910 2.000000
0.465339 -0.029081 -0.090451 2.000000
0.465339 -0.003560 0.031377 2.000000
0.465339 -0.043945 0.019022 2.000000
0.465339 0.068261 0.066475 2.000000
0.465339 -0.038585 0.027672 2.000000
0.465339 0.004880 -0.001440 2.000000
0.465339 0.024210 0.060467 2.000000
0.465339 -0.027985 0.064297 2.000000
0.465339 -0.040114 -0.088844 2.000000
0.465339 0.073765 -0.046459 2.000000
0.465339 -0.002265 -0.022744 2.000000
0.465339 -0.014629 -0.062457 2.000000
0.465339 0.067780 0.047131 2.000000
0.465339 0.051942 -0.012156 2.000000
0.465339 -0.072432 0.031837 2.000000
0.465339 -0.038166 -0.027284 2.000000
0.465339 0.060482 -0.074652 2.000000
0.465339 0.056823 0.054601 2.000000
0.465339 -0.049297 0.079843 2.000000
0.465339 0.039913 0.057057 2.000000
0.465339 0.068839 0.068193 2.000000
0.465339 -0.035198 0.018405 2.000000
0.465339 -0.033341 -0.048613 2.000000
0.465339 -0.056315 0.003664 2.000000
0.465339 0.082907 0.045303 2.000000
0.465339 -0.023210 0.011887 2.000000
0.465339 0.049466 0.082101 2.000000
0.465339 -0.002481 -0.044925 2.000000
0.465339 -0.047990 0.071685 2.000000
0.465339 0.044436 0.027897 2.000000
0.465339 -0.036904 -0.090981 2.000000
0.465339 0.002037 0.001131 2.000000
0.465339 -0.079099 0.019596 2.000000
0.465339 -0.023802 -0.025248 2.000000
0.465339 -0.004396 -0.036605 2.000000
0.465339 0.000415 -0.071509 2.000000
0.465339 -0.056585 -0.066387 2.000000
0.465339 0.078063 0.058831 2.000000
0.465339 -0.042610 -0.087098 2.000000
0.465339 -0.050977 -0.058884 2.000000
0.465339 0.018766 0.013651 2.000000
0.465339 0.087890 0.046485 2.000000
0.465339 -0.060242 -0.014984 2.000000
0.465339 0.033562 -0.043836 2.000000
0.465339 -0.068946 0.041400 2.000000
0.465339 -0.007792 0.047122 2.000000
0.465339 -0.014891 -0.040519 2.000000
0.465339 -0.040925 0.047094 2.000000
0.465339 0.035133 0.092126 2.000000
0.465339 -0.035109 -0.014446 2.000000
0.465339 -0.093330 -0.026591 2.000000
0.465339 0.040867 -0.077151 2.000000
0.465339 0.009601 -0.026881 2.000000
0.465339 0.002345 0.039265 2.000000
0.465339 0.016764 0.032663 2.000000
0.465339 0.052857 -0.029076 2.000000
0.465339 -0.076503 -0.058116 2.000000
0.465339 0.007928 -0.055674 2.000000
0.465339 0.065281 0.027734 2.000000
0.465339 -0.041014 0.021038 2.000000
0.465339 -0.015963 -0.003230 2.000000
0.465339 0.096222 -0.024802 2.000000
0.465339 0.022134 -0.092818 2.000000
0.465339 -0.021320 0.016916 2.000000
0.465339 0.009331 -0.081388 2.000000
0.465339 0.014221 0.052296 2.000000
0.465339 -0.031493 -0.068774 2.000000
0.465339 -0.052745 0.062294 2.000000
0.465339 0.073971 0.058846 2.000000
0.465339 -0.034082 0.060186 2.000000
0.465339 -0.082471 -0.026916 2.000000
0.465339 -0.076495 -0.042273 2.000000
0.465339 -0.030789 0.087884 2.000000
0.465339 -0.098651 -0.012746 2.000000
0.465339 -0.096005 -0.015082 2.000000
0.465339 0.025576 -0.027819 2.000000
0.465339 -0.033294 0.047128 2.000000
0.465339 -0.066428 -0.034327 2.000000
0.465339 0.028656 -0.016434 2.000000
0.465339 0.028322 0.062733 2.000000
0.465339 0.075867 -0.059318 2.000000
0.465339 -0.010669 0.088640 2.000000
0.465339 0.014391 0.087350 2.000000
0.465339 -0.024434 0.078701 2.000000
0.465339 0.008278 -0.059485 2.000000
0.465339 -0.073254 -0.008529 2.000000
0.465339 -0.012905 -0.080985 2.000000
0.465339 0.013806 0.042733 2.000000
0.465339 0.065270 0.040917 2.000000
0.465339 -0.073045 -0.041507 2.000000
0.465339 -0.074745 -0.027278 2.000000
0.465339 -0.046556 0.083653 2.000000
0.465339 0.004885 0.050791 2.000000
0.465339 0.068584 -0.006386 2.000000
0.465339 -0.075964 0.028463 2.000000
0.465339 0.024580 0.095591 2.000000
0.465339 0.073761 0.002950 2.000000
0.465339 -0.095983 -0.021367 2.000000
0.465339 0.045935 0.085074 2.000000
0.465339 0.027525 0.058819 2.000000
0.465339 0.037429 0.047008 2.000000
0.465339 -0.016099 -0.071187 2.000000
0.465339 0.046636 -0.031116 2.000000
0.465339 0.016437 0.034831 2.000000
0.465339 0.065042 0.071106 2.000000
0.465339 -0.014264 -0.082415 2.000000
0.465339 0.082221 -0.037011 2.000000
0.465339 -0.014438 -0.001534 2.000000
0.465339 -0.040294 0.064149 2.000000
0.465339 0.034197 -0.039602 2.000000
0.465339 -0.058666 0.044067 2.000000
0.465339 0.033686 0.003972 2.000000
0.465339 -0.062928 -0.001190 2.000000
0.465339 -0.028464 0.037863 2.000000
0.465339 0.015678 0.060320 2.000000
0.465339 -0.017616 -0.052145 2.000000
0.465339 -0.053867 -0.062574 2.000000
0.465339 0.012522 0.046837 2.000000
0.465339 -0.031217 0.027575 2.000000
0.465339 0.000290 -0.064496 2.000000
0.465339 -0.086335 0.010204 2.000000
0.465339 0.090033 -0.011109 2.000000
0.465339 -0.043435 0.043814 2.000000
0.465339 -0.070450 0.038944 2.000000
0.465339 -0.073907 0.006826 2.000000
0.465339 -0.023332 -0.021843 2.000000
0.465339 0.006305 -0.081821 2.000000
0.465339 0.081703 -0.002118 2.000000
0.465339 -0.008913 0.057032 2.000000
0.465339 0.008117 -0.001123 2.000000
0.465339 0.031323 0.048162 2.000000
0.465339 0.072979 0.038660 2.000000
0.465339 0.076714 -0.005535 2.000000
0.465339 0.005082 -0.060578 2.000000
0.465339 0.003278 -0.083321 2.000000
0.465339 0.062998 0.056211 2.000000
0.465339 -0.029851 0.022332 2.000000
0.465339 0.064261 -0.018252 2.000000
0.465339 0.017343 0.021363 2.000000
0.465339 -0.056369 -0.064734 2.000000
0.465339 -0.075967 0.041834 2.000000
0.465339 -0.045598 0.003212 2.000000
0.465339 -0.031050 0.075553 2.000000
0.465339 -0.044861 0.066198 2.000000
0.465339 0.058462 0.003861 2.000000
0.465339 -0.013962 0.009602 2.000000
0.465339 0.005546 -0.069944 2.000000
0.465339 0.029358 -0.063341 2.000000
0.465339 0.077194 0.001224 2.000000
0.465339 -0.068983 0.037427 2.000000
0.465339 0.042237 0.029765 2.000000
0.465339 -0.068236 -0.053448 2.000000
0.465339 -0.054488 -0.003650 2.000000
0.465339 -0.079885 0.006414 2.000000
0.465339 0.047520 -0.055928 2.000000
0.465339 0.028353 0.020617 2.000000
0.465339 -0.087506 0.032858 2.000000
0.465339 0.021307 0.059276 2.000000
0.465339 -0.061609 -0.015137 2.000000
0.465339 0.077719 0.012228 2.000000
0.465339 -0.021649 -0.066303 2.000000
0.465339 0.091240 -0.037326 2.000000
0.465339 0.017299 -0.080124 2.000000
0.465339 0.023348 -0.002324 2.000000
0.465339 -0.036531 0.091507 2.000000
0.465339 0.056790 -0.016215 2.000000
0.465339 0.009942 0.040552 2.000000
0.465339 -0.036493 -0.048329 2.000000
0.465339 0.055722 0.075810 2.000000
0.465339 -0.019718 -0.080194 2.000000
0.465339 0.042751 0.074858 2.000000
0.465339 0.035583 -0.074313 2.000000
0.465339 0.081770 0.044035 2.000000
0.465339 0.062866 -0.023834 2.000000
0.465339 0.040317 0.077504 2.000000
0.465339 -0.049443 0.033154 2.000000
0.465339 0.041648 0.014503 2.000000
0.465339 -0.074875 0.013174 2.000000
0.465339 -0.026517 0.031815 2.000000
0.465339 0.066048 0.031261 2.000000
0.465339 0.084970 0.000682 2.000000
0.465339 -0.064339 0.058667 2.000000
0.465339 0.062047 0.053006 2.000000
0.465339 -0.040500 0.002140 2.000000
0.465339 0.000489 0.076664 2.000000
0.465339 -0.009863 0.066684 2.000000
0.465339 -0.064157 -0.032448 2.000000
0.465339 0.066781 -0.026387 2.000000
0.465339 0.050350 -0.053439 2.000000
0.465339 -0.041431 -0.084808 2.000000
0.465339 0.013951 0.060298 2.000000
0.465339 0.092133 0.013650 2.000000
0.465339 -0.018545 0.070719 2.000000
0.465339 -0.087686 0.019770 2.000000
0.465339 -0.005053 0.090260 2.000000
0.465339 -0.085316 0.017568 2.000000
0.465339 -0.051932 -0.074886 2.000000
0.465339 0.038203 0.013832 2.000000
0.465339 -0.002431 -0.041669 2.000000
0.465339 -0.059845 -0.040527 2.000000
0.465339 -0.016302 -0.098250 2.000000
0.465339 -0.040572 -0.014178 2.000000
0.465339 -0.004943 0.049252 2.000000
0.465339 0.016955 -0.093362 2.000000
0.465339 0.030771 -0.079688 2.000000
0.465339 0.091968 -0.033227 2.000000
0.465339 -0.040136 0.090332 2.000000
0.465339 0.017655 -0.077114 2.000000
0.465339 -0.055441 -0.047663 2.000000
0.465339 -0.092696 0.033006 2.000000
0.465339 -0.010019 0.017575 2.000000
0.465339 0.015697 0.026019 2.000000
0.465339 0.092142 0.022293 2.000000
0.465339 0.056211 0.016249 2.000000
0.465339 0.031224 0.061530 2.000000
0.465339 0.007809 -0.072794 2.000000
0.465339 0.022486 -0.025266 2.000000
0.465339 0.046372 0.028104 2.000000
0.465339 0.065147 0.063949 2.000000
0.465339 0.056599 0.048859 2.000000
0.465339 0.022525 -0.011819 2.000000
0.465339 0.063447 -0.009441 2.000000
0.465339 -0.008878 0.021403 2.000000
0.465339 0.065350 -0.048378 2.000000
0.465339 -0.043966 -0.038337 2.000000
0.465339 -0.069155 0.050133 2.000000
0.465339 -0.063669 0.030203 2.000000
0.465339 -0.038345 -0.048669 2.000000
0.465339 -0.006261 0.083585 2.000000
0.465339 -0.000844 -0.068072 2.000000
0.465339 -0.001006 -0.004300 2.000000
0.465339 -0.043591 -0.080225 2.000000
0.465339 -0.025061 -0.082575 2.000000
0.465339 -0.046923 -0.009656 2.000000
0.465339 -0.029403 0.017961 2.000000
0.465339 0.023603 -0.010564 2.000000
0.465339 -0.050867 -0.028103 2.000000
0.465339 0.034074 0.009370 2.000000
0.465339 0.006160 -0.032151 2.000000
0.465339 -0.014001 -0.017918 2.000000
0.465339 -0.077097 0.037650 2.000000
0.465339 0.081933 0.039186 2.000000
0.465339 -0.090847 -0.033526 2.000000
0.465339 -0.003499 -0.087295 2.000000
0.465339 0.014114 -0.057997 2.000000
0.465339 -0.010081 -0.088406 2.000000
0.465339 0.066093 0.051037 2.000000
0.465339 -0.017339 0.048507 2.000000
0.465339 -0.018207 0.043139 2.000000
0.465339 0.059251 0.061469 2.000000
0.465339 0.034157 -0.077606 2.000000
0.465339 -0.060814 0.060287 2.000000
0.465339 0.040271 -0.085529 2.000000
0.465339 -0.015950 -0.030994 2.000000
0.465339 -0.025528 -0.029138 2.000000
0.465339 -0.075037 0.025486 2.000000
0.465339 -0.068016 0.003645 2.000000
0.465339 0.080464 -0.006344 2.000000
0.465339 -0.014021 0.030284 2.000000
0.465339 0.015643 0.061844 2.000000
0.465339 0.003545 0.024242 2.000000
0.465339 -0.016724 0.074720 2.000000
0.465339 0.078394 -0.055456 2.000000
0.465339 -0.072032 0.060442 2.000000
0.465339 0.069652 0.042749 2.000000
0.465339 0.060575 -0.014267 2.000000
0.465339 -0.068269 -0.047594 2.000000
0.465339 -0.054950 -0.049014 2.000000
0.465339 -0.027961 -0.079327 2.000000
0.465339 -0.026540 -0.033881 2.000000
0.465339 0.061023 0.072102 2.000000
0.465339 -0.044656 -0.073378 2.000000
0.465339 0.039701 -0.082712 2.000000
0.465339 -0.052061 0.063711 2.000000
0.465339 -0.011409 -0.030525 2.000000
0.465339 0.021121 -0.039542 2.000000
0.465339 -0.051553 -0.077897 2.000000
0.465339 -0.043018 -0.078576 2.000000
0.465339 0.042249 0.053679 2.000000
0.465339 -0.035415 -0.001965 2.000000
0.465339 0.015927 0.064095 2.000000
0.465339 -0.006492 -0.036884 2.000000
0.465339 0.070126 -0.025539 2.000000
0.465339 -0.088742 0.013325 2.000000
0.465339 -0.052150 0.050680 2.000000
0.465339 0.018362 0.067056 2.000000
0.465339 -0.042399 -0.048842 2.000000
0.465339 0.004519 0.003215 2.000000
0.465339 -0.038146 -0.086144 2.000000
0.465339 -0.052109 -0.008595 2.000000
0.465339 0.043356 -0.039862 2.000000
0.465339 -0.042196 0.063038 2.000000
0.465339 0.079022 0.004006 2.000000
0.465339 0.053175 0.041084 2.000000
0.465339 -0.034833 0.085675 2.000000
0.465339 0.006720 -0.011422 2.000000
0.465339 -0.076581 -0.040102 2.000000
0.465339 -0.055201 -0.055723 2.000000
0.465339 -0.015472 0.005511 2.000000
0.465339 -0.019769 0.086723 2.000000
0.465339 -0.068231 0.014323 2.000000
0.465339 0.072922 0.009161 2.000000
0.465339 0.083757 -0.020792 2.000000
0.465339 0.005428 0.099691 2.000000
0.465339 0.065548 -0.012751 2.000000
0.465339 -0.086256 -0.018987 2.000000
0.465339 0.078263 0.008396 2.000000
0.465339 0.026387 0.021560 2.000000
0.465339 0.013237 0.001838 2.000000
0.465339 0.032292 0.087781 2.000000
0.465339 -0.071522 0.003323 2.000000
0.465339 -0.083590 -0.027883 2.000000
0.465339 0.082368 -0.005226 2.000000
0.465339 0.023506 -0.027683 2.000000
0.465339 -0.097793 -0.017896 2.000000
0.465339 0.087626 0.013293 2.000000
0.465339 0.017283 0.037203 2.000000
0.465339 0.079304 -0.013260 2.000000
0.465339 0.005219 -0.098348 2.000000
0.465339 -0.003059 -0.013309 2.000000
0.465339 -0.082770 -0.015109 2.000000
0.465339 -0.027339 0.019048 2.000000
0.465339 0.020233 -0.016337 2.000000
0.465339 0.045879 0.060071 2.000000
0.465339 -0.041219 0.039181 2.000000
0.465339 0.058904 -0.023214 2.000000
0.465339 0.084790 -0.035292 2.000000
0.465339 0.082407 0.001980 2.000000
0.465339 0.065969 0.035062 2.000000
0.465339 -0.038373 0.086860 2.000000
0.465339 0.048526 0.012508 2.000000
0.465339 -0.036687 0.012377 2.000000
0.465339 0.053646 -0.065454 2.000000
0.465339 -0.068627 -0.064383 2.000000
0.465339 -0.077202 0.010136 2.000000
0.465339 0.002268 -0.088101 2.000000
0.465339 -0.007160 -0.072749 2.000000
0.465339 0.089796 0.044026 2.000000
0.465339 -0.018556 -0.022523 2.000000
0.465339 -0.053550 0.012936 2.000000
0.465339 0.062141 0.044615 2.000000
0.465339 0.015715 -0.088180 2.000000
0.465339 -0.032359 0.058960 2.000000
0.465339 -0.043937 0.008965 2.000000
0.465339 0.044816 -0.004593 2.000000
0.465339 -0.036674 -0.014902 2.000000
0.465339 0.023037 0.066579 2.000000
0.465339 -0.074054 -0.038413 2.000000
0.465339 0.052266 -0.079226 2.000000
0.465339 0.079407 0.009907 2.000000
0.465339 -0.072181 0.043741 2.000000
0.465339 -0.023594 0.096115 2.000000
0.465339 0.011876 -0.085704 2.000000
0.465339 0.076361 0.044132 2.000000
0.465339 0.052496 0.038921 2.000000
0.465339 -0.094404 0.008370 2.000000
0.465339 0.043097 -0.013720 2.000000
0.465339 0.017347 -0.097987 2.000000
0.465339 -0.020441 0.050377 2.000000
0.465339 -0.017010 0.018635 2.000000
0.465339 0.056172 0.051967 2.000000
0.465339 0.053565 0.048292 2.000000
0.465339 0.048630 -0.043164 2.000000
0.465339 0.026891 -0.033302 2.000000
0.465339 -0.025115 -0.030665 2.000000
0.465339 0.049314 -0.020261 2.000000
0.465339 0.046526 -0.027502 2.000000
0.465339 -0.082941 -0.054157 2.000000
0.465339 0.034891 -0.065923 2.000000
0.465339 -0.008322 -0.093582 2.000000
0.465339 0.077350 0.049008 2.000000
0.465339 -0.076825 0.016311 2.000000
0.465339 -0.042100 0.028504 2.000000
0.465339 -0.045869 -0.014537 2.000000
0.465339 -0.070307 -0.033954 2.000000
0.465339 0.014593 0.062958 2.000000
0.465339 0.026769 -0.063208 2.000000
0.465339 0.077443 0.003437 2.000000
0.465339 -0.021870 -0.018620 2.000000
0.465339 -0.016516 -0.068529 2.000000
0.465339 -0.073946 0.048941 2.000000
0.465339 -0.097444 0.008123 2.000000
0.465339 -0.014069 0.006526 2.000000
0.465339 0.039528 0.009791 2.000000
0.465339 -0.082679 -0.013222 2.000000
0.465339 0.029240 -0.050642 2.000000
0.465339 0.086843 0.035514 2.000000
0.465339 0.061355 -0.070586 2.000000
0.465339 -0.035633 -0.028993 2.000000
0.465339 -0.056252 -0.046114 2.000000
0.465339 0.016034 0.065967 2.000000
0.465339 0.036748 -0.065740 2.000000
0.465339 -0.075374 0.052359 2.000000
0.465339 0.084693 -0.013901 2.000000
0.465339 -0.024246 -0.095463 2.000000
0.465339 0.080622 0.040073 2.000000
0.465339 0.090551 0.037176 2.000000
0.465339 0.022950 0.017174 2.000000
0.465339 0.063093 -0.060792 2.000000
0.465339 0.066311 -0.009874 2.000000
0.465339 -0.034548 -0.079896 2.000000
0.465339 0.056311 0.035217 2.000000
0.465339 -0.080372 -0.002561 2.000000
0.465339 0.095157 -0.013965 2.000000
0.465339 0.074999 0.021844 2.000000
0.465339 -0.090172 0.020598 2.000000
0.465339 0.012514 -0.055452 2.000000
0.465339 -0.003684 0.001385 2.000000
0.465339 0.078173 -0.005699 2.000000
0.465339 -0.021929 0.015325 2.000000
0.465339 -0.030843 -0.078614 2.000000
0.465339 -0.070706 0.042805 2.000000
0.465339 -0.034028 -0.013498 2.000000
0.465339 0.066826 -0.006617 2.000000
0.465339 -0.066513 -0.020190 2.000000
0.465339 0.044332 -0.057463 2.000000
0.465339 -0.037819 -0.088226 2.000000
0.465339 0.030511 0.024167 2.000000
0.465339 0.088260 -0.008952 2.000000
0.465339 0.043126 0.051648 2.000000
0.465339 0.035818 -0.079424 2.000000
0.465339 -0.026732 -0.077311 2.000000
0.465339 -0.032702 0.028314 2.000000
0.465339 0.095675 -0.003163 2.000000
0.465339 0.035757 -0.077546 2.000000
0.465339 -0.059643 -0.062031 2.000000
0.465339 0.079007 -0.044132 2.000000
0.465339 -0.017485 -0.056534 2.000000
0.465339 -0.011990 -0.084489 2.000000
0.465339 -0.048164 -0.053299 2.000000
0.465339 0.063061 0.001564 2.000000
0.465339 0.000462 0.080870 2.000000
0.465339 0.048825 0.083790 2.000000
0.465339 0.039755 -0.004097 2.000000
0.465339 -0.040757 0.062388 2.000000
0.465339 -0.020050 -0.087170 2.000000
0.465339 -0.082575 0.007800 2.000000
0.465339 0.001872 0.093210 2.000000
0.465339 0.052615 -0.034198 2.000000
0.465339 0.007270 -0.016757 2.000000
0.465339 0.007515 -0.097217 2.000000
0.465339 -0.035340 0.030046 2.000000
0.465339 -0.021839 0.061825 2.000000
0.465339 0.009152 -0.046778 2.000000
0.465339 -0.062016 -0.002381 2.000000
0.465339 0.025351 0.078581 2.000000
0.465339 -0.041081 0.025587 2.000000
0.465339 -0.059106 0.004387 2.000000
0.465339 -0.013434 0.003299 2.000000
0.465339 0.017236 -0.012320 2.000000
0.465339 -0.036201 0.051975 2.000000
0.465339 -0.061220 -0.016727 2.000000
0.465339 -0.082423 0.032983 2.000000
0.465339 0.027422 -0.079292 2.000000
0.465339 0.071357 0.069568 2.000000
0.465339 -0.033167 0.085466 2.000000
0.465339 -0.043639 -0.012714 2.000000
0.465339 -0.042658 0.068666 2.000000
0.465339 -0.044712 -0.052248 2.000000
0.465339 -0.022187 0.034646 2.000000
0.465339 0.006905 -0.000559 2.000000
0.465339 -0.059669 -0.017611 2.000000
0.465339 0.079087 -0.009427 2.000000
0.465339 0.046973 0.022364 2.000000
0.465339 0.021757 0.019894 2.000000
0.465339 -0.019066 0.008843 2.000000
0.465339 0.002372 -0.026425 2.000000
0.465339 -0.072527 0.027156 2.000000
0.465339 0.035542 -0.054524 2.000000
0.465339 -0.086794 0.037569 2.000000
0.465339 -0.021352 -0.077461 2.000000
0.465339 0.051119 0.059157 2.000000
0.465339 0.058185 0.055757 2.000000
0.465339 -0.071592 0.050732 2.000000
0.465339 -0.009151 0.003073 2.000000
0.465339 -0.083818 -0.036503 2.000000
0.465339 0.020738 -0.024195 2.000000
0.465339 -0.051914 0.054981 2.000000
0.465339 0.049597 -0.006947 2.000000
0.465339 0.030997 -0.032471 2.000000
0.465339 0.063597 0.064965 2.000000
0.465339 -0.057545 -0.046906 2.000000
0.465339 -0.000874 -0.014569 2.000000
0.465339 0.021429 -0.033347 2.000000
0.465339 -0.047782 0.087437 2.000000
0.465339 0.035545 -0.051423 2.000000
0.465339 0.079045 0.057752 2.000000
0.465339 0.007790 -0.081304 2.000000
0.465339 -0.007894 -0.059342 2.000000
0.465339 -0.021017 -0.040644 2.000000
0.465339 0.015101 0.020211 2.000000
0.465339 -0.001921 0.091625 2.000000
0.465339 0.036909 -0.054705 2.000000
0.465339 0.011975 0.089591 2.000000
0.465339 0.099277 -0.003175 2.000000
0.465339 0.034185 -0.060675 2.000000
0.465339 -0.070362 0.057386 2.000000
0.465339 0.046151 0.079167 2.000000
0.465339 0.032314 -0.050997 2.000000
0.465339 0.030862 -0.051191 2.000000
0.465339 -0.059542 0.020970 2.000000
0.465339 -0.098100 0.004678 2.000000
0.465339 -0.017808 -0.045599 2.000000
0.465339 0.030959 0.000520 2.000000
0.465339 0.044172 0.079365 2.000000
0.465339 0.000558 -0.093339 2.000000
0.465339 -0.040298 0.072125 2.000000
0.465339 -0.041357 -0.057811 2.000000
0.465339 0.058105 0.068410 2.000000
0.465339 0.023090 0.020347 2.000000
0.465339 0.038787 -0.006734 2.000000
0.465339 0.054816 0.046148 2.000000
0.465339 -0.069163 -0.036381 2.000000
0.465339 0.007498 -0.048773 2.000000
0.465339 0.009405 -0.063769 2.000000
0.465339 0.008025 0.051405 2.000000
0.465339 0.054586 0.020693 2.000000
0.465339 0.039540 0.081346 2.000000
0.465339 0.026177 0.059462 2.000000
0.465339 -0.004376 -0.076195 2.000000
0.465339 -0.032116 -0.020022 2.000000
0.465339 0.060758 -0.026002 2.000000
0.465339 -0.038213 -0.008581 2.000000
0.465339 -0.007540 -0.074406 2.000000
0.465339 -0.019904 0.027839 2.000000
0.465339 0.096453 0.009412 2.000000
0.465339 -0.071952 0.054002 2.000000
0.465339 0.051396 0.043592 2.000000
0.465339 0.036829 -0.051769 2.000000
0.465339 0.025302 0.006066 2.000000
0.465339 0.068132 0.037582 2.000000
0.465339 -0.000248 0.068469 2.000000
0.465339 0.082408 0.003800 2.000000
0.465339 0.036131 -0.032450 2.000000
0.465339 0.019181 0.026869 2.000000
0.465339 -0.072010 0.023610 2.000000
0.465339 0.092170 -0.006133 2.000000
0.465339 -0.052234 0.014683 2.000000
0.465339 0.017417 0.026346 2.000000
0.465339 -0.091125 0.026552 2.000000
0.465339 -0.011257 -0.097618 2.000000
0.465339 0.042554 0.055223 2.000000
0.465339 0.027449 0.054158 2.000000
0.465339 -0.063495 0.067571 2.000000
0.465339 0.063387 -0.063246 2.000000
0.465339 -0.028364 0.007314 2.000000
0.465339 0.030809 0.086661 2.000000
0.465339 0.062636 -0.065056 2.000000
0.465339 -0.025714 0.089664 2.000000
0.465339 -0.019657 0.081586 2.000000
0.465339 -0.012720 -0.093268 2.000000
0.465339 -0.019037 -0.005661 2.000000
0.465339 -0.035444 -0.050260 2.000000
0.465339 0.086658 0.001844 2.000000
0.465339 0.057509 -0.022928 2.000000
0.465339 -0.062056 -0.064361 2.000000
0.465339 -0.075746 -0.025257 2.000000
0.465339 0.040095 0.001219 2.000000
0.465339 -0.079259 -0.013238 2.000000
0.465339 0.064856 0.018199 2.000000
0.465339 -0.081523 -0.055993 2.000000
0.465339 0.046476 -0.038902 2.000000
0.465339 -0.053906 0.022720 2.000000
0.465339 0.010440 0.045549 2.000000
0.465339 -0.049554 0.069520 2.000000
0.465339 -0.056920 0.007377 2.000000
0.465339 -0.028425 0.039615 2.000000
0.465339 0.085939 -0.030225 2.000000
0.465339 -0.086708 -0.008836 2.000000
0.465339 -0.008579 -0.057902 2.000000
0.465339 -0.036496 -0.043649 2.000000
0.465339 -0.004450 -0.082435 2.000000
0.465339 0.022954 0.000597 2.000000
0.465339 -0.018956 -0.051299 2.000000
0.465339 -0.034646 0.028692 2.000000
0.465339 0.068511 0.000087 2.000000
0.465339 -0.037306 0.008333 2.000000
0.465339 0.077724 0.010430 2.000000
0.465339 0.072870 0.022269 2.000000
0.465339 0.049707 -0.072237 2.000000
0.465339 0.074566 -0.052382 2.000000
0.465339 0.031977 0.032532 2.000000
0.465339 0.086612 -0.040831 2.000000
0.465339 -0.048009 0.043869 2.000000
0.465339 0.030612 -0.054592 2.000000
0.465339 0.013273 0.030822 2.000000
0.465339 -0.093962 0.025242 2.000000
0.465339 -0.051793 -0.060432 2.000000
0.465339 -0.008944 -0.081241 2.000000
0.465339 -0.012311 -0.040331 2.000000
0.465339 -0.059695 -0.055299 2.000000
0.465339 -0.048913 0.049482 2.000000
0.465339 -0.054813 -0.026724 2.000000
0.465339 -0.018168 -0.013348 2.000000
0.465339 -0.016679 -0.060401 2.000000
0.465339 -0.011002 0.090217 2.000000
0.465339 0.048922 -0.013399 2.000000
0.465339 0.028968 -0.004043 2.000000
0.465339 0.041195 -0.069844 2.000000
0.465339 0.009285 0.082398 2.000000
0.465339 -0.046227 0.040424 2.000000
0.465339 0.003308 -0.008240 2.000000
0.465339 -0.059259 -0.019392 2.000000
0.465339 0.000084 -0.047760 2.000000
0.465339 -0.014817 -0.045122 2.000000
0.465339 -0.023282 0.061011 2.000000
0.465339 0.023593 -0.089009 2.000000
0.465339 -0.077585 -0.024774 2.000000
0.465339 0.072053 -0.040270 2.000000
0.465339 -0.046272 -0.070903 2.000000
0.465339 -0.086824 0.000115 2.000000
0.465339 -0.048969 0.075047 2.000000
0.465339 0.025017 0.080580 2.000000
0.465339 0.026899 -0.041455 2.000000
0.465339 0.072974 -0.058557 2.000000
0.465339 0.053237 -0.016645 2.000000
0.465339 0.027205 0.078459 2.000000
0.465339 -0.023308 -0.027017 2.000000
0.465339 0.036696 -0.045147 2.000000
0.465339 -0.054202 -0.056949 2.000000
0.465339 -0.079413 0.000279 2.000000
0.465339 -0.024605 0.005942 2.000000
0.465339 0.003275 0.061120 2.000000
0.465339 -0.089553 0.019183 2.000000
0.465339 0.030800 -0.094826 2.000000
0.465339 -0.015132 0.037318 2.000000
0.465339 0.031242 0.065041 2.000000
0.465339 0.079277 -0.057659 2.000000
0.465339 0.018195 0.008134 2.000000
0.465339 -0.015827 -0.028056 2.000000
0.465339 0.040663 0.085666 2.000000
0.465339 0.033043 0.047458 2.000000
0.465339 0.044442 -0.062740 2.000000
0.465339 -0.024804 -0.079859 2.000000
0.465339 0.089780 0.042353 2.000000
0.465339 -0.044788 0.053221 2.000000
0.465339 -0.046035 0.068944 2.000000
0.465339 0.057381 0.074556 2.000000
0.465339 -0.046646 0.011694 2.000000
0.465339 -0.001823 -0.019326 2.000000
0.465339 0.035552 0.054270 2.000000
0.465339 0.030737 -0.017819 2.000000
0.465339 0.050229 0.039694 2.000000
0.465339 -0.031965 -0.034914 2.000000
0.465339 0.099745 0.006285 2.000000
0.465339 0.078209 0.045664 2.000000
0.465339 -0.065298 -0.037363 2.000000
0.465339 0.051479 0.007672 2.000000
0.465339 0.014603 -0.052855 2.000000
0.465339 0.024753 0.012715 2.000000
0.465339 -0.037016 -0.074981 2.000000
0.465339 0.036030 -0.047486 2.000000
0.465339 -0.067059 0.059642 2.000000
0.465339 -0.012167 0.032550 2.000000
0.465339 -0.009369 0.075606 2.000000
0.465339 0.005090 -0.030619 2.000000
0.465339 -0.053844 -0.071896 2.000000
0.465339 -0.044428 0.062563 2.000000
0.465339 -0.045176 0.047720 2.000000
0.465339 -0.002010 0.097033 2.000000
0.465339 -0.061590 0.001657 2.000000
0.465339 0.077256 -0.054414 2.000000
0.465339 -0.076578 -0.015335 2.000000
0.465339 -0.077997 -0.023278 2.000000
0.465339 -0.060738 -0.065166 2.000000
0.465339 -0.068350 0.054332 2.000000
0.465339 -0.076095 -0.035283 2.000000
0.465339 0.032627 -0.047821 2.000000
0.465339 -0.002660 -0.067853 2.000000
0.465339 -0.067907 0.015938 2.000000
0.465339 -0.079557 0.041838 2.000000
0.465339 0.000320 0.041866 2.000000
0.465339 0.051011 -0.049901 2.000000
0.465339 -0.058720 -0.056752 2.000000
0.465339 0.011292 -0.080378 2.000000
0.465339 -0.087298 0.042436 2.000000
0.465339 -0.058535 -0.024357 2.000000
0.465339 -0.032486 0.056906 2.000000
0.465339 0.098419 0.015660 2.000000
0.465339 -0.020012 0.061498 2.000000
0.465339 -0.067757 -0.070768 2.000000
0.465339 0.048550 -0.087057 2.000000
0.465339 0.026945 -0.089540 2.000000
0.465339 -0.048566 0.011775 2.000000
0.465339 0.090392 0.003496 2.000000
0.465339 -0.039345 0.058119 2.000000
0.465339 -0.033567 0.081917 2.000000
0.465339 0.000881 -0.021252 2.000000
0.465339 0.075726 -0.028207 2.000000
0.465339 -0.017139 0.016936 2.000000
0.465339 0.062235 0.003362 2.000000
0.465339 0.085277 -0.020371 2.000000
0.465339 0.064215 0.073044 2.000000
0.465339 0.051979 0.082224 2.000000
0.465339 0.071885 -0.037490 2.000000
0.465339 0.049052 0.085379 2.000000
0.465339 -0.034757 -0.077358 2.000000
0.465339 0.004554 -0.017394 2.000000
0.465339 -0.008911 0.082643 2.000000
0.465339 -0.014385 0.096039 2.000000
0.465339 0.071892 0.032912 2.000000
0.465339 -0.068092 0.038481 2.000000
0.465339 -0.049471 -0.075531 2.000000
0.465339 0.042308 -0.059547 2.000000
0.465339 0.046884 0.064593 2.000000
0.465339 0.060795 0.074088 2.000000
0.465339 -0.038806 0.076951 2.000000
0.465339 0.097520 -0.010691 2.000000
0.465339 0.058003 0.051576 2.000000
0.465339 -0.067840 -0.007187 2.000000
0.465339 0.075025 0.050807 2.000000
0.465339 0.039981 -0.033091 2.000000
0.465339 0.054316 0.074059 2.000000
0.465339 0.013697 -0.034009 2.000000
0.465339 0.053031 0.015745 2.000000
0.465339 -0.037025 -0.055086 2.000000
0.465339 0.046256 -0.068967 2.000000
0.465339 0.005394 -0.096707 2.000000
0.465339 -0.041882 0.023194 2.000000
0.465339 -0.020537 -0.073082 2.000000
0.465339 0.014816 0.075355 2.000000
0.465339 -0.062479 -0.038300 2.000000
0.465339 0.001982 -0.099647 2.000000
0.465339 -0.031025 -0.012693 2.000000
0.465339 -0.014041 -0.074076 2.000000
0.465339 0.044964 -0.006814 2.000000
0.465339 -0.084107 0.050410 2.000000
0.465339 0.051487 0.019334 2.000000
0.465339 0.019957 0.057741 2.000000
0.465339 0.024812 0.015310 2.000000
0.465339 0.014179 0.050764 2.000000
0.465339 0.010405 0.037534 2.000000
0.465339 0.059325 0.039697 2.000000
0.465339 -0.095724 -0.007977 2.000000
0.465339 0.096601 0.001508 2.000000
0.465339 0.020934 -0.000720 2.000000
0.465339 -0.088882 0.032040 2.000000
0.465339 -0.002829 0.036794 2.000000
0.465339 0.014133 -0.014852 2.000000
0.465339 -0.049697 -0.069736 2.000000
0.465339 0.072942 0.060788 2.000000
0.465339 -0.051403 -0.063787 2.000000
0.465339 0.024351 -0.003975 2.000000
0.465339 0.084108 0.041955 2.000000
0.465339 -0.043821 0.015115 2.000000
0.465339 -0.054296 0.001257 2.000000
0.465339 -0.019603 0.041441 2.000000
0.465339 0.036407 -0.070309 2.000000
0.465339 0.049064 -0.079263 2.000000
0.465339 0.082390 -0.032709 2.000000
0.465339 0.038326 -0.002710 2.000000
0.465339 -0.025199 -0.018530 2.000000
0.465339 0.035651 0.072747 2.000000
0.465339 -0.023476 -0.053495 2.000000
0.465339 0.048800 0.061795 2.000000
0.465339 -0.015216 0.080615 2.000000
0.465339 0.006715 -0.092809 2.000000
0.465339 -0.069495 -0.048939 2.000000
0.465339 -0.072228 -0.062691 2.000000
0.465339 -0.028816 0.016613 2.000000
0.465339 0.004385 -0.046088 2.000000
0.465339 -0.032340 -0.090590 2.000000
0.465339 0.007913 -0.022218 2.000000
0.465339 0.078290 -0.003739 2.000000
0.465339 -0.089895 0.000873 2.000000
0.465339 0.047824 0.033143 2.000000
0.465339 0.031676 0.052559 2.000000
0.465339 0.080231 0.012668 2.000000
0.465339 0.011238 0.075742 2.000000
0.465339 -0.056196 -0.063244 2.000000
0.465339 -0.015147 0.032336 2.000000
0.465339 -0.036266 0.082019 2.000000
0.465339 -0.059597 -0.023200 2.000000
0.465339 -0.002379 0.023205 2.000000
0.465339 -0.017002 -0.070014 2.000000
0.465339 -0.019098 0.039693 2.000000
0.465339 -0.019250 -0.053236 2.000000
0.465339 0.014098 -0.096746 2.000000
0.465339 0.026978 0.024866 2.000000
0.465339 -0.003516 0.026383 2.000000
0.465339 -0.083218 -0.045472 2.000000
0.465339 -0.064977 -0.056642 2.000000
0.465339 0.093939 0.022079 2.000000
0.465339 -0.084813 0.003504 2.000000
0.465339 -0.058703 -0.045478 2.000000
0.465339 0.015628 0.096772 2.000000
0.465339 0.040190 -0.005930 2.000000
0.465339 -0.007099 0.072472 2.000000
0.465339 0.072222 0.051385 2.000000
0.465339 -0.055755 0.034406 2.000000
0.465339 -0.033344 -0.092553 2.000000
0.465339 0.074680 -0.065123 2.000000
0.465339 -0.006973 0.059060 2.000000
0.465339 0.005357 -0.005580 2.000000
0.465339 0.006197 0.093344 2.000000
0.465339 0.054507 -0.025397 2.000000
0.465339 -0.071338 -0.047560 2.000000
0.465339 -0.046079 0.056531 2.000000
0.465339 0.039228 -0.086886 2.000000
0.465339 0.022238 0.007694 2.000000
0.465339 -0.015401 -0.033823 2.000000
0.465339 0.087793 0.007517 2.000000
0.465339 0.054168 -0.070521 2.000000
0.465339 0.027221 0.045373 2.000000
0.465339 0.002100 -0.029329 2.000000
0.465339 -0.024584 -0.084146 2.000000
0.465339 0.019249 0.028688 2.000000
0.465339 0.039230 -0.029992 2.000000
0.465339 -0.036117 0.073637 2.000000
0.465339 0.060162 -0.022717 2.000000
0.465339 0.000843 -0.010262 2.000000
0.465339 0.004673 -0.073557 2.000000
0.465339 0.004122 -0.076406 2.000000
0.465339 -0.065502 -0.029903 2.000000
0.465339 -0.073870 0.059805 2.000000
0.465339 -0.035512 0.050528 2.000000
0.465339 -0.062648 -0.003798 2.000000
0.465339 0.073789 0.035392 2.000000
0.465339 0.068146 -0.049866 2.000000
0.465339 0.054797 0.041011 2.000000
0.465339 -0.057158 0.023933 2.000000
0.465339 0.071564 -0.067192 2.000000
0.465339 -0.033037 0.026981 2.000000
0.465339 0.026193 0.086990 2.000000
0.465339 -0.026388 0.041028 2.000000
0.465339 0.073879 -0.047860 2.000000
0.465339 -0.057176 0.038948 2.000000
0.465339 0.030817 -0.015134 2.000000
0.465339 -0.047768 0.010180 2.000000
0.465339 -0.015633 -0.069852 2.000000
0.465339 0.049191 0.032067 2.000000
0.465339 0.020453 0.065155 2.000000
0.465339 -0.061174 -0.033284 2.000000
0.465339 -0.027270 0.044098 2.000000
0.465339 -0.087930 0.034159 2.000000
0.465339 -0.030114 0.038201 2.000000
0.465339 -0.040953 0.053061 2.000000
0.465339 -0.069073 0.062892 2.000000
0.465339 -0.023205 0.031523 2.000000
0.465339 -0.012538 -0.066344 2.000000
0.465339 -0.033897 0.013271 2.000000
0.465339 0.077262 -0.058191 2.000000
0.465339 -0.039179 -0.080066 2.000000
0.465339 0.096173 0.016839 2.000000
0.465339 -0.028256 -0.024398 2.000000
0.465339 -0.048959 -0.037652 2.000000
0.465339 0.094177 0.003749 2.000000
0.465339 0.054493 -0.004230 2.000000
0.465339 0.043682 -0.022622 2.000000
0.465339 -0.000644 -0.028991 2.000000
0.465339 0.018062 -0.086644 2.000000
0.465339 -0.049491 0.062894 2.000000
0.465339 0.005913 0.069965 2.000000
0.465339 0.047588 0.085648 2.000000
0.465339 -0.042705 -0.056480 2.000000
0.465339 0.024265 -0.007680 2.000000
0.465339 0.076769 0.016505 2.000000
0.465339 0.013608 -0.024484 2.000000
0.465339 0.024427 -0.019364 2.000000
0.465339 0.026777 0.007676 2.000000
0.465339 -0.050167 -0.080511 2.000000
0.465339 0.032444 -0.086814 2.000000
0.465339 0.038912 0.085467 2.000000
0.465339 0.056371 0.067814 2.000000
0.465339 -0.050233 -0.050596 2.000000
0.465339 0.038719 0.051268 2.000000
0.465339 -0.052694 0.004361 2.000000
0.465339 0.049892 0.049951 2.000000
0.465339 -0.091119 -0.029154 2.000000
0.465339 -0.049300 0.007639 2.000000
0.465339 0.007723 0.081351 2.000000
0.465339 -0.003873 -0.011828 2.000000
0.465339 -0.031401 0.063737 2.000000
0.465339 0.049713 0.043079 2.000000
0.465339 -0.035119 -0.056415 2.000000
0.465339 0.059369 0.056674 2.000000
0.465339 -0.035502 0.011504 2.000000
0.465339 0.073642 -0.036424 2.000000
0.465339 0.011058 0.012514 2.000000
0.465339 -0.054096 -0.018731 2.000000
0.465339 0.021002 -0.074592 2.000000
0.465339 -0.063389 0.014183 2.000000
0.465339 -0.000596 0.006190 2.000000
0.465339 0.026298 -0.012020 2.000000
0.465339 0.001151 -0.017009 2.000000
0.465339 0.033809 -0.016408 2.000000
0.465339 -0.031879 0.084392 2.000000
0.465339 0.012816 0.063326 2.000000
0.465339 0.026735 0.057428 2.000000
0.465339 -0.078596 0.047198 2.000000
0.465339 -0.067316 0.046088 2.000000
0.465339 0.008983 -0.075805 2.000000
0.465339 0.059165 -0.000543 2.000000
0.465339 0.004351 0.036449 2.000000
0.465339 -0.038384 -0.033561 2.000000
0.465339 0.052483 -0.070103 2.000000
0.465339 0.055508 -0.038010 2.000000
0.465339 0.069128 0.005396 2.000000
0.465339 -0.009672 -0.098790 2.000000
0.465339 0.030713 -0.052716 2.000000
0.465339 -0.039067 -0.001987 2.000000
0.465339 0.038868 0.063349 2.000000
0.465339 -0.021961 0.036472 2.000000
0.465339 -0.007782 0.054415 2.000000
0.465339 -0.019370 0.049114 2.000000
0.465339 -0.090369 0.012985 2.000000
0.465339 0.070724 -0.026915 2.000000
0.465339 0.068054 0.028462 2.000000
0.465339 -0.025481 -0.053772 2.000000
0.465339 0.023225 -0.040910 2.000000
0.465339 0.012066 0.011253 2.000000
0.465339 0.011053 -0.052927 2.000000
0.465339 -0.048113 0.064397 2.000000
0.465339 -0.010571 -0.041781 2.000000
0.465339 0.085626 0.025673 2.000000
0.465339 -0.054740 0.067906 2.000000
0.465339 -0.010480 0.091520 2.000000
0.465339 0.046209 0.086695 2.000000
0.465339 -0.076299 -0.007568 2.000000
0.465339 0.011287 -0.076528 2.000000
0.465339 0.035527 0.087086 2.000000
0.465339 0.007252 0.036244 2.000000
0.465339 0.065003 -0.069243 2.000000
0.465339 -0.001113 0.059302 2.000000
0.465339 -0.048862 -0.085945 2.000000
0.465339 -0.031023 0.069353 2.000000
0.465339 0.076750 -0.029481 2.000000
0.465339 -0.044922 0.064394 2.000000
0.465339 0.007804 -0.069822 2.000000
0.465339 0.065137 0.061193 2.000000
0.465339 0.025992 0.011308 2.000000
0.465339 0.077798 0.024468 2.000000
0.465339 0.016477 -0.050232 2.000000
0.465339 -0.029170 0.030038 2.000000
0.465339 0.003105 0.073985 2.000000
0.465339 -0.008912 -0.075944 2.000000
0.465339 0.034338 -0.025811 2.000000
0.465339 0.003704 -0.058405 2.000000
0.465339 0.012418 0.077138 2.000000
0.465339 0.065925 0.059290 2.000000
0.465339 0.082845 0.050981 2.000000
0.465339 0.085061 0.004610 2.000000
0.465339 0.015641 0.072482 2.000000
0.465339 -0.042106 0.006090 2.000000
0.465339 -0.032987 0.041559 2.000000
0.465339 0.071754 -0.008380 2.000000
0.465339 0.003524 0.056107 2.000000
0.465339 0.079565 0.034027 2.000000
0.465339 -0.042835 0.076198 2.000000
0.465339 0.052195 -0.064999 2.000000
0.465339 0.001360 0.006981 2.000000
0.465339 -0.099041 -0.011129 2.000000
0.465339 0.022078 -0.061439 2.000000
0.465339 0.044074 -0.049175 2.000000
0.465339 0.054140 -0.036613 2.000000
0.465339 -0.099536 -0.005540 2.000000
0.465339 0.057253 -0.055212 2.000000
0.465339 -0.055058 -0.081878 2.000000
0.465339 0.004188 0.064162 2.000000
0.465339 -0.026430 -0.086795 2.000000
0.465339 0.004651 0.098230 2.000000
0.465339 -0.014171 -0.032506 2.000000
0.465339 -0.031552 0.025162 2.000000
0.465339 0.005111 0.087052 2.000000
0.465339 -0.084180 0.010608 2.000000
0.465339 0.020489 0.035490 2.000000
0.465339 -0.039454 0.042053 2.000000
0.465339 0.033896 0.086301 2.000000
0.465339 -0.025252 0.095672 2.000000
0.465339 0.079556 0.015138 2.000000
0.465339 0.002716 -0.032992 2.000000
0.465339 -0.005821 0.040504 2.000000
0.465339 0.057230 -0.047042 2.000000
0.465339 0.055410 -0.011265 2.000000
0.465339 0.031299 0.026364 2.000000
0.465339 -0.078523 -0.016735 2.000000
0.465339 0.021103 -0.086876 2.000000
0.465339 -0.032647 -0.018674 2.000000
0.465339 0.070831 0.012795 2.000000
0.465339 -0.012055 -0.045840 2.000000
0.465339 -0.025640 -0.078317 2.000000
0.465339 0.024092 -0.065786 2.000000
0.465339 0.021310 0.025316 2.000000
0.465339 0.005988 -0.013095 2.000000
0.465339 0.049105 -0.074806 2.000000
0.465339 0.011536 0.005611 2.000000
0.465339 -0.050990 0.009773 2.000000
0.465339 -0.068573 -0.030327 2.000000
0.465339 0.004038 0.022607 2.000000
0.465339 0.008104 0.000593 2.000000
0.465339 -0.030894 0.048608 2.000000
0.465339 -0.002872 -0.052660 2.000000
0.465339 -0.002740 -0.003712 2.000000
0.465339 -0.048833 -0.067149 2.000000
0.465339 -0.012544 -0.020558 2.000000
0.465339 0.073308 0.026055 2.000000
0.465339 0.066553 0.024739 2.000000
0.465339 -0.031092 0.014984 2.000000
0.465339 -0.049735 0.081578 2.000000
0.465339 0.005461 0.027693 2.000000
0.465339 0.048445 -0.035920 2.000000
0.465339 -0.046306 -0.036698 2.000000
0.465339 0.047857 -0.010587 2.000000
0.465339 -0.021274 0.067174 2.000000
0.465339 -0.030759 0.046964 2.000000
0.465339 0.008140 0.076352 2.000000
0.465339 0.050455 -0.014001 2.000000
0.465339 -0.048006 -0.015174 2.000000
0.465339 0.099722 -0.004541 2.000000
0.465339 -0.017968 0.040731 2.000000
0.465339 -0.031816 0.042541 2.000000
0.465339 0.091236 0.028065 2.000000
0.465339 -0.006504 0.012415 2.000000
0.465339 0.028459 0.007002 2.000000
0.465339 -0.079974 -0.026935 2.000000
0.465339 -0.062713 0.050660 2.000000
0.465339 -0.014377 0.053614 2.000000
0.465339 -0.017823 -0.055125 2.000000
0.465339 -0.003014 0.064365 2.000000
0.465339 -0.028751 -0.042911 2.000000
0.465339 -0.035715 -0.038288 2.000000
0.465339 0.015633 0.082385 2.000000
0.465339 0.043855 0.053039 2.000000
0.465339 0.095419 0.011748 2.000000
0.465339 -0.031624 -0.083024 2.000000
0.465339 0.059427 -0.063122 2.000000
0.465339 -0.059456 -0.047115 2.000000
0.465339 -0.038904 0.036670 2.000000
0.465339 0.018284 0.080714 2.000000
0.465339 0.048740 0.000102 2.000000
0.465339 -0.033865 0.004091 2.000000
0.465339 0.053116 -0.035630 2.000000
0.465339 0.079597 0.059288 2.000000
0.465339 -0.027767 0.045698 2.000000
0.465339 -0.027266 -0.043290 2.000000
0.465339 0.024078 0.014092 2.000000
0.465339 0.053114 -0.063657 2.000000
0.465339 -0.051496 0.085249 2.000000
0.465339 -0.072186 -0.003384 2.000000
0.465339 0.058274 -0.067501 2.000000
0.465339 -0.017880 -0.083220 2.000000
0.465339 0.090837 -0.009216 2.000000
0.465339 0.013607 0.045819 2.000000
0.465339 -0.091371 -0.014716 2.000000
0.465339 -0.015656 -0.066414 2.000000
0.465339 -0.074027 -0.012913 2.000000
0.465339 0.046105 -0.073920 2.000000
0.465339 0.064343 0.006935 2.000000
0.465339 0.065867 0.013154 2.000000
0.465339 -0.016289 -0.094135 2.000000
0.465339 0.033419 -0.009100 2.000000
0.465339 0.007883 0.042676 2.000000
0.465339 0.036749 -0.068148 2.000000
0.465339 0.018269 0.055178 2.000000
0.465339 -0.062855 -0.047996 2.000000
0.465339 0.062503 -0.005649 2.000000
0.465339 -0.085063 -0.008146 2.000000
