-0.158415 0.078829 -0.061239 1.000000
0.034756 -0.085415 -0.051325 1.000000
0.049933 0.098866 -0.014559 1.000000
0.031408 0.081283 -0.058009 1.000000
0.426623 0.037375 -0.092482 1.000000
-0.280966 -0.044728 0.089384 1.000000
-0.421758 0.026711 0.096423 1.000000
-0.435111 -0.022490 0.097431 3.000000
0.424885 0.054959 -0.083261 1.000000
0.194261 0.024567 -0.096657 1.000000
-0.278209 0.057904 -0.081260 1.000000
0.166820 0.062113 -0.078084 1.000000
-0.361880 -0.009365 -0.099207 1.000000
-0.042256 0.098431 0.017669 1.000000
-0.309396 -0.081726 -0.057015 1.000000
0.337558 -0.064768 0.076077 1.000000
-0.093762 -0.095386 -0.028954 1.000000
0.164718 0.045873 -0.088557 1.000000
0.038956 0.092922 0.037113 1.000000
-0.163924 -0.021273 0.097703 1.000000
-0.444138 -0.085566 -0.051069 3.000000
0.180965 0.099211 0.012745 1.000000
-0.356033 0.095179 0.030833 1.000000
-0.401521 0.023100 0.097347 1.000000
-0.282979 0.020685 -0.097524 1.000000
0.391754 -0.096335 -0.025690 1.000000
-0.217146 0.099242 0.012448 1.000000
0.182146 -0.000599 -0.099685 1.000000
0.201533 0.099041 0.013815 1.000000
-0.403033 -0.020830 0.097802 1.000000
0.444548 0.099995 0.000497 2.000000
-0.241725 -0.031404 0.094946 1.000000
-0.048499 -0.057005 0.082074 1.000000
0.363009 -0.058659 0.080944 1.000000
0.179469 -0.048887 0.087193 1.000000
0.420884 -0.049371 0.086907 2.000000
-0.107224 0.052756 0.085042 1.000000
-0.135498 -0.099762 0.000483 1.000000
-0.017924 -0.044614 -0.089079 1.000000
0.293685 0.007347 -0.099419 1.000000
0.135855 0.078551 -0.061596 1.000000
0.324180 -0.083202 -0.054843 1.000000
-0.087156 0.089196 -0.044905 1.000000
-0.324128 0.038684 0.092278 1.000000
0.411361 -0.013158 0.099163 1.000000
0.110284 -0.093901 -0.033412 1.000000
-0.423994 -0.046256 -0.088243 1.000000
-0.134469 0.099860 -0.004447 1.000000
-0.201192 0.049219 -0.086772 1.000000
-0.187994 0.068154 0.073298 1.000000
-0.355504 0.024374 0.097062 1.000000
0.025076 -0.099699 0.002494 1.000000
0.414935 0.099001 -0.013707 1.000000
-0.170009 0.056037 -0.082528 1.000000
-0.239701 -0.098232 0.017453 1.000000
0.241309 0.040433 -0.091159 1.000000
-0.006548 -0.060734 -0.078972 1.000000
0.140880 -0.070885 0.070374 1.000000
0.097313 -0.022826 -0.096993 1.000000
0.051259 0.088886 -0.045513 1.000000
-0.234065 -0.096044 -0.026689 1.000000
-0.203007 -0.056612 -0.081979 1.000000
-0.095610 -0.095742 0.028091 1.000000
-0.282191 0.076542 -0.064103 1.000000
-0.230503 -0.099560 -0.006252 1.000000
-0.096797 0.099350 0.011296 1.000000
0.447691 0.091450 -0.040151 2.000000
-0.277634 -0.067720 -0.073112 1.000000
-0.080175 0.034313 0.093983 1.000000
0.358526 -0.069744 -0.071152 1.000000
0.312907 0.040393 0.091539 1.000000
-0.170642 0.085339 -0.051848 1.000000
0.267088 0.003692 0.099958 1.000000
-0.118550 -0.087213 -0.048285 1.000000
-0.310239 0.080944 -0.058508 1.000000
-0.091071 0.093898 -0.034069 1.000000
-0.364940 -0.042408 0.090565 1.000000
0.448659 -0.068380 0.072879 2.000000
-0.028382 0.056595 -0.082149 1.000000
0.276408 -0.096780 -0.024005 1.000000
0.027403 -0.083111 -0.054977 1.000000
-0.432269 0.098155 0.019263 1.000000
-0.011679 0.049065 -0.086863 1.000000
-0.125559 -0.065311 0.075598 1.000000
-0.293602 0.097543 0.022001 1.000000
0.420874 0.018406 0.098368 2.000000
0.224568 0.081117 0.058617 1.000000
0.144610 0.087386 -0.048385 1.000000
0.249115 -0.097749 0.020034 1.000000
-0.216142 0.077218 -0.063316 1.000000
0.092496 -0.096892 -0.023503 1.000000
0.324512 -0.060436 -0.079203 1.000000
0.035015 0.065863 -0.074955 1.000000
0.362153 0.021995 0.097594 1.000000
0.339733 0.098134 -0.018990 1.000000
0.072805 0.099832 -0.005325 1.000000
0.406143 0.077627 -0.062788 1.000000
0.187995 0.068872 0.072620 1.000000
0.393924 -0.024214 -0.096683 1.000000
-0.444110 0.078403 0.062150 3.000000
0.011862 0.028857 0.095799 1.000000
0.085299 0.081716 -0.057372 1.000000
0.193672 -0.082751 -0.055506 1.000000
0.308017 0.046223 -0.088378 1.000000
0.025750 0.050369 -0.086091 1.000000
0.382507 0.098346 -0.017843 1.000000
-0.225312 -0.084292 -0.053223 1.000000
0.307274 0.018876 -0.097928 1.000000
0.032034 0.033885 0.094137 1.000000
0.216313 -0.010677 -0.099083 1.000000
0.181161 0.086653 -0.049626 1.000000
-0.141724 -0.075553 0.065323 1.000000
-0.391934 -0.052077 0.085306 1.000000
-0.421613 0.099965 0.001477 1.000000
0.369845 0.070634 0.070859 1.000000
0.356928 -0.074754 -0.065866 1.000000
-0.321777 -0.094853 0.031133 1.000000
0.198557 -0.085881 -0.050536 1.000000
0.126741 -0.056262 0.082579 1.000000
-0.450350 0.099624 0.008400 3.000000
-0.448099 0.091148 -0.040850 3.000000
0.269216 0.084829 0.053072 1.000000
0.401942 0.078532 0.061984 1.000000
0.187517 -0.047942 0.087746 1.000000
-0.139053 -0.049137 0.087045 1.000000
-0.064014 0.099898 -0.003224 1.000000
-0.304081 -0.095872 0.027643 1.000000
0.241941 0.041976 0.090854 1.000000
0.107795 -0.074118 -0.066588 1.000000
-0.154880 -0.097787 -0.019498 1.000000
-0.028542 -0.068536 0.072723 1.000000
0.097592 0.067680 -0.073353 1.000000
0.149191 0.005272 -0.099545 1.000000
-0.175672 -0.015051 -0.098500 1.000000
-0.432683 -0.003085 0.099969 3.000000
0.229272 0.065656 -0.075137 1.000000
0.149318 -0.006359 -0.099491 1.000000
-0.427363 -0.080585 0.059036 3.000000
-0.171258 0.099456 0.010175 1.000000
0.405967 0.058764 0.081038 1.000000
0.265652 0.034439 0.093937 1.000000
-0.011709 0.064316 0.076681 1.000000
0.433308 -0.096928 -0.023341 2.000000
0.325628 -0.014226 0.098993 1.000000
-0.352460 -0.026617 0.096382 1.000000
0.430375 0.095203 0.030752 2.000000
0.215271 0.084671 0.053340 1.000000
0.020812 -0.066507 -0.074181 1.000000
0.084834 -0.045506 -0.088625 1.000000
-0.341488 0.049675 0.086865 1.000000
0.201338 0.091848 -0.039230 1.000000
-0.308809 0.019252 0.098207 1.000000
-0.328798 0.048454 -0.087224 1.000000
0.048490 -0.098668 -0.014332 1.000000
-0.343047 -0.068345 -0.072551 1.000000
-0.318091 -0.099726 -0.001277 1.000000
0.115219 0.044705 -0.089152 1.000000
0.057605 -0.099741 -0.000800 1.000000
0.157062 -0.099465 0.007616 1.000000
0.162007 -0.099747 0.000976 1.000000
-0.125283 -0.040485 -0.091035 1.000000
0.214487 -0.085564 0.051435 1.000000
-0.415687 -0.048026 -0.087339 1.000000
-0.264091 0.049137 0.087183 1.000000
-0.135589 -0.099254 0.009852 1.000000
-0.183878 0.063712 0.077206 1.000000
-0.434897 -0.094476 -0.031817 3.000000
0.337094 0.044961 0.089385 1.000000
0.100817 0.052598 -0.084774 1.000000
0.225322 -0.011702 -0.098986 1.000000
-0.006528 0.086461 -0.049951 1.000000
0.338323 0.074278 -0.066670 1.000000
0.268374 -0.095696 0.028250 1.000000
-0.350401 0.054195 0.084143 1.000000
0.385316 -0.043482 -0.089656 1.000000
0.444703 -0.059368 0.080395 2.000000
-0.016743 0.061508 0.078915 1.000000
-0.415004 -0.077997 -0.062010 1.000000
0.455309 0.080457 -0.059140 2.000000
0.084238 0.078195 0.062418 1.000000
-0.183893 0.077252 -0.063271 1.000000
0.383236 0.014239 0.099029 1.000000
-0.076798 -0.024798 -0.096548 1.000000
0.197777 -0.044562 0.089469 1.000000
-0.066181 0.009401 0.099588 1.000000
0.038739 0.075879 0.065218 1.000000
0.064890 0.059222 0.080689 1.000000
-0.364568 0.011374 -0.099039 1.000000
0.152197 0.096861 0.025043 1.000000
0.337881 0.032391 -0.094312 1.000000
0.100347 0.084876 0.052993 1.000000
0.426288 0.053108 0.084834 2.000000
0.222775 -0.083837 0.054272 1.000000
-0.319030 0.021798 0.097638 1.000000
0.345444 0.068313 0.073158 1.000000
0.427378 0.082075 0.057206 2.000000
0.343967 0.094772 -0.031641 1.000000
-0.102398 0.098629 -0.016057 1.000000
-0.424282 -0.083925 0.054141 3.000000
0.327929 0.058257 0.081382 1.000000
0.249580 0.082222 0.056991 1.000000
0.331409 0.099875 0.004324 1.000000
0.352282 0.099146 0.013156 1.000000
0.363669 -0.094987 0.030690 1.000000
0.287442 -0.099589 -0.005635 1.000000
-0.346445 0.096541 -0.025784 1.000000
-0.411778 -0.097162 0.022657 1.000000
-0.377569 0.070513 0.070980 1.000000
-0.151728 -0.072141 -0.068755 1.000000
-0.126187 0.098532 0.017028 1.000000
-0.148039 -0.060471 0.079539 1.000000
-0.234427 -0.098921 -0.012738 1.000000
-0.437012 -0.098409 -0.015969 3.000000
0.005211 0.087398 -0.048367 1.000000
-0.167416 0.012997 0.099225 1.000000
-0.451836 -0.022878 0.097345 3.000000
0.127855 0.092314 -0.038155 1.000000
-0.271427 0.072200 0.069293 1.000000
-0.202838 0.000610 0.100054 1.000000
0.022085 -0.091917 0.038895 1.000000
-0.431462 -0.099744 0.001080 3.000000
0.309995 -0.049730 0.086694 1.000000
-0.096565 0.076938 -0.063654 1.000000
-0.289378 -0.082801 -0.055432 1.000000
-0.230790 -0.086529 -0.049441 1.000000
-0.466690 -0.098660 0.014748 3.000000
0.143079 -0.017167 0.098528 1.000000
-0.347313 -0.037053 -0.092520 1.000000
0.452495 -0.098577 0.015270 2.000000
-0.019991 -0.034556 -0.093448 1.000000
0.113028 0.032315 -0.094339 1.000000
0.314052 0.084514 0.053606 1.000000
-0.099954 0.022421 -0.097136 1.000000
0.313697 -0.089440 0.044332 1.000000
0.435188 0.080961 0.058846 2.000000
0.196902 -0.013903 0.099045 1.000000
0.240113 -0.020352 0.097909 1.000000
0.356988 -0.006667 0.099825 1.000000
-0.164161 -0.070389 -0.070507 1.000000
-0.372257 0.011377 -0.099039 1.000000
0.036889 -0.095169 0.030065 1.000000
0.104233 -0.022172 -0.097140 1.000000
-0.307314 -0.074050 0.067028 1.000000
-0.289280 0.070424 0.071068 1.000000
0.129178 -0.096589 0.025177 1.000000
0.136621 0.031360 -0.094683 1.000000
0.174550 -0.094049 -0.033003 1.000000
0.391328 0.022610 0.097457 1.000000
-0.265309 0.024542 0.097025 1.000000
-0.296021 -0.072630 0.068629 1.000000
0.437137 -0.083309 -0.054686 1.000000
0.017083 0.099947 -0.001661 1.000000
-0.008397 0.091276 0.040915 1.000000
0.142705 0.023934 -0.096798 1.000000
0.045721 0.075561 0.065578 1.000000
-0.464879 0.064101 -0.076508 3.000000
-0.179021 -0.038914 0.092078 1.000000
-0.141565 -0.096747 -0.024153 1.000000
-0.342063 0.099572 0.008949 1.000000
-0.256842 0.039884 -0.091396 1.000000
0.191816 -0.033298 0.094264 1.000000
0.096723 0.025073 -0.096536 1.000000
-0.002771 0.089795 -0.043730 1.000000
-0.453175 -0.062167 0.078223 3.000000
0.437198 -0.059013 0.080669 2.000000
-0.169842 -0.070485 0.070773 1.000000
-0.078858 0.007583 -0.099397 1.000000
-0.419420 0.099661 0.008013 1.000000
-0.227513 -0.001156 0.100030 1.000000
-0.260931 -0.036379 0.093155 1.000000
-0.224107 0.092252 -0.038297 1.000000
0.333790 -0.035721 0.093392 1.000000
-0.001714 -0.059388 0.080379 1.000000
0.103725 0.007101 -0.099443 1.000000
-0.410854 0.097506 0.022166 1.000000
0.311758 0.095937 -0.027861 1.000000
0.192526 -0.068658 0.072601 1.000000
0.325888 -0.066596 0.074465 1.000000
-0.451027 0.013600 -0.098767 3.000000
-0.365318 -0.086456 -0.049564 1.000000
-0.259804 -0.075289 -0.065259 1.000000
0.303866 0.078787 0.061656 1.000000
0.134515 0.064463 -0.076189 1.000000
-0.014604 0.049860 0.086756 1.000000
0.275023 -0.026352 0.096459 1.000000
-0.097683 -0.069703 0.071556 1.000000
0.118931 -0.031799 0.094804 1.000000
0.131407 0.007799 0.099740 1.000000
0.304713 0.089369 -0.044566 1.000000
0.016424 -0.007061 -0.099424 1.000000
-0.433731 0.099739 0.007183 1.000000
-0.129637 0.064722 0.076323 1.000000
-0.391083 -0.071658 0.069600 1.000000
-0.341666 -0.067821 0.073385 1.000000
-0.349353 -0.042434 -0.090190 1.000000
-0.172487 -0.049581 0.086782 1.000000
0.450133 -0.054503 0.083775 2.000000
-0.424628 -0.052509 -0.084688 1.000000
0.268551 -0.097020 -0.022933 1.000000
-0.118952 0.057768 0.081714 1.000000
-0.000743 0.047430 0.088126 1.000000
-0.108400 -0.082259 -0.056229 1.000000
-0.335433 -0.044710 0.089393 1.000000
0.110067 0.026356 0.096526 1.000000
-0.446223 0.043685 0.090034 3.000000
0.418247 -0.056693 -0.081924 1.000000
-0.194754 0.049224 -0.086769 1.000000
-0.130830 0.027609 0.096162 1.000000
0.363373 0.099964 0.001484 1.000000
-0.093168 -0.072487 0.068772 1.000000
0.027057 -0.020002 0.097987 1.000000
-0.176640 -0.099728 0.001574 1.000000
0.425238 -0.099628 -0.004401 1.000000
-0.360929 -0.068399 0.072860 1.000000
-0.403587 0.033555 0.094256 1.000000
0.394639 0.052570 -0.084790 1.000000
-0.023803 -0.072835 0.068405 1.000000
0.243025 -0.029753 -0.095108 1.000000
0.407304 -0.079317 0.060671 1.000000
0.227364 0.055346 -0.082998 1.000000
0.428903 -0.099687 0.002890 2.000000
0.093180 0.057611 -0.081458 1.000000
-0.101305 0.028231 -0.095618 1.000000
-0.314320 -0.087552 -0.047674 1.000000
-0.280522 0.030408 -0.094986 1.000000
-0.258139 -0.030752 -0.094818 1.000000
0.317318 0.094797 0.031935 1.000000
-0.121699 0.091418 -0.040224 1.000000
-0.044389 -0.016499 0.098634 1.000000
-0.069541 -0.052231 0.085215 1.000000
0.042213 -0.098879 0.013363 1.000000
-0.031287 -0.099379 -0.008157 1.000000
0.098790 -0.099597 0.005748 1.000000
-0.187755 -0.064572 -0.075888 1.000000
-0.029545 -0.033728 -0.093747 1.000000
0.100379 0.099934 0.002433 1.000000
-0.432864 0.099037 -0.013476 3.000000
-0.135311 0.038196 -0.092127 1.000000
0.318249 0.035193 0.093666 1.000000
0.161388 0.079974 0.060125 1.000000
-0.326380 -0.052452 0.085084 1.000000
-0.296374 0.021287 -0.097390 1.000000
0.465323 -0.036587 -0.092717 2.000000
0.179263 -0.042162 0.090672 1.000000
-0.201245 -0.005161 -0.099541 1.000000
-0.236641 -0.090849 -0.040999 1.000000
0.436991 -0.079054 0.061010 2.000000
-0.088778 -0.055141 -0.082978 1.000000
-0.172021 0.003368 -0.099605 1.000000
0.150068 -0.071683 0.069576 1.000000
0.331788 -0.088597 -0.045623 1.000000
0.119836 0.063949 -0.076642 1.000000
0.109717 0.097541 0.022010 1.000000
-0.099000 -0.099607 0.005438 1.000000
0.059240 -0.099360 -0.008366 1.000000
-0.270386 0.084575 0.053502 1.000000
0.203463 -0.079664 -0.059860 1.000000
0.401256 0.063768 -0.076799 1.000000
-0.104176 -0.064532 -0.075923 1.000000
0.406679 -0.082482 -0.055901 1.000000
-0.271167 -0.003571 -0.099591 1.000000
-0.083141 -0.013990 -0.098668 1.000000
-0.231398 -0.088517 0.046143 1.000000
0.050167 -0.024561 -0.096606 1.000000
-0.282362 0.089237 0.045188 1.000000
-0.067818 -0.015810 0.098743 1.000000
0.278735 0.003402 -0.099604 1.000000
-0.234544 0.099874 -0.003983 1.000000
-0.247166 0.068946 0.072546 1.000000
-0.465453 0.024985 -0.096561 3.000000
0.156656 0.073001 -0.068120 1.000000
-0.033972 0.067816 0.073596 1.000000
0.035511 0.038978 0.092151 1.000000
-0.135422 0.084002 0.054371 1.000000
-0.357103 0.075697 0.065424 1.000000
-0.019821 0.097658 0.021487 1.000000
0.011186 -0.073733 -0.067024 1.000000
0.265922 0.003372 -0.099605 1.000000
-0.415492 0.022921 0.097387 1.000000
0.334216 -0.041265 -0.090698 1.000000
0.248071 -0.098999 -0.012180 1.000000
0.226956 -0.090785 0.041510 1.000000
0.403321 0.092462 0.038175 1.000000
-0.321618 0.027946 -0.095701 1.000000
-0.094730 0.028883 -0.095429 1.000000
0.404873 -0.098280 0.017147 1.000000
0.336627 0.099626 0.008376 1.000000
-0.267460 -0.035776 0.093372 1.000000
-0.320290 -0.073411 0.067752 1.000000
0.399665 0.083317 -0.055016 1.000000
0.378467 -0.046518 -0.088109 1.000000
-0.457757 -0.076342 -0.064065 3.000000
-0.155581 0.099595 -0.008345 1.000000
0.292084 -0.059630 -0.079829 1.000000
0.137382 -0.097038 -0.022850 1.000000
0.330420 0.097079 -0.023712 1.000000
-0.334015 -0.095774 0.027981 1.000000
-0.269460 0.088138 -0.046982 1.000000
0.229616 -0.090857 -0.040981 1.000000
-0.249610 -0.099724 0.001704 1.000000
0.127121 -0.084176 0.053771 1.000000
0.061341 0.091037 0.041468 1.000000
0.350354 0.097391 0.022680 1.000000
0.411325 -0.090901 0.041242 1.000000
-0.007475 0.096083 -0.027357 1.000000
-0.147837 -0.094521 0.032055 1.000000
-0.213214 -0.099503 -0.006855 1.000000
0.074572 -0.027184 -0.095855 1.000000
-0.363244 -0.063644 -0.076705 1.000000
-0.003457 0.098465 0.017455 1.000000
0.298036 0.092888 -0.036828 1.000000
0.148491 -0.099674 -0.002920 1.000000
0.186691 0.052632 -0.084753 1.000000
0.130957 0.005704 -0.099532 1.000000
-0.388715 -0.004364 0.099929 1.000000
0.450364 0.095073 0.031169 2.000000
0.306578 0.009881 0.099543 1.000000
-0.128202 -0.097304 -0.021660 1.000000
-0.123400 0.071165 -0.069964 1.000000
-0.373013 -0.025677 0.096655 1.000000
-0.150162 -0.052549 0.085027 1.000000
-0.245509 -0.082114 -0.056443 1.000000
-0.052488 0.050347 0.086467 1.000000
0.441748 0.043473 -0.089780 1.000000
-0.065683 0.043971 0.089889 1.000000
0.101534 -0.070019 -0.070877 1.000000
0.451227 0.059095 -0.080424 2.000000
-0.336477 -0.083751 0.054397 1.000000
-0.403717 0.096108 0.027636 1.000000
-0.370303 0.095809 0.028665 1.000000
0.071630 0.066946 0.074363 1.000000
-0.016417 0.099871 -0.004084 1.000000
-0.038061 0.072530 0.068962 1.000000
0.320971 -0.090019 0.043194 1.000000
-0.406877 0.001470 0.100027 1.000000
-0.115246 0.079012 0.061365 1.000000
0.446801 -0.006094 0.099875 2.000000
-0.063121 0.025575 -0.096390 1.000000
-0.298517 -0.065275 0.075631 1.000000
-0.041567 0.077235 -0.063294 1.000000
-0.260509 0.097332 0.022945 1.000000
0.123344 -0.065440 0.075485 1.000000
-0.069145 0.028942 -0.095412 1.000000
0.095452 -0.098287 0.017100 1.000000
-0.248145 0.038713 -0.091903 1.000000
-0.039176 -0.096066 0.026975 1.000000
-0.404409 -0.015175 -0.098480 1.000000
-0.299097 -0.033760 -0.093735 1.000000
-0.283537 0.071844 0.069648 1.000000
-0.428870 0.019753 -0.097733 1.000000
0.232937 0.076788 -0.063824 1.000000
-0.082034 0.099692 0.007683 1.000000
-0.267510 0.075940 -0.064786 1.000000
-0.117103 -0.067650 -0.073173 1.000000
-0.242226 0.036405 0.093229 1.000000
0.332195 0.081519 0.058026 1.000000
0.076228 -0.005145 0.099905 1.000000
-0.140654 0.038452 0.092379 1.000000
-0.233123 0.083398 -0.054898 1.000000
0.163906 -0.035569 0.093446 1.000000
0.083027 -0.082472 0.056279 1.000000
-0.441834 -0.076073 -0.064370 3.000000
-0.258428 0.092737 0.037539 1.000000
-0.204871 0.000693 -0.099689 1.000000
-0.258854 -0.008519 -0.099287 1.000000
0.326593 0.099770 -0.006490 1.000000
-0.235099 0.068536 0.072956 1.000000
-0.220778 -0.099169 -0.010387 1.000000
-0.097027 0.099921 0.002876 1.000000
0.265072 0.027631 -0.095793 1.000000
0.189983 0.059804 0.080238 1.000000
0.293737 -0.083642 0.054557 1.000000
0.318206 -0.045701 -0.088525 1.000000
-0.017583 -0.097447 -0.021022 1.000000
0.421910 -0.002284 -0.099632 1.000000
0.288705 -0.081997 0.056978 1.000000
0.199828 0.097176 -0.023276 1.000000
-0.157639 0.086473 -0.049930 1.000000
0.180395 0.018115 0.098414 1.000000
0.188432 0.098684 -0.015707 1.000000
-0.063987 0.096748 -0.025070 1.000000
0.180245 0.099632 -0.007950 1.000000
0.001880 0.097989 0.020003 1.000000
-0.265783 -0.099260 -0.009419 1.000000
-0.455094 -0.072811 0.068432 3.000000
0.457878 0.100004 0.000138 2.000000
-0.222302 -0.099573 0.006469 1.000000
-0.144301 -0.053693 -0.083962 1.000000
-0.003368 -0.069528 0.071730 1.000000
-0.361095 0.074485 -0.066436 1.000000
0.223126 -0.099712 -0.001726 1.000000
0.438720 -0.091941 0.038840 2.000000
-0.362396 -0.057944 0.081436 1.000000
0.034427 0.072153 -0.068977 1.000000
-0.257328 -0.065488 -0.075079 1.000000
0.309008 0.078664 -0.061451 1.000000
-0.155777 0.072165 0.069327 1.000000
0.243604 -0.089474 0.044264 1.000000
-0.114000 0.065406 0.075721 1.000000
0.131037 0.051348 0.085876 1.000000
-0.029108 -0.031929 0.094757 1.000000
0.204313 0.090543 0.042609 1.000000
0.363948 0.031178 -0.094749 1.000000
0.024013 -0.057365 -0.081467 1.000000
0.323694 -0.087616 -0.047548 1.000000
-0.040072 -0.080735 0.058835 1.000000
0.168190 0.025899 0.096659 1.000000
0.088998 0.078150 -0.062114 1.000000
0.335456 -0.089755 0.043714 1.000000
0.464455 0.064066 -0.076539 2.000000
0.240061 0.000091 -0.099706 1.000000
-0.319403 -0.098995 0.012587 1.000000
0.049088 -0.086840 0.049278 1.000000
-0.375900 -0.098097 -0.017936 1.000000
-0.000047 -0.096867 -0.023615 1.000000
0.214904 0.004475 -0.099570 1.000000
0.107349 0.022041 -0.097221 1.000000
-0.411342 -0.032204 0.094658 1.000000
0.042367 0.099746 -0.006745 1.000000
-0.086220 0.094674 0.032279 1.000000
-0.457732 -0.086877 -0.048852 3.000000
-0.195260 0.099755 -0.006651 1.000000
0.080475 0.052311 0.085306 1.000000
0.246668 0.097518 0.022111 1.000000
-0.449914 -0.013913 -0.098680 3.000000
-0.266648 -0.096705 -0.024342 1.000000
0.040006 -0.092056 0.038573 1.000000
0.018570 -0.094522 0.032050 1.000000
0.154870 0.095993 -0.027669 1.000000
-0.082000 -0.008600 0.099642 1.000000
-0.023456 0.084877 0.052991 1.000000
0.239938 -0.076957 0.063714 1.000000
0.313758 0.008513 0.099672 1.000000
0.205798 -0.070676 -0.070220 1.000000
-0.039060 0.046339 -0.088319 1.000000
0.297720 0.016911 0.098605 1.000000
-0.338036 0.087274 -0.048575 1.000000
0.254881 -0.044317 0.089593 1.000000
-0.257630 -0.099053 -0.011614 1.000000
-0.375628 -0.032656 0.094495 1.000000
-0.169666 -0.077160 0.063451 1.000000
0.429009 0.098103 0.019493 1.000000
0.022089 0.091998 -0.038885 1.000000
0.352978 0.040362 -0.091189 1.000000
0.394588 -0.094650 -0.031334 1.000000
0.308250 -0.020113 0.097963 1.000000
-0.328404 0.003499 0.099964 1.000000
0.371301 0.029770 -0.095171 1.000000
-0.213735 0.067596 -0.073427 1.000000
-0.319305 -0.062368 -0.077704 1.000000
0.139070 -0.088605 -0.045607 1.000000
-0.143950 -0.061822 -0.078128 1.000000
-0.099315 -0.093749 0.034197 1.000000
0.213877 0.099767 0.006892 1.000000
0.206362 -0.043974 0.089768 1.000000
0.241808 -0.002235 0.099996 1.000000
0.093712 0.040559 0.091467 1.000000
0.212068 0.001933 0.100013 1.000000
-0.177174 -0.005467 -0.099532 1.000000
0.392462 0.036857 -0.092704 1.000000
-0.147939 -0.096989 -0.023070 1.000000
0.403078 -0.099649 0.004088 1.000000
-0.423913 -0.010728 -0.099078 1.000000
-0.370042 -0.092465 0.037628 1.000000
-0.230086 0.062553 0.078105 1.000000
0.064228 -0.035067 -0.093264 1.000000
0.352776 0.088138 -0.046983 1.000000
0.364014 0.053022 0.084885 1.000000
0.122297 0.097490 -0.021872 1.000000
0.249466 0.072478 0.069014 1.000000
0.306172 -0.083517 0.054742 1.000000
-0.208347 0.006762 -0.099475 1.000000
0.287318 0.017920 -0.098083 1.000000
0.358251 0.047506 -0.087725 1.000000
-0.230209 0.042372 -0.090320 1.000000
-0.383363 0.094802 -0.031560 1.000000
-0.304959 -0.093744 0.034213 1.000000
-0.292552 -0.018059 -0.098024 1.000000
0.257413 -0.036799 0.092993 1.000000
-0.214510 -0.040423 -0.091062 1.000000
-0.420990 0.088296 -0.046672 1.000000
0.224668 0.054095 0.084211 1.000000
0.018022 -0.031587 0.094880 1.000000
-0.102587 -0.016258 -0.098309 1.000000
-0.095681 -0.027605 -0.095732 1.000000
0.350867 -0.046523 -0.088107 1.000000
0.158705 -0.088585 -0.045647 1.000000
0.404016 -0.090561 0.042028 1.000000
-0.306451 0.064977 0.076098 1.000000
0.457330 0.091424 0.040574 2.000000
0.049033 -0.091086 -0.040453 1.000000
-0.395971 -0.019145 0.098179 1.000000
-0.042018 -0.031610 0.094871 1.000000
0.077786 0.093510 0.035511 1.000000
-0.444396 -0.069849 -0.071047 3.000000
-0.365171 0.099911 -0.002810 1.000000
0.433908 -0.053741 0.084292 2.000000
-0.050504 0.084966 -0.052478 1.000000
0.202415 0.077456 0.063371 1.000000
0.442372 -0.085096 0.052227 2.000000
0.224133 0.050920 -0.085766 1.000000
-0.022845 0.083438 -0.054839 1.000000
-0.381045 0.080168 0.059874 1.000000
-0.015511 -0.046956 0.088249 1.000000
-0.333181 -0.053598 0.084390 1.000000
-0.450740 -0.037644 -0.092265 3.000000
0.136719 -0.040593 -0.090989 1.000000
0.109281 0.037219 0.092912 1.000000
0.198687 -0.023464 -0.096851 1.000000
0.195432 -0.082045 0.056908 1.000000
-0.017641 0.099642 0.008213 1.000000
-0.093933 -0.021277 0.097702 1.000000
0.114520 -0.067095 -0.073663 1.000000
0.274969 0.053509 0.084597 1.000000
-0.213452 0.013662 -0.098757 1.000000
-0.063368 -0.090995 0.041025 1.000000
0.430987 0.045226 -0.088886 1.000000
-0.057102 -0.083912 0.054161 1.000000
-0.100986 0.030644 0.095280 1.000000
0.059275 0.083857 0.054585 1.000000
0.307124 -0.093266 0.035540 1.000000
0.175770 -0.097281 0.022128 1.000000
-0.284176 0.087084 -0.048897 1.000000
-0.422106 -0.018364 -0.097975 1.000000
0.376316 0.015803 -0.098418 1.000000
0.256971 -0.079185 0.060841 1.000000
0.037855 -0.074302 0.066741 1.000000
0.053587 -0.045480 -0.088638 1.000000
0.162775 -0.028372 0.095872 1.000000
-0.265525 -0.047380 -0.087670 1.000000
0.267430 0.038062 -0.092185 1.000000
0.124959 -0.070615 -0.070281 1.000000
0.138414 0.024762 0.096976 1.000000
-0.435582 0.089812 -0.043697 3.000000
0.358503 -0.093702 0.034328 1.000000
-0.260036 0.001311 0.100032 1.000000
-0.371527 -0.070324 -0.070572 1.000000
0.171535 -0.060107 0.079821 1.000000
0.242999 -0.044797 -0.088986 1.000000
0.188878 0.086305 0.050577 1.000000
-0.192233 -0.094042 0.033386 1.000000
0.372541 0.061748 0.078729 1.000000
-0.333686 0.084912 0.052932 1.000000
0.297347 -0.075092 -0.065483 1.000000
-0.030748 -0.084963 -0.052089 1.000000
-0.034514 0.048699 0.087442 1.000000
0.284228 0.045060 0.089334 1.000000
-0.006832 0.011384 -0.099038 1.000000
0.251218 0.042097 0.090801 1.000000
0.408767 0.094492 0.032782 1.000000
0.341002 0.053276 -0.084372 1.000000
0.211687 0.088359 0.046912 1.000000
0.396212 -0.066846 0.074245 1.000000
0.289724 0.099305 0.011781 1.000000
-0.087904 -0.035392 -0.093147 1.000000
-0.321418 0.033909 -0.093765 1.000000
-0.440803 0.091280 -0.040544 3.000000
0.368447 0.065758 0.075410 1.000000
0.234878 -0.094655 -0.031319 1.000000
0.423882 0.037657 0.092723 2.000000
-0.337788 -0.050924 -0.085625 1.000000
-0.417326 0.098307 -0.018089 1.000000
-0.058391 0.070582 -0.070547 1.000000
0.283366 0.068668 -0.072461 1.000000
-0.413487 -0.093466 0.034986 1.000000
-0.019693 -0.061015 0.079117 1.000000
0.051450 -0.007523 -0.099381 1.000000
-0.151553 0.084181 -0.053745 1.000000
0.163160 0.095750 -0.028504 1.000000
0.213955 -0.088159 -0.046483 1.000000
-0.145531 0.092574 -0.037552 1.000000
0.086186 -0.061878 -0.078085 1.000000
-0.393533 0.098481 0.017354 1.000000
0.138787 0.099692 -0.007324 1.000000
-0.218341 -0.078427 -0.061455 1.000000
0.270151 0.020957 -0.097463 1.000000
-0.239603 -0.063548 0.077152 1.000000
0.236616 -0.086126 -0.050122 1.000000
-0.068312 -0.000602 -0.099685 1.000000
0.049032 0.035385 0.093597 1.000000
-0.390564 -0.079691 0.060188 1.000000
0.137057 -0.057417 -0.081432 1.000000
0.000328 -0.092000 -0.038339 1.000000
0.211799 0.016588 0.098656 1.000000
-0.155156 -0.056945 0.082115 1.000000
-0.033772 0.050277 -0.086146 1.000000
0.463205 0.034529 0.093905 2.000000
0.118072 0.015090 -0.098531 1.000000
-0.299981 0.065102 -0.075626 1.000000
-0.444547 0.018743 0.098315 3.000000
-0.268181 0.099942 -0.001833 1.000000
0.303179 -0.091623 0.039573 1.000000
-0.366482 -0.072544 -0.068352 1.000000
0.030792 0.099895 0.003683 1.000000
-0.236238 -0.035051 0.093633 1.000000
-0.184476 -0.050166 -0.086074 1.000000
-0.367845 -0.066278 -0.074383 1.000000
0.060313 -0.024859 -0.096530 1.000000
-0.368173 0.097832 0.020705 1.000000
-0.124137 0.062205 0.078375 1.000000
-0.214119 -0.096958 0.023573 1.000000
-0.033486 -0.079026 0.061046 1.000000
-0.080490 -0.099426 0.008024 1.000000
-0.143433 -0.099081 0.011680 1.000000
0.393915 0.016028 0.098745 1.000000
0.376314 0.099839 0.005485 1.000000
0.382953 -0.004026 -0.099577 1.000000
-0.010187 -0.089230 -0.044381 1.000000
0.462886 -0.098915 -0.012776 2.000000
0.013092 -0.075691 0.065166 1.000000
-0.129822 0.097244 0.023335 1.000000
0.185636 -0.093565 -0.034347 1.000000
-0.316159 0.016035 0.098744 1.000000
0.463978 -0.069063 -0.071833 2.000000
-0.124919 -0.050294 0.086361 1.000000
0.150167 0.082163 0.057077 1.000000
0.104043 0.069946 0.071546 1.000000
-0.090948 -0.099592 0.005902 1.000000
-0.247677 0.097870 0.020535 1.000000
0.003663 -0.081662 0.057472 1.000000
0.423066 -0.089032 -0.044769 1.000000
-0.079154 0.086275 -0.050264 1.000000
-0.262262 0.078201 0.062411 1.000000
-0.037577 -0.009439 0.099562 1.000000
-0.078668 -0.099147 -0.010616 1.000000
-0.336753 0.096398 -0.026274 1.000000
0.123012 -0.075975 -0.064481 1.000000
0.211740 0.094714 0.032166 1.000000
0.453520 -0.029736 0.095476 2.000000
0.338291 0.093718 -0.034571 1.000000
-0.338895 -0.064621 -0.075844 1.000000
-0.041903 0.023905 0.097167 1.000000
-0.401256 0.094361 0.033148 1.000000
-0.123034 0.023720 0.097208 1.000000
0.420259 0.080832 0.059019 2.000000
-0.020955 -0.095297 -0.029260 1.000000
0.096617 -0.061577 -0.078318 1.000000
-0.459775 -0.099161 -0.010470 3.000000
-0.150322 -0.080374 0.059308 1.000000
-0.326028 -0.086179 -0.050033 1.000000
0.311478 -0.067467 0.073697 1.000000
-0.195345 0.096946 0.024671 1.000000
0.455944 -0.097238 0.022319 2.000000
0.326989 0.069937 0.071555 1.000000
0.076376 0.056346 0.082681 1.000000
-0.212965 -0.081314 0.057983 1.000000
-0.087248 -0.078004 0.062364 1.000000
0.454589 0.074637 -0.066264 2.000000
0.120943 -0.059707 -0.079768 1.000000
-0.014626 -0.097274 0.022156 1.000000
-0.342808 0.027786 -0.095747 1.000000
0.149571 0.040967 -0.090928 1.000000
0.044158 -0.099454 0.007730 1.000000
0.422307 -0.021532 -0.097283 1.000000
-0.241899 -0.068085 -0.072790 1.000000
-0.416681 -0.099608 -0.005044 1.000000
0.021827 0.083888 0.054540 1.000000
-0.413689 -0.088632 -0.045554 1.000000
-0.379191 0.099511 0.009592 1.000000
0.416675 0.096195 -0.026973 1.000000
0.363805 -0.091444 -0.039625 1.000000
0.189479 0.051249 0.085934 1.000000
-0.096733 0.075247 0.065935 1.000000
0.297344 -0.026810 0.096326 1.000000
-0.234427 -0.030653 -0.094847 1.000000
-0.372763 0.068148 0.073303 1.000000
-0.188198 -0.076137 0.064660 1.000000
0.240652 -0.026698 0.096359 1.000000
-0.274878 0.092826 -0.036971 1.000000
0.146136 -0.022680 0.097389 1.000000
-0.003845 -0.074679 0.066314 1.000000
0.170150 0.068856 -0.072274 1.000000
-0.180536 -0.078148 -0.061814 1.000000
-0.096909 -0.050512 -0.085869 1.000000
0.373938 -0.097456 0.021342 1.000000
-0.360496 -0.039881 -0.091296 1.000000
0.423728 0.031186 -0.094746 1.000000
0.278580 -0.099572 -0.006116 1.000000
0.227846 -0.099663 0.003651 1.000000
-0.213705 -0.025818 0.096614 1.000000
0.431245 0.032970 0.094466 2.000000
0.049676 -0.062924 -0.077273 1.000000
0.213444 0.077606 0.063178 1.000000
0.355248 -0.049566 0.086791 1.000000
0.234303 0.096789 -0.024930 1.000000
0.378917 -0.006643 0.099827 1.000000
0.201989 -0.072215 0.069044 1.000000
0.259471 0.021427 -0.097358 1.000000
-0.194059 -0.097333 -0.021533 1.000000
0.402497 -0.096873 0.023951 1.000000
0.181205 -0.099097 0.011509 1.000000
-0.050972 0.003789 0.099955 1.000000
-0.302668 0.032407 0.094669 1.000000
-0.306312 -0.099636 -0.004134 1.000000
0.280087 0.072690 0.068802 1.000000
0.085538 -0.013487 0.099111 1.000000
-0.271352 -0.030052 -0.095021 1.000000
-0.152966 0.036389 0.093235 1.000000
0.230291 0.079691 0.060489 1.000000
0.325391 -0.090820 -0.041066 1.000000
0.147146 0.018954 -0.097911 1.000000
-0.429018 0.010336 0.099500 1.000000
0.194166 0.099227 0.012599 1.000000
-0.387023 0.083697 -0.054457 1.000000
-0.364207 -0.078988 0.061094 1.000000
-0.381094 -0.054507 -0.083409 1.000000
-0.338664 0.033805 0.094165 1.000000
-0.142448 -0.098990 -0.012282 1.000000
0.066710 0.097210 -0.023124 1.000000
0.430027 0.072096 -0.069033 1.000000
-0.202162 0.029871 0.095504 1.000000
-0.331800 -0.049276 -0.086600 1.000000
0.461610 -0.048576 -0.087014 2.000000
0.052224 -0.056970 0.082098 1.000000
0.286381 -0.046284 -0.088229 1.000000
0.070505 -0.067099 0.074022 1.000000
-0.030563 -0.025136 -0.096449 1.000000
-0.046585 0.079473 0.060771 1.000000
-0.465229 0.032016 0.094809 3.000000
0.110432 -0.067041 0.074073 1.000000
0.050395 -0.031359 -0.094599 1.000000
0.008610 0.007277 0.099789 1.000000
0.139869 0.085431 -0.051692 1.000000
-0.403917 -0.091996 -0.038350 1.000000
0.362488 -0.080793 -0.058388 1.000000
0.266157 0.050283 -0.086142 1.000000
0.010180 -0.027476 -0.095770 1.000000
-0.229181 0.017627 0.098492 1.000000
-0.193379 -0.073902 0.067195 1.000000
0.234787 -0.096919 0.023748 1.000000
0.095392 0.070591 0.070901 1.000000
0.287574 0.094588 0.032515 1.000000
-0.306239 0.079722 0.060450 1.000000
0.157930 -0.065301 -0.075245 1.000000
0.071564 -0.099302 0.009339 1.000000
-0.324569 -0.025317 0.096760 1.000000
-0.075009 0.070619 -0.070510 1.000000
0.189631 0.037281 -0.092523 1.000000
-0.011917 -0.098106 -0.017885 1.000000
-0.148705 -0.048516 -0.087049 1.000000
-0.128435 -0.079804 -0.059680 1.000000
0.107496 0.000702 -0.099689 1.000000
0.456006 0.088390 0.046850 2.000000
0.392191 -0.058155 -0.080930 1.000000
0.438272 -0.098205 0.017622 2.000000
0.375579 -0.007554 -0.099378 1.000000
0.239254 -0.095725 0.028151 1.000000
0.461946 -0.091981 -0.038383 2.000000
-0.093916 -0.076973 0.063693 1.000000
-0.051789 -0.042680 0.090428 1.000000
-0.244882 -0.098611 -0.014694 1.000000
-0.207938 0.046401 -0.088288 1.000000
0.435599 -0.093570 -0.034333 2.000000
0.327010 -0.040576 -0.090996 1.000000
0.416215 -0.091747 -0.038925 1.000000
-0.129279 0.042490 -0.090269 1.000000
0.107786 0.037642 -0.092366 1.000000
-0.242805 -0.054681 -0.083291 1.000000
0.348916 0.079249 -0.060697 1.000000
-0.247508 -0.074133 -0.066570 1.000000
0.104231 0.087299 0.048897 1.000000
-0.253003 -0.048961 0.087149 1.000000
-0.107624 -0.000074 -0.099701 1.000000
-0.253537 0.098468 0.017432 1.000000
-0.042384 -0.086596 -0.049328 1.000000
0.446413 0.092336 0.038465 2.000000
-0.182150 -0.044875 0.089309 1.000000
-0.159819 0.099030 -0.013524 1.000000
0.248185 0.094390 -0.032702 1.000000
0.237848 0.091980 -0.038926 1.000000
-0.357781 0.051839 -0.085222 1.000000
-0.296044 -0.023913 -0.096750 1.000000
-0.319946 0.089133 -0.045030 1.000000
-0.134993 -0.096016 0.027148 1.000000
0.250979 0.034799 -0.093445 1.000000
0.400638 -0.087623 -0.047534 1.000000
0.269363 -0.058179 0.081276 1.000000
0.449871 0.042620 -0.090212 2.000000
0.143619 0.064317 -0.076318 1.000000
0.462335 -0.094291 -0.032330 2.000000
-0.304670 -0.099715 0.001996 1.000000
-0.032908 -0.071030 -0.069866 1.000000
-0.162433 -0.045352 0.089066 1.000000
-0.302742 0.084987 0.052805 1.000000
0.195806 0.064276 0.076717 1.000000
0.073901 -0.097034 0.023229 1.000000
0.223248 -0.080814 -0.058356 1.000000
0.209277 -0.099543 -0.006423 1.000000
0.343197 -0.077152 -0.063099 1.000000
-0.313141 0.018549 -0.097983 1.000000
0.369640 0.053820 -0.084035 1.000000
-0.229525 0.047869 0.087902 1.000000
-0.176306 0.019024 0.098258 1.000000
-0.268208 0.033155 -0.094037 1.000000
0.359464 0.087978 -0.047295 1.000000
0.136539 -0.098693 -0.014174 1.000000
-0.246128 -0.076176 0.064616 1.000000
0.143864 0.072971 -0.068153 1.000000
0.313781 0.099798 -0.006197 1.000000
0.278010 0.058237 0.081396 1.000000
0.430731 0.056875 0.082322 2.000000
0.105480 -0.061492 -0.078384 1.000000
0.124248 0.094221 0.033537 1.000000
0.170489 -0.021889 -0.097203 1.000000
0.355550 -0.020819 0.097805 1.000000
-0.226894 0.058269 0.081374 1.000000
0.394601 0.099272 -0.011767 1.000000
0.145709 0.084186 -0.053737 1.000000
0.228764 -0.048848 -0.086853 1.000000
0.103684 0.016947 0.098599 1.000000
-0.223913 -0.080896 -0.058235 1.000000
0.065034 0.033150 0.094401 1.000000
-0.092686 0.051234 0.085943 1.000000
-0.420397 -0.067494 0.073674 1.000000
0.421176 0.044631 0.089553 2.000000
0.380227 0.097433 0.022493 1.000000
-0.145753 -0.069007 -0.071889 1.000000
0.116565 -0.092163 -0.037964 1.000000
0.371171 0.010705 -0.099102 1.000000
0.227428 0.096870 -0.024647 1.000000
-0.077731 0.073490 0.067927 1.000000
-0.161478 -0.053041 -0.084374 1.000000
0.015441 0.021943 -0.097243 1.000000
0.061933 0.099147 0.013148 1.000000
0.405877 -0.016420 0.098646 1.000000
-0.125628 -0.092257 0.038108 1.000000
0.465117 -0.037656 0.092622 2.000000
-0.465245 0.045713 0.089001 3.000000
-0.290770 -0.070292 0.070967 1.000000
0.247867 0.001331 0.100032 1.000000
-0.312245 -0.049182 0.087018 1.000000
0.314856 0.098314 0.018403 1.000000
-0.168436 0.033716 -0.093835 1.000000
-0.428723 -0.099260 0.009784 3.000000
-0.309797 0.086769 -0.049429 1.000000
-0.363717 -0.099768 0.000317 1.000000
-0.090647 0.030201 0.095409 1.000000
-0.332818 -0.070270 -0.070626 1.000000
0.251560 -0.092347 -0.037537 1.000000
0.379954 0.095043 0.031252 1.000000
0.277338 -0.086927 0.049130 1.000000
-0.141486 0.085592 0.051782 1.000000
0.347411 0.025284 -0.096474 1.000000
-0.123773 -0.056804 -0.081848 1.000000
0.329298 0.003645 -0.099596 1.000000
0.054051 0.097701 0.021294 1.000000
-0.056263 -0.092110 0.038449 1.000000
0.071818 -0.029291 0.095605 1.000000
0.196442 -0.053797 -0.083892 1.000000
0.203843 0.086964 0.049463 1.000000
-0.118083 -0.025287 0.096768 1.000000
-0.252343 -0.083153 -0.054915 1.000000
-0.270144 0.084676 -0.052968 1.000000
0.209797 0.017245 -0.098190 1.000000
-0.167518 0.091263 0.040944 1.000000
0.097014 0.099644 0.008186 1.000000
0.124238 0.085451 0.052020 1.000000
0.262783 -0.099052 0.011979 1.000000
0.032500 0.052165 -0.085029 1.000000
-0.148841 -0.059010 -0.080309 1.000000
-0.312369 -0.078487 -0.061378 1.000000
0.298975 -0.006653 -0.099463 1.000000
0.273754 -0.011143 -0.099039 1.000000
0.250912 -0.040886 -0.090862 1.000000
-0.375395 -0.090976 0.041069 1.000000
0.257501 0.099978 -0.000692 1.000000
-0.015677 0.094624 0.032416 1.000000
0.041716 -0.082308 -0.056158 1.000000
0.443589 -0.078099 -0.061878 2.000000
-0.356759 -0.061549 -0.078340 1.000000
-0.252937 0.016849 -0.098252 1.000000
0.374356 -0.083801 0.054324 1.000000
-0.183644 0.034345 -0.093608 1.000000
-0.220828 -0.094426 -0.031956 1.000000
0.304692 -0.046297 -0.088222 1.000000
-0.153995 0.053941 0.084315 1.000000
0.324210 -0.009872 -0.099159 1.000000
-0.344601 0.094470 -0.032481 1.000000
0.216816 -0.095816 -0.027473 1.000000
-0.014903 0.091907 -0.039095 1.000000
0.368898 -0.004033 0.099940 1.000000
-0.227309 0.049642 -0.086522 1.000000
-0.192872 -0.086354 0.050099 1.000000
0.379701 0.091067 -0.041036 1.000000
-0.182201 0.079580 0.060632 1.000000
0.086285 0.016895 -0.098245 1.000000
-0.268100 -0.080099 -0.059299 1.000000
-0.123609 -0.094051 -0.032996 1.000000
-0.195781 -0.059702 0.080136 1.000000
0.068190 -0.018422 -0.097966 1.000000
-0.102190 -0.099750 -0.000506 1.000000
-0.046368 0.039963 -0.091362 1.000000
-0.301956 -0.086869 -0.048865 1.000000
-0.187830 0.013175 -0.098834 1.000000
-0.348626 -0.068836 0.072423 1.000000
-0.341338 -0.099085 -0.011271 1.000000
0.369286 -0.089189 0.044824 1.000000
0.095607 0.023809 0.097189 1.000000
0.415781 0.062050 0.078495 1.000000
0.084563 0.065478 -0.075294 1.000000
0.175791 0.074072 -0.066904 1.000000
0.151636 0.070275 -0.070854 1.000000
0.371323 0.007792 0.099740 1.000000
-0.302205 -0.069751 0.071507 1.000000
-0.082751 0.067407 -0.073593 1.000000
-0.299536 -0.099435 0.007933 1.000000
-0.370560 0.075658 -0.065105 1.000000
0.434626 0.060655 0.079577 2.000000
0.160411 -0.004288 -0.099569 1.000000
0.220591 0.037314 -0.092508 1.000000
0.433340 0.092361 0.038408 2.000000
0.348951 0.069257 -0.071872 1.000000
0.352045 0.045953 -0.088516 1.000000
0.277025 0.099893 -0.003397 1.000000
-0.010136 -0.072683 -0.068213 1.000000
-0.087811 -0.069005 0.072254 1.000000
0.221824 -0.050657 0.086146 1.000000
-0.163719 0.019363 -0.097820 1.000000
0.037465 0.095425 0.029988 1.000000
-0.365949 -0.037861 -0.092171 1.000000
-0.455683 -0.057279 0.081888 3.000000
0.451361 0.099863 -0.004331 2.000000
-0.153299 -0.035877 -0.092973 1.000000
-0.223235 0.022064 -0.097216 1.000000
0.197236 0.060883 -0.079037 1.000000
0.163358 0.003354 -0.099605 1.000000
-0.158203 -0.016841 0.098579 1.000000
-0.075825 0.099906 0.003347 1.000000
0.208145 0.053325 0.084706 1.000000
-0.423542 0.096179 0.027391 1.000000
0.152051 -0.023760 -0.096785 1.000000
-0.296557 -0.094425 0.032322 1.000000
0.042964 -0.076837 0.063867 1.000000
-0.285414 0.024094 0.097125 1.000000
0.019628 0.006126 -0.099518 1.000000
0.046651 0.000502 0.100058 1.000000
0.018710 -0.061872 -0.078090 1.000000
0.462323 -0.005611 0.099890 2.000000
0.247518 0.068160 0.073292 1.000000
-0.434220 -0.086100 0.050529 3.000000
-0.275706 0.096826 0.025165 1.000000
0.318113 0.099329 0.011527 1.000000
-0.273846 -0.083403 0.054910 1.000000
-0.394955 -0.075784 0.065061 1.000000
0.086909 -0.019003 -0.097848 1.000000
-0.341832 0.099935 0.002425 1.000000
-0.172795 -0.078337 -0.061571 1.000000
0.218749 -0.093422 -0.034744 1.000000
-0.390093 -0.009578 -0.099187 1.000000
0.102843 -0.058685 0.080924 1.000000
0.386856 0.099892 0.003780 1.000000
-0.204609 0.091401 0.040626 1.000000
0.348920 0.035995 -0.093014 1.000000
-0.146051 0.024742 0.096980 1.000000
-0.216968 0.002339 0.100000 1.000000
0.032257 0.070099 0.071394 1.000000
0.413267 -0.081118 -0.057910 1.000000
0.361812 0.058002 -0.081193 1.000000
-0.169354 -0.064521 0.076295 1.000000
0.351603 0.065656 0.075500 1.000000
-0.049343 -0.055050 -0.083040 1.000000
0.149510 0.088425 0.046781 1.000000
0.216811 -0.095372 0.029366 1.000000
0.281716 -0.099642 0.004323 1.000000
-0.351179 0.081304 -0.057979 1.000000
-0.361394 0.098129 0.019375 1.000000
0.428938 0.073046 0.068431 2.000000
0.377098 0.098857 0.014979 1.000000
-0.039535 -0.096048 -0.026677 1.000000
-0.293584 0.068601 -0.072528 1.000000
-0.029293 0.063875 0.077070 1.000000
0.453600 -0.091410 0.040066 2.000000
-0.415621 0.010876 0.099449 1.000000
0.464553 0.042888 0.090441 2.000000
-0.431206 0.042002 0.090842 1.000000
-0.326889 -0.061129 0.079029 1.000000
0.464142 -0.096092 -0.026524 2.000000
0.127059 0.088401 0.046828 1.000000
-0.252232 -0.083747 0.054403 1.000000
-0.308876 0.098952 0.014377 1.000000
0.148690 0.090679 -0.041933 1.000000
-0.360568 0.037404 0.092832 1.000000
-0.169472 0.092390 -0.037979 1.000000
-0.021086 0.078832 -0.061235 1.000000
-0.191195 -0.098885 0.013327 1.000000
-0.335781 0.099848 0.005185 1.000000
0.442508 -0.086036 -0.050274 2.000000
0.157268 0.088560 0.046516 1.000000
-0.181896 -0.028371 0.095872 1.000000
0.163509 0.075211 -0.065612 1.000000
-0.014724 0.074332 0.066972 1.000000
0.453147 -0.089584 -0.043687 2.000000
0.063923 0.058172 -0.081077 1.000000
-0.110147 0.011067 0.099431 1.000000
-0.407932 -0.070746 -0.070150 1.000000
0.201741 -0.084451 0.053318 1.000000
-0.456818 0.096268 -0.026722 3.000000
0.019119 0.090060 0.043573 1.000000
-0.110688 0.057249 -0.081704 1.000000
-0.009982 -0.019167 -0.097811 1.000000
-0.398917 -0.013823 0.099057 1.000000
-0.189098 0.091313 -0.040467 1.000000
0.321047 0.022882 0.097396 1.000000
0.181739 -0.031709 0.094836 1.000000
-0.389826 0.048933 0.087304 1.000000
-0.261894 -0.059922 -0.079602 1.000000
0.042941 -0.020029 0.097981 1.000000
-0.117819 -0.066788 0.074297 1.000000
-0.223801 -0.095423 0.029189 1.000000
-0.058976 0.094374 -0.032749 1.000000
0.236542 0.012963 -0.098868 1.000000
0.419190 -0.044903 -0.088932 1.000000
-0.237661 -0.089634 0.043950 1.000000
0.098921 -0.070141 0.071118 1.000000
-0.212669 -0.027414 -0.095788 1.000000
-0.366396 0.044412 -0.089301 1.000000
-0.041879 -0.039042 0.092022 1.000000
-0.027956 0.039658 0.091857 1.000000
0.302941 0.081017 -0.058401 1.000000
-0.374782 0.080056 0.060019 1.000000
-0.069099 0.054268 0.084093 1.000000
0.339917 -0.099154 0.010906 1.000000
0.103853 0.023406 0.097279 1.000000
0.368363 0.016233 0.098713 1.000000
-0.269698 0.065654 0.075502 1.000000
-0.299643 0.096590 0.025977 1.000000
-0.180727 0.025953 0.096643 1.000000
-0.321505 0.076941 0.064013 1.000000
0.006416 0.079766 -0.060030 1.000000
-0.459034 0.055197 -0.083099 3.000000
-0.426691 -0.084008 -0.053656 1.000000
0.182739 -0.068913 0.072346 1.000000
0.273636 0.071671 -0.069459 1.000000
-0.362697 0.098820 -0.014849 1.000000
-0.039716 0.093463 -0.035277 1.000000
0.225820 0.071331 0.070162 1.000000
-0.014621 0.038865 -0.091837 1.000000
0.422044 -0.036298 0.093184 2.000000
-0.466470 -0.066052 0.074945 3.000000
0.224514 0.029457 0.095625 1.000000
-0.103710 0.081085 0.058664 1.000000
-0.247917 -0.093198 0.035729 1.000000
0.413154 -0.021176 -0.097362 1.000000
-0.415261 -0.049466 0.086850 1.000000
0.239328 -0.023916 -0.096750 1.000000
-0.048430 0.076988 -0.063597 1.000000
-0.298247 -0.049132 0.087048 1.000000
-0.172045 0.038380 0.092410 1.000000
-0.140603 0.084503 -0.053262 1.000000
-0.438754 0.015074 -0.098533 3.000000
0.241155 0.099906 0.003331 1.000000
0.263822 0.059715 -0.079944 1.000000
0.100342 -0.038568 -0.091865 1.000000
0.269149 -0.030335 0.095302 1.000000
0.209620 -0.054144 0.084019 1.000000
0.281320 0.077964 0.062716 1.000000
0.100942 0.079313 0.060977 1.000000
-0.332835 -0.065308 -0.075238 1.000000
-0.167605 -0.033020 0.094364 1.000000
0.403464 -0.069840 -0.071056 1.000000
0.450171 0.093655 -0.034746 2.000000
0.375420 -0.095104 -0.029926 1.000000
-0.378221 -0.019969 0.097995 1.000000
0.148686 -0.076683 0.064040 1.000000
-0.283662 0.090635 -0.042034 1.000000
-0.003370 -0.065589 -0.074991 1.000000
0.383497 -0.018061 0.098386 1.000000
-0.194588 -0.017557 0.098466 1.000000
0.069558 -0.092490 -0.037207 1.000000
-0.289685 -0.047194 -0.087765 1.000000
-0.333037 0.094764 -0.031664 1.000000
-0.434759 -0.077787 -0.062281 3.000000
-0.037930 -0.071544 0.069715 1.000000
0.142801 0.076714 -0.063908 1.000000
0.364784 0.002866 0.099984 1.000000
0.288027 0.051825 0.085593 1.000000
0.055307 0.096800 -0.024893 1.000000
-0.161219 0.004550 -0.099568 1.000000
-0.016473 -0.070519 -0.070377 1.000000
0.372182 -0.093188 -0.035395 1.000000
0.319257 -0.011243 0.099392 1.000000
-0.389127 -0.098165 -0.017513 1.000000
0.183340 -0.045501 -0.088627 1.000000
-0.431715 -0.011471 -0.099008 3.000000
-0.123335 0.095883 0.028408 1.000000
-0.073433 0.088856 -0.045574 1.000000
0.115187 0.086577 -0.049753 1.000000
-0.273728 -0.078857 -0.060901 1.000000
0.360441 0.063745 -0.076818 1.000000
0.220472 0.043882 0.089934 1.000000
-0.359815 0.090736 0.042164 1.000000
0.242005 0.005070 0.099914 1.000000
-0.372710 0.081924 -0.057066 1.000000
0.442596 -0.001545 -0.099655 1.000000
-0.215397 0.053048 -0.084508 1.000000
-0.361497 0.004856 0.099921 1.000000
0.389640 0.070647 0.070846 1.000000
0.116701 -0.082287 -0.056189 1.000000
-0.127415 0.092872 0.037228 1.000000
-0.031924 -0.004678 0.099919 1.000000
0.065238 0.023354 0.097290 1.000000
-0.268987 -0.023398 0.097228 1.000000
0.056069 -0.076077 -0.064365 1.000000
-0.227240 -0.075987 -0.064468 1.000000
0.335989 -0.098895 -0.012900 1.000000
0.368228 -0.099748 -0.000595 1.000000
0.036063 -0.069187 0.072072 1.000000
-0.298407 -0.093960 -0.033251 1.000000
-0.181173 0.071988 -0.069142 1.000000
0.206689 -0.074844 -0.065764 1.000000
-0.089017 0.077165 -0.063384 1.000000
-0.047345 -0.009719 0.099536 1.000000
-0.316197 -0.024760 0.096921 1.000000
-0.350603 0.062991 -0.077403 1.000000
-0.170049 0.041690 -0.090615 1.000000
-0.039190 -0.097717 0.020174 1.000000
0.118446 0.098670 -0.015793 1.000000
-0.053907 -0.099137 -0.010727 1.000000
0.239438 0.087109 0.049218 1.000000
0.177521 -0.047339 -0.087691 1.000000
-0.404316 0.057725 0.081744 1.000000
0.274455 0.024347 0.097068 1.000000
0.348408 0.060669 -0.079203 1.000000
-0.343871 -0.099599 -0.005331 1.000000
-0.278295 -0.097815 -0.019375 1.000000
0.199732 0.043087 -0.089976 1.000000
0.136149 0.024135 -0.096753 1.000000
-0.136434 0.099893 0.003745 1.000000
0.148736 0.062710 0.077983 1.000000
0.339174 0.099625 -0.008024 1.000000
-0.454599 0.088988 -0.045314 3.000000
-0.194225 -0.064388 -0.076050 1.000000
-0.366430 0.032224 -0.094372 1.000000
-0.397319 -0.019977 -0.097630 1.000000
-0.148417 0.092970 0.037002 1.000000
0.242823 -0.075795 -0.064685 1.000000
0.396371 0.032864 0.094504 1.000000
0.189861 0.080160 -0.059522 1.000000
0.443416 0.073370 -0.067701 2.000000
0.243576 -0.093678 0.034396 1.000000
0.349020 0.013279 -0.098818 1.000000
0.209691 -0.078043 -0.061950 1.000000
-0.180001 -0.099571 -0.006129 1.000000
0.244293 0.019013 0.098261 1.000000
-0.142140 -0.030571 -0.094870 1.000000
-0.247135 -0.069909 -0.070987 1.000000
0.177779 -0.095100 0.030302 1.000000
0.271401 0.008627 0.099661 1.000000
-0.111576 -0.021363 -0.097320 1.000000
-0.398091 -0.082099 -0.056465 1.000000
0.047013 0.043777 -0.089625 1.000000
-0.241848 -0.046114 0.088678 1.000000
0.066788 -0.096081 0.026924 1.000000
-0.423729 -0.024649 -0.096586 1.000000
0.441198 0.044888 0.089422 2.000000
0.131994 -0.015593 0.098777 1.000000
-0.180157 0.094636 0.032384 1.000000
-0.103934 0.092988 0.036960 1.000000
-0.069694 0.097775 -0.020598 1.000000
0.433495 0.021584 0.097686 2.000000
0.020912 0.049478 0.086981 1.000000
0.003504 0.006419 -0.099507 1.000000
-0.005894 0.055650 -0.082791 1.000000
0.044291 -0.070142 -0.070754 1.000000
-0.262968 -0.098906 0.013195 1.000000
0.290880 0.069286 -0.071843 1.000000
-0.305693 -0.081650 0.057489 1.000000
0.224057 0.081715 -0.057374 1.000000
-0.352976 0.005930 -0.099525 1.000000
0.080610 0.017154 0.098567 1.000000
0.177153 -0.068163 -0.072722 1.000000
0.444124 0.085086 -0.052275 2.000000
0.434495 0.087847 -0.047553 1.000000
0.266302 -0.003437 0.099958 1.000000
-0.348175 -0.098714 -0.014043 1.000000
0.088552 0.004338 -0.099575 1.000000
-0.326593 0.052044 0.085464 1.000000
-0.419685 -0.083596 -0.054263 1.000000
0.408737 0.098841 -0.014713 1.000000
0.221020 0.056947 -0.081910 1.000000
