-0.290347 0.056324 -0.082333 1.000000
-0.168669 0.089750 -0.043818 1.000000
-0.375880 -0.071262 0.069996 1.000000
-0.446552 -0.064181 0.076594 3.000000
-0.266546 0.078824 -0.061245 1.000000
-0.411787 0.010632 0.099472 1.000000
0.444291 -0.095969 0.027311 2.000000
-0.206526 -0.070132 -0.070764 1.000000
0.318237 -0.086724 -0.049112 1.000000
0.392361 0.094173 0.033669 1.000000
0.447615 -0.068892 -0.072004 2.000000
0.037836 0.084145 0.054161 1.000000
-0.462178 -0.020372 0.097905 3.000000
0.142411 -0.085690 0.051223 1.000000
0.102606 0.065842 -0.074973 1.000000
0.052598 -0.057202 0.081941 1.000000
0.259457 -0.094706 0.031541 1.000000
0.301781 -0.097871 -0.019126 1.000000
-0.039723 0.095783 -0.028390 1.000000
-0.050288 0.072012 0.069481 1.000000
0.116392 0.066435 0.074813 1.000000
-0.293213 0.097419 -0.022189 1.000000
0.004400 -0.085221 -0.051652 1.000000
0.274559 -0.089163 -0.044512 1.000000
-0.249492 -0.049775 0.086668 1.000000
-0.141945 -0.064043 0.076716 1.000000
-0.218241 0.004979 -0.099554 1.000000
-0.318192 0.062895 0.077840 1.000000
0.345213 -0.095671 -0.027975 1.000000
-0.426199 0.043229 0.090267 1.000000
-0.217959 -0.032731 0.094468 1.000000
0.274183 -0.099731 -0.001119 1.000000
0.125642 -0.097809 0.019762 1.000000
0.178707 0.099370 -0.010730 1.000000
0.321978 -0.030817 0.095157 1.000000
0.028204 -0.072001 0.069258 1.000000
-0.430173 0.013296 -0.098815 1.000000
-0.119406 0.067833 -0.073218 1.000000
-0.302525 -0.016855 0.098577 1.000000
-0.176412 0.089950 -0.043426 1.000000
-0.386267 -0.075981 0.064837 1.000000
-0.020995 0.089709 -0.043899 1.000000
0.263381 -0.098689 -0.014200 1.000000
0.398964 -0.099638 0.004451 1.000000
0.438770 0.013227 0.099189 2.000000
0.442171 0.017997 0.098433 2.000000
0.447526 -0.027402 0.096154 2.000000
-0.140876 0.099253 -0.011959 1.000000
-0.023025 0.015831 -0.098414 1.000000
-0.126290 0.098152 0.019274 1.000000
-0.375334 0.095240 -0.030261 1.000000
-0.261869 -0.008514 0.099650 1.000000
0.043884 0.099951 -0.001555 1.000000
0.216231 -0.096659 0.024908 1.000000
-0.018774 0.099457 -0.009804 1.000000
-0.351638 0.043408 0.090176 1.000000
-0.264430 0.082506 -0.056211 1.000000
-0.048732 -0.074680 -0.065950 1.000000
0.433623 -0.057082 0.082022 2.000000
-0.198968 -0.098271 -0.016844 1.000000
-0.456360 0.100001 0.000048 3.000000
-0.344558 0.043663 0.090046 1.000000
-0.245896 -0.049809 -0.086285 1.000000
-0.246872 0.067404 0.073959 1.000000
-0.375644 0.045071 0.089328 1.000000
-0.424006 0.063678 0.077232 1.000000
0.149519 -0.022756 -0.097009 1.000000
-0.083002 -0.072126 0.069133 1.000000
0.077399 -0.095651 -0.028043 1.000000
-0.369180 0.065099 0.075991 1.000000
-0.402734 0.089163 -0.044971 1.000000
0.305309 0.026927 -0.095997 1.000000
0.194303 -0.028540 -0.095461 1.000000
0.124625 0.093110 -0.036258 1.000000
0.254196 -0.007336 0.099761 1.000000
0.444630 0.009340 -0.099231 2.000000
-0.367976 0.084830 -0.052708 1.000000
0.367421 0.046397 -0.088290 1.000000
0.000590 0.083484 0.055133 1.000000
0.150184 -0.073849 0.067255 1.000000
-0.013424 -0.084243 0.053668 1.000000
-0.412157 0.099515 -0.009196 1.000000
-0.105760 -0.015149 -0.098485 1.000000
-0.250931 0.097486 0.022253 1.000000
0.205403 0.013965 -0.098709 1.000000
-0.392535 0.086914 -0.049185 1.000000
0.231968 -0.084506 -0.052862 1.000000
-0.213077 -0.005074 0.099907 1.000000
-0.250774 0.095214 -0.030349 1.000000
-0.063278 0.098120 -0.019056 1.000000
-0.242565 -0.097110 -0.022528 1.000000
0.071652 0.075789 0.065319 1.000000
-0.361448 -0.099347 0.008859 1.000000
-0.230058 0.060933 0.079361 1.000000
0.117485 -0.013727 -0.098710 1.000000
-0.116623 -0.077727 -0.062358 1.000000
-0.169500 -0.014016 -0.098664 1.000000
0.176328 0.013079 0.099212 1.000000
0.148964 -0.031416 0.094941 1.000000
-0.416156 -0.078831 0.061297 1.000000
0.145527 -0.050583 0.086190 1.000000
0.199959 -0.063863 0.076875 1.000000
-0.242237 0.054553 0.083900 1.000000
-0.063980 0.076006 -0.064711 1.000000
-0.343052 -0.084457 -0.052945 1.000000
0.451381 -0.060767 -0.078947 2.000000
-0.068442 -0.046495 0.088484 1.000000
0.376206 0.099845 0.005266 1.000000
0.157985 -0.067959 -0.072901 1.000000
0.345062 0.077574 0.063219 1.000000
-0.352538 -0.065709 0.075247 1.000000
0.035162 0.032296 -0.094346 1.000000
0.446831 0.027328 -0.095880 2.000000
-0.127581 -0.059306 -0.080079 1.000000
0.130258 -0.084770 0.052778 1.000000
0.327147 0.015106 0.098891 1.000000
0.119297 0.053022 -0.084523 1.000000
0.143056 -0.093784 0.034100 1.000000
-0.401499 -0.099722 -0.001401 1.000000
-0.134415 -0.036967 -0.092557 1.000000
-0.015363 0.081436 0.058147 1.000000
0.241472 0.099658 -0.007675 1.000000
0.358880 -0.082851 -0.055359 1.000000
-0.073865 -0.055060 0.083396 1.000000
-0.191334 -0.081797 -0.056910 1.000000
-0.379270 0.076469 0.064548 1.000000
-0.042864 0.099943 0.002151 1.000000
0.150777 0.071867 -0.069262 1.000000
-0.195570 -0.039327 -0.091536 1.000000
0.280654 -0.092763 0.036936 1.000000
-0.117662 0.042038 0.090827 1.000000
-0.276404 -0.097932 0.019213 1.000000
0.193696 -0.099627 0.004806 1.000000
-0.232373 -0.092114 -0.038076 1.000000
0.273828 -0.003668 0.099951 1.000000
0.196596 -0.097407 -0.021198 1.000000
-0.367511 0.068611 -0.072518 1.000000
0.401826 -0.020258 0.097930 1.000000
-0.405471 -0.098018 0.018803 1.000000
0.157303 0.057228 0.082082 1.000000
-0.321603 0.024152 0.097112 1.000000
0.344377 -0.090690 0.041730 1.000000
0.399121 -0.092658 -0.036820 1.000000
-0.397372 -0.017737 0.098437 1.000000
-0.386082 -0.025553 0.096691 1.000000
-0.186127 -0.038769 0.092140 1.000000
0.321178 -0.062775 0.077752 1.000000
-0.009979 -0.086364 -0.049720 1.000000
-0.207866 -0.060425 0.079575 1.000000
-0.176281 -0.015059 -0.098499 1.000000
0.279855 -0.081360 -0.057553 1.000000
-0.386987 0.096643 0.025793 1.000000
-0.118403 -0.036253 0.093200 1.000000
-0.179382 -0.087184 -0.048334 1.000000
0.103066 -0.021468 0.097660 1.000000
0.031806 -0.056987 -0.081724 1.000000
-0.250496 -0.064828 0.076024 1.000000
0.379738 0.072986 -0.068137 1.000000
-0.327405 0.020585 0.097909 1.000000
0.421134 0.062856 0.077870 2.000000
-0.433248 -0.095939 0.027414 3.000000
0.139219 0.023823 -0.096823 1.000000
-0.308011 -0.058428 0.081107 1.000000
-0.397575 -0.040621 -0.090976 1.000000
0.446294 -0.041759 -0.090484 1.000000
0.179033 0.070910 0.070582 1.000000
-0.454406 0.004653 0.099927 3.000000
0.078319 0.060052 0.080044 1.000000
-0.215614 -0.069783 0.071476 1.000000
-0.142106 0.089233 -0.044832 1.000000
0.029148 0.082017 -0.056930 1.000000
0.174317 0.094697 0.032214 1.000000
-0.385380 -0.085537 -0.051118 1.000000
-0.226956 0.098657 0.016242 1.000000
0.412867 0.010750 0.099461 1.000000
-0.213124 -0.019863 -0.097656 1.000000
0.394381 -0.078721 -0.061077 1.000000
-0.446379 0.076250 -0.064435 3.000000
0.295611 0.097961 -0.019768 1.000000
-0.285123 -0.091588 0.039655 1.000000
-0.460159 -0.070913 0.070346 3.000000
-0.466788 -0.078387 0.061870 3.000000
-0.312385 -0.022656 -0.097031 1.000000
0.245567 0.092565 -0.037573 1.000000
-0.383413 -0.004100 -0.099575 1.000000
0.187940 0.031478 0.095003 1.000000
-0.271079 0.068163 0.073290 1.000000
0.041186 0.058907 -0.080570 1.000000
-0.298699 0.070257 0.071235 1.000000
0.117787 -0.098398 0.016400 1.000000
-0.123368 -0.019302 -0.097781 1.000000
0.319432 0.089575 0.044525 1.000000
0.422337 -0.008494 0.099652 2.000000
-0.421574 0.047729 0.087974 1.000000
-0.378580 0.039006 0.092139 1.000000
0.397665 -0.006152 -0.099510 1.000000
-0.007612 -0.047707 -0.087504 1.000000
0.390841 -0.098756 0.014141 1.000000
0.238926 0.021625 0.097677 1.000000
0.389132 0.012458 -0.098936 1.000000
0.109034 -0.005329 -0.099536 1.000000
-0.368871 -0.069361 0.071897 1.000000
-0.379258 -0.043024 -0.089889 1.000000
0.341425 0.045258 0.089233 1.000000
0.343846 -0.001732 0.100012 1.000000
-0.097832 0.012180 0.099325 1.000000
-0.139201 0.016039 -0.098381 1.000000
0.230902 -0.018701 -0.097916 1.000000
-0.400589 -0.090345 -0.042165 1.000000
0.375419 0.093776 -0.034410 1.000000
0.211093 0.091787 0.039735 1.000000
0.191474 -0.065416 0.075506 1.000000
0.212607 0.003086 0.099977 1.000000
-0.130402 0.088153 0.047315 1.000000
0.463898 0.035377 -0.093237 2.000000
0.313753 -0.073613 0.067523 1.000000
-0.325551 0.099535 -0.008982 1.000000
-0.334898 -0.099668 -0.003123 1.000000
-0.187804 0.011554 -0.099022 1.000000
-0.407428 -0.096225 -0.026066 1.000000
0.298263 0.094752 -0.031697 1.000000
-0.062175 -0.061404 0.078815 1.000000
-0.269470 0.099311 -0.011350 1.000000
0.453396 0.099314 -0.011321 2.000000
-0.126820 0.099991 0.000631 1.000000
-0.155072 0.087563 -0.048088 1.000000
0.147064 0.075300 -0.065512 1.000000
-0.312440 -0.011234 0.099393 1.000000
-0.359898 0.012374 -0.098944 1.000000
-0.263792 -0.067452 0.073710 1.000000
0.461617 -0.071791 0.069468 2.000000
-0.093165 0.049180 -0.086795 1.000000
0.210296 0.099607 0.008578 1.000000
0.352855 -0.062515 -0.077591 1.000000
0.452971 -0.099543 0.006787 2.000000
-0.356540 0.099908 -0.002910 1.000000
-0.403511 0.095217 -0.030339 1.000000
0.216709 -0.073418 -0.067381 1.000000
-0.290117 0.099247 -0.012025 1.000000
0.417991 0.099900 0.003520 1.000000
-0.083741 0.090150 0.043396 1.000000
0.196178 0.010887 -0.099085 1.000000
-0.362702 -0.088598 0.045983 1.000000
0.182276 0.014379 0.099006 1.000000
0.233958 -0.088021 -0.046753 1.000000
-0.407891 -0.096675 0.024838 1.000000
-0.291749 0.003046 0.099978 1.000000
-0.123124 0.084901 0.052951 1.000000
-0.436728 0.081215 -0.058109 3.000000
-0.369590 -0.052744 0.084912 1.000000
-0.002156 0.001825 0.100016 1.000000
-0.088034 -0.058132 0.081308 1.000000
0.327052 -0.045049 -0.088858 1.000000
0.272241 -0.062306 -0.077752 1.000000
-0.149319 0.079316 0.060972 1.000000
0.213166 -0.093406 -0.034789 1.000000
0.020924 -0.096456 -0.025270 1.000000
0.219496 -0.086626 0.049640 1.000000
-0.253846 0.059274 0.080648 1.000000
0.281381 0.060027 -0.079701 1.000000
-0.455632 0.061036 -0.078919 3.000000
-0.140594 -0.008907 -0.099250 1.000000
-0.008616 0.055088 -0.083173 1.000000
0.406016 0.066475 0.074778 1.000000
-0.051998 0.066433 -0.074452 1.000000
0.176503 -0.092647 -0.036846 1.000000
0.251942 0.092170 0.038850 1.000000
0.417166 0.054320 0.084058 1.000000
-0.036210 -0.062253 -0.077794 1.000000
-0.073782 0.091324 -0.040441 1.000000
0.150613 0.069085 0.072408 1.000000
0.367066 -0.090156 -0.042563 1.000000
-0.435664 -0.053141 -0.084314 3.000000
0.265024 -0.082702 -0.055578 1.000000
-0.270881 -0.081784 -0.056930 1.000000
-0.412918 -0.013513 -0.098744 1.000000
0.440558 0.030049 -0.095090 1.000000
-0.257380 -0.012427 0.099279 1.000000
-0.095142 0.070480 0.071013 1.000000
0.012422 -0.024203 -0.096686 1.000000
-0.056287 -0.041380 0.091011 1.000000
0.177605 -0.012644 -0.098881 1.000000
-0.448673 -0.081031 -0.058036 3.000000
-0.092819 -0.053829 0.084233 1.000000
-0.198013 0.075733 -0.065020 1.000000
0.097306 -0.093547 0.034758 1.000000
-0.353826 -0.006748 -0.099454 1.000000
0.420389 -0.099311 -0.008879 1.000000
0.353462 -0.063516 0.077177 1.000000
-0.083447 0.009527 0.099576 1.000000
0.419418 -0.046758 -0.087987 1.000000
0.003530 -0.099570 0.006503 1.000000
-0.107122 0.086030 0.051041 1.000000
-0.109919 -0.094613 -0.031436 1.000000
-0.317279 -0.027610 -0.095731 1.000000
0.205185 0.078146 -0.062118 1.000000
0.317659 -0.034631 0.093784 1.000000
-0.018349 0.016393 0.098687 1.000000
-0.450322 0.026440 0.096501 3.000000
-0.106101 -0.034795 0.093725 1.000000
-0.374648 0.027513 -0.095827 1.000000
-0.375805 -0.002268 -0.099632 1.000000
0.341352 -0.094137 0.033121 1.000000
-0.157515 0.060154 -0.079603 1.000000
0.137369 -0.036899 0.092950 1.000000
-0.010006 0.078257 0.062338 1.000000
-0.323312 -0.052125 -0.084915 1.000000
0.383254 -0.099589 -0.005635 1.000000
0.395385 0.097870 0.020538 1.000000
-0.083588 -0.077384 -0.062800 1.000000
0.459952 -0.011218 0.099394 2.000000
-0.466667 -0.067323 -0.073462 3.000000
-0.117362 0.030041 0.095455 1.000000
-0.022151 -0.070961 -0.069935 1.000000
-0.239763 -0.095433 -0.028794 1.000000
-0.369420 0.008177 0.099704 1.000000
0.410287 0.000589 -0.099692 1.000000
-0.104690 -0.056298 -0.082192 1.000000
0.389715 -0.099580 -0.005924 1.000000
-0.168075 -0.099675 0.003271 1.000000
-0.302617 0.093484 0.035584 1.000000
0.062182 0.099856 -0.004562 1.000000
0.141664 -0.091045 0.040909 1.000000
0.323020 -0.099171 0.010724 1.000000
0.178620 -0.046586 -0.088075 1.000000
-0.116690 -0.084240 0.053675 1.000000
0.325051 0.095564 0.029507 1.000000
-0.375394 -0.085057 0.052292 1.000000
0.009042 0.028018 0.096043 1.000000
0.161441 0.066656 0.074618 1.000000
-0.334501 0.089968 -0.043391 1.000000
-0.003528 0.086289 0.050604 1.000000
0.205711 0.028566 0.095883 1.000000
0.342312 -0.099378 -0.008169 1.000000
0.150652 0.014639 0.098965 1.000000
0.269263 0.057173 0.082119 1.000000
-0.338271 0.048306 0.087675 1.000000
-0.421244 -0.048064 -0.087317 1.000000
0.062606 -0.009816 0.099527 1.000000
-0.096236 -0.052397 -0.084754 1.000000
0.174080 -0.063146 -0.077101 1.000000
0.085709 0.097219 0.023448 1.000000
0.095019 -0.096747 0.024514 1.000000
0.086054 0.044558 0.089590 1.000000
0.205422 -0.043509 -0.089642 1.000000
0.318922 0.033665 -0.093853 1.000000
0.294136 -0.060926 0.079186 1.000000
-0.232542 -0.096394 -0.025486 1.000000
-0.205886 0.087381 -0.048395 1.000000
0.210509 -0.081484 0.057734 1.000000
-0.116655 0.023290 -0.096942 1.000000
0.238546 0.088050 0.047517 1.000000
0.156984 0.000277 -0.099702 1.000000
0.424605 0.078887 -0.061164 1.000000
-0.363278 -0.098726 -0.013966 1.000000
0.042464 -0.059790 -0.079704 1.000000
0.233366 0.099512 -0.009224 1.000000
-0.111081 0.005014 -0.099553 1.000000
0.012083 -0.008501 -0.099288 1.000000
0.426335 -0.083701 0.054471 2.000000
0.243073 -0.093670 -0.034054 1.000000
-0.276188 -0.073057 0.068153 1.000000
-0.392452 -0.000720 0.100044 1.000000
0.429206 0.099264 0.012212 1.000000
0.346793 0.026418 0.096508 1.000000
-0.412611 -0.097779 0.019898 1.000000
-0.386521 0.042054 -0.090457 1.000000
0.279301 0.036511 -0.092828 1.000000
-0.186099 -0.064274 0.076513 1.000000
-0.160678 0.002552 -0.099631 1.000000
0.208038 0.035738 0.093470 1.000000
0.456998 0.046158 -0.088412 2.000000
0.316723 -0.086468 0.049906 1.000000
-0.392616 0.050491 -0.086020 1.000000
-0.052575 -0.002127 0.099999 1.000000
-0.012246 0.024793 0.096969 1.000000
-0.293029 -0.081717 0.057390 1.000000
0.372466 0.095748 -0.028513 1.000000
0.025477 -0.099682 -0.002690 1.000000
0.028199 0.053092 0.084844 1.000000
-0.348581 -0.055845 0.082863 1.000000
-0.168365 0.087685 0.048233 1.000000
-0.125093 0.054269 -0.083730 1.000000
0.250838 0.098735 -0.015383 1.000000
-0.076094 -0.091141 -0.040326 1.000000
0.046385 -0.024544 0.096972 1.000000
0.106178 0.097143 0.023787 1.000000
0.067223 0.090853 -0.041531 1.000000
0.440242 0.098195 0.019083 2.000000
-0.295133 -0.042246 0.090636 1.000000
-0.462480 -0.081576 0.057598 3.000000
0.158286 0.099017 -0.013607 1.000000
-0.175251 -0.099664 -0.003246 1.000000
-0.415392 0.084676 0.053331 1.000000
-0.148336 -0.077914 0.062479 1.000000
-0.263870 -0.009140 -0.099228 1.000000
-0.393470 -0.031116 0.095049 1.000000
0.233260 0.086583 0.050106 1.000000
-0.343104 -0.029252 0.095616 1.000000
-0.260750 0.088875 0.045897 1.000000
-0.352246 -0.062752 -0.077407 1.000000
0.217160 -0.014614 0.098932 1.000000
0.283788 0.096463 -0.026050 1.000000
-0.113751 0.049877 0.086745 1.000000
0.133558 0.021077 -0.097436 1.000000
-0.281947 -0.062234 -0.077808 1.000000
0.415280 0.018253 -0.098030 1.000000
-0.083378 0.059533 0.080447 1.000000
-0.313985 0.030333 -0.095007 1.000000
-0.342797 -0.099582 -0.005872 1.000000
-0.194676 -0.089566 0.044085 1.000000
-0.107294 0.097195 0.023554 1.000000
0.450813 -0.091200 -0.040189 2.000000
0.441068 -0.061292 -0.078539 1.000000
0.392167 0.042307 -0.090348 1.000000
-0.237301 -0.089128 0.044943 1.000000
-0.284137 -0.082744 -0.055517 1.000000
-0.384183 0.082579 0.056465 1.000000
-0.460119 0.098061 0.019681 3.000000
-0.416891 -0.099209 0.010325 1.000000
0.060844 0.080846 -0.058638 1.000000
-0.442583 -0.090451 0.042281 3.000000
-0.379711 0.004175 0.099942 1.000000
-0.329832 -0.080465 -0.058828 1.000000
0.454286 -0.052669 0.084956 2.000000
-0.150620 -0.099510 0.007137 1.000000
0.335994 0.098670 0.016161 1.000000
-0.039806 0.024889 0.096947 1.000000
-0.112572 -0.094223 0.032881 1.000000
-0.428998 -0.053541 -0.084066 1.000000
0.342083 0.058194 -0.081062 1.000000
-0.458830 0.052122 0.085418 3.000000
-0.198971 -0.091761 -0.038893 1.000000
0.417848 0.082444 -0.056301 1.000000
0.183754 0.003850 -0.099590 1.000000
-0.436044 0.099210 -0.012385 3.000000
0.223752 0.004754 0.099924 1.000000
0.357152 0.076456 -0.064200 1.000000
0.288262 -0.099696 0.002594 1.000000
-0.024195 0.015465 0.098834 1.000000
-0.417426 -0.098265 -0.016881 1.000000
0.028199 0.077951 -0.062370 1.000000
-0.398898 -0.082413 -0.056004 1.000000
-0.129752 0.065840 -0.074975 1.000000
0.349191 0.097918 0.020322 1.000000
-0.179946 -0.016737 0.098596 1.000000
0.018537 -0.041622 0.090906 1.000000
0.209434 -0.011411 0.099376 1.000000
0.419195 -0.000985 0.100035 2.000000
0.322542 0.063767 -0.076800 1.000000
0.231684 -0.087528 0.048085 1.000000
0.426360 -0.056906 0.082142 2.000000
-0.002527 0.082317 -0.056488 1.000000
-0.293441 -0.041941 -0.090405 1.000000
0.335961 0.043142 0.090311 1.000000
-0.069099 -0.088418 0.046337 1.000000
0.080744 0.056279 -0.082364 1.000000
-0.447027 0.032355 -0.094325 3.000000
0.208867 -0.099767 0.000033 1.000000
-0.121517 -0.023766 0.097146 1.000000
-0.262040 -0.084738 0.052831 1.000000
0.223207 -0.062708 -0.077441 1.000000
-0.139066 -0.051038 0.085920 1.000000
0.422168 0.006411 0.099871 2.000000
0.355465 -0.078740 -0.061052 1.000000
0.160295 -0.072483 0.068776 1.000000
0.203214 0.075640 0.065488 1.000000
-0.130283 0.099849 -0.004792 1.000000
-0.453258 -0.050839 -0.085676 3.000000
0.432450 0.033713 0.094199 2.000000
-0.456012 0.097120 -0.023530 3.000000
-0.276903 0.086764 0.049801 1.000000
0.122734 -0.099009 0.012440 1.000000
-0.326065 0.098982 0.014188 1.000000
-0.125053 -0.087814 0.047522 1.000000
-0.209427 0.009013 -0.099262 1.000000
0.319561 0.043818 -0.089604 1.000000
0.351650 0.020457 -0.097575 1.000000
-0.063097 -0.034949 -0.093307 1.000000
0.166014 -0.093166 -0.035454 1.000000
-0.155925 0.098193 -0.018727 1.000000
-0.046646 0.011244 -0.099051 1.000000
-0.349556 0.083467 0.055158 1.000000
-0.161674 -0.062413 -0.077670 1.000000
-0.103741 0.099852 0.005053 1.000000
0.121822 -0.090514 -0.041773 1.000000
0.138826 -0.099526 0.006967 1.000000
-0.069658 0.026858 -0.096017 1.000000
0.381106 0.065198 0.075904 1.000000
0.138933 0.056281 0.082725 1.000000
0.265123 -0.090677 -0.041398 1.000000
0.020378 0.021746 -0.097287 1.000000
0.143169 -0.034046 0.093995 1.000000
0.039505 0.015031 0.098903 1.000000
0.205436 -0.093226 -0.035289 1.000000
-0.079548 0.077832 -0.062523 1.000000
0.348184 -0.035611 0.093431 1.000000
0.308095 -0.068683 -0.072213 1.000000
0.109481 -0.092502 0.037542 1.000000
-0.003903 0.061798 -0.078328 1.000000
-0.407787 0.056133 -0.082463 1.000000
-0.083349 0.087439 0.048659 1.000000
-0.455241 -0.099214 0.010268 3.000000
0.284909 -0.004391 -0.099566 1.000000
0.086841 -0.099691 0.002750 1.000000
0.296951 0.003433 0.099966 1.000000
-0.329649 0.094757 0.032046 1.000000
0.296636 0.097193 0.023563 1.000000
-0.129595 0.071038 0.070454 1.000000
0.446541 0.077893 0.062808 2.000000
0.355129 0.034079 0.094067 1.000000
-0.174054 0.094283 -0.033001 1.000000
0.383663 -0.086281 -0.049860 1.000000
0.197580 0.051663 -0.085326 1.000000
0.424401 -0.016933 -0.098202 1.000000
-0.205220 -0.086576 0.049725 1.000000
0.027194 -0.024478 -0.096624 1.000000
0.020328 -0.097079 0.023031 1.000000
-0.154535 -0.030867 0.095139 1.000000
0.197970 0.078630 0.061857 1.000000
0.162862 0.099743 -0.006783 1.000000
-0.171982 0.004735 -0.099562 1.000000
-0.310043 -0.099610 -0.004972 1.000000
0.264752 -0.078667 -0.061145 1.000000
-0.347200 0.092715 -0.037227 1.000000
-0.301071 -0.077417 -0.062757 1.000000
0.455728 -0.051146 -0.085494 2.000000
0.181396 -0.063672 -0.076681 1.000000
-0.350030 -0.038827 -0.091753 1.000000
-0.448673 -0.064947 -0.075556 3.000000
0.347767 0.054556 -0.083534 1.000000
0.093730 -0.099714 0.002029 1.000000
-0.045261 0.099498 0.009735 1.000000
-0.192012 -0.043274 0.090125 1.000000
-0.304845 0.078836 0.061592 1.000000
-0.394623 0.093492 -0.035198 1.000000
0.157607 0.016540 -0.098301 1.000000
-0.373738 0.003286 0.099970 1.000000
-0.041925 -0.090751 0.041589 1.000000
-0.411662 -0.051169 0.085843 1.000000
-0.400039 0.054951 0.083629 1.000000
-0.376949 0.040972 -0.090926 1.000000
-0.322967 0.066548 0.074714 1.000000
0.200653 0.090232 -0.042872 1.000000
-0.191505 -0.020025 -0.097620 1.000000
-0.465773 0.044252 0.089745 3.000000
-0.291983 0.013986 -0.098706 1.000000
0.212400 -0.042027 -0.090368 1.000000
0.307515 -0.057391 0.081812 1.000000
0.377007 -0.011000 -0.099052 1.000000
0.145762 -0.057372 0.081825 1.000000
0.387439 0.069093 -0.072036 1.000000
-0.102848 -0.088899 0.045393 1.000000
0.454547 -0.097174 0.022603 2.000000
0.220920 -0.099597 -0.005380 1.000000
-0.080462 0.055402 -0.082960 1.000000
0.034934 -0.097597 -0.020349 1.000000
0.275962 -0.099425 -0.007677 1.000000
0.459892 -0.010984 -0.099054 2.000000
-0.094593 -0.078845 -0.060917 1.000000
0.165966 -0.081440 -0.057435 1.000000
0.446438 0.023353 0.097291 2.000000
0.356738 0.001066 0.100040 1.000000
-0.356520 0.058659 -0.080746 1.000000
-0.184542 -0.098337 0.016786 1.000000
-0.072109 -0.096692 -0.024398 1.000000
0.405060 -0.099516 0.007080 1.000000
0.331097 0.098253 -0.018429 1.000000
0.208546 -0.074702 -0.065925 1.000000
0.089217 -0.008334 0.099667 1.000000
0.015000 -0.093206 -0.035344 1.000000
0.356603 -0.029591 0.095518 1.000000
-0.301516 0.086310 0.050568 1.000000
0.190807 0.085430 0.052057 1.000000
-0.240369 0.099955 0.001768 1.000000
-0.301009 0.021995 0.097594 1.000000
0.379753 0.003527 -0.099600 1.000000
-0.239178 -0.082209 -0.056304 1.000000
-0.002924 0.043222 0.090271 1.000000
0.236957 -0.090920 0.041198 1.000000
0.049776 -0.098433 0.016180 1.000000
-0.197856 -0.058171 -0.080919 1.000000
0.253521 -0.098887 -0.012955 1.000000
-0.230199 0.087127 -0.048825 1.000000
-0.225187 0.005049 0.099915 1.000000
0.449445 0.081735 0.057707 2.000000
-0.458418 0.098373 -0.017669 3.000000
0.411918 0.097971 0.020086 1.000000
-0.176435 0.094979 0.031430 1.000000
-0.116501 -0.011252 -0.099028 1.000000
0.457270 0.010431 0.099491 2.000000
0.159412 0.092245 -0.038314 1.000000
-0.144360 -0.091645 -0.039161 1.000000
-0.276148 0.091000 -0.041191 1.000000
-0.447732 -0.094798 -0.030923 3.000000
0.332490 -0.051391 -0.085349 1.000000
0.194596 -0.089954 -0.042960 1.000000
-0.022162 0.008074 0.099714 1.000000
0.110035 -0.048504 0.087419 1.000000
-0.200445 -0.099252 0.009868 1.000000
-0.039390 0.017495 0.098513 1.000000
0.080137 -0.087454 0.048230 1.000000
0.254623 0.054509 0.083929 1.000000
-0.424239 -0.007502 -0.099383 1.000000
0.133127 0.065850 0.075329 1.000000
0.092792 0.062611 -0.077697 1.000000
0.126232 0.038940 -0.091805 1.000000
-0.439027 -0.099545 0.006767 3.000000
0.401139 0.053980 0.084289 1.000000
0.233134 0.025404 0.096802 1.000000
-0.453335 0.099432 -0.010073 3.000000
0.353377 0.070043 0.071449 1.000000
0.100946 0.096218 0.027257 1.000000
-0.313775 0.098497 -0.016885 1.000000
0.286038 0.034573 -0.093526 1.000000
-0.130407 0.084105 0.054220 1.000000
0.083745 0.038273 -0.092093 1.000000
0.446207 0.037250 0.092899 2.000000
-0.219309 0.097556 0.021942 1.000000
-0.307279 0.068767 -0.072363 1.000000
0.148531 -0.091341 0.040226 1.000000
-0.397664 0.013448 -0.098791 1.000000
0.407247 0.062233 -0.077990 1.000000
-0.114960 0.010165 -0.099153 1.000000
-0.029127 -0.072814 0.068430 1.000000
-0.209700 0.059715 -0.079943 1.000000
0.296496 0.080864 0.058977 1.000000
0.422997 -0.098672 -0.014307 1.000000
0.384845 -0.095744 0.028085 1.000000
-0.343686 -0.012015 0.099319 1.000000
0.442391 -0.078513 -0.061344 2.000000
0.439140 0.089040 -0.045211 2.000000
-0.098827 -0.082322 -0.056137 1.000000
0.139517 -0.069416 0.071843 1.000000
-0.420780 -0.097161 0.022666 1.000000
0.342217 0.080950 0.058862 1.000000
0.075383 -0.023458 0.097215 1.000000
0.020949 -0.016330 -0.098298 1.000000
-0.197070 -0.080624 0.058986 1.000000
-0.411995 -0.068811 0.072448 1.000000
-0.169344 0.031860 -0.094503 1.000000
0.391043 0.087177 -0.048739 1.000000
0.361138 -0.072010 0.069249 1.000000
0.201304 -0.031583 -0.094519 1.000000
-0.403743 -0.006131 0.099874 1.000000
0.219327 0.014261 -0.098662 1.000000
-0.388279 0.098920 0.014580 1.000000
0.111660 -0.097836 -0.019281 1.000000
0.185680 -0.088407 -0.045997 1.000000
-0.362784 0.071391 -0.069738 1.000000
0.429236 -0.076672 -0.063691 1.000000
0.031799 0.063903 0.077046 1.000000
-0.003767 0.018420 -0.098004 1.000000
-0.406739 0.097362 0.022808 1.000000
0.094312 -0.068728 -0.072168 1.000000
-0.004416 -0.099661 -0.003356 1.000000
-0.025910 -0.054038 0.084090 1.000000
0.428434 -0.029868 -0.095075 1.000000
0.279683 0.093564 0.035360 1.000000
0.108694 -0.088139 0.046885 1.000000
0.212500 0.015790 -0.098420 1.000000
-0.319895 0.098628 -0.016063 1.000000
0.463736 0.004035 0.099947 2.000000
0.043781 -0.078624 -0.061202 1.000000
-0.273687 0.098568 -0.016437 1.000000
0.132442 0.092132 0.038938 1.000000
-0.113600 0.099090 -0.013146 1.000000
-0.339597 -0.099431 0.007973 1.000000
-0.274201 -0.042072 -0.090348 1.000000
-0.198616 -0.052270 -0.084829 1.000000
0.372740 -0.094784 -0.030961 1.000000
-0.025014 0.022549 -0.097108 1.000000
0.332926 -0.092849 -0.036337 1.000000
-0.341877 -0.056543 -0.082026 1.000000
0.129747 -0.067881 -0.072970 1.000000
0.465288 0.092889 -0.036825 2.000000
-0.316142 -0.065872 0.075104 1.000000
-0.154178 0.063755 0.077173 1.000000
0.131878 0.009704 -0.099197 1.000000
-0.033180 0.036753 0.093104 1.000000
-0.006649 0.085631 -0.051353 1.000000
0.327216 0.089937 0.043813 1.000000
0.071701 -0.049088 0.087074 1.000000
0.174399 -0.067645 -0.073178 1.000000
0.328475 0.003924 -0.099588 1.000000
-0.191491 -0.044164 -0.089309 1.000000
0.295078 0.091969 0.039314 1.000000
-0.454050 0.039958 -0.091364 3.000000
0.056936 0.057400 0.081965 1.000000
0.125975 0.099947 -0.001671 1.000000
-0.388989 0.014691 -0.098594 1.000000
0.157799 0.061036 -0.078919 1.000000
-0.387271 0.089134 0.045391 1.000000
-0.124383 0.004808 0.099923 1.000000
-0.095751 0.037098 -0.092602 1.000000
-0.088387 0.005254 -0.099546 1.000000
-0.368537 -0.044813 -0.088978 1.000000
-0.085181 0.081357 -0.057901 1.000000
0.039968 0.070040 -0.071090 1.000000
-0.136928 -0.089953 -0.042961 1.000000
0.119960 -0.020874 0.097793 1.000000
0.176020 -0.066276 0.074748 1.000000
-0.035324 0.001091 0.100039 1.000000
-0.403811 0.039208 0.092052 1.000000
0.266143 -0.099367 0.008647 1.000000
-0.220300 -0.089479 -0.043892 1.000000
0.094879 0.013775 -0.098739 1.000000
-0.442321 0.091576 0.040223 3.000000
0.020440 0.049932 0.086713 1.000000
-0.337941 -0.082021 -0.056580 1.000000
0.287236 0.089090 0.045477 1.000000
-0.071693 0.099860 0.004811 1.000000
-0.039013 0.011025 0.099435 1.000000
-0.294005 0.007280 -0.099426 1.000000
0.394864 -0.099132 -0.010771 1.000000
-0.294664 -0.099757 0.000643 1.000000
-0.001702 0.088308 -0.046649 1.000000
0.219003 0.099957 0.001716 1.000000
-0.326945 0.086742 -0.049474 1.000000
0.182959 -0.008852 -0.099255 1.000000
0.089814 -0.005518 -0.099530 1.000000
0.368193 0.047537 0.088072 1.000000
0.342725 0.086945 -0.049132 1.000000
0.089042 0.096541 -0.025782 1.000000
-0.440604 -0.085126 -0.051814 3.000000
-0.306984 0.095720 0.028972 1.000000
-0.273609 -0.020395 0.097900 1.000000
0.335203 -0.086499 0.049854 1.000000
0.183952 -0.048524 0.087407 1.000000
-0.012100 0.099622 -0.008059 1.000000
0.427969 0.092250 -0.038301 1.000000
0.395892 -0.074732 -0.065891 1.000000
-0.418753 0.099979 -0.000646 1.000000
-0.234440 -0.005834 0.099883 1.000000
-0.052064 0.094986 -0.031048 1.000000
0.056025 -0.022280 0.097478 1.000000
-0.271918 -0.073314 -0.067500 1.000000
-0.377114 -0.071691 -0.069205 1.000000
0.070786 0.097575 -0.021492 1.000000
-0.304454 0.036544 -0.092817 1.000000
-0.123886 -0.098637 -0.014528 1.000000
-0.428626 0.096893 -0.024544 1.000000
0.465147 -0.099647 -0.003784 2.000000
-0.105560 0.098527 -0.016701 1.000000
-0.003557 0.098518 0.017119 1.000000
-0.135720 -0.097241 -0.021943 1.000000
-0.400103 -0.035616 0.093429 1.000000
-0.397111 0.073515 -0.067536 1.000000
0.018625 0.031033 0.095164 1.000000
-0.063731 -0.099729 -0.001180 1.000000
0.041936 -0.066312 -0.074353 1.000000
-0.125260 -0.099628 -0.004406 1.000000
0.124047 -0.099604 0.005527 1.000000
0.154783 -0.084744 -0.052458 1.000000
-0.351960 0.099198 0.012826 1.000000
0.116386 -0.037903 -0.092153 1.000000
0.214068 0.013839 0.099092 1.000000
0.432237 0.013736 0.099108 2.000000
0.098380 -0.099659 -0.003414 1.000000
0.138826 -0.097146 -0.022368 1.000000
0.054528 -0.099459 -0.007317 1.000000
-0.446133 -0.099585 0.006143 3.000000
-0.334300 0.070777 0.070715 1.000000
0.201269 0.092620 -0.037446 1.000000
-0.464281 -0.008517 -0.099287 3.000000
-0.217926 0.098112 -0.019091 1.000000
0.285735 -0.083034 0.055453 1.000000
-0.121265 -0.073348 0.067823 1.000000
-0.121433 0.080788 -0.058713 1.000000
-0.223921 0.096904 -0.024496 1.000000
0.234525 0.059937 -0.079772 1.000000
0.461008 -0.048186 -0.087245 2.000000
-0.155766 0.073365 -0.067706 1.000000
0.425216 0.012022 0.099340 2.000000
-0.299033 -0.052863 -0.084479 1.000000
-0.274792 0.093397 0.035824 1.000000
0.335253 0.060402 0.079773 1.000000
0.213055 0.092522 -0.037674 1.000000
-0.366366 0.099433 0.010425 1.000000
0.333631 0.008009 -0.099357 1.000000
0.458578 -0.099625 -0.004506 2.000000
-0.345604 0.098585 0.016698 1.000000
-0.432756 0.094962 0.031479 1.000000
-0.028309 -0.075057 -0.065522 1.000000
-0.366300 -0.056202 -0.082258 1.000000
0.431753 0.087941 0.047731 2.000000
-0.140013 0.006858 0.099828 1.000000
0.331696 0.056545 -0.082183 1.000000
-0.249587 -0.030477 0.095260 1.000000
0.392183 0.077894 0.062806 1.000000
0.328240 -0.021701 0.097608 1.000000
-0.141956 -0.021813 0.097583 1.000000
0.128893 0.098277 -0.018277 1.000000
0.215249 0.039175 0.092066 1.000000
-0.449867 -0.055788 -0.082539 3.000000
-0.153177 0.032792 0.094530 1.000000
0.025508 -0.003255 0.099964 1.000000
-0.181886 -0.010450 -0.099104 1.000000
-0.264409 -0.061752 0.078545 1.000000
-0.210616 -0.033514 0.094186 1.000000
0.128039 -0.047020 0.088216 1.000000
0.296663 0.094636 0.032384 1.000000
0.139940 -0.094849 -0.030781 1.000000
0.076007 0.033246 0.094367 1.000000
0.162579 -0.034212 -0.093572 1.000000
-0.371393 -0.094527 -0.031675 1.000000
0.464185 0.028373 -0.095577 2.000000
0.386106 0.093232 0.036284 1.000000
-0.067609 -0.080530 -0.058744 1.000000
-0.410826 0.094780 0.031983 1.000000
-0.132755 -0.094183 -0.032629 1.000000
-0.367732 -0.099446 -0.007457 1.000000
0.166274 -0.096551 -0.024946 1.000000
0.425412 -0.053342 -0.084195 1.000000
-0.405781 -0.000185 -0.099698 1.000000
0.221247 -0.024361 -0.096650 1.000000
-0.013144 -0.045629 -0.088562 1.000000
0.242661 -0.059525 -0.079910 1.000000
0.392215 0.090250 -0.042838 1.000000
0.380214 -0.032955 -0.094025 1.000000
-0.363334 -0.045417 0.089033 1.000000
0.362948 -0.005364 -0.099535 1.000000
0.460500 0.040355 0.091555 2.000000
0.352266 -0.025431 0.096727 1.000000
0.440993 -0.060521 0.079500 2.000000
-0.312476 -0.059721 -0.079757 1.000000
0.258204 -0.094242 -0.032467 1.000000
0.331356 0.065600 0.075549 1.000000
-0.411928 -0.099729 0.001538 1.000000
-0.117950 -0.095315 -0.029200 1.000000
-0.011366 0.070545 0.070947 1.000000
-0.356875 0.069423 -0.071706 1.000000
-0.229266 0.069003 0.072489 1.000000
-0.363417 0.028394 0.095933 1.000000
0.198798 0.098811 0.015268 1.000000
-0.309586 0.048090 -0.087427 1.000000
-0.411514 0.077468 -0.062993 1.000000
-0.214249 0.088528 0.046580 1.000000
-0.269383 0.095934 -0.027870 1.000000
0.288991 -0.063743 0.076981 1.000000
0.464145 0.076483 0.064532 2.000000
0.437883 -0.043404 -0.089696 1.000000
0.358429 -0.096546 0.025326 1.000000
-0.034861 -0.035652 0.093416 1.000000
-0.233941 0.093418 0.035767 1.000000
-0.344683 -0.066037 0.074959 1.000000
-0.450158 -0.072564 -0.068332 3.000000
0.291839 -0.040799 -0.090899 1.000000
0.385194 0.055607 -0.082820 1.000000
-0.228240 -0.033750 0.094101 1.000000
-0.321698 -0.038686 -0.091814 1.000000
-0.098653 -0.009432 0.099563 1.000000
-0.332879 0.050481 0.086388 1.000000
-0.361024 -0.003427 -0.099596 1.000000
0.245094 0.053485 0.084611 1.000000
0.352814 -0.098022 0.018775 1.000000
0.262872 0.002570 0.099993 1.000000
0.300610 -0.096410 -0.025431 1.000000
-0.179830 0.099987 0.000749 1.000000
0.058830 -0.028619 -0.095438 1.000000
0.319579 0.069263 -0.071867 1.000000
-0.315576 -0.050897 0.086004 1.000000
0.235264 0.080103 0.059958 1.000000
0.063110 -0.083326 0.055024 1.000000
-0.423564 0.007564 -0.099399 1.000000
0.066012 -0.026696 -0.095996 1.000000
0.309967 0.043170 -0.089934 1.000000
-0.427618 0.019034 -0.097893 1.000000
0.371233 0.099764 -0.006553 1.000000
-0.156447 -0.080842 0.058678 1.000000
0.238089 0.099453 0.010212 1.000000
0.245571 0.094848 -0.031430 1.000000
-0.435537 0.092705 -0.037250 3.000000
0.338935 0.004369 -0.099574 1.000000
-0.049354 -0.019477 -0.097742 1.000000
0.464456 0.081872 -0.057144 2.000000
0.322669 -0.069311 -0.071585 1.000000
0.101716 -0.054258 0.083942 1.000000
-0.348304 0.021326 -0.097381 1.000000
0.192658 0.047534 -0.087711 1.000000
0.143905 -0.087817 -0.047155 1.000000
0.274858 0.099981 -0.000585 1.000000
-0.208206 0.099379 0.010989 1.000000
0.407906 0.035669 -0.093132 1.000000
-0.393265 -0.025130 -0.096451 1.000000
-0.228990 -0.053648 -0.083993 1.000000
-0.128850 -0.016001 0.098712 1.000000
0.440426 0.067398 -0.073602 1.000000
-0.137926 0.085878 -0.050935 1.000000
0.351582 -0.099606 0.005465 1.000000
-0.159568 -0.037448 -0.092349 1.000000
-0.120625 0.034109 -0.093693 1.000000
-0.441050 0.028027 -0.095678 3.000000
-0.149808 -0.081419 0.057829 1.000000
0.171599 0.000231 -0.099704 1.000000
0.096023 -0.076115 0.064685 1.000000
-0.072821 -0.070944 0.070315 1.000000
0.224190 0.040770 -0.091013 1.000000
-0.256333 0.016832 -0.098255 1.000000
-0.371551 0.016805 -0.098259 1.000000
0.041576 -0.057028 0.082059 1.000000
0.406425 -0.095701 0.028234 1.000000
-0.046881 -0.052817 -0.084506 1.000000
-0.449245 0.099060 0.013698 3.000000
0.261013 -0.067093 0.074028 1.000000
-0.243795 -0.043985 0.089762 1.000000
0.409372 -0.027093 0.096244 1.000000
-0.453795 0.065418 -0.075347 3.000000
0.075876 0.087612 -0.048004 1.000000
-0.406665 0.099618 0.008459 1.000000
-0.140584 0.068634 0.072859 1.000000
-0.029406 -0.069555 -0.071341 1.000000
0.223642 0.098958 0.014337 1.000000
0.033473 0.070441 -0.070688 1.000000
-0.001787 -0.008060 0.099693 1.000000
-0.076796 0.007670 0.099752 1.000000
-0.454041 0.076760 0.064218 3.000000
0.343881 -0.015403 0.098807 1.000000
0.314876 -0.093200 -0.035361 1.000000
-0.260369 -0.064415 -0.076026 1.000000
-0.441721 0.057254 0.082064 3.000000
-0.213480 -0.092637 -0.036869 1.000000
0.440435 0.056298 -0.082351 1.000000
-0.351444 -0.090906 -0.040868 1.000000
0.392856 -0.082401 -0.056020 1.000000
-0.164466 0.099628 -0.007999 1.000000
0.020570 -0.000203 -0.099697 1.000000
0.040255 -0.085953 -0.050414 1.000000
0.294883 -0.075477 0.065409 1.000000
0.318900 0.090061 -0.043208 1.000000
-0.396780 0.012351 0.099309 1.000000
0.351421 -0.037196 -0.092458 1.000000
-0.302177 -0.099574 -0.006101 1.000000
-0.318350 -0.044648 -0.089062 1.000000
0.446583 0.078460 -0.061714 2.000000
0.324060 0.099211 0.012741 1.000000
-0.098666 -0.099639 0.004421 1.000000
0.220993 -0.041516 0.090952 1.000000
0.110109 0.063832 0.077108 1.000000
0.364004 -0.099760 -0.000192 1.000000
-0.302689 -0.094976 0.030728 1.000000
0.417129 0.099135 0.013223 1.000000
-0.334981 0.093294 0.036111 1.000000
-0.451477 0.098527 -0.016696 3.000000
-0.267042 -0.078247 0.062050 1.000000
-0.174535 0.081668 0.057805 1.000000
0.401942 -0.038014 0.092467 1.000000
-0.319005 0.030484 0.095326 1.000000
0.132843 0.093189 -0.036039 1.000000
0.374583 0.078310 0.062270 1.000000
-0.234875 -0.098862 -0.013108 1.000000
0.216760 -0.064023 0.076734 1.000000
-0.268070 -0.076842 -0.063498 1.000000
-0.130238 0.095393 0.030096 1.000000
0.397654 -0.029919 -0.095060 1.000000
-0.033919 0.096472 0.026383 1.000000
-0.228769 -0.040342 0.091460 1.000000
0.305552 -0.033220 0.094292 1.000000
-0.227806 0.032463 -0.094286 1.000000
-0.208717 0.090073 0.043547 1.000000
-0.243250 -0.021952 -0.097189 1.000000
0.138980 0.075907 -0.064823 1.000000
-0.002757 -0.044680 0.089409 1.000000
-0.354742 -0.035285 -0.093186 1.000000
-0.326863 0.078312 -0.061905 1.000000
0.293670 -0.098691 0.014550 1.000000
-0.444108 0.082643 0.056371 3.000000
-0.387596 0.057289 -0.081677 1.000000
0.143758 -0.073193 -0.067637 1.000000
-0.236306 -0.094893 0.031014 1.000000
0.155227 -0.091070 0.040852 1.000000
0.217378 -0.047842 -0.087435 1.000000
-0.192890 0.065935 -0.074891 1.000000
-0.039071 -0.011620 0.099356 1.000000
-0.148548 0.043498 -0.089767 1.000000
-0.098941 -0.038964 -0.091693 1.000000
0.043488 0.020027 -0.097671 1.000000
0.355353 0.097603 0.021729 1.000000
-0.461118 -0.029218 0.095626 3.000000
-0.379239 0.099939 -0.001937 1.000000
0.264202 0.013082 -0.098849 1.000000
-0.375109 0.093016 -0.036521 1.000000
-0.282446 0.093967 -0.033878 1.000000
-0.314246 0.097099 -0.023621 1.000000
0.015005 0.000629 0.100054 1.000000
0.438371 -0.015412 0.098806 2.000000
-0.265558 -0.059931 -0.079595 1.000000
-0.032090 -0.098627 -0.014592 1.000000
0.007885 0.099972 -0.000876 1.000000
0.354674 -0.039684 0.091745 1.000000
0.202549 0.000624 0.100054 1.000000
0.175862 -0.040959 -0.090830 1.000000
0.120183 0.008614 -0.099300 1.000000
-0.340952 -0.010900 -0.099062 1.000000
0.191186 -0.000236 -0.099696 1.000000
0.191154 -0.091931 -0.038500 1.000000
-0.387581 -0.066157 -0.074490 1.000000
0.362489 0.051953 -0.085155 1.000000
-0.069084 -0.002361 0.099992 1.000000
-0.127701 -0.033289 -0.093904 1.000000
-0.140161 0.060851 0.079425 1.000000
-0.270519 0.093081 -0.036341 1.000000
0.290130 0.032656 0.094579 1.000000
-0.427559 0.096085 0.027714 1.000000
0.164898 -0.058937 0.080729 1.000000
0.089876 0.039401 0.091968 1.000000
-0.065683 -0.099614 0.005208 1.000000
0.073985 0.039448 -0.091585 1.000000
-0.302373 -0.056149 0.082656 1.000000
0.284975 0.098833 0.015128 1.000000
-0.007392 -0.067815 -0.073028 1.000000
0.355016 -0.085377 0.051752 1.000000
0.047003 0.090366 0.042972 1.000000
-0.427847 -0.078819 0.061313 3.000000
-0.099811 -0.085525 -0.051138 1.000000
-0.215079 0.043640 0.090057 1.000000
-0.409659 0.094700 -0.031844 1.000000
0.258553 -0.050004 -0.086170 1.000000
-0.199787 0.068103 -0.072980 1.000000
-0.423562 -0.097630 -0.020201 1.000000
0.247408 -0.090508 -0.041787 1.000000
-0.131697 -0.096457 0.025631 1.000000
-0.242432 -0.052555 0.085024 1.000000
-0.462233 -0.091765 0.039246 3.000000
0.394721 0.099898 0.003596 1.000000
-0.099967 0.074778 0.066467 1.000000
-0.275188 -0.007777 -0.099357 1.000000
0.016972 -0.029176 0.095639 1.000000
-0.288666 0.050598 -0.085956 1.000000
-0.259683 0.071899 0.069593 1.000000
0.255960 -0.069687 0.071572 1.000000
0.087970 0.074071 -0.066906 1.000000
0.381123 0.078194 0.062419 1.000000
0.082265 -0.050205 0.086413 1.000000
0.323903 0.048823 0.087369 1.000000
0.076089 -0.059598 -0.079853 1.000000
0.392448 0.066040 -0.074799 1.000000
0.351312 0.037469 -0.092441 1.000000
-0.204401 0.099641 -0.007859 1.000000
0.245984 -0.026868 0.096309 1.000000
0.033208 -0.075090 0.065847 1.000000
0.075958 -0.044351 -0.089213 1.000000
-0.041592 -0.077516 0.062992 1.000000
0.462092 -0.027450 0.096140 2.000000
-0.198910 -0.088339 -0.046129 1.000000
-0.029124 -0.081359 -0.057554 1.000000
0.249176 -0.098565 0.015350 1.000000
-0.136485 0.003518 -0.099600 1.000000
-0.036371 -0.083216 -0.054823 1.000000
-0.021297 -0.090478 0.042219 1.000000
-0.404015 0.085615 0.051743 1.000000
-0.148158 -0.008556 -0.099283 1.000000
-0.095803 0.018396 0.098370 1.000000
-0.231305 -0.058447 -0.080732 1.000000
-0.027780 0.092783 0.037433 1.000000
-0.044581 0.079481 0.060760 1.000000
-0.207612 -0.075253 -0.065300 1.000000
0.058234 0.098335 -0.017913 1.000000
0.312537 0.055616 -0.082814 1.000000
0.002714 0.041418 0.091095 1.000000
-0.001218 0.062950 0.077797 1.000000
0.010305 -0.095609 0.028548 1.000000
0.427430 -0.099399 -0.007951 1.000000
-0.277213 0.060977 -0.078965 1.000000
-0.002472 0.026582 -0.096097 1.000000
0.198979 -0.099673 -0.002973 1.000000
0.042945 -0.097093 0.022967 1.000000
-0.255839 -0.098659 -0.014390 1.000000
-0.299635 -0.038505 -0.091892 1.000000
-0.298363 0.075095 -0.065744 1.000000
-0.008214 -0.093817 0.034010 1.000000
-0.332866 -0.024510 0.096980 1.000000
0.118182 -0.068056 0.073178 1.000000
0.021184 0.093221 0.036314 1.000000
-0.103156 -0.064767 0.076078 1.000000
0.232566 0.008042 0.099717 1.000000
-0.089775 0.060199 0.079930 1.000000
-0.022340 -0.085584 -0.051038 1.000000
0.327137 -0.098817 -0.013393 1.000000
0.159422 -0.067955 0.073268 1.000000
0.442024 0.007001 0.099815 2.000000
0.151008 -0.050020 -0.086160 1.000000
0.424058 -0.086780 -0.049017 1.000000
0.197843 0.037098 -0.092602 1.000000
-0.149411 -0.098979 0.012736 1.000000
-0.315608 0.051502 -0.085422 1.000000
-0.133164 0.083125 -0.055300 1.000000
0.431722 -0.024566 -0.096605 1.000000
-0.083315 -0.096258 0.026317 1.000000
-0.449903 0.053458 0.084628 3.000000
-0.242814 0.005446 0.099902 1.000000
-0.224897 -0.002277 0.099995 1.000000
-0.331911 -0.017944 0.098405 1.000000
-0.383506 -0.095414 0.029220 1.000000
-0.059166 -0.099577 -0.006034 1.000000
-0.270619 -0.051388 0.085714 1.000000
-0.397502 0.078388 -0.061807 1.000000
0.464987 -0.096678 -0.024460 2.000000
0.418330 -0.090123 -0.042628 1.000000
0.064976 -0.003195 0.099966 1.000000
0.434057 0.073961 0.067394 2.000000
-0.230765 0.042509 0.090623 1.000000
-0.008988 -0.058797 0.080838 1.000000
-0.307640 -0.096409 -0.025433 1.000000
0.035978 0.097744 0.021101 1.000000
-0.047917 -0.093499 -0.034531 1.000000
-0.463077 0.038675 0.092282 3.000000
0.312699 0.025277 -0.096476 1.000000
-0.404646 0.072036 0.069457 1.000000
0.416607 -0.022384 0.097455 2.000000
0.056325 -0.077668 0.062797 1.000000
-0.219590 -0.004818 0.099915 1.000000
-0.059392 0.010138 0.099518 1.000000
-0.220627 -0.084505 -0.052864 1.000000
0.235714 0.098612 0.016527 1.000000
0.140339 -0.053664 0.084345 1.000000
-0.055373 0.087678 0.048248 1.000000
-0.183524 0.019010 0.098261 1.000000
-0.008867 0.005782 -0.099529 1.000000
0.354723 0.085468 0.051992 1.000000
0.350802 0.071881 -0.069249 1.000000
-0.419210 -0.036395 -0.092786 1.000000
0.354620 0.096520 -0.025856 1.000000
0.411664 0.006685 -0.099482 1.000000
0.433852 0.094965 -0.031106 2.000000
0.431843 -0.089493 0.044227 2.000000
0.321020 0.082259 -0.056574 1.000000
0.350538 -0.057784 0.081545 1.000000
0.011967 -0.099213 -0.009918 1.000000
0.206630 0.097649 -0.021164 1.000000
0.073026 -0.064657 -0.075812 1.000000
0.250859 -0.088499 0.046177 1.000000
0.262172 0.034242 0.094008 1.000000
0.204533 -0.089176 0.044850 1.000000
0.012988 -0.082314 0.056512 1.000000
-0.225778 -0.045309 -0.088725 1.000000
-0.450721 0.080511 0.059432 3.000000
-0.272683 0.079811 0.060335 1.000000
0.295206 -0.095329 -0.029152 1.000000
0.104036 0.099914 0.003094 1.000000
0.444978 -0.063993 0.076761 2.000000
-0.154235 -0.012874 -0.098845 1.000000
-0.447880 0.059648 0.080358 3.000000
-0.103809 0.093317 0.036046 1.000000
-0.135466 0.039386 -0.091612 1.000000
-0.191330 0.098271 0.018675 1.000000
0.238825 -0.031112 -0.094688 1.000000
0.403816 -0.067369 0.073784 1.000000
-0.429230 -0.091066 -0.040499 3.000000
0.414546 0.022476 0.097487 2.000000
0.212810 0.008310 -0.099328 1.000000
-0.121586 0.026257 -0.096192 1.000000
0.037909 -0.026892 0.096302 1.000000
-0.254228 0.069494 0.071998 1.000000
-0.029660 0.098502 0.017219 1.000000
-0.219684 -0.064059 0.076702 1.000000
0.401649 -0.069044 -0.071852 1.000000
-0.320077 -0.084779 0.052763 1.000000
-0.410220 -0.099577 -0.006019 1.000000
-0.067544 0.014688 0.098957 1.000000
-0.019118 0.097601 0.021741 1.000000
-0.095457 -0.061190 0.078981 1.000000
0.392019 -0.001309 -0.099662 1.000000
-0.120515 0.099413 -0.010273 1.000000
-0.249879 -0.082028 0.056933 1.000000
-0.335255 -0.099237 -0.009668 1.000000
0.356888 0.069563 -0.071566 1.000000
0.157845 -0.030078 -0.095014 1.000000
0.364626 0.078653 0.061827 1.000000
0.216311 0.067694 0.073704 1.000000
0.189025 0.068350 -0.072762 1.000000
0.005462 -0.025705 -0.096284 1.000000
0.169760 -0.085404 -0.051343 1.000000
0.268085 0.003065 -0.099615 1.000000
-0.228934 0.095259 0.030557 1.000000
0.224495 -0.046397 0.088534 1.000000
-0.074224 0.036522 0.093187 1.000000
-0.262630 -0.054858 0.083533 1.000000
0.201198 0.066526 0.074733 1.000000
-0.001404 -0.094083 0.033271 1.000000
0.129976 0.099748 -0.006722 1.000000
-0.399020 0.045133 -0.088934 1.000000
-0.416184 -0.014491 0.098952 1.000000
-0.371923 0.024757 0.096977 1.000000
0.257089 -0.062866 -0.077318 1.000000
-0.246868 -0.016176 0.098685 1.000000
-0.025408 -0.098438 -0.015787 1.000000
0.100032 -0.015553 -0.098421 1.000000
0.007874 0.075707 -0.065050 1.000000
0.419876 0.041364 -0.090756 1.000000
0.446709 -0.019961 -0.097634 2.000000
0.060065 -0.009860 -0.099160 1.000000
0.398526 -0.099612 -0.004920 1.000000
-0.407453 0.091388 0.040656 1.000000
-0.117722 0.058881 0.080953 1.000000
-0.222250 0.042362 0.090687 1.000000
-0.387638 0.099678 0.007830 1.000000
-0.352886 0.003495 0.099964 1.000000
0.374956 -0.051472 -0.085302 1.000000
-0.379596 -0.099218 0.010226 1.000000
0.054762 -0.084842 0.052657 1.000000
-0.031607 0.005938 0.099887 1.000000
-0.353657 0.099280 -0.011678 1.000000
0.289478 0.084945 -0.052513 1.000000
-0.098870 0.084791 -0.052775 1.000000
0.034484 -0.093896 0.033790 1.000000
-0.332973 0.028647 0.095860 1.000000
-0.110620 -0.047714 -0.087500 1.000000
0.252487 -0.005989 -0.099515 1.000000
-0.417716 -0.091345 -0.039854 1.000000
0.267764 0.099887 -0.003580 1.000000
-0.269755 0.012598 -0.098923 1.000000
-0.283317 0.096560 0.026081 1.000000
-0.371229 -0.060071 0.079849 1.000000
-0.254193 -0.038051 0.092451 1.000000
-0.181805 0.010478 -0.099124 1.000000
-0.090288 0.097995 0.019977 1.000000
-0.179486 -0.042794 -0.090007 1.000000
0.039535 -0.023604 -0.096820 1.000000
0.440237 0.049949 -0.086340 1.000000
0.091325 0.099612 0.008525 1.000000
0.244425 0.027906 -0.095713 1.000000
0.280432 0.070718 0.070774 1.000000
0.247695 -0.057962 0.081424 1.000000
-0.435013 0.006747 0.099839 3.000000
-0.238939 0.074600 0.066668 1.000000
-0.186345 -0.070606 -0.070290 1.000000
-0.309248 0.089864 -0.043594 1.000000
-0.375594 0.061698 0.078768 1.000000
0.311914 0.062286 0.078312 1.000000
0.123100 0.015856 0.098772 1.000000
0.077440 0.050741 -0.085871 1.000000
-0.065490 0.086523 0.050208 1.000000
0.431373 0.009780 -0.099189 1.000000
0.196229 -0.059624 0.080196 1.000000
-0.423756 0.040078 -0.091312 1.000000
0.203652 -0.086750 -0.049067 1.000000
0.198540 0.003394 -0.099604 1.000000
0.137427 -0.030233 0.095332 1.000000
-0.005007 0.099349 0.011310 1.000000
0.183662 -0.065184 0.075710 1.000000
0.463714 -0.098986 -0.012323 2.000000
-0.213035 -0.068948 -0.071948 1.000000
-0.019898 -0.086712 0.049494 1.000000
0.021802 -0.091567 -0.039341 1.000000
-0.030010 -0.084591 -0.052717 1.000000
-0.420924 0.094133 -0.033418 1.000000
-0.325874 -0.099273 0.009647 1.000000
-0.028860 0.082230 -0.056616 1.000000
0.342475 -0.089428 -0.043993 1.000000
0.285397 0.028348 0.095947 1.000000
0.410401 -0.079625 -0.059911 1.000000
-0.325779 0.007941 -0.099363 1.000000
-0.275487 0.016293 -0.098340 1.000000
0.159864 0.079195 0.061129 1.000000
-0.264547 0.065623 -0.075167 1.000000
0.427932 0.049951 -0.086339 1.000000
-0.166837 -0.067511 -0.073297 1.000000
0.247813 -0.094890 -0.030663 1.000000
-0.160756 0.017448 -0.098157 1.000000
-0.022968 -0.039407 -0.091502 1.000000
-0.201204 0.070208 0.071284 1.000000
0.113953 -0.000192 0.100060 1.000000
0.059053 0.091721 0.039888 1.000000
-0.211488 -0.057349 -0.081478 1.000000
-0.328629 0.089981 -0.043365 1.000000
0.244114 -0.099729 0.001533 1.000000
-0.349948 0.091788 0.039732 1.000000
-0.128070 0.047780 0.087948 1.000000
-0.007401 -0.063769 0.076958 1.000000
0.157026 0.039029 -0.091766 1.000000
-0.170357 0.084739 0.053225 1.000000
-0.459174 -0.081575 -0.057237 3.000000
0.317099 0.056919 0.082292 1.000000
0.120861 0.042239 -0.090377 1.000000
0.017185 -0.035400 -0.093144 1.000000
-0.244389 -0.093191 0.035749 1.000000
0.323883 -0.000906 -0.099675 1.000000
