-0.466955 -0.060376 -0.026796 3.000000
-0.466955 0.054346 0.051417 3.000000
-0.466955 0.074848 -0.002155 3.000000
-0.466955 -0.013015 0.007917 3.000000
-0.466955 -0.070745 0.028043 3.000000
-0.466955 0.014956 0.054899 3.000000
-0.466955 0.041045 -0.009065 3.000000
-0.466955 -0.035752 -0.005199 3.000000
-0.466955 -0.028933 -0.086048 3.000000
-0.466955 0.028341 -0.084220 3.000000
-0.466955 -0.008111 0.012750 3.000000
-0.466955 -0.056973 -0.039101 3.000000
-0.466955 0.039236 0.017592 3.000000
-0.466955 -0.037172 -0.004849 3.000000
-0.466955 0.008810 0.063428 3.000000
-0.466955 0.084406 -0.053404 3.000000
-0.466955 0.006781 -0.096876 3.000000
-0.466955 0.085787 0.036770 3.000000
-0.466955 -0.015864 0.019258 3.000000
-0.466955 -0.081662 0.054299 3.000000
-0.466955 0.074866 -0.012869 3.000000
-0.466955 -0.024549 0.003210 3.000000
-0.466955 -0.040929 -0.027000 3.000000
-0.466955 -0.068958 -0.033578 3.000000
-0.466955 0.000424 -0.070197 3.000000
-0.466955 -0.039790 0.063655 3.000000
-0.466955 -0.052136 -0.063600 3.000000
-0.466955 -0.088819 0.037716 3.000000
-0.466955 0.061139 -0.032702 3.000000
-0.466955 -0.064425 0.054517 3.000000
-0.466955 -0.066741 -0.019859 3.000000
-0.466955 0.022729 -0.000530 3.000000
-0.466955 -0.021833 0.009513 3.000000
-0.466955 0.042968 0.049621 3.000000
-0.466955 0.074661 0.033230 3.000000
-0.466955 0.042498 -0.038881 3.000000
-0.466955 0.079603 -0.055066 3.000000
-0.466955 -0.086662 0.040096 3.000000
-0.466955 0.083901 -0.007160 3.000000
-0.466955 -0.009748 0.092892 3.000000
-0.466955 0.034861 0.086028 3.000000
-0.466955 0.083854 -0.017092 3.000000
-0.466955 -0.054325 -0.073640 3.000000
-0.466955 0.041591 0.008803 3.000000
-0.466955 0.040424 0.054443 3.000000
-0.466955 0.025600 0.047073 3.000000
-0.466955 -0.040765 -0.011967 3.000000
-0.466955 -0.049462 -0.074956 3.000000
-0.466955 -0.012246 0.012367 3.000000
-0.466955 -0.001565 0.071034 3.000000
-0.466955 0.072651 -0.021046 3.000000
-0.466955 0.083447 -0.004094 3.000000
-0.466955 0.013323 0.013522 3.000000
-0.466955 -0.004560 -0.001067 3.000000
-0.466955 0.034057 -0.088097 3.000000
-0.466955 0.001026 -0.065149 3.000000
-0.466955 0.016175 -0.068603 3.000000
-0.466955 -0.020830 0.078790 3.000000
-0.466955 0.054711 0.055841 3.000000
-0.466955 -0.034301 0.039313 3.000000
-0.466955 -0.095928 0.008947 3.000000
-0.466955 -0.000822 0.085201 3.000000
-0.466955 0.093257 -0.026228 3.000000
-0.466955 0.036976 0.016630 3.000000
-0.466955 -0.050048 0.007466 3.000000
-0.466955 -0.070596 -0.001540 3.000000
-0.466955 -0.010654 0.090212 3.000000
-0.466955 0.017416 0.031979 3.000000
-0.466955 0.055742 0.035697 3.000000
-0.466955 0.035353 -0.046576 3.000000
-0.466955 0.055206 -0.082804 3.000000
-0.466955 0.004561 0.092338 3.000000
-0.466955 -0.011797 -0.061660 3.000000
-0.466955 0.009967 0.017326 3.000000
-0.466955 -0.022988 -0.000752 3.000000
-0.466955 0.016154 -0.070191 3.000000
-0.466955 -0.063186 -0.044910 3.000000
-0.466955 -0.010121 0.087929 3.000000
-0.466955 -0.025618 -0.051719 3.000000
-0.466955 0.005370 0.073531 3.000000
-0.466955 -0.018802 0.065458 3.000000
-0.466955 0.034369 0.059566 3.000000
-0.466955 0.086295 0.015441 3.000000
-0.466955 0.001523 0.082907 3.000000
-0.466955 0.023604 -0.031027 3.000000
-0.466955 -0.073084 -0.001442 3.000000
-0.466955 -0.027416 -0.085265 3.000000
-0.466955 -0.000994 0.052999 3.000000
-0.466955 -0.030559 0.029793 3.000000
-0.466955 0.004967 0.011641 3.000000
-0.466955 -0.073842 0.047521 3.000000
-0.466955 -0.080314 0.000009 3.000000
-0.466955 0.027449 0.077551 3.000000
-0.466955 -0.049318 -0.059619 3.000000
-0.466955 -0.059679 0.075439 3.000000
-0.466955 0.003334 0.041589 3.000000
-0.466955 -0.024802 0.021695 3.000000
-0.466955 -0.075009 0.006243 3.000000
-0.466955 -0.042626 0.034182 3.000000
-0.466955 -0.051495 0.081298 3.000000
-0.466955 -0.057527 0.081298 3.000000
-0.466955 -0.070601 0.021913 3.000000
-0.466955 -0.015580 0.009938 3.000000
-0.466955 0.031739 -0.057352 3.000000
-0.466955 0.056016 0.054739 3.000000
-0.466955 -0.068975 -0.061802 3.000000
-0.466955 -0.010266 -0.003656 3.000000
-0.466955 -0.057252 -0.026455 3.000000
-0.466955 0.039902 0.088026 3.000000
-0.466955 -0.021565 -0.036121 3.000000
-0.466955 0.021255 -0.086914 3.000000
-0.466955 -0.016059 -0.041346 3.000000
-0.466955 0.048120 -0.022944 3.000000
-0.466955 -0.088476 0.016571 3.000000
-0.466955 -0.052332 -0.084519 3.000000
-0.466955 -0.039083 0.070290 3.000000
-0.466955 0.076929 -0.005032 3.000000
-0.466955 -0.098251 0.015754 3.000000
-0.466955 -0.046562 -0.080084 3.000000
-0.466955 0.021273 -0.009994 3.000000
-0.466955 0.035326 -0.033288 3.000000
-0.466955 0.010602 0.083653 3.000000
-0.466955 -0.018401 -0.056859 3.000000
-0.466955 -0.046263 0.004938 3.000000
-0.466955 0.065644 0.042349 3.000000
-0.466955 -0.024271 -0.028768 3.000000
-0.466955 0.050006 -0.038298 3.000000
-0.466955 -0.005901 -0.009354 3.000000
-0.466955 0.004880 -0.080392 3.000000
-0.466955 -0.042572 0.080603 3.000000
-0.466955 0.056393 -0.039173 3.000000
-0.466955 0.065861 0.000687 3.000000
-0.466955 -0.004578 -0.099086 3.000000
-0.466955 0.052407 -0.058553 3.000000
-0.466955 0.084580 0.027007 3.000000
-0.466955 -0.039223 -0.075868 3.000000
-0.466955 0.047676 -0.010882 3.000000
-0.466955 -0.072339 -0.040077 3.000000
-0.466955 -0.061839 -0.003123 3.000000
-0.466955 -0.079424 0.024911 3.000000
-0.466955 -0.063873 -0.069333 3.000000
-0.466955 -0.034059 0.051845 3.000000
-0.466955 0.055559 0.022909 3.000000
-0.466955 -0.022955 0.046461 3.000000
-0.466955 0.081572 0.030601 3.000000
-0.466955 -0.077559 0.032018 3.000000
-0.466955 0.072424 0.028075 3.000000
-0.466955 0.059507 -0.007606 3.000000
-0.466955 -0.072851 0.042095 3.000000
-0.466955 0.022223 0.087483 3.000000
-0.466955 -0.029349 -0.038997 3.000000
-0.466955 0.052748 -0.072283 3.000000
-0.466955 -0.019697 0.017812 3.000000
-0.466955 -0.049789 -0.057412 3.000000
-0.466955 -0.051839 0.031344 3.000000
-0.466955 0.068548 0.015165 3.000000
-0.466955 -0.080403 0.005809 3.000000
-0.466955 0.004535 0.062500 3.000000
-0.466955 -0.016797 -0.054541 3.000000
-0.466955 -0.088400 -0.041779 3.000000
-0.466955 -0.083483 -0.018136 3.000000
-0.466955 0.026623 0.020039 3.000000
-0.466955 0.082213 0.005153 3.000000
-0.466955 -0.005604 -0.042136 3.000000
-0.466955 0.025010 0.080599 3.000000
-0.466955 0.010587 -0.087535 3.000000
-0.466955 -0.047185 0.010517 3.000000
-0.466955 -0.016997 -0.016216 3.000000
-0.466955 -0.046681 0.001410 3.000000
-0.466955 -0.029790 0.087833 3.000000
-0.466955 -0.071382 0.043286 3.000000
-0.466955 0.031484 -0.053457 3.000000
-0.466955 -0.012042 -0.080110 3.000000
-0.466955 0.094804 0.003297 3.000000
-0.466955 -0.003604 0.066989 3.000000
-0.466955 0.084820 0.033870 3.000000
-0.466955 -0.015690 -0.017062 3.000000
-0.466955 -0.086677 -0.040831 3.000000
-0.466955 -0.010545 0.000550 3.000000
-0.466955 0.021929 0.066239 3.000000
-0.466955 -0.058587 -0.006962 3.000000
-0.466955 -0.019721 0.060464 3.000000
-0.466955 -0.000897 0.046523 3.000000
-0.466955 -0.063333 0.028291 3.000000
-0.466955 -0.037562 0.086237 3.000000
-0.466955 -0.079654 0.032758 3.000000
-0.466955 0.030777 0.077422 3.000000
-0.466955 0.077436 -0.062942 3.000000
-0.466955 -0.010395 0.060786 3.000000
-0.466955 0.022141 0.046974 3.000000
-0.466955 0.064077 -0.013122 3.000000
-0.466955 0.073395 0.045049 3.000000
-0.466955 -0.033790 0.088414 3.000000
-0.466955 -0.070856 0.016165 3.000000
-0.466955 0.015969 0.056317 3.000000
-0.466955 0.046721 0.035828 3.000000
-0.466955 0.070154 0.047878 3.000000
-0.466955 -0.089428 -0.006472 3.000000
-0.466955 -0.019620 -0.018408 3.000000
-0.466955 -0.002879 0.031875 3.000000
-0.466955 -0.018458 -0.048646 3.000000
-0.466955 -0.043479 -0.003725 3.000000
-0.466955 -0.063426 0.055748 3.000000
-0.466955 0.059596 -0.059075 3.000000
-0.466955 0.041704 -0.006716 3.000000
-0.466955 0.054450 -0.076408 3.000000
-0.466955 -0.059907 0.016504 3.000000
-0.466955 0.048153 0.036190 3.000000
-0.466955 0.025678 -0.008439 3.000000
-0.466955 -0.037033 0.017289 3.000000
-0.466955 0.073844 -0.003552 3.000000
-0.466955 -0.043552 0.052811 3.000000
-0.466955 0.024525 0.060576 3.000000
-0.466955 -0.009094 0.023558 3.000000
-0.466955 -0.041142 -0.005657 3.000000
-0.466955 -0.077820 0.011309 3.000000
-0.466955 -0.028122 0.080650 3.000000
-0.466955 0.013851 -0.003551 3.000000
-0.466955 0.093996 0.013296 3.000000
-0.466955 -0.058167 0.068322 3.000000
-0.466955 0.061709 0.078235 3.000000
-0.466955 -0.059131 0.034619 3.000000
-0.466955 -0.089928 0.041757 3.000000
-0.466955 0.084847 0.040317 3.000000
-0.466955 -0.004891 0.064783 3.000000
-0.466955 -0.043862 -0.068845 3.000000
-0.466955 0.043934 0.062491 3.000000
-0.466955 -0.014255 -0.031511 3.000000
-0.466955 0.020685 -0.033297 3.000000
-0.466955 -0.046694 0.002887 3.000000
-0.466955 0.014259 -0.093619 3.000000
-0.466955 -0.076327 -0.000798 3.000000
-0.466955 -0.071465 -0.006343 3.000000
-0.466955 -0.021181 -0.047784 3.000000
-0.466955 0.001666 -0.012171 3.000000
-0.466955 -0.002819 0.089275 3.000000
-0.466955 -0.058164 -0.054549 3.000000
-0.466955 -0.067409 -0.029091 3.000000
-0.466955 0.047527 0.031132 3.000000
-0.466955 -0.024028 -0.092788 3.000000
-0.466955 0.023152 -0.075859 3.000000
-0.466955 -0.075078 0.060933 3.000000
-0.466955 -0.021967 0.019691 3.000000
-0.466955 -0.064715 0.001495 3.000000
-0.466955 0.095897 0.027803 3.000000
-0.466955 -0.048358 -0.016282 3.000000
-0.466955 0.080849 -0.005668 3.000000
-0.466955 -0.042819 0.007840 3.000000
-0.466955 -0.029534 -0.079491 3.000000
-0.466955 -0.018165 -0.018972 3.000000
-0.466955 0.000227 0.068779 3.000000
-0.466955 0.070527 -0.024039 3.000000
-0.466955 -0.036988 0.007889 3.000000
-0.466955 -0.027558 -0.018907 3.000000
-0.466955 0.047955 -0.049118 3.000000
-0.466955 0.074196 0.009765 3.000000
-0.466955 -0.037694 -0.046782 3.000000
-0.466955 -0.029112 -0.028746 3.000000
-0.466955 0.072282 -0.008445 3.000000
-0.466955 0.046239 0.030254 3.000000
-0.466955 -0.036915 -0.019440 3.000000
-0.466955 0.028024 -0.091932 3.000000
-0.466955 -0.017064 -0.043371 3.000000
-0.466955 0.056726 0.072044 3.000000
-0.466955 -0.059420 0.056658 3.000000
-0.466955 0.057815 0.028273 3.000000
-0.466955 0.086600 -0.022722 3.000000
-0.466955 0.085434 -0.007313 3.000000
-0.466955 0.016985 0.043171 3.000000
-0.466955 0.096071 -0.025166 3.000000
-0.466955 0.054848 -0.081339 3.000000
-0.466955 0.025085 -0.080731 3.000000
-0.466955 -0.074087 -0.046968 3.000000
-0.466955 -0.053283 0.049296 3.000000
-0.466955 0.022862 -0.034557 3.000000
-0.466955 -0.072660 0.057247 3.000000
-0.466955 0.052901 -0.062753 3.000000
-0.466955 -0.024378 0.000761 3.000000
-0.466955 0.025953 0.034589 3.000000
-0.466955 -0.051800 -0.054836 3.000000
-0.466955 0.069721 -0.053092 3.000000
-0.466955 -0.021384 -0.082633 3.000000
-0.466955 -0.015130 0.079765 3.000000
-0.466955 -0.041059 -0.059968 3.000000
-0.466955 0.084752 0.011360 3.000000
-0.466955 0.046357 -0.074380 3.000000
-0.466955 0.041340 0.066313 3.000000
-0.466955 -0.037493 -0.038976 3.000000
-0.466955 -0.066793 -0.072855 3.000000
-0.466955 0.085203 0.008151 3.000000
-0.466955 0.061514 0.071712 3.000000
-0.466955 -0.029971 0.049611 3.000000
-0.466955 0.007875 0.087472 3.000000
-0.466955 0.020903 0.045587 3.000000
-0.466955 -0.063659 0.042529 3.000000
-0.466955 0.010902 -0.048197 3.000000
-0.466955 -0.076668 0.055808 3.000000
-0.466955 -0.067652 -0.018597 3.000000
-0.466955 -0.008646 -0.002734 3.000000
-0.466955 0.074937 0.056580 3.000000
-0.466955 -0.017369 0.010629 3.000000
-0.466955 -0.018632 0.013207 3.000000
-0.466955 0.047833 0.068413 3.000000
-0.466955 0.039137 -0.012869 3.000000
-0.466955 0.032405 0.087217 3.000000
-0.466955 -0.013331 0.019484 3.000000
-0.466955 0.008553 0.058078 3.000000
-0.466955 -0.019409 -0.033412 3.000000
-0.466955 -0.050681 0.060764 3.000000
-0.466955 -0.035019 -0.002099 3.000000
-0.466955 -0.027895 0.032335 3.000000
-0.466955 -0.013515 0.070751 3.000000
-0.466955 -0.006211 -0.028239 3.000000
-0.466955 0.013038 0.024562 3.000000
-0.466955 0.083222 0.022329 3.000000
-0.466955 -0.071364 0.061046 3.000000
-0.466955 0.086040 0.032715 3.000000
-0.466955 -0.064033 0.075335 3.000000
-0.466955 -0.042891 0.036771 3.000000
-0.466955 -0.040139 0.082407 3.000000
-0.466955 -0.003802 0.080848 3.000000
-0.466955 0.009382 0.027489 3.000000
-0.466955 0.077966 0.038637 3.000000
-0.466955 0.011449 0.020490 3.000000
-0.466955 0.016390 0.034508 3.000000
-0.466955 -0.009494 0.021102 3.000000
-0.466955 0.057539 0.004024 3.000000
-0.466955 -0.007107 0.007648 3.000000
-0.466955 0.040057 0.032474 3.000000
-0.466955 0.069527 -0.017408 3.000000
-0.466955 -0.007477 0.024787 3.000000
-0.466955 -0.049677 -0.085859 3.000000
-0.466955 -0.083312 -0.003571 3.000000
-0.466955 0.029530 -0.089348 3.000000
-0.466955 -0.015904 -0.051568 3.000000
-0.466955 0.058043 0.032691 3.000000
-0.466955 0.011151 -0.049974 3.000000
-0.466955 -0.043935 0.071872 3.000000
-0.466955 0.078967 -0.056428 3.000000
-0.466955 0.054951 0.006794 3.000000
-0.466955 -0.001096 0.086851 3.000000
-0.466955 -0.004098 -0.032300 3.000000
-0.466955 0.057896 0.078358 3.000000
-0.466955 0.082998 -0.029663 3.000000
-0.466955 0.083162 0.034017 3.000000
-0.466955 -0.066568 0.022438 3.000000
-0.466955 -0.038981 -0.069671 3.000000
-0.466955 0.090454 -0.031269 3.000000
-0.466955 0.007714 0.093069 3.000000
-0.466955 0.038173 0.032536 3.000000
-0.466955 -0.027628 -0.079605 3.000000
-0.466955 -0.099361 -0.008174 3.000000
-0.466955 0.000239 0.034656 3.000000
-0.466955 0.086543 0.039968 3.000000
-0.466955 -0.031393 0.063663 3.000000
-0.466955 -0.018485 0.097785 3.000000
-0.466955 0.027793 0.036905 3.000000
-0.466955 -0.072057 0.007922 3.000000
-0.466955 -0.016158 -0.012064 3.000000
-0.466955 -0.028744 -0.052829 3.000000
-0.466955 -0.010952 0.037612 3.000000
-0.466955 0.039217 0.014489 3.000000
-0.466955 -0.026197 0.076253 3.000000
-0.466955 0.022165 0.025228 3.000000
-0.466955 0.096954 -0.005053 3.000000
-0.466955 -0.048986 0.004429 3.000000
-0.466955 -0.018790 -0.016724 3.000000
-0.466955 -0.056496 0.057384 3.000000
-0.466955 0.043948 0.035030 3.000000
-0.466955 0.026441 -0.059567 3.000000
-0.466955 -0.024213 -0.056526 3.000000
-0.466955 -0.068495 0.072427 3.000000
-0.466955 0.057409 0.018733 3.000000
-0.466955 0.018753 -0.062125 3.000000
-0.466955 -0.076176 -0.011354 3.000000
-0.466955 0.041544 0.069416 3.000000
-0.466955 0.048880 0.074091 3.000000
-0.466955 -0.015116 0.035694 3.000000
-0.466955 0.022477 0.008512 3.000000
-0.466955 0.005721 -0.057579 3.000000
-0.466955 -0.031565 -0.002843 3.000000
-0.466955 0.079476 -0.014321 3.000000
-0.466955 0.024576 0.087661 3.000000
-0.466955 -0.057678 -0.030430 3.000000
-0.466955 -0.001797 0.027152 3.000000
-0.466955 -0.011815 0.049240 3.000000
-0.466955 0.093597 -0.024801 3.000000
-0.466955 0.019372 -0.016276 3.000000
-0.466955 0.091135 0.007676 3.000000
-0.466955 -0.033381 0.006954 3.000000
-0.466955 -0.083205 0.015849 3.000000
-0.466955 0.036311 -0.075546 3.000000
-0.466955 -0.004233 -0.055212 3.000000
-0.466955 -0.007306 -0.054347 3.000000
-0.466955 -0.004760 0.023222 3.000000
-0.466955 -0.003966 0.017353 3.000000
-0.466955 -0.050922 0.027592 3.000000
-0.466955 -0.003007 -0.089341 3.000000
-0.466955 0.042687 -0.050251 3.000000
-0.466955 0.039730 0.000107 3.000000
-0.466955 -0.023374 -0.032094 3.000000
-0.466955 -0.021956 -0.095232 3.000000
-0.466955 -0.036362 -0.032496 3.000000
-0.466955 0.053434 -0.036634 3.000000
-0.466955 -0.008559 0.061279 3.000000
-0.466955 -0.019271 0.092848 3.000000
-0.466955 -0.013166 0.010847 3.000000
-0.466955 0.090625 -0.003443 3.000000
-0.466955 -0.016236 -0.036106 3.000000
-0.466955 0.063241 0.068581 3.000000
-0.466955 -0.050350 -0.030359 3.000000
-0.466955 0.022056 -0.054387 3.000000
-0.466955 -0.091436 0.004069 3.000000
-0.466955 0.032649 0.051119 3.000000
-0.466955 -0.001226 -0.072409 3.000000
-0.466955 0.027471 0.012956 3.000000
-0.466955 -0.093028 0.004207 3.000000
-0.466955 -0.040430 -0.039915 3.000000
-0.466955 0.049034 -0.012685 3.000000
-0.466955 -0.031975 0.086234 3.000000
-0.466955 0.080343 0.033983 3.000000
-0.466955 0.061571 -0.072812 3.000000
-0.466955 -0.012552 -0.039252 3.000000
-0.466955 -0.041774 -0.052278 3.000000
-0.466955 -0.078137 0.050743 3.000000
-0.466955 0.034081 0.073815 3.000000
-0.466955 -0.046136 -0.005428 3.000000
-0.466955 0.068838 -0.072023 3.000000
-0.466955 0.031011 -0.037048 3.000000
-0.466955 0.013113 -0.064207 3.000000
-0.466955 -0.012413 -0.005427 3.000000
-0.466955 -0.061867 0.008653 3.000000
-0.466955 0.024506 -0.086491 3.000000
-0.466955 -0.001867 0.049713 3.000000
-0.466955 0.009929 -0.018312 3.000000
-0.466955 -0.029524 -0.070486 3.000000
-0.466955 -0.030496 0.033346 3.000000
-0.466955 0.079314 0.036679 3.000000
-0.466955 -0.030283 0.039296 3.000000
-0.466955 -0.037428 -0.060770 3.000000
-0.466955 0.056487 -0.056693 3.000000
-0.466955 -0.011206 0.031455 3.000000
-0.466955 0.006518 -0.073396 3.000000
-0.466955 -0.032133 0.077448 3.000000
-0.466955 -0.094972 0.017861 3.000000
-0.466955 -0.029062 0.068662 3.000000
-0.466955 -0.004228 -0.042816 3.000000
-0.466955 0.028177 0.075950 3.000000
-0.466955 0.018107 -0.002338 3.000000
-0.466955 0.066415 0.037184 3.000000
-0.466955 -0.036547 0.033354 3.000000
-0.466955 0.082735 -0.014157 3.000000
-0.466955 -0.036462 0.062202 3.000000
-0.466955 -0.035532 -0.035454 3.000000
-0.466955 0.077212 0.055357 3.000000
-0.466955 -0.035610 0.030832 3.000000
-0.466955 0.056158 0.017323 3.000000
-0.466955 0.030047 0.003248 3.000000
-0.466955 0.053136 -0.007958 3.000000
-0.466955 0.008080 0.085421 3.000000
-0.466955 -0.036244 -0.057372 3.000000
-0.466955 0.049089 -0.069723 3.000000
-0.466955 0.001668 -0.096105 3.000000
-0.466955 0.041927 0.045714 3.000000
-0.466955 0.068600 0.045130 3.000000
-0.466955 0.030099 0.080263 3.000000
-0.466955 0.023001 0.086014 3.000000
-0.466955 0.098475 -0.016509 3.000000
-0.466955 -0.053547 -0.028771 3.000000
-0.466955 0.016492 0.003433 3.000000
-0.466955 -0.045372 -0.055774 3.000000
-0.466955 0.087243 0.026201 3.000000
-0.466955 0.010013 -0.085538 3.000000
-0.466955 -0.006061 -0.020723 3.000000
-0.466955 -0.001463 -0.092653 3.000000
-0.466955 0.076247 -0.041425 3.000000
-0.466955 -0.089265 -0.030359 3.000000
-0.466955 -0.038612 -0.055556 3.000000
-0.466955 0.074024 0.052564 3.000000
-0.466955 0.042379 -0.056561 3.000000
-0.466955 0.073054 -0.022423 3.000000
-0.466955 0.068686 -0.044758 3.000000
-0.466955 -0.034884 -0.073699 3.000000
-0.466955 0.061399 0.065855 3.000000
-0.466955 0.047076 0.015359 3.000000
-0.466955 -0.051197 0.078377 3.000000
-0.466955 0.004020 0.048324 3.000000
-0.466955 -0.080459 -0.019653 3.000000
-0.466955 0.017393 -0.067362 3.000000
-0.466955 -0.054371 0.006542 3.000000
-0.466955 0.003330 -0.004664 3.000000
-0.466955 0.016451 0.057631 3.000000
-0.466955 -0.029434 -0.013510 3.000000
-0.466955 0.071029 -0.005713 3.000000
-0.466955 -0.061070 0.050037 3.000000
-0.466955 0.089831 0.043862 3.000000
-0.466955 0.028441 -0.073797 3.000000
-0.466955 0.029038 0.041806 3.000000
-0.466955 0.076235 0.020768 3.000000
-0.466955 0.034410 -0.002772 3.000000
-0.466955 -0.066820 -0.049614 3.000000
-0.466955 -0.074291 -0.061129 3.000000
-0.466955 0.006859 0.048067 3.000000
-0.466955 -0.057074 0.051630 3.000000
-0.466955 0.023030 -0.091900 3.000000
-0.466955 -0.020405 0.021253 3.000000
-0.466955 0.061696 -0.002951 3.000000
-0.466955 -0.019675 0.036082 3.000000
-0.466955 -0.026676 0.038331 3.000000
-0.466955 0.074849 0.017031 3.000000
-0.466955 -0.001651 -0.061876 3.000000
-0.466955 0.041680 -0.026724 3.000000
-0.466955 -0.082449 0.020825 3.000000
-0.466955 -0.084659 -0.052428 3.000000
-0.466955 -0.052107 0.005516 3.000000
-0.466955 -0.015019 -0.095830 3.000000
-0.466955 -0.014080 -0.082643 3.000000
-0.466955 -0.039195 -0.080407 3.000000
-0.466955 0.027533 0.086708 3.000000
-0.466955 -0.050473 -0.009319 3.000000
-0.466955 0.037769 -0.064473 3.000000
-0.466955 -0.075908 -0.058388 3.000000
-0.466955 -0.080867 -0.002122 3.000000
-0.466955 -0.052047 -0.082448 3.000000
-0.466955 0.001252 0.020522 3.000000
-0.466955 -0.054716 -0.021123 3.000000
-0.466955 -0.029233 -0.007922 3.000000
-0.466955 -0.096428 0.014695 3.000000
-0.466955 -0.046100 0.013627 3.000000
-0.466955 -0.081874 -0.008985 3.000000
-0.466955 -0.061658 -0.054674 3.000000
-0.466955 0.047043 0.023211 3.000000
-0.466955 -0.097497 0.012023 3.000000
-0.466955 -0.027571 0.055190 3.000000
-0.466955 0.014654 -0.068449 3.000000
-0.466955 0.077171 -0.059062 3.000000
-0.466955 -0.003830 0.041928 3.000000
-0.466955 -0.018121 0.038965 3.000000
-0.466955 -0.030076 0.014738 3.000000
-0.466955 -0.011967 0.053547 3.000000
-0.466955 -0.038244 0.027946 3.000000
-0.466955 0.067789 0.000890 3.000000
-0.466955 0.085674 -0.024247 3.000000
-0.466955 0.024052 0.057740 3.000000
-0.466955 -0.007975 0.092715 3.000000
-0.466955 -0.018985 -0.059833 3.000000
-0.466955 0.087865 0.028696 3.000000
-0.466955 0.050935 -0.058150 3.000000
-0.466955 -0.074543 0.050046 3.000000
-0.466955 0.035351 0.067153 3.000000
-0.466955 0.059832 0.017437 3.000000
-0.466955 -0.005556 -0.061925 3.000000
-0.466955 0.069184 -0.046389 3.000000
-0.466955 -0.055299 -0.051222 3.000000
-0.466955 -0.072863 -0.049329 3.000000
-0.466955 0.037287 -0.002827 3.000000
-0.466955 0.060167 -0.073861 3.000000
-0.466955 0.072595 -0.061571 3.000000
-0.466955 0.005879 -0.044421 3.000000
-0.466955 -0.033321 0.016346 3.000000
-0.466955 -0.024663 -0.074478 3.000000
-0.466955 -0.057567 -0.005567 3.000000
-0.466955 -0.073551 -0.040961 3.000000
-0.466955 -0.042773 0.001009 3.000000
-0.466955 -0.028300 0.028400 3.000000
-0.466955 -0.048689 0.007378 3.000000
-0.466955 -0.030875 -0.091248 3.000000
-0.466955 -0.007308 0.041591 3.000000
-0.466955 0.039896 0.027180 3.000000
-0.466955 -0.029967 -0.041449 3.000000
-0.466955 0.072346 -0.002991 3.000000
-0.466955 0.004661 -0.002246 3.000000
-0.466955 0.077923 -0.003752 3.000000
-0.466955 -0.060171 0.000973 3.000000
-0.466955 -0.088595 -0.014946 3.000000
-0.466955 0.033459 -0.085833 3.000000
-0.466955 -0.030599 -0.006815 3.000000
-0.466955 0.009132 -0.038048 3.000000
-0.466955 0.076814 -0.046623 3.000000
-0.466955 0.002195 -0.033245 3.000000
-0.466955 0.039719 -0.022733 3.000000
-0.466955 0.014914 -0.006349 3.000000
-0.466955 0.059440 0.021854 3.000000
-0.466955 -0.031456 -0.082174 3.000000
-0.466955 0.081077 0.032230 3.000000
-0.466955 0.073450 -0.041093 3.000000
-0.466955 -0.054367 -0.038722 3.000000
-0.466955 0.043581 -0.066039 3.000000
-0.466955 0.044342 0.069298 3.000000
-0.466955 -0.000132 -0.056644 3.000000
-0.466955 0.074852 -0.035640 3.000000
-0.466955 0.076788 -0.053173 3.000000
-0.466955 0.044091 0.067752 3.000000
-0.466955 0.035036 -0.053542 3.000000
-0.466955 -0.013672 -0.094317 3.000000
-0.466955 0.036018 0.014112 3.000000
-0.466955 -0.080446 -0.037891 3.000000
-0.466955 -0.035527 -0.014677 3.000000
-0.466955 -0.010271 -0.062257 3.000000
-0.466955 0.059594 -0.021063 3.000000
-0.466955 -0.092180 0.037859 3.000000
-0.466955 -0.058929 -0.044788 3.000000
-0.466955 -0.025627 0.018370 3.000000
-0.466955 0.045240 -0.063514 3.000000
-0.466955 -0.097011 -0.022908 3.000000
-0.466955 -0.027773 0.070239 3.000000
-0.466955 0.007711 0.003607 3.000000
-0.466955 -0.028007 0.056752 3.000000
-0.466955 -0.070333 0.055574 3.000000
-0.466955 -0.058702 0.063582 3.000000
-0.466955 -0.054170 -0.048474 3.000000
-0.466955 -0.020147 0.084430 3.000000
-0.466955 0.079999 0.050378 3.000000
-0.466955 -0.009471 -0.098957 3.000000
-0.466955 0.064712 0.030578 3.000000
-0.466955 -0.000932 0.004618 3.000000
-0.466955 -0.089228 -0.035294 3.000000
-0.466955 -0.087848 0.013936 3.000000
-0.466955 -0.009583 -0.001503 3.000000
-0.466955 0.003939 0.040153 3.000000
-0.466955 -0.037965 0.030542 3.000000
-0.466955 0.089549 0.008222 3.000000
-0.466955 -0.043262 0.012084 3.000000
-0.466955 0.072188 -0.013485 3.000000
-0.466955 -0.028130 0.086166 3.000000
-0.466955 0.026503 0.062687 3.000000
-0.466955 -0.009002 0.038134 3.000000
-0.466955 0.021774 0.044540 3.000000
-0.466955 0.027908 -0.016203 3.000000
-0.466955 0.029338 0.064011 3.000000
-0.466955 -0.068116 -0.069841 3.000000
-0.466955 -0.043765 0.047684 3.000000
-0.466955 0.002408 0.032967 3.000000
-0.466955 0.079114 -0.018189 3.000000
-0.466955 -0.079139 -0.005936 3.000000
-0.466955 0.003120 -0.016354 3.000000
-0.466955 0.022869 -0.068308 3.000000
-0.466955 0.001047 0.032070 3.000000
-0.466955 -0.007300 -0.089376 3.000000
-0.466955 0.054531 0.054073 3.000000
-0.466955 -0.032409 -0.004342 3.000000
-0.466955 -0.040268 -0.061250 3.000000
-0.466955 0.040874 0.006538 3.000000
-0.466955 0.054869 -0.034812 3.000000
-0.466955 -0.035702 0.091886 3.000000
-0.466955 0.008460 -0.012041 3.000000
-0.466955 0.061973 -0.028169 3.000000
-0.466955 -0.011668 0.001892 3.000000
-0.466955 -0.083047 0.040248 3.000000
-0.466955 0.018050 -0.071094 3.000000
-0.466955 -0.022887 -0.084769 3.000000
-0.466955 -0.048914 -0.043363 3.000000
-0.466955 -0.033230 -0.002979 3.000000
-0.466955 -0.065081 0.071968 3.000000
-0.466955 0.046321 -0.036961 3.000000
-0.466955 0.058044 0.066983 3.000000
-0.466955 0.099909 0.001852 3.000000
-0.466955 -0.027576 0.059909 3.000000
-0.466955 -0.054852 0.029388 3.000000
-0.466955 0.051051 0.002125 3.000000
-0.466955 0.029541 0.054686 3.000000
-0.466955 -0.070069 0.041178 3.000000
-0.466955 -0.054211 0.036767 3.000000
-0.466955 0.008374 -0.018545 3.000000
-0.466955 0.054732 0.034235 3.000000
-0.466955 0.010907 0.097791 3.000000
-0.466955 -0.042878 -0.050780 3.000000
-0.466955 -0.025582 0.002201 3.000000
-0.466955 0.015298 0.043950 3.000000
-0.466955 0.076748 -0.031003 3.000000
-0.466955 -0.052645 0.070296 3.000000
-0.466955 0.015917 -0.061015 3.000000
-0.466955 -0.032050 0.083588 3.000000
-0.466955 0.020283 -0.074129 3.000000
-0.466955 -0.092173 0.019394 3.000000
-0.466955 -0.007369 -0.090852 3.000000
-0.466955 0.002329 0.028840 3.000000
-0.466955 -0.058830 0.006117 3.000000
-0.466955 0.049684 0.031167 3.000000
-0.466955 -0.057149 -0.013785 3.000000
-0.466955 -0.060723 -0.048259 3.000000
-0.466955 0.075788 -0.058521 3.000000
-0.466955 0.002959 -0.002281 3.000000
-0.466955 0.070752 -0.002079 3.000000
-0.466955 -0.028291 0.052842 3.000000
-0.466955 -0.003489 -0.035996 3.000000
-0.466955 -0.077684 0.000828 3.000000
-0.466955 0.050238 -0.020535 3.000000
-0.466955 0.080244 0.002378 3.000000
-0.466955 -0.082829 0.011770 3.000000
-0.466955 -0.001451 -0.005217 3.000000
-0.466955 -0.058602 0.004580 3.000000
-0.466955 -0.038082 0.081620 3.000000
-0.466955 -0.076879 -0.053445 3.000000
-0.466955 0.019041 -0.049509 3.000000
-0.466955 -0.043594 -0.046375 3.000000
-0.466955 -0.080215 0.030426 3.000000
-0.466955 -0.045267 0.080168 3.000000
-0.466955 0.032761 0.024997 3.000000
-0.466955 0.022701 0.026840 3.000000
-0.466955 0.009623 0.089455 3.000000
-0.466955 -0.069629 -0.036838 3.000000
-0.466955 0.050262 0.040321 3.000000
-0.466955 0.047708 0.034488 3.000000
-0.466955 0.051583 0.048127 3.000000
-0.466955 -0.062124 -0.026775 3.000000
-0.466955 -0.072581 -0.045848 3.000000
-0.466955 0.082784 0.014180 3.000000
-0.466955 0.031809 -0.009958 3.000000
-0.466955 0.003283 0.095765 3.000000
-0.466955 -0.036567 0.090584 3.000000
-0.466955 0.044710 -0.011514 3.000000
-0.466955 0.038241 -0.062813 3.000000
-0.466955 -0.068859 0.052260 3.000000
-0.466955 0.000862 0.014878 3.000000
-0.466955 0.081008 -0.037278 3.000000
-0.466955 -0.049988 0.047507 3.000000
-0.466955 -0.053854 -0.040196 3.000000
-0.466955 0.017552 -0.094434 3.000000
-0.466955 0.014443 -0.054024 3.000000
-0.466955 0.027390 -0.043023 3.000000
-0.466955 0.063920 -0.034141 3.000000
-0.466955 -0.036751 0.045654 3.000000
-0.466955 0.053670 0.011873 3.000000
-0.466955 0.040305 -0.082052 3.000000
-0.466955 0.012978 0.093693 3.000000
-0.466955 -0.035043 0.037183 3.000000
-0.466955 0.049937 0.079731 3.000000
-0.466955 -0.028956 0.027134 3.000000
-0.466955 -0.051317 0.040547 3.000000
-0.466955 0.022723 -0.010037 3.000000
-0.466955 0.082080 -0.012617 3.000000
-0.466955 0.027711 -0.025821 3.000000
-0.466955 0.074387 -0.021945 3.000000
-0.466955 0.018763 0.032548 3.000000
-0.466955 -0.079066 -0.010995 3.000000
-0.466955 -0.019723 -0.081371 3.000000
-0.466955 -0.031504 0.065138 3.000000
-0.466955 -0.054376 0.071024 3.000000
-0.466955 -0.038660 -0.004794 3.000000
-0.466955 0.058433 -0.053091 3.000000
-0.466955 0.035387 -0.066807 3.000000
-0.466955 -0.038734 0.066938 3.000000
-0.466955 0.027804 -0.069800 3.000000
-0.466955 -0.056914 -0.018318 3.000000
-0.466955 -0.001454 0.091746 3.000000
-0.466955 0.006873 -0.029945 3.000000
-0.466955 0.051685 -0.032540 3.000000
-0.466955 0.051349 0.033300 3.000000
-0.466955 -0.043366 0.075999 3.000000
-0.466955 0.075097 0.000293 3.000000
-0.466955 -0.011011 -0.022134 3.000000
-0.466955 -0.029112 -0.018856 3.000000
-0.466955 0.048032 0.059475 3.000000
-0.466955 0.028092 0.043208 3.000000
-0.466955 0.020008 0.018429 3.000000
-0.466955 -0.070291 -0.063318 3.000000
-0.466955 -0.007824 0.079864 3.000000
-0.466955 -0.078950 0.007922 3.000000
-0.466955 0.078769 0.009719 3.000000
-0.466955 0.010185 0.062495 3.000000
-0.466955 0.027036 0.053695 3.000000
-0.466955 -0.005789 0.076778 3.000000
-0.466955 0.004606 0.042853 3.000000
-0.466955 0.010289 -0.029152 3.000000
-0.466955 0.080727 0.053811 3.000000
-0.466955 -0.047299 0.020234 3.000000
-0.466955 -0.051692 0.073410 3.000000
-0.466955 0.045720 -0.026649 3.000000
-0.466955 0.034768 -0.042896 3.000000
-0.466955 0.067616 -0.050185 3.000000
-0.466955 0.075430 0.036477 3.000000
-0.466955 0.054449 -0.024372 3.000000
-0.466955 -0.015865 -0.044467 3.000000
-0.466955 0.078749 -0.015704 3.000000
-0.466955 -0.076117 -0.036810 3.000000
-0.466955 0.033450 0.016152 3.000000
-0.466955 0.073022 -0.030896 3.000000
-0.466955 0.019202 0.056855 3.000000
-0.466955 0.056014 0.025379 3.000000
-0.466955 0.024196 -0.029574 3.000000
-0.466955 -0.010527 -0.019726 3.000000
-0.466955 -0.051937 -0.067963 3.000000
-0.466955 -0.085174 0.011570 3.000000
-0.466955 0.065711 0.033955 3.000000
-0.466955 -0.032212 -0.018258 3.000000
-0.466955 -0.047966 -0.074785 3.000000
-0.466955 0.022371 -0.028905 3.000000
-0.466955 -0.084272 -0.007120 3.000000
-0.466955 0.044668 0.025624 3.000000
-0.466955 0.022044 0.088921 3.000000
-0.466955 -0.018394 -0.077155 3.000000
-0.466955 0.037131 0.031353 3.000000
-0.466955 -0.082830 -0.009928 3.000000
-0.466955 0.075187 0.044667 3.000000
-0.466955 -0.025227 -0.075852 3.000000
-0.466955 0.008779 -0.027798 3.000000
-0.466955 -0.014087 -0.050637 3.000000
-0.466955 -0.055945 0.073198 3.000000
-0.466955 0.066481 0.047431 3.000000
-0.466955 -0.002339 0.053666 3.000000
-0.466955 0.051686 0.041104 3.000000
-0.466955 0.027744 0.019278 3.000000
-0.466955 -0.063066 -0.003809 3.000000
-0.466955 -0.062051 0.034414 3.000000
-0.466955 -0.081724 -0.000482 3.000000
-0.466955 0.095811 0.020002 3.000000
-0.466955 0.003424 -0.044294 3.000000
-0.466955 0.063688 0.007921 3.000000
-0.466955 0.071229 -0.068518 3.000000
-0.466955 0.032344 0.030691 3.000000
-0.466955 -0.010159 -0.083815 3.000000
-0.466955 0.035557 0.036842 3.000000
-0.466955 0.017814 0.041145 3.000000
-0.466955 -0.007378 0.089862 3.000000
-0.466955 -0.018024 -0.015156 3.000000
-0.466955 -0.020341 0.033887 3.000000
-0.466955 -0.085439 0.051133 3.000000
-0.466955 0.049163 -0.005592 3.000000
-0.466955 -0.026921 0.039753 3.000000
-0.466955 -0.026015 -0.063337 3.000000
-0.466955 0.044663 0.037323 3.000000
-0.466955 0.067234 0.041767 3.000000
-0.466955 -0.095245 0.011885 3.000000
-0.466955 0.078674 -0.031930 3.000000
-0.466955 0.025143 -0.014290 3.000000
-0.466955 0.033127 0.043570 3.000000
-0.466955 -0.054540 -0.006454 3.000000
-0.466955 0.066587 -0.039885 3.000000
-0.466955 -0.001611 0.017356 3.000000
-0.466955 0.014012 -0.000354 3.000000
-0.466955 -0.016949 -0.014212 3.000000
-0.466955 0.058546 -0.045088 3.000000
-0.466955 -0.022110 -0.088439 3.000000
-0.466955 -0.064576 -0.066441 3.000000
-0.466955 -0.039175 -0.046597 3.000000
-0.466955 0.009123 -0.021199 3.000000
-0.466955 0.090230 -0.042869 3.000000
-0.466955 0.020720 -0.054818 3.000000
-0.466955 0.062372 0.059967 3.000000
-0.466955 0.020622 -0.004782 3.000000
-0.466955 0.030599 -0.085745 3.000000
-0.466955 -0.002905 0.010517 3.000000
-0.466955 -0.024557 -0.039338 3.000000
-0.466955 0.061384 0.051930 3.000000
-0.466955 0.041634 0.088575 3.000000
-0.466955 -0.018482 -0.085493 3.000000
-0.466955 0.043974 -0.015836 3.000000
-0.466955 0.012492 0.003489 3.000000
-0.466955 -0.020632 -0.041363 3.000000
-0.466955 0.078132 0.061158 3.000000
-0.466955 0.068752 -0.039298 3.000000
-0.466955 -0.028157 -0.001655 3.000000
-0.466955 0.076526 -0.035832 3.000000
-0.466955 0.038477 0.066678 3.000000
-0.466955 0.064861 -0.030445 3.000000
-0.466955 -0.009481 0.031456 3.000000
-0.466955 0.094728 -0.030618 3.000000
-0.466955 0.065031 -0.010925 3.000000
-0.466955 0.046568 0.084429 3.000000
-0.466955 0.001418 0.077151 3.000000
-0.466955 -0.040364 -0.081689 3.000000
-0.466955 0.069178 0.058697 3.000000
-0.466955 -0.006877 0.055722 3.000000
-0.466955 0.003502 -0.051891 3.000000
-0.466955 -0.011786 -0.025231 3.000000
-0.466955 -0.090645 -0.007510 3.000000
-0.466955 -0.063897 -0.029508 3.000000
-0.466955 -0.073021 0.033461 3.000000
-0.466955 0.060573 0.034084 3.000000
-0.466955 -0.023150 0.002254 3.000000
-0.466955 -0.045989 -0.082887 3.000000
-0.466955 0.066473 0.001995 3.000000
-0.466955 0.039239 0.083366 3.000000
-0.466955 0.077023 0.051740 3.000000
-0.466955 0.094143 -0.016872 3.000000
-0.466955 0.042962 0.030849 3.000000
-0.466955 -0.041186 0.032913 3.000000
-0.466955 0.019480 0.041177 3.000000
-0.466955 0.074742 0.065712 3.000000
-0.466955 -0.046974 -0.015362 3.000000
-0.466955 -0.025479 -0.005886 3.000000
-0.466955 0.084858 0.001562 3.000000
-0.466955 -0.061867 -0.050274 3.000000
-0.466955 -0.054443 -0.017891 3.000000
-0.466955 -0.092972 -0.005072 3.000000
-0.466955 -0.032789 -0.086864 3.000000
-0.466955 0.005944 0.089674 3.000000
-0.466955 -0.006750 -0.076030 3.000000
-0.466955 0.046511 0.044785 3.000000
-0.466955 0.004714 -0.027344 3.000000
-0.466955 0.033460 0.036417 3.000000
-0.466955 0.037744 0.076049 3.000000
-0.466955 -0.004036 0.014375 3.000000
-0.466955 -0.024790 0.050625 3.000000
-0.466955 0.031589 -0.046191 3.000000
-0.466955 -0.041210 0.049594 3.000000
-0.466955 0.071401 -0.022703 3.000000
-0.466955 -0.007758 0.023124 3.000000
-0.466955 -0.049965 0.086291 3.000000
-0.466955 0.017076 -0.014754 3.000000
-0.466955 -0.002069 -0.006427 3.000000
-0.466955 0.018948 -0.051100 3.000000
-0.466955 0.014017 -0.039736 3.000000
-0.466955 -0.031269 0.009106 3.000000
-0.466955 0.032964 0.092567 3.000000
-0.466955 -0.089407 0.034769 3.000000
-0.466955 -0.045102 0.025248 3.000000
-0.466955 -0.015519 0.013121 3.000000
-0.466955 -0.076868 -0.026252 3.000000
-0.466955 0.091362 0.004595 3.000000
-0.466955 -0.086055 -0.014369 3.000000
-0.466955 0.025181 0.091018 3.000000
-0.466955 0.018170 0.053092 3.000000
-0.466955 0.051634 0.059888 3.000000
-0.466955 0.034565 -0.017457 3.000000
-0.466955 -0.024913 -0.094152 3.000000
-0.466955 -0.075613 0.045037 3.000000
-0.466955 -0.049389 -0.025718 3.000000
-0.466955 0.029921 0.033846 3.000000
-0.466955 -0.000285 -0.051390 3.000000
-0.466955 -0.085255 -0.031485 3.000000
-0.466955 -0.034642 -0.061747 3.000000
-0.466955 0.094392 0.000781 3.000000
-0.466955 -0.049923 -0.019190 3.000000
-0.466955 0.032266 0.057150 3.000000
-0.466955 -0.068206 0.026959 3.000000
-0.466955 -0.094496 -0.030068 3.000000
-0.466955 0.066729 -0.059403 3.000000
-0.466955 -0.068339 0.040844 3.000000
-0.466955 -0.020378 0.051235 3.000000
-0.466955 -0.012285 -0.013788 3.000000
-0.466955 -0.091168 0.034516 3.000000
-0.466955 0.003934 0.050153 3.000000
-0.466955 -0.048665 0.031642 3.000000
-0.466955 -0.081190 -0.023202 3.000000
-0.466955 0.062793 -0.045224 3.000000
-0.466955 -0.056988 0.008406 3.000000
-0.466955 0.052266 -0.000512 3.000000
-0.466955 0.026031 -0.034098 3.000000
-0.466955 0.041299 -0.085746 3.000000
-0.466955 -0.083250 -0.016097 3.000000
-0.466955 -0.003724 -0.079350 3.000000
-0.466955 -0.076396 0.019584 3.000000
-0.466955 -0.034614 0.033502 3.000000
-0.466955 0.039526 -0.039268 3.000000
-0.466955 0.017827 0.071438 3.000000
-0.466955 -0.011702 -0.072970 3.000000
-0.466955 0.000849 0.046462 3.000000
-0.466955 -0.000981 -0.084112 3.000000
-0.466955 -0.032018 0.091777 3.000000
-0.466955 -0.046854 0.070466 3.000000
-0.466955 0.011250 -0.005429 3.000000
-0.466955 0.000148 0.021681 3.000000
-0.466955 0.089843 -0.012444 3.000000
-0.466955 0.045787 -0.018488 3.000000
-0.466955 -0.063020 0.069735 3.000000
-0.466955 -0.024481 0.065933 3.000000
-0.466955 -0.028722 -0.036981 3.000000
-0.466955 0.070226 -0.029410 3.000000
-0.466955 -0.028714 0.038819 3.000000
-0.466955 0.003460 0.093388 3.000000
-0.466955 0.010921 0.018709 3.000000
-0.466955 0.053387 -0.003508 3.000000
-0.466955 0.021839 -0.080585 3.000000
-0.466955 -0.055795 0.065479 3.000000
-0.466955 0.064855 -0.057786 3.000000
-0.466955 0.065152 -0.035592 3.000000
-0.466955 0.029161 -0.066445 3.000000
-0.466955 0.037032 -0.069860 3.000000
-0.466955 0.037143 0.033920 3.000000
-0.466955 0.011547 -0.023511 3.000000
-0.466955 0.057535 -0.024896 3.000000
-0.466955 -0.034744 -0.084226 3.000000
-0.466955 0.069221 -0.024409 3.000000
-0.466955 -0.063662 -0.014053 3.000000
-0.466955 0.011669 0.010772 3.000000
-0.466955 0.036075 -0.088064 3.000000
-0.466955 0.055184 0.040350 3.000000
-0.466955 -0.013723 0.065185 3.000000
-0.466955 -0.034114 0.050257 3.000000
-0.466955 -0.020607 0.068200 3.000000
-0.466955 -0.040659 -0.042407 3.000000
-0.466955 -0.018430 -0.028692 3.000000
-0.466955 0.089130 0.014895 3.000000
-0.466955 -0.072764 -0.007932 3.000000
-0.466955 -0.034431 -0.018309 3.000000
-0.466955 -0.034994 0.085503 3.000000
-0.466955 0.009291 0.045138 3.000000
-0.466955 0.024319 -0.032562 3.000000
-0.466955 -0.068452 -0.064645 3.000000
-0.466955 -0.097105 -0.018734 3.000000
-0.466955 -0.016185 -0.068674 3.000000
-0.466955 -0.063157 0.035625 3.000000
-0.466955 -0.072046 0.055563 3.000000
-0.466955 -0.054636 -0.065317 3.000000
-0.466955 0.010664 -0.066717 3.000000
-0.466955 0.026283 0.021699 3.000000
-0.466955 -0.003282 -0.087962 3.000000
-0.466955 -0.015660 0.055616 3.000000
-0.466955 0.023916 0.022334 3.000000
-0.466955 -0.084992 -0.026426 3.000000
-0.466955 0.057810 -0.039635 3.000000
-0.466955 -0.014166 -0.036181 3.000000
-0.466955 -0.041687 0.082891 3.000000
-0.466955 0.013239 -0.075968 3.000000
-0.466955 0.036775 0.074680 3.000000
-0.466955 0.055376 -0.018935 3.000000
-0.466955 0.039804 0.040520 3.000000
-0.466955 0.050593 0.058572 3.000000
-0.466955 -0.025964 0.031453 3.000000
-0.466955 0.055024 0.060330 3.000000
-0.466955 -0.017751 -0.040171 3.000000
-0.466955 0.092541 0.007935 3.000000
-0.466955 -0.018650 0.095636 3.000000
-0.466955 -0.011400 -0.023490 3.000000
-0.466955 0.020168 -0.010961 3.000000
-0.466955 -0.000765 0.067685 3.000000
-0.466955 0.011799 -0.086073 3.000000
-0.466955 0.069526 -0.006539 3.000000
-0.466955 -0.083443 -0.028816 3.000000
-0.466955 0.062803 0.026502 3.000000
-0.466955 -0.092134 0.002860 3.000000
-0.466955 0.046442 -0.004806 3.000000
-0.466955 0.024520 0.016159 3.000000
-0.466955 -0.008807 -0.073538 3.000000
-0.466955 -0.060253 0.027648 3.000000
-0.466955 0.042854 0.077375 3.000000
-0.466955 -0.038364 0.057342 3.000000
-0.466955 0.018602 0.069979 3.000000
-0.466955 0.014661 0.011296 3.000000
-0.466955 -0.046333 -0.041184 3.000000
-0.466955 0.095806 0.026393 3.000000
-0.466955 -0.085426 -0.029969 3.000000
-0.466955 0.003207 -0.094648 3.000000
-0.466955 -0.032714 0.056136 3.000000
-0.466955 0.035679 0.004200 3.000000
-0.466955 -0.017161 -0.084468 3.000000
-0.466955 0.059837 0.048689 3.000000
-0.466955 0.056216 0.012621 3.000000
-0.466955 0.089820 0.002550 3.000000
-0.466955 0.015198 -0.012478 3.000000
-0.466955 0.047535 -0.040015 3.000000
-0.466955 -0.055608 0.081766 3.000000
-0.466955 0.003300 -0.017816 3.000000
-0.466955 0.059081 0.060668 3.000000
-0.466955 -0.031997 -0.040109 3.000000
-0.466955 -0.033625 0.038166 3.000000
-0.466955 -0.024318 -0.070685 3.000000
-0.466955 -0.057004 -0.032461 3.000000
-0.466955 0.050812 -0.070244 3.000000
-0.466955 0.089307 0.034139 3.000000
-0.466955 0.054784 0.074245 3.000000
-0.466955 0.049084 0.058373 3.000000
-0.466955 -0.078648 -0.009383 3.000000
-0.466955 0.019784 -0.006052 3.000000
-0.466955 -0.027847 0.076310 3.000000
-0.466955 -0.031202 0.089036 3.000000
-0.466955 0.026538 -0.010624 3.000000
-0.466955 -0.055616 0.043418 3.000000
-0.466955 0.014586 0.049828 3.000000
-0.466955 0.013057 0.067720 3.000000
-0.466955 -0.052189 -0.013315 3.000000
-0.466955 0.007288 -0.010921 3.000000
-0.466955 0.082385 -0.027200 3.000000
-0.466955 0.018433 -0.066238 3.000000
-0.466955 -0.035095 -0.090271 3.000000
-0.466955 0.017857 0.046210 3.000000
-0.466955 0.085598 -0.001789 3.000000
-0.466955 -0.047616 0.061366 3.000000
-0.466955 -0.089353 0.012884 3.000000
-0.466955 -0.099422 0.004834 3.000000
-0.466955 0.026931 0.070653 3.000000
-0.466955 -0.018063 0.078285 3.000000
-0.466955 0.033629 0.046642 3.000000
-0.466955 -0.027738 -0.038220 3.000000
-0.466955 0.001308 0.073319 3.000000
-0.466955 0.023102 0.016245 3.000000
-0.466955 -0.056486 0.005730 3.000000
-0.466955 -0.011798 0.014648 3.000000
-0.466955 -0.031495 0.057049 3.000000
-0.466955 0.036604 -0.086551 3.000000
-0.466955 -0.030253 0.028044 3.000000
-0.466955 0.041429 0.049299 3.000000
-0.466955 0.080650 -0.048935 3.000000
-0.466955 0.019800 0.003311 3.000000
-0.466955 -0.016954 0.097657 3.000000
-0.466955 -0.097582 -0.002744 3.000000
-0.466955 0.027018 0.091550 3.000000
-0.466955 -0.013950 0.063339 3.000000
-0.466955 -0.055802 0.013580 3.000000
-0.466955 -0.049326 0.059937 3.000000
-0.466955 0.047901 0.073076 3.000000
-0.466955 -0.038452 -0.023033 3.000000
-0.466955 -0.003860 0.015882 3.000000
-0.466955 -0.023225 0.004053 3.000000
-0.466955 0.058861 -0.013389 3.000000
-0.466955 0.048240 -0.030518 3.000000
-0.466955 -0.058171 0.024544 3.000000
-0.466955 -0.001938 0.099102 3.000000
-0.466955 -0.012504 -0.095276 3.000000
-0.466955 0.054851 -0.060084 3.000000
-0.466955 0.078018 0.020340 3.000000
-0.466955 -0.053352 0.073481 3.000000
-0.466955 -0.064018 -0.033289 3.000000
-0.466955 0.056430 -0.021460 3.000000
-0.466955 0.044010 0.016600 3.000000
-0.466955 -0.025747 0.080685 3.000000
-0.466955 0.058900 -0.057847 3.000000
-0.466955 -0.043319 0.083769 3.000000
-0.466955 -0.011209 -0.042510 3.000000
-0.466955 -0.022038 0.081434 3.000000
-0.466955 0.044525 0.072285 3.000000
-0.466955 0.081369 -0.024444 3.000000
-0.466955 0.021577 0.096151 3.000000
-0.466955 -0.078194 0.045412 3.000000
-0.466955 -0.034431 -0.023844 3.000000
-0.466955 0.033222 -0.058161 3.000000
-0.466955 -0.077616 -0.054675 3.000000
-0.466955 0.005624 -0.082070 3.000000
-0.466955 -0.028262 -0.093869 3.000000
-0.466955 0.045109 0.074873 3.000000
-0.466955 -0.042530 0.068800 3.000000
-0.466955 0.032224 -0.062990 3.000000
-0.466955 0.074374 -0.029890 3.000000
-0.466955 0.039484 0.025398 3.000000
-0.466955 0.023138 -0.069618 3.000000
-0.466955 -0.066363 0.018762 3.000000
-0.466955 -0.074407 0.059258 3.000000
-0.466955 -0.000248 -0.022516 3.000000
-0.466955 -0.091392 -0.023029 3.000000
-0.466955 -0.074352 0.045629 3.000000
-0.466955 0.045339 0.007817 3.000000
-0.466955 -0.049884 -0.027113 3.000000
-0.466955 -0.043000 -0.064464 3.000000
-0.466955 -0.083951 0.020312 3.000000
-0.466955 -0.069401 -0.002693 3.000000
-0.466955 -0.024111 -0.030503 3.000000
-0.466955 0.012291 0.001465 3.000000
-0.466955 0.061275 0.048820 3.000000
-0.466955 0.055153 -0.004341 3.000000
-0.466955 -0.025658 -0.088529 3.000000
-0.466955 -0.032273 -0.014806 3.000000
-0.466955 0.027900 0.055149 3.000000
-0.466955 -0.047947 0.055106 3.000000
-0.466955 0.018537 0.027729 3.000000
-0.466955 -0.017006 0.079510 3.000000
-0.466955 -0.054413 0.001138 3.000000
-0.466955 -0.068336 -0.004827 3.000000
-0.466955 -0.023776 -0.034203 3.000000
-0.466955 0.094528 0.024264 3.000000
-0.466955 0.013460 -0.027936 3.000000
-0.466955 0.057784 -0.007840 3.000000
-0.466955 -0.045101 0.047339 3.000000
-0.466955 0.068941 -0.050851 3.000000
-0.466955 -0.022087 -0.023342 3.000000
-0.466955 -0.015593 0.058246 3.000000
-0.466955 0.068380 0.065970 3.000000
-0.466955 0.005376 -0.074473 3.000000
-0.466955 -0.024701 0.017183 3.000000
-0.466955 -0.029103 -0.026855 3.000000
-0.466955 0.081792 -0.009433 3.000000
-0.466955 -0.066079 -0.014037 3.000000
-0.466955 -0.052667 -0.052065 3.000000
-0.466955 -0.061385 0.007238 3.000000
-0.466955 0.018454 -0.044064 3.000000
-0.466955 0.008630 -0.045989 3.000000
-0.466955 -0.004450 0.030732 3.000000
-0.466955 0.093162 -0.019759 3.000000
-0.466955 0.004126 -0.025724 3.000000
-0.466955 -0.023755 -0.063030 3.000000
-0.466955 -0.047571 -0.032776 3.000000
-0.466955 -0.048779 -0.048067 3.000000
-0.466955 -0.044002 -0.000243 3.000000
-0.466955 -0.001496 0.014045 3.000000
-0.466955 0.098213 0.018730 3.000000
-0.466955 0.015949 -0.043395 3.000000
-0.466955 -0.066237 -0.047666 3.000000
-0.466955 -0.012905 -0.057499 3.000000
-0.466955 0.009039 -0.061383 3.000000
-0.466955 -0.017840 -0.078408 3.000000
-0.466955 0.030892 0.056048 3.000000
-0.466955 -0.036142 0.035845 3.000000
-0.466955 0.016435 -0.026361 3.000000
-0.466955 0.081788 -0.028738 3.000000
-0.466955 -0.057375 -0.070944 3.000000
-0.466955 -0.011815 -0.069481 3.000000
-0.466955 -0.031213 0.080570 3.000000
-0.466955 0.031635 -0.074681 3.000000
-0.466955 0.087024 -0.048219 3.000000
-0.466955 -0.088639 0.020191 3.000000
-0.466955 0.002302 -0.010311 3.000000
-0.466955 0.014784 0.083951 3.000000
-0.466955 0.044124 -0.039743 3.000000
-0.466955 -0.010858 0.039411 3.000000
-0.466955 0.007449 0.033041 3.000000
-0.466955 -0.079528 -0.030507 3.000000
-0.466955 0.005644 -0.000332 3.000000
-0.466955 -0.047252 -0.009973 3.000000
-0.466955 -0.059157 0.047185 3.000000
-0.466955 -0.088465 0.002458 3.000000
-0.466955 0.049933 -0.007598 3.000000
-0.466955 0.031689 0.015529 3.000000
-0.466955 -0.089985 -0.004791 3.000000
-0.466955 -0.011162 -0.051749 3.000000
-0.466955 0.056966 0.029878 3.000000
-0.466955 0.075894 -0.020398 3.000000
-0.466955 -0.047416 -0.053293 3.000000
-0.466955 0.055789 -0.031416 3.000000
-0.466955 0.011817 0.057894 3.000000
-0.466955 -0.022148 -0.038097 3.000000
-0.466955 -0.033580 0.077214 3.000000
-0.466955 0.011524 -0.012876 3.000000
-0.466955 0.018084 0.007404 3.000000
-0.466955 0.042940 0.042272 3.000000
-0.466955 0.054372 -0.020759 3.000000
-0.466955 -0.001954 0.002046 3.000000
-0.466955 0.008643 -0.000101 3.000000
-0.466955 0.080284 -0.009101 3.000000
-0.466955 -0.043638 -0.070707 3.000000
-0.466955 -0.059384 0.058094 3.000000
-0.466955 0.080703 -0.033134 3.000000
-0.466955 0.076151 0.012406 3.000000
-0.466955 0.026382 0.083542 3.000000
-0.466955 0.076707 0.045983 3.000000
-0.466955 -0.021665 0.022464 3.000000
-0.466955 0.041794 -0.033748 3.000000
-0.466955 -0.054654 0.079399 3.000000
-0.466955 0.054234 -0.007186 3.000000
-0.466955 0.063551 -0.008927 3.000000
-0.466955 0.013040 0.074796 3.000000
-0.466955 -0.032483 -0.070996 3.000000
-0.466955 0.085840 0.018622 3.000000
-0.466955 0.036718 0.067596 3.000000
-0.466955 0.002264 0.088754 3.000000
-0.466955 0.005157 -0.040361 3.000000
-0.466955 0.064188 0.020633 3.000000
-0.466955 0.070345 -0.003806 3.000000
-0.466955 0.090374 0.030402 3.000000
-0.466955 -0.053314 -0.014834 3.000000
-0.466955 -0.009422 -0.018502 3.000000
-0.466955 -0.031816 0.028607 3.000000
-0.466955 0.014193 0.066214 3.000000
-0.466955 -0.026193 -0.026059 3.000000
-0.466955 0.020188 -0.091385 3.000000
-0.466955 0.088542 -0.032228 3.000000
-0.466955 0.077624 0.036625 3.000000
-0.466955 0.027832 -0.071281 3.000000
-0.466955 -0.084681 0.014756 3.000000
-0.466955 0.028763 -0.063526 3.000000
-0.466955 -0.031548 0.003055 3.000000
-0.466955 -0.013938 0.058448 3.000000
-0.466955 -0.030633 0.076979 3.000000
-0.466955 -0.005911 -0.068294 3.000000
-0.466955 -0.057744 -0.019740 3.000000
-0.466955 0.034993 0.062941 3.000000
-0.466955 0.003933 0.088986 3.000000
-0.466955 0.002541 -0.036807 3.000000
-0.466955 0.056683 0.047281 3.000000
-0.466955 0.063657 0.039028 3.000000
-0.466955 -0.045388 0.050827 3.000000
-0.466955 0.089526 0.029015 3.000000
-0.466955 0.045584 0.003991 3.000000
