0.312539 -0.079215 0.060802 1.000000
0.352824 -0.009529 0.099554 1.000000
-0.008209 0.077528 0.063278 1.000000
-0.051710 -0.077479 0.063041 1.000000
0.000071 0.023550 0.097246 1.000000
0.347827 -0.082316 -0.056146 1.000000
-0.301764 0.085585 0.051795 1.000000
-0.005865 0.044404 0.089668 1.000000
0.387947 0.082184 0.057047 1.000000
0.227601 0.028929 0.095778 1.000000
0.208797 0.097619 -0.021298 1.000000
0.312168 -0.068540 0.072719 1.000000
0.005593 -0.051789 0.085476 1.000000
0.146791 0.052338 0.085290 1.000000
0.093720 -0.003567 -0.099591 1.000000
0.097040 -0.050273 0.086373 1.000000
0.286862 -0.037964 -0.092126 1.000000
0.012531 -0.078878 0.061236 1.000000
-0.128528 -0.087517 0.048106 1.000000
0.309912 -0.084971 -0.052075 1.000000
0.305931 0.097861 -0.020215 1.000000
0.450886 -0.097056 0.023131 2.000000
0.451034 0.096616 -0.025525 2.000000
-0.032132 -0.023415 -0.096862 1.000000
-0.422739 0.087277 -0.048570 3.000000
-0.409370 -0.096581 0.025204 1.000000
-0.330152 -0.099446 -0.007453 1.000000
0.271390 -0.093526 -0.034455 1.000000
-0.415351 -0.039405 0.091865 1.000000
-0.273226 -0.099718 0.001908 1.000000
0.367355 -0.026017 -0.096193 1.000000
0.127474 0.022887 -0.097032 1.000000
-0.301735 0.097533 -0.021680 1.000000
-0.145481 -0.049943 -0.086206 1.000000
0.206834 0.073760 0.067621 1.000000
-0.142516 0.027726 0.096128 1.000000
0.236257 -0.053782 -0.083902 1.000000
0.052760 0.084323 0.053899 1.000000
0.145148 -0.035187 -0.093221 1.000000
0.233483 0.075443 0.065712 1.000000
0.185752 -0.028597 -0.095444 1.000000
-0.199239 0.039606 0.091879 1.000000
0.054497 0.099973 -0.000830 1.000000
0.358986 -0.001784 0.100010 1.000000
-0.103816 0.020679 -0.097525 1.000000
0.042954 -0.078954 -0.060776 1.000000
0.241843 0.049947 -0.086341 1.000000
-0.377511 -0.009864 0.099522 1.000000
-0.260830 -0.057169 -0.081600 1.000000
0.239866 0.046165 0.088771 1.000000
0.338442 0.045352 0.089185 1.000000
0.172843 0.033065 0.094432 1.000000
0.249262 0.091209 0.041071 1.000000
-0.402740 -0.087571 0.047998 1.000000
0.363695 -0.078095 0.062246 1.000000
0.292270 -0.068238 -0.072655 1.000000
-0.301409 -0.072352 0.068907 1.000000
-0.111390 0.068291 0.073177 1.000000
-0.184014 0.067958 0.073470 1.000000
-0.052334 -0.036498 0.093112 1.000000
0.098861 0.095872 0.028448 1.000000
0.157167 -0.057219 0.081929 1.000000
0.233805 0.096894 0.024903 1.000000
-0.026927 0.096602 0.025935 1.000000
0.301722 -0.017880 0.098415 1.000000
-0.295327 0.063948 -0.076643 1.000000
0.338105 0.067296 0.074054 1.000000
-0.089260 -0.099701 0.002427 1.000000
-0.243531 0.044450 -0.089282 1.000000
0.064910 -0.099619 0.005059 1.000000
-0.348861 0.043353 -0.089841 1.000000
-0.359619 0.054988 -0.083241 1.000000
-0.264673 0.088674 -0.045931 1.000000
-0.283078 -0.040262 -0.091131 1.000000
0.087367 -0.098497 0.015780 1.000000
0.369588 0.098548 -0.016563 1.000000
0.332221 0.095837 -0.028205 1.000000
0.267903 -0.087795 -0.047196 1.000000
-0.412909 0.099361 -0.010818 1.000000
-0.458404 0.097916 -0.019968 3.000000
0.111828 -0.015540 -0.098423 1.000000
-0.075099 -0.079126 -0.060555 1.000000
0.084672 0.078577 -0.061562 1.000000
0.050177 -0.090378 -0.042088 1.000000
-0.207861 -0.098906 0.013192 1.000000
0.120971 -0.084499 0.053237 1.000000
0.147664 0.034111 0.094055 1.000000
-0.403762 -0.086222 -0.049960 1.000000
-0.133158 -0.067426 -0.073371 1.000000
-0.090007 0.043012 0.090378 1.000000
-0.083694 -0.078721 0.061439 1.000000
-0.354390 -0.029605 -0.095151 1.000000
0.322142 -0.033365 0.094240 1.000000
0.010068 -0.084124 0.053849 1.000000
0.324815 -0.053868 0.084207 1.000000
0.131963 0.093657 -0.034740 1.000000
0.126835 -0.091292 -0.039977 1.000000
-0.253797 0.051514 -0.085415 1.000000
-0.404050 -0.064100 -0.076303 1.000000
-0.207319 0.041811 -0.090562 1.000000
-0.052355 0.099450 -0.009880 1.000000
0.409940 -0.090022 0.043188 1.000000
-0.453245 -0.048739 -0.086918 3.000000
-0.145235 0.059643 0.080362 1.000000
0.316584 0.067251 -0.073731 1.000000
0.359052 -0.057555 0.081700 1.000000
0.107498 -0.068449 0.072810 1.000000
-0.038862 0.038217 -0.092118 1.000000
0.247911 -0.070651 0.070608 1.000000
-0.417423 0.031779 0.094895 1.000000
0.328372 0.047142 -0.087910 1.000000
-0.095672 0.096887 -0.024572 1.000000
0.194572 0.019953 -0.097688 1.000000
-0.369906 0.099433 0.010423 1.000000
-0.195934 -0.035931 -0.092953 1.000000
-0.375647 0.097646 0.021539 1.000000
-0.002927 -0.059796 -0.079700 1.000000
-0.213819 0.000663 -0.099690 1.000000
0.398778 0.069097 -0.072033 1.000000
0.328897 0.094213 0.033559 1.000000
-0.210139 -0.023380 -0.096870 1.000000
-0.244873 -0.079800 0.060048 1.000000
-0.264317 -0.068554 0.072704 1.000000
0.059360 0.043870 -0.089578 1.000000
-0.334668 0.090817 -0.041614 1.000000
-0.394671 -0.079537 -0.060025 1.000000
-0.343162 0.094883 0.031695 1.000000
-0.216679 0.029072 -0.095374 1.000000
0.439707 0.027021 0.096332 2.000000
-0.374079 0.061415 -0.078625 1.000000
-0.118145 0.015563 -0.098456 1.000000
-0.422588 0.080910 0.058918 1.000000
-0.062834 0.068888 -0.072241 1.000000
-0.101958 0.058120 -0.081113 1.000000
-0.191361 0.097698 0.021307 1.000000
0.285557 -0.052193 -0.084875 1.000000
0.412800 -0.095739 0.028103 1.000000
-0.392083 0.026128 -0.096229 1.000000
0.386974 0.021154 -0.097419 1.000000
0.058974 0.094270 -0.033037 1.000000
0.103770 -0.053652 0.084353 1.000000
0.308994 -0.007887 0.099709 1.000000
0.305478 -0.056704 -0.081916 1.000000
0.014995 -0.069532 0.071726 1.000000
-0.430113 0.096497 0.026296 1.000000
0.301285 -0.024951 -0.096503 1.000000
0.424285 0.099985 0.000820 1.000000
0.340141 -0.084799 0.052728 1.000000
0.411296 0.030434 0.095341 1.000000
-0.456022 -0.014069 0.099018 3.000000
-0.048352 0.076534 0.064475 1.000000
0.036009 -0.096526 -0.025031 1.000000
0.420457 0.043690 -0.089669 1.000000
-0.017558 -0.053635 0.084365 1.000000
-0.043276 0.099197 -0.012471 1.000000
0.133182 0.098289 0.018566 1.000000
0.455197 0.052460 0.085218 2.000000
-0.433683 -0.060287 -0.079319 3.000000
-0.349681 -0.088069 -0.046660 1.000000
-0.188730 0.035813 0.093443 1.000000
-0.112291 0.098283 -0.018237 1.000000
-0.084972 -0.046186 -0.088278 1.000000
0.285681 -0.096524 0.025400 1.000000
0.419138 0.087213 0.049041 1.000000
0.291079 0.035519 -0.093185 1.000000
0.420959 -0.082426 -0.055985 1.000000
-0.276582 -0.091921 -0.038522 1.000000
0.147235 -0.048115 -0.087286 1.000000
-0.166879 0.021820 0.097633 1.000000
-0.130013 0.059132 -0.080396 1.000000
-0.037572 0.098598 -0.016249 1.000000
0.246256 -0.070098 -0.070798 1.000000
0.153103 0.006672 -0.099483 1.000000
0.005691 0.005548 0.099899 1.000000
-0.097460 -0.091373 0.040152 1.000000
-0.436460 -0.099114 -0.010963 3.000000
-0.143778 -0.035179 -0.093224 1.000000
-0.219839 0.054833 0.083709 1.000000
0.114185 -0.058930 0.080734 1.000000
-0.448534 -0.097171 -0.022257 3.000000
0.448325 0.003132 0.099975 2.000000
-0.093804 0.087486 -0.048218 1.000000
0.210045 0.055668 0.083142 1.000000
-0.379718 0.005707 0.099894 1.000000
0.259574 0.003909 -0.099588 1.000000
-0.201773 0.099876 -0.003946 1.000000
-0.332866 0.043409 0.090175 1.000000
0.185333 -0.089949 0.043333 1.000000
-0.008742 -0.008845 -0.099256 1.000000
0.401071 -0.064381 -0.076055 1.000000
0.039877 -0.050693 0.086125 1.000000
-0.400542 -0.032130 -0.094322 1.000000
-0.238836 -0.055182 -0.082951 1.000000
-0.433336 0.038683 0.092279 1.000000
-0.164418 0.070288 -0.070841 1.000000
0.065607 -0.000062 -0.099702 1.000000
-0.364712 -0.054331 -0.083529 1.000000
-0.256525 0.099109 0.013387 1.000000
0.360073 -0.082848 -0.055364 1.000000
0.310648 -0.084481 0.053266 1.000000
-0.411609 -0.012036 0.099317 1.000000
0.308980 0.058197 -0.081060 1.000000
-0.445661 -0.009001 0.099604 3.000000
0.163643 -0.004771 -0.099554 1.000000
0.151203 -0.062451 -0.077640 1.000000
0.311092 0.037570 -0.092398 1.000000
0.011705 -0.088659 0.045865 1.000000
0.153523 -0.098726 0.014334 1.000000
-0.359396 -0.019749 -0.097681 1.000000
-0.357543 0.085665 0.051659 1.000000
-0.233996 -0.024358 0.097014 1.000000
0.455602 0.063062 0.077710 2.000000
-0.435636 -0.008980 -0.099243 3.000000
-0.132555 -0.078884 0.061229 1.000000
-0.113828 -0.097156 0.022687 1.000000
-0.229627 -0.000640 -0.099683 1.000000
-0.314899 -0.053544 0.084426 1.000000
0.201641 -0.076661 -0.063703 1.000000
0.351303 0.045910 0.088901 1.000000
0.156719 -0.096365 -0.025585 1.000000
-0.072407 0.060437 0.079746 1.000000
0.043936 -0.092119 0.038428 1.000000
0.384552 -0.056083 0.082701 1.000000
-0.274754 0.099911 0.003165 1.000000
0.253926 -0.005842 0.099883 1.000000
0.060171 -0.017736 -0.098075 1.000000
-0.381509 0.075679 -0.065081 1.000000
-0.024967 0.032973 -0.094102 1.000000
-0.108127 0.099530 -0.009035 1.000000
-0.062788 -0.083742 0.054411 1.000000
0.214378 0.043247 -0.089895 1.000000
0.368860 0.092455 -0.037829 1.000000
-0.093417 0.070182 0.071310 1.000000
0.395722 0.098979 -0.013843 1.000000
0.173351 -0.002769 0.099979 1.000000
-0.267203 -0.062528 -0.077581 1.000000
-0.067936 0.093206 0.036354 1.000000
0.158660 -0.066583 0.074477 1.000000
0.046518 0.097044 0.024230 1.000000
0.100106 0.017876 -0.098090 1.000000
0.214187 0.042419 0.090662 1.000000
0.332071 -0.059340 0.080416 1.000000
-0.340640 -0.095291 -0.029282 1.000000
0.112782 -0.039263 -0.091564 1.000000
-0.001733 -0.099275 -0.009260 1.000000
-0.022570 -0.082903 0.055645 1.000000
-0.393351 -0.094894 -0.030649 1.000000
0.140071 0.090093 0.043507 1.000000
0.101951 -0.036697 -0.092674 1.000000
0.042706 -0.064967 -0.075539 1.000000
-0.146255 0.097764 0.021010 1.000000
-0.131491 0.069530 0.071962 1.000000
-0.357199 -0.099134 -0.010754 1.000000
-0.255638 -0.077482 -0.062673 1.000000
0.286334 0.032605 0.094598 1.000000
-0.235588 0.018174 -0.098042 1.000000
0.003010 -0.071182 -0.069714 1.000000
-0.222440 -0.009505 -0.099194 1.000000
0.218654 0.093583 -0.034945 1.000000
0.106028 -0.067629 -0.073192 1.000000
-0.214711 -0.053434 0.084501 1.000000
-0.124783 -0.084244 0.053667 1.000000
0.435147 0.031346 -0.094688 1.000000
0.360803 -0.043196 -0.089802 1.000000
-0.401850 -0.068419 -0.072478 1.000000
0.353098 -0.095015 -0.030230 1.000000
0.408653 -0.071855 -0.069041 1.000000
-0.086058 -0.069832 -0.071064 1.000000
0.043820 0.095719 -0.028613 1.000000
-0.162706 0.094769 -0.031649 1.000000
0.307130 0.038190 0.092492 1.000000
-0.429433 -0.097763 -0.019606 3.000000
0.416675 -0.099298 -0.009022 1.000000
-0.382012 0.097993 -0.019621 1.000000
0.140024 -0.099615 0.005178 1.000000
-0.034926 -0.073237 -0.067587 1.000000
0.260118 -0.083001 0.055501 1.000000
0.299488 0.090786 -0.041686 1.000000
0.332900 0.093677 -0.034685 1.000000
0.031725 -0.015781 0.098747 1.000000
-0.003668 -0.088888 -0.045051 1.000000
0.270990 0.099931 0.002540 1.000000
-0.048734 -0.064840 0.076014 1.000000
-0.056289 0.083834 -0.054256 1.000000
-0.254307 -0.041189 0.091093 1.000000
0.015799 -0.095214 0.029910 1.000000
0.252051 -0.045632 0.088923 1.000000
0.066089 0.045203 -0.088898 1.000000
-0.365593 -0.050843 0.086036 1.000000
-0.169299 0.005238 0.099909 1.000000
-0.212946 0.100005 0.000184 1.000000
-0.370345 0.075672 -0.065090 1.000000
0.338211 0.073233 0.068219 1.000000
-0.354680 -0.063118 0.077485 1.000000
-0.190256 -0.033554 0.094172 1.000000
-0.452564 -0.067663 -0.073162 3.000000
-0.143736 0.079516 -0.060352 1.000000
0.223426 0.068669 0.072823 1.000000
0.113112 -0.087639 -0.047504 1.000000
-0.289978 0.093590 0.035289 1.000000
-0.331259 0.077711 0.063042 1.000000
0.074425 0.030511 0.095319 1.000000
0.244250 -0.099660 -0.003381 1.000000
-0.108551 0.047173 0.088257 1.000000
-0.316267 0.034597 -0.093518 1.000000
0.219397 -0.020696 0.097832 1.000000
0.283433 0.061647 0.078808 1.000000
0.315619 -0.092755 -0.036595 1.000000
-0.363051 -0.097097 -0.022589 1.000000
0.024724 0.071091 -0.070039 1.000000
0.343345 -0.002065 -0.099639 1.000000
-0.092252 0.021995 0.097594 1.000000
0.157403 0.001176 -0.099674 1.000000
0.216373 0.098027 -0.019471 1.000000
-0.294134 -0.072284 0.068975 1.000000
0.100790 -0.065155 -0.075374 1.000000
0.038538 -0.086307 -0.049815 1.000000
-0.037624 0.092294 0.038564 1.000000
0.448602 -0.095433 0.029156 2.000000
-0.400737 0.079667 0.060520 1.000000
0.204546 -0.001927 -0.099643 1.000000
0.115006 0.074460 0.066827 1.000000
-0.456026 0.030249 0.095394 3.000000
0.150783 -0.090885 0.041279 1.000000
0.218866 -0.026527 0.096408 1.000000
0.382702 0.021978 0.097598 1.000000
-0.070999 0.079667 -0.060158 1.000000
-0.072975 0.024277 -0.096721 1.000000
0.180409 0.054213 -0.083768 1.000000
-0.128489 -0.053091 0.084707 1.000000
-0.088033 -0.028868 -0.095365 1.000000
0.421324 0.080701 -0.058825 1.000000
0.407907 -0.064710 -0.075765 1.000000
0.350795 0.095039 0.031262 1.000000
0.262608 0.087585 0.048413 1.000000
0.256948 -0.080076 -0.059329 1.000000
0.306300 0.092077 0.039065 1.000000
-0.107376 -0.098296 -0.016682 1.000000
0.158538 -0.056269 -0.082212 1.000000
-0.454003 0.060702 0.079541 3.000000
0.056220 0.075171 -0.065658 1.000000
0.236874 0.046203 -0.088389 1.000000
-0.253712 -0.072507 -0.068389 1.000000
0.420353 0.099061 -0.013324 1.000000
-0.316962 -0.082351 0.056457 1.000000
-0.181868 0.094883 -0.031333 1.000000
-0.162508 -0.021606 0.097629 1.000000
-0.234961 0.098334 0.018278 1.000000
-0.449254 0.061850 -0.078288 3.000000
0.431594 -0.090124 0.042989 2.000000
-0.236449 0.063289 -0.077171 1.000000
-0.287536 -0.099660 0.003731 1.000000
-0.113509 -0.091705 0.039385 1.000000
-0.371041 0.067194 0.074144 1.000000
0.364558 -0.047410 0.088018 1.000000
-0.233076 0.094601 0.032479 1.000000
0.227905 -0.082827 -0.055395 1.000000
0.185048 0.056175 0.082797 1.000000
0.248146 -0.095704 -0.027859 1.000000
0.336937 -0.066717 0.074359 1.000000
-0.154718 -0.095261 0.029747 1.000000
0.302988 -0.040820 0.091253 1.000000
0.312666 -0.090330 0.042562 1.000000
-0.329550 -0.015901 -0.098365 1.000000
-0.328598 -0.085484 -0.051208 1.000000
0.078506 0.087767 -0.047710 1.000000
0.362747 0.095524 0.029644 1.000000
0.243158 -0.098994 -0.012235 1.000000
0.044303 0.095173 0.030854 1.000000
-0.411225 -0.098135 0.018060 1.000000
0.360559 -0.026347 -0.096098 1.000000
0.234785 -0.047408 -0.087656 1.000000
-0.346454 -0.091067 -0.040495 1.000000
-0.282141 -0.093261 -0.035192 1.000000
0.331083 0.035450 -0.093210 1.000000
-0.135039 -0.098399 -0.016030 1.000000
0.017273 0.045596 0.089061 1.000000
-0.063112 0.096257 0.027124 1.000000
-0.273816 0.093886 0.034465 1.000000
-0.343305 0.099827 -0.005480 1.000000
0.247492 0.035246 0.093646 1.000000
0.453148 -0.005993 0.099878 2.000000
-0.023771 0.089971 0.043747 1.000000
0.239804 0.087100 -0.048870 1.000000
0.195509 0.062803 -0.077548 1.000000
-0.435457 0.063044 -0.077361 3.000000
0.239871 -0.084874 0.052602 1.000000
0.358181 -0.046340 0.088563 1.000000
-0.254395 -0.046584 0.088438 1.000000
-0.028406 0.051135 -0.085638 1.000000
0.266560 -0.054933 -0.083119 1.000000
-0.066326 0.012644 -0.098918 1.000000
0.359436 -0.074628 -0.066009 1.000000
0.161826 -0.092243 0.038141 1.000000
0.356957 -0.090113 0.043011 1.000000
-0.050838 0.090835 -0.041571 1.000000
0.127649 -0.092280 0.038057 1.000000
0.296054 0.043110 -0.089965 1.000000
-0.207753 0.038239 0.092471 1.000000
0.423792 -0.078863 0.061257 2.000000
0.313729 -0.037986 -0.092117 1.000000
-0.182383 0.098744 -0.015326 1.000000
-0.262469 0.093793 -0.034361 1.000000
0.109674 -0.099750 0.000869 1.000000
-0.061283 -0.008761 -0.099264 1.000000
-0.275151 -0.041923 0.090776 1.000000
-0.019836 0.056765 0.082396 1.000000
-0.010117 -0.000010 -0.099703 1.000000
-0.162504 0.091088 0.041350 1.000000
0.234835 -0.076154 -0.064278 1.000000
0.292487 0.089141 -0.045013 1.000000
0.316917 -0.057490 0.081745 1.000000
-0.425131 0.098810 0.015274 1.000000
-0.365380 0.099881 0.004123 1.000000
0.290560 -0.049727 0.086696 1.000000
-0.022725 0.094566 -0.032215 1.000000
0.396253 -0.059496 0.080295 1.000000
0.098374 0.096568 -0.025689 1.000000
-0.139483 -0.095909 0.027516 1.000000
-0.118176 0.090834 -0.041575 1.000000
-0.181016 -0.062061 0.078305 1.000000
0.352355 -0.070622 0.070637 1.000000
-0.449857 0.005568 -0.099536 3.000000
-0.288000 0.098467 -0.017077 1.000000
-0.422039 0.035596 -0.093158 1.000000
-0.194398 -0.099727 0.001627 1.000000
-0.339386 0.032025 0.094806 1.000000
0.137211 -0.095428 -0.028809 1.000000
0.382147 -0.092450 0.037663 1.000000
0.088036 0.017408 -0.098164 1.000000
-0.078941 -0.098043 0.018644 1.000000
-0.319125 0.021791 -0.097277 1.000000
0.371353 0.075105 -0.065732 1.000000
-0.462314 -0.095712 -0.027831 3.000000
-0.267538 0.094923 0.031587 1.000000
-0.046039 0.079967 0.060134 1.000000
0.449161 -0.035722 0.093391 2.000000
0.213560 0.095394 0.030093 1.000000
0.220485 -0.089774 -0.043312 1.000000
0.465194 -0.098886 0.013324 2.000000
0.194380 -0.097911 0.019308 1.000000
-0.173313 -0.084128 -0.053481 1.000000
-0.350639 -0.040771 -0.090912 1.000000
-0.322005 0.088217 0.047190 1.000000
0.416074 -0.077494 0.063021 2.000000
-0.433605 -0.092388 -0.037444 3.000000
0.347663 0.085295 0.052285 1.000000
0.250541 0.005732 -0.099531 1.000000
0.353724 0.099217 -0.012340 1.000000
0.193946 0.027003 0.096338 1.000000
-0.335062 -0.028679 -0.095420 1.000000
-0.192918 -0.076802 0.063905 1.000000
-0.241375 0.097515 0.022122 1.000000
-0.396756 0.090935 -0.041341 1.000000
-0.385325 -0.002359 -0.099629 1.000000
-0.240668 0.007307 -0.099423 1.000000
0.309751 -0.042769 -0.090019 1.000000
-0.260255 0.077529 0.063277 1.000000
-0.326961 0.097938 -0.019868 1.000000
0.381285 -0.077270 -0.062947 1.000000
-0.122289 -0.085591 -0.051026 1.000000
-0.312708 -0.073692 0.067433 1.000000
-0.051021 -0.098997 0.012567 1.000000
0.435355 -0.049097 -0.086706 1.000000
-0.217910 -0.037260 0.092794 1.000000
-0.111579 0.066234 -0.074627 1.000000
-0.438164 -0.072471 0.068788 3.000000
-0.417081 0.040558 0.091467 1.000000
0.179392 -0.049093 0.087071 1.000000
-0.091890 -0.058614 -0.080616 1.000000
0.064952 0.009732 0.099557 1.000000
-0.384552 0.045585 0.089066 1.000000
0.373606 0.044915 0.089408 1.000000
0.359360 -0.099759 0.000607 1.000000
-0.089819 0.099516 0.009542 1.000000
0.322823 0.042513 -0.090258 1.000000
-0.255765 0.081877 -0.057136 1.000000
0.094113 0.092196 -0.038428 1.000000
0.269807 -0.091137 -0.040334 1.000000
-0.454016 0.046767 -0.088102 3.000000
0.441418 -0.023438 -0.096857 1.000000
-0.241352 -0.090003 -0.042864 1.000000
0.057538 -0.043049 -0.089877 1.000000
0.034919 0.089474 -0.044359 1.000000
-0.222386 -0.095561 0.028715 1.000000
0.455898 -0.011675 -0.098988 2.000000
0.218925 -0.032945 0.094391 1.000000
-0.450465 0.089266 -0.044768 3.000000
-0.094822 0.094897 -0.031296 1.000000
-0.008898 0.093506 0.035520 1.000000
0.024127 -0.052786 -0.084524 1.000000
0.023628 -0.010067 -0.099140 1.000000
-0.180665 0.022290 0.097528 1.000000
0.063293 0.050836 0.086178 1.000000
0.270352 0.085164 0.052507 1.000000
-0.291979 0.040381 -0.091181 1.000000
0.337593 0.088836 -0.045611 1.000000
-0.414498 -0.099411 0.008181 1.000000
0.190456 0.099234 -0.012169 1.000000
0.259054 -0.085325 -0.051476 1.000000
-0.399851 -0.073780 0.067334 1.000000
-0.427173 0.004064 0.099946 1.000000
-0.261447 -0.079510 -0.060059 1.000000
0.416417 0.081860 0.057524 1.000000
-0.395772 0.021981 0.097597 1.000000
0.460203 0.099964 -0.001142 2.000000
0.073856 -0.059267 0.080472 1.000000
0.023657 -0.079788 -0.059700 1.000000
0.158782 0.096189 -0.026995 1.000000
-0.157305 -0.032926 -0.094035 1.000000
0.109888 0.094522 0.032700 1.000000
-0.197494 -0.097311 -0.021631 1.000000
-0.429776 0.089024 0.045606 1.000000
0.098306 0.083191 -0.055202 1.000000
0.414661 -0.018931 -0.097864 1.000000
-0.024851 -0.064181 -0.076232 1.000000
-0.092911 0.092070 0.039080 1.000000
0.093925 -0.032633 -0.094141 1.000000
0.133279 0.030135 -0.095065 1.000000
-0.048707 0.041433 -0.090726 1.000000
-0.352550 0.061633 -0.078456 1.000000
-0.162117 0.056427 -0.082263 1.000000
-0.305365 -0.005218 -0.099540 1.000000
0.346070 -0.008392 0.099661 1.000000
0.061270 -0.052211 0.085227 1.000000
0.233459 0.095062 0.031201 1.000000
-0.353451 0.014666 0.098961 1.000000
0.079981 0.037737 -0.092325 1.000000
0.332108 0.085699 0.051602 1.000000
0.440108 -0.099608 0.005400 2.000000
0.438653 -0.098514 -0.015305 2.000000
0.052328 0.093798 -0.034349 1.000000
0.450024 0.029801 -0.095162 2.000000
-0.284823 -0.099672 -0.002993 1.000000
0.270928 0.028801 -0.095453 1.000000
0.313653 -0.002773 0.099979 1.000000
0.426180 -0.001534 -0.099655 1.000000
0.001151 0.047371 -0.087793 1.000000
0.381558 0.099031 -0.013519 1.000000
0.421598 -0.086450 0.049937 2.000000
0.073056 -0.076733 0.063984 1.000000
-0.365994 -0.099062 0.011878 1.000000
-0.004477 0.088702 0.046239 1.000000
0.249371 0.029193 0.095701 1.000000
0.127003 0.095128 -0.030645 1.000000
0.249192 -0.093758 0.034173 1.000000
-0.041835 0.094236 -0.033130 1.000000
0.010195 -0.096416 0.025772 1.000000
0.206994 0.099705 0.007542 1.000000
-0.397860 -0.058919 -0.080380 1.000000
-0.006185 -0.097718 0.020170 1.000000
-0.444449 -0.073263 -0.067558 3.000000
0.457207 -0.040943 0.091200 2.000000
0.316799 0.046336 -0.088321 1.000000
0.034347 -0.022645 0.097397 1.000000
0.267483 0.088585 -0.046105 1.000000
-0.372088 0.002632 0.099991 1.000000
-0.044350 0.033998 -0.093733 1.000000
-0.290212 0.013545 -0.098776 1.000000
0.121402 0.033494 -0.093915 1.000000
-0.376243 0.091179 -0.040777 1.000000
-0.235175 0.073196 -0.067899 1.000000
-0.388715 -0.086013 -0.050314 1.000000
0.089549 -0.087657 0.047831 1.000000
0.465223 -0.071407 0.069852 2.000000
-0.305527 0.099511 -0.009229 1.000000
0.111143 -0.094137 0.033121 1.000000
0.424646 0.096086 -0.027350 1.000000
0.176070 -0.005897 -0.099518 1.000000
0.274512 -0.000613 0.100047 1.000000
-0.085388 -0.094336 0.032567 1.000000
0.268449 -0.079724 0.060146 1.000000
0.136429 -0.080537 -0.058735 1.000000
-0.130258 0.014788 -0.098579 1.000000
-0.327628 0.002812 -0.099623 1.000000
0.434316 -0.099724 -0.001355 2.000000
-0.453079 -0.022089 0.097521 3.000000
-0.232964 -0.026486 -0.096057 1.000000
-0.092388 0.006703 -0.099480 1.000000
0.432562 -0.005898 0.099881 2.000000
0.423711 0.097976 -0.019701 1.000000
-0.304711 -0.096682 -0.024443 1.000000
0.003067 0.077332 -0.063169 1.000000
-0.079810 -0.076288 -0.064126 1.000000
-0.027179 0.026595 -0.096093 1.000000
-0.423905 -0.096073 0.026951 3.000000
0.159131 0.088606 0.046427 1.000000
0.033926 0.014514 0.098985 1.000000
0.150663 -0.055985 -0.082405 1.000000
-0.224834 -0.035615 0.093430 1.000000
0.281928 -0.081852 0.057192 1.000000
0.388049 0.085594 0.051779 1.000000
-0.259966 -0.008933 0.099610 1.000000
0.327388 0.094355 -0.032800 1.000000
0.305729 -0.081527 0.057670 1.000000
0.389047 0.095306 -0.030033 1.000000
-0.127261 -0.099046 -0.011682 1.000000
0.456737 0.073642 -0.067392 2.000000
0.442184 -0.090530 -0.041736 2.000000
0.099088 0.070821 -0.070308 1.000000
-0.140086 0.012508 0.099294 1.000000
0.033725 -0.084300 -0.053209 1.000000
-0.297072 0.030302 0.095379 1.000000
0.197179 0.006918 0.099823 1.000000
0.047247 0.081122 0.058610 1.000000
-0.193989 -0.085787 -0.050695 1.000000
-0.228131 0.030086 -0.095079 1.000000
-0.444538 0.018331 -0.098018 3.000000
-0.262741 -0.031505 -0.094547 1.000000
0.080078 -0.025452 -0.096358 1.000000
0.320567 -0.001388 -0.099660 1.000000
0.105949 0.082378 0.056760 1.000000
-0.108263 -0.066024 -0.074607 1.000000
-0.068807 -0.031310 0.094980 1.000000
-0.006960 0.093102 -0.036282 1.000000
-0.073711 -0.034683 0.093765 1.000000
0.077374 0.076008 -0.064708 1.000000
0.056043 0.096446 0.026472 1.000000
0.352274 -0.071222 -0.069674 1.000000
0.165053 -0.025309 0.096762 1.000000
0.079772 -0.098969 -0.012436 1.000000
0.268781 -0.075034 0.065911 1.000000
0.115202 0.088915 -0.045458 1.000000
0.342227 0.078401 0.062153 1.000000
-0.209730 0.049121 0.087192 1.000000
0.304082 -0.030433 -0.094911 1.000000
-0.057268 0.095446 0.029914 1.000000
0.051655 0.023673 0.097219 1.000000
0.082760 0.053843 -0.084019 1.000000
-0.301913 0.073453 -0.067607 1.000000
0.299082 0.099985 0.000819 1.000000
0.223696 -0.007541 -0.099379 1.000000
0.042314 -0.044766 0.089365 1.000000
0.280749 0.034282 -0.093631 1.000000
-0.423269 0.098975 -0.013871 1.000000
0.317815 0.096390 0.026666 1.000000
-0.178239 0.084323 -0.053537 1.000000
0.335694 0.080501 0.059445 1.000000
0.238852 -0.061279 0.078912 1.000000
0.324471 -0.094274 0.032741 1.000000
-0.226983 0.083658 0.054877 1.000000
-0.117686 0.070638 0.070855 1.000000
-0.063270 0.026929 0.096359 1.000000
0.152089 0.016527 -0.098303 1.000000
0.316437 -0.020433 -0.097528 1.000000
-0.418592 0.093279 -0.035790 1.000000
-0.407180 -0.081695 -0.057061 1.000000
0.464052 0.030122 -0.095069 2.000000
-0.366597 -0.088826 -0.045174 1.000000
-0.247875 0.037759 -0.092316 1.000000
0.147961 0.005005 0.099916 1.000000
0.439189 -0.027331 0.096175 2.000000
-0.265632 0.099279 0.012050 1.000000
-0.185846 -0.096968 -0.023166 1.000000
0.405174 -0.038597 0.092215 1.000000
-0.272187 -0.085909 0.050851 1.000000
0.273145 0.096717 -0.025177 1.000000
0.393836 -0.094370 -0.032111 1.000000
-0.343516 -0.087509 -0.047759 1.000000
0.442919 0.092912 -0.036772 2.000000
-0.112200 0.071426 -0.069704 1.000000
0.417510 0.096357 -0.026417 1.000000
0.249080 0.099714 0.007452 1.000000
0.343354 -0.099746 0.000994 1.000000
0.225478 -0.076064 0.064742 1.000000
0.107315 0.057855 0.081655 1.000000
0.246181 -0.002759 0.099980 1.000000
-0.041778 0.092014 -0.038847 1.000000
0.285136 0.092499 0.038088 1.000000
-0.098139 -0.049375 -0.086542 1.000000
-0.058797 0.096457 -0.026072 1.000000
0.235362 -0.006409 0.099849 1.000000
-0.439173 0.006306 -0.099513 3.000000
-0.125649 0.072602 -0.068528 1.000000
-0.038260 -0.095074 0.030391 1.000000
-0.126236 -0.090498 -0.041811 1.000000
0.042216 -0.089623 0.043971 1.000000
-0.415332 -0.083292 -0.054710 1.000000
0.056630 -0.097034 0.023231 1.000000
-0.463661 0.080096 0.059967 3.000000
-0.165281 0.082152 0.057094 1.000000
0.015392 -0.033052 0.094353 1.000000
0.181461 -0.096455 -0.025276 1.000000
-0.370599 0.099924 -0.002398 1.000000
0.033812 0.095272 0.030512 1.000000
0.194370 0.052714 0.085068 1.000000
-0.118163 -0.058405 -0.080760 1.000000
-0.147091 0.094605 0.032470 1.000000
-0.170695 0.011113 0.099426 1.000000
0.029451 -0.092817 -0.036425 1.000000
0.350686 -0.079454 0.060494 1.000000
0.262968 -0.051006 0.085940 1.000000
-0.309276 -0.000614 -0.099684 1.000000
0.078438 0.075593 0.065542 1.000000
0.016764 -0.060327 -0.079288 1.000000
-0.308283 -0.026927 -0.095929 1.000000
0.104678 -0.079080 0.060977 1.000000
0.462894 -0.085966 -0.050392 2.000000
-0.221329 -0.055609 -0.082660 1.000000
-0.363786 0.017104 -0.098212 1.000000
0.250126 -0.030179 0.095347 1.000000
-0.176281 0.095493 0.029752 1.000000
0.332548 0.092210 0.038756 1.000000
0.303306 -0.048744 0.087277 1.000000
-0.230625 -0.060227 -0.079365 1.000000
-0.251885 -0.063700 0.077019 1.000000
0.380574 -0.009726 -0.099173 1.000000
0.323232 0.099846 -0.004873 1.000000
0.344641 -0.044086 0.089711 1.000000
-0.344116 0.099188 -0.012525 1.000000
0.314145 0.012548 -0.098928 1.000000
0.432238 -0.028749 0.095763 2.000000
-0.034762 -0.048770 0.087262 1.000000
0.380959 -0.085543 0.051470 1.000000
0.329540 -0.099715 0.002007 1.000000
0.124711 -0.062411 -0.077671 1.000000
0.464775 -0.067446 -0.073353 2.000000
0.274121 0.098237 -0.018528 1.000000
-0.154995 -0.097096 0.022956 1.000000
0.140247 -0.046099 0.088685 1.000000
-0.179060 0.099963 -0.001154 1.000000
0.412808 -0.091646 -0.039158 1.000000
0.226205 0.087620 0.048353 1.000000
0.247398 -0.065008 -0.075503 1.000000
0.079629 -0.043379 0.090072 1.000000
-0.094385 -0.095776 -0.027612 1.000000
0.156579 -0.093378 -0.034867 1.000000
-0.299932 0.056964 0.082261 1.000000
-0.385521 0.091144 0.041221 1.000000
0.423965 0.098431 0.017668 1.000000
-0.120007 0.086668 0.049963 1.000000
-0.348492 -0.099156 0.010887 1.000000
0.263519 0.016527 0.098666 1.000000
-0.409853 0.069036 0.072456 1.000000
0.161594 -0.076213 -0.064212 1.000000
-0.155875 0.076628 -0.064005 1.000000
0.218984 -0.086191 0.050376 1.000000
-0.203454 -0.022072 -0.097162 1.000000
-0.032841 0.026597 0.096456 1.000000
-0.255755 0.061055 0.079267 1.000000
-0.434327 0.027870 -0.095723 3.000000
0.267562 0.041692 -0.090614 1.000000
-0.328579 -0.095053 -0.030102 1.000000
0.168797 0.090741 0.042151 1.000000
0.004370 -0.085307 0.051869 1.000000
-0.426786 0.077853 0.062859 1.000000
0.030171 -0.062797 0.077735 1.000000
0.357267 -0.078089 0.062254 1.000000
-0.279946 -0.063519 -0.076812 1.000000
-0.034714 0.083186 0.055572 1.000000
-0.043280 -0.099526 0.006972 1.000000
-0.240304 0.090206 0.043285 1.000000
0.072153 -0.025035 -0.096479 1.000000
0.239635 -0.024701 -0.096574 1.000000
-0.019140 0.072135 0.069357 1.000000
0.156943 0.085895 0.051269 1.000000
-0.047832 -0.002697 0.099982 1.000000
0.200002 -0.087659 -0.047465 1.000000
0.083465 -0.095591 0.028611 1.000000
0.088526 0.098641 -0.015977 1.000000
-0.150422 -0.089086 0.045025 1.000000
0.027962 -0.056309 0.082548 1.000000
-0.031280 0.063808 0.077129 1.000000
-0.062969 0.084203 -0.053713 1.000000
-0.022991 0.077746 -0.062634 1.000000
-0.296271 -0.084367 0.053459 1.000000
0.317317 0.071296 0.070196 1.000000
0.133022 -0.012792 -0.098858 1.000000
0.327947 0.099939 0.002293 1.000000
-0.210181 -0.099708 -0.001838 1.000000
0.247068 -0.023092 0.097297 1.000000
-0.172220 -0.052111 -0.084923 1.000000
-0.440096 -0.016464 0.098639 3.000000
-0.357296 0.094912 -0.031255 1.000000
0.170348 -0.050266 -0.086015 1.000000
-0.249445 -0.091834 0.039086 1.000000
-0.011942 -0.098666 0.014709 1.000000
0.409034 -0.084516 -0.052844 1.000000
0.004723 -0.099749 -0.000533 1.000000
0.125180 -0.012316 -0.098928 1.000000
0.236405 0.070139 -0.070991 1.000000
-0.047848 -0.025186 0.096798 1.000000
-0.465654 -0.081867 0.057169 3.000000
-0.450313 -0.016416 -0.098284 3.000000
0.462740 0.093037 0.036826 2.000000
-0.447518 0.024584 -0.096653 3.000000
0.421198 0.095702 0.029034 1.000000
0.417278 0.097856 0.020598 1.000000
0.391395 0.060207 0.079925 1.000000
-0.097407 -0.099615 0.005166 1.000000
0.295845 -0.059519 -0.079914 1.000000
-0.194902 0.029776 0.095532 1.000000
0.065393 -0.054962 -0.083100 1.000000
-0.405120 -0.099377 -0.008185 1.000000
-0.219153 -0.078199 0.062112 1.000000
-0.355584 -0.096198 -0.026161 1.000000
0.449895 0.000221 -0.099704 2.000000
-0.323192 -0.030746 0.095182 1.000000
0.144217 0.057723 0.081745 1.000000
0.132368 0.077282 -0.063233 1.000000
-0.068663 -0.033717 -0.093750 1.000000
0.389779 0.082956 -0.055549 1.000000
-0.335961 -0.013252 -0.098785 1.000000
0.042870 -0.074006 0.067077 1.000000
0.359684 0.098193 -0.018729 1.000000
-0.384372 0.092283 -0.038225 1.000000
-0.393432 -0.074133 0.066933 1.000000
-0.389236 0.084639 -0.053030 1.000000
-0.125675 0.059768 0.080265 1.000000
0.283788 0.049872 -0.086386 1.000000
-0.377680 0.048982 -0.086912 1.000000
0.216462 0.050626 -0.085939 1.000000
0.134988 0.011282 -0.099048 1.000000
-0.287656 -0.053858 -0.083851 1.000000
0.454861 -0.034248 -0.093559 2.000000
-0.156862 0.096530 -0.025819 1.000000
0.064749 0.074485 0.066799 1.000000
0.008127 0.081369 -0.057883 1.000000
-0.034301 0.052657 0.085101 1.000000
-0.425365 0.012429 -0.098939 1.000000
0.275534 -0.008257 0.099674 1.000000
0.447881 -0.024560 -0.096606 2.000000
-0.343647 0.080516 -0.059063 1.000000
0.450278 -0.090962 -0.040738 2.000000
-0.248282 -0.096865 -0.023623 1.000000
-0.178726 0.058190 0.081428 1.000000
-0.438979 -0.058266 0.081217 3.000000
-0.125381 0.065821 0.075355 1.000000
0.011608 0.098811 0.015270 1.000000
-0.224617 0.084881 -0.052623 1.000000
0.096453 0.069902 0.071591 1.000000
0.322324 -0.067266 -0.073513 1.000000
-0.249884 0.036993 0.093010 1.000000
0.406226 0.021810 0.097635 1.000000
-0.233438 0.037034 0.092992 1.000000
-0.466417 0.075298 0.065876 3.000000
0.378015 -0.015985 0.098715 1.000000
-0.013160 -0.092017 -0.038301 1.000000
0.426023 0.087923 0.047766 2.000000
0.048107 0.088227 -0.046808 1.000000
0.330647 -0.070069 0.071190 1.000000
-0.282284 0.032192 -0.094383 1.000000
-0.032591 -0.013221 0.099153 1.000000
0.426222 -0.098063 -0.018154 1.000000
0.412987 0.088955 0.045742 1.000000
-0.242831 0.015250 -0.098506 1.000000
-0.243605 -0.026931 0.096291 1.000000
-0.446069 -0.032649 0.094497 3.000000
0.344739 -0.040536 -0.091013 1.000000
0.157210 0.099211 -0.012377 1.000000
0.001673 -0.012566 0.099256 1.000000
-0.234439 0.097252 -0.022936 1.000000
-0.173040 -0.030466 0.095264 1.000000
-0.354488 0.028992 -0.095397 1.000000
0.316246 -0.099582 -0.005877 1.000000
0.200945 -0.081084 0.058322 1.000000
-0.129018 -0.046349 0.088558 1.000000
-0.422825 0.096030 0.027905 1.000000
0.063634 0.085822 -0.051032 1.000000
0.152346 0.064401 -0.076243 1.000000
0.197304 -0.000407 0.100054 1.000000
-0.106156 -0.038532 0.092243 1.000000
0.389429 0.040272 -0.091228 1.000000
-0.097609 0.063548 -0.076970 1.000000
-0.072801 0.096604 -0.025567 1.000000
-0.281487 0.093551 -0.035034 1.000000
0.395315 0.080064 -0.059646 1.000000
0.258239 -0.088009 0.047140 1.000000
0.020954 0.079432 -0.060461 1.000000
0.246252 0.099138 0.013203 1.000000
-0.292995 -0.080732 -0.058477 1.000000
0.089990 0.060282 -0.079503 1.000000
-0.074450 -0.099350 -0.008467 1.000000
-0.023964 0.036462 0.093209 1.000000
0.155321 0.015207 0.098875 1.000000
-0.123493 -0.060887 -0.078853 1.000000
0.063300 0.035898 -0.093049 1.000000
-0.343049 0.010908 0.099446 1.000000
0.008023 0.006258 -0.099514 1.000000
-0.228945 -0.056791 0.082220 1.000000
0.115912 -0.048945 -0.086796 1.000000
-0.431174 -0.075196 -0.065364 3.000000
-0.247609 -0.076050 0.064758 1.000000
0.262503 0.081081 0.058670 1.000000
-0.297679 -0.043658 0.089929 1.000000
0.063875 0.099975 0.001140 1.000000
-0.438968 0.097642 -0.021191 3.000000
0.063178 -0.087498 0.048144 1.000000
-0.391678 0.071334 -0.069796 1.000000
0.042388 0.053961 0.084302 1.000000
-0.273809 0.056166 -0.082440 1.000000
-0.305408 0.038629 0.092302 1.000000
-0.104927 0.067139 0.074192 1.000000
0.011118 -0.050784 -0.085708 1.000000
0.410522 0.081704 -0.057390 1.000000
0.185499 0.070738 0.070754 1.000000
-0.182152 0.078445 0.062096 1.000000
0.388388 -0.056444 -0.082093 1.000000
-0.299327 0.010089 0.099523 1.000000
-0.275600 -0.097029 -0.022892 1.000000
-0.038669 0.056589 0.082516 1.000000
-0.396593 0.099946 0.002078 1.000000
-0.331087 -0.089765 0.043693 1.000000
0.182473 0.039383 0.091976 1.000000
0.055283 0.075733 0.065383 1.000000
0.319208 -0.020233 0.097936 1.000000
0.445322 0.037933 -0.092240 2.000000
0.126971 0.091774 0.039765 1.000000
0.025469 -0.038160 -0.092041 1.000000
-0.191852 0.072696 0.068796 1.000000
-0.151964 0.068052 -0.073025 1.000000
-0.141323 -0.093755 0.034182 1.000000
-0.421784 0.083252 -0.055112 3.000000
0.394619 -0.099565 -0.006197 1.000000
-0.370490 -0.042007 0.090739 1.000000
-0.142430 -0.009159 -0.099226 1.000000
-0.167587 0.037863 0.092633 1.000000
0.271682 -0.036487 0.093116 1.000000
0.183098 0.090434 0.042838 1.000000
0.169852 -0.081445 0.057790 1.000000
0.012173 -0.021044 0.097754 1.000000
-0.324098 -0.095155 0.030113 1.000000
0.001177 -0.093005 -0.035901 1.000000
-0.310859 -0.089094 -0.044647 1.000000
0.002478 0.079216 0.061102 1.000000
-0.344074 -0.095964 0.027328 1.000000
0.272534 0.098246 0.018837 1.000000
-0.195873 -0.021617 -0.097264 1.000000
0.166819 -0.052202 0.085233 1.000000
-0.237353 -0.086875 0.049219 1.000000
-0.081409 0.041367 0.091117 1.000000
0.409819 0.005334 0.099906 1.000000
0.127632 0.095704 0.029026 1.000000
0.423430 -0.091449 0.039975 2.000000
0.455719 -0.082786 -0.055454 2.000000
-0.426442 0.078780 -0.061301 3.000000
-0.274398 0.011273 0.099411 1.000000
-0.035993 -0.078003 -0.062002 1.000000
0.222902 -0.060705 -0.078995 1.000000
-0.431809 -0.056505 0.082414 3.000000
0.115130 0.092231 0.038710 1.000000
0.039638 0.086802 -0.049374 1.000000
-0.047449 0.010860 0.099450 1.000000
0.240426 -0.099659 0.003773 1.000000
0.016446 0.097342 0.022897 1.000000
-0.073388 0.049481 0.086980 1.000000
-0.067027 0.096243 -0.026809 1.000000
-0.104771 0.057285 0.082043 1.000000
0.092704 -0.097353 -0.021440 1.000000
0.387238 -0.093503 -0.034519 1.000000
0.397446 -0.097231 -0.021986 1.000000
0.459465 -0.095494 -0.028583 2.000000
-0.037756 0.061820 0.078674 1.000000
-0.370695 0.016468 -0.098313 1.000000
0.085217 0.099986 -0.000424 1.000000
-0.324481 0.098538 0.016992 1.000000
-0.185365 -0.000479 -0.099688 1.000000
-0.335123 0.084077 -0.053899 1.000000
-0.321805 0.066071 -0.074772 1.000000
0.336007 0.061448 0.078962 1.000000
0.148597 -0.025018 -0.096484 1.000000
0.408119 0.071520 0.069972 1.000000
0.202635 -0.082161 -0.056374 1.000000
0.162174 -0.048241 0.087575 1.000000
-0.054973 -0.072635 -0.068261 1.000000
-0.061755 0.070112 0.071380 1.000000
-0.289751 -0.006450 -0.099482 1.000000
0.409917 -0.047373 -0.087674 1.000000
0.042654 -0.057050 0.082044 1.000000
0.137739 -0.032833 -0.094069 1.000000
-0.082796 -0.043273 0.090125 1.000000
-0.239301 0.099966 -0.001074 1.000000
-0.109245 0.080709 0.059178 1.000000
-0.069595 -0.084309 -0.053195 1.000000
-0.400962 0.059058 0.080816 1.000000
0.023004 -0.063500 0.077189 1.000000
-0.185998 -0.006880 -0.099442 1.000000
-0.037116 -0.087303 -0.048131 1.000000
0.457278 0.031478 0.095003 2.000000
-0.095774 -0.007346 -0.099398 1.000000
-0.022967 -0.064505 0.076309 1.000000
-0.454887 -0.078868 -0.060887 3.000000
0.181482 0.099496 0.009757 1.000000
0.363573 0.077162 -0.063387 1.000000
0.112273 -0.098638 0.014884 1.000000
-0.193553 0.037869 -0.092268 1.000000
-0.164450 -0.057859 0.081494 1.000000
0.195237 0.095504 0.029716 1.000000
-0.174966 0.092480 0.038132 1.000000
0.038320 -0.039538 -0.091445 1.000000
0.261190 0.099763 -0.006565 1.000000
-0.239772 0.055049 0.083562 1.000000
0.405194 -0.052474 -0.084709 1.000000
-0.311349 0.019571 0.098136 1.000000
0.228151 -0.099524 0.006991 1.000000
0.214307 -0.099771 0.000199 1.000000
0.369506 -0.085586 0.051398 1.000000
0.151682 0.091904 -0.039101 1.000000
0.240976 0.041153 -0.090847 1.000000
0.286668 0.098354 0.018152 1.000000
0.105185 0.002105 0.100008 1.000000
0.263575 -0.098019 -0.018435 1.000000
-0.353484 -0.099589 -0.005638 1.000000
-0.309047 0.099614 0.008505 1.000000
0.099986 -0.018798 -0.097894 1.000000
0.094444 0.097694 -0.020961 1.000000
0.071664 -0.033230 0.094288 1.000000
-0.224215 -0.097286 -0.021739 1.000000
0.267178 0.099830 -0.005399 1.000000
-0.141961 0.099837 -0.005182 1.000000
0.239359 -0.094208 -0.032560 1.000000
-0.071276 0.018024 -0.098066 1.000000
0.108143 0.094552 -0.032253 1.000000
-0.414356 0.056069 0.082869 1.000000
0.053455 -0.062022 -0.077973 1.000000
0.260653 -0.067406 0.073751 1.000000
0.256193 0.091470 0.040468 1.000000
0.262293 -0.099601 -0.005244 1.000000
0.289151 -0.082744 0.055879 1.000000
-0.134718 -0.083783 0.054351 1.000000
-0.076920 -0.050774 0.086077 1.000000
-0.179557 0.089402 -0.044502 1.000000
-0.204591 0.023616 0.097232 1.000000
0.001158 0.015701 -0.098434 1.000000
-0.138648 -0.024345 -0.096654 1.000000
0.181972 -0.007391 0.099756 1.000000
0.029599 -0.076078 0.064727 1.000000
0.404869 0.093127 -0.036212 1.000000
0.292334 0.085943 0.051189 1.000000
0.106615 0.025276 -0.096477 1.000000
0.138005 -0.098263 0.017255 1.000000
-0.305708 0.099029 0.013888 1.000000
-0.226834 0.088595 0.046448 1.000000
0.406773 0.015831 0.098776 1.000000
-0.311623 -0.086620 0.049650 1.000000
-0.452585 0.090475 0.042758 3.000000
-0.185438 -0.082962 0.055558 1.000000
-0.241968 0.086916 -0.049181 1.000000
-0.124132 -0.047112 -0.087807 1.000000
-0.274633 0.062451 0.078184 1.000000
-0.295980 0.018199 -0.098039 1.000000
0.144554 -0.076575 -0.063800 1.000000
0.290554 0.062815 0.077902 1.000000
-0.110143 0.039844 -0.091413 1.000000
-0.018796 0.092196 0.038789 1.000000
0.276432 0.064002 0.076959 1.000000
0.375110 0.012411 0.099304 1.000000
-0.300679 0.098619 -0.016115 1.000000
-0.193298 -0.077594 -0.062530 1.000000
0.040452 0.097937 0.020237 1.000000
-0.213267 -0.099298 0.009382 1.000000
-0.342434 0.067580 0.073804 1.000000
0.287812 -0.072657 -0.068239 1.000000
-0.271183 0.021973 -0.097236 1.000000
0.089377 0.037456 0.092810 1.000000
0.433735 0.078813 -0.061259 1.000000
-0.062527 -0.060061 0.079857 1.000000
0.193452 -0.085488 -0.051201 1.000000
-0.095432 -0.043745 0.089885 1.000000
0.083011 0.085309 0.052261 1.000000
-0.027358 0.014401 -0.098640 1.000000
-0.249953 0.046213 -0.088384 1.000000
0.178655 -0.011230 -0.099030 1.000000
-0.024578 -0.041511 0.090954 1.000000
-0.260322 0.099620 0.008447 1.000000
0.442121 -0.071010 0.070249 2.000000
-0.200990 -0.086996 -0.048650 1.000000
0.003823 -0.093255 0.035571 1.000000
0.406687 0.099234 0.012530 1.000000
0.252502 0.075739 0.065376 1.000000
-0.153354 -0.083061 -0.055049 1.000000
-0.466521 0.083677 0.054850 3.000000
-0.194465 -0.068787 0.072472 1.000000
0.119107 -0.030887 0.095132 1.000000
-0.318393 -0.052738 -0.084552 1.000000
0.167169 0.056989 -0.081881 1.000000
0.432196 0.089194 0.045272 2.000000
0.297224 0.093234 0.036276 1.000000
0.301206 0.082228 -0.056619 1.000000
0.171942 0.024483 0.097038 1.000000
0.207071 0.095905 0.028334 1.000000
-0.107833 -0.042740 -0.090034 1.000000
0.410994 0.016268 -0.098344 1.000000
0.002949 0.052724 0.085061 1.000000
0.229320 0.099867 0.004584 1.000000
-0.360803 -0.081160 -0.057847 1.000000
0.235944 0.050557 0.086343 1.000000
0.404397 -0.098954 0.012890 1.000000
0.042540 0.099637 0.008268 1.000000
0.070847 0.069606 0.071887 1.000000
-0.363353 -0.098887 -0.012951 1.000000
-0.035376 -0.079278 0.060721 1.000000
0.204188 -0.056669 -0.081940 1.000000
0.084564 0.072337 0.069155 1.000000
-0.307417 -0.089204 0.044795 1.000000
-0.155327 0.028164 -0.095638 1.000000
0.018590 -0.050212 -0.086046 1.000000
-0.103592 -0.088157 -0.046486 1.000000
-0.239818 -0.026164 -0.096151 1.000000
0.020843 -0.053014 0.084752 1.000000
-0.011636 -0.057055 0.082041 1.000000
0.020407 0.098775 0.015495 1.000000
-0.214057 -0.017233 0.098517 1.000000
0.426938 0.091352 -0.040377 1.000000
0.403848 -0.032181 -0.094303 1.000000
0.308084 0.089524 -0.044262 1.000000
-0.281662 0.082670 0.056331 1.000000
0.197706 -0.022085 0.097522 1.000000
0.459725 -0.096452 0.025647 2.000000
-0.179992 -0.056808 -0.081845 1.000000
-0.309189 0.068526 -0.072604 1.000000
-0.177161 -0.099729 -0.001170 1.000000
0.369777 -0.065112 0.075774 1.000000
-0.030644 -0.067510 -0.073297 1.000000
-0.146637 -0.061335 0.078868 1.000000
0.339094 -0.042291 -0.090254 1.000000
-0.413565 0.099847 -0.004856 1.000000
0.001510 0.039061 0.092115 1.000000
-0.246035 -0.052545 -0.084667 1.000000
0.107713 -0.024041 0.097085 1.000000
-0.439881 -0.092382 -0.037456 3.000000
0.209531 0.009747 0.099555 1.000000
0.052896 0.084070 -0.053909 1.000000
0.340416 -0.096580 0.025207 1.000000
0.408154 -0.016507 0.098632 1.000000
-0.182498 -0.098465 -0.015613 1.000000
-0.101389 0.028536 0.095892 1.000000
0.173114 -0.038262 -0.091997 1.000000
0.406077 -0.098008 0.018867 1.000000
0.309595 -0.090410 -0.042014 1.000000
0.130552 0.078315 0.062263 1.000000
-0.391474 -0.007364 -0.099396 1.000000
-0.152828 0.019938 0.098054 1.000000
-0.215935 0.031471 0.095006 1.000000
-0.127519 -0.087529 -0.047719 1.000000
0.230076 0.069148 -0.071981 1.000000
-0.455114 -0.099324 -0.008747 3.000000
0.378748 0.073874 0.067492 1.000000
0.238188 -0.038097 -0.092069 1.000000
0.381415 -0.074025 0.067056 1.000000
0.297694 0.027641 -0.095790 1.000000
0.211721 0.088800 0.046045 1.000000
-0.199000 -0.051134 -0.085501 1.000000
-0.397868 0.036876 -0.092697 1.000000
-0.038306 -0.092589 0.037342 1.000000
-0.195304 -0.028178 0.095929 1.000000
0.040788 0.099701 -0.007229 1.000000
-0.190087 0.022121 -0.097203 1.000000
-0.278900 0.089500 0.044672 1.000000
-0.460044 0.033380 -0.093956 3.000000
0.227868 0.099934 -0.002071 1.000000
0.004589 -0.099510 -0.006774 1.000000
0.344353 -0.085372 -0.051396 1.000000
0.087600 -0.082115 -0.056442 1.000000
-0.027707 -0.072878 -0.067994 1.000000
0.035427 0.028836 -0.095442 1.000000
0.002945 0.098975 0.014232 1.000000
0.064464 -0.092230 0.038171 1.000000
-0.241860 -0.069307 0.071952 1.000000
-0.211314 0.012794 0.099257 1.000000
0.283527 0.084171 0.054122 1.000000
0.015056 -0.086209 0.050345 1.000000
0.067608 -0.089650 0.043920 1.000000
-0.464774 -0.041126 -0.090758 3.000000
-0.258315 -0.034118 0.093969 1.000000
-0.017670 -0.095967 0.027318 1.000000
0.353016 -0.097599 0.020706 1.000000
-0.457649 -0.042084 -0.090343 3.000000
0.257824 -0.094910 0.030955 1.000000
-0.115326 0.048456 0.087586 1.000000
-0.179608 0.065991 -0.074842 1.000000
-0.273453 0.069728 0.071764 1.000000
-0.151065 -0.094683 -0.031241 1.000000
-0.295640 0.003810 0.099954 1.000000
0.064646 0.099185 0.012909 1.000000
-0.280828 -0.038657 0.092189 1.000000
0.238098 -0.089930 0.043370 1.000000
0.072408 0.047760 0.087958 1.000000
0.406092 0.088572 -0.046130 1.000000
-0.328892 -0.015100 0.098855 1.000000
-0.147284 0.074872 0.066360 1.000000
0.312538 -0.032257 -0.094276 1.000000
-0.038943 0.031839 -0.094510 1.000000
0.295294 0.099623 0.008407 1.000000
-0.047951 -0.085729 -0.050793 1.000000
0.233557 -0.016075 -0.098338 1.000000
0.355197 -0.099073 0.011759 1.000000
0.078570 0.052676 0.085090 1.000000
-0.064440 0.081653 0.057828 1.000000
-0.184716 -0.099040 0.012108 1.000000
0.331591 -0.099417 0.008120 1.000000
0.027930 -0.043664 0.089926 1.000000
-0.071565 -0.072883 -0.067988 1.000000
0.291309 -0.099754 0.000757 1.000000
0.260907 -0.075750 -0.064736 1.000000
0.223473 0.079680 -0.060141 1.000000
-0.416468 -0.081147 0.058228 1.000000
-0.385710 -0.072162 -0.068734 1.000000
-0.269651 0.038910 -0.091818 1.000000
-0.367171 -0.098146 -0.017633 1.000000
-0.261523 -0.037979 -0.092120 1.000000
-0.003570 -0.083655 -0.054176 1.000000
-0.056580 -0.062089 0.078283 1.000000
0.325091 0.066674 -0.074240 1.000000
0.313444 0.097680 -0.021021 1.000000
-0.113060 0.058973 0.080882 1.000000
-0.063685 0.015587 0.098815 1.000000
0.119356 0.032430 0.094660 1.000000
-0.149692 0.090992 -0.041208 1.000000
-0.191105 -0.052237 0.085211 1.000000
-0.212724 -0.081562 0.057619 1.000000
-0.465028 -0.077610 0.062872 3.000000
0.268120 0.072635 0.068858 1.000000
-0.085009 0.034836 -0.093432 1.000000
-0.037891 0.067741 0.073662 1.000000
0.339023 -0.068479 -0.072417 1.000000
0.132900 0.040892 -0.090960 1.000000
0.222287 -0.096301 -0.025807 1.000000
-0.424084 0.099863 -0.004346 1.000000
-0.114896 -0.064727 -0.075750 1.000000
-0.076343 -0.046217 -0.088263 1.000000
-0.168249 -0.098212 -0.017212 1.000000
0.068170 0.004135 0.099944 1.000000
-0.035397 0.072276 0.069217 1.000000
-0.091763 0.052103 0.085429 1.000000
-0.193799 -0.082449 -0.055950 1.000000
-0.103066 -0.070226 0.071033 1.000000
0.261941 0.053896 0.084346 1.000000
0.323212 -0.015634 -0.098408 1.000000
-0.459542 -0.081414 0.057837 3.000000
-0.136718 0.018633 0.098333 1.000000
-0.378504 0.099021 0.013943 1.000000
0.432477 0.092226 0.038720 2.000000
-0.065452 -0.043429 -0.089683 1.000000
-0.063438 -0.097879 -0.019088 1.000000
0.270703 0.061202 0.079153 1.000000
-0.413891 0.069139 -0.071991 1.000000
0.331103 -0.043046 -0.089878 1.000000
-0.225918 -0.097096 0.022954 1.000000
0.263054 0.070200 0.071292 1.000000
-0.409448 0.083325 0.055368 1.000000
0.179159 0.033022 0.094447 1.000000
-0.311687 0.057963 -0.081219 1.000000
0.073689 -0.052813 -0.084508 1.000000
-0.355087 -0.094449 0.032256 1.000000
0.452703 -0.079440 -0.060150 2.000000
-0.168052 0.002784 -0.099623 1.000000
-0.093818 -0.097413 0.021538 1.000000
-0.295650 0.095403 0.030062 1.000000
-0.351184 0.079798 -0.059989 1.000000
-0.097573 0.061328 0.079055 1.000000
0.340467 -0.034677 0.093768 1.000000
0.198679 -0.028088 0.095955 1.000000
0.046938 -0.032928 0.094397 1.000000
0.306002 0.032256 0.094723 1.000000
0.034781 0.099864 -0.004316 1.000000
0.229124 -0.075835 -0.064640 1.000000
0.116250 0.075810 -0.064933 1.000000
0.223116 0.097395 0.022662 1.000000
0.439904 0.083647 0.054893 2.000000
0.069076 -0.072983 0.068237 1.000000
-0.286718 -0.090305 0.042619 1.000000
-0.018714 -0.086083 0.050557 1.000000
-0.073707 -0.092969 0.036366 1.000000
-0.119903 0.084448 -0.053353 1.000000
-0.186194 -0.084269 -0.053263 1.000000
0.090741 -0.092230 0.038172 1.000000
-0.396564 0.084870 -0.052641 1.000000
0.458844 0.091032 0.041479 2.000000
-0.133893 0.092485 -0.037759 1.000000
0.090937 -0.028354 0.095877 1.000000
0.459902 0.075514 0.065631 2.000000
0.252257 -0.085833 -0.050618 1.000000
0.162637 0.099853 0.005012 1.000000
-0.348262 0.086286 0.050609 1.000000
-0.438744 0.032480 -0.094280 3.000000
0.287832 -0.011227 0.099393 1.000000
0.287929 -0.021308 -0.097333 1.000000
0.019225 0.084084 0.054251 1.000000
-0.271845 -0.006659 -0.099463 1.000000
