-0.466955 0.033744 -0.054265 3.000000
-0.466955 -0.045891 -0.016100 3.000000
-0.466955 -0.052914 0.078929 3.000000
-0.466955 -0.096559 -0.006040 3.000000
-0.466955 0.005275 0.080516 3.000000
-0.466955 0.057394 -0.024922 3.000000
-0.466955 0.021088 -0.049153 3.000000
-0.466955 -0.054359 -0.059993 3.000000
-0.466955 0.025391 0.072906 3.000000
-0.466955 0.006616 -0.079121 3.000000
-0.466955 -0.000429 0.051467 3.000000
-0.466955 -0.030663 0.008595 3.000000
-0.466955 -0.056923 0.078549 3.000000
-0.466955 0.042540 0.030890 3.000000
-0.466955 0.037017 -0.091101 3.000000
-0.466955 0.006534 0.018699 3.000000
-0.466955 0.067654 -0.068182 3.000000
-0.466955 0.043106 -0.078555 3.000000
-0.466955 -0.049671 0.008184 3.000000
-0.466955 0.053693 0.070545 3.000000
-0.466955 0.086014 0.027188 3.000000
-0.466955 0.076639 -0.010179 3.000000
-0.466955 0.013968 -0.074851 3.000000
-0.466955 0.020954 0.081209 3.000000
-0.466955 0.049739 -0.047914 3.000000
-0.466955 -0.098645 0.011098 3.000000
-0.466955 0.082302 0.031019 3.000000
-0.466955 0.008011 0.019147 3.000000
-0.466955 0.049939 0.085482 3.000000
-0.466955 0.037143 0.080660 3.000000
-0.466955 -0.031023 0.006883 3.000000
-0.466955 -0.003848 0.044090 3.000000
-0.466955 0.092010 0.033142 3.000000
-0.466955 -0.032146 -0.071871 3.000000
-0.466955 0.082197 0.053785 3.000000
-0.466955 -0.055595 -0.070326 3.000000
-0.466955 -0.017836 0.046060 3.000000
-0.466955 0.068111 -0.051776 3.000000
-0.466955 0.032917 -0.045489 3.000000
-0.466955 -0.027447 0.021084 3.000000
-0.466955 0.010177 0.070488 3.000000
-0.466955 0.015247 -0.062635 3.000000
-0.466955 -0.012482 -0.012521 3.000000
-0.466955 0.007033 0.080689 3.000000
-0.466955 -0.064559 -0.040508 3.000000
-0.466955 0.016929 -0.065188 3.000000
-0.466955 0.019419 0.080864 3.000000
-0.466955 0.002962 0.000176 3.000000
-0.466955 0.027281 0.066969 3.000000
-0.466955 -0.057834 0.070626 3.000000
-0.466955 0.025176 0.006936 3.000000
-0.466955 -0.077804 0.019478 3.000000
-0.466955 0.015288 -0.010718 3.000000
-0.466955 0.005800 -0.071188 3.000000
-0.466955 0.005672 0.001694 3.000000
-0.466955 0.016028 0.093756 3.000000
-0.466955 0.012374 0.042889 3.000000
-0.466955 0.045175 -0.049373 3.000000
-0.466955 0.033065 -0.072142 3.000000
-0.466955 0.003491 0.078775 3.000000
-0.466955 -0.078058 0.051718 3.000000
-0.466955 0.046565 0.076658 3.000000
-0.466955 0.079046 0.060270 3.000000
-0.466955 0.061651 -0.032717 3.000000
-0.466955 0.051116 -0.069888 3.000000
-0.466955 0.065189 0.034602 3.000000
-0.466955 -0.077961 -0.013646 3.000000
-0.466955 0.052858 0.044774 3.000000
-0.466955 -0.068123 -0.055601 3.000000
-0.466955 0.063779 -0.023360 3.000000
-0.466955 -0.015280 0.004546 3.000000
-0.466955 0.016260 -0.015434 3.000000
-0.466955 0.043331 -0.056531 3.000000
-0.466955 -0.026790 0.031826 3.000000
-0.466955 -0.007909 0.035160 3.000000
-0.466955 0.012431 -0.060214 3.000000
-0.466955 -0.089213 -0.038450 3.000000
-0.466955 -0.066986 0.024549 3.000000
-0.466955 0.028662 -0.069146 3.000000
-0.466955 0.084934 0.014865 3.000000
-0.466955 -0.000779 0.037643 3.000000
-0.466955 -0.043754 0.005536 3.000000
-0.466955 -0.027125 0.027298 3.000000
-0.466955 -0.006346 -0.013345 3.000000
-0.466955 -0.008560 -0.087249 3.000000
-0.466955 0.013643 -0.026728 3.000000
-0.466955 -0.026282 -0.082824 3.000000
-0.466955 0.048004 0.063426 3.000000
-0.466955 0.083970 0.031567 3.000000
-0.466955 -0.007339 0.097091 3.000000
-0.466955 -0.018969 0.011976 3.000000
-0.466955 -0.088402 -0.028305 3.000000
-0.466955 -0.059975 -0.065022 3.000000
-0.466955 0.036596 -0.084540 3.000000
-0.466955 -0.070689 -0.010371 3.000000
-0.466955 0.049446 0.049786 3.000000
-0.466955 0.096781 -0.023364 3.000000
-0.466955 -0.083382 -0.028692 3.000000
-0.466955 0.069834 0.053074 3.000000
-0.466955 -0.095305 -0.025297 3.000000
-0.466955 0.045601 -0.022649 3.000000
-0.466955 -0.055841 0.053501 3.000000
-0.466955 -0.050944 -0.083021 3.000000
-0.466955 -0.061229 0.078936 3.000000
-0.466955 0.084857 -0.051913 3.000000
-0.466955 0.014534 0.009445 3.000000
-0.466955 -0.057548 -0.054571 3.000000
-0.466955 -0.064119 -0.072586 3.000000
-0.466955 0.030134 -0.005503 3.000000
-0.466955 0.004631 0.043368 3.000000
-0.466955 0.041154 -0.060907 3.000000
-0.466955 -0.009346 -0.068825 3.000000
-0.466955 -0.004614 -0.050005 3.000000
-0.466955 -0.021703 0.070494 3.000000
-0.466955 0.011601 -0.022885 3.000000
-0.466955 0.005050 -0.046605 3.000000
-0.466955 0.024511 0.005759 3.000000
-0.466955 -0.030060 0.001214 3.000000
-0.466955 0.029337 0.089946 3.000000
-0.466955 -0.008178 0.014312 3.000000
-0.466955 -0.009562 0.006686 3.000000
-0.466955 -0.091118 -0.023466 3.000000
-0.466955 -0.037473 0.082848 3.000000
-0.466955 0.050371 0.068331 3.000000
-0.466955 0.034901 0.014679 3.000000
-0.466955 0.059014 -0.041511 3.000000
-0.466955 -0.036944 0.065588 3.000000
-0.466955 0.014998 0.091860 3.000000
-0.466955 -0.012344 0.081488 3.000000
-0.466955 -0.072075 -0.051493 3.000000
-0.466955 -0.031249 -0.009468 3.000000
-0.466955 0.012991 0.047033 3.000000
-0.466955 -0.028354 -0.005187 3.000000
-0.466955 0.013352 -0.096536 3.000000
-0.466955 0.028569 0.068550 3.000000
-0.466955 0.004787 -0.095108 3.000000
-0.466955 -0.022975 -0.057146 3.000000
-0.466955 -0.010761 0.029459 3.000000
-0.466955 -0.074530 -0.000815 3.000000
-0.466955 -0.053468 0.055197 3.000000
-0.466955 -0.052907 0.033887 3.000000
-0.466955 -0.022118 0.017345 3.000000
-0.466955 0.018735 -0.000915 3.000000
-0.466955 -0.088766 -0.033465 3.000000
-0.466955 -0.043681 -0.086117 3.000000
-0.466955 -0.009783 0.083756 3.000000
-0.466955 -0.090203 -0.021289 3.000000
-0.466955 -0.044049 -0.036024 3.000000
-0.466955 -0.047994 0.011088 3.000000
-0.466955 -0.051494 0.048573 3.000000
-0.466955 0.016607 -0.020136 3.000000
-0.466955 0.024879 -0.012032 3.000000
-0.466955 0.011385 0.017624 3.000000
-0.466955 0.082849 0.025648 3.000000
-0.466955 -0.029942 0.066334 3.000000
-0.466955 0.067081 0.001939 3.000000
-0.466955 -0.012231 -0.031544 3.000000
-0.466955 0.002053 0.077510 3.000000
-0.466955 0.011439 0.001390 3.000000
-0.466955 -0.054935 -0.034777 3.000000
-0.466955 0.062237 -0.006348 3.000000
-0.466955 0.046633 0.003868 3.000000
-0.466955 0.030375 0.084587 3.000000
-0.466955 -0.046640 0.031771 3.000000
-0.466955 -0.071669 -0.004664 3.000000
-0.466955 -0.026733 0.096344 3.000000
-0.466955 0.014944 -0.020179 3.000000
-0.466955 0.000549 0.035341 3.000000
-0.466955 0.044675 0.053848 3.000000
-0.466955 0.015284 0.071810 3.000000
-0.466955 -0.010936 0.088424 3.000000
-0.466955 0.044974 -0.004249 3.000000
-0.466955 -0.035488 0.039434 3.000000
-0.466955 0.057685 0.021720 3.000000
-0.466955 -0.085787 -0.004781 3.000000
-0.466955 0.053423 0.009345 3.000000
-0.466955 0.004663 -0.030042 3.000000
-0.466955 0.062614 -0.009320 3.000000
-0.466955 -0.017231 -0.019393 3.000000
-0.466955 -0.038570 0.027567 3.000000
-0.466955 0.014942 0.036636 3.000000
-0.466955 0.012476 -0.042136 3.000000
-0.466955 0.080739 0.002787 3.000000
-0.466955 0.002110 -0.092547 3.000000
-0.466955 -0.017391 0.033001 3.000000
-0.466955 0.039300 0.045222 3.000000
-0.466955 0.001560 -0.037053 3.000000
-0.466955 -0.029793 0.005282 3.000000
-0.466955 0.009739 -0.046840 3.000000
-0.466955 0.042154 -0.073457 3.000000
-0.466955 0.057206 -0.062680 3.000000
-0.466955 0.057872 0.018456 3.000000
-0.466955 -0.011913 0.027990 3.000000
-0.466955 -0.024519 0.015477 3.000000
-0.466955 0.067769 -0.014323 3.000000
-0.466955 -0.084689 -0.033812 3.000000
-0.466955 -0.017118 -0.094978 3.000000
-0.466955 -0.069769 -0.070660 3.000000
-0.466955 0.050466 -0.068638 3.000000
-0.466955 -0.065140 0.056614 3.000000
-0.466955 0.022111 0.020014 3.000000
-0.466955 -0.015249 0.010476 3.000000
-0.466955 0.073854 -0.040639 3.000000
-0.466955 0.054263 0.038986 3.000000
-0.466955 0.012979 0.009883 3.000000
-0.466955 -0.074301 -0.021401 3.000000
-0.466955 -0.040701 0.060462 3.000000
-0.466955 -0.006589 0.036524 3.000000
-0.466955 -0.001261 -0.031916 3.000000
-0.466955 -0.062206 -0.070036 3.000000
-0.466955 0.065796 0.057860 3.000000
-0.466955 -0.089736 -0.035399 3.000000
-0.466955 -0.075497 0.057435 3.000000
-0.466955 0.058853 -0.010187 3.000000
-0.466955 -0.038278 -0.018366 3.000000
-0.466955 0.031038 -0.051249 3.000000
-0.466955 -0.010907 0.094756 3.000000
-0.466955 -0.070831 0.027555 3.000000
-0.466955 -0.042452 0.024627 3.000000
-0.466955 -0.026220 0.083534 3.000000
-0.466955 -0.040060 -0.075558 3.000000
-0.466955 -0.051176 -0.008090 3.000000
-0.466955 -0.044900 0.017587 3.000000
-0.466955 -0.045610 -0.048401 3.000000
-0.466955 -0.024820 0.031046 3.000000
-0.466955 0.067950 -0.034810 3.000000
-0.466955 -0.048458 0.065833 3.000000
-0.466955 0.015047 -0.060834 3.000000
-0.466955 -0.015934 0.024031 3.000000
-0.466955 0.040639 0.077280 3.000000
-0.466955 0.013675 -0.050672 3.000000
-0.466955 -0.049333 -0.034635 3.000000
-0.466955 -0.094489 0.015310 3.000000
-0.466955 0.087962 -0.046620 3.000000
-0.466955 -0.047072 -0.041898 3.000000
-0.466955 0.035205 0.084659 3.000000
-0.466955 -0.068642 0.056515 3.000000
-0.466955 -0.080961 0.013667 3.000000
-0.466955 -0.036203 0.030224 3.000000
-0.466955 -0.082681 0.022843 3.000000
-0.466955 0.062420 -0.014794 3.000000
-0.466955 -0.041269 0.026494 3.000000
-0.466955 -0.089066 0.010055 3.000000
-0.466955 -0.069721 0.016571 3.000000
-0.466955 -0.066085 -0.043415 3.000000
-0.466955 -0.016445 -0.032286 3.000000
-0.466955 0.004611 0.098808 3.000000
-0.466955 -0.071799 0.055722 3.000000
-0.466955 0.051002 0.050400 3.000000
-0.466955 0.019490 -0.023021 3.000000
-0.466955 -0.062409 0.022949 3.000000
-0.466955 0.078791 -0.042741 3.000000
-0.466955 -0.027206 -0.091244 3.000000
-0.466955 -0.081493 -0.042126 3.000000
-0.466955 -0.075186 0.037851 3.000000
-0.466955 -0.012578 -0.010664 3.000000
-0.466955 0.013644 -0.011522 3.000000
-0.466955 -0.042709 -0.050704 3.000000
-0.466955 0.017705 0.048238 3.000000
-0.466955 -0.052099 0.063422 3.000000
-0.466955 -0.014040 -0.049321 3.000000
-0.466955 -0.026392 -0.074668 3.000000
-0.466955 0.014341 -0.090093 3.000000
-0.466955 0.089824 0.037385 3.000000
-0.466955 -0.099241 0.006385 3.000000
-0.466955 -0.085323 0.002162 3.000000
-0.466955 0.041467 0.020147 3.000000
-0.466955 0.088665 -0.002980 3.000000
-0.466955 -0.064512 0.070828 3.000000
-0.466955 -0.033883 0.041545 3.000000
-0.466955 0.038850 -0.009301 3.000000
-0.466955 -0.088187 -0.002476 3.000000
-0.466955 -0.035733 -0.042144 3.000000
-0.466955 -0.016256 -0.042704 3.000000
-0.466955 0.016278 -0.058607 3.000000
-0.466955 -0.030256 0.054161 3.000000
-0.466955 0.077612 0.019603 3.000000
-0.466955 0.047375 -0.031554 3.000000
-0.466955 0.010892 -0.073354 3.000000
-0.466955 -0.084698 0.020894 3.000000
-0.466955 0.045775 0.081690 3.000000
-0.466955 -0.068391 0.058153 3.000000
-0.466955 0.057760 0.054816 3.000000
-0.466955 -0.067421 -0.053340 3.000000
-0.466955 0.027697 0.089915 3.000000
-0.466955 0.048501 -0.061527 3.000000
-0.466955 -0.079647 0.055372 3.000000
-0.466955 -0.027303 -0.067947 3.000000
-0.466955 0.007025 0.033066 3.000000
-0.466955 -0.056541 0.060309 3.000000
-0.466955 0.054430 -0.072454 3.000000
-0.466955 0.018598 0.037585 3.000000
-0.466955 -0.002025 -0.051781 3.000000
-0.466955 0.063565 -0.036000 3.000000
-0.466955 -0.065567 0.013179 3.000000
-0.466955 -0.057753 0.001425 3.000000
-0.466955 -0.012565 -0.094935 3.000000
-0.466955 -0.049317 -0.028352 3.000000
-0.466955 -0.016904 -0.025413 3.000000
-0.466955 0.086812 0.037332 3.000000
-0.466955 -0.079421 0.015927 3.000000
-0.466955 -0.042040 -0.007207 3.000000
-0.466955 -0.074091 -0.017072 3.000000
-0.466955 0.070306 0.029255 3.000000
-0.466955 -0.049532 -0.063253 3.000000
-0.466955 0.035959 0.066623 3.000000
-0.466955 -0.044001 -0.010512 3.000000
-0.466955 -0.057582 0.076950 3.000000
-0.466955 -0.046423 -0.078128 3.000000
-0.466955 -0.065586 0.024945 3.000000
-0.466955 -0.014473 0.049087 3.000000
-0.466955 0.069409 -0.066355 3.000000
-0.466955 0.025994 -0.082069 3.000000
-0.466955 0.081166 0.026476 3.000000
-0.466955 -0.022409 0.009402 3.000000
-0.466955 0.075615 -0.032721 3.000000
-0.466955 0.019342 0.033284 3.000000
-0.466955 0.077926 0.006317 3.000000
-0.466955 -0.028914 0.092353 3.000000
-0.466955 0.022799 0.051835 3.000000
-0.466955 0.049278 -0.033731 3.000000
-0.466955 -0.056006 0.058049 3.000000
-0.466955 0.035575 -0.017318 3.000000
-0.466955 0.025970 0.090465 3.000000
-0.466955 -0.033386 0.029147 3.000000
-0.466955 0.026290 0.051447 3.000000
-0.466955 -0.067973 -0.004103 3.000000
-0.466955 -0.049095 0.042921 3.000000
-0.466955 0.059071 -0.052231 3.000000
-0.466955 0.001015 -0.076845 3.000000
-0.466955 0.087260 0.031412 3.000000
-0.466955 0.028890 0.026784 3.000000
-0.466955 0.017757 0.079054 3.000000
-0.466955 0.064326 0.016384 3.000000
-0.466955 -0.032036 0.050685 3.000000
-0.466955 -0.056899 0.024580 3.000000
-0.466955 0.097693 0.020361 3.000000
-0.466955 0.039695 -0.055326 3.000000
-0.466955 -0.054207 -0.039194 3.000000
-0.466955 0.002155 0.060569 3.000000
-0.466955 -0.084130 -0.041464 3.000000
-0.466955 -0.077549 -0.046671 3.000000
-0.466955 0.031410 0.079514 3.000000
-0.466955 -0.023639 0.027378 3.000000
-0.466955 -0.033983 -0.089278 3.000000
-0.466955 0.040589 0.002366 3.000000
-0.466955 -0.047330 -0.076730 3.000000
-0.466955 0.086065 0.012121 3.000000
-0.466955 -0.056299 0.082458 3.000000
-0.466955 -0.052374 -0.041783 3.000000
-0.466955 0.077110 0.018102 3.000000
-0.466955 -0.098487 0.013710 3.000000
-0.466955 0.061136 0.068694 3.000000
-0.466955 0.082775 0.038666 3.000000
-0.466955 0.023304 0.037061 3.000000
-0.466955 0.020798 -0.092552 3.000000
-0.466955 0.047442 0.052338 3.000000
-0.466955 0.021399 -0.000053 3.000000
-0.466955 0.060584 -0.005066 3.000000
-0.466955 -0.022392 0.056060 3.000000
-0.466955 -0.033623 0.015337 3.000000
-0.466955 0.067377 -0.049586 3.000000
-0.466955 0.093839 -0.032171 3.000000
-0.466955 0.072978 0.030425 3.000000
-0.466955 0.088120 0.027243 3.000000
-0.466955 -0.018747 -0.027586 3.000000
-0.466955 -0.063510 0.002219 3.000000
-0.466955 0.086249 0.016552 3.000000
-0.466955 0.056274 0.001775 3.000000
-0.466955 0.038242 0.085687 3.000000
-0.466955 -0.026383 0.006147 3.000000
-0.466955 0.023888 0.038439 3.000000
-0.466955 -0.050551 -0.069326 3.000000
-0.466955 0.023729 0.087961 3.000000
-0.466955 0.050504 -0.019182 3.000000
-0.466955 0.017103 0.034322 3.000000
-0.466955 -0.060760 -0.073258 3.000000
-0.466955 -0.009842 -0.060679 3.000000
-0.466955 0.046449 0.033009 3.000000
-0.466955 -0.027607 0.044539 3.000000
-0.466955 0.049321 -0.063476 3.000000
-0.466955 -0.050800 0.039839 3.000000
-0.466955 -0.045564 -0.064678 3.000000
-0.466955 0.021953 0.018469 3.000000
-0.466955 0.034474 -0.046662 3.000000
-0.466955 0.058370 0.020268 3.000000
-0.466955 0.004624 -0.019788 3.000000
-0.466955 -0.090446 -0.041607 3.000000
-0.466955 0.053094 0.080483 3.000000
-0.466955 0.010067 -0.048370 3.000000
-0.466955 -0.025734 -0.016470 3.000000
-0.466955 -0.027427 -0.034881 3.000000
-0.466955 -0.013123 0.080171 3.000000
-0.466955 0.067275 0.049355 3.000000
-0.466955 0.024936 -0.083904 3.000000
-0.466955 0.037828 0.050713 3.000000
-0.466955 -0.018124 -0.031888 3.000000
-0.466955 0.002975 0.002122 3.000000
-0.466955 0.037553 -0.038532 3.000000
-0.466955 0.038119 -0.012921 3.000000
-0.466955 0.018026 -0.046311 3.000000
-0.466955 0.000068 -0.054162 3.000000
-0.466955 -0.004306 -0.015840 3.000000
-0.466955 -0.030423 -0.015990 3.000000
-0.466955 0.052150 -0.060053 3.000000
-0.466955 0.014699 0.047277 3.000000
-0.466955 -0.039358 -0.065735 3.000000
-0.466955 0.005420 0.081872 3.000000
-0.466955 -0.054709 -0.030752 3.000000
-0.466955 -0.029453 0.062208 3.000000
-0.466955 0.003195 -0.072483 3.000000
-0.466955 -0.083614 0.048330 3.000000
-0.466955 -0.070497 -0.066203 3.000000
-0.466955 -0.099491 -0.006427 3.000000
-0.466955 -0.009700 -0.088666 3.000000
-0.466955 0.023364 -0.077656 3.000000
-0.466955 -0.094711 -0.013953 3.000000
-0.466955 -0.058967 0.043321 3.000000
-0.466955 -0.021212 0.085869 3.000000
-0.466955 -0.054311 -0.010696 3.000000
-0.466955 0.001321 0.070157 3.000000
-0.466955 0.025840 0.063183 3.000000
-0.466955 0.038995 0.070264 3.000000
-0.466955 -0.088456 0.003829 3.000000
-0.466955 0.084451 0.029161 3.000000
-0.466955 -0.065537 0.067327 3.000000
-0.466955 -0.030253 0.050947 3.000000
-0.466955 -0.029012 -0.016577 3.000000
-0.466955 0.093278 -0.017568 3.000000
-0.466955 0.060707 0.010045 3.000000
-0.466955 -0.004668 -0.066507 3.000000
-0.466955 0.011249 -0.081065 3.000000
-0.466955 -0.034249 0.022623 3.000000
-0.466955 -0.014425 -0.008856 3.000000
-0.466955 -0.013700 0.089875 3.000000
-0.466955 0.018187 0.054969 3.000000
-0.466955 0.046252 0.063094 3.000000
-0.466955 0.031492 0.082807 3.000000
-0.466955 -0.034239 0.011146 3.000000
-0.466955 -0.035603 0.033613 3.000000
-0.466955 -0.056420 -0.079945 3.000000
-0.466955 0.067970 0.024974 3.000000
-0.466955 0.022840 0.042479 3.000000
-0.466955 0.056563 0.011034 3.000000
-0.466955 0.041757 -0.039402 3.000000
-0.466955 0.092444 -0.037759 3.000000
-0.466955 -0.070201 0.026032 3.000000
-0.466955 0.023581 -0.083363 3.000000
-0.466955 0.004465 -0.091829 3.000000
-0.466955 0.008867 0.032498 3.000000
-0.466955 0.017425 0.016665 3.000000
-0.466955 0.010096 0.007172 3.000000
-0.466955 -0.072570 0.032628 3.000000
-0.466955 -0.079899 0.003732 3.000000
-0.466955 -0.039873 0.000124 3.000000
-0.466955 0.029684 0.009183 3.000000
-0.466955 -0.056272 -0.021221 3.000000
-0.466955 -0.079356 -0.027448 3.000000
-0.466955 -0.043833 -0.059289 3.000000
-0.466955 -0.018473 -0.085815 3.000000
-0.466955 0.060654 0.053358 3.000000
-0.466955 0.019048 -0.081957 3.000000
-0.466955 0.050882 -0.043495 3.000000
-0.466955 -0.001432 0.045656 3.000000
-0.466955 -0.012331 -0.056711 3.000000
-0.466955 -0.075062 0.005041 3.000000
-0.466955 -0.045591 -0.041059 3.000000
-0.466955 -0.038904 -0.084732 3.000000
-0.466955 -0.064066 -0.004816 3.000000
-0.466955 0.044619 0.029592 3.000000
-0.466955 0.008280 -0.051507 3.000000
-0.466955 -0.032407 0.034241 3.000000
-0.466955 -0.017066 0.008387 3.000000
-0.466955 0.023841 0.056130 3.000000
-0.466955 -0.080404 0.007260 3.000000
-0.466955 0.096545 -0.003050 3.000000
-0.466955 0.052143 -0.022783 3.000000
-0.466955 0.066511 -0.012701 3.000000
-0.466955 0.003499 -0.043264 3.000000
-0.466955 -0.024984 -0.041640 3.000000
-0.466955 -0.073421 0.050304 3.000000
-0.466955 0.042877 -0.060901 3.000000
-0.466955 -0.030689 0.090770 3.000000
-0.466955 -0.027349 -0.072194 3.000000
-0.466955 -0.020564 0.093879 3.000000
-0.466955 0.019712 0.045781 3.000000
-0.466955 0.008305 -0.079839 3.000000
-0.466955 0.061338 -0.078102 3.000000
-0.466955 -0.091734 0.024551 3.000000
-0.466955 0.037312 0.033350 3.000000
-0.466955 -0.044322 0.019200 3.000000
-0.466955 -0.079511 -0.054146 3.000000
-0.466955 -0.012906 -0.087097 3.000000
-0.466955 0.085463 -0.029448 3.000000
-0.466955 -0.084478 0.016887 3.000000
-0.466955 0.058848 -0.063667 3.000000
-0.466955 -0.029488 -0.011689 3.000000
-0.466955 -0.047370 0.052547 3.000000
-0.466955 -0.005722 -0.094042 3.000000
-0.466955 0.028676 -0.034616 3.000000
-0.466955 -0.096175 -0.011133 3.000000
-0.466955 -0.068854 0.069990 3.000000
-0.466955 0.032731 0.048604 3.000000
-0.466955 0.026022 0.069784 3.000000
-0.466955 -0.057947 0.026950 3.000000
-0.466955 0.008248 0.059306 3.000000
-0.466955 -0.010705 0.059420 3.000000
-0.466955 0.023726 0.009162 3.000000
-0.466955 0.073959 -0.060166 3.000000
-0.466955 0.032041 0.005989 3.000000
-0.466955 0.045024 -0.027421 3.000000
-0.466955 0.047487 -0.019757 3.000000
-0.466955 0.057649 -0.033176 3.000000
-0.466955 -0.052510 -0.020070 3.000000
-0.466955 0.054292 -0.017175 3.000000
-0.466955 -0.081700 -0.020420 3.000000
-0.466955 -0.095950 0.008164 3.000000
-0.466955 -0.048594 -0.027155 3.000000
-0.466955 0.065306 -0.020212 3.000000
-0.466955 0.058074 0.043750 3.000000
-0.466955 0.013152 0.000985 3.000000
-0.466955 0.093844 -0.021006 3.000000
-0.466955 -0.088654 -0.011447 3.000000
-0.466955 0.062647 0.075135 3.000000
-0.466955 0.019538 0.096012 3.000000
-0.466955 -0.010031 -0.047324 3.000000
-0.466955 -0.012326 0.053444 3.000000
-0.466955 0.037982 0.053880 3.000000
-0.466955 0.014602 0.038526 3.000000
-0.466955 -0.023064 -0.039604 3.000000
-0.466955 -0.028804 0.063456 3.000000
-0.466955 -0.073618 0.009287 3.000000
-0.466955 -0.030979 0.013955 3.000000
-0.466955 0.053611 0.068977 3.000000
-0.466955 -0.067993 0.030939 3.000000
-0.466955 0.052364 0.027210 3.000000
-0.466955 0.075901 -0.027163 3.000000
-0.466955 0.076146 0.045766 3.000000
-0.466955 -0.088082 -0.037315 3.000000
-0.466955 0.009423 -0.088064 3.000000
-0.466955 0.053477 0.078649 3.000000
-0.466955 0.032085 0.075982 3.000000
-0.466955 0.030465 0.047570 3.000000
-0.466955 -0.055462 -0.037911 3.000000
-0.466955 0.035485 0.023567 3.000000
-0.466955 0.014160 -0.083730 3.000000
-0.466955 -0.044900 0.048778 3.000000
-0.466955 0.075992 0.008441 3.000000
-0.466955 0.065605 0.036393 3.000000
-0.466955 -0.002270 0.023448 3.000000
-0.466955 0.042794 0.067136 3.000000
-0.466955 0.051416 0.014912 3.000000
-0.466955 0.066197 -0.071384 3.000000
-0.466955 -0.003693 0.039458 3.000000
-0.466955 -0.082553 0.016792 3.000000
-0.466955 -0.037286 0.067202 3.000000
-0.466955 -0.013255 0.095741 3.000000
-0.466955 -0.039194 -0.051951 3.000000
-0.466955 -0.045784 0.030744 3.000000
-0.466955 -0.042007 0.047510 3.000000
-0.466955 0.032715 -0.063038 3.000000
-0.466955 0.027173 0.096203 3.000000
-0.466955 0.054553 0.010251 3.000000
-0.466955 -0.024141 0.078118 3.000000
-0.466955 0.005667 0.069755 3.000000
-0.466955 0.049393 0.034012 3.000000
-0.466955 -0.094526 0.011539 3.000000
-0.466955 -0.003161 0.046024 3.000000
-0.466955 -0.028703 -0.065287 3.000000
-0.466955 -0.045145 -0.070651 3.000000
-0.466955 0.050682 0.032965 3.000000
-0.466955 -0.059604 0.023731 3.000000
-0.466955 0.054340 -0.024304 3.000000
-0.466955 0.055557 -0.018809 3.000000
-0.466955 0.099328 0.006665 3.000000
-0.466955 0.008429 0.098405 3.000000
-0.466955 0.076402 -0.029291 3.000000
-0.466955 0.002731 0.062316 3.000000
-0.466955 0.021931 -0.069649 3.000000
-0.466955 0.009872 0.048041 3.000000
-0.466955 -0.076188 0.006080 3.000000
-0.466955 -0.050351 0.053866 3.000000
-0.466955 0.061900 -0.073058 3.000000
-0.466955 0.011840 -0.006872 3.000000
-0.466955 0.048105 0.030867 3.000000
-0.466955 -0.026849 0.082139 3.000000
-0.466955 -0.076075 -0.034696 3.000000
-0.466955 0.011083 -0.088551 3.000000
-0.466955 0.021903 -0.075555 3.000000
-0.466955 -0.088892 0.007350 3.000000
-0.466955 0.084212 0.039817 3.000000
-0.466955 -0.031028 -0.073466 3.000000
-0.466955 0.044406 0.005206 3.000000
-0.466955 -0.017835 -0.012265 3.000000
-0.466955 -0.025537 0.051530 3.000000
-0.466955 0.064987 0.006961 3.000000
-0.466955 0.018717 0.073810 3.000000
-0.466955 0.049635 0.022678 3.000000
-0.466955 -0.071891 0.039905 3.000000
-0.466955 0.033918 0.031466 3.000000
-0.466955 0.015226 0.018564 3.000000
-0.466955 0.086960 0.021100 3.000000
-0.466955 -0.092737 -0.018411 3.000000
-0.466955 -0.046853 -0.010197 3.000000
-0.466955 0.053067 -0.053941 3.000000
-0.466955 0.027171 -0.043591 3.000000
-0.466955 -0.033805 0.062100 3.000000
-0.466955 0.031329 -0.042906 3.000000
-0.466955 -0.059875 0.016942 3.000000
-0.466955 0.037850 -0.046978 3.000000
-0.466955 -0.016017 -0.096210 3.000000
-0.466955 0.095340 0.003361 3.000000
-0.466955 -0.007109 0.040621 3.000000
-0.466955 0.054782 -0.027716 3.000000
-0.466955 -0.079390 -0.060083 3.000000
-0.466955 -0.073647 0.024231 3.000000
-0.466955 0.083326 -0.054864 3.000000
-0.466955 0.027534 -0.029647 3.000000
-0.466955 0.047699 0.024833 3.000000
-0.466955 0.033049 -0.042653 3.000000
-0.466955 -0.038639 -0.004451 3.000000
-0.466955 -0.038748 -0.015719 3.000000
-0.466955 0.010885 0.092056 3.000000
-0.466955 0.016221 -0.055350 3.000000
-0.466955 -0.032308 0.031769 3.000000
-0.466955 0.000610 0.098847 3.000000
-0.466955 -0.060779 0.046188 3.000000
-0.466955 0.005782 -0.043272 3.000000
-0.466955 -0.076261 0.059468 3.000000
-0.466955 -0.079551 0.043965 3.000000
-0.466955 0.059280 0.054076 3.000000
-0.466955 0.005083 -0.096941 3.000000
-0.466955 -0.052606 -0.082341 3.000000
-0.466955 0.029638 0.020243 3.000000
-0.466955 0.047562 -0.070035 3.000000
-0.466955 0.061650 -0.039023 3.000000
-0.466955 -0.037825 0.025717 3.000000
-0.466955 -0.027969 0.075381 3.000000
-0.466955 -0.076881 -0.049302 3.000000
-0.466955 0.050188 -0.020924 3.000000
-0.466955 -0.083982 0.022165 3.000000
-0.466955 0.037204 -0.001823 3.000000
-0.466955 -0.007175 -0.014649 3.000000
-0.466955 0.052484 0.046261 3.000000
-0.466955 0.003987 -0.038823 3.000000
-0.466955 -0.010454 0.096080 3.000000
-0.466955 -0.074511 -0.046306 3.000000
-0.466955 0.074537 -0.003576 3.000000
-0.466955 0.069507 -0.028394 3.000000
-0.466955 -0.011651 -0.074800 3.000000
-0.466955 -0.090189 -0.010345 3.000000
-0.466955 -0.057776 -0.009250 3.000000
-0.466955 -0.044256 0.070610 3.000000
-0.466955 0.002006 0.007724 3.000000
-0.466955 0.064922 -0.018635 3.000000
-0.466955 -0.054465 -0.027012 3.000000
-0.466955 -0.050460 0.045692 3.000000
-0.466955 0.016032 0.068253 3.000000
-0.466955 -0.003890 -0.096225 3.000000
-0.466955 0.045407 0.077885 3.000000
-0.466955 0.075254 0.026245 3.000000
-0.466955 -0.032511 -0.006384 3.000000
-0.466955 -0.069940 0.051448 3.000000
-0.466955 -0.038944 0.066624 3.000000
-0.466955 -0.048426 -0.022200 3.000000
-0.466955 -0.017266 -0.033688 3.000000
-0.466955 -0.036817 -0.026684 3.000000
-0.466955 0.053563 -0.028845 3.000000
-0.466955 0.043022 0.068456 3.000000
-0.466955 0.015866 0.021784 3.000000
-0.466955 0.070266 -0.049061 3.000000
-0.466955 -0.008000 0.051696 3.000000
-0.466955 -0.058997 0.007316 3.000000
-0.466955 0.076587 -0.016471 3.000000
-0.466955 0.092213 -0.008763 3.000000
-0.466955 -0.013280 0.091390 3.000000
-0.466955 -0.068602 0.042248 3.000000
-0.466955 -0.079329 0.012551 3.000000
-0.466955 -0.046685 -0.023455 3.000000
-0.466955 0.071774 -0.048061 3.000000
-0.466955 -0.087084 -0.022075 3.000000
-0.466955 0.056526 -0.036595 3.000000
-0.466955 -0.015576 -0.046123 3.000000
-0.466955 0.022585 0.039448 3.000000
-0.466955 -0.060718 -0.062521 3.000000
-0.466955 -0.065018 0.069268 3.000000
-0.466955 0.028222 -0.002420 3.000000
-0.466955 0.094070 -0.015324 3.000000
-0.466955 -0.031639 0.072637 3.000000
-0.466955 0.013157 0.076211 3.000000
-0.466955 0.016254 -0.039453 3.000000
-0.466955 0.009008 0.020437 3.000000
-0.466955 0.043748 -0.035542 3.000000
-0.466955 -0.009674 0.071842 3.000000
-0.466955 -0.096188 -0.016555 3.000000
-0.466955 0.021112 0.033533 3.000000
-0.466955 0.051765 -0.005452 3.000000
-0.466955 -0.046540 -0.087685 3.000000
-0.466955 -0.088843 0.043916 3.000000
-0.466955 -0.015520 -0.050055 3.000000
-0.466955 0.060479 -0.031259 3.000000
-0.466955 -0.086667 0.036438 3.000000
-0.466955 0.064029 0.074327 3.000000
-0.466955 0.018243 0.026836 3.000000
-0.466955 0.060021 0.039865 3.000000
-0.466955 0.022042 -0.028712 3.000000
-0.466955 -0.008881 0.020095 3.000000
-0.466955 0.003838 -0.023913 3.000000
-0.466955 -0.059973 0.012273 3.000000
-0.466955 -0.021434 -0.052790 3.000000
-0.466955 -0.031523 0.000966 3.000000
-0.466955 -0.016487 0.074972 3.000000
-0.466955 0.007487 -0.028258 3.000000
-0.466955 -0.072310 0.014440 3.000000
-0.466955 -0.046139 -0.056226 3.000000
-0.466955 -0.014763 0.079677 3.000000
-0.466955 -0.029581 -0.088149 3.000000
-0.466955 0.032752 0.085707 3.000000
-0.466955 -0.018609 -0.064703 3.000000
-0.466955 0.001358 -0.050017 3.000000
-0.466955 0.044348 -0.024085 3.000000
-0.466955 0.013259 0.006443 3.000000
-0.466955 -0.046462 0.062237 3.000000
-0.466955 -0.004642 -0.000320 3.000000
-0.466955 0.015494 -0.051642 3.000000
-0.466955 0.024785 -0.087108 3.000000
-0.466955 -0.021793 -0.089246 3.000000
-0.466955 -0.042162 -0.085057 3.000000
-0.466955 -0.070402 0.070200 3.000000
-0.466955 -0.060408 0.008088 3.000000
-0.466955 0.044580 0.045781 3.000000
-0.466955 -0.013612 0.002426 3.000000
-0.466955 0.006133 -0.011684 3.000000
-0.466955 0.032967 -0.039213 3.000000
-0.466955 -0.085762 -0.021633 3.000000
-0.466955 0.025442 0.004078 3.000000
-0.466955 -0.020067 -0.078366 3.000000
-0.466955 -0.045202 -0.052242 3.000000
-0.466955 0.054724 0.075180 3.000000
-0.466955 -0.061250 0.000243 3.000000
-0.466955 -0.029027 0.020422 3.000000
-0.466955 -0.070417 0.007415 3.000000
-0.466955 0.025218 0.042134 3.000000
-0.466955 -0.068070 0.026038 3.000000
-0.466955 -0.055984 0.017724 3.000000
-0.466955 0.089530 -0.039728 3.000000
-0.466955 -0.069031 -0.008661 3.000000
-0.466955 0.015961 -0.002709 3.000000
-0.466955 0.081252 0.040633 3.000000
-0.466955 0.049122 -0.052537 3.000000
-0.466955 0.002398 0.051720 3.000000
-0.466955 0.021717 0.015866 3.000000
-0.466955 -0.053085 0.022769 3.000000
-0.466955 -0.006916 0.068996 3.000000
-0.466955 -0.087389 0.030107 3.000000
-0.466955 -0.098404 0.009066 3.000000
-0.466955 0.028076 0.061467 3.000000
-0.466955 0.002402 0.080413 3.000000
-0.466955 -0.054018 -0.018434 3.000000
-0.466955 -0.078558 -0.016786 3.000000
-0.466955 0.053931 -0.031234 3.000000
-0.466955 0.006863 0.073221 3.000000
-0.466955 0.057870 0.070933 3.000000
-0.466955 -0.003190 0.094706 3.000000
-0.466955 0.061244 0.065257 3.000000
-0.466955 0.019063 0.031528 3.000000
-0.466955 -0.054089 0.076058 3.000000
-0.466955 -0.050880 -0.074788 3.000000
-0.466955 0.075310 -0.042345 3.000000
-0.466955 -0.019684 0.079110 3.000000
-0.466955 0.055637 0.047082 3.000000
-0.466955 -0.059506 -0.060494 3.000000
-0.466955 -0.064103 -0.066985 3.000000
-0.466955 -0.002493 -0.057040 3.000000
-0.466955 0.029582 0.079776 3.000000
-0.466955 0.022522 0.044488 3.000000
-0.466955 0.031119 -0.025741 3.000000
-0.466955 -0.019041 -0.029669 3.000000
-0.466955 0.099315 0.009388 3.000000
-0.466955 -0.074300 0.010737 3.000000
-0.466955 -0.039755 -0.022852 3.000000
-0.466955 -0.056424 -0.077166 3.000000
-0.466955 -0.014675 0.036870 3.000000
-0.466955 0.002857 0.083678 3.000000
-0.466955 0.059260 -0.032164 3.000000
-0.466955 0.039926 -0.041378 3.000000
-0.466955 -0.043182 0.041075 3.000000
-0.466955 0.043866 0.020421 3.000000
-0.466955 -0.011554 0.077073 3.000000
-0.466955 -0.090047 -0.013674 3.000000
-0.466955 0.093915 0.033922 3.000000
-0.466955 -0.020881 0.031041 3.000000
-0.466955 0.003931 0.084798 3.000000
-0.466955 0.056716 -0.049476 3.000000
-0.466955 0.018164 0.007430 3.000000
-0.466955 0.075667 -0.018613 3.000000
-0.466955 0.040544 0.058639 3.000000
-0.466955 0.068165 0.055809 3.000000
-0.466955 -0.053431 -0.046608 3.000000
-0.466955 0.044604 -0.017188 3.000000
-0.466955 -0.040987 0.036623 3.000000
-0.466955 -0.051701 -0.047545 3.000000
-0.466955 -0.022208 0.040960 3.000000
-0.466955 0.005844 0.015619 3.000000
-0.466955 0.019153 0.090484 3.000000
-0.466955 0.018018 0.017994 3.000000
-0.466955 -0.031212 0.046837 3.000000
-0.466955 0.029845 0.029615 3.000000
-0.466955 -0.064620 -0.047450 3.000000
-0.466955 0.057692 -0.053404 3.000000
-0.466955 0.024401 -0.005663 3.000000
-0.466955 -0.002569 -0.055001 3.000000
-0.466955 0.059436 -0.029745 3.000000
-0.466955 -0.085825 0.003761 3.000000
-0.466955 -0.076707 -0.055130 3.000000
-0.466955 -0.002920 0.084729 3.000000
-0.466955 -0.021973 0.028054 3.000000
-0.466955 0.064606 -0.040785 3.000000
-0.466955 -0.079241 0.011133 3.000000
-0.466955 0.086664 -0.016737 3.000000
-0.466955 0.019062 0.060510 3.000000
-0.466955 -0.084912 -0.035751 3.000000
-0.466955 0.023383 -0.089367 3.000000
-0.466955 -0.015712 -0.075451 3.000000
-0.466955 0.062500 -0.061469 3.000000
-0.466955 0.052482 0.062278 3.000000
-0.466955 -0.059422 -0.059026 3.000000
-0.466955 0.072359 -0.063238 3.000000
-0.466955 0.002688 0.069307 3.000000
-0.466955 0.012779 0.060707 3.000000
-0.466955 0.029857 0.073312 3.000000
-0.466955 0.030698 0.086354 3.000000
-0.466955 0.087541 -0.041534 3.000000
-0.466955 -0.034728 0.079417 3.000000
-0.466955 0.011350 0.061832 3.000000
-0.466955 -0.029742 -0.007574 3.000000
-0.466955 -0.030798 0.004351 3.000000
-0.466955 -0.011106 -0.004184 3.000000
-0.466955 -0.083149 0.044440 3.000000
-0.466955 0.066099 0.050194 3.000000
-0.466955 0.064011 -0.042665 3.000000
-0.466955 0.033483 -0.070105 3.000000
-0.466955 0.018789 0.020039 3.000000
-0.466955 0.030076 -0.068334 3.000000
-0.466955 -0.044542 0.001200 3.000000
-0.466955 0.005216 0.095997 3.000000
-0.466955 0.021682 -0.089272 3.000000
-0.466955 -0.030173 0.015486 3.000000
-0.466955 -0.019763 0.019721 3.000000
-0.466955 -0.071174 -0.012246 3.000000
-0.466955 0.009648 0.043434 3.000000
-0.466955 -0.016947 0.067212 3.000000
-0.466955 -0.009448 0.034904 3.000000
-0.466955 0.022689 0.013318 3.000000
-0.466955 -0.067847 -0.032567 3.000000
-0.466955 0.064337 -0.021794 3.000000
-0.466955 -0.006096 0.003816 3.000000
-0.466955 0.047521 0.044408 3.000000
-0.466955 0.078643 -0.052201 3.000000
-0.466955 0.058200 -0.067070 3.000000
-0.466955 0.016500 -0.066683 3.000000
-0.466955 0.035516 0.089129 3.000000
-0.466955 -0.086534 0.011138 3.000000
-0.466955 0.003746 -0.059900 3.000000
-0.466955 -0.059485 0.002761 3.000000
-0.466955 0.050510 0.071359 3.000000
-0.466955 -0.042017 -0.088093 3.000000
-0.466955 -0.039485 -0.024296 3.000000
-0.466955 -0.003964 -0.051847 3.000000
-0.466955 -0.049422 -0.001964 3.000000
-0.466955 0.035995 -0.041266 3.000000
-0.466955 0.022425 -0.072512 3.000000
-0.466955 0.017081 -0.068216 3.000000
-0.466955 -0.009502 0.031651 3.000000
-0.466955 -0.019586 -0.014717 3.000000
-0.466955 0.062999 -0.011577 3.000000
-0.466955 0.049954 0.001458 3.000000
-0.466955 -0.071897 -0.002033 3.000000
-0.466955 -0.016454 -0.023848 3.000000
-0.466955 0.068385 -0.025846 3.000000
-0.466955 0.018444 0.094534 3.000000
-0.466955 0.077700 -0.026384 3.000000
-0.466955 0.033465 -0.008828 3.000000
-0.466955 -0.050081 0.013562 3.000000
-0.466955 -0.055683 -0.058879 3.000000
-0.466955 -0.037132 0.009206 3.000000
-0.466955 -0.059528 -0.076428 3.000000
-0.466955 -0.034001 0.020864 3.000000
-0.466955 -0.003113 -0.027858 3.000000
-0.466955 0.050995 0.026578 3.000000
-0.466955 -0.047911 0.058904 3.000000
-0.466955 0.002261 0.026540 3.000000
-0.466955 0.051471 0.022748 3.000000
-0.466955 0.085348 -0.022578 3.000000
-0.466955 0.059532 0.057788 3.000000
-0.466955 -0.030823 -0.081450 3.000000
-0.466955 0.076859 0.042852 3.000000
-0.466955 -0.072694 -0.043155 3.000000
-0.466955 -0.051911 -0.084572 3.000000
-0.466955 -0.053044 -0.003463 3.000000
-0.466955 -0.007778 -0.027497 3.000000
-0.466955 0.037392 -0.069003 3.000000
-0.466955 0.058347 0.042350 3.000000
-0.466955 0.086387 0.024953 3.000000
-0.466955 -0.059124 -0.006076 3.000000
-0.466955 -0.065505 0.048475 3.000000
-0.466955 -0.055450 -0.012269 3.000000
-0.466955 0.022500 0.054968 3.000000
-0.466955 -0.065177 0.019978 3.000000
-0.466955 0.051545 -0.017940 3.000000
-0.466955 -0.060664 0.062802 3.000000
-0.466955 0.051876 0.037884 3.000000
-0.466955 -0.070359 0.039808 3.000000
-0.466955 -0.064916 0.042798 3.000000
-0.466955 -0.033466 -0.011269 3.000000
-0.466955 -0.064647 0.034582 3.000000
-0.466955 -0.066920 0.016697 3.000000
-0.466955 0.047236 -0.009576 3.000000
-0.466955 0.092935 0.015917 3.000000
-0.466955 -0.060117 -0.038051 3.000000
-0.466955 -0.069175 0.068367 3.000000
-0.466955 -0.082549 0.055877 3.000000
-0.466955 -0.027318 0.011242 3.000000
-0.466955 -0.037111 -0.092239 3.000000
-0.466955 -0.009616 -0.082928 3.000000
-0.466955 -0.021130 0.022246 3.000000
-0.466955 0.022546 -0.063406 3.000000
-0.466955 0.032583 0.036148 3.000000
-0.466955 0.020229 0.037830 3.000000
-0.466955 0.011513 -0.092312 3.000000
-0.466955 -0.005790 0.073651 3.000000
-0.466955 -0.034030 -0.083303 3.000000
-0.466955 -0.021899 -0.018020 3.000000
-0.466955 -0.005804 0.095924 3.000000
-0.466955 0.077044 -0.020232 3.000000
-0.466955 0.065666 0.048234 3.000000
-0.466955 -0.092801 0.005171 3.000000
-0.466955 0.062758 -0.029144 3.000000
-0.466955 -0.035425 0.091658 3.000000
-0.466955 -0.061846 0.037667 3.000000
-0.466955 0.044260 -0.009350 3.000000
-0.466955 -0.023321 0.008118 3.000000
-0.466955 -0.040726 0.068967 3.000000
-0.466955 -0.049322 0.000723 3.000000
-0.466955 -0.032689 0.045853 3.000000
-0.466955 0.029655 -0.060205 3.000000
-0.466955 0.032398 0.062717 3.000000
-0.466955 -0.055703 0.043934 3.000000
-0.466955 0.056284 0.078042 3.000000
-0.466955 -0.078271 0.003984 3.000000
-0.466955 0.054518 0.018136 3.000000
-0.466955 0.007283 -0.057604 3.000000
-0.466955 0.075672 0.000282 3.000000
-0.466955 0.030755 -0.066891 3.000000
-0.466955 0.084442 -0.021229 3.000000
-0.466955 -0.063666 0.052724 3.000000
-0.466955 -0.007048 -0.041562 3.000000
-0.466955 -0.089250 -0.026920 3.000000
-0.466955 -0.012247 0.078843 3.000000
-0.466955 0.047551 -0.012490 3.000000
-0.466955 0.000476 -0.025063 3.000000
-0.466955 -0.028054 -0.053541 3.000000
-0.466955 0.067924 -0.016587 3.000000
-0.466955 -0.055284 0.051924 3.000000
-0.466955 -0.030972 0.037316 3.000000
-0.466955 0.075268 -0.064776 3.000000
-0.466955 -0.088274 0.018071 3.000000
-0.466955 -0.074676 -0.023112 3.000000
-0.466955 -0.078697 -0.015129 3.000000
-0.466955 0.001323 -0.081228 3.000000
-0.466955 -0.080873 0.020368 3.000000
-0.466955 0.035515 -0.087383 3.000000
-0.466955 -0.049699 0.073247 3.000000
-0.466955 -0.008206 0.083644 3.000000
-0.466955 0.027231 -0.026301 3.000000
-0.466955 -0.008404 -0.034751 3.000000
-0.466955 -0.014320 -0.045158 3.000000
-0.466955 0.069966 -0.018883 3.000000
-0.466955 0.038621 -0.027158 3.000000
-0.466955 -0.001897 -0.009540 3.000000
-0.466955 0.091456 0.027335 3.000000
-0.466955 -0.044264 0.014240 3.000000
-0.466955 -0.067380 -0.050215 3.000000
-0.466955 0.055243 0.078975 3.000000
-0.466955 -0.026688 0.015163 3.000000
-0.466955 0.060476 -0.065433 3.000000
-0.466955 0.050719 0.083862 3.000000
-0.466955 -0.018106 0.016511 3.000000
-0.466955 0.056034 -0.063966 3.000000
-0.466955 0.001541 -0.094310 3.000000
-0.466955 -0.064802 0.065717 3.000000
-0.466955 0.003358 0.076611 3.000000
-0.466955 0.084153 0.021468 3.000000
-0.466955 -0.023837 0.061596 3.000000
-0.466955 -0.096324 0.013002 3.000000
-0.466955 -0.019189 -0.032819 3.000000
-0.466955 -0.070087 -0.036172 3.000000
-0.466955 -0.028837 0.040324 3.000000
-0.466955 -0.038888 0.082856 3.000000
-0.466955 0.035716 -0.079468 3.000000
-0.466955 0.085276 -0.015915 3.000000
-0.466955 0.071335 0.004344 3.000000
-0.466955 0.059793 0.019624 3.000000
-0.466955 -0.015544 -0.009627 3.000000
-0.466955 -0.035383 -0.086961 3.000000
-0.466955 0.014458 -0.005757 3.000000
-0.466955 0.013894 0.064269 3.000000
-0.466955 -0.067487 0.035520 3.000000
-0.466955 0.061107 -0.047690 3.000000
-0.466955 0.031755 -0.064572 3.000000
-0.466955 0.086234 0.040104 3.000000
-0.466955 -0.006798 0.055607 3.000000
-0.466955 0.018829 -0.079723 3.000000
-0.466955 -0.014062 -0.005338 3.000000
-0.466955 0.062040 -0.027977 3.000000
-0.466955 0.002708 -0.014794 3.000000
-0.466955 -0.010271 0.026634 3.000000
-0.466955 -0.020176 -0.004733 3.000000
-0.466955 -0.006940 -0.058111 3.000000
-0.466955 0.044400 0.064881 3.000000
-0.466955 0.019364 0.049289 3.000000
-0.466955 0.034144 -0.001834 3.000000
-0.466955 -0.029254 -0.000394 3.000000
-0.466955 -0.087409 0.001473 3.000000
-0.466955 -0.011282 0.040946 3.000000
-0.466955 0.019060 0.004833 3.000000
-0.466955 -0.029004 0.026655 3.000000
-0.466955 0.009371 -0.092978 3.000000
-0.466955 -0.022352 -0.087205 3.000000
-0.466955 -0.012701 0.045853 3.000000
-0.466955 -0.053492 0.015457 3.000000
-0.466955 -0.028151 -0.085349 3.000000
-0.466955 0.066906 -0.027325 3.000000
-0.466955 0.025091 0.091913 3.000000
-0.466955 -0.085524 -0.011929 3.000000
-0.466955 0.049683 0.062647 3.000000
-0.466955 0.054272 -0.035685 3.000000
-0.466955 -0.043981 -0.045738 3.000000
-0.466955 -0.091984 -0.026090 3.000000
-0.466955 0.077403 -0.042891 3.000000
-0.466955 -0.032327 0.091514 3.000000
-0.466955 -0.063338 0.019805 3.000000
-0.466955 0.049929 0.005180 3.000000
-0.466955 -0.092700 -0.027510 3.000000
-0.466955 0.042839 0.019044 3.000000
-0.466955 0.013090 -0.070102 3.000000
-0.466955 0.009737 -0.012871 3.000000
-0.466955 0.025694 0.095954 3.000000
-0.466955 -0.043635 0.023066 3.000000
-0.466955 0.011450 0.047988 3.000000
-0.466955 -0.076134 0.015810 3.000000
-0.466955 0.070856 -0.063669 3.000000
-0.466955 0.006070 -0.027245 3.000000
-0.466955 -0.041985 -0.068601 3.000000
-0.466955 0.040189 -0.067358 3.000000
-0.466955 -0.044703 0.061880 3.000000
-0.466955 -0.040358 0.012018 3.000000
-0.466955 -0.051286 -0.038084 3.000000
-0.466955 -0.035206 -0.070954 3.000000
-0.466955 -0.018461 0.010565 3.000000
-0.466955 -0.032744 0.093372 3.000000
-0.466955 0.006300 -0.077732 3.000000
-0.466955 -0.093768 -0.002541 3.000000
-0.466955 -0.095073 -0.020525 3.000000
-0.466955 0.040196 -0.057597 3.000000
-0.466955 0.013332 -0.015873 3.000000
-0.466955 -0.048862 -0.058993 3.000000
-0.466955 -0.013545 -0.016821 3.000000
-0.466955 0.068656 0.030089 3.000000
-0.466955 0.025337 -0.077529 3.000000
-0.466955 -0.008121 -0.083070 3.000000
-0.466955 -0.047184 -0.079701 3.000000
-0.466955 0.039639 0.051059 3.000000
-0.466955 0.036509 0.065322 3.000000
-0.466955 0.016807 -0.050909 3.000000
-0.466955 0.067023 0.047774 3.000000
-0.466955 -0.047170 -0.008591 3.000000
-0.466955 -0.034547 -0.081294 3.000000
-0.466955 0.057873 -0.076272 3.000000
-0.466955 -0.016699 0.045055 3.000000
-0.466955 0.017306 -0.079927 3.000000
-0.466955 0.069979 0.040367 3.000000
-0.466955 -0.069737 -0.023030 3.000000
-0.466955 0.046042 0.022283 3.000000
-0.466955 -0.023334 0.028834 3.000000
-0.466955 -0.098433 -0.015724 3.000000
-0.466955 -0.096017 0.011533 3.000000
-0.466955 -0.019316 0.087926 3.000000
-0.466955 -0.017332 0.062699 3.000000
-0.466955 0.009005 -0.011382 3.000000
-0.466955 0.007372 -0.070977 3.000000
-0.466955 -0.037828 -0.065741 3.000000
-0.466955 0.002058 -0.086220 3.000000
-0.466955 0.023595 -0.028917 3.000000
-0.466955 0.019617 -0.096509 3.000000
-0.466955 0.091488 0.005343 3.000000
-0.466955 0.036437 0.073317 3.000000
-0.466955 -0.024893 0.022823 3.000000
-0.466955 -0.072324 0.020284 3.000000
-0.466955 0.069963 0.014895 3.000000
-0.466955 -0.066569 0.006530 3.000000
-0.466955 -0.065667 -0.045743 3.000000
-0.466955 0.029668 0.053318 3.000000
-0.466955 0.084321 0.027631 3.000000
-0.466955 0.035903 0.081476 3.000000
-0.466955 -0.037936 0.081574 3.000000
-0.466955 -0.025589 0.068070 3.000000
-0.466955 -0.019282 -0.022120 3.000000
-0.466955 0.038423 0.022955 3.000000
-0.466955 -0.057375 -0.043503 3.000000
-0.466955 -0.009381 0.012385 3.000000
-0.466955 -0.065658 -0.055763 3.000000
-0.466955 0.027795 0.083015 3.000000
-0.466955 -0.048137 -0.019110 3.000000
-0.466955 0.025149 -0.029330 3.000000
-0.466955 0.010412 0.010175 3.000000
-0.466955 -0.095249 -0.003273 3.000000
-0.466955 0.049936 0.021082 3.000000
-0.466955 0.005959 -0.013309 3.000000
-0.466955 0.050107 0.079770 3.000000
-0.466955 -0.052508 0.057519 3.000000
-0.466955 -0.044736 -0.047200 3.000000
-0.466955 0.030125 0.061760 3.000000
-0.466955 0.069957 -0.002859 3.000000
-0.466955 0.006394 -0.054099 3.000000
-0.466955 -0.067363 -0.058831 3.000000
-0.466955 -0.041138 0.035222 3.000000
-0.466955 0.039940 0.033882 3.000000
-0.466955 0.056391 0.054186 3.000000
-0.466955 -0.021818 -0.031844 3.000000
-0.466955 -0.031321 -0.028002 3.000000
-0.466955 0.005365 0.032916 3.000000
-0.466955 0.023632 -0.052666 3.000000
-0.466955 0.041882 -0.066412 3.000000
-0.466955 -0.034033 -0.002309 3.000000
-0.466955 0.051680 0.074514 3.000000
-0.466955 0.011507 -0.011682 3.000000
-0.466955 -0.037429 -0.020778 3.000000
-0.466955 -0.020062 -0.096516 3.000000
-0.466955 -0.004409 0.009895 3.000000
-0.466955 -0.040261 -0.010312 3.000000
-0.466955 0.058067 -0.021384 3.000000
-0.466955 0.032607 -0.084052 3.000000
-0.466955 -0.025222 0.001037 3.000000
-0.466955 0.008079 0.061034 3.000000
-0.466955 0.075112 -0.020165 3.000000
-0.466955 -0.049027 -0.073715 3.000000
-0.466955 -0.002270 -0.037036 3.000000
-0.466955 -0.074784 -0.052101 3.000000
-0.466955 -0.031289 0.064438 3.000000
-0.466955 -0.052812 -0.064679 3.000000
-0.466955 0.039635 0.012429 3.000000
-0.466955 0.076211 -0.050344 3.000000
-0.466955 -0.045735 -0.038611 3.000000
-0.466955 0.085173 0.020159 3.000000
-0.466955 -0.033617 -0.019523 3.000000
-0.466955 0.061494 0.051207 3.000000
-0.466955 0.017471 0.044440 3.000000
-0.466955 -0.096052 -0.000052 3.000000
-0.466955 0.049139 0.084077 3.000000
-0.466955 -0.014659 -0.078940 3.000000
-0.466955 0.036623 -0.070560 3.000000
-0.466955 0.065225 -0.030323 3.000000
-0.466955 0.011894 -0.078641 3.000000
-0.466955 0.003439 -0.070704 3.000000
-0.466955 -0.039691 -0.079608 3.000000
-0.466955 -0.036861 -0.004193 3.000000
-0.466955 -0.020535 -0.074528 3.000000
-0.466955 -0.018349 -0.016876 3.000000
-0.466955 0.034129 -0.050607 3.000000
-0.466955 -0.027767 -0.014417 3.000000
-0.466955 0.045695 -0.057297 3.000000
-0.466955 0.033391 -0.079041 3.000000
-0.466955 -0.065701 -0.000328 3.000000
-0.466955 -0.001033 0.020841 3.000000
-0.466955 -0.010268 -0.090554 3.000000
-0.466955 -0.081716 -0.029298 3.000000
-0.466955 -0.022271 0.088317 3.000000
-0.466955 0.008203 0.073075 3.000000
-0.466955 -0.039939 0.053963 3.000000
-0.466955 -0.072225 0.052840 3.000000
-0.466955 0.026308 -0.070607 3.000000
-0.466955 -0.068857 -0.006453 3.000000
-0.466955 0.037165 0.026550 3.000000
-0.466955 0.054864 0.015908 3.000000
-0.466955 0.057026 -0.002228 3.000000
-0.466955 0.039285 -0.047336 3.000000
-0.466955 -0.048268 -0.009411 3.000000
-0.466955 0.003769 0.016788 3.000000
-0.466955 -0.077728 0.005215 3.000000
-0.466955 0.074445 -0.052691 3.000000
-0.466955 -0.004920 0.053619 3.000000
-0.466955 -0.069288 -0.025088 3.000000
-0.466955 -0.078168 0.002371 3.000000
-0.466955 0.089200 -0.009633 3.000000
-0.466955 -0.003188 -0.008812 3.000000
-0.466955 -0.061399 -0.061265 3.000000
-0.466955 -0.006257 -0.092639 3.000000
-0.466955 0.047619 0.079471 3.000000
-0.466955 -0.066339 0.023218 3.000000
-0.466955 0.013643 -0.041031 3.000000
-0.466955 -0.016756 -0.085296 3.000000
-0.466955 0.004357 0.008850 3.000000
-0.466955 0.033972 -0.066536 3.000000
-0.466955 -0.023641 0.010139 3.000000
-0.466955 -0.006783 0.038892 3.000000
-0.466955 -0.034082 0.037089 3.000000
-0.466955 0.045123 -0.034492 3.000000
-0.466955 0.039402 -0.062405 3.000000
-0.466955 -0.037595 -0.052030 3.000000
-0.466955 -0.019537 -0.094823 3.000000
-0.466955 -0.024166 -0.076961 3.000000
-0.466955 0.050503 -0.064329 3.000000
-0.466955 0.017610 -0.002235 3.000000
-0.466955 0.023728 0.047932 3.000000
-0.466955 -0.006754 0.005109 3.000000
-0.466955 0.079310 0.004465 3.000000
-0.466955 -0.017482 -0.071800 3.000000
-0.466955 0.061384 0.028434 3.000000
-0.466955 0.054413 -0.004045 3.000000
-0.466955 -0.051313 0.056263 3.000000
-0.466955 0.073051 0.033347 3.000000
-0.466955 -0.045725 -0.081767 3.000000
-0.466955 -0.073261 0.062857 3.000000
-0.466955 0.003426 0.066996 3.000000
-0.466955 0.007639 0.015145 3.000000
-0.466955 0.041315 0.022107 3.000000
-0.466955 0.042613 -0.086616 3.000000
-0.466955 -0.034036 0.032033 3.000000
-0.466955 -0.002036 -0.088595 3.000000
-0.466955 0.043947 -0.003028 3.000000
-0.466955 0.089948 0.029685 3.000000
-0.466955 -0.005600 0.012219 3.000000
-0.466955 0.039636 0.078971 3.000000
-0.466955 -0.000932 -0.025870 3.000000
-0.466955 -0.070412 -0.030808 3.000000
-0.466955 -0.060696 -0.059702 3.000000
-0.466955 0.060226 -0.016575 3.000000
-0.466955 -0.043755 -0.069953 3.000000
-0.466955 0.015740 0.048307 3.000000
-0.466955 -0.010351 0.087145 3.000000
-0.466955 0.070456 0.063787 3.000000
-0.466955 0.065273 0.060835 3.000000
-0.466955 -0.070860 -0.052681 3.000000
-0.466955 0.087970 -0.023603 3.000000
-0.466955 -0.007724 0.009728 3.000000
-0.466955 -0.075636 0.032069 3.000000
-0.466955 0.074501 -0.008585 3.000000
-0.466955 -0.012686 0.062093 3.000000
-0.466955 -0.065851 0.062838 3.000000
-0.466955 -0.067058 0.064272 3.000000
-0.466955 -0.051963 0.029170 3.000000
-0.466955 -0.090745 -0.017855 3.000000
-0.466955 -0.042955 -0.064639 3.000000
-0.466955 0.036916 -0.045785 3.000000
-0.466955 0.023023 -0.092741 3.000000
-0.466955 -0.006345 0.054098 3.000000
-0.466955 -0.004980 0.056134 3.000000
-0.466955 -0.077355 -0.060393 3.000000
-0.466955 0.083614 -0.043953 3.000000
-0.466955 -0.039313 0.086502 3.000000
-0.466955 0.062440 0.029714 3.000000
-0.466955 0.004962 0.054009 3.000000
