-0.420119 -0.052729 0.084921 1.000000
-0.435198 -0.026831 0.096320 3.000000
-0.213808 0.092465 0.038168 1.000000
0.265559 -0.067667 0.073521 1.000000
-0.231668 0.026330 -0.096171 1.000000
0.002410 0.097938 0.020233 1.000000
0.188597 0.034384 0.093957 1.000000
0.225174 -0.092583 0.037355 1.000000
-0.167047 0.062177 0.078397 1.000000
-0.188657 -0.090570 0.042007 1.000000
0.432392 -0.032153 0.094676 2.000000
0.049298 0.094426 -0.032603 1.000000
-0.212991 -0.099459 -0.007316 1.000000
0.013233 0.077133 0.063787 1.000000
-0.268158 0.080642 -0.058900 1.000000
0.277409 -0.082405 0.056378 1.000000
0.399693 -0.020170 -0.097587 1.000000
-0.159796 -0.099168 -0.010393 1.000000
-0.388229 -0.032861 0.094421 1.000000
-0.013982 -0.099215 -0.009897 1.000000
-0.153067 0.045061 -0.088971 1.000000
0.400297 0.021691 0.097662 1.000000
0.350158 -0.092398 -0.037420 1.000000
-0.312799 -0.050911 -0.085633 1.000000
0.418922 -0.028957 0.095702 2.000000
-0.350625 -0.098963 0.012832 1.000000
0.006046 -0.033482 0.094198 1.000000
-0.214782 -0.072421 0.068838 1.000000
-0.401664 0.062904 -0.077470 1.000000
0.363505 -0.096576 -0.024858 1.000000
0.381960 -0.033801 0.094083 1.000000
-0.248770 0.080605 -0.058948 1.000000
-0.322754 -0.068163 0.073084 1.000000
0.404292 0.004632 0.099928 1.000000
-0.033800 -0.066062 -0.074573 1.000000
0.135786 -0.097861 -0.019168 1.000000
-0.427384 0.089871 0.043943 1.000000
-0.355300 -0.019163 -0.097812 1.000000
0.288809 0.065934 0.075255 1.000000
0.437225 0.024716 0.096986 2.000000
0.343611 0.007083 0.099807 1.000000
-0.341152 0.073743 0.067641 1.000000
-0.394573 -0.023795 0.097140 1.000000
0.180536 -0.096777 0.024379 1.000000
-0.244356 0.097771 0.020979 1.000000
0.048407 0.070991 -0.070139 1.000000
0.256550 -0.082284 0.056556 1.000000
0.069846 0.038173 0.092499 1.000000
-0.383069 0.023851 0.097179 1.000000
-0.367979 0.056952 0.082269 1.000000
-0.408377 -0.032349 0.094605 1.000000
0.444726 0.055864 0.083008 2.000000
-0.021490 0.099847 -0.004864 1.000000
-0.157599 -0.085006 0.052379 1.000000
-0.229927 -0.059993 -0.079547 1.000000
-0.429250 -0.076097 -0.064343 3.000000
-0.340148 0.081865 0.057517 1.000000
0.040107 0.098353 -0.017795 1.000000
-0.194511 -0.003842 0.099946 1.000000
-0.230832 0.083659 -0.054514 1.000000
-0.443425 0.090998 -0.041196 3.000000
-0.151075 -0.072599 0.068660 1.000000
-0.255647 0.089587 -0.044139 1.000000
0.270233 -0.048342 -0.087153 1.000000
-0.450566 -0.012602 0.099251 3.000000
0.333461 -0.056311 -0.082183 1.000000
-0.264134 0.096911 -0.024466 1.000000
-0.454539 0.029609 0.095581 3.000000
0.364862 0.044169 -0.089425 1.000000
0.183618 0.084661 -0.052995 1.000000
0.343179 0.088310 -0.046643 1.000000
0.006807 -0.031400 -0.094584 1.000000
0.220901 0.099677 0.007841 1.000000
-0.326190 0.057932 0.081603 1.000000
-0.166143 0.079130 0.061213 1.000000
-0.215602 0.004292 -0.099576 1.000000
0.278292 0.032759 -0.094179 1.000000
0.135331 -0.099613 0.005250 1.000000
0.385809 -0.060616 0.079427 1.000000
0.158291 -0.099403 0.008272 1.000000
0.278814 0.056652 -0.082110 1.000000
-0.149811 0.047324 0.088180 1.000000
0.404173 0.069874 0.071618 1.000000
-0.315468 0.026246 0.096557 1.000000
0.338462 -0.060468 -0.079178 1.000000
-0.182304 0.039074 -0.091747 1.000000
-0.289600 -0.060085 0.079838 1.000000
-0.066929 -0.032082 0.094702 1.000000
-0.151855 -0.077255 -0.062966 1.000000
-0.083970 -0.099317 0.009177 1.000000
-0.141121 0.068794 -0.072335 1.000000
0.339642 -0.029423 0.095567 1.000000
-0.171803 -0.022903 0.097339 1.000000
-0.142880 0.088168 -0.046922 1.000000
-0.040722 0.032215 0.094738 1.000000
-0.096393 -0.044647 0.089425 1.000000
0.228002 -0.094682 0.031608 1.000000
-0.139934 -0.030796 0.095165 1.000000
0.415556 -0.097321 0.021946 1.000000
-0.003344 0.096086 0.027712 1.000000
-0.279703 -0.083111 -0.054976 1.000000
-0.189443 -0.082787 0.055816 1.000000
-0.155695 -0.082360 -0.056082 1.000000
0.297601 -0.066101 -0.074539 1.000000
0.116136 -0.099079 0.011700 1.000000
-0.100766 0.054034 0.084252 1.000000
-0.129738 0.065063 -0.075660 1.000000
-0.441745 -0.051997 -0.084991 3.000000
0.174231 -0.041224 -0.090715 1.000000
-0.155944 0.086942 -0.049137 1.000000
-0.159571 0.039206 0.092052 1.000000
-0.261732 -0.095388 -0.028949 1.000000
0.217223 -0.099292 -0.009079 1.000000
0.345155 0.035831 -0.093073 1.000000
0.008415 -0.008857 0.099617 1.000000
0.436750 -0.071216 -0.069680 1.000000
0.462532 -0.008225 -0.099314 2.000000
-0.024749 0.086262 -0.050287 1.000000
0.465155 -0.018279 0.098352 2.000000
-0.078899 -0.001609 0.100016 1.000000
0.161743 -0.086306 -0.049817 1.000000
0.313051 0.049987 -0.086318 1.000000
0.387694 0.084269 0.053978 1.000000
0.012999 0.031694 0.094925 1.000000
-0.234263 0.085160 0.052512 1.000000
-0.084697 -0.043463 0.090029 1.000000
0.082509 0.035706 0.093481 1.000000
0.074215 -0.082758 0.055859 1.000000
0.432320 0.089908 0.043871 2.000000
0.135705 0.043729 -0.089649 1.000000
-0.167083 -0.028542 0.095823 1.000000
-0.417117 -0.098869 -0.013065 1.000000
-0.091441 -0.061260 -0.078564 1.000000
-0.392828 0.099495 0.009771 1.000000
-0.459054 0.085444 0.052033 3.000000
0.094176 0.089624 -0.044065 1.000000
-0.091788 0.057955 -0.081225 1.000000
-0.214063 0.072385 0.069108 1.000000
-0.191806 0.087606 -0.048015 1.000000
-0.017905 0.033738 0.094190 1.000000
0.201252 -0.099744 -0.000693 1.000000
-0.184365 0.035737 0.093470 1.000000
0.152175 0.062299 -0.077939 1.000000
-0.000349 0.044410 0.089665 1.000000
-0.199893 -0.087295 0.048508 1.000000
-0.228481 0.005036 -0.099553 1.000000
0.011011 0.096573 0.026034 1.000000
-0.362269 0.083006 -0.055474 1.000000
0.345749 0.071816 -0.069314 1.000000
0.009933 0.072150 0.069342 1.000000
-0.338527 -0.014440 -0.098597 1.000000
0.443578 0.038897 0.092186 2.000000
0.122943 0.099167 -0.012660 1.000000
0.417597 -0.092079 0.038519 1.000000
-0.000425 -0.015288 -0.098463 1.000000
0.433031 0.061801 -0.078325 1.000000
-0.315767 -0.068984 -0.071912 1.000000
-0.363707 -0.099327 -0.008717 1.000000
-0.063564 0.018355 0.098377 1.000000
-0.407785 -0.003854 -0.099582 1.000000
0.389430 0.031449 0.095014 1.000000
-0.110923 0.077584 0.063206 1.000000
-0.339799 0.082916 -0.055607 1.000000
-0.269601 0.006137 0.099881 1.000000
0.299181 0.023506 0.097256 1.000000
0.091701 0.062982 0.077772 1.000000
-0.401055 -0.024285 0.097030 1.000000
-0.018988 0.013401 0.099161 1.000000
-0.444499 0.013725 -0.098747 3.000000
-0.109271 0.044034 0.089857 1.000000
0.272440 -0.096136 0.026737 1.000000
0.243102 -0.080145 0.059603 1.000000
-0.053578 0.028626 0.095866 1.000000
0.156688 0.029447 -0.095265 1.000000
0.325426 0.086741 -0.049477 1.000000
-0.369649 -0.072080 0.069178 1.000000
0.254764 0.049797 -0.086430 1.000000
-0.129660 0.041418 -0.090732 1.000000
0.038762 -0.025785 0.096624 1.000000
0.223706 -0.084966 -0.052083 1.000000
-0.234551 0.080006 -0.059721 1.000000
-0.235807 0.001743 -0.099656 1.000000
0.031454 0.090357 0.042989 1.000000
0.260726 -0.094774 0.031350 1.000000
0.128119 0.099498 -0.009368 1.000000
0.221289 -0.049777 -0.086303 1.000000
-0.442321 0.097646 0.021537 3.000000
0.254367 -0.006427 -0.099484 1.000000
-0.294291 0.020416 0.097947 1.000000
-0.406570 -0.080041 0.059737 1.000000
-0.181997 -0.098064 -0.018149 1.000000
-0.049804 -0.074069 -0.066643 1.000000
0.352397 0.059057 0.080817 1.000000
0.037824 -0.057053 -0.081679 1.000000
-0.286355 0.074589 -0.066318 1.000000
-0.021585 0.011232 -0.099052 1.000000
-0.318748 0.076967 0.063984 1.000000
-0.327907 0.089489 0.044694 1.000000
-0.234698 0.097129 0.023849 1.000000
-0.232618 -0.099616 -0.004778 1.000000
-0.219056 -0.027207 -0.095848 1.000000
-0.117170 0.085966 0.051150 1.000000
0.228346 -0.029863 -0.095076 1.000000
-0.308616 -0.092977 -0.035981 1.000000
0.300707 0.011269 0.099412 1.000000
0.037071 0.095290 -0.030088 1.000000
-0.213228 0.087778 -0.047689 1.000000
0.081903 0.091473 -0.040098 1.000000
-0.225872 0.088903 -0.045480 1.000000
0.201334 -0.096706 0.024700 1.000000
-0.368710 0.094522 -0.032336 1.000000
0.168929 0.045638 -0.088676 1.000000
-0.033615 -0.076987 0.063674 1.000000
-0.384697 -0.071415 -0.069481 1.000000
0.098433 0.071139 0.070353 1.000000
0.413173 -0.055648 -0.082634 1.000000
-0.023265 0.087342 0.048824 1.000000
-0.030624 -0.016771 -0.098228 1.000000
0.409139 -0.088529 -0.045756 1.000000
-0.210126 0.098065 0.019662 1.000000
-0.037074 0.083470 -0.054792 1.000000
0.076491 -0.000002 -0.099703 1.000000
-0.444606 -0.090130 -0.042615 3.000000
0.427449 -0.078016 -0.061985 1.000000
-0.052061 -0.074441 0.066584 1.000000
-0.273238 -0.005425 -0.099533 1.000000
-0.408640 0.095410 -0.029675 1.000000
-0.303541 0.066353 -0.074523 1.000000
0.076734 0.099458 0.010155 1.000000
0.283934 -0.059226 -0.080142 1.000000
-0.153405 0.083491 -0.054760 1.000000
-0.016252 -0.089438 -0.043972 1.000000
-0.111492 0.008846 0.099641 1.000000
0.089481 0.090332 0.043038 1.000000
0.374879 -0.087052 -0.048556 1.000000
0.260375 -0.096855 0.024032 1.000000
0.404973 0.045417 -0.088789 1.000000
-0.367490 0.016312 -0.098337 1.000000
0.184667 -0.041354 -0.090659 1.000000
-0.237115 -0.015401 0.098807 1.000000
-0.381695 -0.096693 -0.024396 1.000000
0.179259 -0.033556 0.094171 1.000000
0.051003 -0.061735 -0.078195 1.000000
0.389078 -0.071162 0.070097 1.000000
0.205551 0.099575 0.008918 1.000000
0.026990 -0.050987 -0.085588 1.000000
-0.158131 0.089579 -0.044154 1.000000
-0.290659 0.067245 -0.073736 1.000000
-0.027683 -0.099672 0.003371 1.000000
0.147679 -0.053904 -0.083819 1.000000
-0.090667 -0.099255 0.009839 1.000000
0.019886 -0.098948 -0.012569 1.000000
0.053058 -0.025895 0.096592 1.000000
0.114953 -0.001991 0.100004 1.000000
0.199587 -0.086109 -0.050150 1.000000
-0.315796 -0.099725 0.001664 1.000000
-0.288399 -0.089504 -0.043843 1.000000
0.133545 0.048555 0.087527 1.000000
-0.117432 -0.014514 -0.098585 1.000000
0.179672 0.094643 -0.031999 1.000000
-0.140020 -0.074312 0.066730 1.000000
0.094325 0.038737 -0.091893 1.000000
-0.337619 0.000949 0.100044 1.000000
-0.185792 0.072273 0.069219 1.000000
-0.341227 0.087464 0.048616 1.000000
0.227587 -0.096611 0.025102 1.000000
0.394775 0.018232 0.098396 1.000000
0.116830 0.047825 0.087925 1.000000
0.369811 -0.042387 -0.090212 1.000000
-0.028081 0.035986 -0.093017 1.000000
-0.242959 0.045727 -0.088631 1.000000
0.353164 0.070075 -0.071055 1.000000
0.370846 0.005379 -0.099542 1.000000
0.346220 -0.029440 0.095562 1.000000
-0.115870 -0.057246 -0.081548 1.000000
0.375069 -0.066976 0.074130 1.000000
0.059865 -0.097589 0.020750 1.000000
-0.354625 -0.026654 -0.096008 1.000000
0.252353 -0.004779 0.099916 1.000000
-0.466191 -0.096984 -0.023091 3.000000
0.227282 -0.098364 -0.016254 1.000000
-0.069390 -0.095418 -0.028846 1.000000
0.042155 -0.068149 -0.072734 1.000000
0.386387 -0.081466 -0.057397 1.000000
0.126245 -0.099389 0.008415 1.000000
-0.344317 0.099818 -0.005766 1.000000
-0.440333 -0.094957 -0.030430 3.000000
0.073462 -0.082824 -0.055399 1.000000
0.194291 0.096143 -0.027152 1.000000
0.150247 -0.099548 0.006738 1.000000
-0.017570 0.019964 0.098048 1.000000
0.238089 0.080588 -0.058971 1.000000
0.271632 0.001241 0.100035 1.000000
0.363059 0.098712 0.015892 1.000000
-0.099715 -0.067982 -0.072881 1.000000
0.057623 0.015593 0.098814 1.000000
-0.125290 0.095287 -0.030098 1.000000
-0.036358 -0.062632 0.077862 1.000000
-0.234264 0.010975 -0.099077 1.000000
0.316577 -0.099727 0.001622 1.000000
0.285333 0.099528 0.009413 1.000000
-0.452008 0.097164 0.023693 3.000000
-0.058355 0.001898 0.100014 1.000000
-0.095323 0.084004 -0.054005 1.000000
0.250339 0.061745 0.078732 1.000000
0.195246 -0.038097 -0.092069 1.000000
-0.380085 0.097378 0.022738 1.000000
0.047900 0.029199 -0.095337 1.000000
0.214822 -0.076366 -0.064038 1.000000
-0.246622 0.084377 0.053820 1.000000
0.306522 -0.097734 -0.019738 1.000000
0.091838 0.099450 -0.009884 1.000000
-0.397904 0.068892 0.072600 1.000000
0.400608 -0.097735 0.020095 1.000000
-0.140002 0.098821 -0.014840 1.000000
0.377069 0.002920 -0.099619 1.000000
0.119230 -0.090854 0.041352 1.000000
0.458615 -0.048522 -0.087046 2.000000
-0.179889 -0.039526 -0.091450 1.000000
0.258880 -0.013128 -0.098805 1.000000
-0.069109 -0.059412 -0.079998 1.000000
0.280934 -0.009849 0.099524 1.000000
0.310516 -0.088125 0.046913 1.000000
-0.305107 0.007975 0.099723 1.000000
0.224979 0.024697 -0.096627 1.000000
-0.001533 -0.098789 0.013935 1.000000
0.134674 -0.091414 0.040057 1.000000
-0.335542 -0.067098 0.074023 1.000000
-0.288380 0.097424 -0.022171 1.000000
0.264175 0.064378 -0.076264 1.000000
-0.260850 -0.026819 -0.095961 1.000000
-0.201635 -0.012919 -0.098838 1.000000
0.087612 -0.047016 0.088218 1.000000
-0.307817 -0.099050 -0.011642 1.000000
-0.219916 0.099889 0.003873 1.000000
-0.426869 -0.091888 0.038962 3.000000
-0.176898 -0.045010 -0.088878 1.000000
0.167242 -0.042917 -0.089944 1.000000
-0.091040 -0.006422 0.099848 1.000000
0.407037 0.096053 0.027823 1.000000
-0.037180 0.083753 0.054739 1.000000
-0.120457 0.023256 0.097312 1.000000
-0.245277 0.091632 0.040093 1.000000
0.012239 -0.036356 -0.092800 1.000000
-0.182061 0.097034 -0.023915 1.000000
-0.389727 0.099282 -0.011655 1.000000
0.006963 0.002406 0.099998 1.000000
-0.281711 0.096005 0.027991 1.000000
-0.195534 0.011475 0.099392 1.000000
0.434899 -0.065963 0.075023 2.000000
0.319651 0.084063 -0.053919 1.000000
0.349317 0.019296 0.098197 1.000000
0.311461 -0.082545 -0.055810 1.000000
0.083129 0.052807 -0.084650 1.000000
-0.021440 -0.067470 0.073695 1.000000
0.065318 0.087939 -0.047373 1.000000
-0.446693 0.074827 -0.066048 3.000000
0.083061 -0.051484 0.085657 1.000000
0.238161 0.099959 -0.001292 1.000000
0.209670 0.064171 0.076809 1.000000
-0.001011 0.038280 0.092453 1.000000
0.150858 0.097962 0.020123 1.000000
-0.140402 -0.099654 -0.003581 1.000000
0.201974 -0.005630 0.099889 1.000000
-0.067253 -0.038225 -0.092013 1.000000
-0.018136 0.054125 0.084191 1.000000
0.062996 0.098329 0.018311 1.000000
-0.341801 -0.016011 0.098711 1.000000
0.108062 -0.075599 0.065270 1.000000
-0.119454 -0.069155 -0.071741 1.000000
-0.358078 -0.093211 -0.035329 1.000000
-0.043251 0.099004 -0.013688 1.000000
0.052721 0.098968 -0.013914 1.000000
0.062827 -0.083753 0.054394 1.000000
-0.147266 -0.040927 0.091207 1.000000
0.392206 -0.068568 -0.072327 1.000000
0.001768 0.098964 0.014299 1.000000
0.028148 -0.094267 -0.032397 1.000000
-0.345241 0.052390 -0.084897 1.000000
-0.287875 0.082932 0.055947 1.000000
0.299424 0.095172 -0.030494 1.000000
0.172853 -0.098991 0.012633 1.000000
-0.320628 0.005257 -0.099546 1.000000
-0.099239 0.099932 -0.002139 1.000000
-0.063696 -0.055727 0.082943 1.000000
-0.388022 0.052921 0.084945 1.000000
-0.328108 -0.004709 -0.099556 1.000000
0.017776 0.027543 -0.095818 1.000000
0.058677 0.010378 -0.099133 1.000000
0.330499 0.081747 -0.057326 1.000000
0.095097 -0.028214 0.095918 1.000000
0.303617 0.043484 -0.089774 1.000000
-0.018401 -0.025481 0.096712 1.000000
-0.061314 0.093185 -0.036050 1.000000
-0.119734 0.061201 0.079154 1.000000
-0.365228 -0.012755 -0.098864 1.000000
-0.264340 0.042547 0.090607 1.000000
0.131755 -0.039496 0.091826 1.000000
0.102539 -0.087364 0.048392 1.000000
-0.303428 -0.078406 0.061845 1.000000
-0.257492 -0.091829 0.039099 1.000000
0.087405 0.072761 0.068732 1.000000
0.368318 0.098115 0.019438 1.000000
-0.433579 -0.071166 -0.069730 3.000000
0.239762 0.096929 0.024744 1.000000
0.063455 -0.049025 -0.086748 1.000000
-0.251152 0.061942 0.078579 1.000000
-0.424157 -0.069029 0.072229 1.000000
-0.360691 0.049883 0.086742 1.000000
0.027279 -0.077337 0.063223 1.000000
-0.209886 0.083605 -0.054593 1.000000
-0.338093 -0.038139 0.092413 1.000000
0.404959 -0.078216 -0.061727 1.000000
-0.399935 0.025305 -0.096468 1.000000
-0.449599 -0.029273 0.095610 3.000000
-0.259958 -0.086523 -0.049450 1.000000
-0.184625 0.047829 -0.087560 1.000000
-0.228306 0.039097 0.092100 1.000000
0.363186 -0.029698 0.095487 1.000000
-0.013014 0.010474 0.099487 1.000000
0.114216 0.098875 -0.014503 1.000000
-0.332233 0.054438 0.083978 1.000000
-0.414661 0.090778 0.042066 1.000000
0.130098 -0.010840 0.099430 1.000000
-0.417079 0.093634 0.035167 1.000000
0.295567 -0.026464 0.096427 1.000000
-0.295754 0.092268 -0.038260 1.000000
0.402103 -0.035290 -0.093184 1.000000
0.104565 0.045813 0.088950 1.000000
0.079301 -0.081990 -0.056626 1.000000
0.451259 0.056648 0.082476 2.000000
-0.362293 -0.073340 -0.067470 1.000000
0.201795 0.040563 0.091465 1.000000
0.026587 -0.099726 -0.001276 1.000000
-0.077953 -0.062588 -0.077534 1.000000
-0.247164 0.085629 -0.051357 1.000000
-0.271422 0.071690 0.069802 1.000000
-0.360087 0.054452 -0.083605 1.000000
-0.010995 0.053455 -0.084267 1.000000
-0.372668 0.097723 -0.020831 1.000000
0.226968 0.097154 0.023740 1.000000
-0.021699 -0.041985 0.090749 1.000000
-0.141931 -0.092671 -0.036790 1.000000
-0.433982 0.096123 -0.027220 3.000000
0.144722 0.084100 0.054227 1.000000
0.345672 -0.091172 0.040616 1.000000
0.303961 -0.063412 -0.076895 1.000000
-0.424002 -0.015716 0.098757 1.000000
-0.299421 -0.065093 -0.075428 1.000000
-0.433770 -0.059272 0.080469 3.000000
-0.086968 0.020858 -0.097485 1.000000
-0.041186 -0.082529 0.056195 1.000000
0.071099 0.066433 -0.074452 1.000000
-0.190582 -0.097964 -0.018707 1.000000
0.272111 0.098790 -0.015039 1.000000
0.347643 -0.042841 0.090346 1.000000
0.423964 0.000059 -0.099705 1.000000
0.187370 -0.060722 -0.078982 1.000000
0.415760 -0.093524 -0.034461 1.000000
0.281171 0.099964 0.001509 1.000000
-0.408962 -0.003627 0.099952 1.000000
-0.188223 -0.070495 0.070764 1.000000
-0.043156 -0.066699 0.074375 1.000000
0.377845 0.060417 0.079762 1.000000
-0.248993 0.080702 0.059187 1.000000
-0.183439 0.098434 0.017647 1.000000
-0.004141 0.051812 -0.085238 1.000000
-0.200792 0.001878 -0.099652 1.000000
-0.284463 0.062984 0.077770 1.000000
0.432463 0.021801 -0.097275 1.000000
0.032336 -0.080654 0.058947 1.000000
-0.370306 -0.083771 -0.054005 1.000000
0.279089 0.068961 -0.072168 1.000000
-0.353469 -0.028620 0.095800 1.000000
-0.052803 0.039711 -0.091471 1.000000
0.050650 -0.050276 -0.086009 1.000000
-0.368762 0.038653 -0.091929 1.000000
-0.196305 -0.024170 -0.096693 1.000000
-0.340497 0.022691 0.097438 1.000000
-0.096584 -0.058136 -0.080943 1.000000
0.443962 0.064636 -0.076037 2.000000
-0.161787 -0.016755 -0.098230 1.000000
0.337508 -0.089114 -0.044609 1.000000
0.249907 -0.095137 -0.029810 1.000000
0.450736 0.001884 -0.099652 2.000000
-0.158806 0.021967 0.097600 1.000000
0.048828 0.053576 0.084558 1.000000
-0.133817 0.073357 -0.067716 1.000000
0.231538 -0.086885 0.049202 1.000000
-0.219494 0.097090 0.024024 1.000000
0.036140 -0.039730 0.091725 1.000000
-0.083294 0.099783 -0.006352 1.000000
0.160562 0.045492 0.089114 1.000000
-0.388298 0.089584 -0.044143 1.000000
0.419089 -0.066336 -0.074332 1.000000
0.245535 -0.071315 0.069943 1.000000
0.395714 -0.031722 -0.094469 1.000000
-0.080036 -0.055180 0.083315 1.000000
-0.282769 -0.032415 -0.094219 1.000000
-0.289769 -0.092081 -0.038152 1.000000
-0.259612 0.099814 0.006274 1.000000
-0.293546 0.075269 0.065910 1.000000
-0.215084 -0.012432 -0.098915 1.000000
0.451472 0.096508 0.026259 2.000000
-0.067827 0.075413 0.065746 1.000000
-0.457083 0.099122 0.013304 3.000000
-0.344469 -0.075439 -0.065089 1.000000
-0.325592 -0.063363 0.077296 1.000000
0.409968 0.097903 0.020389 1.000000
-0.049535 0.099046 0.013787 1.000000
-0.072236 0.099091 -0.013138 1.000000
-0.139830 0.012999 -0.098862 1.000000
-0.197672 -0.062855 -0.077326 1.000000
-0.079649 0.092595 0.037867 1.000000
-0.024074 0.073036 0.068442 1.000000
-0.247632 0.024346 -0.096706 1.000000
0.434588 0.066290 -0.074578 1.000000
0.251579 0.071311 -0.069819 1.000000
0.433802 -0.077601 -0.062520 1.000000
0.116404 0.090995 -0.041201 1.000000
-0.051888 0.068697 0.072795 1.000000
-0.180016 0.003662 0.099959 1.000000
0.032510 -0.099668 0.003478 1.000000
0.301327 0.026816 -0.096029 1.000000
0.200839 -0.004133 -0.099574 1.000000
-0.175058 -0.080422 -0.058883 1.000000
-0.021498 0.079375 -0.060534 1.000000
0.044508 0.044756 0.089489 1.000000
-0.324511 0.005296 0.099907 1.000000
-0.441402 -0.035110 0.093611 3.000000
0.391920 0.036393 0.093234 1.000000
-0.313242 -0.091610 0.039604 1.000000
0.062850 -0.077668 0.062797 1.000000
0.451976 0.030254 0.095393 2.000000
-0.166388 0.022480 -0.097123 1.000000
-0.055319 -0.067987 -0.072876 1.000000
0.093043 -0.094441 0.032277 1.000000
-0.300664 0.005087 -0.099551 1.000000
-0.348814 -0.053987 0.084126 1.000000
0.044113 -0.034698 -0.093397 1.000000
0.229531 0.093742 0.034867 1.000000
0.041806 -0.097045 0.023183 1.000000
-0.423288 0.008427 -0.099317 1.000000
0.295576 0.095455 0.029882 1.000000
0.081221 -0.074654 0.066343 1.000000
-0.272370 0.098922 0.014564 1.000000
-0.401530 -0.088322 0.046525 1.000000
-0.257960 0.097951 -0.019811 1.000000
0.009444 -0.071750 -0.069146 1.000000
-0.015284 -0.094269 -0.032390 1.000000
-0.369210 0.077758 -0.062618 1.000000
0.353052 -0.090920 0.041199 1.000000
0.370340 0.095063 -0.030834 1.000000
0.080523 0.082869 0.056039 1.000000
0.267855 -0.027413 0.096151 1.000000
0.298464 0.098496 -0.016892 1.000000
0.101042 -0.043076 0.090226 1.000000
-0.199079 0.052697 0.085078 1.000000
0.231794 -0.059650 -0.079813 1.000000
0.366474 0.056234 0.082757 1.000000
0.046185 0.078728 0.061731 1.000000
0.254640 -0.097778 0.019902 1.000000
-0.295372 0.020997 -0.097454 1.000000
0.105003 0.087571 -0.048073 1.000000
-0.197543 -0.095661 -0.028008 1.000000
0.318231 -0.077257 -0.062964 1.000000
-0.428952 0.049385 -0.086674 3.000000
0.012247 0.038270 0.092458 1.000000
-0.459243 0.033657 0.094219 3.000000
0.266614 -0.096971 0.023515 1.000000
-0.151028 0.038769 -0.091879 1.000000
0.281421 -0.038737 0.092154 1.000000
0.378360 -0.023066 -0.096940 1.000000
-0.413688 0.075645 0.065483 1.000000
-0.456335 0.011348 0.099404 3.000000
0.159216 -0.094076 0.033290 1.000000
-0.164628 0.087163 0.049126 1.000000
0.425257 -0.098947 0.012936 1.000000
0.461156 0.096368 -0.026379 2.000000
-0.339094 -0.025327 -0.096394 1.000000
0.087545 0.085089 0.052633 1.000000
0.445037 0.062043 0.078501 2.000000
-0.206643 0.006281 -0.099514 1.000000
0.222766 -0.071890 -0.069006 1.000000
-0.304431 0.099241 0.012452 1.000000
-0.013388 -0.058540 -0.080668 1.000000
0.416407 0.078826 -0.061242 1.000000
0.208770 -0.048349 -0.087148 1.000000
0.225402 0.029663 0.095565 1.000000
-0.389722 0.058059 0.081516 1.000000
-0.220275 0.077002 -0.063581 1.000000
0.291227 0.030155 -0.095059 1.000000
-0.159977 -0.032233 0.094647 1.000000
-0.064578 -0.089646 -0.043564 1.000000
-0.399670 0.099089 0.013510 1.000000
0.408286 -0.056022 0.082742 2.000000
0.256456 0.008667 -0.099295 1.000000
-0.301997 0.042148 -0.090417 1.000000
-0.215863 -0.055403 -0.082801 1.000000
-0.096887 -0.036986 0.092912 1.000000
0.366231 -0.083377 0.054948 1.000000
-0.419004 0.096209 -0.026926 1.000000
0.290449 0.053537 -0.084218 1.000000
0.174590 -0.099663 -0.003271 1.000000
-0.252507 0.038565 0.092330 1.000000
-0.417643 0.058380 0.081299 1.000000
0.223764 -0.036548 -0.092731 1.000000
-0.101026 0.000272 -0.099702 1.000000
0.041650 0.036419 -0.092862 1.000000
-0.294406 -0.082971 -0.055183 1.000000
0.138222 0.074243 -0.066710 1.000000
0.129367 -0.065106 0.075779 1.000000
0.363327 0.006455 -0.099504 1.000000
-0.171951 -0.099262 -0.009403 1.000000
-0.352891 0.031189 -0.094744 1.000000
0.098257 0.094996 -0.031019 1.000000
0.081130 -0.098747 0.014199 1.000000
0.444166 -0.099577 -0.006009 2.000000
0.276205 0.077699 -0.062695 1.000000
-0.456935 0.022259 0.097535 3.000000
0.060436 -0.093962 -0.033244 1.000000
0.170784 0.031499 0.094996 1.000000
0.197004 -0.096817 -0.023837 1.000000
0.313799 0.081621 0.057874 1.000000
0.421955 0.099626 -0.008020 1.000000
-0.243537 -0.095363 -0.029035 1.000000
0.000209 -0.070569 0.070690 1.000000
0.031316 0.028251 -0.095612 1.000000
0.400000 0.096025 -0.027557 1.000000
0.253615 -0.097460 -0.020961 1.000000
0.091782 0.082914 -0.055610 1.000000
0.263717 -0.043214 0.090156 1.000000
-0.047941 0.024429 -0.096687 1.000000
-0.178406 -0.034170 -0.093587 1.000000
0.096059 0.052944 -0.084569 1.000000
0.302640 -0.097419 0.021510 1.000000
0.181460 -0.061876 -0.078087 1.000000
-0.376685 -0.095400 -0.028905 1.000000
0.405842 -0.056651 -0.081952 1.000000
-0.146029 0.060031 0.080061 1.000000
-0.026688 0.030102 -0.095074 1.000000
0.164621 -0.038678 0.092180 1.000000
-0.330996 0.077571 -0.062860 1.000000
-0.008140 0.041353 0.091123 1.000000
-0.357351 0.075765 0.065347 1.000000
0.384017 0.041895 -0.090526 1.000000
-0.285414 0.091776 0.039759 1.000000
-0.315198 0.087469 -0.048245 1.000000
0.314492 0.031059 0.095154 1.000000
0.050899 0.020151 0.098006 1.000000
0.068130 -0.080614 0.058998 1.000000
0.326329 -0.094611 -0.031441 1.000000
-0.326888 0.092876 -0.036856 1.000000
-0.178440 0.043684 -0.089672 1.000000
0.019519 -0.064230 -0.076188 1.000000
0.216091 0.085286 -0.051938 1.000000
-0.009926 -0.075952 0.064870 1.000000
0.113050 -0.068417 0.072842 1.000000
0.020159 -0.055893 0.082830 1.000000
-0.287656 0.022711 0.097434 1.000000
-0.307136 0.029758 -0.095175 1.000000
0.251235 -0.012399 -0.098920 1.000000
-0.402908 0.037671 -0.092354 1.000000
0.226029 0.068203 0.073255 1.000000
0.130542 -0.099727 0.001607 1.000000
0.456143 0.099964 0.001494 2.000000
-0.427106 -0.052268 -0.084831 1.000000
0.440040 0.090580 0.042523 2.000000
-0.093646 -0.050310 -0.085988 1.000000
-0.392707 -0.077616 0.062864 1.000000
-0.304965 -0.042767 -0.090020 1.000000
0.235380 0.009335 -0.099232 1.000000
0.081591 0.047079 -0.087943 1.000000
0.259887 -0.003637 -0.099589 1.000000
0.395722 0.094200 -0.033230 1.000000
0.431325 -0.070822 0.070437 2.000000
-0.251086 0.070684 0.070808 1.000000
-0.215678 0.026906 0.096366 1.000000
-0.041885 -0.001098 0.100032 1.000000
-0.288724 0.067581 0.073803 1.000000
-0.134171 0.098721 0.015837 1.000000
-0.154518 0.013767 -0.098740 1.000000
-0.204802 -0.097484 0.021220 1.000000
0.193763 -0.072297 -0.068599 1.000000
0.310343 -0.063716 -0.076642 1.000000
-0.179547 -0.013632 0.099088 1.000000
-0.331842 -0.086501 -0.049487 1.000000
0.190822 0.022389 -0.097143 1.000000
0.273409 0.043824 0.089964 1.000000
0.103263 -0.078154 -0.061808 1.000000
-0.417193 -0.060621 0.079422 1.000000
-0.016836 -0.000611 -0.099684 1.000000
0.445175 -0.055666 -0.082622 1.000000
-0.366762 -0.090409 0.042380 1.000000
0.348550 0.001379 -0.099667 1.000000
0.343827 -0.073088 0.068118 1.000000
0.257198 -0.049562 -0.086431 1.000000
-0.003815 0.092770 -0.037101 1.000000
0.203790 0.082161 0.057081 1.000000
-0.220346 0.099917 -0.002611 1.000000
-0.048776 0.078673 0.061801 1.000000
0.042126 0.085014 0.052759 1.000000
0.314372 -0.099368 0.008636 1.000000
0.379515 -0.032649 -0.094135 1.000000
-0.084766 -0.060095 0.079830 1.000000
0.357773 -0.098841 0.013605 1.000000
-0.247143 0.076856 0.064109 1.000000
0.271881 -0.058617 -0.080614 1.000000
-0.272778 0.067593 -0.073430 1.000000
-0.374478 0.099299 -0.011473 1.000000
-0.341189 0.012598 0.099286 1.000000
-0.431661 0.097617 -0.021305 3.000000
-0.382141 0.098023 -0.019490 1.000000
-0.373131 0.045430 0.089145 1.000000
-0.328285 0.058656 -0.080749 1.000000
-0.203517 -0.084397 -0.053045 1.000000
-0.457793 0.036605 -0.092795 3.000000
-0.172170 -0.059228 -0.080140 1.000000
0.099178 -0.000441 -0.099690 1.000000
-0.341699 -0.097517 0.021073 1.000000
0.424881 0.039803 -0.091431 1.000000
0.348232 0.011433 -0.099033 1.000000
-0.184218 0.087613 -0.048002 1.000000
0.017700 -0.095651 0.028405 1.000000
0.339602 -0.050157 -0.086079 1.000000
0.364485 -0.048741 -0.086916 1.000000
0.188780 -0.065452 0.075474 1.000000
0.165324 0.007236 0.099793 1.000000
0.039821 0.092921 -0.036750 1.000000
-0.379858 0.098655 0.016250 1.000000
0.125164 0.099926 -0.002342 1.000000
0.135101 0.009262 -0.099238 1.000000
0.333184 -0.086735 0.049454 1.000000
-0.447161 -0.045909 -0.088420 3.000000
0.390766 -0.095111 -0.029901 1.000000
-0.228210 -0.069928 0.071331 1.000000
-0.070541 0.090488 0.042734 1.000000
-0.318521 0.074092 -0.066882 1.000000
-0.028589 0.099866 -0.004234 1.000000
0.182391 0.078672 -0.061441 1.000000
-0.401038 -0.023237 -0.096902 1.000000
-0.450242 0.065798 0.075375 3.000000
-0.288840 0.057462 -0.081560 1.000000
0.391681 0.075107 0.066093 1.000000
-0.073612 -0.094004 -0.033127 1.000000
-0.042354 0.099498 0.009732 1.000000
-0.159873 0.026798 -0.096035 1.000000
-0.047471 -0.093868 0.033868 1.000000
0.324552 -0.092432 -0.037341 1.000000
0.011827 -0.000856 -0.099677 1.000000
-0.444977 0.088003 0.047610 3.000000
-0.271115 0.055112 0.083519 1.000000
0.112451 -0.097023 -0.022917 1.000000
0.131084 0.014087 -0.098690 1.000000
-0.355539 -0.069819 0.071440 1.000000
0.028699 0.063112 -0.077308 1.000000
-0.428014 0.028499 -0.095540 1.000000
-0.442172 -0.023032 0.097310 3.000000
-0.156329 -0.080827 0.058700 1.000000
0.137348 0.095599 -0.029025 1.000000
0.086477 0.037309 -0.092511 1.000000
-0.186976 -0.041977 -0.090390 1.000000
-0.438199 -0.098911 -0.012801 3.000000
-0.083939 0.089625 0.044427 1.000000
0.356695 -0.016305 -0.098302 1.000000
0.462856 0.075313 -0.065497 2.000000
-0.405394 -0.093357 -0.034924 1.000000
0.007557 -0.022933 0.097332 1.000000
-0.075250 0.090564 -0.042197 1.000000
-0.092510 -0.078021 0.062341 1.000000
0.450633 0.036725 -0.092751 2.000000
0.448995 -0.010713 -0.099079 2.000000
0.313795 -0.096800 0.024277 1.000000
-0.268694 -0.046138 -0.088303 1.000000
0.346362 -0.099739 0.001216 1.000000
0.360302 0.088765 0.046113 1.000000
0.033741 -0.020705 0.097830 1.000000
-0.310401 0.018853 0.098296 1.000000
-0.313504 0.047894 -0.087527 1.000000
-0.454401 -0.070924 0.070334 3.000000
-0.465332 -0.056173 -0.082277 3.000000
-0.065272 -0.081378 -0.057527 1.000000
0.208912 -0.058397 -0.080765 1.000000
-0.109966 0.046957 -0.088005 1.000000
-0.407154 0.003150 -0.099612 1.000000
0.385931 0.068474 0.073016 1.000000
-0.191999 -0.009935 -0.099153 1.000000
0.246880 -0.069138 -0.071758 1.000000
-0.021780 -0.099603 0.005551 1.000000
0.340262 0.099038 -0.013473 1.000000
-0.153851 -0.098182 0.017763 1.000000
0.043193 -0.044942 -0.088912 1.000000
0.064000 0.093705 -0.034605 1.000000
0.020803 0.094955 -0.031133 1.000000
-0.309171 -0.006714 -0.099457 1.000000
0.083437 0.023615 -0.096869 1.000000
0.139039 -0.055655 -0.082629 1.000000
-0.173206 0.072136 0.069356 1.000000
0.409553 -0.093974 0.033573 1.000000
0.270518 0.087315 -0.048507 1.000000
0.011841 0.084990 -0.052438 1.000000
-0.145185 0.099538 0.009316 1.000000
0.072990 -0.086094 -0.050176 1.000000
0.238868 -0.093129 -0.035559 1.000000
0.205561 0.086469 0.050299 1.000000
0.446955 -0.088104 -0.046591 2.000000
-0.391251 0.064401 0.076606 1.000000
-0.370264 -0.018170 0.098369 1.000000
0.100808 0.069340 -0.071789 1.000000
0.014694 0.098292 -0.018185 1.000000
-0.198100 -0.084397 0.053408 1.000000
0.315552 0.099778 -0.006407 1.000000
0.099348 0.099207 -0.012407 1.000000
0.234859 -0.003209 -0.099603 1.000000
0.307435 0.098860 0.014962 1.000000
-0.273125 0.088503 0.046629 1.000000
0.311031 -0.083615 0.054598 1.000000
0.322251 0.099315 -0.011313 1.000000
0.243918 0.038358 -0.092057 1.000000
-0.203596 0.000975 0.100043 1.000000
0.368458 0.011486 -0.099028 1.000000
-0.173669 -0.099671 0.003400 1.000000
-0.306998 0.098209 -0.018657 1.000000
0.444432 0.069247 -0.071883 2.000000
-0.305240 0.046830 0.088432 1.000000
0.238080 -0.086828 0.049298 1.000000
0.406692 0.090536 -0.042262 1.000000
0.382086 -0.045226 -0.088768 1.000000
-0.266901 -0.098805 -0.013467 1.000000
0.429682 0.075032 -0.065815 1.000000
-0.390494 0.095545 -0.029212 1.000000
-0.284551 0.099874 -0.004008 1.000000
-0.205759 -0.026066 0.096542 1.000000
-0.269057 0.056115 -0.082475 1.000000
-0.400885 -0.060759 -0.078952 1.000000
-0.433151 -0.099145 0.011000 3.000000
0.043949 0.096662 0.025727 1.000000
-0.064508 -0.098556 -0.015042 1.000000
-0.438656 0.056847 -0.081978 3.000000
0.386089 0.079767 0.060392 1.000000
0.438753 0.057388 0.081973 2.000000
-0.306006 -0.085759 0.051105 1.000000
-0.144791 -0.013579 0.099096 1.000000
0.348455 0.030300 -0.095017 1.000000
-0.055243 -0.009541 -0.099190 1.000000
-0.454747 -0.066214 0.074802 3.000000
0.312733 0.077595 0.063191 1.000000
-0.084891 0.064090 0.076880 1.000000
0.375598 -0.045813 0.088831 1.000000
0.465105 0.028771 0.095824 2.000000
0.205900 0.050061 -0.086274 1.000000
-0.264832 -0.084088 -0.053538 1.000000
-0.316889 0.024656 -0.096637 1.000000
0.285855 0.000104 -0.099707 1.000000
0.239482 0.095657 -0.028826 1.000000
-0.308523 0.061550 -0.078520 1.000000
0.356443 0.064889 0.076177 1.000000
0.307014 0.049964 -0.086331 1.000000
0.397343 0.069208 0.072285 1.000000
-0.255889 -0.096691 0.024764 1.000000
-0.065111 0.080862 -0.058617 1.000000
0.068944 0.002368 -0.099636 1.000000
-0.011904 0.032728 0.094553 1.000000
-0.167040 0.070938 -0.070191 1.000000
0.071501 0.050114 0.086605 1.000000
0.401295 -0.069278 0.071981 1.000000
-0.387083 -0.047392 0.088027 1.000000
0.077485 -0.019701 -0.097692 1.000000
-0.417884 0.029648 0.095569 1.000000
-0.024202 0.092745 0.037520 1.000000
-0.389714 0.099895 0.003685 1.000000
-0.116055 0.064894 0.076172 1.000000
0.384542 -0.053768 -0.083911 1.000000
-0.241431 -0.068326 0.072933 1.000000
-0.035073 -0.073908 -0.066826 1.000000
-0.284685 -0.096755 0.024481 1.000000
0.243657 0.098001 0.019950 1.000000
0.401065 0.093402 0.035811 1.000000
0.066077 -0.098745 0.014212 1.000000
0.311597 0.065208 -0.075532 1.000000
0.320344 -0.008589 0.099643 1.000000
0.365120 -0.098135 0.018060 1.000000
-0.222514 -0.099679 0.003145 1.000000
0.125498 -0.099291 -0.009098 1.000000
0.076073 0.008267 0.099695 1.000000
0.010565 -0.099119 -0.010911 1.000000
-0.148311 0.099894 0.003728 1.000000
-0.006090 0.081500 0.058053 1.000000
0.348228 -0.087768 0.047614 1.000000
0.359236 -0.099732 -0.001095 1.000000
0.145516 -0.001277 0.100026 1.000000
-0.359545 0.070208 0.071284 1.000000
-0.437149 -0.033610 -0.093789 3.000000
0.143091 -0.019518 0.098096 1.000000
0.434130 0.012610 0.099285 2.000000
0.337404 -0.099543 0.006792 1.000000
0.091551 -0.047105 -0.087810 1.000000
-0.179478 0.017767 0.098470 1.000000
0.191147 0.099964 0.001505 1.000000
-0.043874 -0.092084 -0.038145 1.000000
-0.073868 -0.077530 0.062974 1.000000
-0.295849 -0.052793 -0.084520 1.000000
0.111056 0.095249 0.030594 1.000000
0.010077 -0.018228 -0.097997 1.000000
0.170067 0.001407 -0.099667 1.000000
-0.177214 0.056297 -0.082352 1.000000
-0.230782 0.090974 0.041613 1.000000
-0.158225 -0.049609 0.086766 1.000000
0.150097 -0.022452 0.097440 1.000000
-0.159389 -0.019327 0.098138 1.000000
-0.332434 -0.097773 0.019925 1.000000
-0.152728 -0.047721 0.087859 1.000000
0.115715 0.017435 0.098522 1.000000
0.289831 0.036121 -0.092969 1.000000
-0.340142 0.096064 0.027785 1.000000
0.336915 0.087539 -0.048127 1.000000
-0.037683 -0.090567 -0.041651 1.000000
-0.457055 -0.004987 -0.099547 3.000000
-0.210500 -0.019550 0.098089 1.000000
0.338245 0.098073 0.019628 1.000000
0.258899 -0.088246 -0.046311 1.000000
-0.360768 -0.052067 0.085312 1.000000
-0.187134 0.049343 0.087061 1.000000
0.160860 0.086542 0.050175 1.000000
0.453084 -0.056853 -0.081815 2.000000
-0.110694 -0.099052 0.011987 1.000000
-0.190499 -0.096558 0.025282 1.000000
-0.402698 0.094225 -0.033163 1.000000
0.149236 0.023085 0.097351 1.000000
0.396667 -0.099695 0.002628 1.000000
0.015751 -0.097351 0.021814 1.000000
-0.195940 -0.014488 0.098952 1.000000
-0.248001 -0.096472 0.025580 1.000000
0.158656 0.098856 -0.014621 1.000000
-0.058074 0.093489 0.035570 1.000000
-0.404392 -0.094265 0.032765 1.000000
0.403775 -0.026239 -0.096129 1.000000
0.176101 0.019825 0.098079 1.000000
-0.157062 -0.000093 -0.099701 1.000000
-0.443382 0.011717 0.099369 3.000000
0.446540 -0.042040 0.090725 2.000000
0.199142 0.047244 0.088221 1.000000
0.226185 -0.010826 -0.099069 1.000000
0.347950 0.098698 -0.015618 1.000000
-0.119451 -0.099635 -0.004162 1.000000
0.397329 0.024228 -0.096732 1.000000
0.155246 0.059802 0.080239 1.000000
0.452361 0.065680 0.075479 2.000000
-0.083785 0.079059 0.061305 1.000000
0.121330 0.086205 0.050746 1.000000
0.283412 -0.052437 0.085093 1.000000
-0.144984 -0.099294 -0.009061 1.000000
-0.396559 -0.097185 0.022554 1.000000
-0.234265 0.047406 -0.087776 1.000000
0.254622 0.099850 0.005112 1.000000
-0.285775 0.078727 -0.061370 1.000000
0.317283 -0.095609 -0.028187 1.000000
-0.052683 -0.078679 -0.061131 1.000000
0.170417 0.077062 -0.063512 1.000000
0.317501 -0.021930 -0.097194 1.000000
-0.451350 0.098651 -0.015918 3.000000
0.378104 0.036477 0.093203 1.000000
-0.166962 0.090938 -0.041333 1.000000
0.047754 0.092279 -0.038236 1.000000
-0.366843 -0.024871 -0.096527 1.000000
-0.103220 -0.057165 0.081966 1.000000
0.140056 0.085869 -0.050952 1.000000
0.303642 0.037367 -0.092486 1.000000
0.200887 -0.016499 -0.098271 1.000000
-0.180301 -0.097907 0.019325 1.000000
0.041038 -0.032954 0.094388 1.000000
-0.086574 0.010571 0.099478 1.000000
0.032768 0.026415 0.096509 1.000000
0.440632 -0.016432 -0.098281 1.000000
-0.195304 -0.038848 0.092106 1.000000
-0.046241 0.090439 -0.042467 1.000000
0.396996 0.043173 0.090295 1.000000
0.393378 0.087650 -0.047941 1.000000
-0.425326 -0.028111 -0.095585 1.000000
0.417790 0.040077 0.091676 2.000000
-0.181078 -0.099298 -0.009014 1.000000
-0.348505 0.072142 0.069351 1.000000
-0.452129 -0.096411 -0.025425 3.000000
-0.106824 -0.070947 -0.069949 1.000000
0.425948 -0.098183 -0.017396 1.000000
-0.021420 0.006871 0.099827 1.000000
0.161384 0.067378 -0.073619 1.000000
-0.283174 0.057285 0.082043 1.000000
-0.365736 -0.099730 -0.001160 1.000000
0.335136 0.076518 -0.064130 1.000000
0.313810 0.091412 0.040600 1.000000
-0.011326 0.066652 -0.074259 1.000000
-0.150761 -0.052907 0.084815 1.000000
-0.337414 -0.071890 0.069369 1.000000
-0.454289 -0.088280 0.046607 3.000000
-0.212504 0.099220 -0.012317 1.000000
0.100450 0.031990 -0.094456 1.000000
-0.324751 0.099356 -0.010874 1.000000
0.260601 -0.058421 0.081112 1.000000
0.465094 -0.069497 -0.071399 2.000000
0.445500 0.099130 -0.012892 2.000000
0.202461 -0.048246 0.087572 1.000000
-0.403521 -0.099577 0.006391 1.000000
0.110481 -0.094148 -0.032727 1.000000
-0.179341 -0.069805 0.071454 1.000000
-0.190853 0.056877 -0.081957 1.000000
0.334360 -0.005392 -0.099534 1.000000
-0.344737 -0.080656 0.058944 1.000000
0.193766 0.049733 0.086830 1.000000
0.100331 0.006468 -0.099503 1.000000
0.424144 -0.099674 0.003303 1.000000
0.390119 0.064673 0.076366 1.000000
-0.277756 0.036277 -0.092913 1.000000
-0.385747 0.078010 -0.062294 1.000000
0.093384 0.096218 -0.026894 1.000000
-0.466539 0.060897 -0.079027 3.000000
0.215578 -0.071109 -0.069787 1.000000
-0.419027 0.042180 -0.090403 1.000000
-0.271548 0.062797 0.077916 1.000000
0.357512 0.084696 -0.052934 1.000000
0.088753 -0.006357 -0.099491 1.000000
-0.088589 -0.047267 0.088091 1.000000
0.415563 -0.047861 -0.087425 1.000000
0.209831 -0.094777 -0.030981 1.000000
-0.296674 -0.099249 -0.009533 1.000000
0.366213 -0.054721 -0.083264 1.000000
0.339560 -0.065671 0.075282 1.000000
0.063766 -0.032145 0.094679 1.000000
-0.261667 0.036309 0.093264 1.000000
0.360945 -0.015106 0.098854 1.000000
-0.275590 -0.069137 -0.071759 1.000000
0.453351 0.073532 -0.067516 2.000000
0.296718 -0.035675 0.093408 1.000000
0.217705 0.007065 -0.099446 1.000000
0.138782 -0.002825 0.099978 1.000000
0.339657 0.090882 -0.041462 1.000000
0.379330 0.030371 -0.094996 1.000000
-0.021324 -0.058520 0.081045 1.000000
0.419630 0.018850 -0.097934 1.000000
-0.260215 0.094788 -0.031599 1.000000
-0.223414 0.062747 0.077954 1.000000
0.203531 0.086711 -0.049528 1.000000
-0.111285 -0.089465 -0.043920 1.000000
-0.176565 0.072254 -0.068876 1.000000
0.348893 0.077222 0.063673 1.000000
-0.168534 0.029906 0.095494 1.000000
-0.320564 0.090158 0.043380 1.000000
-0.466774 -0.028703 -0.095413 3.000000
-0.430940 0.090900 -0.041422 3.000000
-0.273454 0.019596 -0.097768 1.000000
0.276051 0.012148 0.099329 1.000000
0.442517 0.094876 -0.031352 2.000000
0.030050 0.092323 -0.038134 1.000000
0.029335 -0.079354 -0.060261 1.000000
-0.179624 0.078834 -0.061231 1.000000
-0.164267 0.075172 -0.065656 1.000000
0.286625 -0.019668 -0.097699 1.000000
-0.126401 0.052245 -0.084982 1.000000
0.139282 -0.079590 0.060319 1.000000
0.384890 -0.097721 0.020156 1.000000
-0.177880 0.099889 0.003893 1.000000
0.160494 0.093686 0.035022 1.000000
-0.328928 -0.075864 0.064970 1.000000
-0.402625 0.043073 -0.089983 1.000000
0.209531 0.093364 0.035916 1.000000
-0.437449 0.087759 -0.047727 3.000000
-0.332020 0.061423 0.078982 1.000000
0.386871 0.029042 -0.095382 1.000000
-0.172937 -0.058002 0.081397 1.000000
-0.371620 -0.045607 -0.088574 1.000000
0.437622 -0.085437 -0.051287 2.000000
-0.289736 0.029449 0.095627 1.000000
-0.340593 -0.043830 -0.089479 1.000000
-0.344139 -0.058038 -0.081010 1.000000
0.005629 0.047076 0.088307 1.000000
-0.190775 -0.008507 0.099651 1.000000
0.088686 -0.026612 0.096384 1.000000
-0.293593 -0.094269 -0.032391 1.000000
-0.302376 -0.058881 -0.080409 1.000000
0.220474 -0.094292 0.032689 1.000000
-0.137009 -0.072055 -0.068841 1.000000
-0.412383 -0.094268 -0.032395 1.000000
0.102762 -0.053503 -0.084092 1.000000
-0.142385 -0.067820 -0.073023 1.000000
0.434933 0.099872 -0.004060 2.000000
-0.172909 -0.068527 0.072732 1.000000
0.370045 0.094110 0.033843 1.000000
0.432662 -0.099482 -0.007071 2.000000
0.372220 -0.055256 0.083263 1.000000
0.127759 -0.043362 -0.089717 1.000000
0.207385 0.073779 0.067599 1.000000
-0.372959 0.076011 0.065068 1.000000
-0.209970 -0.052118 0.085282 1.000000
-0.331357 0.094681 0.032258 1.000000
-0.229132 -0.034740 0.093745 1.000000
-0.209455 0.094325 0.033247 1.000000
0.405684 0.097161 -0.023347 1.000000
0.426573 -0.085642 -0.050941 1.000000
0.225140 -0.011005 0.099414 1.000000
0.180666 0.056291 -0.082356 1.000000
0.347214 0.095596 -0.029036 1.000000
-0.418933 -0.095090 -0.029973 1.000000
-0.097710 0.031011 0.095171 1.000000
0.092835 -0.096394 0.025848 1.000000
0.381098 0.037023 -0.092634 1.000000
0.297873 -0.099028 -0.011871 1.000000
-0.374962 0.009234 0.099604 1.000000
-0.049287 0.016862 0.098613 1.000000
-0.063407 0.099578 0.008890 1.000000
0.238829 0.090036 0.043620 1.000000
0.163944 -0.063998 -0.076394 1.000000
-0.059464 -0.082025 0.056937 1.000000
0.317373 -0.090940 0.041153 1.000000
0.111380 0.099259 0.012264 1.000000
0.358672 -0.062866 0.077681 1.000000
0.056270 -0.077733 0.062712 1.000000
-0.271513 0.026824 -0.096027 1.000000
0.314421 -0.085471 -0.051230 1.000000
-0.110091 0.090312 -0.042716 1.000000
0.147752 0.098850 -0.014661 1.000000
0.386776 -0.096805 -0.023892 1.000000
0.152341 0.098260 -0.018385 1.000000
0.236444 -0.032355 -0.094241 1.000000
-0.064102 -0.088086 0.046989 1.000000
-0.178202 0.006409 -0.099508 1.000000
-0.401492 -0.001701 0.100013 1.000000
0.301708 -0.099493 0.007324 1.000000
-0.136173 0.040886 0.091326 1.000000
-0.242679 -0.091926 0.038874 1.000000
0.106539 -0.049925 0.086579 1.000000
-0.415689 -0.033025 0.094362 1.000000
0.006217 -0.072218 0.069041 1.000000
-0.020542 0.000352 0.100063 1.000000
-0.188359 -0.096244 -0.026000 1.000000
0.156831 -0.083815 -0.053940 1.000000
-0.456066 -0.073096 -0.067746 3.000000
0.243992 -0.029539 -0.095170 1.000000
0.102113 -0.093496 0.034900 1.000000
0.199339 0.033108 0.094416 1.000000
-0.441371 -0.080741 0.058827 3.000000
0.310457 0.045147 -0.088927 1.000000
0.321486 0.084876 0.052994 1.000000
-0.289507 -0.067153 -0.073611 1.000000
-0.390345 -0.039073 -0.091646 1.000000
0.307651 0.099945 -0.001722 1.000000
0.239743 0.063210 0.077595 1.000000
-0.357527 -0.066684 -0.074025 1.000000
-0.067534 -0.099238 0.010015 1.000000
0.187554 0.059898 0.080165 1.000000
0.166660 -0.057368 -0.081465 1.000000
-0.184118 -0.098694 0.014532 1.000000
0.371741 0.049787 0.086799 1.000000
-0.343628 0.099960 0.001614 1.000000
0.141949 0.097301 0.023080 1.000000
0.163857 -0.048543 0.087396 1.000000
0.316166 -0.068691 0.072568 1.000000
-0.173161 0.088381 -0.046505 1.000000
-0.106669 0.003485 0.099964 1.000000
0.358952 -0.082394 -0.056032 1.000000
0.257440 0.074882 -0.065986 1.000000
-0.146748 0.078035 -0.062262 1.000000
-0.278081 0.073338 -0.067737 1.000000
0.170252 0.097703 -0.020920 1.000000
-0.085168 0.085405 0.052099 1.000000
-0.376491 -0.082234 0.056629 1.000000
0.134040 0.059813 -0.079867 1.000000
-0.232173 -0.093324 -0.035015 1.000000
0.027441 0.018623 -0.097971 1.000000
-0.392721 0.078490 -0.061675 1.000000
0.442178 -0.006862 0.099806 2.000000
0.060914 -0.001587 -0.099654 1.000000
0.121023 -0.027295 -0.095822 1.000000
-0.341755 0.046272 -0.088354 1.000000
0.423227 -0.054533 0.083754 2.000000
-0.048267 0.004497 -0.099570 1.000000
0.365792 -0.000185 -0.099698 1.000000
0.408429 0.082321 0.056844 1.000000
0.146736 0.088528 -0.046218 1.000000
-0.322121 -0.059397 0.080372 1.000000
-0.434668 0.099140 -0.012825 3.000000
0.007807 -0.097083 0.023013 1.000000
-0.272535 0.091233 0.041015 1.000000
-0.131989 0.003371 -0.099605 1.000000
-0.206474 0.030542 -0.094947 1.000000
-0.279133 -0.098030 0.018726 1.000000
0.100400 0.096740 -0.025096 1.000000
-0.220842 0.013713 -0.098749 1.000000
-0.003841 0.056240 0.082753 1.000000
-0.014273 -0.096339 -0.025674 1.000000
0.443206 0.096731 -0.025127 2.000000
-0.431469 0.086690 0.049926 1.000000
-0.365520 0.084971 0.052832 1.000000
0.247589 -0.097670 0.020385 1.000000
0.458893 0.096527 0.026194 2.000000
-0.151082 -0.085155 -0.051764 1.000000
0.194175 -0.099720 -0.001468 1.000000
-0.002399 0.086891 -0.049224 1.000000
-0.056060 -0.073900 -0.066835 1.000000
-0.166059 0.083246 0.055485 1.000000
-0.419956 0.099988 0.000728 1.000000
0.441939 -0.094584 0.031880 2.000000
-0.364272 0.078920 0.061483 1.000000
-0.304493 0.082731 0.056242 1.000000
0.336857 -0.052921 0.084807 1.000000
-0.203797 0.062285 -0.077950 1.000000
-0.460958 0.047188 -0.087887 3.000000
0.463083 -0.058585 -0.080638 2.000000
-0.404269 0.018197 0.098401 1.000000
0.303687 0.099569 -0.008623 1.000000
-0.013521 0.009398 -0.099226 1.000000
-0.113009 0.099328 0.011534 1.000000
-0.320041 -0.091910 -0.038549 1.000000
-0.172601 -0.088111 -0.046577 1.000000
-0.272671 -0.011078 0.099408 1.000000
-0.058698 0.095684 0.029094 1.000000
-0.370423 0.002521 -0.099632 1.000000
0.131273 0.076058 -0.064652 1.000000
0.367166 0.099961 0.001581 1.000000
0.350032 -0.030267 -0.094959 1.000000
-0.146001 -0.026504 -0.096052 1.000000
0.349906 0.038416 0.092394 1.000000
0.415028 0.073480 -0.067576 1.000000
0.142102 0.077239 0.063651 1.000000
-0.041224 -0.071603 -0.069293 1.000000
-0.433860 0.066523 0.074736 1.000000
-0.385165 -0.052507 -0.084689 1.000000
0.055536 -0.045264 -0.088748 1.000000
0.183189 -0.048674 0.087319 1.000000
-0.106564 -0.028003 0.095979 1.000000
-0.148157 -0.091605 0.039616 1.000000
0.006147 0.087464 -0.048255 1.000000
0.465339 0.020424 0.019602 2.000000
0.465339 -0.018937 0.001571 2.000000
0.465339 -0.016138 -0.064077 2.000000
0.465339 -0.013650 0.078048 2.000000
0.465339 0.032157 -0.009953 2.000000
0.465339 0.051867 0.027513 2.000000
0.465339 -0.016775 -0.002223 2.000000
0.465339 -0.026470 0.072594 2.000000
0.465339 0.082567 -0.048657 2.000000
0.465339 -0.027475 0.044708 2.000000
0.465339 0.069365 0.055707 2.000000
0.465339 0.078899 0.061378 2.000000
0.465339 0.019396 0.048599 2.000000
0.465339 0.027963 -0.005047 2.000000
0.465339 -0.051074 0.021055 2.000000
0.465339 0.008957 0.095145 2.000000
0.465339 -0.021792 0.076352 2.000000
0.465339 0.010429 -0.057647 2.000000
0.465339 0.021012 0.035059 2.000000
0.465339 0.052136 0.024466 2.000000
0.465339 -0.091100 0.007182 2.000000
0.465339 -0.004691 -0.093324 2.000000
0.465339 0.096502 0.013290 2.000000
0.465339 0.088031 0.005678 2.000000
0.465339 0.029148 0.046172 2.000000
0.465339 -0.027441 0.076097 2.000000
0.465339 -0.092966 0.034103 2.000000
0.465339 0.073796 0.038808 2.000000
0.465339 0.050103 -0.060441 2.000000
0.465339 -0.050603 -0.060414 2.000000
0.465339 -0.054423 0.042562 2.000000
0.465339 0.013461 -0.083257 2.000000
0.465339 -0.009575 0.098828 2.000000
0.465339 0.028305 -0.057689 2.000000
0.465339 -0.001097 0.035197 2.000000
0.465339 -0.043477 -0.025623 2.000000
0.465339 -0.047601 0.038367 2.000000
0.465339 -0.087378 -0.030638 2.000000
0.465339 -0.007161 -0.031911 2.000000
0.465339 0.008036 -0.018080 2.000000
0.465339 0.054926 -0.071092 2.000000
0.465339 -0.078558 0.041931 2.000000
0.465339 0.093854 -0.008415 2.000000
0.465339 -0.079786 -0.001446 2.000000
0.465339 -0.072047 -0.068748 2.000000
0.465339 -0.014088 0.097246 2.000000
0.465339 0.021125 -0.084513 2.000000
0.465339 -0.080303 0.015312 2.000000
0.465339 -0.034123 0.057267 2.000000
