-0.466955 -0.021304 -0.030327 3.000000
-0.466955 0.013237 0.026549 3.000000
-0.466955 -0.013885 0.033401 3.000000
-0.466955 0.025916 0.055142 3.000000
-0.466955 -0.018150 -0.063443 3.000000
-0.466955 0.064793 0.040032 3.000000
-0.466955 -0.041652 0.026987 3.000000
-0.466955 -0.028225 -0.014135 3.000000
-0.466955 0.092698 0.008936 3.000000
-0.466955 0.006953 0.073047 3.000000
-0.466955 -0.055380 0.070739 3.000000
-0.466955 -0.007713 0.050538 3.000000
-0.466955 -0.020050 -0.024711 3.000000
-0.466955 -0.038471 0.033902 3.000000
-0.466955 -0.049596 -0.006577 3.000000
-0.466955 -0.069018 -0.023044 3.000000
-0.466955 -0.055196 0.019534 3.000000
-0.466955 0.069647 -0.040209 3.000000
-0.466955 -0.054163 -0.036146 3.000000
-0.466955 0.021986 -0.071109 3.000000
-0.466955 -0.071736 -0.044204 3.000000
-0.466955 0.059922 -0.045758 3.000000
-0.466955 0.092307 0.022455 3.000000
-0.466955 -0.080593 -0.000327 3.000000
-0.466955 0.093797 0.022514 3.000000
-0.466955 0.040787 0.002995 3.000000
-0.466955 0.099527 -0.008519 3.000000
-0.466955 -0.086933 -0.038164 3.000000
-0.466955 -0.019841 -0.059525 3.000000
-0.466955 0.003864 -0.044761 3.000000
-0.466955 -0.076165 0.032362 3.000000
-0.466955 0.054470 -0.047805 3.000000
-0.466955 -0.034228 -0.009414 3.000000
-0.466955 0.037148 0.048012 3.000000
-0.466955 0.078487 0.060122 3.000000
-0.466955 0.086642 0.022929 3.000000
-0.466955 0.081362 0.030522 3.000000
-0.466955 -0.010442 -0.071586 3.000000
-0.466955 -0.067166 -0.047988 3.000000
-0.466955 -0.042408 -0.047584 3.000000
-0.466955 -0.017533 0.017513 3.000000
-0.466955 0.019093 -0.074988 3.000000
-0.466955 0.055140 0.016785 3.000000
-0.466955 0.021148 0.039502 3.000000
-0.466955 0.024180 0.018621 3.000000
-0.466955 0.063920 -0.014766 3.000000
-0.466955 -0.005991 -0.061297 3.000000
-0.466955 0.029770 0.011775 3.000000
-0.466955 -0.037139 0.079248 3.000000
-0.466955 0.050018 -0.024575 3.000000
-0.466955 0.054539 0.027660 3.000000
-0.466955 -0.077628 0.016502 3.000000
-0.466955 -0.010509 0.090360 3.000000
-0.466955 0.009485 0.096895 3.000000
-0.466955 0.032815 -0.037607 3.000000
-0.466955 0.033177 0.071685 3.000000
-0.466955 0.048617 0.086602 3.000000
-0.466955 -0.047747 -0.048469 3.000000
-0.466955 -0.031198 -0.023494 3.000000
-0.466955 0.085965 0.029597 3.000000
-0.466955 -0.035523 -0.037252 3.000000
-0.466955 -0.018150 0.004901 3.000000
-0.466955 -0.015603 0.074502 3.000000
-0.466955 -0.071159 0.062392 3.000000
-0.466955 0.054949 -0.066677 3.000000
-0.466955 -0.054936 0.060340 3.000000
-0.466955 -0.028925 -0.047817 3.000000
-0.466955 -0.003534 0.005830 3.000000
-0.466955 -0.014500 0.072283 3.000000
-0.466955 0.015608 0.020301 3.000000
-0.466955 0.054613 0.039858 3.000000
-0.466955 0.069654 0.029858 3.000000
-0.466955 0.082997 0.042407 3.000000
-0.466955 -0.036708 -0.002932 3.000000
-0.466955 0.046766 0.046377 3.000000
-0.466955 0.047894 0.076358 3.000000
-0.466955 0.074887 0.002736 3.000000
-0.466955 0.011170 0.056629 3.000000
-0.466955 0.070107 0.058569 3.000000
-0.466955 0.016140 0.085708 3.000000
-0.466955 -0.060865 -0.020206 3.000000
-0.466955 0.061541 0.068131 3.000000
-0.466955 0.023749 -0.044885 3.000000
-0.466955 -0.038950 -0.054544 3.000000
-0.466955 0.055444 0.010821 3.000000
-0.466955 -0.022173 0.070255 3.000000
-0.466955 -0.037855 0.084503 3.000000
-0.466955 -0.029772 0.092878 3.000000
-0.466955 -0.036345 0.063451 3.000000
-0.466955 -0.035513 -0.043791 3.000000
-0.466955 0.003194 0.091902 3.000000
-0.466955 -0.070990 0.068882 3.000000
-0.466955 0.019294 -0.078715 3.000000
-0.466955 -0.013972 -0.016836 3.000000
-0.466955 0.014411 0.033193 3.000000
-0.466955 -0.010455 -0.057187 3.000000
-0.466955 0.013917 -0.076640 3.000000
-0.466955 0.003897 0.081790 3.000000
-0.466955 0.033401 0.039923 3.000000
-0.466955 -0.035805 -0.040768 3.000000
-0.466955 0.093001 -0.022914 3.000000
-0.466955 0.069223 0.050043 3.000000
-0.466955 0.009226 -0.095320 3.000000
-0.466955 -0.039821 -0.007480 3.000000
-0.466955 0.008844 -0.066847 3.000000
-0.466955 -0.047728 0.014492 3.000000
-0.466955 0.018230 -0.080023 3.000000
-0.466955 0.005426 -0.027333 3.000000
-0.466955 -0.012096 -0.092406 3.000000
-0.466955 -0.026108 -0.045192 3.000000
-0.466955 -0.072863 0.008020 3.000000
-0.466955 0.054276 0.021469 3.000000
-0.466955 0.011872 -0.039567 3.000000
-0.466955 0.011656 -0.082162 3.000000
-0.466955 0.030553 -0.062849 3.000000
-0.466955 -0.041304 -0.080147 3.000000
-0.466955 0.049917 0.073290 3.000000
-0.466955 -0.097260 0.012347 3.000000
-0.466955 -0.044919 -0.038096 3.000000
-0.466955 0.055070 -0.022390 3.000000
-0.466955 -0.077992 0.000155 3.000000
-0.466955 0.067363 0.047785 3.000000
-0.466955 0.014179 0.041630 3.000000
-0.466955 0.041924 0.074729 3.000000
-0.466955 0.078250 -0.036090 3.000000
-0.466955 -0.040301 -0.001057 3.000000
-0.466955 -0.077480 -0.028985 3.000000
-0.466955 -0.052799 -0.066427 3.000000
-0.466955 0.095184 0.022927 3.000000
-0.466955 0.003904 -0.056205 3.000000
-0.466955 -0.033925 -0.056745 3.000000
-0.466955 0.093545 0.010335 3.000000
-0.466955 -0.026839 -0.065352 3.000000
-0.466955 0.088446 -0.045323 3.000000
-0.466955 -0.001514 0.086549 3.000000
-0.466955 0.008820 -0.079195 3.000000
-0.466955 0.021446 -0.062662 3.000000
-0.466955 -0.056286 -0.027480 3.000000
-0.466955 -0.072188 -0.038212 3.000000
-0.466955 0.066416 0.027896 3.000000
-0.466955 0.029052 -0.006248 3.000000
-0.466955 -0.022677 0.021315 3.000000
-0.466955 0.026480 -0.036445 3.000000
-0.466955 -0.082322 -0.011352 3.000000
-0.466955 0.083427 0.045821 3.000000
-0.466955 -0.026556 -0.010213 3.000000
-0.466955 0.033817 0.066377 3.000000
-0.466955 -0.027479 -0.056678 3.000000
-0.466955 -0.040495 -0.086453 3.000000
-0.466955 -0.071645 0.044054 3.000000
-0.466955 -0.014097 0.077797 3.000000
-0.466955 0.017478 -0.024724 3.000000
-0.466955 0.074447 -0.008747 3.000000
-0.466955 0.052649 -0.004863 3.000000
-0.466955 -0.034781 -0.035499 3.000000
-0.466955 0.086072 0.017981 3.000000
-0.466955 -0.047316 0.068049 3.000000
-0.466955 -0.083070 -0.029101 3.000000
-0.466955 0.047698 -0.054575 3.000000
-0.466955 0.050687 -0.011783 3.000000
-0.466955 0.006537 -0.083566 3.000000
-0.466955 -0.019889 -0.069950 3.000000
-0.466955 0.064186 -0.064270 3.000000
-0.466955 0.068910 0.046323 3.000000
-0.466955 0.034501 -0.033181 3.000000
-0.466955 -0.005474 -0.066458 3.000000
-0.466955 0.012776 0.011499 3.000000
-0.466955 0.046638 -0.014183 3.000000
-0.466955 -0.053348 0.023989 3.000000
-0.466955 -0.047499 0.039214 3.000000
-0.466955 -0.034401 -0.079096 3.000000
-0.466955 -0.035202 -0.047725 3.000000
-0.466955 -0.030724 -0.038071 3.000000
-0.466955 0.004805 0.087393 3.000000
-0.466955 0.008717 0.046306 3.000000
-0.466955 -0.045824 0.061156 3.000000
-0.466955 -0.015389 -0.061779 3.000000
-0.466955 0.027470 -0.024117 3.000000
-0.466955 -0.008926 -0.031616 3.000000
-0.466955 0.053361 0.056849 3.000000
-0.466955 0.086217 -0.030837 3.000000
-0.466955 -0.081338 -0.014611 3.000000
-0.466955 -0.084307 -0.015224 3.000000
-0.466955 0.009135 0.002286 3.000000
-0.466955 0.010935 -0.045736 3.000000
-0.466955 0.018118 0.077246 3.000000
-0.466955 0.034763 -0.011594 3.000000
-0.466955 -0.058710 -0.058361 3.000000
-0.466955 -0.075917 0.010935 3.000000
-0.466955 -0.095794 0.008527 3.000000
-0.466955 0.063824 0.000047 3.000000
-0.466955 0.027550 -0.078412 3.000000
-0.466955 -0.015801 0.018907 3.000000
-0.466955 0.014962 -0.010393 3.000000
-0.466955 -0.020553 0.031339 3.000000
-0.466955 -0.048125 -0.007907 3.000000
-0.466955 -0.003497 -0.061594 3.000000
-0.466955 -0.056475 -0.060644 3.000000
-0.466955 -0.017010 0.073715 3.000000
-0.466955 -0.074673 0.052392 3.000000
-0.466955 0.054849 -0.060244 3.000000
-0.466955 0.022837 0.090070 3.000000
-0.466955 0.058026 -0.016784 3.000000
-0.466955 0.097334 -0.000104 3.000000
-0.466955 0.051199 0.004218 3.000000
-0.466955 0.038442 -0.032477 3.000000
-0.466955 0.035092 0.077656 3.000000
-0.466955 -0.000906 0.096290 3.000000
-0.466955 -0.001819 0.054713 3.000000
-0.466955 0.096832 -0.024730 3.000000
-0.466955 -0.037461 -0.088381 3.000000
-0.466955 -0.069935 0.025372 3.000000
-0.466955 -0.037799 -0.075186 3.000000
-0.466955 0.032622 -0.042520 3.000000
-0.466955 -0.048231 -0.020914 3.000000
-0.466955 0.012167 0.063999 3.000000
-0.466955 -0.028180 -0.079130 3.000000
-0.466955 0.042828 -0.071408 3.000000
-0.466955 0.056691 -0.055444 3.000000
-0.466955 -0.067676 0.012887 3.000000
-0.466955 -0.013496 -0.067329 3.000000
-0.466955 -0.038042 0.019597 3.000000
-0.466955 0.050004 -0.030245 3.000000
-0.466955 0.033631 0.057591 3.000000
-0.466955 0.046717 0.032246 3.000000
-0.466955 0.021518 0.014167 3.000000
-0.466955 -0.003682 -0.050768 3.000000
-0.466955 -0.036499 0.071688 3.000000
-0.466955 0.016286 0.037419 3.000000
-0.466955 0.033856 0.028489 3.000000
-0.466955 -0.043559 0.053520 3.000000
-0.466955 0.004413 -0.068611 3.000000
-0.466955 0.059652 -0.047170 3.000000
-0.466955 -0.008058 -0.097535 3.000000
-0.466955 -0.041823 0.046695 3.000000
-0.466955 -0.045895 -0.031599 3.000000
-0.466955 0.055129 -0.008880 3.000000
-0.466955 -0.031591 0.088375 3.000000
-0.466955 -0.089518 -0.036875 3.000000
-0.466955 -0.058392 -0.043463 3.000000
-0.466955 -0.030341 0.078971 3.000000
-0.466955 -0.035704 0.041033 3.000000
-0.466955 -0.009330 -0.036245 3.000000
-0.466955 -0.072718 -0.004379 3.000000
-0.466955 -0.007682 -0.049667 3.000000
-0.466955 0.047020 0.079675 3.000000
-0.466955 -0.082294 -0.020565 3.000000
-0.466955 -0.045910 0.037176 3.000000
-0.466955 0.035387 0.027047 3.000000
-0.466955 0.006150 -0.036150 3.000000
-0.466955 -0.005872 -0.085418 3.000000
-0.466955 -0.042791 -0.044282 3.000000
-0.466955 -0.051533 0.067349 3.000000
-0.466955 0.070331 -0.067363 3.000000
-0.466955 0.052159 0.012009 3.000000
-0.466955 0.003869 -0.060376 3.000000
-0.466955 0.012077 -0.094039 3.000000
-0.466955 -0.016855 -0.059941 3.000000
-0.466955 -0.059110 -0.072332 3.000000
-0.466955 -0.088041 0.013803 3.000000
-0.466955 0.021996 0.081795 3.000000
-0.466955 0.070411 0.068059 3.000000
-0.466955 0.063041 0.067196 3.000000
-0.466955 0.017202 -0.018874 3.000000
-0.466955 0.023934 0.052469 3.000000
-0.466955 -0.031517 0.021862 3.000000
-0.466955 0.049514 -0.019388 3.000000
-0.466955 -0.050454 0.016086 3.000000
-0.466955 0.016856 0.070648 3.000000
-0.466955 -0.074133 -0.018449 3.000000
-0.466955 0.069917 0.055886 3.000000
-0.466955 0.001635 0.004928 3.000000
-0.466955 0.071993 -0.050959 3.000000
-0.466955 0.009280 -0.047674 3.000000
-0.466955 -0.017540 -0.097992 3.000000
-0.466955 0.066685 0.040429 3.000000
-0.466955 0.067993 0.033359 3.000000
-0.466955 -0.085767 0.036868 3.000000
-0.466955 0.080063 0.056006 3.000000
-0.466955 0.000638 0.028445 3.000000
-0.466955 -0.009226 0.098817 3.000000
-0.466955 0.020165 0.066689 3.000000
-0.466955 -0.049209 -0.050856 3.000000
-0.466955 0.014923 -0.034621 3.000000
-0.466955 0.066872 0.065501 3.000000
-0.466955 -0.044507 0.005919 3.000000
-0.466955 0.067522 0.049518 3.000000
-0.466955 -0.007315 0.089297 3.000000
-0.466955 -0.073392 0.065440 3.000000
-0.466955 -0.007119 -0.056109 3.000000
-0.466955 0.058845 0.056612 3.000000
-0.466955 0.020613 0.028116 3.000000
-0.466955 0.024382 -0.055284 3.000000
-0.466955 -0.003991 0.052044 3.000000
-0.466955 -0.036192 0.092451 3.000000
-0.466955 0.093164 -0.012327 3.000000
-0.466955 0.026658 0.015326 3.000000
-0.466955 -0.012982 -0.048906 3.000000
-0.466955 0.017012 -0.049060 3.000000
-0.466955 -0.038641 0.041067 3.000000
-0.466955 0.035452 -0.009240 3.000000
-0.466955 -0.028506 0.048697 3.000000
-0.466955 -0.019492 -0.079081 3.000000
-0.466955 -0.003994 0.016862 3.000000
-0.466955 0.032139 0.034471 3.000000
-0.466955 -0.027555 -0.003622 3.000000
-0.466955 0.006977 -0.081585 3.000000
-0.466955 0.019796 0.034695 3.000000
-0.466955 0.070047 0.065420 3.000000
-0.466955 -0.038904 -0.085303 3.000000
-0.466955 -0.050028 -0.064151 3.000000
-0.466955 -0.024051 -0.015516 3.000000
-0.466955 -0.023139 -0.029358 3.000000
-0.466955 0.024990 -0.046072 3.000000
-0.466955 -0.046111 -0.027319 3.000000
-0.466955 0.089661 -0.013128 3.000000
-0.466955 -0.076423 -0.035060 3.000000
-0.466955 -0.024960 0.066796 3.000000
-0.466955 0.009741 -0.057354 3.000000
-0.466955 0.023198 -0.042824 3.000000
-0.466955 0.002048 0.020327 3.000000
-0.466955 -0.052467 -0.008660 3.000000
-0.466955 0.038501 0.007095 3.000000
-0.466955 -0.033703 0.047140 3.000000
-0.466955 0.018953 0.081300 3.000000
-0.466955 0.030379 0.035461 3.000000
-0.466955 0.040329 0.042480 3.000000
-0.466955 -0.066778 -0.028781 3.000000
-0.466955 0.062355 0.037063 3.000000
-0.466955 0.034904 -0.013286 3.000000
-0.466955 -0.023837 0.092098 3.000000
-0.466955 -0.090621 -0.040234 3.000000
-0.466955 0.017246 0.004373 3.000000
-0.466955 -0.060878 0.078460 3.000000
-0.466955 0.064158 0.047926 3.000000
-0.466955 -0.019613 0.009654 3.000000
-0.466955 -0.074492 0.056926 3.000000
-0.466955 0.012704 -0.035613 3.000000
-0.466955 -0.077954 0.025129 3.000000
-0.466955 -0.086439 -0.004540 3.000000
-0.466955 0.063179 0.025583 3.000000
-0.466955 -0.032116 -0.063952 3.000000
-0.466955 0.002880 -0.000304 3.000000
-0.466955 0.053345 0.034308 3.000000
-0.466955 -0.019463 0.063689 3.000000
-0.466955 0.084564 0.050106 3.000000
-0.466955 0.015208 0.036145 3.000000
-0.466955 -0.052369 0.082271 3.000000
-0.466955 -0.078434 -0.022990 3.000000
-0.466955 -0.013512 0.099053 3.000000
-0.466955 -0.063374 -0.033059 3.000000
-0.466955 0.012055 0.043696 3.000000
-0.466955 0.003056 0.063357 3.000000
-0.466955 0.090440 -0.010002 3.000000
-0.466955 -0.027697 0.085784 3.000000
-0.466955 0.017731 -0.000751 3.000000
-0.466955 -0.021863 -0.063597 3.000000
-0.466955 0.043687 -0.032525 3.000000
-0.466955 -0.084141 0.035576 3.000000
-0.466955 -0.000070 -0.045887 3.000000
-0.466955 0.001464 -0.030007 3.000000
-0.466955 -0.057494 -0.069984 3.000000
-0.466955 0.003868 -0.073175 3.000000
-0.466955 -0.027287 0.025285 3.000000
-0.466955 0.062813 0.015659 3.000000
-0.466955 -0.022720 -0.040434 3.000000
-0.466955 0.094684 0.021138 3.000000
-0.466955 0.018418 -0.004244 3.000000
-0.466955 -0.022757 -0.070191 3.000000
-0.466955 0.023677 0.027709 3.000000
-0.466955 -0.005954 0.059900 3.000000
-0.466955 -0.048999 0.071912 3.000000
-0.466955 0.064375 0.020946 3.000000
-0.466955 0.054608 0.078943 3.000000
-0.466955 0.021994 -0.018340 3.000000
-0.466955 0.057622 -0.029699 3.000000
-0.466955 -0.049605 -0.065977 3.000000
-0.466955 0.001869 -0.077344 3.000000
-0.466955 0.001344 -0.041252 3.000000
-0.466955 -0.024354 0.045587 3.000000
-0.466955 0.027650 -0.003818 3.000000
-0.466955 -0.094650 0.003846 3.000000
-0.466955 0.029062 0.036899 3.000000
-0.466955 -0.091124 0.032805 3.000000
-0.466955 -0.051769 -0.049245 3.000000
-0.466955 -0.010169 -0.077951 3.000000
-0.466955 -0.089294 0.024415 3.000000
-0.466955 -0.005312 -0.013247 3.000000
-0.466955 0.023248 -0.007395 3.000000
-0.466955 -0.089992 -0.027163 3.000000
-0.466955 0.068563 -0.030149 3.000000
-0.466955 0.015758 0.015021 3.000000
-0.466955 0.071468 0.000236 3.000000
-0.466955 0.053845 -0.056809 3.000000
-0.466955 0.016345 0.030402 3.000000
-0.466955 -0.030337 0.062976 3.000000
-0.466955 0.066145 0.074900 3.000000
-0.466955 -0.062083 -0.038762 3.000000
-0.466955 0.074693 0.059707 3.000000
-0.466955 -0.019211 -0.066572 3.000000
-0.466955 -0.086303 0.008021 3.000000
-0.466955 -0.058419 -0.056881 3.000000
-0.466955 -0.018222 0.095339 3.000000
-0.466955 0.030286 -0.070027 3.000000
-0.466955 0.067362 -0.060184 3.000000
-0.466955 0.056177 0.014575 3.000000
-0.466955 -0.053100 0.062328 3.000000
-0.466955 -0.071694 -0.028116 3.000000
-0.466955 0.062990 -0.010298 3.000000
-0.466955 0.043400 0.029172 3.000000
-0.466955 0.056859 0.073924 3.000000
-0.466955 -0.049424 0.083308 3.000000
-0.466955 0.014801 0.069008 3.000000
-0.466955 0.036860 -0.084425 3.000000
-0.466955 -0.026072 -0.075364 3.000000
-0.466955 0.002856 0.058300 3.000000
-0.466955 -0.018607 0.001690 3.000000
-0.466955 -0.064127 0.049029 3.000000
-0.466955 -0.006590 0.005733 3.000000
-0.466955 -0.017177 0.079467 3.000000
-0.466955 0.062615 -0.005890 3.000000
-0.466955 -0.059524 0.002383 3.000000
-0.466955 -0.054213 -0.012292 3.000000
-0.466955 -0.028988 -0.024464 3.000000
-0.466955 0.065412 -0.001605 3.000000
-0.466955 0.095669 -0.006921 3.000000
-0.466955 0.004999 -0.003343 3.000000
-0.466955 0.040801 -0.011502 3.000000
-0.466955 0.004301 -0.021979 3.000000
-0.466955 0.053486 0.077044 3.000000
-0.466955 -0.038967 -0.060455 3.000000
-0.466955 -0.095432 0.011819 3.000000
-0.466955 -0.069845 0.001277 3.000000
-0.466955 -0.082248 0.008442 3.000000
-0.466955 0.039400 0.076478 3.000000
-0.466955 0.018383 -0.032864 3.000000
-0.466955 0.043726 -0.047715 3.000000
-0.466955 0.055843 0.012641 3.000000
-0.466955 -0.087870 0.041715 3.000000
-0.466955 0.033569 -0.018106 3.000000
-0.466955 0.057039 0.009283 3.000000
-0.466955 -0.006693 0.091331 3.000000
-0.466955 0.085989 -0.028938 3.000000
-0.466955 -0.060994 -0.028081 3.000000
-0.466955 -0.086683 0.042520 3.000000
-0.466955 0.015990 -0.042750 3.000000
-0.466955 -0.075612 0.009517 3.000000
-0.466955 0.023539 -0.028937 3.000000
-0.466955 -0.002671 -0.086480 3.000000
-0.466955 0.037452 -0.061594 3.000000
-0.466955 0.005703 0.008704 3.000000
-0.466955 -0.057803 -0.063613 3.000000
-0.466955 -0.037194 -0.073218 3.000000
-0.466955 -0.002193 0.098825 3.000000
-0.466955 -0.047385 -0.014926 3.000000
-0.466955 0.010207 -0.083096 3.000000
-0.466955 -0.001782 -0.051870 3.000000
-0.466955 -0.001575 -0.026705 3.000000
-0.466955 -0.062265 -0.001626 3.000000
-0.466955 -0.059323 0.067773 3.000000
-0.466955 0.028175 0.091278 3.000000
-0.466955 -0.053316 -0.064452 3.000000
-0.466955 -0.037543 -0.028220 3.000000
-0.466955 0.012378 0.066594 3.000000
-0.466955 0.007079 0.009859 3.000000
-0.466955 0.048402 -0.004319 3.000000
-0.466955 0.010090 -0.074313 3.000000
-0.466955 -0.090586 -0.035357 3.000000
-0.466955 -0.034728 0.021889 3.000000
-0.466955 -0.027860 -0.042388 3.000000
-0.466955 -0.007202 0.003063 3.000000
-0.466955 0.075509 0.009240 3.000000
-0.466955 -0.055917 -0.047382 3.000000
-0.466955 -0.080514 0.033140 3.000000
-0.466955 0.018307 -0.048104 3.000000
-0.466955 -0.021596 0.039531 3.000000
-0.466955 0.025899 0.050976 3.000000
-0.466955 -0.023564 -0.056032 3.000000
-0.466955 0.065466 0.026628 3.000000
-0.466955 0.018969 0.057225 3.000000
-0.466955 0.050386 0.011445 3.000000
-0.466955 -0.043334 -0.031923 3.000000
-0.466955 -0.079778 -0.049424 3.000000
-0.466955 -0.035172 -0.070195 3.000000
-0.466955 0.000074 -0.043024 3.000000
-0.466955 0.039042 0.056539 3.000000
-0.466955 -0.085619 0.010471 3.000000
-0.466955 -0.025021 -0.041063 3.000000
-0.466955 -0.072777 -0.052312 3.000000
-0.466955 -0.030333 -0.032030 3.000000
-0.466955 0.053778 0.080008 3.000000
-0.466955 -0.007636 0.041202 3.000000
-0.466955 -0.039474 -0.019083 3.000000
-0.466955 0.090729 -0.041578 3.000000
-0.466955 0.035045 0.050206 3.000000
-0.466955 0.060606 0.005387 3.000000
-0.466955 0.015980 0.044223 3.000000
-0.466955 0.055138 0.006912 3.000000
-0.466955 0.040225 -0.078937 3.000000
-0.466955 0.077841 0.061778 3.000000
-0.466955 -0.015892 -0.002741 3.000000
-0.466955 0.001130 0.066451 3.000000
-0.466955 -0.030010 -0.010414 3.000000
-0.466955 -0.084230 0.025915 3.000000
-0.466955 0.056682 0.048876 3.000000
-0.466955 0.066223 0.011921 3.000000
-0.466955 0.000593 0.059601 3.000000
-0.466955 -0.002818 0.038604 3.000000
-0.466955 0.048743 0.033330 3.000000
-0.466955 0.077046 0.021847 3.000000
-0.466955 -0.023932 -0.018592 3.000000
-0.466955 0.057360 0.061676 3.000000
-0.466955 -0.080057 -0.022045 3.000000
-0.466955 0.019555 -0.093243 3.000000
-0.466955 -0.004284 0.033973 3.000000
-0.466955 0.025643 0.045749 3.000000
-0.466955 0.028262 -0.036899 3.000000
-0.466955 -0.017572 -0.065613 3.000000
-0.466955 0.019227 0.071324 3.000000
-0.466955 -0.001789 -0.069350 3.000000
-0.466955 0.058101 0.038972 3.000000
-0.466955 0.005386 -0.082243 3.000000
-0.466955 -0.026867 0.034996 3.000000
-0.466955 0.097876 0.018992 3.000000
-0.466955 -0.012173 -0.094213 3.000000
-0.466955 0.061396 -0.054113 3.000000
-0.466955 0.080007 -0.035281 3.000000
-0.466955 -0.028982 -0.083398 3.000000
-0.466955 0.075560 0.021273 3.000000
-0.466955 0.093977 -0.024104 3.000000
-0.466955 0.049428 -0.043958 3.000000
-0.466955 0.049590 0.037621 3.000000
-0.466955 -0.071270 0.024555 3.000000
-0.466955 -0.076718 -0.053399 3.000000
-0.466955 -0.025468 -0.069561 3.000000
-0.466955 -0.067415 -0.058339 3.000000
-0.466955 0.067222 -0.023707 3.000000
-0.466955 -0.016415 -0.047528 3.000000
-0.466955 0.044547 -0.015834 3.000000
-0.466955 -0.097938 -0.016483 3.000000
-0.466955 0.008802 -0.007077 3.000000
-0.466955 0.009641 0.077067 3.000000
-0.466955 -0.055043 -0.018762 3.000000
-0.466955 -0.024318 -0.083860 3.000000
-0.466955 0.048294 -0.087120 3.000000
-0.466955 -0.007258 0.000533 3.000000
-0.466955 0.010716 0.070952 3.000000
-0.466955 -0.014258 -0.098469 3.000000
-0.466955 0.001201 0.031224 3.000000
-0.466955 -0.080209 0.005933 3.000000
-0.466955 0.028920 -0.023258 3.000000
-0.466955 -0.003678 0.011263 3.000000
-0.466955 0.062467 0.075120 3.000000
-0.466955 0.078355 -0.037610 3.000000
-0.466955 -0.077416 0.028020 3.000000
-0.466955 -0.069550 -0.050831 3.000000
-0.466955 0.017609 -0.013180 3.000000
-0.466955 -0.000350 -0.025111 3.000000
-0.466955 -0.016916 -0.028977 3.000000
-0.466955 -0.037546 -0.055299 3.000000
-0.466955 0.003320 0.066112 3.000000
-0.466955 0.030577 0.091173 3.000000
-0.466955 -0.012879 -0.038555 3.000000
-0.466955 -0.012362 -0.066101 3.000000
-0.466955 -0.007457 0.059281 3.000000
-0.466955 -0.066187 -0.049285 3.000000
-0.466955 -0.077694 0.050917 3.000000
-0.466955 0.032146 -0.017471 3.000000
-0.466955 -0.083761 -0.021976 3.000000
-0.466955 -0.054666 -0.070282 3.000000
-0.466955 -0.065845 0.046176 3.000000
-0.466955 0.029427 0.088587 3.000000
-0.466955 -0.095008 0.023222 3.000000
-0.466955 0.056214 -0.065919 3.000000
-0.466955 0.054215 -0.078246 3.000000
-0.466955 0.012246 -0.063025 3.000000
-0.466955 -0.024803 0.032583 3.000000
-0.466955 0.041253 0.082744 3.000000
-0.466955 -0.057409 0.054917 3.000000
-0.466955 0.019030 0.045238 3.000000
-0.466955 0.080685 0.040549 3.000000
-0.466955 -0.033729 0.059212 3.000000
-0.466955 -0.089483 -0.022064 3.000000
-0.466955 0.076530 -0.029994 3.000000
-0.466955 0.052416 -0.064101 3.000000
-0.466955 0.052900 0.036061 3.000000
-0.466955 -0.024385 -0.071156 3.000000
-0.466955 0.020414 -0.044070 3.000000
-0.466955 0.047919 0.051027 3.000000
-0.466955 0.060747 0.046143 3.000000
-0.466955 0.022359 0.072264 3.000000
-0.466955 0.029293 0.043194 3.000000
-0.466955 0.060204 -0.038017 3.000000
-0.466955 -0.038996 -0.020679 3.000000
-0.466955 0.052228 0.048604 3.000000
-0.466955 0.012645 0.058036 3.000000
-0.466955 0.060405 0.022971 3.000000
-0.466955 0.087713 0.012572 3.000000
-0.466955 0.032308 0.083774 3.000000
-0.466955 -0.054680 -0.064888 3.000000
-0.466955 -0.014201 0.065725 3.000000
-0.466955 0.094806 -0.020205 3.000000
-0.466955 -0.055414 -0.005608 3.000000
-0.466955 -0.035005 -0.045274 3.000000
-0.466955 0.031990 0.056849 3.000000
-0.466955 0.031746 0.000194 3.000000
-0.466955 -0.045271 0.075416 3.000000
-0.466955 -0.011115 0.020813 3.000000
-0.466955 -0.002940 0.090171 3.000000
-0.466955 0.058510 0.019936 3.000000
-0.466955 0.066935 0.032209 3.000000
-0.466955 0.052713 0.029018 3.000000
-0.466955 0.046523 -0.010116 3.000000
-0.466955 -0.038839 -0.056151 3.000000
-0.466955 0.043348 -0.009688 3.000000
-0.466955 -0.003747 0.021186 3.000000
-0.466955 -0.066944 -0.022001 3.000000
-0.466955 0.012834 -0.011838 3.000000
-0.466955 0.036053 0.028789 3.000000
-0.466955 0.033006 0.017157 3.000000
-0.466955 0.078757 -0.011577 3.000000
-0.466955 0.095711 0.028195 3.000000
-0.466955 0.014855 -0.096623 3.000000
-0.466955 0.054570 -0.044894 3.000000
-0.466955 -0.050269 0.029327 3.000000
-0.466955 -0.050105 -0.072411 3.000000
-0.466955 -0.021439 0.050909 3.000000
-0.466955 -0.041718 -0.065199 3.000000
-0.466955 -0.007669 0.006859 3.000000
-0.466955 0.012423 0.098641 3.000000
-0.466955 0.066982 0.073611 3.000000
-0.466955 -0.003772 0.073202 3.000000
-0.466955 0.005098 0.033704 3.000000
-0.466955 -0.030682 -0.085373 3.000000
-0.466955 -0.035549 -0.053403 3.000000
-0.466955 -0.059099 -0.039892 3.000000
-0.466955 0.027470 -0.046529 3.000000
-0.466955 -0.090736 0.007347 3.000000
-0.466955 -0.043078 -0.075388 3.000000
-0.466955 -0.082955 -0.019272 3.000000
-0.466955 0.039619 0.045337 3.000000
-0.466955 -0.077894 0.026520 3.000000
-0.466955 0.009286 -0.018983 3.000000
-0.466955 -0.030963 0.094649 3.000000
-0.466955 0.084885 0.016932 3.000000
-0.466955 -0.024122 0.062924 3.000000
-0.466955 -0.025005 -0.035602 3.000000
-0.466955 -0.034649 -0.083071 3.000000
-0.466955 -0.001436 0.011982 3.000000
-0.466955 -0.002052 -0.060989 3.000000
-0.466955 0.009117 -0.060880 3.000000
-0.466955 0.063574 -0.036692 3.000000
-0.466955 0.016554 0.050574 3.000000
-0.466955 0.083946 0.020338 3.000000
-0.466955 -0.007031 -0.066887 3.000000
-0.466955 0.017235 0.086857 3.000000
-0.466955 0.020150 -0.031791 3.000000
-0.466955 0.045896 -0.034322 3.000000
-0.466955 -0.078861 -0.037503 3.000000
-0.466955 0.025710 0.025206 3.000000
-0.466955 0.014056 0.076792 3.000000
-0.466955 0.091584 -0.033130 3.000000
-0.466955 -0.023245 0.033368 3.000000
-0.466955 -0.027276 0.075707 3.000000
-0.466955 0.056649 0.079363 3.000000
-0.466955 -0.019472 0.021988 3.000000
-0.466955 -0.067994 -0.054830 3.000000
-0.466955 0.025542 -0.092527 3.000000
-0.466955 0.048024 -0.011205 3.000000
-0.466955 0.045629 0.010254 3.000000
-0.466955 0.055879 -0.001731 3.000000
-0.466955 -0.034155 0.092946 3.000000
-0.466955 -0.061574 -0.011287 3.000000
-0.466955 0.079537 -0.006867 3.000000
-0.466955 -0.046608 0.000757 3.000000
-0.466955 0.060646 0.075264 3.000000
-0.466955 -0.004598 0.028590 3.000000
-0.466955 -0.057162 -0.042691 3.000000
-0.466955 0.055161 0.025350 3.000000
-0.466955 -0.088919 0.029147 3.000000
-0.466955 0.032391 -0.090066 3.000000
-0.466955 -0.077025 -0.003241 3.000000
-0.466955 -0.043796 0.016592 3.000000
-0.466955 0.033760 0.085014 3.000000
-0.466955 0.051540 -0.060745 3.000000
-0.466955 -0.057468 0.009324 3.000000
-0.466955 0.018348 -0.051855 3.000000
-0.466955 -0.045271 -0.072477 3.000000
-0.466955 0.005750 -0.031228 3.000000
-0.466955 0.023781 -0.036185 3.000000
-0.466955 0.010623 0.061733 3.000000
-0.466955 0.079164 0.058550 3.000000
-0.466955 0.037123 -0.011262 3.000000
-0.466955 -0.015377 0.014755 3.000000
-0.466955 0.005734 -0.090415 3.000000
-0.466955 -0.006696 0.042249 3.000000
-0.466955 -0.040812 -0.036419 3.000000
-0.466955 0.071828 0.048063 3.000000
-0.466955 0.060069 0.039421 3.000000
-0.466955 0.091173 -0.034670 3.000000
-0.466955 -0.013087 -0.023838 3.000000
-0.466955 -0.097092 -0.009272 3.000000
-0.466955 -0.001603 0.015185 3.000000
-0.466955 -0.032969 -0.015209 3.000000
-0.466955 0.076638 -0.039401 3.000000
-0.466955 -0.020235 -0.016962 3.000000
-0.466955 -0.087559 -0.013258 3.000000
-0.466955 -0.025919 0.081945 3.000000
-0.466955 0.068632 -0.059379 3.000000
-0.466955 -0.057977 -0.016377 3.000000
-0.466955 -0.031512 0.054633 3.000000
-0.466955 -0.098921 -0.012174 3.000000
-0.466955 -0.010437 -0.085154 3.000000
-0.466955 -0.007135 0.037846 3.000000
-0.466955 0.086592 0.031179 3.000000
-0.466955 -0.047350 0.059800 3.000000
-0.466955 0.001297 0.000922 3.000000
-0.466955 -0.081066 -0.010351 3.000000
-0.466955 -0.004375 -0.029622 3.000000
-0.466955 0.086257 0.048593 3.000000
-0.466955 -0.014976 -0.088670 3.000000
-0.466955 0.066219 -0.046607 3.000000
-0.466955 -0.023925 0.004221 3.000000
-0.466955 -0.021545 -0.068943 3.000000
-0.466955 0.057830 0.026267 3.000000
-0.466955 0.012782 -0.074787 3.000000
-0.466955 0.026509 0.070749 3.000000
-0.466955 -0.024783 0.011021 3.000000
-0.466955 0.039408 0.055005 3.000000
-0.466955 -0.058743 -0.002073 3.000000
-0.466955 0.029402 0.028175 3.000000
-0.466955 0.006641 -0.085587 3.000000
-0.466955 0.028563 0.027075 3.000000
-0.466955 0.021289 -0.042626 3.000000
-0.466955 -0.027152 0.060439 3.000000
-0.466955 0.007221 -0.052579 3.000000
-0.466955 0.003640 -0.067330 3.000000
-0.466955 0.053437 -0.080866 3.000000
-0.466955 0.023001 -0.066158 3.000000
-0.466955 0.017654 0.049665 3.000000
-0.466955 -0.023585 -0.064105 3.000000
-0.466955 0.002103 -0.062296 3.000000
-0.466955 -0.027316 -0.063689 3.000000
-0.466955 -0.009725 0.091555 3.000000
-0.466955 0.043358 -0.002328 3.000000
-0.466955 -0.070923 -0.004604 3.000000
-0.466955 0.003849 -0.018674 3.000000
-0.466955 -0.059598 -0.037115 3.000000
-0.466955 -0.069686 -0.007848 3.000000
-0.466955 -0.059466 -0.056036 3.000000
-0.466955 -0.082823 -0.000760 3.000000
-0.466955 -0.067687 0.021184 3.000000
-0.466955 0.097840 0.012642 3.000000
-0.466955 0.043837 0.026807 3.000000
-0.466955 -0.070823 0.041112 3.000000
-0.466955 -0.072123 -0.010475 3.000000
-0.466955 -0.095628 -0.026211 3.000000
-0.466955 0.058292 -0.039748 3.000000
-0.466955 -0.023754 -0.085680 3.000000
-0.466955 -0.082273 0.020884 3.000000
-0.466955 0.049891 -0.002610 3.000000
-0.466955 -0.033993 -0.041758 3.000000
-0.466955 -0.011640 0.016297 3.000000
-0.466955 0.036922 0.026995 3.000000
-0.466955 0.064768 0.029643 3.000000
-0.466955 -0.062095 0.002316 3.000000
-0.466955 0.007074 -0.000431 3.000000
-0.466955 -0.081929 -0.036732 3.000000
-0.466955 -0.009689 0.071956 3.000000
-0.466955 -0.011446 -0.050290 3.000000
-0.466955 -0.041768 -0.014030 3.000000
-0.466955 -0.062015 0.024456 3.000000
-0.466955 0.045342 0.018137 3.000000
-0.466955 -0.025603 0.086289 3.000000
-0.466955 0.043863 -0.034315 3.000000
-0.466955 0.061531 0.060714 3.000000
-0.466955 -0.019324 -0.011171 3.000000
-0.466955 -0.028311 0.035351 3.000000
-0.466955 0.064516 -0.006299 3.000000
-0.466955 -0.063346 -0.044705 3.000000
-0.466955 -0.006613 0.069344 3.000000
-0.466955 -0.047749 0.004466 3.000000
-0.466955 -0.029318 -0.084936 3.000000
-0.466955 -0.042027 -0.021815 3.000000
-0.466955 -0.047717 -0.068551 3.000000
-0.466955 -0.002707 0.029417 3.000000
-0.466955 -0.071907 -0.009069 3.000000
-0.466955 -0.044004 -0.085906 3.000000
-0.466955 -0.014185 0.026612 3.000000
-0.466955 0.031268 0.037299 3.000000
-0.466955 -0.036057 -0.052071 3.000000
-0.466955 0.049693 0.084981 3.000000
-0.466955 -0.031024 0.053212 3.000000
-0.466955 -0.096645 0.023160 3.000000
-0.466955 -0.046481 0.079543 3.000000
-0.466955 0.087528 -0.017551 3.000000
-0.466955 -0.009907 0.034124 3.000000
-0.466955 -0.002612 -0.054132 3.000000
-0.466955 -0.012448 -0.072809 3.000000
-0.466955 -0.054595 -0.026449 3.000000
-0.466955 0.002216 -0.023560 3.000000
-0.466955 0.059430 0.058393 3.000000
-0.466955 0.066340 0.009052 3.000000
-0.466955 -0.001060 0.023395 3.000000
-0.466955 0.032874 0.009120 3.000000
-0.466955 0.008509 -0.084290 3.000000
-0.466955 -0.093369 0.034125 3.000000
-0.466955 0.047935 -0.078745 3.000000
-0.466955 0.015259 -0.047024 3.000000
-0.466955 0.023599 0.017222 3.000000
-0.466955 -0.074313 -0.026233 3.000000
-0.466955 0.094243 0.014337 3.000000
-0.466955 0.045378 0.085767 3.000000
-0.466955 0.051920 0.027593 3.000000
-0.466955 -0.047747 0.046797 3.000000
-0.466955 -0.057254 -0.018289 3.000000
-0.466955 0.062427 -0.066658 3.000000
-0.466955 0.044342 -0.059956 3.000000
-0.466955 0.004105 -0.048149 3.000000
-0.466955 0.053677 0.026118 3.000000
-0.466955 0.057568 -0.008737 3.000000
-0.466955 -0.066772 -0.005159 3.000000
-0.466955 0.088656 -0.034896 3.000000
-0.466955 -0.025770 -0.088012 3.000000
-0.466955 0.032067 -0.073988 3.000000
-0.466955 -0.060663 0.063576 3.000000
-0.466955 0.023914 -0.001814 3.000000
-0.466955 -0.017330 0.035129 3.000000
-0.466955 0.008059 0.076238 3.000000
-0.466955 0.023082 -0.023194 3.000000
-0.466955 0.075204 -0.039689 3.000000
-0.466955 0.011461 0.027434 3.000000
-0.466955 -0.061377 -0.031710 3.000000
-0.466955 -0.006593 -0.007326 3.000000
-0.466955 0.062501 0.064108 3.000000
-0.466955 0.006963 0.046095 3.000000
-0.466955 0.093082 0.033214 3.000000
-0.466955 -0.004315 -0.001190 3.000000
-0.466955 -0.044276 -0.039517 3.000000
-0.466955 -0.053583 -0.030823 3.000000
-0.466955 -0.009871 -0.065498 3.000000
-0.466955 0.072405 -0.043021 3.000000
-0.466955 -0.002986 0.092094 3.000000
-0.466955 -0.009300 0.082485 3.000000
-0.466955 -0.012048 -0.095732 3.000000
-0.466955 0.012074 -0.046611 3.000000
-0.466955 -0.002453 -0.062747 3.000000
-0.466955 -0.058043 -0.061876 3.000000
-0.466955 -0.029825 0.088404 3.000000
-0.466955 0.013897 0.087291 3.000000
-0.466955 0.051491 0.070467 3.000000
-0.466955 0.013818 -0.018548 3.000000
-0.466955 0.039096 -0.007637 3.000000
-0.466955 0.027210 -0.083002 3.000000
-0.466955 -0.097667 0.017039 3.000000
-0.466955 0.000312 0.094514 3.000000
-0.466955 -0.004746 0.037158 3.000000
-0.466955 0.047855 -0.074387 3.000000
-0.466955 -0.016399 -0.054126 3.000000
-0.466955 -0.000017 0.058037 3.000000
-0.466955 -0.025121 0.084988 3.000000
-0.466955 0.048216 -0.027084 3.000000
-0.466955 0.020858 0.065063 3.000000
-0.466955 0.021322 -0.058444 3.000000
-0.466955 0.027127 -0.051141 3.000000
-0.466955 0.076068 -0.054770 3.000000
-0.466955 0.088008 0.031668 3.000000
-0.466955 0.083337 -0.054403 3.000000
-0.466955 0.024107 0.065764 3.000000
-0.466955 0.076168 0.040891 3.000000
-0.466955 -0.048652 -0.049457 3.000000
-0.466955 -0.005986 -0.052261 3.000000
-0.466955 0.054080 0.015587 3.000000
-0.466955 0.092726 -0.029923 3.000000
-0.466955 -0.033241 -0.011348 3.000000
-0.466955 -0.046922 -0.046804 3.000000
-0.466955 0.034665 0.038769 3.000000
-0.466955 0.086039 0.037969 3.000000
-0.466955 -0.057395 0.052164 3.000000
-0.466955 -0.091102 0.017789 3.000000
-0.466955 0.083851 -0.013013 3.000000
-0.466955 -0.023766 -0.048930 3.000000
-0.466955 -0.007240 -0.016877 3.000000
-0.466955 -0.094151 -0.029813 3.000000
-0.466955 -0.088382 -0.032261 3.000000
-0.466955 -0.034283 0.005355 3.000000
-0.466955 -0.041565 -0.020110 3.000000
-0.466955 -0.017248 -0.088061 3.000000
-0.466955 -0.083694 0.031626 3.000000
-0.466955 -0.038526 -0.015471 3.000000
-0.466955 0.015688 -0.017735 3.000000
-0.466955 -0.039347 0.059237 3.000000
-0.466955 -0.037250 0.043821 3.000000
-0.466955 -0.020865 0.091038 3.000000
-0.466955 0.055510 0.069239 3.000000
-0.466955 0.024996 0.086486 3.000000
-0.466955 0.021322 0.018955 3.000000
-0.466955 0.003599 0.055137 3.000000
-0.466955 -0.043752 0.079540 3.000000
-0.466955 -0.064728 0.002566 3.000000
-0.466955 0.015430 -0.084332 3.000000
-0.466955 -0.003876 0.085893 3.000000
-0.466955 0.030224 0.085046 3.000000
-0.466955 0.027713 -0.061661 3.000000
-0.466955 -0.023037 0.024085 3.000000
-0.466955 0.006939 0.005380 3.000000
-0.466955 0.070135 -0.024487 3.000000
-0.466955 0.057157 -0.004550 3.000000
-0.466955 -0.061955 -0.073890 3.000000
-0.466955 0.041552 0.044785 3.000000
-0.466955 0.027921 0.081848 3.000000
-0.466955 -0.032664 -0.017577 3.000000
-0.466955 0.083127 0.018988 3.000000
-0.466955 -0.079233 0.023340 3.000000
-0.466955 -0.044625 0.026777 3.000000
-0.466955 -0.068036 -0.066210 3.000000
-0.466955 0.091144 -0.030391 3.000000
-0.466955 -0.013718 -0.095947 3.000000
-0.466955 -0.049344 0.008618 3.000000
-0.466955 -0.083137 0.038350 3.000000
-0.466955 -0.065871 -0.013254 3.000000
-0.466955 0.053336 0.052957 3.000000
-0.466955 0.055005 -0.011414 3.000000
-0.466955 0.012538 0.012901 3.000000
-0.466955 -0.081803 -0.043366 3.000000
-0.466955 -0.005549 -0.093121 3.000000
-0.466955 -0.017673 -0.050068 3.000000
-0.466955 0.004805 0.043912 3.000000
-0.466955 0.056633 -0.076756 3.000000
-0.466955 0.080142 0.016798 3.000000
-0.466955 0.081567 -0.003450 3.000000
-0.466955 -0.045200 0.025193 3.000000
-0.466955 -0.035953 0.011319 3.000000
-0.466955 -0.055421 0.040360 3.000000
-0.466955 -0.055586 0.000108 3.000000
-0.466955 -0.025862 -0.049207 3.000000
-0.466955 0.088001 -0.021916 3.000000
-0.466955 -0.054438 0.005668 3.000000
-0.466955 -0.086697 0.027761 3.000000
-0.466955 0.055250 0.061474 3.000000
-0.466955 -0.069636 0.067625 3.000000
-0.466955 0.088303 -0.043497 3.000000
-0.466955 -0.039357 0.000715 3.000000
-0.466955 0.066263 0.042918 3.000000
-0.466955 0.091033 -0.011793 3.000000
-0.466955 0.070082 -0.007225 3.000000
-0.466955 -0.091888 -0.031074 3.000000
-0.466955 0.074413 -0.020729 3.000000
-0.466955 -0.070445 -0.036298 3.000000
-0.466955 -0.022250 -0.090499 3.000000
-0.466955 0.051461 0.018548 3.000000
-0.466955 -0.010878 0.030617 3.000000
-0.466955 -0.019942 -0.081588 3.000000
-0.466955 -0.006928 -0.086421 3.000000
-0.466955 0.035795 0.061237 3.000000
-0.466955 -0.091407 0.036828 3.000000
-0.466955 0.057073 0.057698 3.000000
-0.466955 0.058665 0.073454 3.000000
-0.466955 0.055847 0.059024 3.000000
-0.466955 0.004819 -0.023796 3.000000
-0.466955 0.003214 0.010799 3.000000
-0.466955 -0.005263 0.073099 3.000000
-0.466955 0.012914 0.094129 3.000000
-0.466955 -0.014253 0.083610 3.000000
-0.466955 0.004477 -0.035663 3.000000
-0.466955 0.052269 0.045646 3.000000
-0.466955 0.036573 0.058109 3.000000
-0.466955 0.004196 0.037030 3.000000
-0.466955 -0.006280 -0.022787 3.000000
-0.466955 -0.014702 -0.023499 3.000000
-0.466955 -0.081990 0.032824 3.000000
-0.466955 0.035378 0.074318 3.000000
-0.466955 0.037374 -0.017056 3.000000
-0.466955 -0.092511 0.023026 3.000000
-0.466955 -0.064985 0.075082 3.000000
-0.466955 -0.039126 0.039760 3.000000
-0.466955 0.059828 -0.015738 3.000000
-0.466955 -0.040531 -0.027024 3.000000
-0.466955 -0.013258 -0.004606 3.000000
-0.466955 0.029527 0.061933 3.000000
-0.466955 0.003026 0.080190 3.000000
-0.466955 -0.040528 0.020804 3.000000
-0.466955 0.030482 -0.085604 3.000000
-0.466955 0.014706 -0.062567 3.000000
-0.466955 -0.079268 0.004607 3.000000
-0.466955 -0.054147 -0.007658 3.000000
-0.466955 -0.052688 -0.050651 3.000000
-0.466955 0.036244 0.055284 3.000000
-0.466955 0.050399 -0.001263 3.000000
-0.466955 0.071072 0.003060 3.000000
-0.466955 0.045937 0.047505 3.000000
-0.466955 -0.094165 0.030822 3.000000
-0.466955 0.079335 -0.051756 3.000000
-0.466955 -0.008516 0.071248 3.000000
-0.466955 0.023806 0.087649 3.000000
-0.466955 0.078380 0.044959 3.000000
-0.466955 -0.008732 -0.020903 3.000000
-0.466955 0.043965 -0.018418 3.000000
-0.466955 0.036158 -0.053988 3.000000
-0.466955 -0.018257 0.019634 3.000000
-0.466955 -0.035238 -0.021679 3.000000
-0.466955 0.008212 -0.091380 3.000000
-0.466955 0.031840 0.041261 3.000000
-0.466955 0.014426 0.085205 3.000000
-0.466955 0.015705 0.064025 3.000000
-0.466955 0.042417 0.048294 3.000000
-0.466955 0.019228 -0.026907 3.000000
-0.466955 -0.057629 0.021026 3.000000
-0.466955 -0.044376 0.033990 3.000000
-0.466955 -0.010970 -0.066856 3.000000
-0.466955 -0.060009 -0.070908 3.000000
-0.466955 0.045081 -0.026759 3.000000
-0.466955 -0.015869 0.051838 3.000000
-0.466955 0.060525 -0.041591 3.000000
-0.466955 0.059025 -0.061303 3.000000
-0.466955 0.080756 -0.027514 3.000000
-0.466955 0.053250 -0.012194 3.000000
-0.466955 0.029309 0.079593 3.000000
-0.466955 -0.071314 -0.054165 3.000000
-0.466955 -0.006760 0.094052 3.000000
-0.466955 0.083953 0.039668 3.000000
-0.466955 0.045732 0.064042 3.000000
-0.466955 -0.069642 -0.067008 3.000000
-0.466955 -0.012185 -0.062099 3.000000
-0.466955 -0.022742 0.032005 3.000000
-0.466955 -0.053660 0.039919 3.000000
-0.466955 0.027223 0.056436 3.000000
-0.466955 -0.050985 0.009248 3.000000
-0.466955 0.058458 0.077441 3.000000
-0.466955 -0.010657 -0.068393 3.000000
-0.466955 -0.028360 -0.053681 3.000000
-0.466955 -0.072669 0.000410 3.000000
-0.466955 -0.044618 0.065398 3.000000
-0.466955 0.016207 0.046973 3.000000
-0.466955 0.050774 0.020466 3.000000
-0.466955 -0.065022 -0.018729 3.000000
-0.466955 -0.082276 0.035301 3.000000
-0.466955 -0.071695 0.026975 3.000000
-0.466955 -0.036858 0.002852 3.000000
-0.466955 -0.013150 -0.020134 3.000000
-0.466955 -0.049541 -0.060956 3.000000
-0.466955 0.001872 -0.016409 3.000000
-0.466955 0.043305 -0.040811 3.000000
-0.466955 -0.081553 -0.029173 3.000000
-0.466955 -0.059116 0.069605 3.000000
-0.466955 0.030264 -0.068487 3.000000
-0.466955 0.038340 0.092303 3.000000
-0.466955 -0.042346 0.055211 3.000000
-0.466955 0.042726 0.001406 3.000000
-0.466955 0.081728 -0.028506 3.000000
-0.466955 -0.053626 0.032454 3.000000
-0.466955 0.053507 0.060562 3.000000
-0.466955 0.026276 0.081538 3.000000
-0.466955 -0.078852 -0.011942 3.000000
-0.466955 0.037924 0.018779 3.000000
-0.466955 -0.048921 0.005322 3.000000
-0.466955 0.009275 0.021308 3.000000
-0.466955 -0.074181 -0.041206 3.000000
-0.466955 0.063687 -0.061765 3.000000
-0.466955 0.017663 0.001089 3.000000
-0.466955 0.065518 0.014728 3.000000
-0.466955 -0.034740 0.085400 3.000000
-0.466955 0.055990 0.043907 3.000000
-0.466955 -0.053388 0.025880 3.000000
-0.466955 0.023609 0.058747 3.000000
-0.466955 0.072445 0.017481 3.000000
-0.466955 -0.054288 -0.022546 3.000000
-0.466955 0.029103 0.020978 3.000000
-0.466955 -0.094008 -0.032841 3.000000
-0.466955 -0.023838 -0.006753 3.000000
-0.466955 -0.002200 -0.098682 3.000000
-0.466955 0.058531 0.043691 3.000000
-0.466955 0.094277 -0.008009 3.000000
-0.466955 0.045055 -0.050892 3.000000
-0.466955 0.099303 0.011139 3.000000
-0.466955 -0.030746 0.018074 3.000000
-0.466955 -0.073660 -0.053379 3.000000
-0.466955 -0.069122 -0.006143 3.000000
-0.466955 0.077010 0.020300 3.000000
-0.466955 0.007519 -0.050966 3.000000
-0.466955 -0.004361 0.093145 3.000000
-0.466955 0.015446 0.072477 3.000000
-0.466955 -0.052289 0.022462 3.000000
-0.466955 0.007883 0.027133 3.000000
-0.466955 -0.004138 0.035549 3.000000
-0.466955 0.009727 -0.040983 3.000000
-0.466955 -0.055883 0.077204 3.000000
-0.466955 0.000151 0.011221 3.000000
-0.466955 0.006557 0.019153 3.000000
-0.466955 0.084854 -0.025402 3.000000
-0.466955 -0.092355 -0.013115 3.000000
-0.466955 -0.050499 0.025104 3.000000
-0.466955 -0.006623 0.019888 3.000000
-0.466955 0.042742 0.090036 3.000000
-0.466955 0.057754 -0.032703 3.000000
-0.466955 0.014236 0.088858 3.000000
-0.466955 -0.020635 -0.065356 3.000000
-0.466955 -0.030014 -0.039287 3.000000
-0.466955 0.068602 0.035398 3.000000
-0.466955 0.009543 0.030950 3.000000
-0.466955 -0.010198 -0.011640 3.000000
-0.466955 0.030838 -0.060887 3.000000
-0.466955 0.010219 -0.050027 3.000000
-0.466955 0.005073 -0.088845 3.000000
-0.466955 -0.007983 0.075730 3.000000
-0.466955 0.083486 0.000000 3.000000
-0.466955 0.064386 0.054640 3.000000
-0.466955 0.020417 -0.065998 3.000000
-0.466955 0.018467 0.096821 3.000000
-0.466955 0.045724 0.081368 3.000000
-0.466955 -0.035204 0.061751 3.000000
-0.466955 -0.029731 0.082736 3.000000
-0.466955 -0.018475 0.055088 3.000000
-0.466955 0.079866 -0.059504 3.000000
-0.466955 -0.043325 0.067138 3.000000
-0.466955 0.038640 -0.060338 3.000000
-0.466955 0.094767 -0.022440 3.000000
-0.466955 0.035339 0.015796 3.000000
-0.466955 -0.046136 -0.068034 3.000000
-0.466955 -0.007769 -0.093447 3.000000
-0.466955 0.089803 0.036347 3.000000
-0.466955 0.009288 0.039744 3.000000
-0.466955 0.040998 0.014753 3.000000
-0.466955 -0.045936 -0.065382 3.000000
-0.466955 -0.097362 0.007754 3.000000
-0.466955 0.069370 0.012300 3.000000
-0.466955 0.029480 -0.035332 3.000000
-0.466955 0.018852 -0.081762 3.000000
-0.466955 -0.019744 -0.000324 3.000000
-0.466955 -0.066392 -0.030156 3.000000
-0.466955 -0.086253 -0.026560 3.000000
-0.466955 -0.008021 -0.026716 3.000000
-0.466955 -0.015331 0.056657 3.000000
-0.466955 -0.007601 0.064461 3.000000
-0.466955 0.085659 -0.046491 3.000000
-0.466955 0.012048 -0.003750 3.000000
-0.466955 -0.080084 0.051066 3.000000
-0.466955 -0.041403 0.044780 3.000000
-0.466955 -0.065118 -0.067400 3.000000
-0.466955 0.038240 -0.037617 3.000000
-0.466955 0.090416 0.019163 3.000000
-0.466955 -0.026514 0.003447 3.000000
-0.466955 0.066455 -0.058893 3.000000
-0.466955 -0.025984 0.001631 3.000000
-0.466955 0.047766 0.044450 3.000000
-0.466955 -0.028590 -0.059026 3.000000
-0.466955 -0.082137 -0.009216 3.000000
-0.466955 0.012948 -0.033983 3.000000
-0.466955 -0.044667 -0.066249 3.000000
-0.466955 -0.071039 0.028618 3.000000
-0.466955 0.092775 -0.002952 3.000000
-0.466955 0.066373 -0.050429 3.000000
-0.466955 0.055274 0.080309 3.000000
-0.466955 -0.061151 0.004449 3.000000
-0.466955 -0.080685 0.052279 3.000000
-0.466955 -0.033597 -0.040260 3.000000
-0.466955 -0.082495 -0.047843 3.000000
-0.466955 0.047843 -0.072690 3.000000
-0.466955 -0.057997 -0.053903 3.000000
-0.466955 -0.079568 -0.014637 3.000000
-0.466955 -0.046619 0.047913 3.000000
-0.466955 0.085167 0.043150 3.000000
-0.466955 0.035247 0.053700 3.000000
-0.466955 -0.059724 0.079719 3.000000
-0.466955 0.089033 -0.005875 3.000000
-0.466955 -0.047210 0.063421 3.000000
-0.466955 -0.014590 0.036269 3.000000
-0.466955 0.059241 -0.005377 3.000000
-0.466955 0.007579 -0.008029 3.000000
-0.466955 -0.066631 -0.019072 3.000000
-0.466955 -0.069469 -0.065429 3.000000
-0.466955 0.024445 -0.016927 3.000000
-0.466955 0.049041 0.026745 3.000000
-0.466955 -0.025679 0.045173 3.000000
-0.466955 -0.093026 -0.007821 3.000000
-0.466955 0.047781 0.030956 3.000000
-0.466955 0.095917 0.014992 3.000000
-0.466955 0.030100 -0.077146 3.000000
-0.466955 -0.032602 -0.075177 3.000000
-0.466955 0.071088 -0.048071 3.000000
-0.466955 -0.022845 -0.031006 3.000000
-0.466955 0.000979 0.013288 3.000000
-0.466955 -0.009264 0.027093 3.000000
-0.466955 0.003311 -0.063416 3.000000
-0.466955 0.084611 -0.018533 3.000000
-0.466955 -0.045810 -0.088412 3.000000
-0.466955 0.014760 -0.021508 3.000000
-0.466955 -0.033261 0.038885 3.000000
-0.466955 -0.030151 0.076110 3.000000
-0.466955 -0.070234 0.051724 3.000000
-0.466955 0.047448 -0.005427 3.000000
-0.466955 0.017049 0.060950 3.000000
-0.466955 -0.021248 0.022175 3.000000
-0.466955 -0.026147 0.094158 3.000000
-0.466955 -0.009180 0.017905 3.000000
-0.466955 0.029132 0.024133 3.000000
-0.466955 0.027699 0.096109 3.000000
-0.466955 -0.032681 0.035863 3.000000
-0.466955 0.076417 -0.008252 3.000000
-0.466955 0.085755 -0.016696 3.000000
-0.466955 -0.057250 0.081517 3.000000
-0.466955 -0.048629 0.015620 3.000000
-0.466955 0.060343 0.056035 3.000000
-0.466955 -0.079222 0.059775 3.000000
-0.466955 0.042449 0.002870 3.000000
-0.466955 -0.040446 -0.074560 3.000000
-0.466955 -0.021452 0.024057 3.000000
-0.466955 -0.047783 0.006320 3.000000
-0.466955 -0.048470 0.068889 3.000000
-0.466955 0.004058 0.097538 3.000000
-0.466955 0.024052 -0.092412 3.000000
-0.466955 0.000816 -0.047119 3.000000
-0.466955 -0.088884 0.008511 3.000000
-0.466955 -0.014311 0.091018 3.000000
-0.466955 -0.056544 -0.080191 3.000000
-0.466955 -0.068179 0.055296 3.000000
-0.466955 -0.046195 0.050397 3.000000
-0.466955 0.047187 0.052419 3.000000
-0.466955 0.046408 -0.083358 3.000000
-0.466955 -0.073819 -0.016745 3.000000
-0.466955 0.077093 -0.005577 3.000000
-0.466955 0.024988 -0.027788 3.000000
-0.466955 -0.041747 -0.016346 3.000000
-0.466955 -0.048054 -0.025258 3.000000
-0.466955 -0.075603 0.046769 3.000000
-0.466955 0.018999 -0.087555 3.000000
-0.466955 -0.038208 -0.062916 3.000000
-0.466955 0.065190 -0.034077 3.000000
-0.466955 -0.009663 0.025303 3.000000
-0.466955 0.034231 0.030218 3.000000
-0.466955 -0.024341 0.026850 3.000000
-0.466955 -0.007119 0.030721 3.000000
-0.466955 0.010783 -0.089984 3.000000
-0.466955 -0.008176 0.004579 3.000000
-0.466955 -0.015192 -0.059990 3.000000
-0.466955 -0.047850 0.028772 3.000000
-0.466955 0.045510 0.052549 3.000000
-0.466955 -0.069359 -0.017060 3.000000
-0.466955 0.035842 0.039699 3.000000
-0.466955 0.062653 0.014180 3.000000
-0.466955 0.048860 -0.063276 3.000000
-0.466955 -0.014170 -0.040111 3.000000
-0.466955 -0.075303 -0.022453 3.000000
-0.466955 0.073191 -0.006646 3.000000
-0.466955 0.009829 0.018252 3.000000
-0.466955 -0.096092 0.026466 3.000000
-0.466955 -0.026936 -0.040869 3.000000
-0.466955 0.009314 0.062941 3.000000
-0.466955 -0.012309 0.014808 3.000000
-0.466955 0.030519 0.013451 3.000000
-0.466955 0.064236 0.063418 3.000000
-0.466955 0.022584 -0.035357 3.000000
-0.466955 0.060460 -0.043409 3.000000
-0.466955 0.052332 0.079698 3.000000
-0.466955 0.050484 -0.005290 3.000000
-0.466955 -0.080647 -0.011728 3.000000
-0.466955 -0.041251 -0.028391 3.000000
-0.466955 -0.021938 0.048212 3.000000
-0.466955 0.056120 -0.012771 3.000000
-0.466955 -0.040228 -0.061370 3.000000
-0.466955 0.027743 -0.095586 3.000000
-0.466955 0.071145 0.030524 3.000000
-0.466955 -0.093692 -0.026704 3.000000
