0.292859 -0.097543 -0.020593 1.000000
0.037120 -0.046542 0.088460 1.000000
-0.446467 0.093181 0.036426 3.000000
-0.325880 0.099863 0.004709 1.000000
-0.160079 -0.099633 0.004595 1.000000
-0.069985 0.052200 0.085371 1.000000
-0.201128 0.044378 -0.089319 1.000000
0.283840 -0.096708 0.024689 1.000000
-0.356390 -0.070583 0.070676 1.000000
0.114781 0.029554 -0.095234 1.000000
-0.334579 -0.051453 -0.085312 1.000000
-0.004372 0.018917 -0.097919 1.000000
0.391144 -0.075343 -0.065198 1.000000
-0.244407 0.098566 0.016818 1.000000
-0.049650 -0.098757 0.014138 1.000000
-0.308629 0.015931 -0.098398 1.000000
0.253907 0.095225 0.030675 1.000000
-0.260593 0.073350 -0.067723 1.000000
-0.031611 -0.006280 -0.099498 1.000000
0.391461 0.081066 -0.058329 1.000000
0.238177 -0.043160 0.090183 1.000000
0.209231 0.041249 0.091168 1.000000
0.300560 -0.099497 0.007281 1.000000
0.164843 0.099875 0.004327 1.000000
0.244932 -0.082489 0.056255 1.000000
0.398261 0.027783 -0.095748 1.000000
-0.450858 0.045863 -0.088562 3.000000
-0.031758 -0.097720 0.020161 1.000000
-0.446176 -0.005513 0.099893 3.000000
0.065667 0.018775 -0.097947 1.000000
0.321536 -0.023085 0.097298 1.000000
-0.081615 0.040719 -0.091035 1.000000
0.402234 0.009299 0.099598 1.000000
0.205077 -0.085729 -0.050793 1.000000
-0.265122 0.083600 -0.054601 1.000000
0.269735 -0.036334 -0.092808 1.000000
0.094953 0.068925 -0.072205 1.000000
0.376586 0.097073 0.024103 1.000000
0.262532 -0.091584 0.039664 1.000000
-0.134121 0.088707 -0.045866 1.000000
-0.205527 -0.076710 0.064010 1.000000
-0.369902 -0.094185 -0.032625 1.000000
0.249190 0.020270 -0.097617 1.000000
-0.062391 0.069756 0.071736 1.000000
0.273671 -0.099689 -0.002444 1.000000
0.295302 -0.010398 -0.099109 1.000000
-0.206287 0.088979 0.045695 1.000000
0.163948 -0.080686 0.058905 1.000000
-0.103219 0.067662 0.073731 1.000000
-0.138835 -0.024118 0.097067 1.000000
0.409611 0.058442 0.081257 1.000000
-0.415182 0.098317 -0.018022 1.000000
0.282180 0.065294 0.075819 1.000000
0.306143 0.026127 -0.096229 1.000000
-0.349046 0.070891 0.070601 1.000000
0.410955 0.046155 -0.088413 1.000000
-0.109749 -0.070176 0.071082 1.000000
-0.190411 -0.071306 -0.069590 1.000000
0.219185 -0.069418 -0.071477 1.000000
-0.173871 -0.070866 -0.070030 1.000000
-0.234153 0.026682 0.096431 1.000000
-0.460947 0.002877 -0.099620 3.000000
-0.128790 0.035759 -0.093099 1.000000
0.343774 0.055390 0.083330 1.000000
0.151967 0.077528 0.063278 1.000000
-0.122658 0.075755 0.065358 1.000000
0.329742 -0.035094 -0.093254 1.000000
-0.220948 0.099313 0.011692 1.000000
0.413436 0.095614 -0.028973 1.000000
0.085093 0.051903 0.085547 1.000000
0.111997 0.018179 -0.098042 1.000000
-0.202389 -0.087537 -0.047703 1.000000
0.101196 -0.092701 0.037082 1.000000
-0.111113 0.097813 0.020790 1.000000
-0.026267 -0.099622 0.004940 1.000000
-0.292555 -0.057911 -0.081096 1.000000
0.089060 -0.099714 -0.001669 1.000000
0.427372 -0.099586 -0.005732 1.000000
-0.325154 -0.063604 0.077103 1.000000
0.452743 -0.070741 -0.070155 2.000000
-0.193118 0.089274 0.045116 1.000000
0.313953 0.053880 -0.083994 1.000000
-0.088741 -0.073338 0.067835 1.000000
0.199638 0.099563 0.009049 1.000000
-0.319966 0.095195 -0.030416 1.000000
0.001376 -0.085669 -0.050895 1.000000
0.276697 0.043841 0.089955 1.000000
-0.294679 0.060203 0.079928 1.000000
0.293499 0.089641 0.044395 1.000000
0.355363 -0.097149 0.022719 1.000000
-0.319870 0.073633 -0.067403 1.000000
-0.065557 0.064163 -0.076454 1.000000
0.030397 0.059110 0.080776 1.000000
0.289210 0.057328 -0.081651 1.000000
-0.017820 0.034118 0.094053 1.000000
0.408636 0.068258 -0.072844 1.000000
0.189213 -0.019012 -0.097846 1.000000
0.188844 -0.099419 -0.007741 1.000000
0.067934 -0.090555 -0.041680 1.000000
-0.327145 -0.093231 0.035638 1.000000
0.334005 -0.075488 0.065397 1.000000
-0.330099 0.091718 0.039895 1.000000
-0.317735 -0.069400 -0.071496 1.000000
0.328023 0.075295 0.065880 1.000000
-0.277699 0.019912 0.098060 1.000000
-0.305687 0.091685 -0.039608 1.000000
-0.220944 -0.094185 0.032987 1.000000
0.065133 -0.069955 -0.070941 1.000000
-0.395516 -0.002390 0.099991 1.000000
-0.456687 -0.018829 0.098250 3.000000
0.082032 0.046331 0.088686 1.000000
0.403950 0.045111 0.089308 1.000000
0.078135 0.076719 -0.063903 1.000000
-0.107295 -0.089801 0.043623 1.000000
-0.187670 -0.080475 0.059178 1.000000
-0.101317 0.097278 -0.022821 1.000000
-0.051632 0.099851 0.005094 1.000000
0.374408 0.080255 0.059763 1.000000
-0.346636 -0.092581 -0.036998 1.000000
-0.392018 -0.095886 -0.027235 1.000000
-0.339591 0.030398 0.095351 1.000000
0.464143 -0.070451 -0.070445 2.000000
-0.192188 -0.095419 -0.028840 1.000000
-0.207584 -0.083286 -0.054719 1.000000
0.325765 -0.047195 0.088127 1.000000
-0.325789 0.089478 0.044716 1.000000
0.081506 -0.095576 -0.028301 1.000000
0.449516 -0.057775 0.081551 2.000000
-0.318322 0.099470 -0.009673 1.000000
0.228756 0.077246 0.063642 1.000000
-0.439589 0.055195 -0.083100 3.000000
0.016646 -0.060363 -0.079259 1.000000
-0.463294 0.021578 0.097687 3.000000
0.437412 0.006474 0.099865 2.000000
-0.299046 -0.082466 0.056289 1.000000
-0.109096 -0.063704 -0.076653 1.000000
-0.019030 0.082773 0.056180 1.000000
0.014718 0.071068 0.070424 1.000000
-0.265742 0.029667 0.095564 1.000000
-0.391179 -0.069581 -0.071316 1.000000
0.233675 -0.030986 -0.094734 1.000000
-0.330958 -0.049913 0.086586 1.000000
-0.363317 -0.096367 -0.025577 1.000000
0.248794 0.056417 -0.082270 1.000000
0.296094 -0.085958 -0.050405 1.000000
-0.326915 0.044544 0.089597 1.000000
0.077084 -0.099045 -0.011700 1.000000
-0.129689 -0.042565 0.090486 1.000000
0.057792 -0.010701 0.099443 1.000000
0.053669 0.004109 0.099945 1.000000
0.320284 -0.097938 -0.018823 1.000000
-0.394138 -0.042409 0.090565 1.000000
-0.230946 -0.082520 0.056208 1.000000
0.202333 0.093785 0.034747 1.000000
-0.352079 -0.099378 -0.008173 1.000000
0.074845 0.097937 0.020238 1.000000
0.236720 0.097707 -0.020901 1.000000
0.193752 0.093395 -0.035468 1.000000
0.225122 0.002445 -0.099634 1.000000
0.222336 0.069169 -0.071961 1.000000
0.338117 0.035601 -0.093156 1.000000
-0.168259 -0.091332 0.040248 1.000000
0.133447 -0.075984 0.064834 1.000000
0.132203 -0.086693 0.049527 1.000000
0.072864 -0.065803 0.075165 1.000000
0.003299 0.017620 -0.098130 1.000000
0.373848 -0.012856 -0.098848 1.000000
0.228930 -0.012523 -0.098901 1.000000
0.083041 0.057610 -0.081459 1.000000
-0.070288 -0.002882 0.099976 1.000000
0.046614 -0.084031 0.053986 1.000000
-0.429479 -0.048795 -0.086885 1.000000
0.293985 -0.021036 0.097756 1.000000
-0.385309 -0.008931 -0.099248 1.000000
-0.154447 -0.099055 0.011947 1.000000
-0.317382 -0.097405 0.021574 1.000000
-0.047090 0.044690 0.089522 1.000000
-0.265830 -0.024015 -0.096728 1.000000
0.044474 -0.013351 -0.098769 1.000000
-0.272317 0.056269 0.082733 1.000000
-0.152790 -0.079850 -0.059621 1.000000
-0.012195 -0.098668 0.014696 1.000000
-0.384733 0.004552 -0.099568 1.000000
-0.412070 0.008876 -0.099275 1.000000
-0.276681 0.075902 -0.064829 1.000000
0.246721 -0.040278 0.091487 1.000000
0.211835 0.036886 -0.092693 1.000000
0.084618 -0.087444 -0.047885 1.000000
0.214423 0.095410 0.030037 1.000000
0.303122 -0.047247 -0.087738 1.000000
-0.212931 -0.054493 -0.083419 1.000000
0.089372 -0.063740 0.076983 1.000000
-0.187661 0.099743 0.007141 1.000000
0.240112 0.081206 0.058485 1.000000
-0.076190 0.096354 -0.026424 1.000000
0.423727 -0.008850 0.099618 2.000000
0.311822 0.059405 0.080547 1.000000
0.104833 0.006154 -0.099517 1.000000
0.002613 0.058858 0.080971 1.000000
0.428901 0.081351 0.058272 2.000000
0.315803 0.045488 0.089116 1.000000
0.116616 -0.097845 -0.019240 1.000000
0.254817 0.077464 -0.062998 1.000000
0.230502 -0.013329 0.099136 1.000000
0.307248 -0.085703 0.051201 1.000000
-0.126444 -0.030216 0.095336 1.000000
-0.380935 -0.087225 0.048627 1.000000
-0.124687 0.055050 0.083562 1.000000
0.406685 0.069465 0.072027 1.000000
-0.050869 -0.075473 0.065414 1.000000
-0.423987 0.008093 -0.099349 1.000000
-0.304798 -0.063589 -0.076754 1.000000
0.002952 -0.050213 -0.086046 1.000000
0.243863 0.041490 -0.090701 1.000000
-0.108559 -0.068037 -0.072832 1.000000
0.355606 -0.099719 -0.001487 1.000000
-0.425244 0.034332 -0.093613 1.000000
0.042492 0.097109 -0.023578 1.000000
-0.381069 0.065038 -0.075682 1.000000
0.050063 -0.094722 -0.031134 1.000000
-0.194095 0.029085 -0.095370 1.000000
0.362489 -0.085655 -0.050918 1.000000
-0.055730 -0.017528 0.098471 1.000000
0.156672 0.095012 -0.030975 1.000000
-0.311495 -0.067059 -0.073694 1.000000
-0.306498 0.072536 0.068957 1.000000
-0.115871 0.096139 0.027527 1.000000
0.436839 0.097899 -0.020044 2.000000
0.137485 -0.061829 -0.078123 1.000000
-0.198069 -0.077682 0.062779 1.000000
0.139993 -0.088154 -0.046492 1.000000
0.290201 -0.089746 -0.043368 1.000000
-0.147095 0.082125 -0.056771 1.000000
0.202214 -0.022722 0.097379 1.000000
-0.376550 0.050482 0.086388 1.000000
-0.250954 -0.019925 -0.097642 1.000000
-0.316053 -0.099191 -0.010153 1.000000
-0.227045 -0.095887 0.027592 1.000000
-0.042392 0.084116 -0.053840 1.000000
-0.158143 0.083806 -0.054297 1.000000
0.147910 -0.089519 -0.043814 1.000000
-0.127563 0.082265 -0.056565 1.000000
-0.400919 -0.098832 -0.013297 1.000000
-0.431577 0.081015 -0.058403 3.000000
-0.368829 -0.091737 -0.038948 1.000000
0.212380 0.093627 -0.034824 1.000000
-0.230902 0.024757 -0.096614 1.000000
-0.296516 -0.017551 -0.098104 1.000000
0.297803 -0.078366 -0.061534 1.000000
0.033003 -0.076145 -0.064289 1.000000
0.421178 -0.082617 -0.055703 1.000000
-0.445862 -0.086501 -0.049487 3.000000
0.120845 0.094295 0.033330 1.000000
-0.036201 0.085553 -0.051485 1.000000
-0.014165 -0.092260 -0.037740 1.000000
0.241133 0.030228 0.095401 1.000000
0.385469 0.051884 -0.085196 1.000000
-0.434756 -0.099674 0.003284 3.000000
-0.414179 -0.089589 0.044039 1.000000
-0.022627 -0.064644 0.076187 1.000000
0.367579 0.087881 -0.047486 1.000000
-0.180454 -0.027547 0.096112 1.000000
-0.036418 -0.087993 0.047171 1.000000
0.245058 0.097945 -0.019839 1.000000
0.400284 0.098617 -0.016130 1.000000
0.296210 -0.037681 0.092611 1.000000
0.017125 0.087680 0.048245 1.000000
-0.235055 0.062161 -0.078046 1.000000
-0.082551 0.077456 -0.063008 1.000000
0.040842 -0.025120 0.096817 1.000000
0.280519 -0.076145 -0.064289 1.000000
-0.329300 -0.019389 0.098124 1.000000
-0.400818 -0.018132 0.098375 1.000000
0.161945 -0.052377 0.085129 1.000000
0.299977 -0.082844 -0.055369 1.000000
-0.290416 0.094409 -0.032651 1.000000
0.433619 -0.091936 -0.038488 1.000000
0.032229 -0.040508 0.091388 1.000000
-0.459117 -0.079684 0.060198 3.000000
0.113119 -0.039119 0.091989 1.000000
-0.322860 0.039968 0.091723 1.000000
0.014411 0.093480 0.035594 1.000000
-0.442953 -0.091616 -0.039228 3.000000
-0.363560 0.099413 0.010631 1.000000
0.237245 -0.057331 0.081853 1.000000
-0.189344 0.021589 0.097685 1.000000
-0.047938 -0.091687 0.039426 1.000000
-0.023584 0.099991 -0.000259 1.000000
0.060559 -0.066379 -0.074294 1.000000
-0.294695 -0.034249 0.093922 1.000000
-0.089174 -0.079147 0.060890 1.000000
-0.387207 -0.087913 -0.046966 1.000000
-0.295969 0.099399 -0.010417 1.000000
-0.450958 -0.093914 -0.033379 3.000000
0.221490 0.022121 0.097566 1.000000
0.076728 0.018463 0.098359 1.000000
-0.451049 -0.081797 -0.056910 3.000000
-0.014265 0.099202 0.012796 1.000000
-0.045503 -0.081960 0.057033 1.000000
-0.094006 0.028689 0.095848 1.000000
-0.400345 0.099680 0.007810 1.000000
0.335744 0.099818 0.006130 1.000000
-0.122799 0.087713 0.048180 1.000000
-0.453070 0.024835 -0.096597 3.000000
0.212724 0.080774 -0.058730 1.000000
-0.362701 -0.099271 0.009671 1.000000
-0.424632 0.094855 -0.031412 1.000000
-0.251688 0.003480 -0.099602 1.000000
0.299837 0.099137 -0.012848 1.000000
-0.131705 0.058339 0.081326 1.000000
0.321932 -0.075964 -0.064493 1.000000
0.244232 -0.008742 0.099628 1.000000
-0.176427 0.038549 -0.091974 1.000000
0.414117 0.034339 -0.093610 1.000000
0.368437 0.063207 -0.077234 1.000000
0.384828 -0.091462 0.039947 1.000000
-0.426777 0.093046 0.036800 1.000000
0.425635 0.060333 -0.079464 1.000000
-0.447668 -0.058997 -0.080319 3.000000
-0.117497 -0.042757 -0.090026 1.000000
0.038524 0.024259 0.097088 1.000000
0.092483 -0.098906 -0.012832 1.000000
-0.397843 0.084233 0.054032 1.000000
0.436907 0.018938 0.098277 2.000000
0.453472 -0.099297 0.009395 2.000000
-0.345607 0.091253 0.040968 1.000000
-0.357081 0.098154 -0.018901 1.000000
0.366313 0.000811 0.100048 1.000000
0.310314 -0.086291 -0.049843 1.000000
0.102174 0.084028 -0.053971 1.000000
0.192926 -0.028036 -0.095607 1.000000
-0.101180 0.006797 -0.099472 1.000000
-0.123455 -0.099267 -0.009347 1.000000
0.120518 0.016373 0.098690 1.000000
0.064687 -0.061183 -0.078624 1.000000
-0.220798 -0.031324 0.094975 1.000000
-0.464907 0.002218 0.100004 3.000000
-0.365894 -0.072663 -0.068233 1.000000
-0.183763 0.055406 -0.082957 1.000000
0.129042 0.060804 0.079462 1.000000
0.093968 -0.098689 0.014565 1.000000
-0.079075 -0.030467 0.095264 1.000000
0.189056 -0.095419 -0.028841 1.000000
-0.426841 -0.034837 -0.093347 1.000000
0.340240 -0.075981 -0.064474 1.000000
-0.222104 0.023849 0.097180 1.000000
-0.115278 -0.071368 -0.069528 1.000000
-0.451715 -0.096382 -0.025527 3.000000
0.427085 0.027207 0.096278 2.000000
-0.051668 0.089422 0.044826 1.000000
0.023977 0.059187 0.080716 1.000000
-0.312144 0.081782 0.057638 1.000000
0.383677 0.088470 -0.046331 1.000000
-0.191645 -0.093090 -0.035665 1.000000
-0.227782 0.055844 0.083022 1.000000
-0.408948 0.018994 0.098265 1.000000
0.118419 0.099935 -0.002038 1.000000
-0.047110 0.090538 -0.042258 1.000000
0.384561 0.095333 0.030305 1.000000
-0.276401 -0.024308 0.097025 1.000000
0.225013 0.093553 -0.035029 1.000000
-0.088330 -0.088472 -0.045869 1.000000
0.300609 0.074320 -0.066623 1.000000
0.056879 0.090427 0.042852 1.000000
-0.428523 0.070637 -0.070492 3.000000
-0.107106 -0.099464 0.007628 1.000000
-0.407340 -0.099672 -0.002993 1.000000
0.058858 -0.099259 -0.009435 1.000000
-0.201703 0.093064 -0.036386 1.000000
-0.059651 0.028478 0.095909 1.000000
0.293721 0.064188 0.076794 1.000000
0.272189 0.084692 0.053304 1.000000
0.216385 -0.081934 -0.056708 1.000000
0.231397 0.099440 -0.009988 1.000000
0.181293 0.094755 0.032052 1.000000
-0.228062 0.089808 -0.043705 1.000000
-0.121145 0.033160 0.094398 1.000000
0.404494 -0.018648 0.098290 1.000000
0.140817 0.071904 -0.069225 1.000000
-0.061837 0.052470 -0.084849 1.000000
0.177387 -0.080178 0.059561 1.000000
0.048441 -0.004366 0.099929 1.000000
-0.259331 -0.097335 -0.021523 1.000000
-0.236716 -0.060715 -0.078987 1.000000
-0.034976 0.071636 -0.069494 1.000000
-0.336770 0.071949 -0.069181 1.000000
-0.157126 -0.049501 -0.086467 1.000000
-0.409435 0.097677 0.021400 1.000000
-0.442853 -0.092912 0.036522 3.000000
-0.144706 0.031787 0.094892 1.000000
0.417487 -0.097620 0.020612 1.000000
0.257608 -0.029461 -0.095193 1.000000
-0.352572 -0.099141 0.011046 1.000000
0.404101 0.038248 0.092467 1.000000
-0.122389 -0.066338 -0.074330 1.000000
0.099504 0.077833 -0.062522 1.000000
0.434236 -0.017559 0.098466 2.000000
-0.067313 -0.086836 -0.048922 1.000000
-0.128777 -0.094002 -0.033133 1.000000
0.053174 -0.099435 0.007929 1.000000
0.228556 0.059476 0.080492 1.000000
0.370818 0.034861 -0.093422 1.000000
-0.110963 -0.028314 0.095889 1.000000
0.034234 0.085443 -0.051672 1.000000
0.204503 0.018174 -0.098042 1.000000
-0.346127 -0.074144 0.066921 1.000000
0.396326 -0.082978 0.055535 1.000000
-0.209157 0.011624 0.099378 1.000000
-0.123999 -0.086466 0.049910 1.000000
0.172233 -0.088660 0.045862 1.000000
-0.244699 -0.056145 -0.082296 1.000000
0.331987 -0.043031 -0.089886 1.000000
-0.086364 0.035540 -0.093178 1.000000
0.369916 0.097159 0.023718 1.000000
-0.220675 0.008810 -0.099281 1.000000
-0.199341 0.015062 0.098898 1.000000
-0.162312 0.095735 -0.028558 1.000000
-0.292026 -0.057376 0.081822 1.000000
0.252603 0.099902 0.003474 1.000000
-0.007233 -0.099601 -0.005270 1.000000
0.463070 -0.051493 -0.085289 2.000000
-0.394140 -0.048205 0.087596 1.000000
-0.385023 0.099074 0.013608 1.000000
0.050092 0.093850 -0.034204 1.000000
0.452531 0.025478 0.096781 2.000000
-0.139715 -0.013081 -0.098812 1.000000
0.108598 0.067310 0.074042 1.000000
0.352306 -0.034712 -0.093392 1.000000
-0.073329 -0.092430 0.037709 1.000000
-0.452508 0.065173 -0.075564 3.000000
-0.055351 -0.089299 -0.044245 1.000000
-0.458778 0.060409 -0.079406 3.000000
0.232457 -0.095242 0.029811 1.000000
-0.304991 0.082033 0.057270 1.000000
-0.042249 -0.005393 0.099897 1.000000
-0.161799 0.031990 -0.094456 1.000000
0.257029 0.081061 -0.058336 1.000000
-0.466332 0.089086 -0.045121 3.000000
0.076449 -0.099586 0.006113 1.000000
0.141631 0.028650 -0.095496 1.000000
-0.025686 0.080571 0.059355 1.000000
-0.198213 -0.029311 0.095599 1.000000
-0.232113 -0.035863 0.093340 1.000000
-0.117840 -0.036969 0.092920 1.000000
0.395757 -0.053066 0.084722 1.000000
-0.405375 -0.099591 0.005942 1.000000
0.180077 0.054577 0.083883 1.000000
0.392347 -0.097669 -0.020027 1.000000
0.014259 -0.098463 0.015991 1.000000
0.139586 0.098450 -0.017185 1.000000
0.392512 -0.087730 -0.047324 1.000000
0.210824 -0.099067 -0.011458 1.000000
-0.035146 -0.072831 0.068410 1.000000
0.333579 -0.079860 -0.059608 1.000000
0.311545 -0.091888 -0.038599 1.000000
0.159048 -0.032536 0.094538 1.000000
-0.414891 -0.098879 -0.013000 1.000000
-0.227990 -0.008910 -0.099250 1.000000
-0.027392 -0.056541 0.082389 1.000000
-0.075856 -0.083045 0.055436 1.000000
0.317810 0.099593 0.008730 1.000000
-0.175531 0.078537 -0.061615 1.000000
0.420013 -0.059945 -0.079584 1.000000
-0.033181 -0.032011 0.094727 1.000000
-0.207450 0.072740 0.068752 1.000000
-0.261485 -0.008041 -0.099332 1.000000
-0.431091 -0.099656 -0.003503 3.000000
0.057682 0.006208 -0.099516 1.000000
0.002607 -0.025672 -0.096294 1.000000
0.454821 0.094543 -0.032279 2.000000
-0.237206 -0.038677 0.092180 1.000000
0.157529 -0.074749 -0.065872 1.000000
0.430650 0.074812 0.066428 2.000000
0.027121 -0.017512 0.098473 1.000000
-0.253553 -0.092127 -0.038046 1.000000
0.100936 0.097329 -0.022594 1.000000
-0.385277 0.060289 -0.079498 1.000000
-0.058182 0.018571 -0.097980 1.000000
0.321235 -0.087192 -0.048319 1.000000
0.066671 -0.096276 0.026255 1.000000
-0.104235 0.093190 0.036399 1.000000
-0.457878 0.028158 -0.095639 3.000000
-0.336215 -0.065873 -0.074740 1.000000
-0.460560 0.075427 -0.065368 3.000000
0.199642 -0.015263 0.098829 1.000000
0.037670 -0.075901 0.064928 1.000000
0.425298 -0.072227 0.069032 2.000000
-0.054476 0.091964 -0.038964 1.000000
0.011901 -0.090142 0.042953 1.000000
-0.288251 -0.017983 -0.098036 1.000000
-0.025381 0.090854 0.041892 1.000000
-0.351721 0.098812 -0.014897 1.000000
-0.363398 0.010516 0.099483 1.000000
-0.213098 -0.075313 -0.065232 1.000000
-0.268801 0.089667 0.044345 1.000000
-0.335332 0.081763 0.057666 1.000000
0.015968 0.082662 -0.055981 1.000000
-0.083739 0.066493 0.074762 1.000000
0.452719 -0.091477 0.039912 2.000000
0.399308 0.076928 0.064028 1.000000
0.238704 -0.006165 0.099872 1.000000
0.090137 -0.061264 -0.078561 1.000000
-0.284328 -0.070938 0.070321 1.000000
-0.149650 -0.050074 0.086491 1.000000
-0.064843 0.024479 0.097039 1.000000
0.208869 0.094139 0.033762 1.000000
0.359690 0.034267 0.093999 1.000000
0.055968 -0.098510 -0.015332 1.000000
-0.267236 0.005448 -0.099540 1.000000
0.047404 0.068217 0.073243 1.000000
0.199821 0.049222 0.087133 1.000000
0.464150 -0.095608 0.028554 2.000000
0.044222 -0.076269 0.064511 1.000000
-0.071851 0.089492 -0.044324 1.000000
0.387238 0.074001 0.067347 1.000000
-0.435386 -0.036524 -0.092740 1.000000
-0.460892 -0.059876 -0.079638 3.000000
0.095995 -0.099667 -0.003161 1.000000
0.206123 -0.038226 -0.092013 1.000000
0.004179 -0.067739 -0.073095 1.000000
0.402784 -0.094748 0.031425 1.000000
-0.233077 0.099928 -0.002282 1.000000
0.395577 0.088013 -0.047227 1.000000
-0.430762 0.095266 -0.030172 3.000000
-0.050754 0.069040 0.072452 1.000000
-0.252401 0.010034 -0.099166 1.000000
-0.303060 0.002042 0.100009 1.000000
-0.457237 -0.093880 0.033835 3.000000
0.002101 0.100002 0.000081 1.000000
-0.048731 0.018962 -0.097909 1.000000
-0.229493 0.097749 0.021077 1.000000
0.340388 0.094955 0.031497 1.000000
-0.132632 -0.017174 -0.098164 1.000000
0.034829 0.099940 -0.001881 1.000000
0.208383 -0.067941 0.073280 1.000000
-0.180892 -0.056229 -0.082239 1.000000
-0.007026 -0.085781 0.051069 1.000000
0.121178 0.036504 -0.092831 1.000000
0.013985 0.003780 0.099955 1.000000
0.293033 0.095012 -0.030975 1.000000
0.308504 -0.098329 -0.016475 1.000000
0.141035 0.083375 -0.054931 1.000000
0.154355 -0.035189 -0.093220 1.000000
-0.201027 0.051551 0.085756 1.000000
0.292920 0.075345 -0.065461 1.000000
-0.270280 -0.096403 0.025817 1.000000
0.358105 -0.005739 0.099886 1.000000
0.205465 0.094176 -0.033297 1.000000
-0.278960 -0.095689 -0.027911 1.000000
-0.025853 -0.078289 0.061996 1.000000
0.120254 -0.024973 -0.096497 1.000000
-0.029216 0.084894 0.052963 1.000000
-0.230255 -0.082131 -0.056419 1.000000
0.199645 -0.098864 -0.013099 1.000000
0.009387 0.083396 -0.054900 1.000000
-0.040746 0.091125 -0.040903 1.000000
0.337736 -0.008051 -0.099331 1.000000
0.415122 -0.099356 0.008769 1.000000
-0.207418 -0.062600 -0.077524 1.000000
-0.164377 -0.089316 0.044575 1.000000
-0.213319 -0.009763 -0.099169 1.000000
0.107652 0.090258 -0.042822 1.000000
0.076377 0.096771 -0.024992 1.000000
0.222242 0.029823 -0.095156 1.000000
-0.260895 0.090590 0.042501 1.000000
-0.335589 -0.036330 0.093172 1.000000
0.424445 -0.002968 0.099973 2.000000
0.339432 -0.080446 0.059215 1.000000
-0.091101 0.040202 -0.091259 1.000000
0.041660 -0.087361 0.048397 1.000000
0.182031 -0.054565 -0.083370 1.000000
0.438317 0.089042 -0.045207 2.000000
-0.326802 0.099225 0.012622 1.000000
-0.050428 0.019739 0.098098 1.000000
0.276966 0.099918 -0.002589 1.000000
-0.225915 0.029480 0.095618 1.000000
-0.379219 -0.035192 0.093582 1.000000
0.182694 -0.075680 -0.064816 1.000000
0.087277 -0.054936 -0.083117 1.000000
0.411703 -0.052115 -0.084921 1.000000
-0.317946 0.022496 -0.097119 1.000000
0.108328 0.003600 0.099961 1.000000
-0.023533 0.088351 0.046927 1.000000
-0.090189 0.099840 -0.005070 1.000000
0.046270 0.022599 0.097459 1.000000
-0.294302 0.099827 0.005839 1.000000
0.082369 -0.072285 0.068974 1.000000
0.222411 -0.030550 0.095239 1.000000
0.023703 -0.001876 0.100007 1.000000
0.171301 0.071654 -0.069476 1.000000
0.449727 -0.022025 -0.097172 2.000000
-0.418433 -0.099680 0.003101 1.000000
-0.249417 0.005759 0.099893 1.000000
0.302826 -0.064969 -0.075537 1.000000
-0.264821 0.079626 0.060574 1.000000
0.376287 -0.078153 0.062171 1.000000
-0.439088 0.094179 0.033651 1.000000
-0.225326 0.093184 -0.036054 1.000000
0.095099 -0.043770 -0.089510 1.000000
0.196713 -0.064789 -0.075696 1.000000
0.351135 -0.091274 0.040380 1.000000
0.441810 -0.008970 -0.099244 1.000000
0.019705 0.099819 -0.005734 1.000000
0.134445 -0.099642 -0.003951 1.000000
0.439985 0.085335 -0.051854 2.000000
0.313313 0.067165 -0.073807 1.000000
-0.353184 -0.014634 0.098929 1.000000
-0.389457 0.013399 -0.098799 1.000000
-0.160950 -0.067098 -0.073660 1.000000
-0.154193 0.094679 0.032263 1.000000
-0.417053 -0.061605 -0.078297 1.000000
0.197316 -0.085832 -0.050620 1.000000
0.275194 -0.067195 -0.073575 1.000000
0.201429 -0.077043 0.063602 1.000000
0.069651 0.013500 -0.098783 1.000000
0.253848 -0.058606 -0.080623 1.000000
0.230738 -0.099658 0.003823 1.000000
-0.135873 -0.054441 0.083817 1.000000
-0.087213 0.091484 -0.040073 1.000000
-0.005731 0.018360 0.098376 1.000000
0.294390 0.089350 -0.044604 1.000000
-0.448137 -0.040188 -0.091164 3.000000
-0.202041 0.099843 -0.004987 1.000000
0.228729 -0.031545 0.094895 1.000000
-0.062987 -0.083586 -0.054277 1.000000
-0.365210 0.000774 -0.099687 1.000000
0.114294 -0.020627 0.097848 1.000000
-0.378450 0.041147 -0.090850 1.000000
-0.249946 -0.088517 0.046143 1.000000
0.120356 0.008157 0.099706 1.000000
0.079821 -0.096898 0.023839 1.000000
-0.206770 -0.008059 0.099693 1.000000
0.002681 0.006992 -0.099453 1.000000
0.438340 -0.031762 0.094817 2.000000
0.172532 -0.045765 0.088856 1.000000
-0.060690 -0.047184 0.088133 1.000000
0.152934 -0.010295 0.099482 1.000000
-0.262423 0.025160 -0.096510 1.000000
0.163905 0.000844 -0.099684 1.000000
-0.320148 0.097294 0.023113 1.000000
0.048922 -0.066058 -0.074578 1.000000
0.352587 -0.031856 0.094783 1.000000
-0.208877 0.039912 -0.091384 1.000000
-0.158981 -0.096155 -0.026308 1.000000
0.147951 -0.095987 -0.026887 1.000000
0.070380 -0.058343 -0.080803 1.000000
-0.252895 -0.088997 -0.044839 1.000000
-0.070396 -0.077488 -0.062666 1.000000
-0.184314 0.095184 0.030815 1.000000
-0.162983 -0.079849 -0.059623 1.000000
0.416428 -0.043831 -0.089478 1.000000
-0.305077 -0.085734 -0.050785 1.000000
-0.380627 0.089884 -0.043556 1.000000
-0.204497 -0.099556 -0.006287 1.000000
0.362034 -0.094403 0.032382 1.000000
0.351193 0.046809 -0.088080 1.000000
-0.046277 0.044699 -0.089155 1.000000
-0.125926 -0.037691 0.092607 1.000000
-0.384686 0.096189 0.027356 1.000000
0.001545 0.087825 0.047960 1.000000
0.111549 -0.099621 -0.004612 1.000000
-0.351082 0.087661 -0.047918 1.000000
-0.035669 0.052840 -0.084631 1.000000
-0.341281 -0.060594 -0.079081 1.000000
0.215213 -0.060734 0.079335 1.000000
0.448436 0.099919 -0.002561 2.000000
-0.348712 -0.007876 -0.099347 1.000000
0.022454 0.083483 0.055135 1.000000
0.142955 -0.096272 0.026269 1.000000
0.248134 -0.064328 0.076465 1.000000
-0.021771 0.091335 -0.040416 1.000000
-0.373655 -0.040868 0.091232 1.000000
0.249841 -0.099619 -0.004698 1.000000
-0.097266 -0.080865 -0.058281 1.000000
-0.369107 0.100000 0.000351 1.000000
0.265539 0.015586 0.098815 1.000000
-0.288686 0.021103 0.097793 1.000000
-0.102899 0.057362 -0.081628 1.000000
-0.101138 0.074788 0.066455 1.000000
0.257109 0.039753 0.091816 1.000000
-0.008269 0.096498 -0.025931 1.000000
0.463688 -0.085422 0.051675 2.000000
0.270063 0.095257 -0.030201 1.000000
0.269302 -0.097741 -0.019707 1.000000
0.341711 -0.003573 -0.099591 1.000000
0.097765 -0.015553 0.098783 1.000000
0.285894 -0.087817 -0.047153 1.000000
-0.079915 0.076899 0.064061 1.000000
0.309189 -0.008109 0.099688 1.000000
-0.417204 0.041026 0.091265 1.000000
-0.272189 -0.095663 -0.028000 1.000000
0.319246 -0.079701 -0.059812 1.000000
-0.173246 0.028937 0.095776 1.000000
-0.100731 -0.092155 0.038344 1.000000
-0.443970 -0.062281 0.078135 3.000000
-0.298359 -0.086865 0.049235 1.000000
-0.235734 -0.098813 0.013780 1.000000
0.074390 -0.060036 0.079876 1.000000
0.072075 -0.085715 0.051181 1.000000
0.233224 0.084549 -0.053183 1.000000
0.202451 0.095892 0.028380 1.000000
-0.066333 0.083789 0.054686 1.000000
0.088305 0.076789 -0.063823 1.000000
-0.051866 0.061352 0.079037 1.000000
0.161137 0.073225 0.068228 1.000000
-0.058970 0.011687 -0.099009 1.000000
-0.216701 0.079514 0.060717 1.000000
0.049019 0.079995 0.060098 1.000000
-0.299055 0.081082 -0.058306 1.000000
0.189814 0.092900 0.037164 1.000000
-0.081125 0.091670 0.040004 1.000000
-0.400820 0.001364 -0.099668 1.000000
-0.048413 -0.065492 0.075439 1.000000
0.342521 -0.085439 -0.051284 1.000000
0.009302 0.010819 -0.099091 1.000000
0.135454 -0.068722 -0.072174 1.000000
0.410671 0.011419 0.099397 1.000000
0.013152 -0.073003 0.068215 1.000000
-0.246627 0.034676 0.093852 1.000000
0.388504 -0.099626 0.004840 1.000000
0.054674 -0.033377 0.094235 1.000000
0.430571 -0.026199 0.096504 2.000000
-0.136526 -0.098495 -0.015427 1.000000
-0.050159 -0.099360 -0.008365 1.000000
-0.098277 0.021548 -0.097331 1.000000
-0.021377 -0.058909 0.080750 1.000000
0.187173 -0.088296 0.046577 1.000000
0.136240 -0.098445 0.016107 1.000000
0.378033 -0.054366 -0.083505 1.000000
0.093366 0.022150 0.097559 1.000000
-0.426638 0.061180 -0.078807 3.000000
0.314672 0.090052 0.043589 1.000000
0.021340 0.066163 -0.074690 1.000000
-0.384409 -0.084936 -0.052134 1.000000
-0.115571 -0.002554 0.099986 1.000000
-0.335151 -0.006544 0.099836 1.000000
0.336995 -0.098658 0.014761 1.000000
-0.066886 0.075313 -0.065496 1.000000
0.460988 -0.038540 -0.091877 2.000000
-0.387172 0.099661 -0.007643 1.000000
-0.099649 0.097741 0.021114 1.000000
0.102930 0.064133 0.076843 1.000000
0.045830 -0.086305 -0.049819 1.000000
0.454076 -0.046242 0.088613 2.000000
-0.101703 0.048403 0.087617 1.000000
0.075263 0.012436 0.099301 1.000000
0.135664 -0.043138 0.090194 1.000000
0.015224 -0.099626 0.004818 1.000000
0.010950 -0.080559 0.059070 1.000000
0.329150 0.094839 -0.031455 1.000000
-0.358822 -0.060502 0.079515 1.000000
-0.151175 -0.089668 0.043885 1.000000
0.073922 -0.079135 -0.060542 1.000000
-0.284760 -0.064099 -0.076304 1.000000
-0.073175 0.099972 -0.000872 1.000000
0.018699 -0.079592 -0.059953 1.000000
0.305914 0.082578 0.056466 1.000000
0.404925 -0.034149 -0.093595 1.000000
0.353845 0.053847 -0.084017 1.000000
0.290519 -0.056073 0.082708 1.000000
-0.300905 0.058124 -0.081110 1.000000
-0.340364 0.027725 -0.095765 1.000000
0.448082 -0.001072 0.100033 2.000000
0.331462 -0.057618 -0.081295 1.000000
-0.156090 0.011713 -0.099007 1.000000
-0.314208 -0.039653 -0.091395 1.000000
-0.277980 0.068571 -0.072559 1.000000
0.341565 0.099591 0.008752 1.000000
0.212663 -0.098458 0.016026 1.000000
0.051814 0.003395 -0.099604 1.000000
-0.262780 -0.048186 0.087608 1.000000
0.078259 0.088044 0.047530 1.000000
-0.376499 0.085048 0.052702 1.000000
0.264286 -0.028593 0.095808 1.000000
0.105564 0.071596 0.069896 1.000000
0.189933 0.096542 -0.025778 1.000000
-0.142060 -0.094246 0.032819 1.000000
-0.176572 0.088997 0.045659 1.000000
-0.138493 0.082217 -0.056635 1.000000
0.183702 -0.039323 -0.091538 1.000000
-0.331090 -0.099092 -0.011197 1.000000
-0.181575 0.094397 -0.032684 1.000000
0.159478 -0.057132 0.081988 1.000000
0.352205 0.088395 0.046840 1.000000
-0.222553 0.082518 -0.056193 1.000000
0.184567 -0.091409 0.040069 1.000000
-0.157766 0.069591 -0.071538 1.000000
-0.322920 -0.094839 0.031171 1.000000
-0.295259 -0.091341 -0.039862 1.000000
-0.144538 -0.094472 -0.031828 1.000000
-0.037117 0.099020 0.013947 1.000000
-0.316239 0.078084 -0.062199 1.000000
0.238324 0.092569 0.037928 1.000000
0.391192 -0.045711 -0.088520 1.000000
0.253430 -0.019890 0.098012 1.000000
-0.014159 -0.095717 -0.027815 1.000000
0.098309 -0.076129 -0.064307 1.000000
-0.325728 0.023372 0.097286 1.000000
-0.261796 0.057994 -0.081198 1.000000
-0.013007 0.092712 -0.037235 1.000000
0.135079 0.023314 0.097299 1.000000
0.355658 0.003673 -0.099595 1.000000
0.157197 0.070711 -0.070418 1.000000
-0.167217 0.004977 -0.099554 1.000000
0.452333 -0.034760 -0.093375 2.000000
0.174878 0.075669 0.065455 1.000000
-0.386370 -0.094061 -0.032969 1.000000
0.029903 -0.098976 -0.012391 1.000000
-0.341225 0.060809 0.079458 1.000000
0.095000 -0.058061 -0.080994 1.000000
0.276410 0.053559 -0.084205 1.000000
0.321373 0.078293 0.062292 1.000000
-0.107802 0.051022 0.086068 1.000000
0.127508 -0.006565 -0.099471 1.000000
-0.385616 -0.094651 0.031692 1.000000
-0.212874 0.071336 0.070156 1.000000
-0.021677 0.098907 0.014664 1.000000
0.379990 -0.023429 0.097222 1.000000
0.423210 0.086275 0.050628 2.000000
0.103994 0.097344 0.022888 1.000000
-0.453544 0.098469 0.017429 3.000000
-0.144885 0.096724 -0.025151 1.000000
-0.060050 0.060940 -0.078994 1.000000
-0.093302 0.066112 0.075098 1.000000
-0.095748 0.096475 -0.026010 1.000000
-0.391479 0.092066 0.039090 1.000000
0.374451 -0.041044 0.091156 1.000000
-0.048023 -0.037349 -0.092392 1.000000
0.291520 0.065656 -0.075137 1.000000
0.356960 -0.091801 -0.038800 1.000000
-0.132196 -0.095157 0.030105 1.000000
0.224390 -0.055312 0.083225 1.000000
0.152921 0.023484 -0.096899 1.000000
0.417689 0.014175 0.099039 2.000000
-0.376195 -0.055906 -0.082459 1.000000
0.074079 0.096243 0.027172 1.000000
0.135278 -0.097361 -0.021404 1.000000
0.214920 0.042525 -0.090253 1.000000
0.251371 0.069059 -0.072071 1.000000
0.343489 -0.069096 0.072163 1.000000
0.009966 -0.053911 0.084177 1.000000
0.455220 -0.079352 -0.060262 2.000000
-0.019193 -0.014544 0.098943 1.000000
-0.136920 -0.099721 -0.001438 1.000000
-0.354243 0.082882 0.056019 1.000000
0.071762 0.099155 0.013095 1.000000
0.208496 0.096302 0.026967 1.000000
0.426924 -0.016514 -0.098268 1.000000
-0.155543 -0.073423 0.067739 1.000000
-0.325536 0.037547 -0.092408 1.000000
-0.061619 -0.091561 0.039718 1.000000
-0.117461 0.099340 -0.011042 1.000000
-0.015906 0.086006 -0.050720 1.000000
-0.074963 -0.081176 -0.057823 1.000000
-0.256166 0.060293 -0.079495 1.000000
0.133933 -0.079838 0.059998 1.000000
0.125502 -0.013890 -0.098684 1.000000
0.000511 -0.095487 0.028971 1.000000
0.447608 -0.074222 -0.066470 2.000000
0.417836 -0.027503 -0.095762 1.000000
-0.414096 0.048756 -0.087045 1.000000
0.362218 0.017879 0.098452 1.000000
-0.225979 0.083922 0.054489 1.000000
-0.073444 0.081121 -0.058248 1.000000
0.062105 -0.098436 -0.015796 1.000000
0.357677 -0.087687 -0.047408 1.000000
-0.137265 -0.098064 0.018513 1.000000
-0.094123 0.012635 0.099282 1.000000
0.157496 -0.046520 0.088471 1.000000
-0.081797 0.025465 0.096785 1.000000
0.178809 0.015006 0.098907 1.000000
-0.019691 -0.019420 -0.097755 1.000000
0.374626 -0.095280 0.029681 1.000000
0.278246 -0.093732 0.034246 1.000000
-0.008789 0.004484 0.099933 1.000000
0.000534 -0.098508 0.015706 1.000000
-0.177490 -0.088385 0.046402 1.000000
0.464792 0.052437 -0.084868 2.000000
0.223804 -0.057755 -0.081202 1.000000
0.391830 -0.098968 -0.012438 1.000000
0.452766 0.011749 0.099366 2.000000
-0.396246 0.099427 -0.010124 1.000000
-0.425305 -0.054184 -0.083629 1.000000
0.406867 0.005857 0.099890 1.000000
0.002753 -0.095109 -0.029907 1.000000
0.453588 0.088531 -0.046211 2.000000
0.206635 -0.080536 -0.058736 1.000000
-0.095069 0.050858 0.086165 1.000000
0.195672 0.094345 0.033192 1.000000
-0.361740 0.088997 0.045659 1.000000
0.233306 0.080714 0.059171 1.000000
0.121716 -0.009758 0.099532 1.000000
-0.211371 -0.031398 -0.094585 1.000000
0.247160 -0.086693 -0.049163 1.000000
-0.312363 0.087704 -0.047835 1.000000
0.374123 -0.004648 0.099920 1.000000
-0.315962 -0.069921 0.071338 1.000000
-0.390517 -0.088931 0.045330 1.000000
0.308045 -0.060641 0.079407 1.000000
-0.466596 0.097733 0.021147 3.000000
0.313492 0.087128 -0.048823 1.000000
-0.343307 -0.038164 0.092402 1.000000
-0.451541 0.030474 0.095329 3.000000
0.175234 0.096517 0.026228 1.000000
0.069554 -0.066018 -0.074613 1.000000
0.223749 0.098881 0.014826 1.000000
-0.232849 -0.097471 -0.020914 1.000000
0.286517 0.062723 -0.077610 1.000000
0.022446 -0.028392 -0.095504 1.000000
-0.437049 0.065785 0.075387 3.000000
-0.385032 -0.096039 -0.026705 1.000000
-0.156140 0.021697 -0.097298 1.000000
-0.331522 0.038589 -0.091957 1.000000
0.434736 -0.079104 -0.060583 1.000000
-0.109982 0.085083 0.052644 1.000000
0.428049 -0.009163 -0.099226 1.000000
0.293469 0.011938 -0.098986 1.000000
0.376454 -0.035541 -0.093094 1.000000
-0.191558 0.079388 0.060880 1.000000
0.318650 0.082199 -0.056661 1.000000
0.237444 0.000398 0.100061 1.000000
0.411889 0.093619 -0.034846 1.000000
-0.039361 0.009436 0.099585 1.000000
-0.157404 -0.072367 -0.068529 1.000000
0.347674 -0.099379 -0.008162 1.000000
-0.213816 0.029431 -0.095270 1.000000
-0.039487 -0.065750 -0.074849 1.000000
0.119380 -0.086164 -0.050058 1.000000
-0.302160 0.099806 -0.006114 1.000000
0.080771 -0.008206 -0.099316 1.000000
-0.004447 -0.096736 0.024563 1.000000
-0.305295 0.094132 0.033784 1.000000
-0.115612 0.092494 -0.037738 1.000000
-0.232459 -0.054153 -0.083650 1.000000
-0.208751 0.073260 -0.067825 1.000000
0.446265 -0.078374 -0.061524 2.000000
0.382318 0.081563 -0.057597 1.000000
0.385732 0.099917 -0.002624 1.000000
-0.031803 0.012198 0.099324 1.000000
-0.128069 -0.047885 -0.087413 1.000000
0.194704 -0.098804 0.013840 1.000000
0.341029 -0.099726 0.001650 1.000000
0.009292 -0.008251 -0.099312 1.000000
-0.022808 -0.004144 -0.099573 1.000000
-0.204457 -0.098797 0.013881 1.000000
-0.390742 0.071407 0.070086 1.000000
-0.180439 -0.084858 -0.052266 1.000000
-0.249050 -0.099582 -0.005875 1.000000
0.228139 0.083364 0.055310 1.000000
0.066348 -0.089239 0.044727 1.000000
-0.404913 0.065193 0.075909 1.000000
0.106557 -0.067346 -0.073441 1.000000
0.350134 -0.040056 -0.091221 1.000000
-0.186493 0.083777 -0.054340 1.000000
-0.358753 -0.053829 -0.083870 1.000000
-0.172465 -0.003109 0.099969 1.000000
0.284003 0.070285 0.071208 1.000000
-0.081884 -0.099572 0.006485 1.000000
-0.335705 -0.095928 0.027452 1.000000
0.197534 -0.073784 -0.066966 1.000000
-0.201608 -0.021323 0.097692 1.000000
-0.160267 -0.010868 -0.099065 1.000000
0.013188 0.053231 -0.084399 1.000000
-0.328743 0.082580 -0.056102 1.000000
0.435505 -0.084973 0.052434 2.000000
0.384362 -0.084129 0.053842 1.000000
0.176140 -0.099484 -0.007056 1.000000
0.334341 -0.052755 -0.084543 1.000000
-0.206041 -0.049428 0.086873 1.000000
-0.238486 -0.089669 0.043882 1.000000
-0.444939 -0.095022 0.030569 3.000000
-0.069842 0.096158 -0.027099 1.000000
0.417631 0.093093 0.036668 1.000000
0.055305 0.035576 -0.093165 1.000000
-0.360064 -0.084624 -0.052663 1.000000
0.137144 0.076881 -0.063718 1.000000
-0.160270 -0.093784 -0.033739 1.000000
-0.081076 -0.072681 -0.068215 1.000000
-0.377504 0.003605 -0.099598 1.000000
-0.122212 -0.099735 -0.000988 1.000000
-0.094203 0.036124 0.093330 1.000000
0.222825 0.071749 0.069743 1.000000
0.285302 0.027078 0.096316 1.000000
-0.302951 0.065111 -0.075618 1.000000
-0.452362 0.087307 0.048882 3.000000
-0.397505 -0.069525 -0.071371 1.000000
-0.457561 -0.067100 0.074021 3.000000
0.113495 -0.075482 0.065403 1.000000
-0.100746 0.040461 0.091509 1.000000
-0.341896 0.011373 0.099402 1.000000
-0.125538 0.089126 -0.045043 1.000000
0.043514 -0.061728 0.078564 1.000000
-0.130396 -0.074043 -0.066673 1.000000
-0.144974 0.069841 -0.071288 1.000000
-0.000259 -0.049093 0.087071 1.000000
0.020168 0.094684 0.032249 1.000000
0.322940 0.098955 -0.013996 1.000000
0.292767 0.027013 -0.095972 1.000000
0.190973 0.099337 0.011435 1.000000
-0.078607 -0.077633 -0.062479 1.000000
0.055110 -0.090625 0.041880 1.000000
0.256065 0.059204 -0.080340 1.000000
-0.339787 0.098614 -0.016147 1.000000
-0.130696 0.089013 0.045628 1.000000
-0.344141 0.044435 0.089652 1.000000
0.266607 -0.099224 0.010162 1.000000
0.005166 0.099037 0.013840 1.000000
-0.024634 -0.086849 0.049263 1.000000
0.350737 -0.078610 -0.061219 1.000000
0.443594 0.052037 0.085468 2.000000
-0.062388 -0.096847 -0.023704 1.000000
-0.229185 -0.092325 -0.037589 1.000000
-0.279114 -0.077056 0.063585 1.000000
-0.344323 0.034904 -0.093407 1.000000
-0.060966 0.095295 0.030434 1.000000
0.113443 0.099704 -0.007192 1.000000
0.028658 -0.099593 0.005867 1.000000
0.163054 -0.005422 -0.099533 1.000000
0.406185 0.099920 -0.002540 1.000000
-0.023004 0.084543 -0.053193 1.000000
-0.310601 0.099657 0.008049 1.000000
0.131926 0.014067 0.099056 1.000000
-0.323588 0.079005 -0.061011 1.000000
0.029615 -0.086574 -0.049365 1.000000
0.274225 -0.086401 0.050020 1.000000
0.094616 0.097765 -0.020644 1.000000
-0.093649 0.033865 -0.093781 1.000000
0.340148 -0.045495 -0.088630 1.000000
-0.206678 0.054918 0.083651 1.000000
0.412018 -0.000893 -0.099675 1.000000
0.262823 -0.053292 0.084588 1.000000
0.243170 0.099177 0.012956 1.000000
-0.003999 0.080970 -0.058471 1.000000
0.460901 0.092554 -0.037600 2.000000
-0.142865 -0.099622 0.004962 1.000000
0.360977 -0.070850 -0.070046 1.000000
-0.302739 -0.063018 0.077563 1.000000
0.020525 0.061738 -0.078374 1.000000
0.003321 -0.074276 0.066771 1.000000
0.002188 0.045041 0.089343 1.000000
0.041737 0.077173 -0.063373 1.000000
-0.118335 0.080142 -0.059545 1.000000
0.215520 0.089304 -0.044694 1.000000
0.015871 0.076784 -0.063829 1.000000
-0.213341 -0.099369 -0.008264 1.000000
0.010672 -0.086998 0.049011 1.000000
0.164614 0.074334 -0.066607 1.000000
0.149951 0.086531 0.050194 1.000000
0.244741 -0.092806 -0.036455 1.000000
0.005128 -0.002919 -0.099612 1.000000
0.090284 0.095280 -0.030123 1.000000
-0.408442 0.074314 -0.066630 1.000000
-0.140800 -0.099332 -0.008663 1.000000
0.042644 0.098260 0.018745 1.000000
0.090160 0.094343 0.033197 1.000000
0.263108 -0.033955 -0.093665 1.000000
-0.433860 0.060274 0.079873 1.000000
0.288969 -0.024949 0.096867 1.000000
-0.350089 -0.014033 -0.098661 1.000000
-0.255613 -0.003723 -0.099587 1.000000
-0.451478 0.097724 -0.020827 3.000000
0.422622 -0.054506 -0.083410 1.000000
-0.000046 0.025037 0.096909 1.000000
0.450982 0.055969 0.082937 2.000000
-0.284586 0.068505 -0.072624 1.000000
-0.457654 -0.095624 -0.028134 3.000000
0.263763 -0.065886 0.075091 1.000000
-0.278994 -0.067057 -0.073696 1.000000
-0.364882 0.076320 0.064717 1.000000
-0.426706 -0.039465 0.091839 1.000000
-0.235211 -0.073735 -0.067022 1.000000
0.386696 0.035218 -0.093294 1.000000
0.006839 0.077088 -0.063483 1.000000
-0.021990 -0.071044 0.070215 1.000000
-0.183719 0.067229 0.074114 1.000000
0.089834 -0.083557 -0.054321 1.000000
-0.303454 0.095655 -0.028831 1.000000
0.369284 -0.071223 -0.069673 1.000000
-0.420115 0.099750 0.007073 1.000000
-0.092979 -0.088627 0.045927 1.000000
0.450608 -0.052575 0.085011 2.000000
-0.440062 0.016982 -0.098231 3.000000
0.216797 -0.088675 -0.045470 1.000000
0.254863 0.075084 0.066119 1.000000
-0.294758 -0.095256 0.029763 1.000000
-0.286781 -0.075300 0.065610 1.000000
-0.052970 0.079856 -0.059914 1.000000
0.196906 -0.077860 -0.062186 1.000000
-0.186152 0.065839 -0.074976 1.000000
0.363279 0.079347 -0.060570 1.000000
0.147907 -0.034895 -0.093326 1.000000
0.459555 -0.093339 0.035339 2.000000
-0.043004 -0.053420 -0.084148 1.000000
-0.192957 -0.031896 0.094769 1.000000
0.024074 0.077966 -0.062351 1.000000
0.386820 0.014263 -0.098662 1.000000
-0.193886 -0.058825 0.080815 1.000000
0.158505 0.028812 -0.095449 1.000000
-0.008263 -0.094669 -0.031279 1.000000
-0.416763 0.097537 0.022026 1.000000
-0.170475 0.069486 -0.071643 1.000000
0.214237 -0.023069 0.097302 1.000000
0.413440 -0.057913 -0.081094 1.000000
-0.420616 -0.002931 -0.099611 1.000000
0.335261 0.004650 0.099928 1.000000
-0.221553 -0.060319 -0.079294 1.000000
0.399607 -0.068486 0.072772 1.000000
0.036384 0.098601 0.016596 1.000000
-0.320468 -0.099490 0.007353 1.000000
0.301114 0.012311 -0.098950 1.000000
-0.028492 -0.058575 -0.080645 1.000000
-0.151394 0.091238 0.041004 1.000000
-0.023114 -0.042815 0.090359 1.000000
-0.466824 0.099028 -0.013534 3.000000
-0.097380 0.038689 -0.091913 1.000000
0.363695 0.047747 0.087965 1.000000
-0.310134 -0.079415 0.060544 1.000000
0.360410 0.087675 -0.047890 1.000000
-0.418477 -0.097895 0.019381 1.000000
0.072561 0.099993 0.000563 1.000000
-0.122806 0.099489 0.009834 1.000000
0.352942 0.067692 0.073705 1.000000
0.391942 0.077424 0.063412 1.000000
0.263082 0.019986 -0.097680 1.000000
-0.447144 -0.082875 0.055686 3.000000
0.210846 -0.081641 0.057502 1.000000
0.167270 -0.029842 0.095445 1.000000
0.126099 0.020090 0.098020 1.000000
-0.206252 -0.076211 -0.064213 1.000000
-0.096940 -0.032114 0.094690 1.000000
0.155948 -0.038849 0.092106 1.000000
0.276024 0.095364 -0.029835 1.000000
0.007547 0.095490 0.029763 1.000000
-0.122967 -0.074519 0.066496 1.000000
0.258147 0.068985 -0.072145 1.000000
-0.327730 0.018627 -0.097971 1.000000
0.102111 -0.007568 -0.099377 1.000000
0.399786 -0.086988 0.049027 1.000000
-0.242258 0.042643 -0.090202 1.000000
-0.087051 -0.045190 0.089148 1.000000
0.164933 -0.081527 -0.057308 1.000000
0.447794 -0.099596 0.005777 2.000000
0.410587 0.098092 0.019542 1.000000
0.363399 0.041397 -0.090741 1.000000
-0.325090 0.085796 -0.051076 1.000000
0.308456 0.045516 -0.088739 1.000000
0.357040 -0.077355 0.063201 1.000000
0.006186 0.050514 -0.086006 1.000000
0.062048 -0.099664 -0.003239 1.000000
0.438124 0.043486 -0.089773 1.000000
-0.293983 0.044901 0.089415 1.000000
0.376203 -0.029602 -0.095152 1.000000
-0.375865 -0.096729 0.024595 1.000000
-0.371942 0.064985 0.076092 1.000000
0.135784 -0.085268 -0.051574 1.000000
-0.106759 0.082160 0.057081 1.000000
-0.226244 0.035480 0.093562 1.000000
-0.291783 -0.072684 0.068574 1.000000
0.154402 -0.004539 0.099924 1.000000
-0.090764 -0.005461 -0.099532 1.000000
-0.242778 -0.099271 0.009672 1.000000
0.265684 0.093167 0.036464 1.000000
-0.386253 -0.043126 0.090200 1.000000
-0.058067 0.099198 0.012826 1.000000
0.363517 0.055419 0.083311 1.000000
-0.375113 0.042145 0.090781 1.000000
-0.352602 0.005799 0.099891 1.000000
-0.279069 -0.086133 0.050474 1.000000
0.167915 -0.014815 -0.098538 1.000000
0.349184 0.073574 -0.067469 1.000000
0.146521 -0.022086 0.097522 1.000000
-0.301719 -0.056555 -0.082018 1.000000
0.104726 0.009237 0.099604 1.000000
-0.071583 -0.073355 -0.067453 1.000000
-0.371239 0.019728 0.098101 1.000000
-0.139077 0.099580 -0.008508 1.000000
-0.205205 -0.011961 -0.098961 1.000000
0.044425 -0.099382 0.008491 1.000000
-0.333543 0.076101 0.064966 1.000000
-0.389358 0.050870 0.086158 1.000000
0.175048 -0.099464 0.007621 1.000000
-0.032518 -0.077355 0.063200 1.000000
-0.161298 -0.058135 0.081306 1.000000
0.308311 -0.089754 -0.043353 1.000000
-0.031405 0.099893 -0.003389 1.000000
0.022594 0.099722 0.007362 1.000000
-0.270969 0.033981 0.094102 1.000000
-0.121570 -0.043289 0.090118 1.000000
0.303877 0.095171 -0.030496 1.000000
-0.010629 -0.047169 -0.087778 1.000000
-0.448225 -0.053230 -0.084262 3.000000
0.428668 0.035339 -0.093250 1.000000
-0.411467 -0.064399 -0.076040 1.000000
0.353098 -0.045603 -0.088575 1.000000
0.200464 0.004449 0.099934 1.000000
-0.392058 -0.093456 -0.034649 1.000000
0.450114 -0.047355 -0.087683 2.000000
0.215478 -0.088098 0.046965 1.000000
0.028645 0.023014 0.097366 1.000000
0.048654 -0.098883 -0.012975 1.000000
0.319397 -0.057406 0.081802 1.000000
0.209996 -0.042438 -0.090188 1.000000
0.198745 0.097081 -0.023703 1.000000
-0.213021 -0.099709 -0.001820 1.000000
0.238187 -0.088650 -0.045520 1.000000
0.290074 -0.095791 0.027924 1.000000
-0.114284 0.011390 -0.099037 1.000000
-0.434041 -0.006755 0.099816 3.000000
-0.015865 -0.072918 0.068312 1.000000
0.218839 -0.021166 -0.097364 1.000000
-0.290599 0.075173 -0.065655 1.000000
0.020082 0.051539 -0.085400 1.000000
0.032623 -0.079930 0.059881 1.000000
0.344737 0.088048 0.047522 1.000000
0.282875 0.044409 0.089666 1.000000
-0.434607 0.007726 -0.099384 3.000000
0.087251 -0.089871 -0.043122 1.000000
-0.051199 -0.009723 -0.099173 1.000000
0.419543 0.062026 0.078514 1.000000
0.279810 -0.020240 -0.097571 1.000000
0.122666 0.062268 0.078326 1.000000
-0.424193 -0.067021 -0.073728 1.000000
-0.372466 -0.024173 0.097055 1.000000
0.379303 -0.090735 -0.041264 1.000000
-0.368362 0.030670 -0.094910 1.000000
0.318501 0.076204 -0.064486 1.000000
0.162566 0.094172 -0.033309 1.000000
-0.111372 0.072535 0.068957 1.000000
0.455304 0.099825 -0.005541 2.000000
-0.019471 -0.099652 0.004000 1.000000
-0.306482 0.030219 0.095403 1.000000
-0.175684 0.074473 0.066812 1.000000
0.126439 0.041764 0.090946 1.000000
0.194183 -0.097487 0.021204 1.000000
0.218660 -0.085881 -0.050537 1.000000
-0.377909 -0.007792 -0.099355 1.000000
0.436864 0.052198 0.085373 2.000000
0.417136 0.022883 0.097396 2.000000
0.220812 -0.084772 0.052775 1.000000
0.158201 -0.023067 0.097302 1.000000
0.159598 0.092652 0.037735 1.000000
0.069638 0.096914 -0.024448 1.000000
-0.410336 0.091865 -0.039191 1.000000
0.201789 0.023891 0.097170 1.000000
0.100532 0.051209 -0.085595 1.000000
-0.186003 -0.099664 0.003613 1.000000
0.060271 0.095288 -0.030096 1.000000
-0.312928 0.062984 -0.077408 1.000000
0.124828 0.097311 0.023037 1.000000
-0.323999 -0.055274 0.083251 1.000000
0.059854 0.040454 -0.091149 1.000000
0.411621 0.052526 0.085179 1.000000
0.029449 -0.006340 -0.099493 1.000000
0.057947 -0.099724 0.001691 1.000000
0.405556 0.062789 0.077922 1.000000
0.418717 0.056427 0.082626 1.000000
-0.171884 -0.097377 0.021699 1.000000
-0.007313 -0.043983 0.089764 1.000000
-0.192826 0.099914 0.003095 1.000000
0.163075 -0.041702 0.090871 1.000000
-0.412129 -0.005725 0.099886 1.000000
0.150298 -0.040989 -0.090817 1.000000
-0.238968 0.085768 0.051485 1.000000
0.416612 -0.020569 -0.097498 1.000000
-0.145190 -0.024283 -0.096668 1.000000
0.045098 -0.053824 -0.083873 1.000000
-0.341517 0.076039 0.065036 1.000000
0.217344 0.042930 0.090419 1.000000
-0.132220 0.081991 0.057331 1.000000
0.334428 0.098586 0.016690 1.000000
-0.112881 0.018184 -0.098041 1.000000
0.410481 0.017009 -0.098227 1.000000
-0.142689 -0.079399 -0.060203 1.000000
-0.222741 -0.084807 0.052716 1.000000
0.112539 -0.085228 -0.051641 1.000000
0.409206 0.038480 -0.092004 1.000000
-0.416992 0.083860 0.054580 1.000000
0.024974 -0.045534 0.088973 1.000000
-0.397077 0.076673 0.064317 1.000000
