-0.466955 0.002574 0.002191 3.000000
-0.466955 0.007219 0.064033 3.000000
-0.466955 -0.092520 -0.013460 3.000000
-0.466955 0.071100 0.016514 3.000000
-0.466955 0.025019 0.079891 3.000000
-0.466955 -0.032959 -0.056566 3.000000
-0.466955 -0.039402 0.022651 3.000000
-0.466955 -0.067679 0.029132 3.000000
-0.466955 -0.062457 -0.012091 3.000000
-0.466955 0.053686 0.060124 3.000000
-0.466955 0.032707 0.003539 3.000000
-0.466955 0.075124 -0.012336 3.000000
-0.466955 -0.013005 0.069264 3.000000
-0.466955 -0.018856 -0.005126 3.000000
-0.466955 -0.010624 -0.091113 3.000000
-0.466955 -0.003982 -0.099008 3.000000
-0.466955 0.023194 0.028899 3.000000
-0.466955 0.080863 0.058537 3.000000
-0.466955 0.024350 0.060239 3.000000
-0.466955 0.078638 -0.049059 3.000000
-0.466955 -0.093116 0.034393 3.000000
-0.466955 0.006950 -0.081297 3.000000
-0.466955 0.013454 -0.075720 3.000000
-0.466955 0.001606 -0.064436 3.000000
-0.466955 0.032625 0.013836 3.000000
-0.466955 -0.056142 0.047999 3.000000
-0.466955 0.069438 -0.033866 3.000000
-0.466955 -0.014104 0.098251 3.000000
-0.466955 -0.086072 -0.010533 3.000000
-0.466955 0.057991 0.079691 3.000000
-0.466955 -0.070612 -0.021830 3.000000
-0.466955 0.066982 -0.005567 3.000000
-0.466955 -0.042623 0.021577 3.000000
-0.466955 0.044743 0.054312 3.000000
-0.466955 0.024817 -0.036870 3.000000
-0.466955 0.026726 -0.020638 3.000000
-0.466955 -0.098736 -0.003154 3.000000
-0.466955 -0.048329 0.078744 3.000000
-0.466955 -0.069635 -0.066911 3.000000
-0.466955 -0.012637 -0.097940 3.000000
-0.466955 -0.095917 0.023312 3.000000
-0.466955 -0.086556 -0.024098 3.000000
-0.466955 0.036735 0.066995 3.000000
-0.466955 -0.027352 -0.079549 3.000000
-0.466955 0.067680 -0.003901 3.000000
-0.466955 0.013343 -0.050141 3.000000
-0.466955 0.017683 -0.083990 3.000000
-0.466955 -0.079816 0.033915 3.000000
-0.466955 -0.096009 -0.019278 3.000000
-0.466955 -0.089305 0.022760 3.000000
-0.466955 -0.065632 0.049839 3.000000
-0.466955 0.030399 -0.079358 3.000000
-0.466955 0.033927 0.043901 3.000000
-0.466955 -0.012337 0.045619 3.000000
-0.466955 -0.077556 0.017428 3.000000
-0.466955 -0.001791 -0.018031 3.000000
-0.466955 -0.017257 0.024178 3.000000
-0.466955 -0.000995 -0.019128 3.000000
-0.466955 0.068219 -0.057383 3.000000
-0.466955 0.015963 0.052237 3.000000
-0.466955 -0.004654 -0.041931 3.000000
-0.466955 0.056671 0.073966 3.000000
-0.466955 -0.072714 0.066412 3.000000
-0.466955 -0.083515 -0.030565 3.000000
-0.466955 0.019846 0.020443 3.000000
-0.466955 -0.026237 0.086793 3.000000
-0.466955 -0.015512 -0.060768 3.000000
-0.466955 0.015363 0.000752 3.000000
-0.466955 0.044205 0.019193 3.000000
-0.466955 0.094695 0.018786 3.000000
-0.466955 0.006559 -0.035067 3.000000
-0.466955 0.012042 -0.046031 3.000000
-0.466955 -0.030250 -0.067622 3.000000
-0.466955 0.030505 -0.025106 3.000000
-0.466955 0.028133 -0.013176 3.000000
-0.466955 0.035433 -0.013213 3.000000
-0.466955 0.048735 -0.014209 3.000000
-0.466955 0.024607 -0.061228 3.000000
-0.466955 -0.055000 -0.016647 3.000000
-0.466955 0.034818 0.090241 3.000000
-0.466955 0.071782 0.047167 3.000000
-0.466955 0.066554 0.009155 3.000000
-0.466955 0.005504 -0.074775 3.000000
-0.466955 0.066941 0.071482 3.000000
-0.466955 0.013542 -0.009726 3.000000
-0.466955 0.097980 0.002421 3.000000
-0.466955 -0.001105 0.076392 3.000000
-0.466955 -0.097771 -0.009762 3.000000
-0.466955 0.053770 0.074238 3.000000
-0.466955 -0.021768 -0.050343 3.000000
-0.466955 -0.087329 0.036874 3.000000
-0.466955 -0.037852 -0.057065 3.000000
-0.466955 -0.083359 -0.003456 3.000000
-0.466955 0.033366 0.022250 3.000000
-0.466955 0.079973 0.038824 3.000000
-0.466955 0.070046 -0.019185 3.000000
-0.466955 -0.003701 -0.040460 3.000000
-0.466955 -0.074583 0.057760 3.000000
-0.466955 0.052351 0.073505 3.000000
-0.466955 -0.026596 0.069215 3.000000
-0.466955 0.099087 -0.011705 3.000000
-0.466955 -0.064012 0.067763 3.000000
-0.466955 0.037430 -0.076983 3.000000
-0.466955 0.041456 -0.063738 3.000000
-0.466955 -0.036904 0.092831 3.000000
-0.466955 0.013067 0.092870 3.000000
-0.466955 0.057930 -0.065918 3.000000
-0.466955 0.025421 -0.025327 3.000000
-0.466955 -0.023608 -0.074287 3.000000
-0.466955 0.027517 -0.057987 3.000000
-0.466955 0.012380 -0.014465 3.000000
-0.466955 -0.060679 -0.036811 3.000000
-0.466955 0.006391 0.020261 3.000000
-0.466955 0.070168 -0.031263 3.000000
-0.466955 0.030555 0.056443 3.000000
-0.466955 0.067353 -0.023317 3.000000
-0.466955 -0.007028 -0.086248 3.000000
-0.466955 -0.024333 -0.009164 3.000000
-0.466955 0.072251 -0.035839 3.000000
-0.466955 -0.092629 -0.009143 3.000000
-0.466955 -0.029133 0.009459 3.000000
-0.466955 -0.040113 0.045324 3.000000
-0.466955 0.001267 -0.038023 3.000000
-0.466955 -0.007225 0.052741 3.000000
-0.466955 -0.013967 -0.084608 3.000000
-0.466955 -0.049838 0.028023 3.000000
-0.466955 0.070151 -0.057103 3.000000
-0.466955 0.024581 -0.053653 3.000000
-0.466955 0.028859 -0.053143 3.000000
-0.466955 0.052538 0.049981 3.000000
-0.466955 0.086604 -0.004598 3.000000
-0.466955 0.038183 0.032356 3.000000
-0.466955 -0.082009 -0.045638 3.000000
-0.466955 -0.022760 -0.068623 3.000000
-0.466955 0.061551 -0.021517 3.000000
-0.466955 0.048533 0.049756 3.000000
-0.466955 -0.006043 0.048670 3.000000
-0.466955 -0.052612 0.027493 3.000000
-0.466955 0.016248 0.048607 3.000000
-0.466955 0.087379 -0.044315 3.000000
-0.466955 0.064902 -0.047272 3.000000
-0.466955 0.074251 0.007511 3.000000
-0.466955 0.054333 0.010288 3.000000
-0.466955 -0.040982 0.056719 3.000000
-0.466955 -0.052818 0.023884 3.000000
-0.466955 -0.023132 -0.025119 3.000000
-0.466955 0.000740 -0.031030 3.000000
-0.466955 0.096565 0.024480 3.000000
-0.466955 0.004103 0.024827 3.000000
-0.466955 0.061945 -0.002220 3.000000
-0.466955 0.036895 0.070052 3.000000
-0.466955 -0.003011 0.074335 3.000000
-0.466955 -0.041180 0.086713 3.000000
-0.466955 0.042422 0.080786 3.000000
-0.466955 -0.046931 -0.053333 3.000000
-0.466955 -0.081077 0.012695 3.000000
-0.466955 0.030312 -0.022213 3.000000
-0.466955 -0.008894 0.008587 3.000000
-0.466955 0.016587 0.071529 3.000000
-0.466955 0.075969 0.010144 3.000000
-0.466955 -0.001919 0.035547 3.000000
-0.466955 -0.019838 -0.085959 3.000000
-0.466955 -0.031699 -0.087858 3.000000
-0.466955 0.055485 0.070849 3.000000
-0.466955 0.053943 0.040875 3.000000
-0.466955 0.078310 -0.007033 3.000000
-0.466955 -0.019936 0.065039 3.000000
-0.466955 -0.027956 -0.012894 3.000000
-0.466955 -0.017271 0.009502 3.000000
-0.466955 0.016339 0.056434 3.000000
-0.466955 -0.028757 -0.037378 3.000000
-0.466955 0.027884 0.047717 3.000000
-0.466955 0.024089 -0.016353 3.000000
-0.466955 -0.097295 0.021784 3.000000
-0.466955 0.024980 -0.045219 3.000000
-0.466955 0.090295 0.019974 3.000000
-0.466955 0.052472 -0.053371 3.000000
-0.466955 -0.009077 -0.023788 3.000000
-0.466955 -0.041541 -0.050166 3.000000
-0.466955 0.017278 -0.004869 3.000000
-0.466955 -0.044728 -0.013211 3.000000
-0.466955 0.089372 0.015180 3.000000
-0.466955 0.067011 0.025751 3.000000
-0.466955 -0.076336 -0.060194 3.000000
-0.466955 -0.034282 -0.090548 3.000000
-0.466955 0.014539 0.016222 3.000000
-0.466955 0.025339 -0.091102 3.000000
-0.466955 0.096174 0.020453 3.000000
-0.466955 0.060036 -0.046055 3.000000
-0.466955 -0.016323 -0.072715 3.000000
-0.466955 0.032279 0.077579 3.000000
-0.466955 0.000263 -0.017699 3.000000
-0.466955 0.056860 0.021015 3.000000
-0.466955 0.007912 -0.084225 3.000000
-0.466955 -0.044202 -0.087422 3.000000
-0.466955 0.043318 0.039193 3.000000
-0.466955 0.057518 0.011580 3.000000
-0.466955 -0.009274 -0.066935 3.000000
-0.466955 0.015983 -0.031575 3.000000
-0.466955 -0.068244 0.003659 3.000000
-0.466955 0.004063 -0.000908 3.000000
-0.466955 -0.016606 0.014837 3.000000
-0.466955 -0.062034 -0.077911 3.000000
-0.466955 -0.081865 0.019345 3.000000
-0.466955 0.034876 0.073970 3.000000
-0.466955 -0.080950 -0.057580 3.000000
-0.466955 -0.003409 0.006890 3.000000
-0.466955 0.046273 -0.041380 3.000000
-0.466955 -0.051095 -0.019406 3.000000
-0.466955 0.033595 -0.078405 3.000000
-0.466955 0.099670 0.005243 3.000000
-0.466955 -0.007417 -0.093623 3.000000
-0.466955 0.011901 -0.017481 3.000000
-0.466955 -0.047468 -0.073276 3.000000
-0.466955 -0.001689 0.006199 3.000000
-0.466955 0.009433 0.091291 3.000000
-0.466955 0.018190 0.062824 3.000000
-0.466955 0.095619 0.009626 3.000000
-0.466955 0.077641 -0.061970 3.000000
-0.466955 -0.036627 -0.000593 3.000000
-0.466955 0.032111 0.074724 3.000000
-0.466955 -0.024000 0.044380 3.000000
-0.466955 -0.041528 0.033180 3.000000
-0.466955 -0.044837 0.039816 3.000000
-0.466955 -0.061311 -0.006552 3.000000
-0.466955 0.001446 -0.026361 3.000000
-0.466955 0.018433 0.025345 3.000000
-0.466955 -0.034414 -0.092292 3.000000
-0.466955 0.038884 -0.072166 3.000000
-0.466955 -0.028899 -0.068768 3.000000
-0.466955 0.039306 -0.055468 3.000000
-0.466955 -0.018268 0.096237 3.000000
-0.466955 0.059480 0.064450 3.000000
-0.466955 0.075714 -0.027494 3.000000
-0.466955 -0.031409 -0.073845 3.000000
-0.466955 -0.048465 0.031174 3.000000
-0.466955 0.010031 -0.098406 3.000000
-0.466955 -0.053914 0.030980 3.000000
-0.466955 0.054580 0.033504 3.000000
-0.466955 -0.000651 0.011988 3.000000
-0.466955 -0.037003 -0.016143 3.000000
-0.466955 0.093965 -0.005314 3.000000
-0.466955 0.049815 0.085659 3.000000
-0.466955 0.048296 0.025164 3.000000
-0.466955 -0.084294 0.001999 3.000000
-0.466955 -0.015350 -0.090006 3.000000
-0.466955 -0.049970 -0.056938 3.000000
-0.466955 0.072487 -0.059902 3.000000
-0.466955 -0.010613 -0.058530 3.000000
-0.466955 -0.022186 -0.071785 3.000000
-0.466955 -0.014217 -0.092802 3.000000
-0.466955 -0.030139 0.083704 3.000000
-0.466955 0.054860 -0.072324 3.000000
-0.466955 0.063963 -0.055400 3.000000
-0.466955 -0.074768 0.046256 3.000000
-0.466955 -0.086862 0.007381 3.000000
-0.466955 -0.003508 -0.028511 3.000000
-0.466955 0.077564 -0.012240 3.000000
-0.466955 -0.032861 -0.017571 3.000000
-0.466955 -0.036607 0.043547 3.000000
-0.466955 0.014817 -0.032654 3.000000
-0.466955 0.041257 -0.009690 3.000000
-0.466955 0.015092 -0.075785 3.000000
-0.466955 0.072109 -0.020549 3.000000
-0.466955 0.044224 0.046022 3.000000
-0.466955 0.013382 0.041894 3.000000
-0.466955 0.056142 0.026640 3.000000
-0.466955 0.029954 -0.083305 3.000000
-0.466955 -0.029627 0.095402 3.000000
-0.466955 0.045496 -0.048347 3.000000
-0.466955 -0.060913 -0.040490 3.000000
-0.466955 0.009169 -0.002992 3.000000
-0.466955 0.050415 0.021100 3.000000
-0.466955 0.059785 -0.008406 3.000000
-0.466955 0.009908 0.029184 3.000000
-0.466955 -0.011985 0.091183 3.000000
-0.466955 -0.033974 0.051658 3.000000
-0.466955 0.026766 -0.002181 3.000000
-0.466955 0.008890 -0.046881 3.000000
-0.466955 0.050783 -0.024225 3.000000
-0.466955 -0.054293 0.007052 3.000000
-0.466955 -0.055412 0.068571 3.000000
-0.466955 -0.013491 0.062638 3.000000
-0.466955 -0.021325 -0.066146 3.000000
-0.466955 0.021095 -0.015194 3.000000
-0.466955 0.021094 0.057500 3.000000
-0.466955 -0.017433 0.039342 3.000000
-0.466955 -0.024371 -0.069587 3.000000
-0.466955 -0.026972 0.057675 3.000000
-0.466955 -0.007070 -0.023897 3.000000
-0.466955 0.037023 -0.046246 3.000000
-0.466955 0.023680 -0.040232 3.000000
-0.466955 0.043772 0.049718 3.000000
-0.466955 0.076878 -0.047645 3.000000
-0.466955 0.068589 0.003712 3.000000
-0.466955 -0.065677 0.004631 3.000000
-0.466955 0.051624 -0.076904 3.000000
-0.466955 0.014793 -0.077724 3.000000
-0.466955 0.019260 -0.039240 3.000000
-0.466955 0.064532 0.072076 3.000000
-0.466955 -0.079372 0.056059 3.000000
-0.466955 0.049511 -0.007857 3.000000
-0.466955 0.014846 0.005674 3.000000
-0.466955 -0.019914 0.043688 3.000000
-0.466955 -0.016575 -0.037850 3.000000
-0.466955 -0.058948 -0.073695 3.000000
-0.466955 -0.068214 0.025036 3.000000
-0.466955 0.006315 0.075736 3.000000
-0.466955 0.098513 0.000786 3.000000
-0.466955 0.006228 -0.029183 3.000000
-0.466955 0.031904 -0.059324 3.000000
-0.466955 0.018283 -0.048302 3.000000
-0.466955 0.013352 0.008050 3.000000
-0.466955 0.022052 -0.046827 3.000000
-0.466955 -0.058130 -0.049196 3.000000
-0.466955 0.071340 -0.058199 3.000000
-0.466955 0.043460 -0.079832 3.000000
-0.466955 0.065355 0.075041 3.000000
-0.466955 -0.059177 -0.052579 3.000000
-0.466955 0.004871 0.088870 3.000000
-0.466955 -0.029830 0.058245 3.000000
-0.466955 -0.018137 0.037653 3.000000
-0.466955 -0.074503 0.019774 3.000000
-0.466955 0.040163 0.064491 3.000000
-0.466955 0.016942 0.014164 3.000000
-0.466955 -0.074203 0.048170 3.000000
-0.466955 0.092927 0.036539 3.000000
-0.466955 0.065387 0.010236 3.000000
-0.466955 -0.056461 0.030019 3.000000
-0.466955 0.032919 -0.075859 3.000000
-0.466955 -0.074403 -0.043150 3.000000
-0.466955 -0.038311 -0.021281 3.000000
-0.466955 0.005312 -0.050669 3.000000
-0.466955 0.057478 -0.042693 3.000000
-0.466955 0.064660 -0.038611 3.000000
-0.466955 -0.047004 0.027351 3.000000
-0.466955 -0.042645 0.056491 3.000000
-0.466955 0.011263 -0.004325 3.000000
-0.466955 -0.055457 -0.038941 3.000000
-0.466955 -0.013735 0.015492 3.000000
-0.466955 -0.067305 -0.056852 3.000000
-0.466955 -0.064596 -0.075328 3.000000
-0.466955 -0.056696 -0.058548 3.000000
-0.466955 -0.067095 0.037147 3.000000
-0.466955 0.049727 0.072122 3.000000
-0.466955 0.016983 0.094054 3.000000
-0.466955 0.034687 0.056290 3.000000
-0.466955 0.048039 0.054379 3.000000
-0.466955 -0.036038 0.004524 3.000000
-0.466955 0.005647 -0.032076 3.000000
-0.466955 -0.019237 -0.036346 3.000000
-0.466955 0.056874 0.065819 3.000000
-0.466955 0.002332 0.091952 3.000000
-0.466955 0.026329 0.071710 3.000000
-0.466955 -0.040696 -0.002386 3.000000
-0.466955 -0.037101 0.021054 3.000000
-0.466955 -0.046640 0.067326 3.000000
-0.466955 0.051526 -0.029868 3.000000
-0.466955 0.066022 -0.052042 3.000000
-0.466955 0.010726 0.059692 3.000000
-0.466955 -0.055349 -0.002556 3.000000
-0.466955 0.072590 0.023379 3.000000
-0.466955 -0.010605 -0.042113 3.000000
-0.466955 0.028743 -0.032953 3.000000
-0.466955 0.060018 -0.062479 3.000000
-0.466955 -0.027156 -0.084632 3.000000
-0.466955 0.035325 -0.041746 3.000000
-0.466955 0.054267 -0.006711 3.000000
-0.466955 -0.043617 -0.011360 3.000000
-0.466955 -0.055434 -0.050296 3.000000
-0.466955 -0.030014 -0.021261 3.000000
-0.466955 -0.005181 0.043788 3.000000
-0.466955 0.049555 -0.082864 3.000000
-0.466955 -0.010679 -0.098495 3.000000
-0.466955 -0.030206 -0.077769 3.000000
-0.466955 -0.074957 -0.028750 3.000000
-0.466955 0.030883 -0.037443 3.000000
-0.466955 0.024276 -0.070013 3.000000
-0.466955 0.076333 -0.013884 3.000000
-0.466955 0.091789 -0.030897 3.000000
-0.466955 -0.026467 0.016465 3.000000
-0.466955 0.051280 0.025562 3.000000
-0.466955 -0.009656 0.073630 3.000000
-0.466955 0.072419 -0.031673 3.000000
-0.466955 -0.002993 -0.052964 3.000000
-0.466955 -0.046624 0.030313 3.000000
-0.466955 0.051760 0.028662 3.000000
-0.466955 -0.029575 -0.011540 3.000000
-0.466955 -0.017096 -0.044458 3.000000
-0.466955 -0.037268 0.060547 3.000000
-0.466955 -0.023970 -0.051038 3.000000
-0.466955 -0.012308 -0.050365 3.000000
-0.466955 0.030353 -0.067656 3.000000
-0.466955 0.026292 0.004355 3.000000
-0.466955 0.061118 0.071347 3.000000
-0.466955 0.010476 -0.040402 3.000000
-0.466955 0.051269 0.024148 3.000000
-0.466955 -0.013046 -0.029169 3.000000
-0.466955 -0.069745 -0.012881 3.000000
-0.466955 -0.035523 -0.007344 3.000000
-0.466955 -0.038377 0.024586 3.000000
-0.466955 0.037845 0.074715 3.000000
-0.466955 0.053831 -0.074794 3.000000
-0.466955 0.059908 0.010753 3.000000
-0.466955 -0.022755 0.005444 3.000000
-0.466955 0.017957 -0.091413 3.000000
-0.466955 -0.034091 0.055885 3.000000
-0.466955 0.009227 -0.065348 3.000000
-0.466955 -0.068845 0.033816 3.000000
-0.466955 0.081489 -0.024000 3.000000
-0.466955 0.056744 0.054135 3.000000
-0.466955 -0.068131 -0.030922 3.000000
-0.466955 -0.020439 0.088408 3.000000
-0.466955 0.029692 0.042697 3.000000
-0.466955 -0.088027 0.003742 3.000000
-0.466955 -0.048821 0.062834 3.000000
-0.466955 -0.017447 -0.005261 3.000000
-0.466955 0.071378 0.032624 3.000000
-0.466955 0.084066 -0.034952 3.000000
-0.466955 -0.088858 -0.037997 3.000000
-0.466955 0.017966 -0.024712 3.000000
-0.466955 -0.070302 -0.024474 3.000000
-0.466955 0.033591 -0.093240 3.000000
-0.466955 0.081556 -0.002794 3.000000
-0.466955 -0.019416 0.029828 3.000000
-0.466955 -0.033828 0.011674 3.000000
-0.466955 -0.060598 -0.025999 3.000000
-0.466955 -0.000613 0.094401 3.000000
-0.466955 -0.047200 -0.043823 3.000000
-0.466955 -0.030788 -0.045295 3.000000
-0.466955 -0.000111 0.028520 3.000000
-0.466955 0.078690 -0.025768 3.000000
-0.466955 0.097034 0.011626 3.000000
-0.466955 -0.025730 -0.091342 3.000000
-0.466955 -0.031932 -0.000228 3.000000
-0.466955 0.070133 0.053111 3.000000
-0.466955 0.008993 -0.079394 3.000000
-0.466955 0.004397 0.062013 3.000000
-0.466955 0.055058 0.077341 3.000000
-0.466955 -0.015248 0.039156 3.000000
-0.466955 0.039212 0.074191 3.000000
-0.466955 0.095649 -0.028517 3.000000
-0.466955 0.029105 0.057819 3.000000
-0.466955 -0.067057 0.039683 3.000000
-0.466955 -0.000526 -0.001872 3.000000
-0.466955 -0.061868 0.053821 3.000000
-0.466955 0.027406 0.051574 3.000000
-0.466955 -0.062386 0.016056 3.000000
-0.466955 0.021291 -0.095416 3.000000
-0.466955 -0.052067 0.022602 3.000000
-0.466955 0.001098 0.091143 3.000000
-0.466955 -0.000378 -0.082747 3.000000
-0.466955 -0.001157 0.072824 3.000000
-0.466955 -0.021523 0.034294 3.000000
-0.466955 0.064884 -0.004891 3.000000
-0.466955 -0.005629 -0.029399 3.000000
-0.466955 -0.019459 -0.088124 3.000000
-0.466955 0.023352 0.056263 3.000000
-0.466955 -0.012795 -0.014994 3.000000
-0.466955 0.093411 0.034129 3.000000
-0.466955 -0.082789 -0.000380 3.000000
-0.466955 -0.041039 -0.064503 3.000000
-0.466955 -0.052838 -0.082907 3.000000
-0.466955 0.082870 -0.023416 3.000000
-0.466955 0.046484 0.023957 3.000000
-0.466955 0.056915 0.070144 3.000000
-0.466955 -0.020498 0.010191 3.000000
-0.466955 0.049772 0.006344 3.000000
-0.466955 -0.057739 0.054978 3.000000
-0.466955 -0.007431 0.004077 3.000000
-0.466955 -0.061026 -0.054394 3.000000
-0.466955 0.066092 -0.064476 3.000000
-0.466955 0.068663 0.037294 3.000000
-0.466955 0.083744 0.054432 3.000000
-0.466955 -0.026281 0.094904 3.000000
-0.466955 0.099295 0.009440 3.000000
-0.466955 -0.026394 0.028176 3.000000
-0.466955 -0.013915 0.067773 3.000000
-0.466955 0.072138 0.057365 3.000000
-0.466955 -0.090327 -0.035170 3.000000
-0.466955 0.041429 0.038139 3.000000
-0.466955 0.040216 0.028729 3.000000
-0.466955 -0.059305 -0.007198 3.000000
-0.466955 -0.017334 -0.021298 3.000000
-0.466955 -0.041676 -0.036183 3.000000
-0.466955 0.007586 -0.078348 3.000000
-0.466955 -0.003130 0.091433 3.000000
-0.466955 0.022197 0.000925 3.000000
-0.466955 -0.044572 -0.008583 3.000000
-0.466955 0.016480 -0.023978 3.000000
-0.466955 -0.064972 0.013249 3.000000
-0.466955 0.043692 -0.014175 3.000000
-0.466955 -0.013255 -0.057564 3.000000
-0.466955 -0.022299 -0.009850 3.000000
-0.466955 0.040233 0.048958 3.000000
-0.466955 0.049892 -0.063713 3.000000
-0.466955 0.006018 0.022227 3.000000
-0.466955 -0.093542 0.030422 3.000000
-0.466955 -0.002582 0.027419 3.000000
-0.466955 0.018867 0.031324 3.000000
-0.466955 -0.017224 -0.049307 3.000000
-0.466955 0.084451 -0.025865 3.000000
-0.466955 0.030081 0.073946 3.000000
-0.466955 -0.072543 -0.064241 3.000000
-0.466955 0.013138 -0.071580 3.000000
-0.466955 -0.043184 0.007648 3.000000
-0.466955 -0.006320 -0.006378 3.000000
-0.466955 0.010990 -0.013830 3.000000
-0.466955 0.042533 -0.049191 3.000000
-0.466955 0.025790 -0.023834 3.000000
-0.466955 0.062556 -0.020235 3.000000
-0.466955 -0.071442 0.018661 3.000000
-0.466955 0.042118 -0.070613 3.000000
-0.466955 -0.021137 0.095861 3.000000
-0.466955 0.098685 -0.015438 3.000000
-0.466955 0.043464 0.033696 3.000000
-0.466955 0.080883 -0.027545 3.000000
-0.466955 0.073376 -0.026050 3.000000
-0.466955 -0.026756 -0.010917 3.000000
-0.466955 0.025939 0.043838 3.000000
-0.466955 -0.028892 0.078737 3.000000
-0.466955 0.006337 -0.033319 3.000000
-0.466955 -0.002836 -0.096992 3.000000
-0.466955 -0.031765 0.016947 3.000000
-0.466955 -0.024856 -0.054072 3.000000
-0.466955 -0.001515 -0.049387 3.000000
-0.466955 -0.058636 -0.037886 3.000000
-0.466955 -0.004562 0.083783 3.000000
-0.466955 -0.011797 -0.072420 3.000000
-0.466955 -0.030428 -0.069484 3.000000
-0.466955 -0.005104 0.007479 3.000000
-0.466955 -0.035607 -0.032247 3.000000
-0.466955 -0.023542 0.075719 3.000000
-0.466955 0.033844 -0.015419 3.000000
-0.466955 -0.029936 -0.079774 3.000000
-0.466955 0.030914 -0.012923 3.000000
-0.466955 0.056962 -0.030197 3.000000
-0.466955 -0.021243 -0.061408 3.000000
-0.466955 -0.029084 -0.043482 3.000000
-0.466955 0.068409 -0.028081 3.000000
-0.466955 -0.046500 0.046230 3.000000
-0.466955 0.090802 0.012724 3.000000
-0.466955 -0.062466 0.018223 3.000000
-0.466955 0.061104 0.055295 3.000000
-0.466955 0.070513 -0.025671 3.000000
-0.466955 -0.043747 0.059697 3.000000
-0.466955 -0.003772 -0.050904 3.000000
-0.466955 -0.046827 0.037722 3.000000
-0.466955 0.043222 -0.041549 3.000000
-0.466955 0.038457 0.067816 3.000000
-0.466955 0.069800 0.004414 3.000000
-0.466955 -0.019374 -0.070895 3.000000
-0.466955 0.034683 0.067802 3.000000
-0.466955 0.069938 0.010141 3.000000
-0.466955 0.020540 0.031189 3.000000
-0.466955 0.046378 -0.023966 3.000000
-0.466955 -0.009718 -0.027203 3.000000
-0.466955 0.006942 0.010884 3.000000
-0.466955 0.024642 0.027493 3.000000
-0.466955 -0.054464 0.075717 3.000000
-0.466955 0.002007 -0.074186 3.000000
-0.466955 -0.034070 0.063188 3.000000
-0.466955 0.037793 0.012227 3.000000
-0.466955 -0.033385 -0.057890 3.000000
-0.466955 0.000607 0.044917 3.000000
-0.466955 0.063104 -0.007347 3.000000
-0.466955 0.027876 0.045347 3.000000
-0.466955 0.043600 0.031676 3.000000
-0.466955 -0.024553 -0.039233 3.000000
-0.466955 0.020176 -0.097182 3.000000
-0.466955 -0.074306 0.055689 3.000000
-0.466955 -0.048043 -0.011504 3.000000
-0.466955 0.033659 -0.063298 3.000000
-0.466955 0.039673 -0.053310 3.000000
-0.466955 0.025029 0.085699 3.000000
-0.466955 0.069152 0.054229 3.000000
-0.466955 0.014749 0.020721 3.000000
-0.466955 -0.009770 0.003121 3.000000
-0.466955 -0.032503 0.037200 3.000000
-0.466955 0.054330 -0.067785 3.000000
-0.466955 0.062442 0.042969 3.000000
-0.466955 0.064953 -0.066248 3.000000
-0.466955 0.035115 0.069610 3.000000
-0.466955 -0.018068 -0.012406 3.000000
-0.466955 0.037381 -0.086694 3.000000
-0.466955 -0.082738 0.012144 3.000000
-0.466955 -0.011429 -0.048875 3.000000
-0.466955 -0.074559 -0.017875 3.000000
-0.466955 0.002890 0.045225 3.000000
-0.466955 -0.009783 0.051232 3.000000
-0.466955 0.008321 -0.056056 3.000000
-0.466955 0.079720 -0.015330 3.000000
-0.466955 0.019865 0.035087 3.000000
-0.466955 -0.066989 -0.013092 3.000000
-0.466955 -0.018182 0.091166 3.000000
-0.466955 0.023000 -0.049954 3.000000
-0.466955 0.053922 0.049035 3.000000
-0.466955 0.059095 0.017216 3.000000
-0.466955 0.058403 -0.064015 3.000000
-0.466955 0.027812 -0.004915 3.000000
-0.466955 0.001339 -0.042711 3.000000
-0.466955 0.001031 -0.014477 3.000000
-0.466955 -0.039892 0.041328 3.000000
-0.466955 0.047054 -0.072190 3.000000
-0.466955 -0.068596 -0.028084 3.000000
-0.466955 0.071118 -0.068984 3.000000
-0.466955 0.092564 0.028077 3.000000
-0.466955 0.057481 -0.023573 3.000000
-0.466955 -0.048612 0.072344 3.000000
-0.466955 -0.033971 -0.079250 3.000000
-0.466955 -0.028813 -0.017485 3.000000
-0.466955 -0.032348 0.008859 3.000000
-0.466955 0.005572 0.041268 3.000000
-0.466955 -0.065062 -0.003507 3.000000
-0.466955 -0.033295 -0.047887 3.000000
-0.466955 -0.053678 0.013291 3.000000
-0.466955 -0.038052 -0.039271 3.000000
-0.466955 0.006507 -0.069264 3.000000
-0.466955 0.009161 0.094254 3.000000
-0.466955 -0.002563 -0.006574 3.000000
-0.466955 0.009861 0.097934 3.000000
-0.466955 -0.021668 -0.018495 3.000000
-0.466955 -0.073691 0.035354 3.000000
-0.466955 0.052457 -0.059905 3.000000
-0.466955 -0.023844 0.061914 3.000000
-0.466955 -0.055664 0.031461 3.000000
-0.466955 0.023604 0.096995 3.000000
-0.466955 -0.042351 -0.044014 3.000000
-0.466955 0.042251 0.053983 3.000000
-0.466955 0.046600 -0.012744 3.000000
-0.466955 -0.047199 0.012545 3.000000
-0.466955 -0.024109 0.053053 3.000000
-0.466955 -0.063615 0.034700 3.000000
-0.466955 0.000248 -0.000535 3.000000
-0.466955 -0.007335 -0.050361 3.000000
-0.466955 -0.043765 0.031302 3.000000
-0.466955 0.061021 -0.074898 3.000000
-0.466955 0.009573 -0.081884 3.000000
-0.466955 0.025601 -0.048988 3.000000
-0.466955 -0.025472 0.000273 3.000000
-0.466955 -0.024633 -0.052670 3.000000
-0.466955 -0.058404 0.035599 3.000000
-0.466955 -0.069712 0.045892 3.000000
-0.466955 -0.074545 0.004334 3.000000
-0.466955 0.072226 -0.063465 3.000000
-0.466955 0.035730 -0.002012 3.000000
-0.466955 -0.030453 -0.048173 3.000000
-0.466955 0.003161 0.007378 3.000000
-0.466955 -0.085725 -0.005791 3.000000
-0.466955 0.074539 -0.050136 3.000000
-0.466955 -0.071935 0.011409 3.000000
-0.466955 -0.007086 0.012631 3.000000
-0.466955 0.005853 0.099144 3.000000
-0.466955 -0.022189 -0.041682 3.000000
-0.466955 0.023517 0.021274 3.000000
-0.466955 0.079069 -0.057960 3.000000
-0.466955 -0.029603 0.065207 3.000000
-0.466955 0.027847 0.012720 3.000000
-0.466955 0.010096 -0.078231 3.000000
-0.466955 -0.050945 -0.035767 3.000000
-0.466955 -0.009059 -0.095957 3.000000
-0.466955 0.000875 0.009523 3.000000
-0.466955 0.074988 -0.002909 3.000000
-0.466955 -0.013482 -0.094293 3.000000
-0.466955 -0.023903 -0.013435 3.000000
-0.466955 0.017296 -0.022683 3.000000
-0.466955 -0.044469 -0.073869 3.000000
-0.466955 0.082371 -0.013654 3.000000
-0.466955 -0.078476 -0.056066 3.000000
-0.466955 0.051009 0.042684 3.000000
-0.466955 -0.043284 -0.031305 3.000000
-0.466955 -0.064323 -0.034462 3.000000
-0.466955 0.093965 0.022343 3.000000
-0.466955 0.021302 -0.076457 3.000000
-0.466955 -0.029524 0.070548 3.000000
-0.466955 0.056939 -0.018749 3.000000
-0.466955 -0.005480 -0.034106 3.000000
-0.466955 0.084248 -0.003669 3.000000
-0.466955 -0.017316 0.006181 3.000000
-0.466955 0.022070 -0.020701 3.000000
-0.466955 0.016495 -0.074866 3.000000
-0.466955 0.031267 0.009687 3.000000
-0.466955 0.057768 0.058774 3.000000
-0.466955 0.057324 0.071551 3.000000
-0.466955 0.046706 -0.047177 3.000000
-0.466955 0.020017 0.002692 3.000000
-0.466955 0.031410 -0.088181 3.000000
-0.466955 0.074522 0.030978 3.000000
-0.466955 0.015506 0.054068 3.000000
-0.466955 -0.026871 -0.090117 3.000000
-0.466955 0.050141 0.048873 3.000000
-0.466955 -0.041970 0.050901 3.000000
-0.466955 -0.072165 -0.051378 3.000000
-0.466955 0.079711 -0.047422 3.000000
-0.466955 -0.091765 -0.024699 3.000000
-0.466955 -0.078698 0.018368 3.000000
-0.466955 0.003920 0.044011 3.000000
-0.466955 -0.016387 0.068398 3.000000
-0.466955 -0.029038 0.072279 3.000000
-0.466955 0.025811 -0.037945 3.000000
-0.466955 0.003213 -0.010531 3.000000
-0.466955 -0.036241 -0.085033 3.000000
-0.466955 0.037133 0.035365 3.000000
-0.466955 -0.072149 -0.021910 3.000000
-0.466955 0.003514 -0.096119 3.000000
-0.466955 0.098487 0.016243 3.000000
-0.466955 0.096449 0.001318 3.000000
-0.466955 0.057707 -0.048556 3.000000
-0.466955 0.000021 -0.047144 3.000000
-0.466955 -0.049616 -0.033125 3.000000
-0.466955 0.043647 0.072435 3.000000
-0.466955 -0.008850 -0.072975 3.000000
-0.466955 -0.074883 -0.006002 3.000000
-0.466955 0.051216 0.085021 3.000000
-0.466955 0.033170 -0.084878 3.000000
-0.466955 -0.024211 -0.026916 3.000000
-0.466955 -0.032089 0.003648 3.000000
-0.466955 -0.063598 0.059623 3.000000
-0.466955 -0.077240 0.000429 3.000000
-0.466955 0.023136 -0.033076 3.000000
-0.466955 0.038416 -0.054419 3.000000
-0.466955 0.024922 -0.096459 3.000000
-0.466955 0.034669 -0.017229 3.000000
-0.466955 0.034461 0.029096 3.000000
-0.466955 -0.055936 -0.078664 3.000000
-0.466955 0.068702 -0.020606 3.000000
-0.466955 -0.056495 -0.052302 3.000000
-0.466955 -0.077266 0.006735 3.000000
-0.466955 -0.036638 0.074314 3.000000
-0.466955 0.013065 -0.081158 3.000000
-0.466955 -0.038780 -0.087913 3.000000
-0.466955 -0.065863 -0.033993 3.000000
-0.466955 0.050563 -0.000972 3.000000
-0.466955 0.073104 -0.019361 3.000000
-0.466955 -0.055003 0.008463 3.000000
-0.466955 0.050310 0.001833 3.000000
-0.466955 -0.084734 -0.040856 3.000000
-0.466955 0.001841 -0.060840 3.000000
-0.466955 0.022021 0.053301 3.000000
-0.466955 -0.000407 0.091148 3.000000
-0.466955 -0.034856 -0.086999 3.000000
-0.466955 -0.024786 0.068443 3.000000
-0.466955 0.060519 -0.003857 3.000000
-0.466955 -0.082052 0.056532 3.000000
-0.466955 0.006594 -0.079517 3.000000
-0.466955 -0.024205 0.040195 3.000000
-0.466955 -0.064337 -0.046590 3.000000
-0.466955 0.035226 0.016364 3.000000
-0.466955 0.008139 0.002643 3.000000
-0.466955 0.027377 0.059922 3.000000
-0.466955 0.058853 0.038893 3.000000
-0.466955 -0.057853 0.071165 3.000000
-0.466955 -0.026571 -0.053354 3.000000
-0.466955 -0.026010 -0.006521 3.000000
-0.466955 -0.057340 -0.073427 3.000000
-0.466955 -0.046935 -0.059595 3.000000
-0.466955 -0.097171 -0.004194 3.000000
-0.466955 0.002996 -0.068162 3.000000
-0.466955 0.042471 -0.088967 3.000000
-0.466955 0.002652 -0.052059 3.000000
-0.466955 0.000926 0.003147 3.000000
-0.466955 -0.016082 0.095996 3.000000
-0.466955 -0.048852 -0.065976 3.000000
-0.466955 -0.014856 -0.009792 3.000000
-0.466955 -0.012244 0.092875 3.000000
-0.466955 -0.030407 -0.064484 3.000000
-0.466955 0.021063 -0.027571 3.000000
-0.466955 0.060676 0.065854 3.000000
-0.466955 0.056197 -0.022228 3.000000
-0.466955 -0.062367 -0.034132 3.000000
-0.466955 0.028863 -0.043084 3.000000
-0.466955 0.072995 -0.001838 3.000000
-0.466955 -0.086954 -0.036078 3.000000
-0.466955 0.005308 -0.060253 3.000000
-0.466955 -0.053772 -0.051056 3.000000
-0.466955 -0.017804 -0.085952 3.000000
-0.466955 -0.012570 -0.080413 3.000000
-0.466955 0.020058 0.029293 3.000000
-0.466955 0.011384 -0.087954 3.000000
-0.466955 -0.040056 0.024639 3.000000
-0.466955 -0.018159 0.064356 3.000000
-0.466955 -0.026817 -0.027097 3.000000
-0.466955 -0.031499 0.039777 3.000000
-0.466955 -0.005977 0.028478 3.000000
-0.466955 0.044661 0.051009 3.000000
-0.466955 -0.036225 -0.001995 3.000000
-0.466955 -0.027414 0.087926 3.000000
-0.466955 0.006464 -0.037140 3.000000
-0.466955 -0.006657 -0.014982 3.000000
-0.466955 0.071803 -0.018891 3.000000
-0.466955 0.017219 0.052884 3.000000
-0.466955 0.080640 0.021515 3.000000
-0.466955 0.008084 0.055882 3.000000
-0.466955 0.068294 0.034240 3.000000
-0.466955 0.021502 0.049617 3.000000
-0.466955 -0.005071 -0.091270 3.000000
-0.466955 0.057877 0.042395 3.000000
-0.466955 0.035044 0.083336 3.000000
-0.466955 0.012692 -0.068356 3.000000
-0.466955 -0.005003 -0.019636 3.000000
-0.466955 -0.026930 0.018245 3.000000
-0.466955 -0.018534 -0.089189 3.000000
-0.466955 -0.090489 -0.038452 3.000000
-0.466955 0.023645 -0.088561 3.000000
-0.466955 -0.077249 -0.003589 3.000000
-0.466955 0.046458 0.035140 3.000000
-0.466955 0.005500 0.007144 3.000000
-0.466955 0.052424 -0.044732 3.000000
-0.466955 0.047905 -0.052332 3.000000
-0.466955 0.016068 -0.002327 3.000000
-0.466955 -0.010770 0.089927 3.000000
-0.466955 -0.066894 0.064933 3.000000
-0.466955 -0.073587 -0.015675 3.000000
-0.466955 -0.061466 0.055600 3.000000
-0.466955 0.037300 0.018912 3.000000
-0.466955 -0.070602 0.053414 3.000000
-0.466955 -0.025944 -0.080950 3.000000
-0.466955 -0.073557 0.024159 3.000000
-0.466955 0.016654 0.047234 3.000000
-0.466955 0.024493 0.066255 3.000000
-0.466955 -0.029739 0.021989 3.000000
-0.466955 -0.030223 0.066482 3.000000
-0.466955 -0.033367 0.010034 3.000000
-0.466955 0.058483 -0.036595 3.000000
-0.466955 -0.088990 0.002165 3.000000
-0.466955 -0.066078 0.057649 3.000000
-0.466955 0.068681 0.009170 3.000000
-0.466955 -0.010448 -0.070891 3.000000
-0.466955 0.047216 -0.056134 3.000000
-0.466955 -0.081161 -0.032803 3.000000
-0.466955 0.030120 0.037386 3.000000
-0.466955 0.041192 0.017899 3.000000
-0.466955 -0.097111 -0.020324 3.000000
-0.466955 0.077425 0.005940 3.000000
-0.466955 -0.084311 0.000385 3.000000
-0.466955 -0.080448 -0.020527 3.000000
-0.466955 0.036996 -0.002876 3.000000
-0.466955 -0.044990 0.041335 3.000000
-0.466955 0.016396 -0.056052 3.000000
-0.466955 0.058563 0.047527 3.000000
-0.466955 0.013029 -0.094115 3.000000
-0.466955 0.044500 -0.018979 3.000000
-0.466955 0.006881 0.013149 3.000000
-0.466955 -0.080355 -0.010723 3.000000
-0.466955 -0.070049 0.006356 3.000000
-0.466955 0.084984 -0.007073 3.000000
-0.466955 -0.080727 -0.006574 3.000000
-0.466955 0.042870 -0.063381 3.000000
-0.466955 0.097743 -0.005476 3.000000
-0.466955 -0.069602 -0.022905 3.000000
-0.466955 0.047852 -0.070690 3.000000
-0.466955 0.057858 -0.026841 3.000000
-0.466955 -0.038821 -0.060805 3.000000
-0.466955 -0.036185 0.049853 3.000000
-0.466955 -0.046825 -0.027150 3.000000
-0.466955 0.097965 -0.009295 3.000000
-0.466955 0.078116 -0.013658 3.000000
-0.466955 0.042345 -0.010657 3.000000
-0.466955 -0.028413 0.090569 3.000000
-0.466955 0.005374 -0.005226 3.000000
-0.466955 -0.053095 0.072501 3.000000
-0.466955 -0.085098 0.031998 3.000000
-0.466955 0.099402 -0.009278 3.000000
-0.466955 -0.022495 0.026838 3.000000
-0.466955 -0.092878 0.025640 3.000000
-0.466955 0.012615 0.078539 3.000000
-0.466955 -0.028055 -0.031911 3.000000
-0.466955 -0.075203 0.025598 3.000000
-0.466955 -0.021878 0.079732 3.000000
-0.466955 0.039988 0.066504 3.000000
-0.466955 -0.036840 0.065506 3.000000
-0.466955 0.087968 0.001526 3.000000
-0.466955 -0.056013 0.018877 3.000000
-0.466955 0.022567 0.057718 3.000000
-0.466955 0.074495 -0.000925 3.000000
-0.466955 -0.022025 0.002399 3.000000
-0.466955 -0.013079 -0.009069 3.000000
-0.466955 0.055422 0.022009 3.000000
-0.466955 -0.086224 -0.028334 3.000000
-0.466955 -0.051410 -0.046488 3.000000
-0.466955 -0.036453 -0.057728 3.000000
-0.466955 -0.058981 0.016706 3.000000
-0.466955 -0.048343 -0.072136 3.000000
-0.466955 -0.015418 0.017449 3.000000
-0.466955 -0.039552 0.048570 3.000000
-0.466955 0.082992 0.027354 3.000000
-0.466955 -0.024418 -0.000565 3.000000
-0.466955 -0.025977 -0.021808 3.000000
-0.466955 -0.077003 0.031426 3.000000
-0.466955 -0.094814 0.006725 3.000000
-0.466955 -0.007272 -0.090402 3.000000
-0.466955 -0.050926 -0.029285 3.000000
-0.466955 0.056856 0.025173 3.000000
-0.466955 -0.077596 -0.047401 3.000000
-0.466955 0.089692 0.000745 3.000000
-0.466955 0.009256 0.059065 3.000000
-0.466955 0.057265 0.027765 3.000000
-0.466955 -0.071960 -0.041995 3.000000
-0.466955 0.029238 -0.062766 3.000000
-0.466955 0.009077 0.004183 3.000000
-0.466955 -0.014306 0.002276 3.000000
-0.466955 0.040112 -0.090824 3.000000
-0.466955 0.015587 0.022054 3.000000
-0.466955 -0.007833 -0.091806 3.000000
-0.466955 -0.060538 -0.029699 3.000000
-0.466955 -0.004808 0.019267 3.000000
-0.466955 -0.004096 0.000686 3.000000
-0.466955 0.000846 0.012806 3.000000
-0.466955 0.058127 -0.045627 3.000000
-0.466955 0.032177 0.026149 3.000000
-0.466955 -0.023411 -0.087432 3.000000
-0.466955 -0.097585 0.020321 3.000000
-0.466955 -0.027256 -0.068705 3.000000
-0.466955 -0.069254 -0.071060 3.000000
-0.466955 -0.091186 -0.033110 3.000000
-0.466955 -0.019455 0.025039 3.000000
-0.466955 0.041845 0.066176 3.000000
-0.466955 -0.019748 -0.033145 3.000000
-0.466955 -0.059985 0.008151 3.000000
-0.466955 0.024379 -0.023396 3.000000
-0.466955 -0.022288 -0.038306 3.000000
-0.466955 -0.096551 -0.021658 3.000000
-0.466955 -0.074859 -0.019480 3.000000
-0.466955 0.002668 -0.043449 3.000000
-0.466955 -0.096256 0.005941 3.000000
-0.466955 -0.035071 0.027930 3.000000
-0.466955 -0.023055 -0.045720 3.000000
-0.466955 0.015003 -0.084152 3.000000
-0.466955 -0.042978 -0.056606 3.000000
-0.466955 -0.076435 -0.002228 3.000000
-0.466955 0.064644 -0.071724 3.000000
-0.466955 0.075881 -0.029262 3.000000
-0.466955 0.024660 0.002733 3.000000
-0.466955 -0.057792 -0.070183 3.000000
-0.466955 -0.002880 0.089962 3.000000
-0.466955 -0.020144 -0.050939 3.000000
-0.466955 -0.012268 -0.064725 3.000000
-0.466955 0.040239 0.046216 3.000000
-0.466955 -0.054791 -0.082561 3.000000
-0.466955 0.077503 -0.031297 3.000000
-0.466955 0.038915 0.063436 3.000000
-0.466955 -0.046033 -0.035642 3.000000
-0.466955 -0.059816 0.047991 3.000000
-0.466955 0.046328 0.059569 3.000000
-0.466955 -0.003640 0.031564 3.000000
-0.466955 0.032871 0.054361 3.000000
-0.466955 -0.060047 0.033379 3.000000
-0.466955 0.075701 0.031810 3.000000
-0.466955 -0.018489 -0.084602 3.000000
-0.466955 0.030779 -0.030398 3.000000
-0.466955 0.042934 0.064511 3.000000
-0.466955 -0.040406 -0.063080 3.000000
-0.466955 -0.057114 0.017860 3.000000
-0.466955 -0.014817 -0.088014 3.000000
-0.466955 -0.055607 -0.010859 3.000000
-0.466955 -0.005317 0.082695 3.000000
-0.466955 -0.045584 -0.056084 3.000000
-0.466955 0.022730 -0.001592 3.000000
-0.466955 -0.005931 -0.094239 3.000000
-0.466955 -0.077260 0.040571 3.000000
-0.466955 -0.050226 0.084277 3.000000
-0.466955 0.087411 0.040451 3.000000
-0.466955 -0.059104 0.009500 3.000000
-0.466955 -0.025970 0.090190 3.000000
-0.466955 0.015359 0.075897 3.000000
-0.466955 0.084690 -0.005493 3.000000
-0.466955 0.021809 -0.013752 3.000000
-0.466955 -0.084538 0.042059 3.000000
-0.466955 0.019941 0.074861 3.000000
-0.466955 0.072400 -0.068228 3.000000
-0.466955 -0.015046 -0.038675 3.000000
-0.466955 0.017535 -0.017696 3.000000
-0.466955 -0.080943 -0.048236 3.000000
-0.466955 0.062926 0.037521 3.000000
-0.466955 -0.088414 -0.026248 3.000000
-0.466955 0.043165 -0.083202 3.000000
-0.466955 -0.094658 0.025609 3.000000
-0.466955 0.076950 0.028870 3.000000
-0.466955 0.062183 0.049829 3.000000
-0.466955 0.058449 -0.039384 3.000000
-0.466955 -0.073645 0.030610 3.000000
-0.466955 0.026190 0.014399 3.000000
-0.466955 0.061532 -0.051286 3.000000
-0.466955 -0.060328 0.076681 3.000000
-0.466955 -0.039876 -0.083327 3.000000
-0.466955 -0.047989 -0.004519 3.000000
-0.466955 0.065576 -0.033445 3.000000
-0.466955 0.081897 -0.000920 3.000000
-0.466955 -0.019846 0.049738 3.000000
-0.466955 -0.051550 0.028641 3.000000
-0.466955 0.046163 0.033441 3.000000
-0.466955 -0.059019 -0.013427 3.000000
-0.466955 0.018629 -0.005700 3.000000
-0.466955 0.060106 -0.056946 3.000000
-0.466955 -0.053047 -0.049610 3.000000
-0.466955 0.087548 -0.032215 3.000000
-0.466955 -0.051073 0.008060 3.000000
-0.466955 0.059039 -0.049220 3.000000
-0.466955 0.039636 -0.083992 3.000000
-0.466955 -0.013974 0.072307 3.000000
-0.466955 0.073911 -0.031892 3.000000
-0.466955 -0.030697 -0.091208 3.000000
-0.466955 0.084455 -0.015264 3.000000
-0.466955 -0.083521 -0.019929 3.000000
-0.466955 0.029375 0.065150 3.000000
-0.466955 -0.023536 0.042761 3.000000
-0.466955 -0.080411 0.057579 3.000000
-0.466955 0.058579 0.001721 3.000000
-0.466955 -0.020969 0.032703 3.000000
-0.466955 0.009666 -0.013381 3.000000
-0.466955 -0.030770 0.054515 3.000000
-0.466955 -0.034433 -0.039231 3.000000
-0.466955 0.009355 -0.036834 3.000000
-0.466955 -0.096364 0.025201 3.000000
-0.466955 -0.014167 0.066208 3.000000
-0.466955 -0.042518 -0.008095 3.000000
-0.466955 -0.087736 0.000753 3.000000
-0.466955 0.010677 0.016367 3.000000
-0.466955 0.022654 0.093440 3.000000
-0.466955 0.029073 0.023055 3.000000
-0.466955 0.069609 0.035859 3.000000
-0.466955 0.028594 -0.089747 3.000000
-0.466955 0.014596 0.007241 3.000000
-0.466955 0.025202 0.011486 3.000000
-0.466955 -0.051738 0.073794 3.000000
-0.466955 -0.069897 -0.040655 3.000000
-0.466955 -0.049164 -0.059741 3.000000
-0.466955 -0.011738 -0.035464 3.000000
-0.466955 -0.006558 -0.062948 3.000000
-0.466955 0.018646 -0.080765 3.000000
-0.466955 -0.057128 0.078859 3.000000
-0.466955 -0.071556 -0.057684 3.000000
-0.466955 -0.064792 0.070919 3.000000
-0.466955 -0.064466 0.032873 3.000000
-0.466955 -0.045962 -0.081390 3.000000
-0.466955 0.035935 -0.069276 3.000000
-0.466955 -0.019667 0.052694 3.000000
-0.466955 0.036919 0.073272 3.000000
-0.466955 0.038976 0.030019 3.000000
-0.466955 -0.032147 0.060317 3.000000
-0.466955 0.032298 -0.025172 3.000000
-0.466955 -0.051108 -0.056082 3.000000
-0.466955 -0.052038 0.003484 3.000000
-0.466955 -0.074180 -0.063679 3.000000
-0.466955 0.032976 -0.033003 3.000000
-0.466955 0.068968 0.045580 3.000000
-0.466955 0.082288 0.003520 3.000000
-0.466955 -0.055830 0.040377 3.000000
-0.466955 -0.044511 0.034075 3.000000
-0.466955 0.064246 0.059576 3.000000
-0.466955 0.012306 -0.008797 3.000000
-0.466955 -0.083041 0.035524 3.000000
-0.466955 -0.050597 0.004492 3.000000
-0.466955 -0.008581 -0.087306 3.000000
-0.466955 0.017571 0.021591 3.000000
-0.466955 0.031068 -0.064958 3.000000
-0.466955 -0.078408 0.054228 3.000000
-0.466955 0.005977 -0.086951 3.000000
-0.466955 0.028094 0.080649 3.000000
-0.466955 0.012242 -0.060119 3.000000
-0.466955 -0.040249 -0.078119 3.000000
-0.466955 0.014511 -0.022752 3.000000
-0.466955 0.092116 0.008518 3.000000
-0.466955 -0.034442 -0.027606 3.000000
-0.466955 0.029708 -0.077579 3.000000
-0.466955 -0.042150 -0.080610 3.000000
-0.466955 0.085510 -0.002593 3.000000
-0.466955 0.090497 -0.041244 3.000000
-0.466955 -0.073244 0.012033 3.000000
-0.466955 -0.076674 -0.057616 3.000000
-0.466955 0.052946 0.066193 3.000000
-0.466955 0.032178 0.060658 3.000000
-0.466955 0.041297 -0.041495 3.000000
-0.466955 0.041029 -0.047780 3.000000
-0.466955 -0.022161 0.045771 3.000000
-0.466955 -0.027497 0.025856 3.000000
-0.466955 -0.015043 0.027543 3.000000
-0.466955 0.037979 -0.083354 3.000000
-0.466955 0.033993 -0.009683 3.000000
-0.466955 -0.007151 -0.061272 3.000000
-0.466955 0.067459 0.010479 3.000000
-0.466955 -0.082112 0.047575 3.000000
-0.466955 0.067399 -0.017965 3.000000
-0.466955 0.007032 0.014693 3.000000
-0.466955 -0.084000 -0.033018 3.000000
-0.466955 0.022074 0.092069 3.000000
-0.466955 0.073994 0.055446 3.000000
-0.466955 0.003322 -0.058674 3.000000
-0.466955 -0.009115 0.027112 3.000000
-0.466955 -0.048565 -0.005830 3.000000
-0.466955 0.059167 -0.014210 3.000000
-0.466955 0.065893 -0.039465 3.000000
-0.466955 -0.024154 -0.080505 3.000000
-0.466955 0.095146 -0.025036 3.000000
-0.466955 0.021140 0.060894 3.000000
-0.466955 0.082365 0.049187 3.000000
-0.466955 -0.002372 0.066915 3.000000
-0.466955 -0.028455 0.057914 3.000000
-0.466955 -0.042846 -0.053953 3.000000
-0.466955 -0.038892 -0.003076 3.000000
-0.466955 -0.021596 -0.034823 3.000000
-0.466955 -0.070796 -0.014014 3.000000
-0.466955 -0.014295 0.030427 3.000000
-0.466955 -0.010426 -0.017056 3.000000
-0.466955 0.030363 -0.046325 3.000000
-0.466955 -0.021155 -0.043000 3.000000
-0.466955 0.043285 -0.008855 3.000000
-0.466955 -0.050087 0.072899 3.000000
-0.466955 -0.043950 -0.028509 3.000000
-0.466955 0.042295 -0.038711 3.000000
-0.466955 0.037959 0.038873 3.000000
-0.466955 -0.067474 -0.014912 3.000000
-0.466955 -0.031022 -0.053923 3.000000
-0.466955 0.009585 -0.060266 3.000000
-0.466955 -0.012759 -0.039778 3.000000
-0.466955 -0.015171 0.021550 3.000000
-0.466955 0.079117 0.021894 3.000000
-0.466955 -0.015010 0.019884 3.000000
-0.466955 0.058645 0.045818 3.000000
-0.466955 0.024161 0.077311 3.000000
-0.466955 0.089224 0.006674 3.000000
-0.466955 -0.058780 0.063212 3.000000
-0.466955 0.017533 -0.077618 3.000000
-0.466955 0.054274 0.083564 3.000000
-0.466955 -0.038549 -0.015843 3.000000
-0.466955 -0.063201 -0.036026 3.000000
-0.466955 0.069066 0.032134 3.000000
-0.466955 0.062167 -0.013548 3.000000
-0.466955 0.052576 0.074994 3.000000
-0.466955 0.041552 -0.004037 3.000000
-0.466955 0.045411 -0.017177 3.000000
-0.466955 -0.053933 -0.001174 3.000000
-0.466955 0.059970 -0.072546 3.000000
-0.466955 0.038722 0.024056 3.000000
-0.466955 -0.002934 0.039253 3.000000
-0.466955 0.092522 -0.004943 3.000000
-0.466955 0.008494 0.072245 3.000000
-0.466955 0.018093 -0.068492 3.000000
-0.466955 0.008547 0.040757 3.000000
-0.466955 0.007056 -0.074584 3.000000
-0.466955 -0.034610 -0.037466 3.000000
-0.466955 -0.091617 -0.031491 3.000000
-0.466955 -0.036445 0.064097 3.000000
-0.466955 -0.087148 -0.012216 3.000000
-0.466955 0.023444 0.008333 3.000000
-0.466955 -0.035782 0.061377 3.000000
-0.466955 -0.076220 -0.024368 3.000000
-0.466955 0.010100 -0.044034 3.000000
-0.466955 -0.051663 0.084685 3.000000
-0.466955 -0.082306 -0.012924 3.000000
-0.466955 -0.014579 -0.037356 3.000000
-0.466955 -0.015807 0.033466 3.000000
-0.466955 0.061911 0.051403 3.000000
-0.466955 -0.012686 -0.054156 3.000000
-0.466955 -0.078948 -0.040445 3.000000
-0.466955 -0.029552 0.023390 3.000000
-0.466955 0.021256 -0.078457 3.000000
-0.466955 0.044574 -0.083493 3.000000
-0.466955 -0.037133 -0.030222 3.000000
-0.466955 0.007838 -0.066281 3.000000
-0.466955 -0.012331 0.007382 3.000000
-0.466955 -0.034077 -0.014783 3.000000
-0.466955 -0.021501 -0.052117 3.000000
-0.466955 -0.010530 0.039474 3.000000
-0.466955 -0.008729 0.092571 3.000000
-0.466955 0.043313 -0.032458 3.000000
-0.466955 -0.082083 -0.047261 3.000000
-0.466955 -0.022281 -0.092026 3.000000
-0.466955 0.002173 0.072817 3.000000
-0.466955 0.093351 0.009885 3.000000
-0.466955 0.009360 0.089180 3.000000
-0.466955 0.011578 0.058268 3.000000
-0.466955 0.016945 -0.028608 3.000000
-0.466955 0.054913 -0.008767 3.000000
-0.466955 -0.036784 0.009859 3.000000
-0.466955 0.033053 -0.060505 3.000000
-0.466955 -0.051053 0.031219 3.000000
-0.466955 0.028307 -0.035691 3.000000
-0.466955 -0.047751 0.045219 3.000000
-0.466955 -0.026086 -0.050358 3.000000
-0.466955 -0.017883 -0.070788 3.000000
-0.466955 -0.029751 -0.025907 3.000000
-0.466955 0.065507 0.066773 3.000000
-0.466955 0.068840 0.048124 3.000000
-0.466955 -0.013955 0.053407 3.000000
-0.466955 -0.067757 -0.017199 3.000000
-0.466955 0.041658 0.028184 3.000000
-0.466955 -0.008977 -0.042465 3.000000
-0.466955 0.060065 -0.028921 3.000000
-0.466955 -0.079182 0.020090 3.000000
-0.466955 0.017277 0.026609 3.000000
-0.466955 0.049605 0.083903 3.000000
-0.466955 0.047851 0.071714 3.000000
-0.466955 -0.059845 -0.020879 3.000000
-0.466955 -0.080301 -0.003529 3.000000
-0.466955 0.009555 -0.001561 3.000000
-0.466955 0.041227 0.001642 3.000000
-0.466955 0.048371 0.038108 3.000000
-0.466955 -0.079156 -0.043575 3.000000
-0.466955 -0.001780 0.092203 3.000000
-0.466955 -0.002936 -0.074778 3.000000
-0.466955 0.054170 -0.046708 3.000000
-0.466955 -0.055166 -0.043778 3.000000
-0.466955 -0.047162 0.077544 3.000000
-0.466955 0.073662 -0.023999 3.000000
-0.466955 -0.069412 0.051682 3.000000
-0.466955 0.054584 0.019638 3.000000
-0.466955 -0.064473 -0.001815 3.000000
-0.466955 -0.020333 0.011650 3.000000
-0.466955 0.088737 0.019804 3.000000
-0.466955 0.028006 -0.018438 3.000000
-0.466955 -0.012860 0.087613 3.000000
-0.466955 -0.036864 -0.041440 3.000000
-0.466955 0.015333 -0.073315 3.000000
-0.466955 -0.044382 0.021132 3.000000
-0.466955 0.008080 -0.010458 3.000000
-0.466955 -0.025642 -0.009918 3.000000
-0.466955 0.084539 0.005250 3.000000
-0.466955 -0.073005 0.061420 3.000000
-0.466955 -0.020778 -0.063074 3.000000
-0.466955 -0.089414 -0.003457 3.000000
-0.466955 -0.016203 -0.081652 3.000000
-0.466955 -0.001768 0.075148 3.000000
-0.466955 -0.098636 0.010242 3.000000
-0.466955 -0.079679 -0.036205 3.000000
-0.466955 0.087189 -0.036656 3.000000
-0.466955 -0.008306 0.081098 3.000000
-0.466955 -0.066262 -0.070680 3.000000
-0.466955 0.095859 -0.008961 3.000000
-0.466955 -0.008968 0.019155 3.000000
-0.466955 0.026210 -0.046459 3.000000
-0.466955 0.038527 0.059185 3.000000
-0.466955 0.001048 -0.018771 3.000000
-0.466955 0.016827 -0.048625 3.000000
-0.466955 -0.036155 0.002388 3.000000
-0.466955 0.096411 -0.012918 3.000000
-0.466955 -0.093841 -0.012843 3.000000
-0.466955 0.017851 0.075890 3.000000
-0.466955 0.022843 0.080559 3.000000
-0.466955 -0.060882 -0.066911 3.000000
-0.466955 0.055779 -0.005112 3.000000
-0.466955 -0.020258 -0.027784 3.000000
-0.466955 0.013155 -0.084719 3.000000
-0.466955 0.019034 -0.046671 3.000000
-0.466955 0.032997 -0.081479 3.000000
-0.466955 0.061793 -0.037087 3.000000
-0.466955 -0.044752 0.050262 3.000000
-0.466955 0.041543 0.041430 3.000000
-0.466955 -0.070206 -0.039019 3.000000
-0.466955 0.027802 -0.050924 3.000000
-0.466955 0.010986 0.048766 3.000000
-0.466955 0.065692 -0.023018 3.000000
-0.466955 -0.046710 -0.049537 3.000000
-0.466955 0.067239 -0.056119 3.000000
-0.466955 -0.083331 0.013793 3.000000
-0.466955 -0.097601 0.005543 3.000000
-0.466955 -0.025397 -0.095989 3.000000
-0.466955 -0.005808 -0.049624 3.000000
-0.466955 -0.067729 -0.059806 3.000000
-0.466955 0.006394 0.058639 3.000000
-0.466955 0.026003 0.023377 3.000000
-0.466955 -0.063852 -0.010744 3.000000
