-0.232466 0.088077 -0.047101 1.000000
-0.411039 -0.039687 -0.091381 1.000000
0.140504 0.079617 -0.060222 1.000000
0.383916 0.011941 -0.098985 1.000000
-0.106556 0.091437 0.040544 1.000000
-0.398859 -0.094887 0.031034 1.000000
0.062741 0.070537 0.070956 1.000000
0.244348 -0.073644 0.067487 1.000000
0.463669 -0.036569 0.093086 2.000000
-0.179896 -0.015541 0.098785 1.000000
0.410818 -0.004472 0.099926 1.000000
-0.020479 -0.069491 -0.071405 1.000000
-0.160572 -0.097414 0.021531 1.000000
-0.423549 -0.099437 -0.007553 1.000000
-0.089737 -0.054011 -0.083746 1.000000
0.310703 -0.096234 0.026398 1.000000
-0.248793 0.002674 0.099990 1.000000
-0.382715 -0.071388 -0.069508 1.000000
0.145759 0.072851 -0.068279 1.000000
0.048768 -0.075356 -0.065183 1.000000
-0.332113 -0.096721 -0.024270 1.000000
0.011328 -0.037998 0.092474 1.000000
-0.033935 -0.097561 -0.020510 1.000000
0.218925 -0.024824 0.096903 1.000000
-0.438468 0.003436 0.099966 3.000000
-0.305636 0.098713 -0.015521 1.000000
0.332346 -0.028524 0.095828 1.000000
-0.231561 -0.048143 -0.087270 1.000000
-0.113530 -0.088679 -0.045463 1.000000
-0.181238 0.049683 -0.086498 1.000000
-0.428212 0.064594 0.076437 1.000000
-0.032509 -0.082522 -0.055844 1.000000
-0.057746 0.044810 0.089461 1.000000
0.154926 0.077792 0.062937 1.000000
0.387602 0.091410 -0.040243 1.000000
-0.029531 -0.060840 0.079253 1.000000
0.207382 -0.098569 -0.014958 1.000000
0.205171 -0.099352 -0.008451 1.000000
0.052394 0.082999 -0.055484 1.000000
0.386550 -0.072764 -0.068123 1.000000
0.052148 0.091385 0.040663 1.000000
-0.154585 0.086856 0.049646 1.000000
-0.201138 0.029358 0.095653 1.000000
-0.164945 -0.031397 0.094948 1.000000
-0.118751 0.091596 0.040175 1.000000
0.238493 0.001445 0.100028 1.000000
0.114182 -0.084132 -0.053474 1.000000
0.427203 0.047337 -0.087811 1.000000
-0.021426 0.087760 0.048086 1.000000
0.370571 0.099340 0.011409 1.000000
0.220302 -0.093864 0.033880 1.000000
-0.166843 0.099675 0.007865 1.000000
0.278557 0.093759 -0.034455 1.000000
-0.327741 0.005938 -0.099524 1.000000
0.098235 -0.074544 0.066467 1.000000
0.249063 0.095373 0.030165 1.000000
-0.377177 0.043016 -0.090013 1.000000
0.035726 -0.018217 -0.097999 1.000000
-0.466388 0.002879 0.099983 3.000000
-0.077712 -0.068172 0.073076 1.000000
0.438935 0.098891 0.014760 2.000000
-0.026676 -0.097419 0.021511 1.000000
0.215701 -0.046446 -0.088146 1.000000
0.174232 0.019660 0.098116 1.000000
-0.060821 0.074628 0.066637 1.000000
-0.438008 -0.099766 -0.000018 3.000000
0.085671 0.082648 0.056365 1.000000
0.257195 0.039008 -0.091775 1.000000
0.210571 -0.094598 -0.031477 1.000000
-0.414714 0.010668 -0.099106 1.000000
-0.316887 0.023869 -0.096813 1.000000
-0.240976 -0.069486 -0.071410 1.000000
0.085133 0.066138 -0.074713 1.000000
-0.173146 -0.013698 0.099077 1.000000
0.268753 0.051266 0.085924 1.000000
0.307577 0.060779 0.079481 1.000000
0.376042 -0.020861 -0.097433 1.000000
0.044251 0.031339 -0.094691 1.000000
0.407082 0.036243 -0.092925 1.000000
-0.168765 -0.097043 0.023190 1.000000
0.411182 -0.067359 -0.073430 1.000000
-0.047767 -0.081210 -0.057774 1.000000
-0.374990 0.003741 -0.099593 1.000000
-0.298224 0.029226 -0.095329 1.000000
-0.001775 -0.095216 0.029903 1.000000
0.444927 0.096134 -0.027185 2.000000
0.325930 -0.030549 0.095240 1.000000
-0.161106 0.088026 0.047565 1.000000
-0.379634 0.024724 -0.096621 1.000000
0.319435 0.018944 -0.097913 1.000000
-0.166524 0.097740 -0.020753 1.000000
-0.307233 -0.099750 0.000864 1.000000
-0.283621 -0.092727 0.037022 1.000000
0.122945 0.088138 -0.046983 1.000000
-0.291250 0.091501 -0.040033 1.000000
0.221182 0.088377 -0.046513 1.000000
0.190601 -0.073712 0.067411 1.000000
-0.315829 -0.019651 -0.097703 1.000000
0.424957 0.071645 0.069847 2.000000
0.238635 0.064005 -0.076593 1.000000
0.086330 -0.081868 -0.056806 1.000000
-0.292734 -0.055740 0.082934 1.000000
-0.243372 0.089104 -0.045085 1.000000
-0.418596 0.025678 0.096722 1.000000
0.090044 0.098475 0.017388 1.000000
-0.299373 -0.069895 0.071364 1.000000
-0.280685 0.096666 0.025713 1.000000
0.050919 0.092225 -0.038359 1.000000
-0.335713 0.091754 -0.039447 1.000000
0.136099 -0.099709 -0.001821 1.000000
0.018750 -0.086327 0.050145 1.000000
-0.385044 0.059617 0.080382 1.000000
-0.255344 -0.029082 0.095666 1.000000
-0.012339 0.095222 -0.030321 1.000000
0.196939 0.068636 -0.072494 1.000000
0.243725 0.041622 -0.090644 1.000000
0.402589 -0.042321 0.090603 1.000000
0.455470 -0.002177 0.099998 2.000000
0.164962 -0.074177 0.066884 1.000000
0.190303 -0.093392 0.035191 1.000000
-0.451986 -0.098693 0.014538 3.000000
0.159463 -0.076011 -0.064440 1.000000
0.133035 -0.075339 -0.065203 1.000000
0.163325 0.026940 -0.095993 1.000000
-0.228108 0.085968 -0.050785 1.000000
-0.085127 0.058931 -0.080552 1.000000
-0.198774 0.061316 -0.078702 1.000000
-0.266519 -0.029954 0.095412 1.000000
0.403810 0.075400 0.065761 1.000000
-0.060571 0.092563 0.037940 1.000000
-0.202778 0.051332 0.085885 1.000000
-0.396846 -0.039448 0.091847 1.000000
-0.085034 0.090770 0.042084 1.000000
-0.176241 -0.091324 -0.039903 1.000000
0.377228 0.093987 -0.033823 1.000000
-0.185465 0.010449 0.099489 1.000000
0.357884 -0.097858 0.019547 1.000000
-0.155950 -0.098487 0.015843 1.000000
0.297272 0.086578 -0.049752 1.000000
0.370086 -0.073239 0.067947 1.000000
0.123403 0.024220 0.097097 1.000000
-0.210491 0.024666 -0.096634 1.000000
-0.353500 -0.099582 -0.005859 1.000000
0.350086 0.000263 0.100065 1.000000
-0.261311 -0.070269 -0.070627 1.000000
0.332752 0.065450 0.075682 1.000000
-0.186239 0.053084 -0.084486 1.000000
-0.065655 -0.059345 0.080412 1.000000
-0.331617 -0.094522 0.032051 1.000000
0.018319 0.098419 -0.017378 1.000000
0.272326 0.099843 -0.004975 1.000000
-0.116892 -0.099602 0.005580 1.000000
0.303687 -0.091981 -0.038385 1.000000
0.363220 0.097985 -0.019657 1.000000
-0.044967 -0.047345 -0.087688 1.000000
0.061197 -0.069449 0.071810 1.000000
0.343951 0.020310 -0.097608 1.000000
-0.302122 0.036600 0.093159 1.000000
-0.343723 0.094755 -0.031690 1.000000
0.429226 0.017916 0.098446 2.000000
0.280389 -0.078013 0.062351 1.000000
0.055525 0.089248 0.045166 1.000000
-0.386058 0.088142 -0.046974 1.000000
0.224657 0.076315 0.064723 1.000000
0.277214 -0.099680 0.003099 1.000000
-0.034349 0.068953 0.072540 1.000000
0.280705 0.084771 0.053171 1.000000
-0.424850 -0.039619 -0.091410 1.000000
-0.103476 -0.024511 0.096979 1.000000
0.117793 0.084951 -0.052503 1.000000
0.334255 -0.065518 0.075416 1.000000
-0.218278 0.019381 0.098178 1.000000
0.346682 -0.099312 -0.008868 1.000000
-0.085664 -0.090188 -0.042501 1.000000
0.041014 0.097990 -0.019638 1.000000
0.393242 -0.099377 0.008542 1.000000
0.335762 0.098312 -0.018056 1.000000
-0.399885 0.018740 0.098315 1.000000
-0.064200 0.097408 0.022604 1.000000
-0.020104 0.081195 -0.058139 1.000000
0.240421 -0.099712 0.002095 1.000000
0.021694 -0.096078 0.026937 1.000000
0.364164 -0.098311 -0.016587 1.000000
0.181221 0.078444 -0.061735 1.000000
-0.354624 -0.082516 0.056215 1.000000
-0.225486 -0.045642 -0.088556 1.000000
-0.096894 0.095123 -0.030663 1.000000
-0.203670 -0.027827 -0.095668 1.000000
0.221881 0.091864 -0.039193 1.000000
0.049944 0.096206 -0.026937 1.000000
0.008860 0.053532 0.084584 1.000000
0.353603 -0.028141 -0.095576 1.000000
-0.315469 -0.000260 -0.099695 1.000000
0.159520 0.055803 0.083050 1.000000
-0.446619 0.015918 0.098763 3.000000
0.346820 0.094979 0.031430 1.000000
0.388649 0.083428 -0.054854 1.000000
-0.113073 0.099834 -0.005274 1.000000
-0.289900 -0.097720 -0.019798 1.000000
-0.292891 0.095740 -0.028539 1.000000
-0.444637 0.038529 0.092345 3.000000
0.435760 -0.052557 0.085022 2.000000
0.393658 -0.099704 0.002352 1.000000
0.106399 0.006254 -0.099514 1.000000
-0.065648 -0.098713 -0.014051 1.000000
-0.286987 -0.070591 -0.070305 1.000000
0.425012 0.024768 0.096974 2.000000
0.306654 -0.066469 -0.074214 1.000000
0.162492 -0.011416 0.099376 1.000000
-0.410412 -0.045135 -0.088814 1.000000
-0.169445 0.093512 -0.035141 1.000000
0.350273 -0.066593 -0.074105 1.000000
0.347790 -0.071583 0.069675 1.000000
0.458673 0.097148 -0.023403 2.000000
-0.002260 -0.055382 0.083177 1.000000
0.433240 -0.099278 -0.009230 2.000000
0.288037 0.065939 -0.074888 1.000000
0.032516 -0.086404 -0.049652 1.000000
0.258721 0.043308 0.090226 1.000000
-0.105318 0.094149 0.033735 1.000000
0.275977 -0.089395 -0.044056 1.000000
0.200617 -0.095206 0.029937 1.000000
-0.443209 0.056487 -0.082222 3.000000
-0.247504 -0.090428 -0.041973 1.000000
0.404859 0.012265 -0.098955 1.000000
-0.429445 0.077797 0.062932 1.000000
0.364992 0.098749 0.015661 1.000000
0.057995 -0.093990 -0.033166 1.000000
0.046185 0.005125 0.099913 1.000000
0.174079 -0.034060 -0.093627 1.000000
0.060361 -0.082501 -0.055874 1.000000
0.235210 -0.039409 0.091864 1.000000
-0.347093 -0.092789 0.036864 1.000000
0.191510 0.001761 0.100018 1.000000
0.105171 -0.084542 0.053163 1.000000
0.058477 0.089325 -0.044652 1.000000
0.269905 0.016506 -0.098307 1.000000
0.044715 -0.070367 0.070891 1.000000
-0.135484 -0.045603 -0.088576 1.000000
0.443375 0.088279 0.047069 2.000000
0.200622 -0.055753 -0.082563 1.000000
0.333688 -0.083933 -0.053766 1.000000
-0.246590 0.071423 0.070069 1.000000
0.311125 -0.098910 0.013171 1.000000
-0.330603 0.077280 -0.063235 1.000000
-0.131182 0.091131 0.041250 1.000000
0.040817 -0.058056 -0.080997 1.000000
-0.102151 0.099512 0.009586 1.000000
0.228668 0.014758 -0.098583 1.000000
-0.211160 0.025825 0.096680 1.000000
0.044275 0.067468 -0.073540 1.000000
0.153473 -0.020156 0.097953 1.000000
-0.135128 0.057285 0.082043 1.000000
-0.317480 -0.038078 0.092440 1.000000
0.082983 0.076831 0.064137 1.000000
-0.155616 0.048264 -0.087337 1.000000
-0.128085 -0.075989 0.064827 1.000000
0.248650 0.093271 0.036176 1.000000
0.237803 -0.025751 -0.096271 1.000000
0.316565 0.084915 -0.052564 1.000000
-0.050606 0.095099 0.031098 1.000000
-0.279917 0.062176 0.078398 1.000000
0.396358 -0.087993 -0.046808 1.000000
0.073573 -0.079962 -0.059477 1.000000
-0.159973 0.033542 0.094260 1.000000
0.431490 -0.019086 0.098192 2.000000
0.178575 0.099736 0.007217 1.000000
0.452241 0.017717 0.098478 2.000000
0.037079 0.084712 -0.052907 1.000000
0.450151 0.099831 -0.005372 2.000000
-0.081814 -0.051772 0.085487 1.000000
0.444250 0.036909 -0.092684 2.000000
0.205747 -0.045886 -0.088431 1.000000
-0.256063 -0.068564 0.072695 1.000000
-0.389865 -0.059684 -0.079787 1.000000
0.281637 -0.068243 -0.072651 1.000000
0.242462 0.090521 -0.042298 1.000000
-0.370347 0.099411 -0.010295 1.000000
-0.096704 0.098326 -0.017965 1.000000
0.129176 -0.022550 0.097418 1.000000
0.264294 -0.098563 -0.014996 1.000000
-0.266412 -0.034177 -0.093585 1.000000
0.277653 -0.097326 0.021926 1.000000
0.184468 -0.081687 0.057434 1.000000
-0.390786 0.090062 -0.043205 1.000000
0.188416 -0.061580 0.078678 1.000000
0.102828 0.031386 0.095037 1.000000
0.023310 -0.099651 0.004030 1.000000
-0.232684 -0.001325 0.100025 1.000000
0.216674 -0.089693 0.043836 1.000000
-0.382780 0.097709 0.021256 1.000000
0.352793 0.029371 0.095650 1.000000
-0.136233 0.038488 0.092363 1.000000
-0.457140 -0.062584 -0.077537 3.000000
0.105082 -0.082380 -0.056052 1.000000
0.208715 0.097638 0.021575 1.000000
0.168706 -0.023555 -0.096831 1.000000
-0.180329 -0.054847 0.083541 1.000000
0.404784 -0.022549 -0.097055 1.000000
-0.256169 -0.067406 -0.073389 1.000000
0.039418 -0.067159 0.073969 1.000000
0.430921 -0.085792 0.051050 2.000000
0.325843 -0.099515 0.007088 1.000000
-0.036617 0.022445 -0.097131 1.000000
-0.322658 -0.090672 -0.041408 1.000000
0.199286 0.053785 -0.084059 1.000000
-0.126210 0.082591 -0.056085 1.000000
-0.446065 0.048205 -0.087369 3.000000
0.143743 -0.049748 0.086683 1.000000
0.235520 -0.091898 -0.038576 1.000000
0.091041 -0.091191 -0.040210 1.000000
-0.252244 0.075733 0.065383 1.000000
0.160520 0.060757 0.079498 1.000000
-0.119667 0.099889 0.003888 1.000000
0.073787 0.035971 0.093386 1.000000
0.169473 0.098569 0.016799 1.000000
0.392304 0.086055 -0.050637 1.000000
0.176592 0.058039 0.081530 1.000000
0.431336 0.082865 0.056044 2.000000
0.102217 -0.070945 0.070314 1.000000
0.279738 0.098267 -0.018340 1.000000
0.416185 0.087655 -0.047930 1.000000
0.305496 -0.043076 0.090226 1.000000
0.026425 0.090591 0.042498 1.000000
0.158017 -0.010063 -0.099141 1.000000
0.054905 -0.039261 -0.091565 1.000000
-0.458427 0.091017 -0.041150 3.000000
0.073050 -0.094963 0.030773 1.000000
-0.286081 0.084172 0.054122 1.000000
0.261488 -0.093346 -0.034954 1.000000
0.030825 -0.099630 0.004704 1.000000
0.084622 0.028271 -0.095606 1.000000
-0.302206 -0.094010 -0.033111 1.000000
0.383176 0.099712 0.007473 1.000000
0.458727 -0.086537 0.049791 2.000000
-0.114315 -0.047488 0.087978 1.000000
0.078078 0.088398 0.046834 1.000000
0.412956 0.023123 -0.096979 1.000000
0.006317 -0.088867 -0.045093 1.000000
-0.093668 -0.099094 0.011543 1.000000
0.457787 0.098006 0.019927 2.000000
0.071788 0.095117 0.031046 1.000000
0.346481 -0.089196 -0.044447 1.000000
-0.181449 -0.007436 0.099752 1.000000
0.022001 0.026381 -0.096156 1.000000
0.099140 -0.088952 0.045288 1.000000
0.084868 0.072914 0.068578 1.000000
-0.409448 0.071484 0.070008 1.000000
-0.110251 -0.092680 -0.036769 1.000000
-0.236210 -0.006362 0.099853 1.000000
-0.159167 -0.075744 -0.064744 1.000000
-0.052493 -0.088014 -0.046768 1.000000
-0.190690 0.070684 0.070809 1.000000
-0.091244 0.095723 -0.028596 1.000000
-0.368345 0.089340 -0.044623 1.000000
-0.132299 0.003120 0.099976 1.000000
-0.248161 0.091543 0.040299 1.000000
-0.119547 -0.029048 0.095676 1.000000
-0.074075 0.036139 -0.092962 1.000000
-0.073777 -0.075100 -0.065473 1.000000
-0.150769 0.067775 0.073632 1.000000
0.401219 0.099568 -0.008629 1.000000
-0.277697 -0.080223 -0.059139 1.000000
-0.346837 0.088369 -0.046528 1.000000
-0.398190 0.011329 0.099406 1.000000
0.303606 0.099746 0.007107 1.000000
0.332845 0.035805 0.093445 1.000000
-0.206630 -0.015733 -0.098392 1.000000
0.118156 -0.050476 0.086253 1.000000
0.226591 -0.094307 0.032649 1.000000
0.332140 0.057029 0.082216 1.000000
0.286405 0.033269 0.094359 1.000000
-0.154621 -0.020529 0.097870 1.000000
-0.099791 -0.090770 -0.041183 1.000000
0.348916 -0.075868 -0.064603 1.000000
-0.242494 0.099872 0.004418 1.000000
0.320035 -0.049748 0.086684 1.000000
0.458798 -0.056138 0.082664 2.000000
-0.413152 0.020936 0.097831 1.000000
-0.139100 0.042683 -0.090182 1.000000
-0.263451 0.005177 0.099911 1.000000
0.142920 0.066940 0.074368 1.000000
-0.119336 -0.058088 -0.080975 1.000000
-0.016879 0.070653 0.070839 1.000000
0.429965 0.081571 -0.057585 1.000000
0.030222 0.031893 -0.094491 1.000000
-0.375533 0.030011 0.095464 1.000000
0.000361 -0.083577 -0.054291 1.000000
0.012116 0.007355 0.099782 1.000000
-0.093035 0.099684 -0.007407 1.000000
0.067222 0.001888 -0.099652 1.000000
-0.316191 0.097128 -0.023494 1.000000
-0.333336 -0.099606 0.005468 1.000000
-0.195532 0.087293 0.048906 1.000000
0.171670 0.097039 0.024256 1.000000
0.144720 -0.099369 0.008628 1.000000
-0.014680 -0.090194 -0.042489 1.000000
-0.145483 -0.091847 0.039056 1.000000
0.126924 0.077150 0.063765 1.000000
0.194117 0.099180 -0.012578 1.000000
0.219376 -0.005605 0.099890 1.000000
-0.427485 -0.094671 -0.031275 1.000000
-0.220938 -0.092570 -0.037023 1.000000
0.121085 -0.042946 0.090292 1.000000
0.104653 -0.015457 0.098799 1.000000
-0.218045 -0.053078 -0.084352 1.000000
0.362349 0.028948 -0.095410 1.000000
0.280226 -0.095608 -0.028189 1.000000
-0.363082 -0.025262 -0.096413 1.000000
-0.348852 0.071360 -0.069769 1.000000
0.453481 -0.053611 0.084381 2.000000
0.399866 0.039599 0.091882 1.000000
0.262500 -0.007113 0.099782 1.000000
0.462626 -0.096650 -0.024587 2.000000
0.128443 -0.087187 -0.048328 1.000000
-0.256232 0.063011 -0.077387 1.000000
-0.429959 0.097300 0.023084 1.000000
-0.189323 0.098870 0.014898 1.000000
0.198001 -0.037557 0.092665 1.000000
0.279274 0.005631 0.099897 1.000000
0.083731 -0.077658 0.062810 1.000000
-0.352209 -0.027213 0.096209 1.000000
-0.188535 -0.097766 -0.019592 1.000000
0.190028 -0.053956 -0.083783 1.000000
-0.278392 0.054552 0.083900 1.000000
0.175607 0.019237 -0.097848 1.000000
0.267022 0.096805 0.025237 1.000000
-0.124161 0.092409 0.038298 1.000000
0.073613 0.090809 0.041996 1.000000
0.280329 -0.095914 0.027501 1.000000
-0.250021 -0.085445 0.051636 1.000000
-0.362499 0.089561 -0.044189 1.000000
-0.355096 -0.035575 -0.093081 1.000000
0.443052 -0.096896 -0.023487 2.000000
0.464625 0.088041 0.047536 2.000000
0.175198 0.065314 -0.075439 1.000000
0.150029 0.019122 0.098236 1.000000
-0.398163 0.089223 0.045216 1.000000
-0.432406 0.020368 -0.097595 3.000000
0.429736 0.098977 -0.013855 2.000000
-0.292982 0.099063 -0.013316 1.000000
-0.427238 -0.008022 -0.099334 1.000000
-0.312388 0.085748 -0.051157 1.000000
0.365131 0.059193 -0.080349 1.000000
0.283410 -0.017725 0.098439 1.000000
0.048142 0.095185 0.030814 1.000000
0.168752 0.090728 0.042182 1.000000
0.121182 -0.077392 -0.062789 1.000000
-0.408916 0.096252 0.027141 1.000000
0.271601 0.093771 -0.034422 1.000000
-0.024137 0.044238 -0.089390 1.000000
-0.111221 -0.088681 0.045821 1.000000
-0.139984 0.054239 0.084113 1.000000
-0.118147 -0.092116 -0.038073 1.000000
-0.177031 0.067696 -0.073339 1.000000
-0.417969 -0.040068 0.091578 1.000000
-0.278608 0.099269 -0.011792 1.000000
0.433862 0.007366 0.099781 2.000000
-0.055719 -0.003003 -0.099609 1.000000
0.141567 0.030833 0.095225 1.000000
-0.323332 0.095161 0.030895 1.000000
0.460691 0.099330 -0.011153 2.000000
0.151754 -0.086521 -0.049454 1.000000
0.303641 0.099011 0.014008 1.000000
0.292099 -0.023835 -0.096768 1.000000
-0.343069 0.091084 -0.040996 1.000000
0.032732 0.022680 -0.097078 1.000000
0.457209 0.081378 0.058233 2.000000
-0.423651 -0.074583 0.066423 3.000000
0.034249 -0.090604 0.041928 1.000000
0.305143 0.049022 -0.086888 1.000000
-0.466788 0.094796 0.031937 3.000000
-0.036110 -0.078354 0.061913 1.000000
0.279456 0.098729 0.015786 1.000000
0.067664 0.093040 0.036816 1.000000
-0.363823 -0.099717 0.001939 1.000000
-0.219641 0.075384 -0.065417 1.000000
0.094004 -0.058840 -0.080441 1.000000
0.029120 -0.024869 0.096890 1.000000
0.367809 -0.099604 -0.005169 1.000000
0.458416 0.087863 -0.047523 2.000000
-0.264321 -0.006880 -0.099442 1.000000
0.419742 -0.022151 -0.097144 1.000000
-0.192592 0.049279 -0.086736 1.000000
0.355653 -0.076704 -0.063654 1.000000
-0.233026 0.024264 -0.096724 1.000000
0.216982 -0.071300 -0.069596 1.000000
-0.229527 -0.020122 0.097961 1.000000
0.181227 0.033004 -0.094091 1.000000
-0.307468 -0.083144 -0.054928 1.000000
-0.085860 -0.096888 -0.023520 1.000000
0.386289 -0.078423 0.061823 1.000000
0.162857 -0.090547 0.042062 1.000000
0.255401 -0.086214 -0.049973 1.000000
-0.261628 -0.086497 0.049858 1.000000
-0.382232 -0.097648 0.020487 1.000000
-0.361641 -0.099065 -0.011484 1.000000
0.412932 0.065415 0.075713 1.000000
-0.030691 0.088890 -0.045506 1.000000
0.203275 0.008083 0.099713 1.000000
-0.132020 -0.022828 -0.096993 1.000000
-0.284428 0.019960 0.098049 1.000000
-0.137870 0.087073 0.049279 1.000000
0.021025 -0.005936 -0.099517 1.000000
-0.264379 0.016110 -0.098369 1.000000
0.046908 -0.096874 -0.023587 1.000000
-0.012673 -0.099357 0.008760 1.000000
-0.166967 0.035655 0.093499 1.000000
-0.161691 -0.098942 0.012968 1.000000
-0.334502 -0.075055 0.065888 1.000000
-0.365231 0.073808 -0.067203 1.000000
-0.244996 0.099167 0.013023 1.000000
-0.391142 0.099995 -0.000146 1.000000
0.322147 0.099837 -0.005187 1.000000
0.120323 -0.099377 -0.008184 1.000000
0.450396 -0.078495 -0.061368 2.000000
0.121176 0.099870 0.004485 1.000000
-0.125229 0.099682 -0.007420 1.000000
-0.078069 0.098705 0.015937 1.000000
0.281071 0.078272 -0.061956 1.000000
-0.237976 0.017462 -0.098155 1.000000
0.082942 -0.008081 -0.099328 1.000000
0.034647 0.025985 0.096633 1.000000
0.335129 0.054818 -0.083357 1.000000
0.162265 -0.000059 0.100064 1.000000
-0.249112 -0.077300 0.063271 1.000000
0.028157 0.038988 0.092147 1.000000
0.047918 -0.048119 -0.087284 1.000000
0.253018 0.001545 -0.099662 1.000000
-0.302656 -0.027804 0.096037 1.000000
0.087182 -0.003706 0.099950 1.000000
-0.456289 0.039222 -0.091683 3.000000
0.244937 0.049960 0.086696 1.000000
0.071562 0.048470 0.087577 1.000000
-0.010255 -0.099674 0.003287 1.000000
-0.353631 0.098546 -0.016579 1.000000
0.288064 0.086639 -0.049650 1.000000
0.225198 -0.050832 0.086042 1.000000
-0.229672 -0.071167 -0.069729 1.000000
-0.247055 0.092578 -0.037545 1.000000
0.377051 0.096990 -0.024108 1.000000
0.253406 -0.075000 0.065950 1.000000
0.289645 0.092055 0.039115 1.000000
0.024404 0.032537 -0.094259 1.000000
0.404691 -0.096373 -0.025556 1.000000
-0.416251 0.091908 -0.039092 1.000000
0.152723 0.055913 0.082975 1.000000
-0.337023 -0.098459 0.016018 1.000000
0.069559 -0.025191 -0.096433 1.000000
0.207076 0.077967 0.062713 1.000000
0.302179 0.012293 -0.098952 1.000000
-0.401402 0.048493 -0.087201 1.000000
0.019052 0.097001 -0.024062 1.000000
-0.026930 0.053292 -0.084363 1.000000
0.418623 0.081554 0.057974 1.000000
0.339207 0.026526 0.096476 1.000000
-0.000457 -0.062266 0.078146 1.000000
-0.060483 -0.070283 0.070976 1.000000
-0.025115 0.096268 0.027086 1.000000
0.308527 -0.018337 0.098342 1.000000
0.295168 0.000880 0.100046 1.000000
-0.112172 0.034109 0.094056 1.000000
0.250639 -0.099122 -0.010881 1.000000
0.255046 -0.086373 0.050068 1.000000
0.280129 -0.091649 0.039515 1.000000
0.406053 0.099826 0.005898 1.000000
-0.399197 0.092318 0.038507 1.000000
0.425921 -0.024120 0.097067 2.000000
0.224766 -0.028998 0.095690 1.000000
-0.460529 -0.067087 0.074032 3.000000
0.465305 0.033786 0.094172 2.000000
0.345243 -0.096678 -0.024460 1.000000
0.424554 -0.002751 0.099980 2.000000
0.449994 0.030399 -0.094988 2.000000
-0.239668 0.072316 0.069176 1.000000
-0.028661 -0.092265 -0.037729 1.000000
-0.309794 0.096195 0.027337 1.000000
0.093916 -0.069313 0.071946 1.000000
-0.320775 0.098202 0.019049 1.000000
0.226183 0.020720 -0.097516 1.000000
-0.224210 -0.098527 -0.015226 1.000000
-0.090811 0.054206 -0.083773 1.000000
0.419190 0.042207 0.090754 2.000000
0.195408 0.047970 -0.087488 1.000000
0.262999 0.052024 -0.085113 1.000000
-0.201792 0.099988 -0.000376 1.000000
0.300214 -0.097717 -0.019815 1.000000
0.366329 0.099326 -0.011187 1.000000
-0.022325 -0.017236 -0.098154 1.000000
0.053875 0.098071 0.019636 1.000000
-0.097491 -0.080052 0.059723 1.000000
-0.331026 -0.071496 -0.069400 1.000000
0.222727 0.048137 -0.087403 1.000000
0.328604 -0.079661 -0.059864 1.000000
0.151946 0.016775 -0.098264 1.000000
0.308102 -0.097803 0.019789 1.000000
-0.246997 -0.094444 0.032269 1.000000
0.364473 -0.050895 0.086006 1.000000
0.130794 0.094726 -0.031769 1.000000
-0.405336 0.048889 0.087329 1.000000
0.029430 0.092644 0.037755 1.000000
0.026669 0.092867 -0.036876 1.000000
0.208638 -0.032260 -0.094275 1.000000
0.036194 0.046270 0.088717 1.000000
0.080613 -0.087502 0.048134 1.000000
-0.368944 0.049655 0.086876 1.000000
0.439683 -0.024013 -0.096728 1.000000
-0.333260 -0.070720 0.070539 1.000000
0.355487 -0.062510 -0.077594 1.000000
-0.105535 0.068481 -0.072646 1.000000
0.176441 -0.090982 -0.040693 1.000000
-0.237927 0.057404 0.081962 1.000000
0.294915 -0.092890 -0.036221 1.000000
0.229338 -0.094093 -0.032881 1.000000
-0.243783 0.098293 -0.018175 1.000000
0.187480 0.081184 0.058518 1.000000
-0.013705 -0.080014 0.059772 1.000000
0.139610 -0.030762 -0.094814 1.000000
-0.041646 0.074521 -0.066395 1.000000
-0.382466 0.073158 0.068304 1.000000
0.175661 0.098434 0.017649 1.000000
0.020826 -0.089864 -0.043136 1.000000
0.046916 0.077368 -0.063122 1.000000
0.385976 -0.056353 -0.082155 1.000000
-0.429178 -0.017034 -0.098186 1.000000
0.426623 0.004429 0.099934 2.000000
0.371589 -0.036086 0.093260 1.000000
0.418901 -0.067884 -0.072967 1.000000
0.442906 -0.049569 0.086790 2.000000
0.206003 0.091679 -0.039622 1.000000
-0.121908 0.037812 0.092656 1.000000
0.222216 -0.068155 -0.072729 1.000000
-0.417097 -0.076627 0.064105 1.000000
0.289303 0.069715 0.071777 1.000000
-0.377044 -0.075318 0.065589 1.000000
0.121088 -0.042912 -0.089946 1.000000
-0.397031 0.009126 -0.099251 1.000000
0.078175 -0.051426 0.085691 1.000000
-0.339433 0.048420 0.087607 1.000000
-0.149107 0.083860 -0.054217 1.000000
-0.290331 -0.092729 0.037018 1.000000
-0.105948 0.021255 0.097760 1.000000
0.265098 0.091411 -0.040241 1.000000
-0.268364 0.077600 0.063185 1.000000
0.111659 0.007628 0.099756 1.000000
-0.216271 -0.090311 -0.042244 1.000000
0.309805 -0.006073 -0.099513 1.000000
-0.303290 0.026017 -0.096261 1.000000
-0.023982 0.093928 -0.033986 1.000000
0.223960 0.071996 0.069496 1.000000
-0.385670 0.047893 0.087890 1.000000
-0.091262 -0.058452 0.081091 1.000000
0.431713 0.095006 -0.030993 2.000000
-0.137959 0.004391 -0.099573 1.000000
-0.116392 -0.063791 -0.076575 1.000000
0.138048 -0.038564 -0.091866 1.000000
-0.346323 0.034919 -0.093402 1.000000
0.230512 0.038239 0.092471 1.000000
-0.176953 -0.097759 -0.019627 1.000000
0.353791 0.010879 -0.099086 1.000000
0.091320 0.045737 -0.088626 1.000000
-0.094688 -0.095430 0.029166 1.000000
-0.195974 -0.084860 0.052626 1.000000
-0.046256 0.061551 -0.078520 1.000000
-0.119340 -0.006338 -0.099493 1.000000
-0.038675 0.084642 -0.053026 1.000000
0.232233 0.014471 0.098992 1.000000
0.138183 -0.054134 -0.083663 1.000000
0.196444 0.099376 0.011026 1.000000
-0.011676 -0.007644 -0.099369 1.000000
-0.049312 0.081905 0.057457 1.000000
0.077470 0.048246 -0.087347 1.000000
-0.446279 0.080906 -0.058560 3.000000
-0.148339 -0.099642 -0.003954 1.000000
0.461170 -0.078341 0.061929 2.000000
-0.025370 0.037263 0.092893 1.000000
0.077864 -0.075748 -0.064739 1.000000
-0.387036 -0.098367 -0.016235 1.000000
-0.293746 -0.098738 -0.013895 1.000000
-0.018692 -0.096951 0.023601 1.000000
0.234313 -0.029261 0.095614 1.000000
-0.228502 0.090310 0.043081 1.000000
-0.138090 0.099278 -0.011702 1.000000
0.109907 -0.070841 0.070418 1.000000
0.144017 0.098602 0.016586 1.000000
0.303346 -0.096409 -0.025435 1.000000
-0.249645 0.098732 -0.015406 1.000000
-0.100555 0.096728 -0.025140 1.000000
-0.285139 0.057379 -0.081616 1.000000
-0.032904 0.091555 -0.039909 1.000000
0.398843 0.088023 -0.047207 1.000000
-0.195762 0.099062 0.013683 1.000000
-0.003500 -0.029055 0.095674 1.000000
0.170802 -0.098119 0.018165 1.000000
-0.304679 0.091221 -0.040679 1.000000
-0.199910 0.099643 -0.007834 1.000000
0.273569 0.062702 0.077989 1.000000
-0.112646 0.013713 -0.098749 1.000000
-0.396601 0.061347 0.079041 1.000000
0.425957 0.036648 -0.092779 1.000000
0.088797 0.010399 0.099494 1.000000
0.367816 0.066323 0.074912 1.000000
-0.351062 -0.019003 -0.097848 1.000000
0.144731 -0.042134 -0.090322 1.000000
-0.047697 -0.098895 -0.012900 1.000000
0.086071 0.042808 -0.090119 1.000000
0.412758 -0.011016 0.099413 1.000000
0.384869 -0.099722 0.001759 1.000000
0.403827 -0.094403 -0.032019 1.000000
-0.093025 0.085871 0.051312 1.000000
0.277191 -0.010880 -0.099063 1.000000
-0.392902 -0.097770 0.019938 1.000000
-0.027080 -0.073282 -0.067536 1.000000
0.120052 -0.099763 -0.000108 1.000000
-0.004692 -0.060103 -0.079461 1.000000
-0.108946 0.094480 -0.032454 1.000000
-0.153359 -0.070143 0.071116 1.000000
0.351460 -0.096959 0.023568 1.000000
0.063416 0.075035 0.066175 1.000000
0.349454 0.039923 -0.091379 1.000000
-0.062785 -0.099271 0.009665 1.000000
-0.373949 0.097768 0.020990 1.000000
-0.388278 0.099089 0.013513 1.000000
-0.436316 -0.099535 0.006877 3.000000
-0.348901 -0.070200 0.071058 1.000000
0.243488 0.012121 -0.098968 1.000000
0.359822 0.080728 -0.058789 1.000000
-0.352052 -0.090005 -0.042860 1.000000
0.258408 -0.062903 -0.077290 1.000000
0.411141 0.074894 0.066334 1.000000
-0.112707 -0.011214 -0.099032 1.000000
-0.127627 0.087172 0.049111 1.000000
-0.055125 0.099653 0.008092 1.000000
0.348267 0.043856 0.089947 1.000000
0.056400 0.099699 -0.007246 1.000000
0.193502 -0.058657 -0.080583 1.000000
-0.135677 0.081899 -0.057103 1.000000
0.285100 -0.099656 -0.003497 1.000000
-0.395128 -0.086115 0.050504 1.000000
-0.419793 0.066488 0.074766 1.000000
0.126196 0.089246 0.045170 1.000000
0.360829 -0.040663 -0.090958 1.000000
0.081918 -0.078686 -0.061122 1.000000
0.297516 -0.063864 0.076874 1.000000
0.181324 0.021317 -0.097383 1.000000
-0.026263 -0.029526 0.095537 1.000000
0.133491 0.012316 -0.098950 1.000000
0.115915 0.047411 0.088136 1.000000
-0.262805 -0.077825 0.062595 1.000000
-0.043561 0.096288 -0.026653 1.000000
0.224303 -0.087026 0.048963 1.000000
0.285143 0.037634 -0.092370 1.000000
0.462343 -0.099264 -0.009380 2.000000
-0.271518 0.028820 -0.095447 1.000000
0.313306 0.087440 0.048658 1.000000
-0.244092 0.094445 -0.032552 1.000000
0.302593 0.094727 0.032131 1.000000
-0.062603 0.055602 -0.082824 1.000000
-0.415534 0.083550 0.055037 1.000000
-0.006442 0.010629 0.099472 1.000000
0.430200 0.054477 0.083951 2.000000
-0.418876 0.050814 -0.085828 1.000000
-0.412725 -0.099693 0.002690 1.000000
0.357448 0.062515 0.078135 1.000000
0.151550 0.068598 0.072895 1.000000
0.069089 -0.018497 -0.097954 1.000000
-0.421396 0.082120 -0.056778 3.000000
0.211539 -0.067373 0.073781 1.000000
-0.371094 -0.053128 -0.084322 1.000000
0.063455 -0.052902 0.084818 1.000000
-0.050701 0.065082 0.076006 1.000000
0.089866 0.023024 -0.097001 1.000000
-0.436084 0.099993 -0.000216 3.000000
0.176312 0.052362 0.085276 1.000000
-0.339974 0.099897 0.003627 1.000000
-0.261115 0.033825 0.094158 1.000000
0.031474 -0.095004 0.030632 1.000000
0.266304 -0.098854 0.013525 1.000000
0.015230 -0.064522 0.076294 1.000000
0.261374 0.099849 0.005165 1.000000
0.288835 -0.077410 0.063129 1.000000
0.433614 0.037811 0.092656 2.000000
0.300261 0.060783 -0.079115 1.000000
-0.024535 0.059221 0.080690 1.000000
-0.177698 -0.094986 0.030693 1.000000
0.204690 0.037781 -0.092306 1.000000
-0.183113 0.079645 0.060548 1.000000
-0.032403 0.068697 -0.072432 1.000000
0.214506 0.008742 -0.099288 1.000000
-0.257571 -0.092167 -0.037955 1.000000
-0.139116 -0.089894 0.043440 1.000000
0.189202 -0.016409 0.098648 1.000000
-0.131276 -0.009891 -0.099157 1.000000
-0.123939 0.080452 0.059509 1.000000
-0.459409 0.058723 -0.080703 3.000000
-0.057867 -0.094547 -0.031620 1.000000
0.160701 0.024430 0.097050 1.000000
0.052230 -0.097302 0.022033 1.000000
0.208205 -0.017839 0.098421 1.000000
-0.289706 0.067516 0.073860 1.000000
0.076733 0.099141 0.013182 1.000000
-0.281141 -0.030223 0.095334 1.000000
-0.274407 -0.099499 0.007257 1.000000
-0.093695 -0.097127 0.022816 1.000000
0.327419 0.031578 0.094967 1.000000
-0.037641 -0.098522 0.015621 1.000000
-0.041178 0.037268 0.092891 1.000000
-0.219711 0.026841 0.096385 1.000000
-0.245722 -0.092957 -0.036036 1.000000
0.074074 -0.084778 0.052764 1.000000
-0.242603 -0.000336 0.100056 1.000000
-0.354654 -0.074322 0.066719 1.000000
0.235439 -0.094736 0.031456 1.000000
-0.259213 -0.095209 0.029928 1.000000
0.332012 0.041777 0.090940 1.000000
0.039171 -0.099678 0.003176 1.000000
-0.244980 0.099839 -0.005099 1.000000
-0.099084 0.082812 0.056123 1.000000
-0.291144 0.099731 0.007273 1.000000
-0.399270 -0.088397 0.046377 1.000000
-0.041178 0.032159 -0.094395 1.000000
-0.291222 0.086697 0.049914 1.000000
0.464044 -0.037241 -0.092439 2.000000
0.269013 -0.062076 -0.077931 1.000000
0.458020 -0.049484 -0.086477 2.000000
-0.025147 -0.030168 -0.094988 1.000000
-0.227090 0.075372 0.065793 1.000000
0.049924 -0.015423 0.098804 1.000000
0.398245 0.066818 0.074475 1.000000
0.123233 0.024119 -0.096756 1.000000
0.066767 0.023027 -0.097001 1.000000
-0.178733 -0.027854 -0.095660 1.000000
-0.132048 0.081845 0.057545 1.000000
0.443864 0.099467 0.010060 2.000000
-0.182595 0.046409 0.088647 1.000000
-0.064458 0.011208 -0.099055 1.000000
-0.157793 0.027869 0.096086 1.000000
0.256689 0.050362 -0.086096 1.000000
-0.086174 0.094529 -0.032318 1.000000
-0.058913 0.064587 -0.076080 1.000000
-0.061585 -0.082542 -0.055814 1.000000
0.133830 -0.079493 -0.060081 1.000000
0.253105 -0.092890 0.036585 1.000000
-0.167720 -0.076191 0.064599 1.000000
-0.448340 -0.001870 -0.099645 3.000000
0.121665 -0.095382 -0.028967 1.000000
0.113029 -0.038572 0.092226 1.000000
0.367649 -0.089666 0.043888 1.000000
-0.234333 0.036290 -0.092908 1.000000
0.253423 -0.035626 0.093426 1.000000
-0.014429 -0.084299 -0.053211 1.000000
-0.375547 0.059612 -0.080023 1.000000
-0.337564 0.084997 -0.052426 1.000000
0.202565 -0.096079 -0.026569 1.000000
-0.392515 -0.082716 0.055920 1.000000
0.202451 -0.059747 0.080100 1.000000
0.062679 -0.099756 0.000688 1.000000
-0.397479 -0.063316 -0.076969 1.000000
0.218198 0.099952 -0.001503 1.000000
0.295755 -0.006565 -0.099471 1.000000
0.095418 -0.043058 0.090235 1.000000
0.221502 -0.024360 -0.096650 1.000000
-0.451874 -0.005628 0.099889 3.000000
0.291429 0.080186 0.059851 1.000000
0.413115 -0.090528 0.042104 1.000000
0.304818 -0.021108 -0.097377 1.000000
-0.071276 0.099997 0.000440 1.000000
-0.262692 0.099366 -0.010766 1.000000
-0.320138 -0.082859 -0.055347 1.000000
0.308759 -0.072521 -0.068375 1.000000
0.052187 -0.098485 -0.015491 1.000000
0.227061 0.046071 0.088819 1.000000
0.355100 0.082298 0.056879 1.000000
-0.016486 -0.087617 -0.047546 1.000000
0.247322 -0.065824 -0.074783 1.000000
-0.057451 0.058782 -0.080663 1.000000
-0.424529 0.025029 0.096911 1.000000
-0.200228 -0.098140 0.018033 1.000000
-0.001630 0.099710 0.007493 1.000000
-0.208517 0.087375 -0.048404 1.000000
0.089007 0.094761 0.032036 1.000000
-0.071370 0.083214 0.055530 1.000000
-0.312636 0.014485 0.098990 1.000000
-0.456317 -0.057003 0.082076 3.000000
0.389567 0.093799 0.034707 1.000000
0.264939 -0.094276 0.032734 1.000000
-0.093668 -0.091639 0.039538 1.000000
-0.231095 0.020597 0.097907 1.000000
0.423330 -0.053063 -0.084360 1.000000
-0.088081 -0.000662 0.100046 1.000000
-0.187436 -0.090718 -0.041302 1.000000
-0.121792 0.061542 0.078889 1.000000
0.079404 0.098080 -0.019234 1.000000
-0.047589 -0.057469 -0.081397 1.000000
-0.316791 0.055315 0.083382 1.000000
0.162014 -0.069638 -0.071258 1.000000
-0.098809 0.099904 -0.003054 1.000000
0.407175 0.092761 -0.037120 1.000000
0.059032 -0.098910 -0.012810 1.000000
0.448049 0.098087 -0.019201 2.000000
-0.374879 0.087544 -0.048120 1.000000
0.361769 -0.074057 -0.066657 1.000000
0.388139 0.099757 -0.006631 1.000000
-0.334231 -0.036839 0.092976 1.000000
0.238953 -0.034760 0.093738 1.000000
0.268247 -0.097536 0.020987 1.000000
-0.465679 -0.083107 -0.054982 3.000000
-0.407624 -0.034138 -0.093599 1.000000
-0.341968 -0.090766 0.041554 1.000000
-0.169930 -0.093138 0.035896 1.000000
-0.179878 0.010106 -0.099159 1.000000
-0.377069 0.065108 -0.075620 1.000000
-0.131096 0.079419 -0.060477 1.000000
0.079985 0.025294 0.096834 1.000000
-0.101313 0.057341 -0.081642 1.000000
-0.309847 -0.058355 -0.080794 1.000000
0.017123 0.086137 -0.050498 1.000000
-0.157244 0.072053 0.069439 1.000000
0.227055 0.002919 0.099982 1.000000
0.120953 -0.093428 0.035090 1.000000
-0.320099 0.058869 -0.080599 1.000000
0.188298 -0.097504 0.021127 1.000000
0.379657 -0.074316 0.066726 1.000000
-0.251899 -0.088869 0.045452 1.000000
-0.167480 0.095885 -0.028042 1.000000
0.050270 0.048433 0.087600 1.000000
-0.334346 0.091686 0.039968 1.000000
-0.403443 0.099503 0.009679 1.000000
-0.410526 0.062050 0.078495 1.000000
-0.086476 -0.014838 0.098897 1.000000
-0.277347 0.094677 0.032269 1.000000
0.430269 0.052573 -0.084788 1.000000
0.443932 0.030674 0.095271 2.000000
-0.384778 0.093387 -0.035488 1.000000
-0.356884 -0.097911 -0.018946 1.000000
0.046131 0.022059 0.097580 1.000000
0.199837 -0.062633 -0.077499 1.000000
0.125827 -0.081851 0.057193 1.000000
-0.344726 -0.079736 -0.059768 1.000000
0.321361 0.098455 0.017518 1.000000
0.062047 0.055079 0.083542 1.000000
-0.162932 0.034609 -0.093513 1.000000
0.067261 0.030187 0.095413 1.000000
-0.129965 -0.095035 0.030525 1.000000
0.093106 0.064545 -0.076117 1.000000
0.004552 0.037640 -0.092367 1.000000
-0.084950 0.038196 0.092489 1.000000
0.444844 -0.022811 0.097360 2.000000
0.174195 -0.007876 0.099710 1.000000
0.335516 0.041237 -0.090811 1.000000
-0.245976 -0.030424 -0.094913 1.000000
0.186854 -0.099692 -0.002354 1.000000
-0.253302 0.041913 0.090881 1.000000
0.457551 0.088876 0.045896 2.000000
0.270848 0.050638 -0.085933 1.000000
-0.203700 0.067089 0.074237 1.000000
0.082949 0.094745 0.032079 1.000000
-0.445316 -0.058197 -0.080901 3.000000
-0.210781 -0.020697 -0.097469 1.000000
-0.407468 -0.092797 0.036841 1.000000
-0.150856 0.026590 0.096458 1.000000
0.093459 0.099998 -0.000053 1.000000
-0.007888 -0.098502 0.015746 1.000000
-0.281008 -0.048433 0.087462 1.000000
0.270035 -0.033158 -0.093952 1.000000
-0.409977 -0.013516 -0.098743 1.000000
0.286182 0.075226 -0.065596 1.000000
-0.440031 0.066843 0.074453 3.000000
0.212320 -0.007480 0.099748 1.000000
0.171117 -0.061548 -0.078340 1.000000
0.196204 -0.095250 -0.029424 1.000000
0.233814 -0.099722 0.001770 1.000000
0.174209 -0.098906 0.013197 1.000000
0.236310 -0.069660 -0.071236 1.000000
0.027268 0.094964 0.031473 1.000000
-0.210181 -0.031035 0.095078 1.000000
-0.226769 -0.095888 0.027591 1.000000
0.464215 -0.098145 -0.017639 2.000000
-0.153834 0.099878 0.004237 1.000000
0.181327 -0.067149 0.073978 1.000000
0.429196 -0.049186 0.087016 2.000000
-0.067867 -0.002379 -0.099629 1.000000
-0.106012 0.064998 0.076080 1.000000
0.273834 0.036721 -0.092753 1.000000
-0.379565 0.051379 0.085857 1.000000
0.301659 0.025191 -0.096501 1.000000
0.381599 -0.026278 0.096481 1.000000
-0.242846 -0.044964 0.089264 1.000000
-0.160022 -0.053065 0.084722 1.000000
-0.334840 0.014695 0.098956 1.000000
0.415605 0.018005 -0.098069 1.000000
-0.243357 -0.020346 0.097911 1.000000
-0.020679 0.052126 -0.085053 1.000000
0.283422 0.099916 -0.002667 1.000000
0.197859 0.052347 0.085285 1.000000
0.363927 -0.035768 -0.093012 1.000000
-0.039765 -0.098877 -0.013017 1.000000
-0.205138 -0.050835 0.086041 1.000000
-0.081736 -0.012885 -0.098843 1.000000
-0.015034 0.061097 -0.078871 1.000000
-0.071935 0.072894 -0.068236 1.000000
-0.465889 0.062163 -0.078045 3.000000
-0.281976 -0.072824 -0.068055 1.000000
0.073484 -0.099384 -0.008109 1.000000
-0.270886 -0.088854 -0.045119 1.000000
-0.182645 -0.068266 -0.072630 1.000000
-0.105566 0.039414 0.091962 1.000000
-0.446269 0.026953 -0.095989 3.000000
-0.204434 0.084986 -0.052445 1.000000
0.386726 0.082562 0.056490 1.000000
0.076212 0.004898 0.099920 1.000000
-0.157158 0.011424 -0.099034 1.000000
0.043847 0.095957 -0.027792 1.000000
-0.209103 0.088007 0.047601 1.000000
-0.107466 -0.045213 -0.088774 1.000000
0.063053 -0.026727 0.096350 1.000000
-0.229464 0.097838 -0.020317 1.000000
0.296061 -0.098590 -0.014829 1.000000
-0.300355 -0.098670 -0.014324 1.000000
-0.283373 -0.088254 -0.046295 1.000000
0.415142 -0.067395 0.073762 2.000000
0.236338 -0.057347 -0.081479 1.000000
-0.222296 -0.064701 -0.075773 1.000000
-0.062174 -0.073935 -0.066795 1.000000
-0.364426 0.081799 0.057613 1.000000
-0.431806 0.044657 -0.089176 3.000000
-0.059882 0.071190 -0.069940 1.000000
-0.444822 -0.018067 -0.098022 3.000000
0.184229 -0.080126 -0.059265 1.000000
-0.365341 0.051472 -0.085440 1.000000
-0.372915 -0.025831 -0.096248 1.000000
0.436018 -0.041162 -0.090742 1.000000
-0.018892 0.085436 -0.051684 1.000000
0.319185 0.096773 -0.024984 1.000000
0.323669 0.044399 0.089671 1.000000
-0.083575 -0.058837 0.080806 1.000000
-0.321483 -0.099637 0.004468 1.000000
0.311799 0.077693 -0.062703 1.000000
0.201237 0.023631 0.097228 1.000000
0.398638 -0.052445 -0.084726 1.000000
-0.043278 0.099876 0.004308 1.000000
-0.133423 -0.003914 -0.099581 1.000000
0.457862 -0.083120 -0.054963 2.000000
0.316550 0.070430 0.071063 1.000000
-0.305591 -0.091367 -0.039804 1.000000
0.076704 0.094377 -0.032741 1.000000
0.197238 0.027269 -0.095898 1.000000
0.244654 -0.094623 0.031772 1.000000
-0.015072 0.007182 -0.099435 1.000000
0.372500 -0.099727 -0.001247 1.000000
0.341599 0.052239 -0.084986 1.000000
0.445688 -0.039059 0.092015 2.000000
0.275991 -0.099610 -0.004964 1.000000
-0.109940 -0.094419 0.032337 1.000000
-0.358693 0.075644 -0.065121 1.000000
-0.249444 -0.081443 0.057794 1.000000
-0.083053 -0.099520 0.007029 1.000000
-0.209697 -0.019921 0.098005 1.000000
-0.342829 -0.052981 0.084772 1.000000
-0.369682 -0.083418 0.054888 1.000000
0.081950 0.007478 0.099770 1.000000
0.365025 -0.057386 0.081816 1.000000
0.028737 0.012297 -0.098952 1.000000
0.447684 -0.095948 0.027384 2.000000
0.456312 -0.057607 -0.081302 2.000000
-0.361390 0.098131 -0.019004 1.000000
-0.360579 0.051272 0.085920 1.000000
-0.129545 0.069151 0.072342 1.000000
-0.233763 0.098031 0.019818 1.000000
-0.026771 0.049146 0.087178 1.000000
-0.305908 -0.087474 0.048189 1.000000
-0.397512 0.033384 0.094317 1.000000
0.291286 0.062329 -0.077916 1.000000
-0.354903 -0.033341 0.094248 1.000000
0.206032 -0.082984 -0.055164 1.000000
0.292889 -0.000854 -0.099677 1.000000
-0.396244 0.036186 -0.092945 1.000000
0.453654 0.095083 -0.030779 2.000000
0.421728 0.043225 -0.089906 1.000000
-0.075076 0.067625 -0.073401 1.000000
0.172412 0.090343 -0.042655 1.000000
-0.280713 -0.095729 0.028138 1.000000
0.136945 0.021546 0.097695 1.000000
0.170440 0.007113 -0.099442 1.000000
0.462505 -0.058305 -0.080828 2.000000
0.235023 -0.089047 -0.044740 1.000000
0.427192 -0.013727 -0.098710 1.000000
-0.213938 -0.092974 -0.035988 1.000000
0.242637 0.025179 -0.096505 1.000000
0.383209 -0.047072 -0.087827 1.000000
-0.111434 0.084898 0.052955 1.000000
-0.336808 0.048107 -0.087418 1.000000
-0.287448 -0.032063 0.094708 1.000000
0.148975 -0.061975 -0.078009 1.000000
-0.403445 -0.097752 -0.019656 1.000000
0.450551 0.010889 0.099448 2.000000
0.248408 -0.045485 -0.088636 1.000000
0.237274 -0.094082 -0.032911 1.000000
0.247175 0.099893 -0.003374 1.000000
0.328508 0.051024 -0.085704 1.000000
0.091210 0.076138 0.064923 1.000000
-0.404801 -0.082525 0.056201 1.000000
-0.080701 0.017687 0.098482 1.000000
0.185774 0.015831 -0.098413 1.000000
0.167183 -0.086937 -0.048750 1.000000
-0.196033 -0.077231 0.063360 1.000000
-0.274577 0.089239 0.045183 1.000000
-0.287536 -0.061604 0.078660 1.000000
0.119393 0.035676 0.093492 1.000000
-0.214020 0.067838 -0.073213 1.000000
-0.228439 0.064343 -0.076295 1.000000
0.234267 -0.031330 -0.094610 1.000000
-0.429512 0.098048 -0.019378 1.000000
0.030016 -0.001367 0.100023 1.000000
0.077559 -0.059601 -0.079851 1.000000
0.268770 0.041538 0.091043 1.000000
0.127435 -0.055027 -0.083056 1.000000
-0.362888 0.099846 0.005233 1.000000
-0.394517 -0.012317 0.099290 1.000000
0.108112 0.082256 0.056941 1.000000
0.303434 0.006490 -0.099501 1.000000
0.359494 -0.007740 -0.099360 1.000000
0.289221 -0.061360 0.078849 1.000000
-0.388520 0.095291 0.030446 1.000000
-0.274506 0.059908 0.080157 1.000000
-0.419541 -0.085144 0.052146 1.000000
0.048284 0.057384 -0.081613 1.000000
0.177567 -0.044506 -0.089135 1.000000
0.223682 0.031993 0.094818 1.000000
0.044929 0.062723 0.077973 1.000000
-0.107628 0.019129 -0.097872 1.000000
-0.317387 -0.031776 0.094812 1.000000
-0.276760 -0.007476 -0.099385 1.000000
0.338817 -0.082587 0.056110 1.000000
0.035802 -0.099395 0.008355 1.000000
-0.292251 0.004204 -0.099579 1.000000
-0.350437 0.066816 0.074477 1.000000
0.387184 -0.074156 0.066907 1.000000
0.440041 0.084052 -0.053935 2.000000
0.400040 0.088465 0.046702 1.000000
-0.322040 0.064275 -0.076355 1.000000
0.212649 -0.097896 -0.019011 1.000000
-0.286410 0.088424 0.046784 1.000000
-0.397244 -0.098404 -0.016003 1.000000
-0.462869 -0.066125 -0.074518 3.000000
0.465057 -0.027236 0.096202 2.000000
-0.442599 -0.098492 -0.015445 3.000000
-0.329708 -0.055339 0.083206 1.000000
-0.313085 0.063663 -0.076881 1.000000
-0.368554 -0.041615 0.090909 1.000000
0.405811 -0.099513 -0.006744 1.000000
0.101575 -0.044956 0.089268 1.000000
-0.268768 -0.086603 0.049679 1.000000
0.161592 -0.085629 -0.050963 1.000000
-0.097759 -0.057951 0.081431 1.000000
-0.271357 0.042923 0.090423 1.000000
0.015818 0.065043 0.076041 1.000000
0.143658 0.040007 -0.091343 1.000000
-0.016026 0.043269 -0.089883 1.000000
-0.414294 -0.014871 0.098891 1.000000
-0.093911 -0.057920 -0.081090 1.000000
-0.133691 -0.091826 0.039106 1.000000
0.279192 0.076749 0.064231 1.000000
-0.417695 -0.055568 -0.082688 1.000000
0.144063 0.052296 -0.084952 1.000000
0.342683 -0.099687 -0.002522 1.000000
-0.049831 0.092545 -0.037621 1.000000
0.378155 -0.062332 0.078096 1.000000
0.041171 0.087411 -0.048345 1.000000
-0.404068 -0.081585 -0.057222 1.000000
-0.422553 -0.045341 -0.088709 1.000000
-0.237828 -0.077630 -0.062482 1.000000
0.303299 0.042482 -0.090272 1.000000
0.016412 -0.023645 0.097173 1.000000
0.161401 -0.062858 0.077687 1.000000
0.279771 -0.065606 0.075338 1.000000
0.274642 -0.099290 0.009465 1.000000
-0.321943 0.062591 0.078075 1.000000
0.259363 0.099954 -0.001461 1.000000
-0.102775 -0.074568 -0.066078 1.000000
0.365313 -0.056715 -0.081909 1.000000
0.276927 -0.018199 0.098364 1.000000
0.456006 -0.089465 0.044282 2.000000
0.265523 -0.096191 0.026547 1.000000
0.322811 -0.028337 -0.095519 1.000000
-0.430702 0.098616 0.016498 1.000000
0.163629 0.099207 -0.012404 1.000000
-0.055788 0.031558 0.094974 1.000000
0.163594 0.045927 -0.088529 1.000000
0.242375 -0.069127 0.072132 1.000000
0.085328 0.089047 0.045561 1.000000
-0.083960 -0.094846 0.031152 1.000000
0.291716 0.089136 -0.045023 1.000000
-0.355626 -0.002895 0.099975 1.000000
0.445435 0.094120 0.033817 2.000000
0.063088 -0.084718 0.052866 1.000000
0.332410 -0.099604 0.005522 1.000000
-0.075510 -0.062629 0.077865 1.000000
-0.457845 -0.092922 0.036496 3.000000
-0.138446 0.043967 0.089891 1.000000
-0.181835 0.086273 0.050631 1.000000
-0.359273 0.086979 -0.049074 1.000000
0.044012 -0.001293 0.100026 1.000000
-0.404904 -0.087145 0.048762 1.000000
0.269439 -0.080740 0.058828 1.000000
0.012787 0.096921 -0.024420 1.000000
0.325786 -0.078770 0.061376 1.000000
0.068289 0.033839 -0.093790 1.000000
0.328813 0.046865 0.088414 1.000000
-0.264765 -0.002821 0.099978 1.000000
-0.138448 0.071621 0.069871 1.000000
-0.355056 0.039159 0.092073 1.000000
-0.158691 -0.003184 -0.099603 1.000000
0.089906 0.032123 -0.094408 1.000000
0.217531 0.085327 0.052231 1.000000
0.449993 -0.048770 0.087262 2.000000
-0.338710 0.057165 0.082124 1.000000
-0.397919 -0.006432 -0.099484 1.000000
-0.429329 -0.099209 -0.009961 3.000000
0.384799 -0.040094 -0.091204 1.000000
0.457360 0.066132 -0.074717 2.000000
0.330038 -0.051688 -0.085174 1.000000
-0.190637 -0.058398 0.081128 1.000000
-0.425511 0.045997 0.088856 1.000000
-0.267459 -0.015859 -0.098372 1.000000
-0.254313 0.004401 -0.099573 1.000000
-0.103177 -0.094827 0.031204 1.000000
-0.009748 -0.086733 -0.049096 1.000000
-0.068082 -0.051164 -0.085483 1.000000
-0.466273 -0.099491 0.007339 3.000000
0.420383 0.089736 0.044208 1.000000
-0.047900 0.021107 0.097793 1.000000
-0.270202 -0.004456 -0.099564 1.000000
0.417919 -0.027185 0.096217 2.000000
-0.133032 -0.009445 0.099562 1.000000
0.049941 -0.086432 0.049967 1.000000
-0.073480 0.097740 0.021116 1.000000
0.387325 0.074725 0.066527 1.000000
-0.027409 0.005366 0.099905 1.000000
0.077852 0.048435 0.087598 1.000000
0.359538 0.092989 0.036957 1.000000
0.029212 0.020743 0.097874 1.000000
-0.283650 0.027265 -0.095899 1.000000
0.164949 -0.041632 -0.090539 1.000000
-0.074088 0.099786 0.006683 1.000000
-0.392600 -0.059704 0.080133 1.000000
0.009217 0.081472 0.058095 1.000000
-0.355012 -0.094191 0.032970 1.000000
-0.305520 -0.025684 -0.096290 1.000000
-0.267726 0.022151 -0.097197 1.000000
0.441124 0.023105 0.097346 2.000000
0.367861 0.013620 -0.098764 1.000000
-0.232022 0.017235 -0.098191 1.000000
0.197973 0.095544 0.029578 1.000000
0.316561 0.064587 -0.076080 1.000000
-0.006281 0.039544 0.091906 1.000000
-0.259915 -0.086610 -0.049304 1.000000
0.443603 -0.068194 0.073057 2.000000
0.158416 -0.050355 0.086325 1.000000
0.182891 -0.096893 0.023862 1.000000
-0.105398 -0.083612 0.054602 1.000000
0.300045 -0.034066 0.093988 1.000000
0.227121 0.061082 -0.078883 1.000000
-0.132134 -0.026614 0.096383 1.000000
-0.249840 -0.081615 -0.057178 1.000000
-0.452486 0.014357 0.099010 3.000000
0.337537 0.006429 0.099869 1.000000
-0.257536 -0.057769 -0.081192 1.000000
0.115657 0.086351 0.050500 1.000000
0.081009 0.099960 -0.001245 1.000000
-0.042611 -0.012355 -0.098924 1.000000
0.271631 -0.026746 -0.095982 1.000000
0.258607 -0.090971 0.041080 1.000000
-0.308869 -0.034474 -0.093478 1.000000
-0.194976 0.094323 0.033254 1.000000
0.112577 -0.025328 0.096756 1.000000
0.199969 0.014388 -0.098642 1.000000
0.082919 0.091983 -0.038918 1.000000
-0.024063 0.088244 -0.046775 1.000000
-0.438502 0.046651 0.088523 3.000000
0.196691 -0.088555 -0.045706 1.000000
