0.465339 -0.036827 -0.076242 2.000000
0.465339 -0.090419 -0.020011 2.000000
0.465339 0.011553 -0.080658 2.000000
0.465339 -0.071911 -0.004240 2.000000
0.465339 -0.058318 0.081032 2.000000
0.465339 -0.001862 0.031541 2.000000
0.465339 0.066158 0.038151 2.000000
0.465339 -0.045454 -0.022416 2.000000
0.465339 -0.057675 -0.061745 2.000000
0.465339 -0.028297 0.084186 2.000000
0.465339 0.032156 -0.027485 2.000000
0.465339 -0.062224 -0.048313 2.000000
0.465339 -0.053468 0.058533 2.000000
0.465339 0.008367 0.019812 2.000000
0.465339 0.029006 -0.020827 2.000000
0.465339 0.026844 0.020804 2.000000
0.465339 -0.063755 0.057226 2.000000
0.465339 -0.023516 0.030996 2.000000
0.465339 -0.024123 0.045212 2.000000
0.465339 0.057172 -0.079881 2.000000
0.465339 -0.017757 0.011410 2.000000
0.465339 -0.047449 0.064491 2.000000
0.465339 -0.016441 0.047775 2.000000
0.465339 -0.067918 0.030498 2.000000
0.465339 -0.049687 -0.068722 2.000000
0.465339 -0.030544 0.024809 2.000000
0.465339 -0.027542 -0.040051 2.000000
0.465339 0.010474 0.047782 2.000000
0.465339 0.052708 -0.023683 2.000000
0.465339 -0.018733 0.085960 2.000000
0.465339 0.045607 -0.066760 2.000000
0.465339 0.067359 0.038852 2.000000
0.465339 0.083668 0.038617 2.000000
0.465339 -0.003622 0.008782 2.000000
0.465339 0.023416 0.021149 2.000000
0.465339 -0.017803 0.047813 2.000000
0.465339 0.017716 0.060433 2.000000
0.465339 0.070696 -0.016248 2.000000
0.465339 -0.024823 -0.017492 2.000000
0.465339 -0.089664 -0.029246 2.000000
0.465339 0.052143 -0.084928 2.000000
0.465339 0.017139 -0.042576 2.000000
0.465339 0.071386 0.069616 2.000000
0.465339 0.046418 0.046077 2.000000
0.465339 -0.082859 -0.013907 2.000000
0.465339 -0.009566 0.078517 2.000000
0.465339 0.038546 -0.029231 2.000000
0.465339 0.089484 -0.043880 2.000000
0.465339 0.008326 -0.098270 2.000000
0.465339 0.085329 -0.046546 2.000000
0.465339 -0.036510 0.007113 2.000000
0.465339 0.049679 -0.026203 2.000000
0.465339 -0.016878 -0.014914 2.000000
0.465339 0.089129 0.025983 2.000000
0.465339 -0.036975 0.031588 2.000000
0.465339 -0.061619 0.005476 2.000000
0.465339 -0.036183 -0.052614 2.000000
0.465339 -0.058105 0.033139 2.000000
0.465339 -0.019751 0.046716 2.000000
0.465339 -0.007079 0.016522 2.000000
0.465339 0.082592 0.045602 2.000000
0.465339 0.021249 0.025878 2.000000
0.465339 0.057821 -0.040567 2.000000
0.465339 0.003714 0.066734 2.000000
0.465339 0.090838 0.030703 2.000000
0.465339 -0.056309 -0.058688 2.000000
0.465339 0.022776 -0.068911 2.000000
0.465339 -0.044603 0.059788 2.000000
0.465339 0.068427 0.058661 2.000000
0.465339 -0.040545 0.058706 2.000000
0.465339 0.018732 -0.023088 2.000000
0.465339 -0.019379 -0.034190 2.000000
0.465339 -0.091424 -0.026123 2.000000
0.465339 -0.058997 -0.068392 2.000000
0.465339 0.062072 0.025225 2.000000
0.465339 -0.020363 0.029175 2.000000
0.465339 0.066873 0.053054 2.000000
0.465339 -0.082867 0.003858 2.000000
0.465339 -0.044398 -0.079694 2.000000
0.465339 -0.071415 0.017845 2.000000
0.465339 0.065446 -0.011849 2.000000
0.465339 0.049940 0.059774 2.000000
0.465339 -0.091601 0.039288 2.000000
0.465339 -0.031027 -0.082876 2.000000
0.465339 -0.050038 -0.060762 2.000000
0.465339 0.032325 -0.078939 2.000000
0.465339 0.087076 -0.015309 2.000000
0.465339 0.087366 0.028435 2.000000
0.465339 -0.083591 0.001820 2.000000
0.465339 -0.006250 0.071694 2.000000
0.465339 -0.006131 -0.023562 2.000000
0.465339 -0.051514 0.021485 2.000000
0.465339 -0.015188 0.057927 2.000000
0.465339 0.058424 -0.009204 2.000000
0.465339 0.027323 -0.075892 2.000000
0.465339 -0.022979 0.066732 2.000000
0.465339 0.063625 -0.039389 2.000000
0.465339 0.042607 0.083478 2.000000
0.465339 -0.070079 -0.026313 2.000000
0.465339 0.001177 -0.099521 2.000000
0.465339 0.037817 -0.040216 2.000000
0.465339 0.093127 0.029076 2.000000
0.465339 0.044092 -0.073015 2.000000
0.465339 -0.066914 0.015057 2.000000
0.465339 -0.005500 0.038939 2.000000
0.465339 -0.069288 0.052557 2.000000
0.465339 -0.073795 0.004967 2.000000
0.465339 0.034287 0.088527 2.000000
0.465339 -0.096303 -0.009020 2.000000
0.465339 0.061016 -0.051238 2.000000
0.465339 0.072428 0.040085 2.000000
0.465339 -0.013564 0.082988 2.000000
0.465339 -0.054392 -0.029674 2.000000
0.465339 -0.000625 -0.059653 2.000000
0.465339 -0.056407 0.051940 2.000000
0.465339 0.023405 -0.076914 2.000000
0.465339 -0.046845 0.034826 2.000000
0.465339 -0.001827 -0.062286 2.000000
0.465339 -0.008600 0.095967 2.000000
0.465339 0.042949 0.023764 2.000000
0.465339 0.086071 -0.001516 2.000000
0.465339 0.076023 -0.014236 2.000000
0.465339 -0.027930 -0.046821 2.000000
0.465339 0.013906 0.018144 2.000000
0.465339 -0.025639 -0.060691 2.000000
0.465339 0.070775 -0.038229 2.000000
0.465339 -0.076070 0.004661 2.000000
0.465339 0.026954 0.091608 2.000000
0.465339 0.048827 0.007547 2.000000
0.465339 0.071214 0.000275 2.000000
0.465339 0.029740 -0.001934 2.000000
0.465339 0.061392 0.019587 2.000000
0.465339 0.082209 0.056655 2.000000
0.465339 -0.058307 0.071890 2.000000
0.465339 -0.043903 0.077070 2.000000
0.465339 0.018919 0.080720 2.000000
0.465339 0.020650 0.038427 2.000000
0.465339 -0.007713 -0.048295 2.000000
0.465339 -0.017281 0.018952 2.000000
0.465339 -0.002773 0.060677 2.000000
0.465339 0.024104 0.024521 2.000000
0.465339 0.056953 0.075747 2.000000
0.465339 0.066420 0.011397 2.000000
0.465339 -0.005514 -0.026720 2.000000
0.465339 0.014094 -0.060584 2.000000
0.465339 -0.052497 0.004689 2.000000
0.465339 0.057819 0.009071 2.000000
0.465339 0.088941 -0.038962 2.000000
0.465339 0.033209 0.083116 2.000000
0.465339 -0.011284 -0.015210 2.000000
0.465339 -0.041145 -0.062150 2.000000
0.465339 0.047128 -0.009129 2.000000
0.465339 0.057282 0.005795 2.000000
0.465339 -0.040466 0.082856 2.000000
0.465339 0.042773 -0.010844 2.000000
0.465339 -0.038117 0.052876 2.000000
0.465339 0.077134 0.006020 2.000000
0.465339 -0.061905 -0.042152 2.000000
0.465339 0.046432 -0.050645 2.000000
0.465339 -0.006979 -0.044536 2.000000
0.465339 -0.078822 0.055593 2.000000
0.465339 -0.011428 -0.096597 2.000000
0.465339 0.001426 -0.069690 2.000000
0.465339 -0.028152 0.074179 2.000000
0.465339 -0.088329 0.029150 2.000000
0.465339 -0.073316 -0.006050 2.000000
0.465339 0.054750 -0.003232 2.000000
0.465339 -0.086779 -0.030304 2.000000
0.465339 0.044709 0.064895 2.000000
0.465339 -0.003589 0.094370 2.000000
0.465339 0.017239 0.079540 2.000000
0.465339 -0.050569 0.007154 2.000000
0.465339 -0.009476 -0.074910 2.000000
0.465339 -0.093732 -0.018217 2.000000
0.465339 0.027083 -0.046320 2.000000
0.465339 -0.022244 0.051246 2.000000
0.465339 -0.017495 0.093228 2.000000
0.465339 -0.029801 -0.030453 2.000000
0.465339 -0.030745 -0.050109 2.000000
0.465339 0.062554 -0.012876 2.000000
0.465339 0.041266 -0.049721 2.000000
0.465339 -0.044328 0.028657 2.000000
0.465339 0.077838 0.042632 2.000000
0.465339 -0.039569 0.081630 2.000000
0.465339 0.041696 0.036323 2.000000
0.465339 0.057312 -0.031596 2.000000
0.465339 -0.080620 0.008284 2.000000
0.465339 0.029377 -0.023035 2.000000
0.465339 -0.081953 0.002235 2.000000
0.465339 -0.048503 -0.007856 2.000000
0.465339 0.018548 -0.072991 2.000000
0.465339 -0.029017 0.018638 2.000000
0.465339 -0.012769 -0.043642 2.000000
0.465339 0.018194 0.023174 2.000000
0.465339 -0.007547 -0.001879 2.000000
0.465339 0.024218 -0.045277 2.000000
0.465339 -0.021697 0.063558 2.000000
0.465339 0.015889 -0.028065 2.000000
0.465339 0.073873 0.058798 2.000000
0.465339 0.006870 0.078040 2.000000
0.465339 0.009618 0.011286 2.000000
0.465339 0.001233 -0.023542 2.000000
0.465339 -0.046693 -0.011883 2.000000
0.465339 0.054519 0.081146 2.000000
0.465339 0.070441 0.051253 2.000000
0.465339 -0.001644 -0.026805 2.000000
0.465339 -0.083307 -0.021252 2.000000
0.465339 -0.059744 0.054760 2.000000
0.465339 0.033591 -0.082418 2.000000
0.465339 0.026322 0.022750 2.000000
0.465339 -0.046607 0.075523 2.000000
0.465339 -0.010997 0.070835 2.000000
0.465339 0.011810 0.078145 2.000000
0.465339 -0.066538 -0.057693 2.000000
0.465339 -0.013255 -0.040285 2.000000
0.465339 -0.010918 0.057947 2.000000
0.465339 -0.034550 -0.050657 2.000000
0.465339 0.053018 -0.002687 2.000000
0.465339 -0.071979 -0.006202 2.000000
0.465339 0.052928 0.014083 2.000000
0.465339 0.020874 0.057764 2.000000
0.465339 0.033779 0.050580 2.000000
0.465339 -0.022623 -0.073683 2.000000
0.465339 0.087177 0.038866 2.000000
0.465339 -0.080101 -0.006312 2.000000
0.465339 -0.039604 0.044869 2.000000
0.465339 -0.012343 0.079413 2.000000
0.465339 -0.025681 0.049917 2.000000
0.465339 0.047214 0.079064 2.000000
0.465339 0.056329 -0.017378 2.000000
0.465339 0.038663 0.051626 2.000000
0.465339 -0.026641 -0.055423 2.000000
0.465339 0.028980 -0.081111 2.000000
0.465339 -0.043264 -0.084304 2.000000
0.465339 0.025209 -0.077083 2.000000
0.465339 -0.053917 0.015585 2.000000
0.465339 -0.051941 -0.058167 2.000000
0.465339 -0.026921 0.042669 2.000000
0.465339 -0.026529 -0.033680 2.000000
0.465339 -0.022113 -0.089436 2.000000
0.465339 -0.076923 -0.028102 2.000000
0.465339 -0.022672 -0.008905 2.000000
0.465339 0.055828 -0.046929 2.000000
0.465339 -0.010601 0.060912 2.000000
0.465339 0.047631 0.057903 2.000000
0.465339 0.086159 0.050252 2.000000
0.465339 -0.069287 0.037374 2.000000
0.465339 0.010306 -0.065839 2.000000
0.465339 -0.060008 0.014473 2.000000
0.465339 -0.063243 0.011556 2.000000
0.465339 -0.026341 0.044469 2.000000
0.465339 0.088886 -0.025925 2.000000
0.465339 0.069851 0.057583 2.000000
0.465339 -0.030352 -0.046486 2.000000
0.465339 0.046705 -0.046739 2.000000
0.465339 -0.018758 -0.038716 2.000000
0.465339 -0.018834 0.087595 2.000000
0.465339 -0.082934 -0.002733 2.000000
0.465339 0.062616 0.075361 2.000000
0.465339 0.027089 -0.034277 2.000000
0.465339 0.040716 -0.035420 2.000000
0.465339 0.001846 0.054528 2.000000
0.465339 -0.004529 -0.029505 2.000000
0.465339 -0.079536 0.017172 2.000000
0.465339 -0.063236 0.062919 2.000000
0.465339 -0.019423 0.025224 2.000000
0.465339 0.092287 -0.004187 2.000000
0.465339 -0.037796 -0.013971 2.000000
0.465339 0.015052 0.052378 2.000000
0.465339 0.084574 -0.047780 2.000000
0.465339 0.087161 -0.007256 2.000000
0.465339 0.048101 0.001172 2.000000
0.465339 0.004353 0.043430 2.000000
0.465339 0.044087 -0.078318 2.000000
0.465339 -0.003877 0.080107 2.000000
0.465339 -0.046239 -0.057586 2.000000
0.465339 0.035319 0.028635 2.000000
0.465339 0.036989 -0.045259 2.000000
0.465339 0.019899 -0.072228 2.000000
0.465339 0.044873 -0.002847 2.000000
0.465339 -0.074904 0.010337 2.000000
0.465339 -0.061568 0.065012 2.000000
0.465339 -0.053913 0.083577 2.000000
0.465339 0.041641 -0.001505 2.000000
0.465339 0.049862 0.028029 2.000000
0.465339 -0.003903 -0.076703 2.000000
0.465339 -0.042962 -0.040907 2.000000
0.465339 0.027157 0.085630 2.000000
0.465339 0.008908 -0.064735 2.000000
0.465339 -0.003380 -0.017825 2.000000
0.465339 0.017530 0.095249 2.000000
0.465339 -0.024625 0.094633 2.000000
0.465339 0.080759 -0.047131 2.000000
0.465339 0.075137 0.064910 2.000000
0.465339 0.053197 -0.068520 2.000000
0.465339 -0.083563 -0.036643 2.000000
0.465339 -0.009069 0.034200 2.000000
0.465339 -0.003118 -0.034372 2.000000
0.465339 0.057629 -0.081146 2.000000
0.465339 -0.020393 -0.085140 2.000000
0.465339 0.004976 0.019791 2.000000
0.465339 0.060126 0.039058 2.000000
0.465339 0.006732 -0.003135 2.000000
0.465339 -0.040880 -0.076092 2.000000
0.465339 -0.073896 -0.000880 2.000000
0.465339 0.048704 0.018198 2.000000
0.465339 0.039455 -0.084052 2.000000
0.465339 -0.057119 -0.030047 2.000000
0.465339 -0.011262 -0.017988 2.000000
0.465339 -0.080843 -0.019935 2.000000
0.465339 0.049508 0.052055 2.000000
0.465339 -0.051208 -0.048200 2.000000
0.465339 0.088839 -0.036191 2.000000
0.465339 -0.066739 0.065278 2.000000
0.465339 0.031596 -0.029663 2.000000
0.465339 0.038113 -0.003794 2.000000
0.465339 0.056376 -0.019888 2.000000
0.465339 0.041812 0.029346 2.000000
0.465339 0.003147 0.012262 2.000000
0.465339 0.001532 -0.092840 2.000000
0.465339 -0.082468 0.021999 2.000000
0.465339 0.023648 -0.007786 2.000000
0.465339 -0.097235 -0.017414 2.000000
0.465339 0.031742 -0.012655 2.000000
0.465339 -0.075222 0.018517 2.000000
0.465339 0.067297 -0.062815 2.000000
0.465339 0.069358 -0.071723 2.000000
0.465339 0.067403 -0.000107 2.000000
0.465339 -0.022524 -0.086677 2.000000
0.465339 0.007273 0.007251 2.000000
0.465339 -0.059024 0.070306 2.000000
0.465339 -0.043680 -0.025947 2.000000
0.465339 0.037726 0.088139 2.000000
0.465339 -0.026443 0.067508 2.000000
0.465339 0.021748 0.086921 2.000000
0.465339 -0.058116 0.043097 2.000000
0.465339 -0.076207 -0.040086 2.000000
0.465339 0.050568 -0.075516 2.000000
0.465339 -0.011530 -0.002762 2.000000
0.465339 0.003183 0.096022 2.000000
0.465339 -0.079474 0.002568 2.000000
0.465339 0.045091 0.008696 2.000000
0.465339 0.038377 0.053117 2.000000
0.465339 0.015017 -0.076306 2.000000
0.465339 0.085181 -0.042334 2.000000
0.465339 0.041542 -0.060384 2.000000
0.465339 -0.064230 0.037950 2.000000
0.465339 -0.009013 0.075744 2.000000
0.465339 -0.036788 0.020020 2.000000
0.465339 -0.070712 0.031528 2.000000
0.465339 -0.002221 0.059239 2.000000
0.465339 -0.091806 0.009016 2.000000
0.465339 -0.020206 0.002135 2.000000
0.465339 0.005528 0.055867 2.000000
0.465339 0.003976 0.031802 2.000000
0.465339 -0.033188 0.036699 2.000000
0.465339 -0.063198 0.065605 2.000000
0.465339 0.010403 0.029164 2.000000
0.465339 0.093195 0.005870 2.000000
0.465339 0.069289 0.003931 2.000000
0.465339 -0.055098 -0.033500 2.000000
0.465339 0.011037 -0.085647 2.000000
0.465339 -0.082879 -0.012292 2.000000
0.465339 -0.074376 -0.039418 2.000000
0.465339 0.045481 0.000408 2.000000
0.465339 0.014758 -0.079842 2.000000
0.465339 0.022744 -0.070247 2.000000
0.465339 0.029923 0.031722 2.000000
0.465339 0.058668 -0.058407 2.000000
0.465339 0.050896 0.068183 2.000000
0.465339 0.039293 -0.045368 2.000000
0.465339 -0.013689 0.075898 2.000000
0.465339 0.044476 -0.011542 2.000000
0.465339 -0.040443 -0.067779 2.000000
0.465339 -0.037133 0.029433 2.000000
0.465339 0.019669 -0.001141 2.000000
0.465339 -0.063478 -0.036889 2.000000
0.465339 0.086045 -0.021559 2.000000
0.465339 -0.017416 -0.081603 2.000000
0.465339 -0.018017 -0.048851 2.000000
0.465339 -0.006389 0.032943 2.000000
0.465339 -0.031589 0.049785 2.000000
0.465339 -0.004969 -0.025230 2.000000
0.465339 -0.029369 0.086421 2.000000
0.465339 0.050911 0.013652 2.000000
0.465339 0.047475 -0.084870 2.000000
0.465339 -0.094422 0.008810 2.000000
0.465339 0.036347 -0.010907 2.000000
0.465339 0.012563 -0.092439 2.000000
0.465339 0.010070 -0.032341 2.000000
0.465339 -0.055121 -0.037413 2.000000
0.465339 -0.096806 0.010020 2.000000
0.465339 -0.058888 0.013375 2.000000
0.465339 0.015982 -0.091707 2.000000
0.465339 0.089187 -0.031264 2.000000
0.465339 0.039907 0.025062 2.000000
0.465339 0.052157 0.038145 2.000000
0.465339 0.002032 -0.030355 2.000000
0.465339 -0.017371 -0.037987 2.000000
0.465339 0.007194 -0.021278 2.000000
0.465339 0.033563 -0.091731 2.000000
0.465339 0.017300 -0.039311 2.000000
0.465339 -0.078662 -0.031230 2.000000
0.465339 -0.055608 -0.010589 2.000000
0.465339 -0.003494 -0.083410 2.000000
0.465339 -0.087816 0.017337 2.000000
0.465339 -0.083117 0.017108 2.000000
0.465339 -0.051684 -0.011925 2.000000
0.465339 -0.060489 -0.049521 2.000000
0.465339 -0.092374 0.026381 2.000000
0.465339 0.040814 0.084740 2.000000
0.465339 -0.055590 -0.070422 2.000000
0.465339 -0.060511 0.066005 2.000000
0.465339 -0.057072 -0.001125 2.000000
0.465339 0.047656 -0.071752 2.000000
0.465339 0.016802 0.005937 2.000000
0.465339 -0.036079 0.010226 2.000000
0.465339 0.005927 0.053402 2.000000
0.465339 -0.014621 -0.077395 2.000000
0.465339 0.008789 0.006748 2.000000
0.465339 -0.068295 -0.026566 2.000000
0.465339 -0.017566 -0.044436 2.000000
0.465339 -0.050568 0.051839 2.000000
0.465339 -0.050779 -0.028014 2.000000
0.465339 0.044450 -0.063994 2.000000
0.465339 -0.073013 -0.026237 2.000000
0.465339 -0.007765 -0.050035 2.000000
0.465339 -0.087749 -0.002305 2.000000
0.465339 -0.047508 -0.075360 2.000000
0.465339 0.081380 -0.041378 2.000000
0.465339 0.014837 0.095632 2.000000
0.465339 -0.049354 -0.045828 2.000000
0.465339 0.079719 0.056730 2.000000
0.465339 0.069490 -0.009000 2.000000
0.465339 -0.015612 0.087376 2.000000
0.465339 0.003091 0.004164 2.000000
0.465339 0.044765 -0.006838 2.000000
0.465339 0.039356 0.017873 2.000000
0.465339 0.049198 0.044047 2.000000
0.465339 0.076590 -0.004582 2.000000
0.465339 0.008929 -0.014910 2.000000
0.465339 -0.023611 -0.037225 2.000000
0.465339 -0.060365 -0.037626 2.000000
0.465339 -0.076799 -0.044813 2.000000
0.465339 -0.030929 -0.012243 2.000000
0.465339 -0.003659 -0.043568 2.000000
0.465339 0.089177 0.043860 2.000000
0.465339 0.057693 0.049084 2.000000
0.465339 -0.088687 0.045283 2.000000
0.465339 -0.054097 0.079872 2.000000
0.465339 -0.071713 -0.001138 2.000000
0.465339 0.051713 0.059413 2.000000
0.465339 0.026150 0.065195 2.000000
0.465339 -0.027274 -0.086459 2.000000
0.465339 0.035139 -0.067920 2.000000
0.465339 -0.013661 -0.034798 2.000000
0.465339 -0.006672 0.079559 2.000000
0.465339 -0.040913 0.041268 2.000000
0.465339 -0.096572 0.017922 2.000000
0.465339 0.075180 0.010258 2.000000
0.465339 0.014961 0.006078 2.000000
0.465339 0.087215 -0.017844 2.000000
0.465339 -0.021583 -0.005747 2.000000
0.465339 -0.010570 0.050068 2.000000
0.465339 -0.033359 0.071276 2.000000
0.465339 -0.060492 -0.066345 2.000000
0.465339 -0.008937 -0.097665 2.000000
0.465339 -0.070410 -0.047634 2.000000
0.465339 0.093402 0.024689 2.000000
0.465339 -0.020544 -0.008893 2.000000
0.465339 -0.030655 0.059111 2.000000
0.465339 -0.071673 -0.049290 2.000000
0.465339 -0.012171 -0.045294 2.000000
0.465339 -0.013098 -0.078432 2.000000
0.465339 -0.024712 -0.013632 2.000000
0.465339 0.038736 0.063614 2.000000
0.465339 -0.014046 -0.068823 2.000000
0.465339 -0.035357 -0.054957 2.000000
0.465339 -0.050187 0.001657 2.000000
0.465339 -0.058171 -0.064888 2.000000
0.465339 0.073279 0.012347 2.000000
0.465339 -0.044616 -0.058653 2.000000
0.465339 0.058514 -0.016260 2.000000
0.465339 -0.096636 -0.010617 2.000000
0.465339 0.033614 -0.075667 2.000000
0.465339 -0.065160 0.056089 2.000000
0.465339 0.046630 0.013700 2.000000
0.465339 -0.054118 -0.011335 2.000000
0.465339 -0.041512 0.013380 2.000000
0.465339 -0.028040 0.086596 2.000000
0.465339 0.035447 -0.004835 2.000000
0.465339 -0.003772 0.063706 2.000000
0.465339 0.077607 0.004745 2.000000
0.465339 -0.055449 0.044818 2.000000
0.465339 -0.062221 -0.020040 2.000000
0.465339 -0.016649 -0.036561 2.000000
0.465339 -0.001677 0.082303 2.000000
0.465339 -0.061735 -0.036952 2.000000
0.465339 -0.071307 -0.061409 2.000000
0.465339 -0.074620 0.042001 2.000000
0.465339 0.028100 0.031516 2.000000
0.465339 -0.079618 -0.004757 2.000000
0.465339 -0.036081 -0.031701 2.000000
0.465339 0.032894 0.059728 2.000000
0.465339 0.009386 0.025860 2.000000
0.465339 -0.044558 0.057277 2.000000
0.465339 -0.081397 0.033704 2.000000
0.465339 -0.067589 0.001946 2.000000
0.465339 0.061701 -0.061021 2.000000
0.465339 0.023272 0.084183 2.000000
0.465339 0.074867 0.035660 2.000000
0.465339 0.041279 0.040370 2.000000
0.465339 -0.073307 -0.028197 2.000000
0.465339 -0.067349 0.047393 2.000000
0.465339 -0.054314 0.010183 2.000000
0.465339 0.013108 -0.038292 2.000000
0.465339 0.012810 0.087973 2.000000
0.465339 -0.025620 -0.086167 2.000000
0.465339 -0.062288 0.001069 2.000000
0.465339 -0.013957 0.049482 2.000000
0.465339 0.047434 0.019579 2.000000
0.465339 -0.044579 0.048308 2.000000
0.465339 0.070956 -0.032971 2.000000
0.465339 -0.084722 -0.052169 2.000000
0.465339 0.089865 -0.021585 2.000000
0.465339 0.041812 0.047627 2.000000
0.465339 0.020845 0.069138 2.000000
0.465339 0.002404 -0.074811 2.000000
0.465339 -0.042718 -0.077146 2.000000
0.465339 0.059211 -0.072641 2.000000
0.465339 0.001378 0.060479 2.000000
0.465339 -0.062662 0.022535 2.000000
0.465339 0.035196 0.045912 2.000000
0.465339 0.048034 -0.057009 2.000000
0.465339 0.053177 -0.015210 2.000000
0.465339 -0.096486 0.015953 2.000000
0.465339 -0.005139 0.041787 2.000000
0.465339 0.047500 -0.038993 2.000000
0.465339 0.061074 0.076202 2.000000
0.465339 -0.037220 -0.073708 2.000000
0.465339 0.028127 0.062338 2.000000
0.465339 0.019033 0.037494 2.000000
0.465339 -0.051346 -0.073937 2.000000
0.465339 -0.077229 -0.038373 2.000000
0.465339 -0.077381 0.011153 2.000000
0.465339 0.063291 -0.073055 2.000000
0.465339 0.080744 -0.049471 2.000000
0.465339 0.058781 -0.077330 2.000000
0.465339 0.068598 0.051657 2.000000
0.465339 0.019321 -0.057931 2.000000
0.465339 0.091899 0.022923 2.000000
0.465339 0.003809 0.050374 2.000000
0.465339 -0.008952 -0.071557 2.000000
0.465339 0.037209 -0.072602 2.000000
0.465339 0.083550 -0.035844 2.000000
0.465339 -0.031886 -0.047019 2.000000
0.465339 -0.020728 0.039304 2.000000
0.465339 -0.091986 0.005538 2.000000
0.465339 -0.053818 0.021126 2.000000
0.465339 -0.016578 -0.031312 2.000000
0.465339 0.000187 -0.049831 2.000000
0.465339 0.017267 -0.093702 2.000000
0.465339 -0.021799 0.004083 2.000000
0.465339 -0.079324 -0.048831 2.000000
0.465339 -0.075365 0.053648 2.000000
0.465339 0.070407 -0.018788 2.000000
0.465339 0.029923 0.040001 2.000000
0.465339 -0.093230 -0.013830 2.000000
0.465339 -0.008555 -0.025487 2.000000
0.465339 0.065641 0.018534 2.000000
0.465339 -0.037618 0.064625 2.000000
0.465339 0.051774 0.010498 2.000000
0.465339 0.033351 -0.018620 2.000000
0.465339 0.031066 -0.019612 2.000000
0.465339 -0.096175 -0.014492 2.000000
0.465339 -0.075827 -0.055668 2.000000
0.465339 0.019834 -0.015419 2.000000
0.465339 -0.005050 0.031633 2.000000
0.465339 -0.040605 0.055860 2.000000
0.465339 -0.005353 0.083234 2.000000
0.465339 -0.005973 0.024746 2.000000
0.465339 -0.005384 -0.038419 2.000000
0.465339 0.074762 -0.009170 2.000000
0.465339 -0.064871 0.027632 2.000000
0.465339 -0.014416 0.079128 2.000000
0.465339 0.071812 -0.053244 2.000000
0.465339 0.052939 -0.026598 2.000000
0.465339 -0.005973 -0.040053 2.000000
0.465339 0.004648 -0.050806 2.000000
0.465339 -0.043475 -0.031640 2.000000
0.465339 -0.033513 -0.047462 2.000000
0.465339 0.024529 -0.080124 2.000000
0.465339 -0.065676 0.037684 2.000000
0.465339 -0.064413 -0.014931 2.000000
0.465339 -0.049443 -0.001559 2.000000
0.465339 -0.030422 -0.075844 2.000000
0.465339 -0.054848 0.058778 2.000000
0.465339 0.062503 -0.015912 2.000000
0.465339 -0.013367 -0.028574 2.000000
0.465339 -0.036295 0.018295 2.000000
0.465339 -0.031295 -0.077902 2.000000
0.465339 0.064334 0.066341 2.000000
0.465339 0.037526 -0.048553 2.000000
0.465339 -0.064932 0.019235 2.000000
0.465339 -0.042100 -0.042137 2.000000
0.465339 -0.092087 -0.020217 2.000000
0.465339 0.064331 -0.054455 2.000000
0.465339 -0.033764 -0.009654 2.000000
0.465339 -0.083071 0.013902 2.000000
0.465339 -0.074343 -0.013736 2.000000
0.465339 -0.012825 -0.018577 2.000000
0.465339 0.006035 0.008408 2.000000
0.465339 -0.008452 -0.082147 2.000000
0.465339 0.043580 -0.023428 2.000000
0.465339 -0.016089 -0.017519 2.000000
0.465339 -0.082166 -0.019577 2.000000
0.465339 -0.071533 0.007241 2.000000
0.465339 0.029195 -0.040432 2.000000
0.465339 0.034009 0.072297 2.000000
0.465339 -0.094516 0.031571 2.000000
0.465339 0.071319 -0.065458 2.000000
0.465339 0.093098 -0.020281 2.000000
0.465339 -0.033310 0.052711 2.000000
0.465339 -0.019241 0.079671 2.000000
0.465339 0.053489 -0.048875 2.000000
0.465339 0.016051 -0.095413 2.000000
0.465339 0.041011 -0.051526 2.000000
0.465339 -0.004185 -0.096517 2.000000
0.465339 0.095216 0.028585 2.000000
0.465339 0.071744 -0.044130 2.000000
0.465339 0.057486 0.007381 2.000000
0.465339 -0.069848 0.026099 2.000000
0.465339 0.072881 -0.017542 2.000000
0.465339 -0.013474 -0.081635 2.000000
0.465339 0.081968 0.009307 2.000000
0.465339 -0.031976 0.066835 2.000000
0.465339 0.085784 0.014505 2.000000
0.465339 0.012602 0.067112 2.000000
0.465339 0.045339 -0.085839 2.000000
0.465339 -0.016203 0.079587 2.000000
0.465339 0.030900 -0.053329 2.000000
0.465339 0.040552 -0.072898 2.000000
0.465339 -0.031690 -0.081475 2.000000
0.465339 0.087704 -0.033072 2.000000
0.465339 0.052094 0.012620 2.000000
0.465339 0.073841 -0.034791 2.000000
0.465339 0.052221 -0.021065 2.000000
0.465339 0.069857 -0.063108 2.000000
0.465339 -0.048888 0.006862 2.000000
0.465339 -0.018197 -0.080382 2.000000
0.465339 0.026948 0.011094 2.000000
0.465339 -0.034974 -0.019681 2.000000
0.465339 0.072447 0.068645 2.000000
0.465339 -0.061297 0.061307 2.000000
0.465339 -0.062813 0.050071 2.000000
0.465339 0.014465 0.045678 2.000000
0.465339 -0.051921 -0.026427 2.000000
0.465339 -0.053505 -0.071591 2.000000
0.465339 0.052796 0.025373 2.000000
0.465339 0.015848 -0.065212 2.000000
0.465339 -0.073863 0.064718 2.000000
0.465339 0.056766 0.068697 2.000000
0.465339 -0.044743 -0.007207 2.000000
0.465339 0.038300 -0.013605 2.000000
0.465339 0.011615 -0.077923 2.000000
0.465339 0.008699 -0.017591 2.000000
0.465339 -0.078173 -0.017894 2.000000
0.465339 -0.030738 -0.061374 2.000000
0.465339 -0.026467 -0.014687 2.000000
0.465339 0.042243 0.006750 2.000000
0.465339 -0.082257 0.038590 2.000000
0.465339 -0.084458 -0.027561 2.000000
0.465339 0.061541 0.042509 2.000000
0.465339 0.008226 0.015220 2.000000
0.465339 -0.015200 0.061987 2.000000
0.465339 0.077538 -0.043326 2.000000
0.465339 0.094548 -0.006579 2.000000
0.465339 -0.044089 -0.082780 2.000000
0.465339 0.079996 -0.045407 2.000000
0.465339 -0.011145 -0.043931 2.000000
0.465339 0.040528 -0.077262 2.000000
0.465339 0.059873 -0.059646 2.000000
0.465339 0.017511 0.088307 2.000000
0.465339 -0.000511 0.051303 2.000000
0.465339 0.000276 -0.082732 2.000000
0.465339 -0.037947 0.041628 2.000000
0.465339 -0.087715 -0.028940 2.000000
0.465339 -0.088986 0.025696 2.000000
0.465339 0.007792 -0.031418 2.000000
0.465339 0.009824 -0.027607 2.000000
0.465339 -0.081600 0.009762 2.000000
0.465339 0.026017 -0.095853 2.000000
0.465339 -0.036325 -0.068371 2.000000
0.465339 -0.059063 -0.052111 2.000000
0.465339 -0.054159 0.070167 2.000000
0.465339 -0.024172 -0.005333 2.000000
0.465339 0.053025 0.065336 2.000000
0.465339 0.062635 -0.014447 2.000000
0.465339 -0.050673 0.028245 2.000000
0.465339 -0.029645 0.005037 2.000000
0.465339 -0.030443 -0.040550 2.000000
0.465339 0.051289 0.021836 2.000000
0.465339 0.002418 0.088257 2.000000
0.465339 -0.010223 0.018341 2.000000
0.465339 0.006105 0.042500 2.000000
0.465339 0.039641 -0.071605 2.000000
0.465339 0.083477 0.027186 2.000000
0.465339 -0.097408 -0.003686 2.000000
0.465339 -0.023687 0.052384 2.000000
0.465339 -0.048643 0.011567 2.000000
0.465339 -0.043482 0.042713 2.000000
0.465339 -0.008541 -0.009117 2.000000
0.465339 -0.008633 0.008264 2.000000
0.465339 -0.052658 -0.000681 2.000000
0.465339 -0.064276 -0.047729 2.000000
0.465339 0.036937 0.040575 2.000000
0.465339 -0.019669 0.040480 2.000000
0.465339 0.051769 0.034089 2.000000
0.465339 0.084084 -0.007209 2.000000
0.465339 0.012171 0.021169 2.000000
0.465339 0.010977 -0.006316 2.000000
0.465339 -0.016441 -0.045713 2.000000
0.465339 0.023572 0.079030 2.000000
0.465339 0.063574 -0.021211 2.000000
0.465339 -0.040218 -0.090461 2.000000
0.465339 -0.049158 0.028374 2.000000
0.465339 0.066719 -0.066597 2.000000
0.465339 0.043823 -0.076433 2.000000
0.465339 0.048067 -0.026975 2.000000
0.465339 0.072798 0.001891 2.000000
0.465339 -0.027493 0.093964 2.000000
0.465339 0.042286 0.021080 2.000000
0.465339 0.068115 -0.011648 2.000000
0.465339 -0.034277 0.047289 2.000000
0.465339 0.005283 0.077861 2.000000
0.465339 0.045335 0.027788 2.000000
0.465339 0.085330 -0.013672 2.000000
0.465339 -0.076074 -0.042071 2.000000
0.465339 -0.068059 0.064178 2.000000
0.465339 -0.053078 -0.061686 2.000000
0.465339 0.034752 0.001445 2.000000
0.465339 0.023094 0.046982 2.000000
0.465339 0.015943 0.088349 2.000000
0.465339 -0.075033 0.016831 2.000000
0.465339 -0.012892 0.089966 2.000000
0.465339 -0.090285 0.010630 2.000000
0.465339 -0.048887 -0.077922 2.000000
0.465339 0.049855 -0.001356 2.000000
0.465339 -0.052864 0.043983 2.000000
0.465339 -0.028874 -0.034005 2.000000
0.465339 0.034447 0.076063 2.000000
0.465339 0.006544 0.033621 2.000000
0.465339 -0.012443 0.006883 2.000000
0.465339 0.083997 -0.018486 2.000000
0.465339 0.009957 -0.012644 2.000000
0.465339 0.026870 -0.002664 2.000000
0.465339 -0.055429 -0.055831 2.000000
0.465339 0.032596 -0.007202 2.000000
0.465339 0.082767 0.036174 2.000000
0.465339 0.082150 0.006465 2.000000
0.465339 -0.037707 -0.077331 2.000000
0.465339 0.010124 -0.044752 2.000000
0.465339 0.038913 -0.066476 2.000000
0.465339 -0.027052 -0.067077 2.000000
0.465339 0.090268 -0.001046 2.000000
0.465339 0.017576 0.042240 2.000000
0.465339 -0.016996 0.061878 2.000000
0.465339 0.025822 -0.006232 2.000000
0.465339 0.025638 0.047069 2.000000
0.465339 -0.027585 0.011757 2.000000
0.465339 0.085532 0.038965 2.000000
0.465339 0.019745 0.056459 2.000000
0.465339 -0.064892 0.075551 2.000000
0.465339 0.005237 -0.065884 2.000000
0.465339 0.023301 0.065277 2.000000
0.465339 -0.054656 -0.031586 2.000000
0.465339 0.034366 0.091818 2.000000
0.465339 0.006754 0.014821 2.000000
0.465339 0.000576 0.074366 2.000000
0.465339 -0.017459 0.001684 2.000000
0.465339 0.014699 -0.029917 2.000000
0.465339 0.092413 0.007120 2.000000
0.465339 -0.055939 -0.065478 2.000000
0.465339 0.062160 -0.023955 2.000000
0.465339 0.063972 -0.070326 2.000000
0.465339 0.015162 -0.048999 2.000000
0.465339 -0.095525 0.027356 2.000000
0.465339 -0.024931 -0.090644 2.000000
0.465339 0.082525 0.000931 2.000000
0.465339 -0.053642 0.042573 2.000000
0.465339 0.015988 0.082095 2.000000
0.465339 0.007936 0.050906 2.000000
0.465339 -0.015090 0.076164 2.000000
0.465339 -0.056169 0.034936 2.000000
0.465339 0.033900 -0.058723 2.000000
0.465339 -0.026711 0.009950 2.000000
0.465339 -0.074251 0.022031 2.000000
0.465339 -0.044205 0.082353 2.000000
0.465339 0.019059 0.093577 2.000000
0.465339 -0.023289 -0.087913 2.000000
0.465339 0.072901 -0.062663 2.000000
0.465339 0.006449 -0.010817 2.000000
0.465339 -0.000413 0.028535 2.000000
0.465339 -0.003406 -0.089512 2.000000
0.465339 0.050789 -0.062665 2.000000
0.465339 0.017006 0.083632 2.000000
0.465339 -0.064780 -0.043989 2.000000
0.465339 -0.072225 0.029087 2.000000
0.465339 0.040088 -0.020878 2.000000
0.465339 -0.058283 -0.033974 2.000000
0.465339 0.060399 0.048573 2.000000
0.465339 0.044122 0.033994 2.000000
0.465339 -0.017282 -0.059949 2.000000
0.465339 -0.035301 0.032336 2.000000
0.465339 -0.026591 -0.072435 2.000000
0.465339 -0.050090 -0.053392 2.000000
0.465339 -0.053130 0.036911 2.000000
0.465339 0.032643 -0.089697 2.000000
0.465339 -0.055205 0.039887 2.000000
0.465339 -0.033852 0.083520 2.000000
0.465339 -0.014443 0.052184 2.000000
0.465339 -0.078153 0.035794 2.000000
0.465339 -0.076990 -0.036502 2.000000
0.465339 0.075930 -0.010490 2.000000
0.465339 0.043671 0.025040 2.000000
0.465339 0.088808 0.021550 2.000000
0.465339 -0.026629 0.051325 2.000000
0.465339 0.036979 -0.014573 2.000000
0.465339 0.045254 -0.017347 2.000000
0.465339 0.008130 -0.083582 2.000000
0.465339 -0.051056 0.019018 2.000000
0.465339 -0.076353 -0.023655 2.000000
0.465339 -0.023009 -0.091799 2.000000
0.465339 0.030624 0.000571 2.000000
0.465339 -0.047864 -0.028430 2.000000
0.465339 0.062270 0.062873 2.000000
0.465339 0.033758 -0.053541 2.000000
0.465339 0.006851 -0.042102 2.000000
0.465339 0.051154 -0.041857 2.000000
0.465339 -0.072973 0.037299 2.000000
0.465339 -0.071249 -0.034912 2.000000
0.465339 0.054399 0.021791 2.000000
0.465339 0.096779 -0.024876 2.000000
0.465339 -0.023565 0.091728 2.000000
0.465339 0.017718 -0.087783 2.000000
0.465339 -0.075997 0.015026 2.000000
0.465339 -0.000690 -0.047464 2.000000
0.465339 -0.039517 0.042104 2.000000
0.465339 0.015756 -0.093763 2.000000
0.465339 0.092089 -0.034814 2.000000
0.465339 0.045528 -0.012612 2.000000
0.465339 0.005933 0.072276 2.000000
0.465339 0.000501 0.004573 2.000000
0.465339 -0.064632 -0.075791 2.000000
0.465339 0.049910 0.021807 2.000000
0.465339 0.008967 0.051996 2.000000
0.465339 -0.016716 -0.051415 2.000000
0.465339 -0.068936 -0.025179 2.000000
0.465339 0.046707 -0.082677 2.000000
0.465339 -0.014431 0.090175 2.000000
0.465339 -0.064487 0.012941 2.000000
0.465339 0.037789 0.049543 2.000000
0.465339 0.081608 -0.038141 2.000000
0.465339 0.001837 -0.015886 2.000000
0.465339 0.037233 0.042174 2.000000
0.465339 0.010899 0.059816 2.000000
0.465339 0.036579 -0.031704 2.000000
0.465339 0.095510 -0.029253 2.000000
0.465339 -0.093119 -0.012328 2.000000
0.465339 -0.074621 -0.006834 2.000000
0.465339 0.012187 0.089337 2.000000
0.465339 -0.034272 -0.029039 2.000000
0.465339 0.018164 0.086702 2.000000
0.465339 0.049043 -0.030942 2.000000
0.465339 -0.083108 0.049467 2.000000
0.465339 0.047747 -0.037493 2.000000
0.465339 0.028905 0.023495 2.000000
0.465339 -0.003488 0.013760 2.000000
0.465339 -0.055742 -0.009095 2.000000
0.465339 0.056053 -0.045393 2.000000
0.465339 -0.010606 -0.070757 2.000000
0.465339 0.055576 0.003720 2.000000
0.465339 -0.050515 0.059417 2.000000
0.465339 0.033832 0.022445 2.000000
0.465339 -0.030432 -0.034313 2.000000
0.465339 0.051612 0.073561 2.000000
0.465339 0.000482 0.043491 2.000000
0.465339 -0.060527 0.069202 2.000000
0.465339 0.031241 -0.089029 2.000000
0.465339 0.021893 0.020271 2.000000
0.465339 0.062621 0.070511 2.000000
0.465339 -0.016537 0.063369 2.000000
0.465339 0.062505 0.048935 2.000000
0.465339 -0.048799 0.018943 2.000000
0.465339 0.026954 -0.005349 2.000000
0.465339 -0.077369 0.053458 2.000000
0.465339 -0.031289 0.009517 2.000000
0.465339 -0.044099 0.022309 2.000000
0.465339 -0.080110 0.052714 2.000000
0.465339 -0.049606 0.024949 2.000000
0.465339 -0.030996 0.022665 2.000000
0.465339 -0.087010 0.031207 2.000000
0.465339 -0.033905 -0.083699 2.000000
0.465339 -0.077918 0.007469 2.000000
0.465339 0.078370 -0.014165 2.000000
0.465339 -0.017463 0.038989 2.000000
0.465339 0.072130 -0.007165 2.000000
0.465339 0.023155 -0.047425 2.000000
0.465339 0.025377 0.003262 2.000000
0.465339 -0.054991 -0.012445 2.000000
0.465339 -0.045773 -0.062090 2.000000
0.465339 -0.070315 0.058841 2.000000
0.465339 0.063910 0.048627 2.000000
0.465339 0.004472 -0.081238 2.000000
0.465339 -0.050252 -0.044723 2.000000
0.465339 0.083182 -0.034496 2.000000
0.465339 -0.079666 -0.030091 2.000000
0.465339 -0.085612 0.017097 2.000000
0.465339 -0.013047 -0.025772 2.000000
0.465339 0.088779 -0.045514 2.000000
0.465339 -0.009068 0.067715 2.000000
0.465339 0.052333 -0.058774 2.000000
0.465339 -0.057638 -0.054649 2.000000
0.465339 0.058952 -0.027812 2.000000
0.465339 -0.078206 -0.014733 2.000000
0.465339 0.013567 0.040884 2.000000
0.465339 -0.054640 -0.016157 2.000000
0.465339 -0.025375 -0.007805 2.000000
0.465339 0.029202 -0.014387 2.000000
0.465339 0.031245 0.004219 2.000000
0.465339 -0.025657 0.088695 2.000000
0.465339 -0.034415 -0.057896 2.000000
0.465339 -0.084152 -0.045829 2.000000
0.465339 -0.024237 0.096224 2.000000
0.465339 0.008199 0.088219 2.000000
0.465339 0.031443 0.059552 2.000000
0.465339 0.023367 -0.006370 2.000000
0.465339 0.019346 0.095347 2.000000
0.465339 -0.072744 0.003501 2.000000
0.465339 -0.028245 -0.045218 2.000000
0.465339 -0.060024 -0.036056 2.000000
0.465339 0.058374 0.070670 2.000000
0.465339 0.034757 -0.042178 2.000000
0.465339 -0.009962 0.046532 2.000000
0.465339 0.058212 -0.065859 2.000000
0.465339 0.015767 0.085607 2.000000
0.465339 0.038017 -0.071456 2.000000
0.465339 0.066048 0.066573 2.000000
0.465339 0.068653 0.005209 2.000000
0.465339 0.011043 -0.021542 2.000000
0.465339 0.015621 0.021182 2.000000
0.465339 0.044674 0.032468 2.000000
0.465339 0.084706 -0.001855 2.000000
0.465339 -0.019721 -0.091309 2.000000
0.465339 0.057291 -0.010063 2.000000
0.465339 -0.050798 0.079081 2.000000
0.465339 -0.007204 0.038486 2.000000
0.465339 -0.017398 -0.097859 2.000000
0.465339 0.042027 -0.057248 2.000000
0.465339 0.081853 -0.011490 2.000000
0.465339 0.021077 0.011382 2.000000
0.465339 0.077505 0.025238 2.000000
0.465339 0.073156 -0.050751 2.000000
0.465339 -0.015144 0.023323 2.000000
0.465339 0.027983 0.034163 2.000000
0.465339 0.036008 0.085145 2.000000
0.465339 -0.083377 0.025074 2.000000
0.465339 0.044148 0.016253 2.000000
0.465339 -0.014865 -0.066189 2.000000
0.465339 -0.056552 -0.078293 2.000000
0.465339 -0.099418 0.006602 2.000000
0.465339 0.082017 0.010780 2.000000
0.465339 0.083688 0.040785 2.000000
0.465339 0.009667 0.094954 2.000000
0.465339 -0.002350 0.067377 2.000000
0.465339 0.092665 -0.013952 2.000000
0.465339 -0.056661 0.043323 2.000000
0.465339 0.064759 -0.004834 2.000000
0.465339 0.097210 -0.007794 2.000000
0.465339 -0.044045 0.003148 2.000000
0.465339 -0.057344 -0.074193 2.000000
0.465339 0.080343 0.027168 2.000000
0.465339 0.012715 0.043438 2.000000
0.465339 -0.071251 0.059963 2.000000
0.465339 -0.066837 0.019347 2.000000
0.465339 -0.047783 -0.076983 2.000000
0.465339 -0.026577 -0.030289 2.000000
0.465339 -0.035227 -0.023289 2.000000
0.465339 -0.042109 0.089071 2.000000
0.465339 0.018166 0.006292 2.000000
0.465339 -0.043825 0.016051 2.000000
0.465339 0.011989 -0.047413 2.000000
0.465339 0.051487 0.055135 2.000000
0.465339 -0.050953 -0.065746 2.000000
0.465339 0.051693 0.031407 2.000000
0.465339 0.023783 0.090394 2.000000
0.465339 -0.005314 -0.018359 2.000000
0.465339 -0.006370 -0.057120 2.000000
0.465339 -0.054083 0.075426 2.000000
0.465339 0.035342 0.042922 2.000000
0.465339 0.078693 -0.050867 2.000000
0.465339 -0.013926 0.091704 2.000000
0.465339 0.069340 -0.051650 2.000000
0.465339 -0.009390 -0.018425 2.000000
0.465339 -0.064948 0.002913 2.000000
0.465339 0.008924 0.029809 2.000000
0.465339 -0.054847 0.024502 2.000000
0.465339 0.044759 0.085064 2.000000
0.465339 0.037916 0.027162 2.000000
0.465339 -0.001450 0.099461 2.000000
0.465339 0.002011 0.079989 2.000000
0.465339 0.062776 -0.045769 2.000000
0.465339 -0.009921 -0.072723 2.000000
0.465339 -0.079334 0.040117 2.000000
0.465339 -0.080954 0.006637 2.000000
0.465339 -0.085875 -0.034695 2.000000
0.465339 -0.084367 -0.016834 2.000000
0.465339 0.075540 -0.044843 2.000000
0.465339 0.039947 -0.080785 2.000000
0.465339 -0.029041 -0.060265 2.000000
0.465339 0.014602 0.075122 2.000000
0.465339 -0.032546 0.001576 2.000000
0.465339 0.021893 0.079991 2.000000
0.465339 0.057049 0.071440 2.000000
0.465339 0.026356 -0.062557 2.000000
0.465339 -0.052640 -0.028137 2.000000
0.465339 0.078246 -0.059283 2.000000
0.465339 -0.022250 -0.035830 2.000000
0.465339 -0.036740 0.025439 2.000000
0.465339 0.054417 0.000618 2.000000
0.465339 -0.027163 -0.013271 2.000000
0.465339 0.004435 0.034791 2.000000
0.465339 -0.074092 0.055048 2.000000
0.465339 -0.036806 0.092894 2.000000
0.465339 -0.061181 0.058266 2.000000
0.465339 -0.027363 -0.078635 2.000000
0.465339 0.085527 0.045650 2.000000
0.465339 -0.087832 0.015778 2.000000
0.465339 -0.056481 0.075013 2.000000
0.465339 0.039028 0.035526 2.000000
0.465339 -0.084867 -0.018204 2.000000
0.465339 0.030665 0.030017 2.000000
0.465339 -0.025151 -0.001527 2.000000
0.465339 0.014062 0.085912 2.000000
0.465339 -0.091678 -0.008552 2.000000
0.465339 0.076972 0.041160 2.000000
0.465339 -0.076066 0.040833 2.000000
0.465339 -0.002110 -0.019372 2.000000
0.465339 0.066329 0.069206 2.000000
0.465339 0.061723 -0.026666 2.000000
0.465339 -0.039073 -0.007412 2.000000
0.465339 0.061700 0.046050 2.000000
0.465339 -0.000014 -0.070155 2.000000
0.465339 0.052573 -0.074979 2.000000
0.465339 -0.016417 -0.003051 2.000000
0.465339 -0.047811 0.051112 2.000000
0.465339 -0.047756 -0.039618 2.000000
0.465339 -0.045750 -0.050185 2.000000
0.465339 0.001801 -0.008857 2.000000
0.465339 0.045871 -0.005338 2.000000
0.465339 -0.051070 -0.030516 2.000000
0.465339 -0.025872 0.011892 2.000000
0.465339 -0.018836 0.089325 2.000000
0.465339 0.009019 0.055897 2.000000
0.465339 -0.074750 0.034312 2.000000
0.465339 -0.037744 -0.041845 2.000000
0.465339 0.063418 0.067734 2.000000
0.465339 -0.079048 0.044327 2.000000
0.465339 -0.018104 -0.040549 2.000000
0.465339 -0.017560 -0.070816 2.000000
0.465339 0.069096 -0.047766 2.000000
0.465339 0.060715 0.010286 2.000000
0.465339 0.057817 -0.039044 2.000000
0.465339 0.029672 -0.063341 2.000000
0.465339 0.070862 -0.001292 2.000000
0.465339 0.075562 -0.050445 2.000000
0.465339 0.093461 0.008014 2.000000
0.465339 0.093235 -0.011994 2.000000
0.465339 -0.066747 0.029495 2.000000
0.465339 -0.005480 0.097837 2.000000
0.465339 -0.004158 0.077592 2.000000
0.465339 -0.072730 0.046703 2.000000
0.465339 0.032704 0.081622 2.000000
0.465339 -0.082593 0.007734 2.000000
0.465339 -0.031317 -0.024064 2.000000
0.465339 0.084439 -0.016835 2.000000
0.465339 0.004265 0.021071 2.000000
0.465339 -0.003758 0.085677 2.000000
0.465339 -0.044649 0.040151 2.000000
0.465339 -0.063493 -0.044800 2.000000
0.465339 -0.073886 -0.023621 2.000000
0.465339 0.079041 0.044008 2.000000
0.465339 -0.071442 0.015506 2.000000
0.465339 0.098541 0.009224 2.000000
0.465339 0.082976 -0.038500 2.000000
0.465339 0.045009 -0.069433 2.000000
0.465339 -0.011614 0.039748 2.000000
0.465339 -0.046396 0.026906 2.000000
0.465339 -0.057315 0.019090 2.000000
0.465339 -0.016359 0.027646 2.000000
0.465339 0.021163 -0.086051 2.000000
0.465339 0.086959 0.012283 2.000000
0.465339 0.085481 0.026510 2.000000
0.465339 0.003937 0.010899 2.000000
0.465339 -0.008566 -0.076694 2.000000
0.465339 -0.055359 -0.024977 2.000000
0.465339 -0.069467 -0.031336 2.000000
0.465339 0.081625 -0.006158 2.000000
0.465339 0.081252 -0.016263 2.000000
0.465339 -0.058894 -0.019014 2.000000
0.465339 0.014805 0.019996 2.000000
0.465339 0.006655 0.052052 2.000000
0.465339 -0.014434 -0.096842 2.000000
0.465339 0.075445 -0.040584 2.000000
0.465339 0.010673 -0.029243 2.000000
0.465339 0.072495 -0.037969 2.000000
0.465339 0.091607 0.008547 2.000000
0.465339 0.044154 0.001422 2.000000
0.465339 -0.030677 -0.059407 2.000000
0.465339 -0.070886 -0.041896 2.000000
0.465339 0.049076 0.041428 2.000000
0.465339 -0.051136 -0.050349 2.000000
0.465339 -0.004916 -0.054604 2.000000
0.465339 0.043365 -0.081331 2.000000
0.465339 0.012263 0.054035 2.000000
0.465339 0.054612 0.014160 2.000000
0.465339 0.037961 -0.074773 2.000000
0.465339 -0.068687 0.019421 2.000000
0.465339 0.044139 -0.009505 2.000000
0.465339 0.087735 0.017171 2.000000
0.465339 -0.061735 0.009561 2.000000
0.465339 -0.043932 0.070971 2.000000
0.465339 -0.061449 -0.046849 2.000000
0.465339 -0.016745 0.035462 2.000000
0.465339 -0.053577 -0.023134 2.000000
0.465339 0.072494 0.006894 2.000000
0.465339 0.048212 0.016242 2.000000
0.465339 -0.093491 0.000943 2.000000
0.465339 -0.009496 -0.058193 2.000000
0.465339 0.053387 0.030738 2.000000
0.465339 -0.080542 -0.000150 2.000000
0.465339 -0.000450 -0.057252 2.000000
0.465339 0.062888 -0.053204 2.000000
0.465339 -0.074077 0.038824 2.000000
0.465339 0.054872 -0.074798 2.000000
0.465339 -0.046766 -0.063456 2.000000
0.465339 -0.047198 -0.048895 2.000000
0.465339 -0.065528 0.041825 2.000000
0.465339 0.079134 0.049594 2.000000
0.465339 -0.033819 -0.002292 2.000000
0.465339 -0.026082 -0.083945 2.000000
0.465339 0.092033 -0.018957 2.000000
0.465339 0.002688 -0.007609 2.000000
0.465339 -0.015188 0.094750 2.000000
0.465339 0.041962 0.022562 2.000000
0.465339 0.039008 -0.078119 2.000000
0.465339 -0.025491 -0.022942 2.000000
0.465339 0.038279 -0.035690 2.000000
0.465339 -0.022582 0.088221 2.000000
0.465339 0.030289 -0.076259 2.000000
0.465339 -0.021113 0.059781 2.000000
0.465339 -0.006868 0.083430 2.000000
0.465339 0.050161 -0.033463 2.000000
0.465339 -0.068091 0.028715 2.000000
0.465339 0.049898 -0.061497 2.000000
0.465339 -0.053772 0.014110 2.000000
0.465339 0.055285 -0.040354 2.000000
0.465339 0.066774 0.073497 2.000000
0.465339 -0.024164 -0.062695 2.000000
0.465339 -0.089211 -0.024624 2.000000
0.465339 -0.011746 -0.006699 2.000000
0.465339 -0.023886 -0.048617 2.000000
0.465339 -0.054574 0.057107 2.000000
0.465339 0.018645 0.017626 2.000000
0.465339 -0.023857 -0.006893 2.000000
0.465339 0.076788 -0.055851 2.000000
0.465339 -0.047997 -0.051443 2.000000
0.465339 -0.085496 0.036045 2.000000
0.465339 -0.024915 0.046686 2.000000
0.465339 0.026232 -0.003941 2.000000
0.465339 0.024662 -0.012546 2.000000
0.465339 0.083402 0.007078 2.000000
0.465339 0.019876 0.031687 2.000000
0.465339 -0.044580 -0.072798 2.000000
0.465339 -0.032442 -0.051376 2.000000
0.465339 -0.016384 0.000395 2.000000
0.465339 -0.068392 0.026910 2.000000
0.465339 -0.052249 -0.072418 2.000000
0.465339 0.060533 -0.047766 2.000000
0.465339 -0.052586 0.016053 2.000000
0.465339 0.039228 -0.006462 2.000000
0.465339 -0.037381 0.063090 2.000000
0.465339 0.015968 -0.039818 2.000000
0.465339 0.057585 0.000971 2.000000
0.465339 -0.073200 -0.067235 2.000000
0.465339 0.037857 -0.007202 2.000000
0.465339 -0.075631 0.011663 2.000000
0.465339 -0.012334 -0.073796 2.000000
0.465339 0.089069 -0.003006 2.000000
0.465339 -0.062017 -0.053677 2.000000
0.465339 0.021120 -0.033064 2.000000
0.465339 -0.033875 -0.025970 2.000000
0.465339 -0.096117 0.023020 2.000000
0.465339 -0.075844 0.030829 2.000000
0.465339 0.017657 -0.076911 2.000000
0.465339 0.065671 -0.041630 2.000000
0.465339 0.061699 -0.077855 2.000000
0.465339 -0.029313 0.023905 2.000000
0.465339 -0.007006 0.067206 2.000000
0.465339 -0.078997 -0.013460 2.000000
0.465339 -0.035672 -0.077098 2.000000
0.465339 0.065008 0.071152 2.000000
0.465339 0.020044 -0.069208 2.000000
0.465339 -0.037162 0.027626 2.000000
0.465339 0.017637 -0.086384 2.000000
0.465339 0.016120 -0.088692 2.000000
0.465339 0.035415 -0.069712 2.000000
0.465339 0.007817 0.074591 2.000000
0.465339 0.050537 0.007548 2.000000
0.465339 -0.040558 0.006056 2.000000
0.465339 0.043986 0.060470 2.000000
0.465339 0.004367 -0.069540 2.000000
0.465339 -0.030608 -0.036888 2.000000
0.465339 0.051584 -0.001284 2.000000
0.465339 -0.086049 0.026017 2.000000
0.465339 -0.034129 -0.072756 2.000000
0.465339 -0.025616 0.023024 2.000000
0.465339 -0.083827 0.022951 2.000000
0.465339 -0.008897 0.047906 2.000000
0.465339 0.006551 0.004497 2.000000
0.465339 -0.000483 -0.061129 2.000000
0.465339 0.041267 -0.064176 2.000000
0.465339 -0.028972 0.075862 2.000000
0.465339 -0.029382 -0.072482 2.000000
0.465339 0.056664 0.015614 2.000000
0.465339 -0.005862 0.078202 2.000000
0.465339 0.026861 -0.028701 2.000000
0.465339 0.075795 -0.057001 2.000000
0.465339 -0.028639 0.038103 2.000000
0.465339 -0.056177 0.030335 2.000000
0.465339 -0.049871 -0.018531 2.000000
0.465339 0.014847 -0.082731 2.000000
0.465339 -0.021249 -0.064856 2.000000
0.465339 -0.078271 -0.020863 2.000000
0.465339 -0.006611 0.048233 2.000000
0.465339 0.028065 0.029584 2.000000
0.465339 0.054225 0.059831 2.000000
0.465339 -0.075509 -0.014815 2.000000
0.465339 -0.000454 -0.096416 2.000000
0.465339 -0.027398 0.017138 2.000000
0.465339 0.040635 -0.061865 2.000000
0.465339 -0.068904 0.046237 2.000000
0.465339 -0.064219 -0.002306 2.000000
0.465339 0.062258 -0.021954 2.000000
0.465339 0.066974 -0.026367 2.000000
0.465339 0.015477 -0.036175 2.000000
0.465339 -0.067820 -0.014836 2.000000
0.465339 0.066944 -0.046746 2.000000
0.465339 -0.036963 -0.087262 2.000000
0.465339 -0.040580 -0.001616 2.000000
0.465339 0.053835 -0.022064 2.000000
0.465339 0.042174 -0.026886 2.000000
0.465339 0.001274 0.006332 2.000000
0.465339 -0.077710 -0.010341 2.000000
0.465339 -0.005379 0.069397 2.000000
0.465339 0.007660 -0.009759 2.000000
0.465339 0.054618 0.027099 2.000000
0.465339 0.001494 0.062522 2.000000
0.465339 -0.066858 0.013466 2.000000
0.465339 -0.008328 0.088535 2.000000
0.465339 -0.078728 0.057633 2.000000
0.465339 -0.082610 -0.031928 2.000000
0.465339 0.019186 -0.086547 2.000000
0.465339 -0.024791 -0.043771 2.000000
0.465339 -0.045220 0.019332 2.000000
0.465339 -0.020455 0.031169 2.000000
0.465339 -0.083501 -0.033650 2.000000
0.465339 -0.030211 0.041158 2.000000
0.465339 -0.012481 0.020135 2.000000
0.465339 0.042166 -0.070395 2.000000
0.465339 -0.023938 0.011260 2.000000
0.465339 -0.054487 0.036286 2.000000
0.465339 -0.031678 -0.015184 2.000000
0.465339 -0.008067 0.042253 2.000000
0.465339 0.096065 0.002875 2.000000
0.465339 0.028167 0.037720 2.000000
0.465339 0.066974 0.049558 2.000000
0.465339 -0.077087 0.028008 2.000000
0.465339 -0.056780 -0.028190 2.000000
0.465339 -0.014711 -0.024723 2.000000
0.465339 0.006118 -0.056200 2.000000
0.465339 -0.093952 -0.030556 2.000000
0.465339 0.084242 0.010728 2.000000
0.465339 -0.000378 0.093197 2.000000
0.465339 0.075872 -0.018811 2.000000
0.465339 -0.043163 -0.017791 2.000000
