0.097577 0.096329 0.026876 1.000000
0.285307 -0.097101 -0.022570 1.000000
-0.058977 -0.014166 -0.098640 1.000000
-0.042966 -0.020484 0.097880 1.000000
0.185327 0.099578 -0.008524 1.000000
0.111421 -0.088984 0.045227 1.000000
0.281292 0.037644 -0.092366 1.000000
-0.313217 -0.051192 -0.085467 1.000000
0.164260 0.013163 -0.098836 1.000000
-0.449866 -0.097691 -0.019929 3.000000
0.124239 -0.063758 -0.076605 1.000000
-0.075471 -0.061637 -0.078271 1.000000
0.464215 0.072984 0.068502 2.000000
-0.353349 -0.092512 -0.037157 1.000000
0.085522 -0.078560 -0.061284 1.000000
-0.141260 0.092506 0.038074 1.000000
0.460665 -0.053381 0.084535 2.000000
0.440664 0.077023 0.063920 2.000000
0.284918 0.076693 0.064294 1.000000
0.107378 0.074248 -0.066705 1.000000
0.454897 0.049193 0.087150 2.000000
0.260627 0.091086 -0.040993 1.000000
0.001972 -0.012569 -0.098893 1.000000
0.341541 0.063492 0.077376 1.000000
0.237129 -0.099759 -0.000239 1.000000
0.258760 0.051440 0.085821 1.000000
-0.440587 0.052662 -0.084736 3.000000
0.224949 0.077967 0.062712 1.000000
-0.250200 0.094073 0.033947 1.000000
0.190344 0.013126 0.099205 1.000000
-0.029499 0.093677 -0.034685 1.000000
-0.261838 0.091514 -0.040004 1.000000
-0.292628 0.025256 -0.096482 1.000000
-0.039565 -0.098987 0.012672 1.000000
-0.080001 -0.013969 -0.098671 1.000000
0.206144 0.086584 0.050105 1.000000
0.424248 0.090373 -0.042595 1.000000
-0.018859 0.069225 -0.071905 1.000000
0.084826 0.047606 -0.087674 1.000000
0.072823 0.021289 0.097752 1.000000
0.135230 -0.092847 -0.036341 1.000000
0.393738 0.063290 0.077533 1.000000
0.027038 -0.091165 -0.040269 1.000000
0.384957 -0.086627 -0.049275 1.000000
-0.098009 -0.000638 -0.099683 1.000000
-0.055620 0.077782 0.062951 1.000000
-0.404646 0.071124 0.070368 1.000000
0.351739 0.058160 0.081448 1.000000
0.209388 0.008448 -0.099315 1.000000
-0.077247 0.030822 0.095228 1.000000
-0.177433 0.076316 -0.064359 1.000000
0.105248 -0.088690 0.045804 1.000000
-0.042560 0.099689 -0.007350 1.000000
-0.432390 0.098571 0.016784 1.000000
-0.111916 0.042899 0.090435 1.000000
0.418042 -0.059070 -0.080262 1.000000
0.070430 -0.024575 0.096965 1.000000
-0.096848 -0.067986 0.073240 1.000000
-0.275683 0.099573 0.008936 1.000000
-0.433470 0.017792 -0.098103 3.000000
-0.154918 -0.023500 0.097205 1.000000
0.092610 0.089531 -0.044248 1.000000
0.169517 0.041348 0.091126 1.000000
0.267155 0.039046 0.092122 1.000000
0.232702 -0.099627 -0.004420 1.000000
-0.147188 -0.080491 -0.058795 1.000000
0.319224 -0.096140 0.026720 1.000000
0.407845 -0.010371 -0.099112 1.000000
0.230154 0.097182 0.023612 1.000000
0.462698 0.073446 -0.067614 2.000000
-0.165663 -0.018282 0.098351 1.000000
0.414818 -0.014460 -0.098594 1.000000
-0.045537 -0.052675 -0.084590 1.000000
-0.189322 -0.003062 0.099970 1.000000
-0.102742 -0.094466 0.032206 1.000000
-0.445958 0.098443 -0.017232 3.000000
-0.295764 -0.099262 -0.009396 1.000000
0.016031 0.064190 0.076793 1.000000
-0.047551 -0.057613 -0.081298 1.000000
0.102212 0.032118 0.094773 1.000000
-0.230120 -0.097012 0.023328 1.000000
0.072908 0.098115 -0.019079 1.000000
0.014307 -0.089513 -0.043824 1.000000
-0.000875 -0.032547 -0.094171 1.000000
0.398036 0.099358 0.011217 1.000000
-0.362431 0.071115 0.070377 1.000000
0.261469 0.094886 0.031688 1.000000
0.129961 -0.011506 -0.099004 1.000000
-0.428892 0.092147 -0.038539 3.000000
0.177195 0.017687 0.098482 1.000000
-0.248153 0.040925 0.091309 1.000000
-0.300790 -0.079879 0.059946 1.000000
-0.023092 -0.099247 -0.009559 1.000000
-0.307578 0.055778 -0.082704 1.000000
0.102506 -0.043754 -0.089518 1.000000
0.431387 0.038174 -0.092136 1.000000
-0.382158 -0.066515 -0.074175 1.000000
-0.133278 -0.028729 -0.095406 1.000000
-0.430216 0.080194 0.059841 1.000000
-0.090209 0.098417 0.017753 1.000000
-0.076072 0.052925 -0.084580 1.000000
0.329037 -0.089490 -0.043869 1.000000
0.063800 -0.093005 -0.035901 1.000000
0.023849 -0.021710 -0.097243 1.000000
0.018019 -0.053482 -0.084106 1.000000
-0.441194 0.058648 -0.080754 3.000000
0.402943 -0.087701 0.047744 1.000000
0.279076 -0.066472 -0.074213 1.000000
0.427218 0.072376 -0.068753 1.000000
0.433241 -0.063373 -0.076925 1.000000
0.175207 0.099961 0.001576 1.000000
-0.345592 -0.088187 -0.046427 1.000000
-0.414315 -0.028474 -0.095480 1.000000
-0.073706 0.099734 0.007235 1.000000
0.297010 0.078786 0.061657 1.000000
-0.007728 -0.039726 0.091726 1.000000
-0.251442 0.066602 -0.074303 1.000000
0.003775 -0.099008 -0.012091 1.000000
0.023268 -0.099672 -0.002992 1.000000
-0.115706 -0.096141 0.026720 1.000000
0.006548 -0.053782 -0.083902 1.000000
0.088220 0.099911 -0.002813 1.000000
-0.214734 -0.071716 -0.069180 1.000000
-0.325159 0.010838 0.099452 1.000000
-0.284778 -0.086496 0.049859 1.000000
0.178634 -0.096851 0.024049 1.000000
0.000658 0.048387 0.087627 1.000000
-0.005528 0.020469 -0.097572 1.000000
-0.198534 0.096646 -0.025420 1.000000
-0.380732 -0.087646 0.047853 1.000000
-0.106682 -0.018482 0.098319 1.000000
-0.347512 -0.029515 0.095540 1.000000
-0.177954 0.010977 0.099439 1.000000
-0.112713 0.073150 0.068314 1.000000
0.036187 -0.066743 0.074336 1.000000
0.413852 0.039717 0.091831 1.000000
-0.422039 0.078635 -0.061488 3.000000
-0.299182 0.024806 -0.096603 1.000000
-0.105555 -0.048391 -0.087123 1.000000
-0.135735 0.095610 0.029349 1.000000
-0.054932 -0.001215 0.100028 1.000000
0.422658 0.083344 -0.054977 1.000000
0.184222 0.048088 -0.087429 1.000000
-0.199779 0.047064 -0.087950 1.000000
0.264374 -0.007290 0.099766 1.000000
-0.342454 -0.042710 -0.090049 1.000000
0.102245 0.088200 -0.046861 1.000000
-0.392919 -0.057955 0.081429 1.000000
-0.401854 -0.070465 -0.070431 1.000000
0.016307 -0.078353 -0.061551 1.000000
-0.393176 0.067110 0.074218 1.000000
-0.333782 0.007842 -0.099373 1.000000
-0.139674 -0.082993 -0.055150 1.000000
-0.375576 -0.050450 -0.085906 1.000000
0.175143 -0.092999 0.036282 1.000000
-0.201673 0.086819 0.049708 1.000000
0.409683 -0.067264 -0.073514 1.000000
-0.305486 0.099554 0.009137 1.000000
-0.406876 -0.028802 0.095747 1.000000
0.328005 -0.098501 0.015749 1.000000
0.451394 -0.000561 0.100049 2.000000
-0.003478 0.087424 -0.048323 1.000000
-0.091528 0.099710 -0.007133 1.000000
0.066039 -0.099668 0.003483 1.000000
0.371533 0.037065 -0.092616 1.000000
-0.229677 -0.019257 0.098154 1.000000
0.306550 0.015292 0.098862 1.000000
0.093337 0.098059 0.019690 1.000000
0.266302 0.093682 0.035034 1.000000
-0.461810 0.099231 0.012563 3.000000
0.304998 -0.089072 0.045054 1.000000
0.378927 -0.087503 0.048134 1.000000
0.465251 0.099946 -0.001694 2.000000
-0.247239 -0.045618 0.088930 1.000000
-0.144083 0.096811 -0.024852 1.000000
-0.060641 0.009214 -0.099243 1.000000
0.323402 -0.054333 0.083890 1.000000
0.284276 0.072512 0.068980 1.000000
-0.452829 0.046337 -0.088320 3.000000
-0.131539 -0.073173 -0.067659 1.000000
-0.039384 0.093553 0.035392 1.000000
0.025140 -0.039724 -0.091364 1.000000
0.045121 0.070389 0.071103 1.000000
0.360615 0.081659 0.057819 1.000000
-0.340241 -0.098294 0.017062 1.000000
-0.459992 0.060255 -0.079524 3.000000
-0.381776 -0.092041 0.038607 1.000000
0.198214 0.091003 0.041547 1.000000
0.203664 0.082168 -0.056707 1.000000
-0.237114 0.053897 -0.083982 1.000000
-0.432046 -0.083035 0.055451 3.000000
0.448388 -0.097420 -0.021142 2.000000
0.372391 0.045948 0.088881 1.000000
-0.379022 0.040075 -0.091314 1.000000
0.156393 -0.067089 -0.073668 1.000000
-0.035835 0.016410 -0.098322 1.000000
-0.346359 0.086481 -0.049916 1.000000
-0.207664 -0.059820 -0.079681 1.000000
-0.345704 -0.073605 0.067532 1.000000
0.163506 0.020220 0.097991 1.000000
-0.401165 -0.051170 -0.085480 1.000000
0.276671 0.065662 -0.075132 1.000000
0.273922 -0.012113 -0.098947 1.000000
-0.147355 0.077660 0.063108 1.000000
-0.422423 -0.059387 0.080379 1.000000
0.299721 0.091357 0.040729 1.000000
0.233047 -0.041625 -0.090542 1.000000
0.278377 -0.073389 -0.067415 1.000000
-0.092737 0.029696 0.095555 1.000000
-0.437590 0.003970 -0.099586 3.000000
-0.466027 0.045508 -0.088743 3.000000
-0.158484 0.099024 0.013924 1.000000
0.201090 0.094709 -0.031817 1.000000
0.148376 -0.076211 0.064576 1.000000
-0.069408 0.058008 -0.081189 1.000000
0.273381 -0.079021 -0.060689 1.000000
0.457802 0.051709 -0.085299 2.000000
0.075418 0.088305 -0.046655 1.000000
-0.229068 0.034947 0.093754 1.000000
-0.058737 0.099904 0.003414 1.000000
-0.278197 -0.002968 0.099973 1.000000
0.310994 0.018005 -0.098069 1.000000
-0.124299 -0.089105 -0.044626 1.000000
-0.162591 -0.083458 -0.054466 1.000000
0.306129 -0.040767 0.091276 1.000000
0.413470 -0.099252 -0.009504 1.000000
-0.247565 -0.023264 -0.096896 1.000000
-0.400389 -0.079934 0.059876 1.000000
-0.442681 -0.099509 -0.006785 3.000000
-0.227876 -0.025036 -0.096479 1.000000
-0.275214 0.095850 0.028525 1.000000
0.225877 0.027539 -0.095819 1.000000
0.008170 -0.064133 -0.076275 1.000000
-0.031543 -0.050567 0.086199 1.000000
-0.439633 0.007256 0.099791 3.000000
0.389717 -0.018472 0.098321 1.000000
0.091231 -0.098240 -0.017039 1.000000
0.255000 -0.004469 -0.099563 1.000000
-0.185587 -0.079023 0.061050 1.000000
0.053455 0.044888 -0.089059 1.000000
-0.267094 0.053818 -0.084036 1.000000
-0.277471 -0.016080 0.098700 1.000000
-0.229913 0.091526 -0.039976 1.000000
0.052027 0.016314 -0.098337 1.000000
-0.229021 0.056333 0.082690 1.000000
0.212352 0.087171 0.049113 1.000000
0.013050 -0.018360 -0.097976 1.000000
-0.220584 0.073815 -0.067196 1.000000
-0.342573 -0.006946 0.099798 1.000000
0.456500 -0.031968 -0.094380 2.000000
0.311440 0.010560 0.099479 1.000000
0.244570 0.098126 -0.019028 1.000000
0.215693 -0.083895 -0.053823 1.000000
-0.214626 0.042327 -0.090339 1.000000
-0.242349 0.037537 0.092775 1.000000
0.414872 0.098717 -0.015497 1.000000
-0.117616 -0.019551 0.098088 1.000000
0.214656 -0.046687 0.088386 1.000000
-0.199303 0.016879 0.098610 1.000000
0.328979 -0.085665 0.051265 1.000000
0.341861 0.094797 0.031936 1.000000
0.119615 0.031077 0.095148 1.000000
0.288718 -0.099701 -0.002079 1.000000
0.119574 -0.092328 0.037945 1.000000
0.348669 0.016912 0.098605 1.000000
0.218486 -0.099359 0.008732 1.000000
-0.255503 -0.063325 -0.076962 1.000000
-0.300740 0.097223 -0.023068 1.000000
0.310669 0.022408 0.097502 1.000000
-0.002714 0.072413 0.069079 1.000000
-0.026296 0.063976 -0.076618 1.000000
-0.264592 -0.065591 0.075351 1.000000
-0.212346 -0.096490 0.025518 1.000000
0.146849 -0.000235 -0.099696 1.000000
0.370744 -0.026443 0.096432 1.000000
-0.395529 -0.003511 0.099956 1.000000
-0.303417 0.065193 0.075908 1.000000
-0.171115 -0.099288 0.009488 1.000000
-0.454733 -0.037389 0.092737 3.000000
-0.016898 0.080374 0.059609 1.000000
0.418666 -0.032577 0.094523 2.000000
-0.450679 0.080666 0.059233 3.000000
0.389860 0.098893 -0.014385 1.000000
0.275159 -0.066089 0.074912 1.000000
0.133875 0.056510 0.082569 1.000000
-0.313235 -0.095354 -0.029064 1.000000
-0.233689 0.098305 0.018462 1.000000
0.234868 0.024740 0.096980 1.000000
0.063409 -0.055352 -0.082835 1.000000
-0.228967 0.028237 -0.095616 1.000000
0.330912 0.000088 -0.099706 1.000000
-0.330954 0.053545 -0.084214 1.000000
0.378637 0.068349 -0.072763 1.000000
0.264224 -0.069255 0.072004 1.000000
0.042767 -0.039104 -0.091633 1.000000
-0.337133 0.058830 -0.080630 1.000000
0.376335 0.097479 0.022286 1.000000
0.093010 0.021693 0.097662 1.000000
-0.092945 0.083578 -0.054632 1.000000
-0.211577 -0.023169 -0.096917 1.000000
-0.347407 0.000621 -0.099691 1.000000
0.352232 -0.061449 0.078781 1.000000
0.044159 0.099950 0.001932 1.000000
-0.378635 -0.021951 -0.097189 1.000000
0.209409 0.081880 -0.057132 1.000000
0.205994 -0.047707 -0.087503 1.000000
0.076399 0.046988 0.088352 1.000000
0.372439 -0.054627 -0.083327 1.000000
0.404538 0.046026 -0.088479 1.000000
0.106050 0.085775 0.051473 1.000000
-0.362316 -0.091457 0.039958 1.000000
0.410505 -0.095954 0.027362 1.000000
-0.112952 0.086270 0.050636 1.000000
-0.108260 -0.097079 -0.022668 1.000000
-0.011856 0.067456 -0.073551 1.000000
0.273205 -0.059200 -0.080162 1.000000
-0.090898 -0.051365 0.085728 1.000000
-0.042954 0.066370 -0.074508 1.000000
0.160845 -0.080151 0.059595 1.000000
-0.199392 0.060801 0.079464 1.000000
-0.188258 0.054916 0.083653 1.000000
-0.140728 0.031179 -0.094748 1.000000
0.309829 0.001606 -0.099660 1.000000
0.144387 -0.004054 0.099939 1.000000
-0.349218 -0.021405 0.097674 1.000000
0.300901 -0.055444 0.083135 1.000000
-0.099057 0.094671 -0.031922 1.000000
-0.293520 0.075448 -0.065343 1.000000
0.112006 0.014181 0.099038 1.000000
-0.291488 0.070677 0.070815 1.000000
-0.329490 -0.018497 0.098317 1.000000
-0.354582 0.094850 0.031787 1.000000
-0.419158 0.081985 0.057339 1.000000
0.311215 -0.088133 0.046896 1.000000
-0.120799 -0.068918 -0.071979 1.000000
0.221978 0.097535 -0.021672 1.000000
0.022867 0.099958 0.001682 1.000000
0.379016 -0.062514 -0.077591 1.000000
-0.085303 -0.046366 -0.088187 1.000000
0.356342 0.062884 0.077848 1.000000
0.242149 0.031411 -0.094665 1.000000
-0.055787 -0.066465 -0.074219 1.000000
0.124038 0.024573 -0.096655 1.000000
-0.447962 0.019059 0.098250 3.000000
0.396022 0.088805 0.046035 1.000000
-0.236963 0.065173 -0.075563 1.000000
-0.101284 0.084678 0.053328 1.000000
-0.417070 -0.075885 0.064946 1.000000
0.360599 -0.003631 0.099952 1.000000
0.034623 -0.068704 -0.072192 1.000000
-0.429055 -0.098932 -0.012670 3.000000
0.166066 -0.054201 -0.083617 1.000000
-0.185514 -0.067772 0.073429 1.000000
-0.136550 0.052914 0.084949 1.000000
0.248378 -0.018599 0.098301 1.000000
-0.055506 -0.099047 -0.011679 1.000000
-0.443522 -0.095334 0.029496 3.000000
0.426870 0.020068 0.098025 2.000000
-0.145630 0.056732 0.082418 1.000000
0.177794 0.074924 -0.065938 1.000000
-0.453589 0.079747 -0.060054 3.000000
-0.380043 0.015796 -0.098419 1.000000
-0.175730 0.083827 0.054628 1.000000
-0.135556 0.099455 0.010193 1.000000
-0.329574 0.079870 0.060259 1.000000
0.378695 -0.099722 0.001768 1.000000
0.164034 0.053436 0.084640 1.000000
0.463677 -0.093244 -0.035237 2.000000
-0.193230 0.036827 0.093077 1.000000
-0.125273 -0.030323 0.095305 1.000000
-0.441751 -0.056638 0.082324 3.000000
0.095668 0.030473 -0.094967 1.000000
-0.241942 -0.060302 0.079670 1.000000
0.458794 -0.046527 0.088467 2.000000
0.369363 0.083973 -0.054051 1.000000
-0.245470 0.027601 0.096164 1.000000
-0.415564 0.053179 -0.084430 1.000000
-0.384308 -0.078176 0.062142 1.000000
-0.371749 -0.031196 -0.094658 1.000000
0.308114 -0.023140 0.097286 1.000000
0.448935 0.060638 0.079591 2.000000
0.267795 0.056970 0.082257 1.000000
-0.284698 -0.086761 -0.049049 1.000000
0.462162 -0.041741 -0.090492 2.000000
0.206269 -0.031397 0.094948 1.000000
0.279027 -0.030878 -0.094772 1.000000
-0.338997 -0.032600 -0.094152 1.000000
0.335243 0.053433 0.084642 1.000000
-0.446937 0.048820 -0.087008 3.000000
0.405185 -0.094909 -0.030596 1.000000
-0.427997 -0.016974 -0.098196 1.000000
-0.341993 -0.076909 0.063775 1.000000
-0.421114 0.049497 -0.086607 1.000000
0.407089 -0.008998 0.099604 1.000000
-0.375367 0.082091 -0.056821 1.000000
0.225902 0.088485 -0.046302 1.000000
-0.459933 -0.031906 -0.094402 3.000000
0.066376 -0.071023 -0.069873 1.000000
-0.099263 -0.038777 0.092137 1.000000
-0.414902 0.099832 -0.005331 1.000000
-0.465919 0.097104 -0.023598 3.000000
-0.448715 -0.020538 -0.097505 3.000000
-0.461585 -0.088708 0.045767 3.000000
-0.367423 0.088467 -0.046337 1.000000
0.114662 -0.034385 0.093873 1.000000
0.192402 -0.046049 -0.088348 1.000000
-0.345075 -0.068704 -0.072192 1.000000
0.154090 0.097857 0.020593 1.000000
-0.024827 0.033607 -0.093874 1.000000
-0.410351 -0.060736 0.079333 1.000000
-0.319475 0.027042 -0.095964 1.000000
0.143109 0.073301 0.068141 1.000000
0.372709 -0.006857 -0.099444 1.000000
-0.429940 0.005510 -0.099538 1.000000
0.033403 0.095704 -0.028662 1.000000
-0.390072 0.071147 0.070345 1.000000
-0.011993 -0.033748 0.094102 1.000000
0.016496 0.020377 0.097956 1.000000
-0.059378 -0.087916 -0.046959 1.000000
0.136384 -0.093288 0.035479 1.000000
0.355092 0.076204 0.064850 1.000000
-0.017066 -0.097713 -0.019830 1.000000
0.344245 -0.003394 0.099960 1.000000
0.157992 0.070512 -0.070617 1.000000
-0.262780 0.032874 -0.094138 1.000000
0.365641 -0.056608 -0.081981 1.000000
-0.293820 -0.088443 -0.045925 1.000000
-0.278792 -0.080318 -0.059018 1.000000
-0.188635 0.097263 0.023251 1.000000
-0.366283 0.099731 -0.006907 1.000000
0.270364 0.068988 -0.072141 1.000000
-0.416265 -0.056299 0.082554 1.000000
-0.109520 0.067709 0.073690 1.000000
-0.130945 -0.039208 0.091951 1.000000
-0.171363 0.013440 0.099155 1.000000
-0.059526 0.050015 0.086664 1.000000
0.338009 -0.099605 0.005486 1.000000
-0.325629 -0.023346 0.097240 1.000000
-0.222820 0.047971 -0.087488 1.000000
0.184956 -0.078030 0.062330 1.000000
-0.281463 -0.070158 -0.070738 1.000000
-0.109689 0.096833 -0.024777 1.000000
0.371737 0.098276 -0.018281 1.000000
-0.308167 0.099910 -0.002857 1.000000
-0.311806 0.035869 -0.093060 1.000000
-0.224226 0.076222 0.064828 1.000000
0.335609 0.079257 -0.060686 1.000000
-0.160329 0.091844 -0.039241 1.000000
0.250257 0.001758 0.100018 1.000000
-0.217214 0.055803 0.083050 1.000000
-0.026507 -0.065099 0.075785 1.000000
-0.152031 -0.041775 -0.090477 1.000000
0.367833 0.094347 0.033186 1.000000
-0.369324 0.083308 0.055392 1.000000
0.149261 0.039923 -0.091379 1.000000
0.342803 0.099291 -0.011557 1.000000
-0.137623 -0.077752 0.062688 1.000000
0.007354 0.086681 0.049942 1.000000
0.312708 0.048000 0.087836 1.000000
-0.083661 -0.045855 0.088810 1.000000
-0.200061 -0.098983 0.012710 1.000000
0.190138 -0.099377 -0.008185 1.000000
-0.119558 0.062861 -0.077503 1.000000
-0.397232 -0.055066 -0.083030 1.000000
-0.125795 0.098635 0.016378 1.000000
-0.167100 0.098891 0.014762 1.000000
-0.267317 0.095226 -0.030308 1.000000
-0.137026 -0.079835 -0.059640 1.000000
0.046821 0.097265 -0.022878 1.000000
0.324702 -0.034866 0.093699 1.000000
-0.344809 -0.095425 0.029182 1.000000
-0.105022 -0.068387 -0.072509 1.000000
-0.032649 -0.009793 -0.099166 1.000000
0.147528 0.054848 0.083699 1.000000
-0.093889 0.099524 0.009460 1.000000
-0.238310 -0.036573 0.093085 1.000000
0.037328 0.022604 -0.097095 1.000000
0.125548 0.075322 -0.065487 1.000000
-0.353355 -0.040663 -0.090958 1.000000
-0.218472 0.088498 -0.046276 1.000000
-0.005601 0.082975 -0.055520 1.000000
-0.456888 -0.099008 0.012445 3.000000
-0.383942 -0.061854 -0.078104 1.000000
-0.343662 -0.091069 0.040854 1.000000
-0.465396 -0.096661 -0.024536 3.000000
-0.412279 -0.068219 0.073035 1.000000
-0.397669 0.093118 0.036600 1.000000
0.409688 0.003764 -0.099593 1.000000
-0.343272 0.057257 0.082062 1.000000
-0.121970 -0.063521 -0.076810 1.000000
-0.182553 -0.058463 0.081084 1.000000
0.087082 0.093989 0.034179 1.000000
0.464637 0.064293 -0.076339 2.000000
-0.313304 0.014784 0.098942 1.000000
-0.436872 -0.007413 0.099754 3.000000
0.346408 -0.020461 0.097885 1.000000
-0.421112 -0.013563 -0.098736 1.000000
-0.050585 0.092453 -0.037834 1.000000
0.214798 0.073627 0.067772 1.000000
-0.039126 -0.037677 -0.092250 1.000000
-0.254512 0.081548 -0.057620 1.000000
-0.164047 -0.065075 -0.075444 1.000000
0.152223 -0.080956 0.058510 1.000000
0.138748 -0.095296 0.029629 1.000000
0.382508 0.077122 0.063802 1.000000
0.369712 -0.099338 0.008959 1.000000
0.409227 0.097733 -0.020784 1.000000
0.456103 0.018564 -0.097981 2.000000
0.457427 0.007085 -0.099444 2.000000
0.154678 0.003645 0.099959 1.000000
-0.229981 0.018543 -0.097984 1.000000
0.292515 0.034376 0.093960 1.000000
-0.166931 -0.074734 0.066251 1.000000
-0.451963 0.022827 -0.097045 3.000000
0.334359 0.068190 -0.072904 1.000000
0.428970 -0.083071 -0.055035 1.000000
-0.140667 -0.092308 -0.037628 1.000000
0.464705 -0.049715 0.086703 2.000000
0.445958 -0.055559 0.083057 2.000000
0.112792 0.044269 -0.089374 1.000000
-0.315915 -0.074146 -0.066556 1.000000
0.099160 0.020267 -0.097618 1.000000
0.371810 0.077881 -0.062460 1.000000
0.205366 0.031209 0.095100 1.000000
-0.204337 0.070924 -0.070205 1.000000
0.097433 0.013597 0.099130 1.000000
-0.437934 0.084869 -0.052643 3.000000
-0.345355 -0.031945 -0.094388 1.000000
-0.280581 -0.052808 0.084874 1.000000
0.266479 0.099871 -0.004084 1.000000
-0.283164 -0.098030 0.018728 1.000000
0.125709 -0.083152 0.055279 1.000000
-0.071424 0.048752 0.087411 1.000000
0.263461 -0.023938 -0.096745 1.000000
-0.434498 -0.086883 0.049204 3.000000
-0.425961 -0.008169 -0.099320 1.000000
0.062534 0.073966 0.067387 1.000000
-0.021794 -0.099646 -0.003821 1.000000
-0.318380 -0.043228 0.090148 1.000000
0.442079 0.028272 0.095969 2.000000
-0.078226 -0.077016 0.063637 1.000000
-0.024471 0.019411 0.098172 1.000000
-0.221990 0.088725 0.046192 1.000000
-0.101610 0.066382 0.074860 1.000000
0.061145 -0.077851 0.062561 1.000000
-0.341746 0.093583 0.035308 1.000000
-0.202361 0.099171 0.012996 1.000000
0.435267 -0.060668 0.079386 2.000000
-0.222750 0.035398 0.093592 1.000000
0.084352 -0.070463 0.070796 1.000000
0.144612 -0.058760 0.080866 1.000000
0.069528 -0.074245 0.066806 1.000000
-0.326766 0.071733 0.069759 1.000000
-0.343004 0.072836 0.068656 1.000000
-0.200282 -0.089092 -0.044651 1.000000
0.138996 0.002561 0.099993 1.000000
-0.342735 0.024785 -0.096608 1.000000
-0.464193 -0.022867 0.097347 3.000000
0.112237 -0.096417 0.025770 1.000000
0.273700 -0.063768 -0.076596 1.000000
-0.308630 0.063645 -0.076895 1.000000
0.287323 0.099407 -0.010335 1.000000
-0.124783 -0.099764 0.000426 1.000000
0.183094 -0.098202 0.017638 1.000000
-0.405588 -0.095113 -0.029894 1.000000
-0.454064 -0.083067 0.055405 3.000000
0.406221 -0.025792 -0.096259 1.000000
0.059140 0.075784 -0.064962 1.000000
0.373319 0.001870 -0.099652 1.000000
0.385332 -0.004481 0.099926 1.000000
0.039538 -0.027396 -0.095793 1.000000
0.276408 -0.093180 -0.035417 1.000000
-0.348156 -0.088710 0.045765 1.000000
0.306944 0.068558 -0.072572 1.000000
0.328627 0.070880 -0.070249 1.000000
-0.168645 -0.082087 -0.056484 1.000000
0.386227 -0.063354 -0.076940 1.000000
0.100212 0.026771 -0.096042 1.000000
0.113155 0.091362 0.040717 1.000000
0.407584 -0.051959 -0.085013 1.000000
-0.070562 0.097140 -0.023441 1.000000
-0.362240 -0.061024 0.079110 1.000000
-0.055173 -0.086581 0.049715 1.000000
0.178710 0.062738 0.077961 1.000000
0.220298 -0.079940 0.059867 1.000000
-0.022194 -0.048389 -0.087124 1.000000
-0.348315 0.033041 0.094441 1.000000
-0.086631 0.033431 0.094300 1.000000
-0.374651 0.089966 -0.043395 1.000000
0.180097 0.067853 0.073563 1.000000
0.272251 0.098807 -0.014933 1.000000
0.338297 0.085945 -0.050823 1.000000
-0.226534 -0.047824 0.087806 1.000000
0.380181 0.096159 0.027459 1.000000
0.133780 0.001333 -0.099669 1.000000
-0.055855 0.099463 0.010104 1.000000
-0.077193 -0.043732 0.089892 1.000000
-0.150557 -0.076871 0.063824 1.000000
0.311503 -0.017369 -0.098133 1.000000
0.389762 0.089869 0.043947 1.000000
-0.024895 -0.006334 0.099856 1.000000
-0.252018 0.087137 -0.048808 1.000000
-0.167826 -0.069674 -0.071222 1.000000
-0.429130 0.027712 -0.095769 3.000000
-0.235220 0.031584 0.094965 1.000000
0.202383 -0.008167 -0.099320 1.000000
0.411879 -0.004573 0.099923 1.000000
-0.385364 -0.061624 0.078644 1.000000
0.069964 0.098713 0.015884 1.000000
-0.266444 0.016553 0.098662 1.000000
-0.287597 0.074075 -0.066901 1.000000
-0.251130 0.072301 -0.068828 1.000000
0.369617 0.024529 0.097028 1.000000
-0.456843 0.087173 0.049109 3.000000
-0.270426 0.096723 -0.025157 1.000000
-0.345120 0.082326 0.056838 1.000000
0.405254 0.003073 0.099977 1.000000
0.184216 0.099953 -0.001475 1.000000
0.205386 0.099798 0.006563 1.000000
-0.231392 -0.048955 -0.086790 1.000000
-0.015209 -0.080351 -0.058975 1.000000
-0.286669 0.078108 0.062530 1.000000
0.399662 0.093681 -0.034672 1.000000
-0.014071 -0.025278 -0.096408 1.000000
0.375773 -0.035175 -0.093225 1.000000
-0.121151 -0.068477 0.072782 1.000000
0.004931 0.099885 0.003992 1.000000
-0.291117 -0.079575 0.060338 1.000000
0.427558 0.035191 0.093666 2.000000
-0.286526 -0.001631 0.100015 1.000000
0.255831 -0.033821 0.094076 1.000000
-0.075162 0.077972 0.062706 1.000000
0.244885 0.088860 -0.045564 1.000000
0.279331 0.099980 -0.000617 1.000000
0.208202 -0.019656 0.098065 1.000000
-0.071727 -0.091472 -0.039560 1.000000
-0.167524 0.016545 -0.098300 1.000000
-0.363881 0.087314 0.048871 1.000000
-0.328736 -0.099759 0.000594 1.000000
-0.185371 0.053618 -0.084170 1.000000
0.304755 -0.002888 0.099976 1.000000
-0.007927 0.099398 -0.010429 1.000000
0.098777 0.001599 0.100023 1.000000
-0.317323 -0.061110 -0.078680 1.000000
-0.361135 -0.095691 0.028268 1.000000
0.027581 0.002338 0.100000 1.000000
0.449120 0.072678 0.068814 2.000000
0.099026 0.038138 0.092515 1.000000
0.143219 -0.098933 -0.012662 1.000000
0.193050 0.027467 0.096203 1.000000
-0.131482 -0.032754 0.094460 1.000000
0.304258 -0.099771 0.000201 1.000000
-0.393280 0.056814 0.082363 1.000000
0.121160 0.097012 0.024376 1.000000
-0.444612 0.046444 0.088628 3.000000
0.086590 -0.087444 -0.047886 1.000000
-0.329970 0.004270 0.099939 1.000000
0.162130 0.042320 0.090705 1.000000
-0.128752 -0.066667 -0.074040 1.000000
-0.294975 0.019449 -0.097800 1.000000
-0.421010 0.069922 -0.071207 1.000000
0.323816 -0.007872 0.099711 1.000000
-0.410219 -0.000049 -0.099702 1.000000
0.142796 -0.094342 -0.032189 1.000000
0.367107 0.091219 0.041047 1.000000
0.150464 -0.023563 -0.096829 1.000000
-0.241576 -0.000368 0.100055 1.000000
-0.261291 0.085555 0.051845 1.000000
0.106667 0.091280 0.040907 1.000000
0.018573 -0.087227 -0.048260 1.000000
-0.041679 0.099998 -0.000047 1.000000
0.202027 -0.065781 0.075184 1.000000
0.100875 -0.068672 -0.072224 1.000000
-0.333391 0.092075 -0.038706 1.000000
-0.254524 0.003569 -0.099599 1.000000
-0.414874 -0.098732 -0.013931 1.000000
-0.414835 0.004901 -0.099557 1.000000
-0.436261 0.079573 -0.060279 3.000000
-0.356422 0.048195 -0.087374 1.000000
-0.326322 -0.030993 0.095094 1.000000
-0.242779 -0.050105 0.086472 1.000000
-0.226777 0.013845 0.099091 1.000000
-0.012403 0.091281 0.040903 1.000000
0.247827 0.001859 -0.099652 1.000000
0.379283 0.048356 -0.087282 1.000000
-0.039684 0.073255 0.068194 1.000000
-0.242264 0.099908 0.003267 1.000000
-0.019800 -0.097882 0.019437 1.000000
0.319244 0.093010 -0.036537 1.000000
-0.135945 -0.058158 -0.080928 1.000000
-0.354207 -0.057179 -0.081593 1.000000
0.436439 -0.000375 0.100055 2.000000
0.327336 -0.066842 0.074249 1.000000
0.031079 -0.063924 0.076821 1.000000
0.260971 0.096315 -0.026561 1.000000
-0.003162 0.054803 0.083730 1.000000
0.346798 -0.090369 -0.042108 1.000000
0.034270 0.045126 0.089300 1.000000
0.191204 0.089240 0.045183 1.000000
0.018895 0.087365 0.048784 1.000000
0.312004 -0.010764 -0.099074 1.000000
-0.084155 -0.025004 0.096851 1.000000
-0.370187 -0.001692 0.100013 1.000000
-0.336391 0.099656 0.008062 1.000000
-0.255232 0.037163 -0.092574 1.000000
-0.244289 0.093476 0.035606 1.000000
0.447881 -0.089076 -0.044683 2.000000
-0.450620 0.058330 -0.080970 3.000000
0.400725 -0.069318 0.071941 1.000000
-0.181452 -0.001553 0.100018 1.000000
0.071618 -0.051596 0.085590 1.000000
0.303619 0.099967 0.001407 1.000000
-0.092132 -0.098176 0.017803 1.000000
0.375200 -0.059248 0.080488 1.000000
-0.249790 -0.041302 -0.090682 1.000000
0.424949 0.098569 0.016795 1.000000
0.261108 -0.031323 0.094975 1.000000
-0.355957 -0.040611 0.091343 1.000000
0.030722 -0.016460 -0.098277 1.000000
0.123095 0.039798 0.091796 1.000000
0.172402 0.095263 0.030544 1.000000
0.172171 0.058794 0.081017 1.000000
-0.054766 0.036763 -0.092738 1.000000
0.414674 0.067859 0.073558 1.000000
0.257322 -0.095433 -0.028791 1.000000
0.091835 -0.094075 0.033293 1.000000
-0.189531 -0.082683 0.055969 1.000000
-0.426949 -0.085419 -0.051317 1.000000
-0.109095 -0.086234 0.050302 1.000000
-0.267531 0.099590 0.008760 1.000000
0.082030 0.092959 -0.036662 1.000000
0.110351 0.065874 -0.074945 1.000000
-0.461016 -0.059180 0.080540 3.000000
0.464554 -0.046767 -0.087983 2.000000
-0.283796 0.099860 -0.004431 1.000000
-0.328452 -0.052032 0.085333 1.000000
0.450543 -0.079936 -0.059510 2.000000
-0.193586 0.063584 0.077305 1.000000
0.464615 -0.083137 0.055301 2.000000
-0.242984 0.063035 0.077731 1.000000
0.084693 0.098242 0.018862 1.000000
-0.050559 0.080818 0.059036 1.000000
-0.411445 -0.099686 0.002916 1.000000
0.401359 -0.013311 0.099138 1.000000
0.113536 0.079051 0.061314 1.000000
-0.122108 0.073562 0.067846 1.000000
-0.290802 0.051519 0.085774 1.000000
0.009754 -0.091475 -0.039553 1.000000
0.087406 0.094443 -0.032557 1.000000
0.149878 0.096331 -0.026504 1.000000
-0.361428 -0.022707 -0.097020 1.000000
0.436976 0.039584 -0.091526 1.000000
-0.283962 -0.094188 -0.032616 1.000000
-0.209674 0.073196 0.068260 1.000000
0.281976 0.067683 0.073713 1.000000
0.316891 -0.018985 0.098215 1.000000
0.407139 -0.082203 -0.056312 1.000000
0.201154 0.084293 0.053943 1.000000
0.405780 0.022787 -0.097054 1.000000
-0.459440 0.099992 -0.000238 3.000000
-0.116965 -0.099687 -0.002515 1.000000
0.427486 0.097227 0.023413 1.000000
0.089002 -0.074017 0.067065 1.000000
0.299310 0.059753 -0.079914 1.000000
-0.347217 -0.052340 0.085151 1.000000
-0.333432 0.034797 -0.093445 1.000000
0.194387 -0.090462 0.042257 1.000000
0.249369 0.065319 -0.075435 1.000000
0.398811 0.095640 -0.028884 1.000000
-0.079971 -0.079545 -0.060014 1.000000
-0.233824 0.004591 -0.099567 1.000000
0.236385 -0.080825 -0.058340 1.000000
-0.217082 0.003042 0.099978 1.000000
0.200087 0.052177 -0.085022 1.000000
-0.110890 0.067790 -0.073256 1.000000
0.048307 0.098423 0.017721 1.000000
0.445870 -0.066274 -0.074387 2.000000
-0.347324 -0.097182 0.022569 1.000000
0.376548 -0.099585 -0.005762 1.000000
0.227771 -0.045619 -0.088568 1.000000
-0.007511 0.099547 0.009218 1.000000
-0.400233 0.081712 -0.057378 1.000000
-0.219257 0.073371 0.068062 1.000000
0.412290 0.063317 0.077512 1.000000
-0.143778 0.098609 -0.016183 1.000000
-0.094193 0.035625 0.093510 1.000000
-0.203707 0.063610 -0.076922 1.000000
0.353209 0.082429 0.056687 1.000000
0.260500 -0.035829 -0.092990 1.000000
0.334817 0.042523 -0.090254 1.000000
-0.005232 0.038351 0.092423 1.000000
-0.265131 -0.099715 0.001988 1.000000
0.311710 -0.095923 -0.027107 1.000000
0.370108 -0.065539 0.075398 1.000000
0.220283 0.048937 0.087301 1.000000
-0.270826 0.081317 0.058322 1.000000
-0.313571 0.098494 0.017268 1.000000
-0.074855 0.019219 0.098215 1.000000
-0.101282 0.051087 -0.085667 1.000000
-0.110221 -0.098365 -0.016249 1.000000
0.179520 0.023656 0.097223 1.000000
-0.042043 -0.096646 0.024968 1.000000
-0.150964 0.037595 0.092749 1.000000
0.306687 0.095941 0.028210 1.000000
-0.120067 -0.031631 -0.094501 1.000000
0.266145 0.085057 0.052687 1.000000
-0.176864 -0.086008 0.050684 1.000000
-0.173743 0.098384 0.017965 1.000000
-0.257400 0.051343 0.085878 1.000000
-0.051893 0.091418 0.040587 1.000000
-0.127846 0.035283 0.093633 1.000000
0.000226 -0.098269 -0.016855 1.000000
-0.000042 0.059365 0.080578 1.000000
0.086805 -0.036011 -0.092924 1.000000
0.172923 0.065404 -0.075360 1.000000
0.254232 -0.086370 0.050073 1.000000
0.064382 0.092079 -0.038697 1.000000
0.045887 -0.071857 -0.069039 1.000000
-0.151753 0.074843 0.066392 1.000000
-0.258029 0.099002 -0.013700 1.000000
-0.330519 0.041075 0.091243 1.000000
0.261725 -0.090184 -0.042509 1.000000
-0.326764 -0.012374 0.099285 1.000000
0.115500 0.020913 -0.097473 1.000000
0.220244 -0.000086 0.100064 1.000000
0.214822 -0.078419 -0.061466 1.000000
0.078338 -0.097875 -0.019105 1.000000
-0.208273 0.033777 -0.093813 1.000000
0.127338 -0.020605 0.097853 1.000000
-0.466855 0.099489 -0.009462 3.000000
0.075988 -0.096652 0.024943 1.000000
-0.082397 -0.087858 -0.047073 1.000000
-0.260827 -0.031839 -0.094426 1.000000
0.003733 -0.081951 -0.056683 1.000000
-0.326859 -0.099167 -0.010402 1.000000
-0.358792 0.096639 0.025809 1.000000
0.419740 0.034067 0.094071 2.000000
0.005226 -0.088321 -0.046165 1.000000
0.316742 -0.072441 -0.068455 1.000000
0.020262 -0.098121 0.018150 1.000000
0.052222 0.090374 -0.042594 1.000000
-0.178170 -0.076274 0.064505 1.000000
0.416003 -0.026896 -0.095938 1.000000
-0.343475 -0.021315 0.097694 1.000000
-0.253985 -0.043954 0.089779 1.000000
0.315939 -0.069106 0.072152 1.000000
0.414194 -0.026694 0.096360 2.000000
-0.272254 0.099267 -0.011818 1.000000
-0.170039 0.054890 -0.083308 1.000000
-0.408276 -0.080762 -0.058433 1.000000
0.352090 -0.078599 -0.061234 1.000000
0.371083 -0.037473 0.092701 1.000000
0.387901 -0.082720 0.055915 1.000000
0.412600 0.084806 0.053111 1.000000
0.133752 -0.098867 0.013439 1.000000
-0.205972 -0.033706 0.094117 1.000000
-0.239062 -0.008123 0.099687 1.000000
-0.055056 0.099893 -0.003404 1.000000
-0.252717 -0.050229 0.086399 1.000000
-0.466695 0.065858 -0.074959 3.000000
-0.093813 0.086685 0.049935 1.000000
-0.269171 0.030432 -0.094979 1.000000
0.368224 -0.003324 0.099962 1.000000
0.026454 -0.077895 0.062503 1.000000
-0.187154 0.066135 0.075078 1.000000
0.458882 -0.098211 -0.017217 2.000000
0.085866 -0.099749 -0.000542 1.000000
0.001844 -0.094768 -0.031006 1.000000
0.009291 0.072364 0.069128 1.000000
0.275193 -0.030142 0.095358 1.000000
-0.417404 0.063056 -0.077352 1.000000
-0.278178 -0.084119 -0.053493 1.000000
0.185477 0.066481 -0.074410 1.000000
-0.164099 0.093318 0.036043 1.000000
0.210472 -0.065606 0.075339 1.000000
-0.023485 -0.029694 -0.095125 1.000000
-0.235354 0.097127 0.023861 1.000000
0.343135 -0.031284 -0.094626 1.000000
-0.458701 0.037119 -0.092593 3.000000
0.417784 -0.033887 -0.093689 1.000000
0.132803 0.099842 -0.005027 1.000000
-0.207115 0.089141 -0.045013 1.000000
-0.150207 -0.095890 -0.027220 1.000000
-0.073609 -0.080961 -0.058140 1.000000
0.100698 0.073633 -0.067402 1.000000
0.029343 -0.068564 0.072695 1.000000
-0.034487 0.063150 0.077641 1.000000
0.096003 0.099265 0.012197 1.000000
-0.012951 0.092928 -0.036735 1.000000
0.389933 0.083625 0.054926 1.000000
-0.141851 0.086096 0.050930 1.000000
-0.273590 -0.066227 0.074791 1.000000
0.402206 -0.095375 0.029357 1.000000
-0.214019 -0.095137 -0.029811 1.000000
-0.450756 -0.005361 -0.099535 3.000000
-0.388344 -0.013684 -0.098717 1.000000
0.115615 -0.047728 0.087856 1.000000
-0.259328 0.071475 0.070018 1.000000
-0.436417 -0.077281 0.063296 3.000000
0.307741 -0.091354 0.040196 1.000000
-0.135910 0.072431 0.069061 1.000000
0.209538 -0.099490 -0.006990 1.000000
0.381609 0.055669 0.083141 1.000000
-0.309915 -0.068872 0.072386 1.000000
-0.462355 0.037034 0.092992 3.000000
0.241192 0.063626 0.077272 1.000000
0.115076 0.099950 -0.001580 1.000000
-0.354884 0.099970 -0.000937 1.000000
0.422813 -0.099284 0.009529 1.000000
-0.321874 -0.096211 -0.026115 1.000000
0.066195 0.060566 -0.079284 1.000000
-0.172782 0.087700 0.048204 1.000000
0.270116 -0.098069 0.018478 1.000000
0.256364 0.036734 -0.092748 1.000000
0.353740 0.016555 -0.098299 1.000000
-0.290642 0.095032 0.031282 1.000000
-0.090917 0.087101 -0.048868 1.000000
0.455518 0.040716 0.091399 2.000000
0.223045 -0.095114 0.030254 1.000000
-0.303384 -0.095126 0.030213 1.000000
-0.138828 -0.081763 0.057323 1.000000
0.363062 -0.085195 0.052059 1.000000
-0.322302 0.021693 0.097662 1.000000
-0.291266 0.099979 0.001013 1.000000
-0.098054 -0.090622 0.041888 1.000000
0.256026 -0.083471 -0.054446 1.000000
0.085480 0.007561 -0.099399 1.000000
-0.391303 0.027566 -0.095811 1.000000
0.459589 0.090620 -0.042069 2.000000
0.024517 0.027770 0.096115 1.000000
0.074823 0.078417 -0.061770 1.000000
0.166566 -0.056846 0.082182 1.000000
0.126747 0.078632 0.061854 1.000000
-0.157571 0.085546 0.051860 1.000000
-0.080563 -0.038055 0.092449 1.000000
-0.308780 -0.096859 -0.023650 1.000000
-0.085950 -0.067734 0.073462 1.000000
0.222779 -0.057729 0.081582 1.000000
0.378141 -0.047267 0.088091 1.000000
0.368874 0.090815 -0.041618 1.000000
-0.458841 -0.006392 -0.099488 3.000000
0.189938 -0.069616 0.071643 1.000000
0.367639 0.080333 -0.059299 1.000000
0.223380 -0.018844 0.098246 1.000000
0.272687 0.046134 0.088787 1.000000
-0.299228 0.090483 -0.042380 1.000000
0.344267 -0.010047 0.099505 1.000000
-0.432381 -0.023778 -0.096781 1.000000
0.363943 0.039696 0.091840 1.000000
0.373451 0.099887 0.003944 1.000000
-0.359068 -0.067796 -0.073045 1.000000
0.304692 -0.075328 0.065578 1.000000
-0.410566 0.099758 0.006983 1.000000
0.034990 -0.050137 0.086454 1.000000
-0.117829 -0.000397 -0.099691 1.000000
-0.160449 0.089187 -0.044923 1.000000
-0.148093 0.050886 -0.085786 1.000000
-0.106950 0.017766 -0.098107 1.000000
-0.299333 0.073680 -0.067349 1.000000
0.199522 0.086830 -0.049326 1.000000
0.332787 -0.093690 -0.034000 1.000000
-0.410405 0.032883 0.094497 1.000000
-0.181827 -0.048883 -0.086832 1.000000
-0.049049 0.039988 -0.091351 1.000000
-0.085789 -0.074506 0.066510 1.000000
-0.164445 -0.080272 0.059440 1.000000
0.230184 -0.098722 0.014357 1.000000
0.347192 0.011216 -0.099054 1.000000
0.170343 -0.099176 0.010670 1.000000
0.179051 0.099808 0.006460 1.000000
-0.234664 0.099977 -0.000725 1.000000
-0.391896 -0.090463 0.042255 1.000000
0.449320 0.023296 -0.096940 2.000000
-0.380697 0.080125 -0.059568 1.000000
0.077152 -0.050292 0.086362 1.000000
0.249681 0.084129 -0.053822 1.000000
0.191475 -0.096653 -0.024574 1.000000
0.086767 0.096715 -0.025184 1.000000
0.411439 0.092508 -0.037706 1.000000
-0.373357 -0.038070 -0.092080 1.000000
0.415156 0.094582 0.032533 1.000000
-0.324601 0.083411 0.055241 1.000000
-0.084147 0.079389 0.060879 1.000000
0.154442 -0.037107 -0.092497 1.000000
0.331640 0.094493 -0.032417 1.000000
0.169041 -0.018906 0.098232 1.000000
-0.230306 0.095113 -0.030695 1.000000
-0.384558 0.090991 -0.041211 1.000000
-0.072721 -0.088870 0.045450 1.000000
0.354980 0.099818 0.006125 1.000000
0.350309 0.027517 -0.095826 1.000000
-0.396823 0.037402 0.092833 1.000000
-0.305809 -0.048930 -0.086804 1.000000
-0.061503 -0.061630 0.078640 1.000000
0.389054 -0.046141 0.088664 1.000000
-0.360117 0.091884 -0.039147 1.000000
0.414889 -0.088562 0.046055 1.000000
0.168922 -0.028634 0.095796 1.000000
0.314787 -0.098301 -0.016651 1.000000
-0.233903 0.060285 -0.079501 1.000000
-0.316877 -0.074298 0.066746 1.000000
0.235507 -0.082673 0.055984 1.000000
-0.003939 -0.068944 -0.071952 1.000000
0.277075 -0.099763 0.000462 1.000000
-0.193439 -0.075776 -0.064706 1.000000
-0.384605 0.098108 0.019473 1.000000
0.332898 0.098512 0.017154 1.000000
-0.080086 0.099153 0.013110 1.000000
-0.460278 -0.051048 0.085915 3.000000
0.253950 -0.099743 -0.000736 1.000000
-0.075119 -0.064950 0.075917 1.000000
-0.031482 0.095789 -0.028370 1.000000
-0.000834 0.067115 -0.073851 1.000000
-0.075850 0.002771 -0.099624 1.000000
-0.225791 0.099264 -0.011848 1.000000
-0.219143 -0.099216 0.010249 1.000000
-0.266984 0.072632 -0.068497 1.000000
-0.051474 0.081682 -0.057422 1.000000
-0.360031 0.099841 -0.005043 1.000000
0.300037 -0.040406 0.091432 1.000000
0.178127 -0.069703 0.071556 1.000000
0.176571 -0.048511 0.087415 1.000000
0.181134 -0.099687 -0.002525 1.000000
0.275452 -0.015180 0.098842 1.000000
0.461865 0.077674 -0.062727 2.000000
0.184207 0.000715 -0.099688 1.000000
0.227495 -0.007307 -0.099401 1.000000
-0.410177 0.098166 -0.018849 1.000000
-0.456111 0.098320 -0.018003 3.000000
0.239219 0.026135 -0.096227 1.000000
-0.006146 -0.060422 0.079577 1.000000
0.006352 -0.023962 0.097102 1.000000
-0.320808 0.090777 -0.041705 1.000000
-0.148921 0.064812 0.076244 1.000000
-0.324978 0.089500 0.044672 1.000000
-0.129459 0.045443 -0.088776 1.000000
0.150285 -0.088366 -0.046077 1.000000
-0.132319 -0.052990 -0.084403 1.000000
-0.223229 -0.066564 0.074494 1.000000
-0.248964 0.001350 -0.099668 1.000000
-0.437243 -0.086280 -0.049861 3.000000
-0.370810 0.011799 0.099361 1.000000
0.133566 0.098658 -0.015869 1.000000
0.115057 -0.093955 -0.033263 1.000000
-0.278517 0.088732 -0.045817 1.000000
-0.402123 -0.074825 -0.065786 1.000000
0.026430 -0.011694 -0.098987 1.000000
-0.299171 -0.085904 -0.050497 1.000000
0.404720 0.014169 0.099039 1.000000
-0.061462 -0.098240 0.017400 1.000000
0.106533 0.010177 -0.099152 1.000000
0.309385 0.074464 -0.066460 1.000000
0.439054 -0.099334 0.009001 2.000000
0.192626 -0.059367 -0.080032 1.000000
-0.229920 -0.087831 -0.047126 1.000000
-0.077759 0.059183 0.080719 1.000000
-0.396957 0.073804 -0.067209 1.000000
0.125938 0.095894 -0.028008 1.000000
-0.223980 -0.092638 0.037229 1.000000
-0.258523 -0.099742 0.001125 1.000000
0.331463 0.048213 0.087727 1.000000
-0.048788 -0.082551 -0.055801 1.000000
-0.332560 0.011531 0.099387 1.000000
-0.243166 -0.067740 -0.073094 1.000000
-0.026858 -0.077113 0.063512 1.000000
0.065292 0.053414 0.084653 1.000000
-0.065042 -0.095329 0.029514 1.000000
0.019067 -0.006261 0.099863 1.000000
0.446455 0.014055 0.099058 2.000000
0.028170 0.074982 -0.065872 1.000000
0.027859 0.096578 -0.025655 1.000000
0.448547 -0.044750 0.089373 2.000000
-0.158917 -0.043396 -0.089700 1.000000
0.230037 0.090885 -0.041457 1.000000
0.290713 0.050196 -0.086194 1.000000
0.182189 -0.000838 0.100040 1.000000
-0.326583 -0.099070 0.011797 1.000000
-0.225174 0.099996 -0.000111 1.000000
0.085934 0.071725 0.069768 1.000000
-0.018576 0.057440 0.081937 1.000000
-0.415487 -0.087862 -0.047066 1.000000
-0.424710 -0.090353 -0.042147 1.000000
0.286722 -0.039308 -0.091544 1.000000
0.392780 -0.031433 0.094935 1.000000
0.391568 0.067968 0.073462 1.000000
-0.345482 -0.012943 0.099197 1.000000
0.422420 0.049247 -0.086755 1.000000
0.214918 0.097485 0.022257 1.000000
-0.126465 -0.099146 -0.010630 1.000000
0.051163 -0.099369 -0.008271 1.000000
0.124479 0.087795 0.048018 1.000000
-0.278658 0.083270 -0.055085 1.000000
-0.320681 -0.083935 0.054127 1.000000
-0.384816 0.083761 0.054726 1.000000
-0.208103 -0.098617 -0.014660 1.000000
0.298035 -0.084924 -0.052154 1.000000
-0.060189 0.099644 -0.007826 1.000000
0.317983 -0.098366 0.016602 1.000000
-0.333483 -0.013129 0.099167 1.000000
0.285190 -0.070094 -0.070802 1.000000
0.122856 0.099988 -0.000352 1.000000
-0.229874 -0.079918 -0.059533 1.000000
-0.112743 -0.057751 0.081567 1.000000
-0.360436 -0.073795 0.067316 1.000000
0.194497 0.098798 0.015350 1.000000
-0.395619 0.018400 -0.098007 1.000000
0.146828 0.098040 0.019777 1.000000
0.055634 0.007772 0.099742 1.000000
-0.246716 -0.099729 0.001540 1.000000
-0.433431 0.009512 0.099578 1.000000
-0.352933 0.097666 0.021450 1.000000
0.114825 0.070127 0.071365 1.000000
0.086427 0.013473 0.099150 1.000000
-0.109735 0.095163 0.030887 1.000000
0.043366 0.047053 -0.087956 1.000000
0.024002 -0.027756 -0.095688 1.000000
0.018354 0.090319 0.043064 1.000000
0.104320 -0.015910 -0.098364 1.000000
-0.291797 0.051735 -0.085284 1.000000
-0.101426 -0.096332 0.026063 1.000000
0.146950 0.099291 -0.011560 1.000000
-0.116704 0.015990 -0.098388 1.000000
0.436571 -0.032608 0.094512 2.000000
0.206987 0.003600 0.099961 1.000000
-0.178395 -0.031855 0.094783 1.000000
0.357025 -0.095871 -0.027286 1.000000
0.332109 0.008088 0.099712 1.000000
-0.325974 0.094935 0.031553 1.000000
-0.298877 0.098444 -0.017225 1.000000
-0.216910 0.024380 -0.096698 1.000000
0.345577 0.029720 0.095548 1.000000
0.454992 0.079870 0.060259 2.000000
-0.234033 -0.099476 0.007503 1.000000
0.377166 0.012815 0.099254 1.000000
-0.225164 0.077722 -0.062665 1.000000
-0.171376 -0.081929 0.057079 1.000000
-0.360140 0.054978 -0.083248 1.000000
0.380942 0.062278 -0.077955 1.000000
-0.435069 -0.060106 -0.079459 3.000000
0.119075 -0.017340 0.098500 1.000000
0.345749 0.092295 0.038560 1.000000
-0.132252 0.099997 -0.000077 1.000000
-0.140619 -0.000200 0.100060 1.000000
0.089290 -0.052142 0.085268 1.000000
-0.165984 0.010615 -0.099111 1.000000
0.141232 -0.091877 -0.038625 1.000000
-0.284380 0.006733 0.099840 1.000000
-0.073407 -0.096345 0.026015 1.000000
0.070844 0.093097 -0.036295 1.000000
-0.466643 0.095191 0.030791 3.000000
-0.138599 -0.099470 -0.007201 1.000000
-0.392453 0.077626 0.063152 1.000000
0.344544 0.029315 -0.095303 1.000000
-0.123044 -0.037677 0.092613 1.000000
0.126939 -0.076491 -0.063895 1.000000
-0.175868 -0.037928 0.092504 1.000000
-0.358704 -0.077497 -0.062654 1.000000
-0.079838 -0.071574 0.069685 1.000000
-0.007334 -0.052255 -0.084838 1.000000
-0.443081 0.054599 0.083868 3.000000
0.379324 -0.062768 0.077757 1.000000
-0.339604 -0.018913 -0.097868 1.000000
-0.038530 -0.099640 -0.004021 1.000000
0.056601 0.099505 -0.009292 1.000000
-0.193510 0.090434 -0.042476 1.000000
-0.403832 -0.099094 0.011545 1.000000
-0.316349 -0.099762 0.000501 1.000000
0.038811 0.038213 -0.092119 1.000000
-0.279731 0.037357 -0.092490 1.000000
-0.105871 0.046327 -0.088326 1.000000
0.304793 -0.066012 0.074981 1.000000
-0.046167 0.045779 0.088968 1.000000
0.409966 -0.082780 0.055826 1.000000
0.158956 -0.069167 0.072092 1.000000
0.182385 0.095311 -0.030017 1.000000
0.003746 0.096323 -0.026532 1.000000
-0.438941 -0.064744 -0.075736 3.000000
0.023744 0.043440 -0.089797 1.000000
0.141968 0.099834 0.005616 1.000000
-0.015429 -0.099726 -0.001286 1.000000
-0.211736 0.099944 0.002122 1.000000
0.394624 0.074222 -0.066734 1.000000
0.407042 -0.079707 0.060168 1.000000
-0.134347 0.004082 -0.099583 1.000000
-0.094111 -0.096080 -0.026567 1.000000
-0.092589 0.079900 0.060220 1.000000
-0.151738 -0.012631 -0.098883 1.000000
-0.079931 -0.099081 -0.011312 1.000000
0.250314 0.072750 -0.068379 1.000000
0.113589 -0.066500 -0.074188 1.000000
-0.332351 -0.097262 -0.021849 1.000000
-0.047434 -0.091145 -0.040315 1.000000
-0.174642 -0.058910 -0.080387 1.000000
0.190394 0.040087 -0.091308 1.000000
-0.014275 -0.088940 -0.044949 1.000000
-0.144283 -0.006002 -0.099515 1.000000
-0.371986 -0.058230 0.081242 1.000000
-0.008413 0.051184 0.085972 1.000000
-0.139645 0.075077 -0.065765 1.000000
-0.279085 -0.099717 0.001915 1.000000
-0.402389 -0.099269 -0.009322 1.000000
0.464454 -0.068266 0.072993 2.000000
0.182627 -0.022384 -0.097092 1.000000
-0.222427 0.053159 0.084804 1.000000
-0.249842 -0.091669 0.039468 1.000000
0.400679 -0.099629 -0.004368 1.000000
0.328351 0.021388 0.097730 1.000000
-0.363442 -0.047335 0.088056 1.000000
0.219741 -0.070486 0.070773 1.000000
0.257301 0.009812 0.099549 1.000000
-0.123006 0.057051 -0.081839 1.000000
-0.032935 -0.062923 -0.077274 1.000000
-0.191770 0.043017 0.090375 1.000000
-0.173836 -0.096732 -0.024221 1.000000
0.040025 0.002811 -0.099623 1.000000
-0.096520 -0.099605 -0.005127 1.000000
0.238450 0.053188 0.084787 1.000000
-0.188842 0.098497 -0.016890 1.000000
0.194594 -0.097350 0.021817 1.000000
-0.271637 -0.098829 -0.013321 1.000000
0.139292 -0.067681 -0.073147 1.000000
-0.193884 -0.028540 -0.095461 1.000000
-0.310710 -0.066843 -0.073885 1.000000
0.083657 0.001554 -0.099662 1.000000
0.080310 0.067459 0.073911 1.000000
0.247046 0.095889 0.028390 1.000000
-0.120831 0.092529 -0.037658 1.000000
0.355444 -0.019144 -0.097816 1.000000
0.062087 0.062023 0.078516 1.000000
0.103121 -0.071525 0.069734 1.000000
-0.445041 -0.049268 0.086967 3.000000
0.329372 -0.013010 0.099186 1.000000
0.362230 0.077628 0.063150 1.000000
-0.239533 0.034174 -0.093670 1.000000
-0.042676 0.041915 -0.090517 1.000000
-0.063179 0.002812 -0.099623 1.000000
-0.081985 -0.041817 -0.090459 1.000000
0.401818 0.096648 0.025778 1.000000
0.361065 0.070814 -0.070316 1.000000
0.403135 -0.097734 -0.019737 1.000000
0.138176 -0.055730 0.082941 1.000000
0.104102 -0.082038 -0.056555 1.000000
0.168269 -0.098035 -0.018331 1.000000
-0.264015 0.088992 0.045668 1.000000
0.290205 -0.098743 0.014225 1.000000
0.293532 0.098861 -0.014591 1.000000
-0.120641 0.097385 0.022708 1.000000
0.377643 0.042041 -0.090463 1.000000
0.232013 0.066880 0.074421 1.000000
-0.168133 0.070797 -0.070332 1.000000
0.080430 0.086341 0.050516 1.000000
0.193500 0.061961 -0.078202 1.000000
0.314740 0.089974 0.043741 1.000000
-0.012639 0.075538 -0.065242 1.000000
0.250122 -0.081001 -0.058081 1.000000
-0.282271 0.002047 -0.099647 1.000000
-0.295693 -0.079422 -0.060173 1.000000
0.377622 0.006523 0.099860 1.000000
-0.173305 -0.063082 0.077514 1.000000
-0.017881 -0.091185 -0.040223 1.000000
0.059543 0.010570 -0.099115 1.000000
0.056579 -0.040780 0.091270 1.000000
-0.050468 0.068534 0.072958 1.000000
0.100510 0.056386 -0.082291 1.000000
0.150844 -0.061338 0.078866 1.000000
-0.227717 0.054039 -0.083886 1.000000
-0.000522 0.032740 0.094549 1.000000
0.226735 0.064555 0.076471 1.000000
0.059365 -0.093357 0.035286 1.000000
0.421369 0.069647 0.071845 2.000000
-0.154345 0.015707 -0.098433 1.000000
0.208590 -0.099751 -0.000494 1.000000
-0.157840 0.045340 0.089191 1.000000
0.297364 0.081558 -0.057605 1.000000
-0.122798 0.099921 0.002861 1.000000
0.266544 -0.077181 -0.063061 1.000000
-0.460220 -0.079493 -0.060082 3.000000
-0.079653 -0.052475 -0.084708 1.000000
-0.270439 -0.093826 -0.033621 1.000000
-0.232907 -0.098639 -0.014518 1.000000
