0.394888 0.099914 -0.002735 1.000000
-0.278292 0.096245 -0.026802 1.000000
-0.431820 -0.033582 -0.093799 1.000000
0.389318 0.022616 -0.097093 1.000000
-0.194501 0.044936 0.089397 1.000000
-0.179567 -0.097998 -0.018555 1.000000
0.405167 -0.095596 0.028594 1.000000
0.187792 0.064651 0.076386 1.000000
-0.291463 0.018510 0.098352 1.000000
0.248773 -0.038923 0.092074 1.000000
-0.233282 -0.081296 -0.057647 1.000000
0.118777 -0.001946 -0.099642 1.000000
-0.107038 0.099989 0.000695 1.000000
-0.298050 0.097266 -0.022878 1.000000
-0.357947 0.095245 -0.030243 1.000000
-0.091845 -0.046986 0.088234 1.000000
0.426510 -0.004583 -0.099559 1.000000
-0.235336 -0.021899 0.097563 1.000000
-0.020872 -0.096529 0.025382 1.000000
0.205959 0.040593 -0.091089 1.000000
-0.413623 -0.024715 -0.096571 1.000000
-0.292650 0.085914 -0.050875 1.000000
-0.300352 -0.008053 -0.099331 1.000000
-0.348303 0.090939 0.041694 1.000000
-0.202678 -0.067088 0.074032 1.000000
-0.284242 -0.051906 -0.085045 1.000000
0.192148 0.039369 -0.091619 1.000000
0.184168 -0.094493 0.032131 1.000000
-0.051680 -0.038731 0.092157 1.000000
0.141129 0.099415 -0.010244 1.000000
0.029855 0.067110 -0.073855 1.000000
-0.393273 -0.055379 0.083179 1.000000
-0.391077 0.099489 -0.009462 1.000000
-0.432345 -0.053027 -0.084382 1.000000
0.291345 0.041583 0.091024 1.000000
-0.277122 -0.029925 0.095421 1.000000
-0.230429 -0.096706 0.024698 1.000000
0.230301 -0.099639 0.004402 1.000000
-0.079826 -0.081936 -0.056706 1.000000
0.412402 0.012978 0.099228 1.000000
0.406199 0.085778 0.051469 1.000000
0.028816 -0.031007 0.095089 1.000000
-0.284544 -0.013082 -0.098812 1.000000
0.282088 0.090558 0.042575 1.000000
0.102655 -0.019996 0.097989 1.000000
0.289737 0.006009 0.099885 1.000000
-0.132100 0.031478 -0.094641 1.000000
-0.335451 -0.092730 -0.036654 1.000000
0.046905 -0.098127 0.018110 1.000000
0.295271 0.079739 -0.060064 1.000000
0.102605 0.099415 -0.010245 1.000000
-0.044130 0.012915 -0.098875 1.000000
-0.012002 -0.025215 0.096789 1.000000
-0.342947 0.052499 0.085194 1.000000
0.220842 0.097724 0.021191 1.000000
-0.013175 -0.095686 0.028286 1.000000
0.360548 -0.079744 -0.059758 1.000000
-0.401876 -0.095730 0.028132 1.000000
-0.176922 -0.092236 0.038158 1.000000
-0.159513 -0.078918 0.061184 1.000000
-0.331826 0.038055 -0.092188 1.000000
0.372800 0.045373 0.089174 1.000000
-0.268526 0.045078 0.089325 1.000000
-0.283417 -0.062258 0.078152 1.000000
-0.274679 -0.001588 -0.099654 1.000000
0.390240 -0.099488 -0.007006 1.000000
0.368602 -0.091557 -0.039364 1.000000
0.116742 0.079698 0.060481 1.000000
0.365894 -0.094799 0.031281 1.000000
0.413347 -0.098070 -0.018111 1.000000
0.412928 0.080899 -0.058570 1.000000
0.441389 -0.022055 -0.097166 1.000000
0.429793 -0.087093 0.048850 2.000000
-0.441448 -0.086246 0.050283 3.000000
-0.217025 -0.062208 0.078191 1.000000
0.178574 -0.085445 -0.051274 1.000000
0.350283 0.060693 0.079547 1.000000
0.324867 0.082573 -0.056111 1.000000
0.448153 0.042367 -0.090322 2.000000
-0.122104 -0.081290 -0.057656 1.000000
-0.353760 -0.067013 -0.073735 1.000000
-0.397858 -0.093389 0.035198 1.000000
0.455255 -0.097141 -0.022389 2.000000
-0.398575 0.010674 0.099468 1.000000
0.180048 0.047493 -0.087732 1.000000
-0.302136 -0.020539 -0.097505 1.000000
0.121875 0.099982 0.000917 1.000000
0.006391 -0.033199 0.094300 1.000000
-0.442692 0.085165 0.052504 3.000000
0.340647 0.080944 -0.058508 1.000000
-0.206366 -0.072155 0.069104 1.000000
0.018448 0.019401 0.098174 1.000000
0.141661 -0.044390 -0.089194 1.000000
0.443272 -0.036472 0.093121 2.000000
0.308663 -0.048121 0.087646 1.000000
-0.435945 0.055732 -0.082735 3.000000
0.174251 -0.016959 0.098561 1.000000
-0.328897 0.054698 -0.083438 1.000000
0.311985 -0.080391 0.059285 1.000000
-0.381857 -0.050096 -0.086115 1.000000
-0.005979 0.097193 0.023566 1.000000
-0.088503 0.038192 0.092491 1.000000
0.084064 0.000919 -0.099682 1.000000
0.384272 -0.097306 0.022016 1.000000
-0.439291 0.060695 -0.079184 3.000000
-0.211542 -0.059532 0.080267 1.000000
0.444758 0.001777 -0.099655 2.000000
0.330260 0.098804 0.015313 1.000000
0.111903 0.039022 0.092132 1.000000
0.163590 0.096769 -0.024999 1.000000
-0.224240 0.074446 -0.066480 1.000000
-0.125866 0.024455 0.097044 1.000000
-0.105979 0.003322 0.099969 1.000000
0.370200 -0.099547 -0.006386 1.000000
0.134165 0.032457 0.094651 1.000000
0.121203 -0.040849 0.091240 1.000000
-0.084576 0.048224 0.087722 1.000000
0.140873 -0.099402 0.008279 1.000000
0.342830 -0.090497 0.042177 1.000000
-0.385606 0.085322 -0.051876 1.000000
0.226642 0.032679 0.094571 1.000000
0.146821 0.060445 0.079740 1.000000
0.424042 0.094675 -0.031910 1.000000
-0.385444 -0.024829 0.096901 1.000000
0.202992 0.076108 0.064958 1.000000
0.384577 -0.019949 0.097999 1.000000
-0.116526 0.011248 -0.099051 1.000000
0.273258 0.070080 0.071412 1.000000
-0.046007 0.099683 -0.007418 1.000000
-0.400034 -0.052665 0.084958 1.000000
0.416709 0.003638 -0.099597 1.000000
0.396047 0.009696 -0.099197 1.000000
-0.147212 -0.099287 0.009499 1.000000
-0.260111 -0.077654 0.062815 1.000000
0.409089 0.056775 -0.082026 1.000000
0.127957 0.015413 0.098842 1.000000
0.358290 -0.071695 -0.069201 1.000000
-0.255822 -0.090444 -0.041937 1.000000
0.207316 -0.090316 0.042595 1.000000
0.403007 0.099608 -0.008207 1.000000
0.093530 -0.007659 0.099731 1.000000
0.130945 0.091600 0.040166 1.000000
0.417627 0.090752 -0.041763 1.000000
0.456745 0.033310 0.094344 2.000000
0.301765 -0.094972 0.030743 1.000000
-0.032042 -0.092192 -0.037896 1.000000
0.198988 -0.099096 0.011514 1.000000
0.119155 -0.052555 0.085023 1.000000
-0.384418 -0.097901 0.019352 1.000000
0.076740 -0.054991 -0.083080 1.000000
-0.139232 0.033413 -0.093944 1.000000
0.372570 0.098689 -0.015677 1.000000
-0.017854 -0.076256 -0.064163 1.000000
-0.298367 0.065254 -0.075492 1.000000
-0.155645 -0.053757 0.084282 1.000000
0.079447 -0.095933 0.027433 1.000000
0.153014 0.031361 0.095045 1.000000
0.084039 0.086503 -0.049879 1.000000
0.092759 0.098352 0.018166 1.000000
-0.208964 0.053252 -0.084387 1.000000
-0.088024 -0.057341 -0.081484 1.000000
-0.169995 -0.013872 -0.098687 1.000000
0.259049 -0.042872 0.090330 1.000000
-0.073205 -0.022242 0.097487 1.000000
-0.117915 -0.078559 -0.061285 1.000000
-0.404526 0.040445 -0.091153 1.000000
0.335943 -0.005337 0.099899 1.000000
-0.324381 -0.077512 0.062998 1.000000
-0.072125 0.035021 -0.093365 1.000000
0.353542 0.070938 0.070555 1.000000
-0.122195 0.057221 -0.081723 1.000000
0.409956 0.099477 -0.009598 1.000000
0.456279 0.079405 -0.060496 2.000000
-0.160462 -0.095756 0.028045 1.000000
-0.229560 0.068132 0.073317 1.000000
0.198999 0.077705 -0.062688 1.000000
-0.153466 0.037559 -0.092403 1.000000
0.405587 -0.093153 0.035854 1.000000
-0.088113 0.083418 -0.054868 1.000000
-0.146082 0.099773 0.006822 1.000000
-0.270992 0.098365 0.018086 1.000000
0.061298 0.069409 -0.071721 1.000000
0.167824 0.087074 -0.048915 1.000000
-0.055896 0.081005 -0.058419 1.000000
-0.035508 -0.095590 -0.028253 1.000000
0.390337 -0.070414 0.070845 1.000000
0.244096 0.099811 -0.005997 1.000000
-0.201277 -0.098927 0.013062 1.000000
0.189352 -0.092946 -0.036066 1.000000
-0.004226 0.072854 -0.068275 1.000000
-0.208311 -0.098128 0.018104 1.000000
-0.280183 0.046791 -0.088089 1.000000
0.007431 0.040893 0.091322 1.000000
0.067710 0.049537 -0.086584 1.000000
0.044637 0.098419 -0.017383 1.000000
0.400164 -0.028394 -0.095503 1.000000
-0.448310 0.008141 0.099707 3.000000
-0.208677 -0.000342 -0.099693 1.000000
0.265959 -0.006142 -0.099511 1.000000
0.125387 0.005344 0.099906 1.000000
0.319781 -0.079286 0.060710 1.000000
0.178491 0.019709 0.098105 1.000000
0.314975 -0.054971 -0.083094 1.000000
-0.147859 0.095974 0.028096 1.000000
0.084950 -0.088381 0.046409 1.000000
-0.316689 0.074965 -0.065891 1.000000
0.064835 -0.038737 -0.091792 1.000000
-0.399872 -0.046883 0.088286 1.000000
0.011578 -0.068266 -0.072630 1.000000
-0.270164 0.092450 -0.037841 1.000000
-0.434103 0.036605 -0.092795 3.000000
-0.240945 -0.063596 -0.076748 1.000000
0.018721 -0.054208 0.083976 1.000000
-0.380607 -0.029172 -0.095277 1.000000
0.410118 0.066168 -0.074686 1.000000
-0.317054 -0.097460 0.021326 1.000000
-0.440641 0.099732 -0.006898 3.000000
-0.230793 0.062142 -0.078061 1.000000
0.276356 -0.093452 -0.034660 1.000000
-0.077878 -0.070406 0.070853 1.000000
-0.321492 -0.050560 0.086204 1.000000
-0.123829 0.046407 0.088648 1.000000
-0.422260 -0.064085 -0.076317 1.000000
-0.068783 -0.003678 0.099951 1.000000
-0.354616 0.048053 -0.087446 1.000000
0.271279 0.055677 0.083135 1.000000
0.270193 -0.049197 -0.086647 1.000000
-0.451416 0.038729 -0.091896 3.000000
0.179137 0.099140 0.013194 1.000000
0.302409 -0.029904 0.095427 1.000000
-0.151219 0.075074 -0.065768 1.000000
0.266442 -0.092136 0.038389 1.000000
0.193175 -0.099716 0.001959 1.000000
0.356868 0.018376 -0.098010 1.000000
-0.049632 0.078015 0.062650 1.000000
0.007742 -0.071653 0.069605 1.000000
0.408792 0.093289 -0.035761 1.000000
-0.013316 0.056245 0.082749 1.000000
-0.023195 0.068256 0.073208 1.000000
-0.222430 -0.058937 0.080729 1.000000
0.025582 0.099383 0.010954 1.000000
0.141905 -0.054808 0.083568 1.000000
0.093326 -0.091434 0.040012 1.000000
0.067998 0.090976 0.041610 1.000000
0.004945 -0.055217 0.083290 1.000000
-0.416109 0.060793 0.079470 1.000000
-0.338515 0.097510 -0.021784 1.000000
0.134641 0.006059 0.099883 1.000000
0.017497 0.098090 -0.019188 1.000000
-0.446048 -0.058551 0.081024 3.000000
-0.049025 0.087025 0.049360 1.000000
-0.010420 0.078092 -0.062188 1.000000
-0.114594 -0.050110 -0.086107 1.000000
-0.170905 -0.007242 0.099770 1.000000
-0.295326 0.005505 0.099901 1.000000
-0.213781 0.085829 0.051382 1.000000
-0.073081 -0.056434 -0.082100 1.000000
-0.062591 0.023765 0.097198 1.000000
0.265842 -0.097443 0.021402 1.000000
0.229476 0.002220 -0.099641 1.000000
0.175915 -0.024053 0.097082 1.000000
-0.042512 0.091675 -0.039632 1.000000
0.384143 0.093144 -0.036165 1.000000
-0.458865 -0.016426 0.098645 3.000000
0.222020 -0.098145 -0.017637 1.000000
0.373512 0.095658 -0.028823 1.000000
0.249089 -0.099409 -0.007844 1.000000
-0.066581 0.099893 0.003752 1.000000
-0.193078 -0.099675 -0.002892 1.000000
-0.139018 0.099853 0.005013 1.000000
0.118050 0.099013 -0.013627 1.000000
0.403087 0.096615 -0.025528 1.000000
-0.297946 -0.034057 -0.093628 1.000000
0.159094 0.027073 -0.095955 1.000000
0.051467 -0.051562 0.085611 1.000000
-0.005295 -0.087500 0.048138 1.000000
-0.459858 -0.099752 -0.000448 3.000000
0.067164 0.082490 -0.056233 1.000000
0.340099 0.003821 -0.099591 1.000000
-0.129552 0.013105 -0.098845 1.000000
0.037020 -0.055791 -0.082536 1.000000
-0.290149 0.069382 0.072111 1.000000
-0.238813 0.025906 -0.096294 1.000000
0.137839 -0.082708 0.055932 1.000000
-0.143804 -0.015011 0.098869 1.000000
-0.144494 -0.073011 0.068206 1.000000
-0.372276 0.062718 0.077977 1.000000
0.246208 0.080830 -0.058658 1.000000
0.436375 -0.099689 -0.002450 2.000000
-0.320089 -0.080329 0.059367 1.000000
0.164364 0.011295 0.099409 1.000000
-0.022934 0.072472 0.069020 1.000000
-0.387004 -0.099147 0.010978 1.000000
-0.078510 -0.076828 -0.063513 1.000000
0.143098 -0.072755 -0.068133 1.000000
0.340343 -0.092841 0.036719 1.000000
0.261284 -0.087779 -0.047229 1.000000
0.404175 -0.016068 -0.098339 1.000000
-0.379103 0.022220 -0.097181 1.000000
-0.246060 0.077771 -0.062602 1.000000
0.001870 0.056145 0.082818 1.000000
0.078001 -0.023087 -0.096935 1.000000
-0.390314 -0.069329 -0.071567 1.000000
0.307800 0.016038 -0.098381 1.000000
-0.023804 0.074070 -0.066906 1.000000
0.416834 -0.064157 0.076616 2.000000
0.267374 -0.066663 -0.074044 1.000000
0.365760 -0.068961 0.072298 1.000000
0.007905 -0.066399 0.074639 1.000000
-0.446550 -0.031335 0.094971 3.000000
-0.157389 0.097588 -0.021434 1.000000
-0.189402 -0.092295 -0.037658 1.000000
0.276031 -0.099097 0.011511 1.000000
0.432561 -0.030225 -0.094971 1.000000
-0.003294 -0.080766 0.058790 1.000000
-0.466530 0.066898 0.074405 3.000000
-0.451893 0.099040 -0.013458 3.000000
-0.171631 -0.094644 0.031712 1.000000
0.195055 -0.089281 0.044644 1.000000
0.359759 0.014614 0.098969 1.000000
-0.125382 -0.084128 -0.053480 1.000000
-0.365539 0.048556 -0.087164 1.000000
0.074190 -0.066261 -0.074398 1.000000
0.166345 -0.099653 0.003950 1.000000
-0.128660 0.030252 0.095394 1.000000
-0.055022 -0.097661 0.020426 1.000000
0.365655 0.044210 0.089767 1.000000
0.266230 0.010398 -0.099131 1.000000
0.348064 -0.093975 0.033571 1.000000
0.127004 0.006761 -0.099475 1.000000
0.456143 0.048617 -0.087128 2.000000
0.216302 -0.061299 0.078896 1.000000
-0.117983 0.066340 -0.074535 1.000000
0.112366 -0.067633 0.073551 1.000000
-0.039311 -0.069837 0.071422 1.000000
0.107289 0.077985 0.062690 1.000000
-0.102816 -0.079460 -0.060123 1.000000
-0.394628 -0.076819 -0.063524 1.000000
0.389743 0.004376 0.099936 1.000000
0.370542 -0.007056 -0.099425 1.000000
0.253847 0.068066 0.073375 1.000000
-0.423093 -0.088648 -0.045523 1.000000
-0.299986 0.094839 -0.031457 1.000000
0.458206 -0.023509 -0.096841 2.000000
0.235698 0.003546 -0.099599 1.000000
0.338043 0.099743 -0.006782 1.000000
0.217700 0.025086 -0.096532 1.000000
-0.383963 -0.073041 0.068172 1.000000
0.278408 -0.027187 -0.095854 1.000000
0.284218 -0.025732 0.096639 1.000000
-0.145474 -0.057298 -0.081512 1.000000
-0.118738 0.096524 -0.025840 1.000000
-0.020510 -0.066299 -0.074365 1.000000
-0.032299 -0.042653 -0.090078 1.000000
-0.331486 -0.099215 -0.009899 1.000000
0.401198 -0.098054 -0.018214 1.000000
-0.160029 0.095348 -0.029890 1.000000
0.413134 -0.033023 0.094363 2.000000
-0.079833 0.071131 0.070361 1.000000
-0.020660 -0.099582 -0.005866 1.000000
-0.013874 -0.040146 0.091545 1.000000
-0.359826 0.099294 -0.011535 1.000000
-0.358875 0.086891 0.049585 1.000000
0.180723 -0.036187 -0.092861 1.000000
0.369527 -0.067112 -0.073648 1.000000
-0.189374 0.099909 -0.002879 1.000000
-0.166118 -0.098635 0.014907 1.000000
-0.199510 0.003124 0.099975 1.000000
0.159039 0.092687 -0.037293 1.000000
0.411327 -0.071504 -0.069392 1.000000
-0.217940 0.098938 0.014467 1.000000
0.015731 0.073964 0.067390 1.000000
-0.453951 -0.021581 -0.097272 3.000000
0.399764 -0.094919 0.030926 1.000000
0.011915 -0.038732 0.092157 1.000000
-0.060232 0.067313 -0.073677 1.000000
-0.445672 -0.098693 0.014538 3.000000
0.056789 0.095050 0.031232 1.000000
-0.348188 -0.016546 0.098626 1.000000
0.239407 0.039095 0.092100 1.000000
-0.224553 0.071739 0.069753 1.000000
-0.322378 -0.024304 -0.096663 1.000000
-0.075322 0.097806 0.020823 1.000000
0.261730 -0.035475 -0.093118 1.000000
-0.008312 -0.019837 -0.097661 1.000000
0.427137 0.079195 -0.060766 1.000000
-0.306038 0.045599 0.089059 1.000000
0.158305 0.034403 0.093950 1.000000
0.234975 -0.009512 -0.099193 1.000000
-0.177252 -0.099067 -0.011466 1.000000
0.094580 0.093921 0.034368 1.000000
-0.201781 -0.080545 -0.058725 1.000000
0.309329 -0.030015 -0.095032 1.000000
-0.462796 0.098022 -0.019495 3.000000
-0.363068 0.092945 -0.036695 1.000000
0.333433 0.086705 -0.049537 1.000000
0.464416 0.094910 -0.031258 2.000000
0.020503 0.091141 -0.040866 1.000000
-0.258538 0.099931 -0.002168 1.000000
0.410976 -0.067049 -0.073703 1.000000
0.438170 -0.088004 0.047150 2.000000
-0.279809 0.062563 0.078097 1.000000
-0.121036 -0.031883 0.094773 1.000000
-0.248202 -0.097910 -0.018948 1.000000
0.112236 0.082382 0.056755 1.000000
-0.450894 -0.008759 0.099627 3.000000
0.319391 0.010271 0.099506 1.000000
-0.012145 -0.082548 -0.055805 1.000000
-0.243715 0.063846 -0.076733 1.000000
-0.192311 -0.046506 0.088478 1.000000
0.066195 0.087935 0.047743 1.000000
-0.018851 0.095715 -0.028627 1.000000
-0.283100 0.099615 -0.008129 1.000000
-0.121548 0.074295 -0.066652 1.000000
-0.237203 -0.091604 0.039617 1.000000
-0.104084 0.088857 0.045933 1.000000
-0.111611 0.097067 0.024127 1.000000
-0.351598 -0.025933 -0.096218 1.000000
-0.329409 0.067467 0.073904 1.000000
-0.167767 -0.013940 0.099039 1.000000
0.422407 0.043187 0.090288 2.000000
0.024209 0.091730 0.039866 1.000000
-0.303812 0.021475 0.097710 1.000000
-0.434799 -0.040390 -0.091076 1.000000
-0.255646 0.015589 -0.098452 1.000000
0.195940 0.019763 0.098093 1.000000
0.446362 -0.087097 0.048842 2.000000
0.326066 0.087707 0.048190 1.000000
-0.146009 0.033035 0.094443 1.000000
0.054449 0.080096 -0.059605 1.000000
-0.167836 -0.046532 0.088465 1.000000
-0.002264 0.015909 -0.098401 1.000000
0.222332 0.082413 -0.056348 1.000000
0.077493 0.087022 -0.049001 1.000000
-0.321147 -0.039622 -0.091408 1.000000
0.364619 -0.061489 -0.078387 1.000000
-0.365134 0.098744 0.015690 1.000000
0.071267 0.010482 0.099486 1.000000
-0.434424 -0.087843 -0.047104 3.000000
0.084511 0.091016 -0.041153 1.000000
0.285949 -0.003947 0.099942 1.000000
-0.303886 0.051086 0.086030 1.000000
-0.387854 0.097714 0.021233 1.000000
-0.295125 -0.094206 0.032930 1.000000
0.250400 -0.072743 0.068510 1.000000
0.176897 0.069999 -0.071130 1.000000
0.045379 -0.011109 0.099405 1.000000
0.334439 -0.019919 -0.097643 1.000000
-0.013580 -0.077425 0.063110 1.000000
0.425611 -0.074430 -0.066233 1.000000
0.081261 0.060030 0.080062 1.000000
-0.131397 -0.090197 -0.042482 1.000000
0.032326 -0.075608 -0.064898 1.000000
0.272860 0.060827 -0.079081 1.000000
-0.316396 0.019961 -0.097686 1.000000
0.318266 -0.035394 -0.093147 1.000000
-0.072799 -0.016058 -0.098341 1.000000
-0.391054 0.098919 0.014585 1.000000
-0.104413 -0.030433 -0.094911 1.000000
-0.143467 -0.098295 0.017049 1.000000
0.048669 -0.096801 0.024274 1.000000
-0.212806 0.027879 -0.095721 1.000000
-0.273492 0.014649 -0.098601 1.000000
0.045476 -0.072234 -0.068662 1.000000
0.256194 -0.098910 0.013169 1.000000
0.126631 0.099919 -0.002552 1.000000
-0.318165 -0.034260 0.093918 1.000000
0.240944 -0.036419 -0.092777 1.000000
0.430695 0.034066 -0.093709 1.000000
0.253114 -0.044735 0.089381 1.000000
0.046734 -0.049265 -0.086607 1.000000
0.077724 -0.079279 0.060720 1.000000
0.334254 0.008394 -0.099320 1.000000
-0.022265 -0.056317 -0.082179 1.000000
0.460907 -0.098350 0.016703 2.000000
0.174399 -0.053556 0.084418 1.000000
-0.215023 0.039657 -0.091494 1.000000
-0.147628 0.084946 -0.052511 1.000000
-0.315148 -0.059138 0.080573 1.000000
0.005230 0.061738 -0.078374 1.000000
-0.314370 0.000865 0.100046 1.000000
0.244720 -0.090417 -0.041998 1.000000
-0.103316 0.082943 -0.055567 1.000000
-0.418828 0.054191 -0.083783 1.000000
0.017262 0.095159 0.030901 1.000000
-0.241979 -0.040720 -0.090934 1.000000
-0.409908 0.059416 0.080538 1.000000
0.283576 0.041137 -0.090854 1.000000
-0.334926 -0.064759 -0.075722 1.000000
0.353408 0.080304 0.059700 1.000000
-0.196605 0.032840 -0.094150 1.000000
0.210076 0.076313 0.064725 1.000000
0.183558 0.099726 0.007318 1.000000
0.140839 0.070022 0.071470 1.000000
0.289314 0.018825 -0.097939 1.000000
-0.358569 0.099230 0.012570 1.000000
0.412633 0.088867 -0.045551 1.000000
-0.193382 0.062402 -0.077859 1.000000
0.061536 0.057803 0.081691 1.000000
0.087822 -0.072902 0.068329 1.000000
0.106493 -0.014102 -0.098650 1.000000
0.411613 -0.013351 -0.098769 1.000000
0.394633 0.053996 0.084278 1.000000
0.276150 0.038005 0.092572 1.000000
0.296567 0.020445 -0.097578 1.000000
0.296618 0.099839 -0.005120 1.000000
0.045660 -0.089785 -0.043292 1.000000
0.106917 -0.090445 -0.041933 1.000000
-0.379911 0.014034 -0.098698 1.000000
0.077190 0.055879 -0.082635 1.000000
-0.254879 0.090788 0.042044 1.000000
0.451399 -0.002024 -0.099640 2.000000
0.374837 -0.084502 0.053231 1.000000
-0.428047 -0.046653 -0.088041 1.000000
0.462044 -0.002509 0.099988 2.000000
-0.305203 -0.031359 -0.094599 1.000000
0.415340 0.041962 -0.090497 1.000000
-0.144130 -0.027203 -0.095849 1.000000
-0.004295 0.094491 -0.032422 1.000000
-0.322348 -0.058584 0.081001 1.000000
-0.243654 0.088881 0.045887 1.000000
0.347191 0.098322 -0.017995 1.000000
0.223888 0.015584 -0.098453 1.000000
-0.234878 0.083544 0.055045 1.000000
-0.404976 0.030988 0.095180 1.000000
0.057236 0.094942 -0.031170 1.000000
-0.089046 0.073349 0.068087 1.000000
-0.434297 0.004974 -0.099555 3.000000
-0.367389 -0.083473 -0.054444 1.000000
0.331634 -0.091035 0.040933 1.000000
-0.181773 -0.061182 -0.078625 1.000000
-0.231022 -0.036891 0.092953 1.000000
-0.065082 0.053505 0.084600 1.000000
-0.352589 -0.044901 0.089296 1.000000
-0.002109 0.046104 0.088802 1.000000
-0.269974 0.041167 -0.090841 1.000000
0.057079 0.098450 -0.017187 1.000000
-0.324439 0.031529 0.094985 1.000000
0.088477 -0.066420 0.074621 1.000000
-0.010695 -0.085512 0.051523 1.000000
0.335435 -0.055879 0.082839 1.000000
0.404068 0.072805 0.068687 1.000000
0.427551 0.078566 0.061940 2.000000
0.097126 -0.055065 0.083393 1.000000
0.351110 -0.054272 0.083932 1.000000
0.436449 -0.088252 -0.046300 2.000000
0.172560 0.093898 -0.034071 1.000000
-0.302204 -0.002550 0.099986 1.000000
-0.185592 -0.098164 -0.017513 1.000000
0.303484 0.066129 -0.074721 1.000000
0.229714 -0.060083 -0.079477 1.000000
-0.235411 -0.099579 0.006306 1.000000
0.051671 0.095878 0.028428 1.000000
0.356353 0.045272 -0.088863 1.000000
0.278990 0.007053 -0.099447 1.000000
0.174436 0.085775 -0.051110 1.000000
-0.195227 -0.048451 -0.087088 1.000000
-0.453249 -0.038187 -0.092029 3.000000
-0.078604 0.049111 0.087199 1.000000
-0.189341 -0.097343 0.021847 1.000000
0.409539 0.077492 0.063325 1.000000
0.100099 0.099699 0.007610 1.000000
0.301973 0.059649 -0.079995 1.000000
0.011287 0.070491 0.071002 1.000000
-0.457855 -0.050343 -0.085969 3.000000
-0.068574 0.098772 0.015517 1.000000
-0.273061 -0.077701 -0.062391 1.000000
-0.379269 0.080463 0.059494 1.000000
0.054460 -0.085259 -0.051589 1.000000
-0.147132 0.043194 -0.089922 1.000000
-0.117735 -0.080362 0.059323 1.000000
0.195815 -0.092983 0.036327 1.000000
0.069816 0.041318 0.091139 1.000000
-0.199975 -0.084200 -0.053374 1.000000
0.063908 -0.024259 0.097036 1.000000
-0.043738 0.070508 0.070985 1.000000
0.328986 -0.088462 -0.045888 1.000000
-0.058166 0.097389 -0.022326 1.000000
0.165055 0.047659 0.088010 1.000000
-0.368566 -0.070784 -0.070112 1.000000
-0.025406 0.095299 0.030419 1.000000
0.096731 -0.018507 0.098316 1.000000
-0.327954 0.080772 -0.058733 1.000000
0.220846 0.083013 0.055827 1.000000
-0.412973 -0.054839 -0.083183 1.000000
0.185855 -0.026712 -0.095992 1.000000
-0.200480 -0.031612 0.094871 1.000000
-0.459419 0.066457 0.074794 3.000000
0.121583 0.046934 0.088379 1.000000
-0.330171 -0.096694 0.024751 1.000000
-0.306090 0.084385 0.053809 1.000000
0.402951 0.081311 0.058331 1.000000
-0.331021 -0.099666 -0.003203 1.000000
0.180760 -0.028421 0.095858 1.000000
0.378371 0.087642 0.048315 1.000000
0.032343 -0.039160 -0.091608 1.000000
0.026065 -0.069059 0.072200 1.000000
0.432797 -0.098020 0.018787 2.000000
-0.402591 -0.097692 0.020286 1.000000
0.013780 0.073413 -0.067652 1.000000
-0.077000 -0.088387 0.046398 1.000000
-0.426257 -0.010807 0.099433 1.000000
-0.394804 -0.032237 -0.094283 1.000000
0.039803 -0.098158 -0.017553 1.000000
-0.050060 -0.077056 0.063586 1.000000
-0.460195 0.098079 0.019601 3.000000
-0.378575 -0.097432 0.021453 1.000000
-0.074248 0.015163 -0.098519 1.000000
-0.328676 0.005961 -0.099524 1.000000
0.266901 -0.019821 0.098028 1.000000
-0.256816 -0.044068 0.089720 1.000000
0.204265 -0.011407 -0.099014 1.000000
-0.239666 0.099976 -0.000750 1.000000
-0.355664 0.055602 -0.082824 1.000000
0.155392 0.058949 -0.080538 1.000000
0.004105 -0.006409 0.099849 1.000000
0.437093 0.099611 -0.008175 2.000000
-0.444083 0.037409 -0.092467 3.000000
0.253459 0.056182 0.082793 1.000000
-0.257096 0.011271 0.099411 1.000000
-0.252871 0.087219 0.049031 1.000000
-0.297358 0.023568 0.097243 1.000000
-0.455629 0.080625 0.059285 3.000000
-0.089703 0.059967 -0.079748 1.000000
-0.039422 -0.076377 -0.064025 1.000000
0.067536 -0.029923 0.095422 1.000000
0.087862 -0.099181 0.010620 1.000000
-0.439714 0.095655 0.029193 1.000000
-0.377652 0.099316 0.011658 1.000000
0.365661 -0.035290 -0.093184 1.000000
0.371631 -0.095255 0.029770 1.000000
0.027663 0.018255 0.098392 1.000000
-0.264143 0.073997 0.067353 1.000000
-0.318205 -0.004315 0.099931 1.000000
0.073228 -0.080912 -0.058212 1.000000
0.185646 0.082618 0.056409 1.000000
0.134819 -0.086023 0.050660 1.000000
-0.409644 0.051136 -0.085638 1.000000
-0.134711 0.073455 -0.067605 1.000000
-0.441759 -0.013488 0.099110 3.000000
0.154423 -0.042330 -0.090237 1.000000
0.300035 0.009467 0.099582 1.000000
-0.116920 0.066752 0.074534 1.000000
0.060327 -0.096515 -0.025067 1.000000
-0.122832 0.064670 0.076369 1.000000
-0.275155 -0.099767 0.000020 1.000000
-0.277612 -0.073892 -0.066844 1.000000
0.095699 0.094225 -0.033163 1.000000
-0.332871 0.030558 -0.094942 1.000000
-0.401885 0.065090 -0.075637 1.000000
0.438695 0.043272 0.090245 2.000000
-0.272797 -0.010492 -0.099100 1.000000
0.231141 0.071790 -0.069340 1.000000
0.134671 0.007368 -0.099418 1.000000
0.124816 -0.036361 0.093161 1.000000
0.464759 -0.026056 -0.096182 2.000000
-0.180607 -0.090059 0.043117 1.000000
0.234686 0.092141 -0.038554 1.000000
-0.010024 -0.067919 0.073299 1.000000
-0.020864 0.061728 -0.078382 1.000000
-0.202066 0.068159 -0.072931 1.000000
-0.013058 0.001744 0.100019 1.000000
0.196406 0.099465 -0.009724 1.000000
0.080896 -0.060504 0.079513 1.000000
0.393998 -0.053380 0.084536 1.000000
0.364389 -0.097818 0.019722 1.000000
0.299055 -0.096517 0.025425 1.000000
0.350946 -0.050988 -0.085588 1.000000
-0.283236 -0.020343 -0.097548 1.000000
-0.306071 -0.049935 -0.086210 1.000000
-0.303648 -0.079165 -0.060503 1.000000
0.316196 -0.072620 0.068639 1.000000
0.011094 -0.099511 0.007131 1.000000
0.325033 0.050452 0.086405 1.000000
-0.235073 -0.093172 -0.035438 1.000000
0.379794 0.095770 -0.028436 1.000000
-0.132745 0.050421 -0.086061 1.000000
-0.063103 -0.009067 -0.099235 1.000000
0.301647 0.083296 0.055411 1.000000
0.353319 0.012549 0.099291 1.000000
0.325055 -0.037430 -0.092357 1.000000
0.454414 0.064076 -0.076530 2.000000
0.381992 0.096666 0.025715 1.000000
-0.101853 0.073117 0.068351 1.000000
0.242628 -0.095032 -0.030174 1.000000
0.169551 -0.024526 0.096976 1.000000
0.181149 0.073705 -0.067321 1.000000
-0.169083 -0.091279 -0.040005 1.000000
-0.257541 0.037781 -0.092306 1.000000
0.300635 -0.021718 0.097604 1.000000
-0.399398 0.028978 -0.095401 1.000000
0.083240 0.057945 -0.081232 1.000000
0.387287 -0.097791 -0.019484 1.000000
-0.254124 -0.096814 -0.023854 1.000000
-0.322793 0.051248 0.085934 1.000000
-0.190735 0.099888 0.003919 1.000000
0.197101 0.058530 0.081196 1.000000
-0.397182 0.056193 0.082785 1.000000
0.229041 -0.039425 0.091857 1.000000
0.321692 -0.039606 0.091778 1.000000
-0.035583 0.047249 0.088218 1.000000
0.314579 0.077795 0.062934 1.000000
-0.370463 -0.008699 -0.099270 1.000000
-0.115154 0.098311 0.018426 1.000000
0.014615 0.067488 -0.073522 1.000000
0.237294 0.082264 0.056930 1.000000
-0.036892 -0.017849 -0.098057 1.000000
-0.254591 0.082487 -0.056238 1.000000
-0.095924 -0.007645 0.099732 1.000000
0.067689 0.059370 0.080574 1.000000
0.287611 -0.053646 -0.083995 1.000000
0.108163 0.002462 0.099996 1.000000
-0.361575 0.064774 -0.075915 1.000000
0.004691 0.072320 0.069173 1.000000
-0.213936 -0.099068 0.011817 1.000000
-0.029544 -0.064777 0.076070 1.000000
-0.253974 0.070365 0.071127 1.000000
-0.132213 0.098291 0.018549 1.000000
0.424236 -0.099768 0.000296 1.000000
-0.072472 0.014837 0.098934 1.000000
-0.095566 -0.096616 0.025084 1.000000
0.190714 0.092796 0.037402 1.000000
0.257668 0.084265 0.053985 1.000000
-0.426247 0.066674 -0.074240 3.000000
0.171951 0.025807 0.096685 1.000000
0.394658 -0.000858 0.100039 1.000000
0.449570 -0.041042 0.091157 2.000000
0.357202 -0.098495 0.015791 1.000000
-0.013960 0.079062 0.061301 1.000000
-0.293037 0.096082 -0.027362 1.000000
-0.409712 -0.099463 0.007634 1.000000
0.454070 -0.007644 -0.099369 2.000000
-0.349353 -0.081162 0.058207 1.000000
0.138382 0.025574 -0.096390 1.000000
-0.023431 0.023968 0.097153 1.000000
0.093238 -0.086102 -0.050162 1.000000
-0.159105 -0.007098 0.099784 1.000000
-0.027597 -0.099644 0.004239 1.000000
-0.051137 0.027728 -0.095764 1.000000
0.122509 -0.008990 -0.099242 1.000000
0.342948 0.095846 -0.028175 1.000000
0.129343 -0.054135 -0.083662 1.000000
0.114098 -0.066638 -0.074066 1.000000
-0.150821 -0.078560 -0.061284 1.000000
0.264933 -0.012764 -0.098862 1.000000
0.385121 -0.061520 -0.078363 1.000000
-0.114594 0.009140 0.099613 1.000000
-0.001035 -0.092028 0.038639 1.000000
0.185270 0.094901 -0.031285 1.000000
-0.385331 -0.094358 -0.032144 1.000000
-0.222531 -0.096363 0.025954 1.000000
-0.454141 -0.026647 0.096373 3.000000
-0.145210 0.097926 -0.019925 1.000000
0.000394 0.001052 0.100041 1.000000
0.052740 -0.099017 -0.011990 1.000000
0.325848 -0.079677 0.060207 1.000000
0.421671 -0.039714 -0.091369 1.000000
-0.018083 0.019679 0.098112 1.000000
-0.089635 0.029321 -0.095301 1.000000
0.290966 -0.096034 -0.026723 1.000000
-0.333464 0.050661 -0.085919 1.000000
-0.102094 0.095192 -0.030426 1.000000
0.081910 -0.053010 0.084755 1.000000
-0.315297 -0.077733 -0.062349 1.000000
-0.120185 -0.069690 -0.071206 1.000000
-0.228729 0.063517 0.077357 1.000000
0.012945 -0.098716 -0.014033 1.000000
-0.154161 0.021143 0.097784 1.000000
0.132207 -0.072122 -0.068774 1.000000
0.308850 -0.041165 0.091104 1.000000
-0.372661 0.042815 0.090478 1.000000
0.215890 -0.097622 -0.020237 1.000000
0.184589 -0.087469 -0.047838 1.000000
0.434602 -0.080769 0.058786 2.000000
-0.215768 0.016512 0.098668 1.000000
-0.039929 0.063149 -0.077280 1.000000
0.232832 -0.064958 -0.075547 1.000000
-0.068940 -0.072823 0.068420 1.000000
-0.413568 0.097374 -0.022392 1.000000
-0.295420 0.047415 -0.087771 1.000000
-0.001066 0.095157 0.030909 1.000000
-0.242439 -0.048878 -0.086835 1.000000
-0.054963 0.086984 0.049429 1.000000
0.225661 -0.098063 0.018520 1.000000
-0.187374 -0.099730 -0.001151 1.000000
-0.416688 0.085475 0.051980 1.000000
0.264987 -0.061944 0.078397 1.000000
0.174445 -0.027251 -0.095835 1.000000
-0.378809 -0.096042 0.027061 1.000000
0.395575 -0.045172 -0.088795 1.000000
0.423977 -0.062772 0.077754 2.000000
-0.106229 -0.078998 0.061082 1.000000
-0.121794 0.013030 0.099220 1.000000
-0.043948 -0.073219 -0.067608 1.000000
0.250633 0.051561 -0.085387 1.000000
-0.000668 0.086948 0.049489 1.000000
-0.310878 0.095014 -0.030972 1.000000
0.220870 0.029008 0.095755 1.000000
-0.229070 0.043713 0.090020 1.000000
0.161101 -0.050689 0.086127 1.000000
0.219341 0.023150 0.097336 1.000000
0.016715 0.023132 -0.096977 1.000000
0.254287 0.049025 0.087249 1.000000
0.068350 -0.095269 0.029719 1.000000
0.452786 0.093934 -0.033970 2.000000
-0.270252 0.024766 0.096975 1.000000
-0.164123 -0.001968 -0.099642 1.000000
-0.115309 -0.095795 0.027911 1.000000
-0.229546 -0.075370 0.065530 1.000000
0.311399 -0.011339 0.099383 1.000000
0.436995 -0.071534 0.069725 2.000000
0.063700 0.066130 0.075083 1.000000
-0.311948 -0.023123 -0.096927 1.000000
0.338189 -0.027640 0.096085 1.000000
-0.065730 0.060808 -0.079096 1.000000
-0.169038 -0.058165 -0.080923 1.000000
-0.465761 0.045638 0.089039 3.000000
-0.076254 0.094830 -0.031482 1.000000
-0.163875 -0.013086 -0.098811 1.000000
-0.044732 -0.085191 0.052067 1.000000
-0.306538 -0.087598 0.047947 1.000000
0.000172 0.099976 -0.000748 1.000000
-0.364533 0.083258 -0.055104 1.000000
0.346969 -0.005875 0.099882 1.000000
-0.450513 -0.077991 0.062381 3.000000
0.389417 0.094739 0.032096 1.000000
0.006560 0.011903 -0.098989 1.000000
-0.387123 0.087325 0.048853 1.000000
-0.272556 0.064129 0.076846 1.000000
0.029823 0.098578 0.016740 1.000000
-0.181111 0.097461 -0.022005 1.000000
-0.172542 -0.000370 -0.099692 1.000000
0.234041 -0.069268 -0.071628 1.000000
-0.339314 0.053105 -0.084474 1.000000
-0.348514 -0.071186 -0.069710 1.000000
0.066424 -0.097230 -0.021993 1.000000
0.465144 -0.097483 0.021222 2.000000
-0.057353 0.091577 0.040219 1.000000
0.019866 0.081385 -0.057859 1.000000
0.004040 -0.099617 0.005098 1.000000
0.324125 -0.049440 0.086866 1.000000
-0.069936 -0.098210 -0.017227 1.000000
0.105463 -0.050573 -0.085833 1.000000
0.278652 0.059891 -0.079807 1.000000
0.408073 0.057958 0.081586 1.000000
-0.319114 0.001923 -0.099650 1.000000
-0.286434 -0.099677 0.003198 1.000000
0.417251 0.031180 -0.094748 1.000000
0.055642 0.052851 -0.084624 1.000000
0.441357 -0.097237 -0.021961 2.000000
-0.047821 -0.067668 -0.073158 1.000000
-0.037241 0.073326 0.068114 1.000000
0.119966 -0.097600 -0.020336 1.000000
-0.261322 -0.085849 0.050953 1.000000
0.039904 0.082839 -0.055720 1.000000
-0.416686 -0.099744 0.001065 1.000000
0.186707 -0.099425 0.008033 1.000000
-0.123973 -0.065619 -0.074964 1.000000
-0.177414 0.000176 0.100068 1.000000
-0.058249 -0.063595 -0.076748 1.000000
-0.299260 0.081186 0.058515 1.000000
-0.051122 0.085000 -0.052420 1.000000
-0.207888 -0.054538 0.083751 1.000000
-0.382699 0.098722 0.015829 1.000000
0.185613 -0.073789 0.067323 1.000000
-0.357385 0.039161 0.092072 1.000000
-0.053171 -0.088717 0.045750 1.000000
0.127262 -0.072272 0.068986 1.000000
0.410780 -0.065996 0.074994 2.000000
0.163941 0.099155 0.013098 1.000000
-0.038510 -0.093685 0.034377 1.000000
-0.148081 0.056355 0.082675 1.000000
0.349955 0.066014 0.075184 1.000000
-0.349093 -0.066427 0.074615 1.000000
0.272402 -0.043352 -0.089723 1.000000
0.296043 0.087871 -0.047507 1.000000
-0.393148 -0.095232 0.029847 1.000000
-0.298671 0.099998 -0.000034 1.000000
-0.025896 -0.050089 -0.086119 1.000000
0.366035 -0.040870 -0.090868 1.000000
-0.069049 -0.097725 0.020141 1.000000
-0.448590 -0.074416 -0.066249 3.000000
-0.185181 -0.028076 0.095958 1.000000
-0.301463 -0.053041 -0.084374 1.000000
0.255194 -0.098613 -0.014679 1.000000
0.395665 0.061242 -0.078759 1.000000
-0.338926 -0.090483 -0.041845 1.000000
0.124834 -0.098677 -0.014278 1.000000
-0.144408 -0.028700 0.095777 1.000000
-0.140838 0.086403 -0.050049 1.000000
-0.332049 -0.001846 -0.099646 1.000000
0.020945 0.033220 -0.094013 1.000000
0.444370 -0.090722 0.041657 2.000000
-0.102787 -0.054984 0.083448 1.000000
-0.271898 -0.019173 0.098173 1.000000
0.175191 0.072330 0.069162 1.000000
-0.421223 -0.040782 -0.090907 1.000000
0.245544 0.089602 0.044471 1.000000
-0.340462 -0.063991 0.076763 1.000000
0.026461 -0.079643 -0.059888 1.000000
0.013716 -0.027274 0.096191 1.000000
0.434321 0.098249 0.018816 2.000000
0.336174 -0.098864 0.013460 1.000000
-0.334335 -0.054111 -0.083679 1.000000
0.333078 -0.039081 -0.091643 1.000000
-0.417666 0.098768 0.015542 1.000000
0.170950 -0.076240 0.064544 1.000000
0.065593 0.098988 0.014152 1.000000
0.453727 0.076540 0.064468 2.000000
0.351961 -0.039113 -0.091629 1.000000
0.435736 0.063699 -0.076853 1.000000
-0.043300 -0.011335 0.099383 1.000000
0.302530 0.099456 -0.009816 1.000000
-0.463788 0.096306 0.026953 3.000000
0.291951 0.062994 0.077763 1.000000
0.043979 0.097320 0.022996 1.000000
0.203365 0.064287 -0.076344 1.000000
-0.354306 -0.099222 0.010190 1.000000
0.109913 0.063595 0.077297 1.000000
-0.117774 0.001068 -0.099677 1.000000
-0.070102 0.048702 0.087440 1.000000
-0.169576 0.091593 0.040184 1.000000
-0.237220 0.064286 -0.076345 1.000000
0.044538 -0.085383 -0.051378 1.000000
-0.450832 -0.061979 0.078369 3.000000
0.213120 0.025809 0.096685 1.000000
0.259357 -0.076919 -0.063400 1.000000
-0.385688 -0.081143 0.058234 1.000000
-0.451658 0.002002 0.100011 3.000000
-0.431607 0.099310 -0.011357 1.000000
-0.160008 0.054933 0.083641 1.000000
0.109586 0.082904 -0.055625 1.000000
0.402273 -0.061374 -0.078476 1.000000
0.028054 0.099894 0.003727 1.000000
-0.079450 0.099763 0.006935 1.000000
0.195943 0.063362 -0.077114 1.000000
-0.438751 0.019513 -0.097786 3.000000
0.074820 -0.057412 0.081798 1.000000
0.403068 0.070765 -0.070364 1.000000
0.190849 0.019032 -0.097894 1.000000
-0.060426 -0.068300 0.072959 1.000000
-0.104580 -0.098263 0.017253 1.000000
-0.359589 0.044609 0.089564 1.000000
0.031305 0.005630 -0.099534 1.000000
-0.069302 -0.089345 -0.044155 1.000000
0.154277 0.048182 0.087743 1.000000
0.296904 -0.065476 0.075453 1.000000
0.065285 0.064691 -0.075988 1.000000
-0.094655 0.099957 0.001708 1.000000
-0.088049 0.022931 0.097385 1.000000
0.405206 -0.081505 0.057702 1.000000
-0.329689 -0.027774 -0.095683 1.000000
-0.372992 0.014986 -0.098547 1.000000
0.398672 0.084883 0.052982 1.000000
-0.415821 -0.060962 0.079158 1.000000
0.443020 -0.099578 -0.005990 2.000000
0.426012 0.045702 -0.088644 1.000000
-0.041619 0.055654 -0.082788 1.000000
0.057195 -0.099132 0.011134 1.000000
-0.302053 -0.071425 0.069834 1.000000
0.017447 -0.042886 -0.089960 1.000000
-0.374322 0.091220 0.041045 1.000000
0.097604 0.026903 0.096367 1.000000
-0.032280 0.087697 0.048210 1.000000
0.267977 -0.097999 -0.018552 1.000000
-0.416368 -0.065687 0.075267 1.000000
0.020360 -0.098392 -0.016079 1.000000
-0.400761 0.037406 0.092831 1.000000
-0.142067 0.020669 0.097890 1.000000
0.382452 -0.068131 0.073112 1.000000
-0.030728 0.090401 0.042902 1.000000
0.415039 0.061886 0.078623 1.000000
0.144089 -0.080591 -0.058666 1.000000
0.038930 -0.072034 0.069224 1.000000
-0.020799 -0.014782 -0.098543 1.000000
-0.113444 -0.056488 -0.082063 1.000000
0.078761 0.095468 -0.029476 1.000000
0.264238 0.075274 0.065904 1.000000
0.141204 -0.019719 -0.097688 1.000000
0.083403 -0.092261 -0.037738 1.000000
-0.207858 -0.012041 -0.098954 1.000000
0.389710 -0.041679 -0.090518 1.000000
0.356951 0.062443 0.078190 1.000000
0.099442 0.060881 -0.079039 1.000000
-0.208773 0.089239 0.045185 1.000000
-0.229316 0.034903 -0.093407 1.000000
0.450527 -0.074385 -0.066285 2.000000
-0.387526 0.069411 -0.071718 1.000000
-0.290515 -0.032701 0.094479 1.000000
-0.225154 0.002697 0.099989 1.000000
0.454317 0.022458 -0.097128 2.000000
-0.255982 0.004573 0.099930 1.000000
0.363172 -0.028723 0.095770 1.000000
0.297202 -0.099481 -0.007082 1.000000
-0.416031 -0.047108 0.088171 1.000000
0.354808 0.037215 0.092914 1.000000
-0.204711 0.088585 -0.046104 1.000000
-0.091992 0.011002 -0.099074 1.000000
0.406475 0.023490 0.097260 1.000000
0.256277 0.092723 -0.037209 1.000000
-0.379517 0.091689 -0.039598 1.000000
0.135008 -0.014856 0.098894 1.000000
-0.317500 0.097334 -0.022570 1.000000
0.164300 -0.082668 -0.055628 1.000000
0.183175 0.092397 -0.037962 1.000000
-0.397676 -0.075907 0.064921 1.000000
-0.034137 -0.096961 0.023557 1.000000
0.278004 0.099847 0.005219 1.000000
0.031189 -0.071601 -0.069295 1.000000
-0.403982 -0.039876 0.091661 1.000000
0.002924 -0.078046 -0.061947 1.000000
0.293248 -0.009569 -0.099187 1.000000
-0.288120 -0.091848 -0.038691 1.000000
0.036570 -0.000908 0.100038 1.000000
0.066904 -0.080978 0.058478 1.000000
-0.117110 -0.026745 0.096345 1.000000
-0.039844 -0.048762 -0.086904 1.000000
-0.315908 0.013064 -0.098852 1.000000
0.300322 0.094034 -0.033692 1.000000
-0.154966 0.079407 0.060855 1.000000
0.382098 0.084585 -0.053123 1.000000
-0.043404 -0.003208 0.099966 1.000000
0.050954 0.020375 -0.097593 1.000000
0.259789 0.096573 0.026036 1.000000
0.429603 0.098063 -0.019310 2.000000
-0.362494 0.074497 0.066785 1.000000
0.262480 -0.048927 0.087169 1.000000
-0.068221 0.094018 -0.033738 1.000000
-0.220444 0.018295 -0.098023 1.000000
-0.227354 0.069550 -0.071580 1.000000
0.194034 0.081741 0.057698 1.000000
-0.061230 -0.056037 0.082732 1.000000
0.224208 -0.029168 -0.095278 1.000000
0.202240 0.071041 -0.070089 1.000000
-0.406068 -0.080160 -0.059221 1.000000
-0.452583 0.059096 -0.080424 3.000000
0.299450 0.033719 -0.093834 1.000000
0.418897 -0.099644 0.004254 1.000000
0.253636 0.076779 0.064197 1.000000
0.388321 -0.073188 -0.067643 1.000000
0.093824 0.065101 0.075990 1.000000
0.147716 -0.098537 0.015523 1.000000
-0.386921 -0.030119 -0.095002 1.000000
-0.031779 -0.049218 -0.086635 1.000000
0.331801 -0.038770 0.092140 1.000000
-0.220439 0.077310 -0.063197 1.000000
-0.184449 -0.094562 0.031939 1.000000
-0.057934 0.053993 0.084280 1.000000
0.040510 -0.099541 -0.006447 1.000000
-0.153171 0.038171 0.092500 1.000000
-0.065553 0.034769 -0.093456 1.000000
-0.414047 -0.071912 -0.068985 1.000000
-0.418765 0.070421 0.071071 1.000000
0.050395 0.093910 -0.034036 1.000000
0.103075 0.063218 0.077589 1.000000
0.446071 0.094126 -0.033438 2.000000
-0.020270 -0.038421 -0.091928 1.000000
-0.154220 -0.048802 -0.086880 1.000000
0.393163 0.055848 -0.082657 1.000000
0.379539 0.073007 -0.068112 1.000000
-0.456410 0.035738 -0.093107 3.000000
0.271176 -0.098074 0.018445 1.000000
0.248708 0.058823 -0.080634 1.000000
-0.139826 -0.096544 0.025331 1.000000
-0.098619 -0.041191 0.091092 1.000000
0.365153 0.013591 -0.098768 1.000000
0.002148 0.096754 0.025413 1.000000
0.159275 -0.099718 0.001911 1.000000
0.426678 -0.097227 0.022367 2.000000
0.330268 0.080130 -0.059561 1.000000
0.324879 0.028892 0.095789 1.000000
0.422714 -0.067610 -0.073209 1.000000
-0.338592 0.086678 -0.049583 1.000000
-0.021385 0.062611 0.078059 1.000000
0.464750 -0.092006 -0.038327 2.000000
-0.407175 -0.036107 -0.092890 1.000000
-0.246826 0.041665 0.090988 1.000000
-0.016014 0.097446 -0.022069 1.000000
0.456883 0.090038 -0.043253 2.000000
-0.358979 0.059826 -0.079857 1.000000
0.292947 0.029354 -0.095292 1.000000
-0.281020 -0.068013 -0.072853 1.000000
-0.288119 0.064316 0.076681 1.000000
-0.429013 -0.099741 0.001154 3.000000
-0.077119 0.099715 -0.007075 1.000000
0.375240 -0.084529 -0.052822 1.000000
0.373337 0.091975 -0.038938 1.000000
-0.066011 0.069418 0.072074 1.000000
-0.046395 -0.015303 -0.098460 1.000000
0.298054 -0.061697 -0.078225 1.000000
-0.273710 -0.069602 -0.071294 1.000000
0.258871 0.017330 0.098539 1.000000
-0.359478 -0.093096 -0.035648 1.000000
-0.122949 -0.076492 0.064257 1.000000
-0.259333 -0.006250 0.099864 1.000000
-0.185466 -0.068456 0.072802 1.000000
0.057408 0.098406 0.017826 1.000000
-0.119624 -0.098251 -0.016965 1.000000
-0.400786 0.000091 -0.099706 1.000000
-0.415468 0.099834 -0.005266 1.000000
0.355819 0.056151 0.082814 1.000000
0.363111 0.083534 -0.054698 1.000000
-0.290406 0.020948 -0.097465 1.000000
0.099269 0.010617 -0.099110 1.000000
0.008583 -0.087689 0.047767 1.000000
0.117251 -0.099546 -0.006394 1.000000
0.407358 -0.097783 -0.019517 1.000000
0.136651 -0.048048 -0.087326 1.000000
0.255249 0.088846 0.045955 1.000000
0.089404 0.069549 -0.071581 1.000000
-0.174173 -0.083299 0.055063 1.000000
-0.459148 -0.081028 0.058404 3.000000
0.340275 0.099797 0.006576 1.000000
-0.222095 0.093663 -0.034723 1.000000
-0.238091 -0.055038 0.083411 1.000000
-0.270833 -0.073226 -0.067600 1.000000
0.347404 0.011125 -0.099062 1.000000
-0.350442 -0.085862 -0.050568 1.000000
0.008232 0.084424 -0.053388 1.000000
-0.237311 0.070764 -0.070366 1.000000
-0.450582 0.033939 0.094117 3.000000
0.376864 -0.077023 0.063629 1.000000
0.393300 -0.094573 0.031911 1.000000
0.098704 -0.078044 0.062311 1.000000
-0.380020 0.062850 0.077875 1.000000
0.107846 0.043317 -0.089859 1.000000
0.023470 -0.089196 -0.044447 1.000000
-0.359423 0.050406 0.086433 1.000000
0.313124 -0.069735 -0.071161 1.000000
0.014835 0.099866 0.004625 1.000000
-0.384800 -0.094036 0.033401 1.000000
0.170401 0.053638 -0.084158 1.000000
-0.274970 0.082632 -0.056025 1.000000
-0.026666 -0.028828 0.095739 1.000000
0.140667 -0.031881 -0.094411 1.000000
0.439560 0.058686 0.081090 2.000000
0.200513 0.088009 -0.047236 1.000000
0.060699 -0.009085 0.099596 1.000000
0.300674 0.042818 0.090476 1.000000
0.288948 0.097976 -0.019701 1.000000
0.457600 -0.007751 0.099722 2.000000
-0.070355 -0.008925 -0.099248 1.000000
-0.204140 -0.080012 0.059774 1.000000
0.082559 -0.075627 -0.064876 1.000000
0.083216 0.074047 0.067296 1.000000
0.164236 0.090856 0.041886 1.000000
0.200735 0.046495 0.088603 1.000000
0.025684 -0.094558 -0.031588 1.000000
0.106179 -0.021026 -0.097396 1.000000
0.211406 -0.099747 -0.000608 1.000000
0.334383 0.065582 0.075565 1.000000
-0.219735 -0.022501 -0.097066 1.000000
-0.137322 -0.063849 0.076887 1.000000
-0.349855 -0.075705 -0.064788 1.000000
0.450029 -0.092743 0.036985 2.000000
-0.221486 -0.052724 -0.084561 1.000000
-0.154725 0.009156 0.099611 1.000000
0.010584 0.023916 0.097165 1.000000
0.366305 0.050149 0.086585 1.000000
0.354888 -0.080800 -0.058376 1.000000
0.198559 0.096273 -0.026705 1.000000
-0.266064 -0.016258 0.098672 1.000000
0.455873 0.095293 0.030440 2.000000
0.084062 -0.063031 -0.077191 1.000000
0.217121 -0.079076 -0.060618 1.000000
-0.228520 -0.047033 0.088210 1.000000
0.353485 -0.021676 0.097613 1.000000
-0.107658 -0.091121 -0.040370 1.000000
-0.379632 0.092280 0.038595 1.000000
0.008487 0.069613 -0.071517 1.000000
-0.432718 -0.023764 0.097146 3.000000
-0.007039 0.052084 -0.085078 1.000000
-0.246073 0.093268 0.036183 1.000000
-0.155490 0.098895 -0.014373 1.000000
-0.350165 -0.099326 -0.008719 1.000000
-0.440249 -0.093359 -0.034920 3.000000
0.384973 -0.073048 0.068165 1.000000
0.168884 0.098396 0.017891 1.000000
-0.300716 0.094697 0.032214 1.000000
0.332146 0.094564 0.032584 1.000000
-0.374421 -0.056321 -0.082176 1.000000
-0.143855 0.086155 0.050830 1.000000
-0.439434 0.057734 0.081738 3.000000
-0.181908 0.098168 0.019203 1.000000
-0.186883 -0.099177 -0.010302 1.000000
0.267119 -0.074402 0.066628 1.000000
-0.417488 -0.023307 0.097249 1.000000
-0.091845 0.003197 0.099973 1.000000
0.409718 0.099916 -0.002648 1.000000
0.111061 0.012759 -0.098900 1.000000
-0.035583 -0.089088 -0.044660 1.000000
-0.414996 -0.087963 -0.046867 1.000000
-0.184653 -0.058272 0.081213 1.000000
0.107792 -0.099347 -0.008503 1.000000
-0.458302 0.094637 0.032380 3.000000
-0.354463 -0.096589 0.025175 1.000000
-0.099767 0.084125 0.054190 1.000000
-0.403584 -0.091577 -0.039318 1.000000
-0.415057 -0.082695 -0.055589 1.000000
-0.001745 0.072887 0.068605 1.000000
-0.127926 -0.015959 0.098719 1.000000
-0.292416 -0.096082 0.026922 1.000000
0.274474 -0.057447 -0.081411 1.000000
-0.455634 -0.097311 0.021990 3.000000
-0.056668 0.094166 0.033688 1.000000
0.063086 0.099840 0.005453 1.000000
0.168458 0.081623 0.057872 1.000000
0.400043 -0.072016 -0.068880 1.000000
0.099847 0.017051 0.098583 1.000000
0.116034 0.090078 0.043538 1.000000
-0.211686 -0.066552 0.074505 1.000000
0.083813 0.080115 -0.059580 1.000000
-0.182328 -0.093381 -0.034858 1.000000
-0.031750 0.044295 -0.089361 1.000000
-0.274687 -0.022637 -0.097036 1.000000
-0.098449 -0.091281 0.040364 1.000000
-0.331328 -0.029085 0.095665 1.000000
-0.270908 0.083316 0.055380 1.000000
-0.396298 0.082143 0.057107 1.000000
0.043169 0.083453 0.055179 1.000000
-0.439487 -0.015437 -0.098439 3.000000
-0.442098 0.007958 0.099725 3.000000
-0.211307 -0.099587 0.006058 1.000000
0.030812 -0.096311 -0.025771 1.000000
-0.111334 0.015898 -0.098403 1.000000
0.305560 0.088730 -0.045820 1.000000
-0.464512 -0.001219 -0.099665 3.000000
-0.409663 -0.048283 -0.087187 1.000000
0.225836 -0.081390 -0.057508 1.000000
-0.253582 0.067132 -0.073836 1.000000
0.118158 0.071556 0.069937 1.000000
0.394831 0.027625 -0.095794 1.000000
-0.026902 0.099591 -0.008383 1.000000
-0.307475 -0.069087 0.072172 1.000000
-0.013954 -0.099665 -0.003208 1.000000
0.209980 -0.047208 0.088120 1.000000
-0.369734 -0.024427 -0.096636 1.000000
0.157314 0.072943 -0.068186 1.000000
0.267404 -0.090341 -0.042174 1.000000
0.287466 -0.097563 0.020864 1.000000
-0.324636 0.087518 0.048525 1.000000
-0.233274 -0.003105 -0.099606 1.000000
-0.215729 -0.088941 0.045312 1.000000
0.148526 -0.014347 -0.098612 1.000000
-0.012584 -0.097506 0.021119 1.000000
0.069744 -0.091396 0.040100 1.000000
-0.218943 -0.047299 -0.087711 1.000000
-0.411045 0.088398 0.046834 1.000000
-0.261474 -0.049492 -0.086472 1.000000
-0.348361 0.017187 0.098562 1.000000
-0.297425 0.001048 -0.099678 1.000000
0.347747 -0.013098 0.099172 1.000000
0.144898 0.081363 0.058254 1.000000
-0.242175 -0.056163 -0.082284 1.000000
-0.066002 0.041452 -0.090718 1.000000
0.177694 0.081761 0.057668 1.000000
-0.422840 -0.050673 -0.085774 1.000000
0.441644 -0.049593 0.086775 2.000000
0.395941 -0.098868 0.013433 1.000000
0.449931 -0.056358 -0.082151 2.000000
0.194167 0.097760 0.021030 1.000000
0.299676 0.098148 0.019293 1.000000
-0.273238 -0.085592 -0.051025 1.000000
-0.292242 -0.089641 -0.043573 1.000000
0.034635 0.097226 0.023417 1.000000
-0.347819 0.098266 0.018711 1.000000
-0.134929 0.088586 0.046466 1.000000
-0.006308 0.005381 0.099905 1.000000
-0.366442 -0.017132 -0.098171 1.000000
-0.291676 0.036605 0.093157 1.000000
0.059365 0.092359 0.038414 1.000000
0.039729 -0.032752 -0.094098 1.000000
-0.333637 -0.017194 0.098523 1.000000
0.165239 -0.096781 0.024363 1.000000
-0.140427 0.007634 0.099755 1.000000
0.387960 -0.024964 -0.096499 1.000000
0.247617 0.052564 0.085156 1.000000
0.039144 0.019339 0.098188 1.000000
0.032715 0.079338 0.060945 1.000000
-0.256932 -0.096379 0.025901 1.000000
