-0.466955 -0.004574 0.011594 3.000000
-0.466955 0.079905 -0.003423 3.000000
-0.466955 0.027655 -0.030728 3.000000
-0.466955 -0.063396 0.043757 3.000000
-0.466955 0.069105 -0.032861 3.000000
-0.466955 -0.017283 -0.077890 3.000000
-0.466955 0.051996 -0.017412 3.000000
-0.466955 -0.024599 0.054407 3.000000
-0.466955 -0.015902 -0.056883 3.000000
-0.466955 -0.072471 0.000434 3.000000
-0.466955 -0.005674 0.053176 3.000000
-0.466955 0.039354 -0.033344 3.000000
-0.466955 -0.011434 0.082976 3.000000
-0.466955 -0.039333 -0.024193 3.000000
-0.466955 0.016728 0.018361 3.000000
-0.466955 -0.049967 -0.079930 3.000000
-0.466955 0.014317 0.025056 3.000000
-0.466955 0.031644 -0.056071 3.000000
-0.466955 -0.022761 0.074669 3.000000
-0.466955 0.068735 0.003069 3.000000
-0.466955 -0.004323 0.010007 3.000000
-0.466955 -0.006892 -0.042070 3.000000
-0.466955 0.039077 0.018698 3.000000
-0.466955 0.044011 -0.013959 3.000000
-0.466955 -0.015031 -0.010468 3.000000
-0.466955 -0.065621 0.045281 3.000000
-0.466955 0.057357 0.028997 3.000000
-0.466955 0.027170 0.020527 3.000000
-0.466955 -0.083651 -0.004675 3.000000
-0.466955 -0.083843 -0.035686 3.000000
-0.466955 -0.077639 -0.006503 3.000000
-0.466955 0.048174 0.040312 3.000000
-0.466955 0.025897 0.034820 3.000000
-0.466955 0.004712 0.024522 3.000000
-0.466955 -0.015182 -0.037164 3.000000
-0.466955 0.016706 -0.004670 3.000000
-0.466955 -0.054481 0.048501 3.000000
-0.466955 0.011921 0.030609 3.000000
-0.466955 -0.028877 0.088396 3.000000
-0.466955 0.090628 0.014879 3.000000
-0.466955 0.090712 0.030709 3.000000
-0.466955 0.068918 0.061215 3.000000
-0.466955 -0.037763 0.012315 3.000000
-0.466955 0.063290 -0.031284 3.000000
-0.466955 0.054240 0.040562 3.000000
-0.466955 -0.081720 -0.002184 3.000000
-0.466955 -0.094072 -0.021812 3.000000
-0.466955 0.012188 -0.067795 3.000000
-0.466955 -0.065603 -0.036912 3.000000
-0.466955 0.009675 -0.021715 3.000000
-0.466955 -0.008680 -0.008329 3.000000
-0.466955 0.020468 0.076795 3.000000
-0.466955 -0.000097 -0.024211 3.000000
-0.466955 0.024331 -0.091187 3.000000
-0.466955 -0.023883 -0.061592 3.000000
-0.466955 -0.003256 -0.053696 3.000000
-0.466955 0.048311 0.029053 3.000000
-0.466955 0.064640 0.048408 3.000000
-0.466955 -0.054783 0.080907 3.000000
-0.466955 0.056958 0.073512 3.000000
-0.466955 -0.021620 -0.078696 3.000000
-0.466955 -0.038669 -0.065201 3.000000
-0.466955 0.019433 0.004022 3.000000
-0.466955 0.061094 -0.073972 3.000000
-0.466955 0.028705 0.073698 3.000000
-0.466955 -0.076428 0.040682 3.000000
-0.466955 -0.014477 -0.079150 3.000000
-0.466955 -0.038276 -0.032614 3.000000
-0.466955 0.073130 -0.067829 3.000000
-0.466955 -0.065125 -0.061592 3.000000
-0.466955 0.061591 0.071522 3.000000
-0.466955 -0.058625 -0.023244 3.000000
-0.466955 -0.084378 -0.022908 3.000000
-0.466955 0.008163 -0.092075 3.000000
-0.466955 -0.053235 0.056471 3.000000
-0.466955 0.019897 -0.083645 3.000000
-0.466955 -0.028774 0.050308 3.000000
-0.466955 -0.070980 -0.007466 3.000000
-0.466955 -0.078665 -0.016711 3.000000
-0.466955 -0.047420 -0.004852 3.000000
-0.466955 0.029651 0.059799 3.000000
-0.466955 0.054031 -0.022741 3.000000
-0.466955 0.010849 0.081472 3.000000
-0.466955 0.057354 -0.012138 3.000000
-0.466955 0.080641 0.001419 3.000000
-0.466955 -0.032267 -0.037825 3.000000
-0.466955 0.022535 0.057657 3.000000
-0.466955 -0.048177 -0.085769 3.000000
-0.466955 0.002285 -0.017238 3.000000
-0.466955 0.037532 0.086346 3.000000
-0.466955 0.010076 -0.050185 3.000000
-0.466955 -0.045164 0.001013 3.000000
-0.466955 -0.089503 0.000612 3.000000
-0.466955 0.090435 -0.021711 3.000000
-0.466955 0.043366 -0.026085 3.000000
-0.466955 0.019067 0.018955 3.000000
-0.466955 -0.095129 0.018633 3.000000
-0.466955 0.093143 -0.035302 3.000000
-0.466955 -0.013555 -0.000181 3.000000
-0.466955 -0.063822 -0.063459 3.000000
-0.466955 0.007513 0.045053 3.000000
-0.466955 0.056561 -0.021528 3.000000
-0.466955 -0.019877 0.065091 3.000000
-0.466955 0.042668 -0.050181 3.000000
-0.466955 -0.037466 -0.001368 3.000000
-0.466955 -0.073741 -0.011945 3.000000
-0.466955 0.006578 0.088195 3.000000
-0.466955 -0.056567 0.017755 3.000000
-0.466955 0.058135 -0.026804 3.000000
-0.466955 0.023932 0.035547 3.000000
-0.466955 -0.030564 0.028701 3.000000
-0.466955 -0.003657 -0.084525 3.000000
-0.466955 -0.001652 0.079283 3.000000
-0.466955 0.045818 0.036016 3.000000
-0.466955 0.078190 -0.040275 3.000000
-0.466955 -0.000104 -0.084678 3.000000
-0.466955 0.093857 0.034373 3.000000
-0.466955 -0.015239 -0.063227 3.000000
-0.466955 -0.050136 0.019485 3.000000
-0.466955 -0.014129 0.089955 3.000000
-0.466955 0.027263 0.033943 3.000000
-0.466955 0.091890 -0.033437 3.000000
-0.466955 0.063508 -0.069279 3.000000
-0.466955 -0.045857 0.074212 3.000000
-0.466955 0.046668 0.020671 3.000000
-0.466955 -0.090504 0.010369 3.000000
-0.466955 0.048070 0.007384 3.000000
-0.466955 0.070625 -0.061311 3.000000
-0.466955 0.015184 -0.059043 3.000000
-0.466955 -0.067372 -0.008554 3.000000
-0.466955 -0.057338 0.026303 3.000000
-0.466955 -0.063415 -0.031132 3.000000
-0.466955 -0.047758 0.042712 3.000000
-0.466955 -0.011101 -0.012480 3.000000
-0.466955 -0.068039 0.072991 3.000000
-0.466955 -0.030008 0.007667 3.000000
-0.466955 0.050939 -0.044385 3.000000
-0.466955 0.041849 0.004006 3.000000
-0.466955 -0.069549 -0.052381 3.000000
-0.466955 -0.046986 -0.064887 3.000000
-0.466955 -0.030450 -0.000903 3.000000
-0.466955 -0.084697 -0.009159 3.000000
-0.466955 -0.041545 -0.053041 3.000000
-0.466955 -0.046617 -0.021957 3.000000
-0.466955 0.034725 0.032259 3.000000
-0.466955 -0.026766 0.082181 3.000000
-0.466955 -0.061468 -0.003047 3.000000
-0.466955 -0.024445 0.093267 3.000000
-0.466955 -0.023763 0.083915 3.000000
-0.466955 -0.029804 -0.027632 3.000000
-0.466955 0.001468 -0.084511 3.000000
-0.466955 -0.003018 -0.043079 3.000000
-0.466955 0.025458 -0.051028 3.000000
-0.466955 -0.050303 -0.010768 3.000000
-0.466955 -0.044743 -0.056916 3.000000
-0.466955 -0.066023 -0.028368 3.000000
-0.466955 0.071963 0.010196 3.000000
-0.466955 0.077264 0.021982 3.000000
-0.466955 -0.014610 0.067921 3.000000
-0.466955 0.087853 -0.045387 3.000000
-0.466955 0.026351 0.067073 3.000000
-0.466955 0.070194 0.041889 3.000000
-0.466955 -0.056997 -0.044840 3.000000
-0.466955 -0.009404 0.081561 3.000000
-0.466955 0.043456 -0.088431 3.000000
-0.466955 0.062342 0.064861 3.000000
-0.466955 0.006845 0.018800 3.000000
-0.466955 0.002372 -0.092881 3.000000
-0.466955 0.033075 0.055658 3.000000
-0.466955 0.030566 0.069130 3.000000
-0.466955 -0.067678 0.030948 3.000000
-0.466955 -0.009628 0.092793 3.000000
-0.466955 0.067683 -0.028019 3.000000
-0.466955 0.094532 0.029112 3.000000
-0.466955 -0.072045 0.028624 3.000000
-0.466955 -0.052070 -0.067079 3.000000
-0.466955 0.006747 -0.058204 3.000000
-0.466955 -0.023513 0.034420 3.000000
-0.466955 -0.052679 -0.005336 3.000000
-0.466955 -0.051628 -0.034142 3.000000
-0.466955 0.088869 -0.003465 3.000000
-0.466955 0.063622 -0.004692 3.000000
-0.466955 -0.005876 0.009231 3.000000
-0.466955 0.017552 0.029317 3.000000
-0.466955 0.086978 -0.047492 3.000000
-0.466955 -0.086001 -0.022546 3.000000
-0.466955 -0.002094 0.060785 3.000000
-0.466955 0.000588 0.071530 3.000000
-0.466955 -0.016289 0.073827 3.000000
-0.466955 0.053012 0.037886 3.000000
-0.466955 0.095819 0.021166 3.000000
-0.466955 -0.013476 -0.063018 3.000000
-0.466955 -0.023270 0.046978 3.000000
-0.466955 -0.042346 -0.036863 3.000000
-0.466955 0.057009 -0.069435 3.000000
-0.466955 -0.010313 0.049520 3.000000
-0.466955 -0.045268 -0.052543 3.000000
-0.466955 0.043441 -0.064806 3.000000
-0.466955 0.052727 0.076557 3.000000
-0.466955 -0.021947 -0.002682 3.000000
-0.466955 0.079498 -0.043172 3.000000
-0.466955 -0.001726 -0.018381 3.000000
-0.466955 -0.075193 -0.025547 3.000000
-0.466955 0.072703 0.045480 3.000000
-0.466955 -0.000064 -0.056807 3.000000
-0.466955 -0.005464 0.050513 3.000000
-0.466955 0.084189 0.047373 3.000000
-0.466955 -0.092671 0.029667 3.000000
-0.466955 0.038961 0.032463 3.000000
-0.466955 0.047795 -0.037251 3.000000
-0.466955 0.060195 -0.030649 3.000000
-0.466955 0.029222 -0.070190 3.000000
-0.466955 0.051847 -0.069722 3.000000
-0.466955 0.067317 -0.004150 3.000000
-0.466955 -0.022913 0.057353 3.000000
-0.466955 -0.070025 -0.000361 3.000000
-0.466955 -0.034184 -0.020306 3.000000
-0.466955 0.057820 0.034747 3.000000
-0.466955 -0.012340 -0.079064 3.000000
-0.466955 0.011854 -0.045308 3.000000
-0.466955 0.008398 -0.070510 3.000000
-0.466955 0.016206 0.047557 3.000000
-0.466955 -0.000561 -0.066431 3.000000
-0.466955 -0.046898 -0.038612 3.000000
-0.466955 -0.007869 -0.000843 3.000000
-0.466955 -0.092949 -0.030588 3.000000
-0.466955 -0.056992 -0.005346 3.000000
-0.466955 -0.014825 0.005841 3.000000
-0.466955 0.074944 0.035415 3.000000
-0.466955 -0.036219 -0.000508 3.000000
-0.466955 0.044210 -0.054041 3.000000
-0.466955 -0.038425 0.051196 3.000000
-0.466955 0.064501 -0.047958 3.000000
-0.466955 -0.055070 0.012956 3.000000
-0.466955 -0.074055 0.013788 3.000000
-0.466955 0.048171 -0.014650 3.000000
-0.466955 -0.045118 0.044362 3.000000
-0.466955 -0.010897 0.072739 3.000000
-0.466955 -0.014087 0.015920 3.000000
-0.466955 -0.090789 -0.006381 3.000000
-0.466955 0.062455 -0.071892 3.000000
-0.466955 -0.039086 0.014153 3.000000
-0.466955 -0.010996 0.048321 3.000000
-0.466955 0.052842 -0.071999 3.000000
-0.466955 -0.057521 -0.041685 3.000000
-0.466955 -0.056111 0.082112 3.000000
-0.466955 0.001661 -0.056826 3.000000
-0.466955 0.036209 -0.046389 3.000000
-0.466955 -0.008431 -0.020625 3.000000
-0.466955 -0.005102 -0.091404 3.000000
-0.466955 -0.093911 -0.006162 3.000000
-0.466955 -0.016610 0.048882 3.000000
-0.466955 0.046858 -0.008585 3.000000
-0.466955 -0.056022 0.007949 3.000000
-0.466955 -0.023838 -0.077790 3.000000
-0.466955 0.036704 -0.056279 3.000000
-0.466955 0.043564 -0.001260 3.000000
-0.466955 -0.054068 -0.073172 3.000000
-0.466955 -0.043430 0.025636 3.000000
-0.466955 0.019795 0.031215 3.000000
-0.466955 -0.053862 0.034291 3.000000
-0.466955 -0.003653 0.098600 3.000000
-0.466955 -0.024082 -0.059668 3.000000
-0.466955 0.015985 0.035818 3.000000
-0.466955 0.017387 0.024334 3.000000
-0.466955 -0.018641 -0.068775 3.000000
-0.466955 -0.062239 0.014896 3.000000
-0.466955 -0.029951 0.069303 3.000000
-0.466955 0.028092 -0.065401 3.000000
-0.466955 0.019459 0.088503 3.000000
-0.466955 -0.046700 0.017982 3.000000
-0.466955 -0.036928 0.007934 3.000000
-0.466955 0.067789 -0.026435 3.000000
-0.466955 -0.009507 0.089305 3.000000
-0.466955 -0.017129 0.077652 3.000000
-0.466955 -0.019371 0.058576 3.000000
-0.466955 0.049593 -0.036247 3.000000
-0.466955 0.003522 -0.097595 3.000000
-0.466955 -0.044246 -0.006857 3.000000
-0.466955 -0.023202 0.038058 3.000000
-0.466955 0.074978 -0.019272 3.000000
-0.466955 -0.025501 0.043790 3.000000
-0.466955 0.007368 0.073171 3.000000
-0.466955 -0.021990 0.007212 3.000000
-0.466955 0.043013 -0.066666 3.000000
-0.466955 0.008804 0.056223 3.000000
-0.466955 -0.042920 0.081987 3.000000
-0.466955 -0.044077 -0.009395 3.000000
-0.466955 -0.063035 0.077496 3.000000
-0.466955 -0.024310 -0.091920 3.000000
-0.466955 -0.072875 0.015434 3.000000
-0.466955 0.054035 0.076248 3.000000
-0.466955 0.026341 -0.058822 3.000000
-0.466955 -0.058081 -0.077823 3.000000
-0.466955 -0.003951 -0.027155 3.000000
-0.466955 -0.001160 -0.011596 3.000000
-0.466955 0.025465 0.039459 3.000000
-0.466955 0.004386 -0.094768 3.000000
-0.466955 -0.018630 -0.015807 3.000000
-0.466955 -0.015188 0.053015 3.000000
-0.466955 0.047071 0.029869 3.000000
-0.466955 -0.024420 0.045833 3.000000
-0.466955 -0.055078 -0.069060 3.000000
-0.466955 0.064891 0.068269 3.000000
-0.466955 0.089506 -0.017982 3.000000
-0.466955 -0.008381 0.027475 3.000000
-0.466955 -0.091106 0.008248 3.000000
-0.466955 -0.098241 -0.008730 3.000000
-0.466955 -0.064281 -0.049502 3.000000
-0.466955 -0.032412 0.005377 3.000000
-0.466955 -0.003010 -0.018939 3.000000
-0.466955 0.044365 0.082309 3.000000
-0.466955 -0.016540 -0.043845 3.000000
-0.466955 -0.087810 0.012688 3.000000
-0.466955 0.005422 -0.049880 3.000000
-0.466955 0.009218 0.045944 3.000000
-0.466955 0.038294 0.020140 3.000000
-0.466955 0.033580 0.057182 3.000000
-0.466955 0.038683 0.026810 3.000000
-0.466955 0.027770 -0.063619 3.000000
-0.466955 -0.081079 0.006045 3.000000
-0.466955 0.010273 -0.034944 3.000000
-0.466955 0.062860 0.070620 3.000000
-0.466955 0.009775 0.079779 3.000000
-0.466955 -0.047878 0.047849 3.000000
-0.466955 0.069526 -0.028253 3.000000
-0.466955 -0.066541 0.034817 3.000000
-0.466955 -0.039396 -0.087479 3.000000
-0.466955 0.000165 0.073548 3.000000
-0.466955 0.010765 0.026098 3.000000
-0.466955 -0.041804 -0.064610 3.000000
-0.466955 -0.005681 0.002449 3.000000
-0.466955 -0.050544 0.014519 3.000000
-0.466955 -0.007264 0.049941 3.000000
-0.466955 0.001033 0.088028 3.000000
-0.466955 0.024409 -0.043259 3.000000
-0.466955 0.040993 -0.089920 3.000000
-0.466955 -0.008178 -0.040538 3.000000
-0.466955 0.036878 0.035698 3.000000
-0.466955 -0.087707 -0.007415 3.000000
-0.466955 0.072665 -0.005979 3.000000
-0.466955 0.056420 0.051300 3.000000
-0.466955 0.067807 -0.054985 3.000000
-0.466955 -0.035317 -0.079841 3.000000
-0.466955 -0.068009 0.036098 3.000000
-0.466955 0.058742 -0.068462 3.000000
-0.466955 0.048908 -0.017792 3.000000
-0.466955 -0.017961 -0.034958 3.000000
-0.466955 -0.056510 -0.014228 3.000000
-0.466955 0.011866 -0.072738 3.000000
-0.466955 0.021890 -0.022700 3.000000
-0.466955 -0.059555 0.049322 3.000000
-0.466955 0.021594 -0.095151 3.000000
-0.466955 -0.053061 0.072113 3.000000
-0.466955 0.028765 -0.013869 3.000000
-0.466955 -0.056745 0.032906 3.000000
-0.466955 0.049540 -0.030324 3.000000
-0.466955 -0.072284 -0.005170 3.000000
-0.466955 0.050078 -0.051680 3.000000
-0.466955 -0.058413 0.050964 3.000000
-0.466955 -0.037602 0.036876 3.000000
-0.466955 -0.062438 0.007599 3.000000
-0.466955 -0.081635 -0.018542 3.000000
-0.466955 -0.042354 0.055870 3.000000
-0.466955 -0.072931 -0.041488 3.000000
-0.466955 -0.070886 0.036715 3.000000
-0.466955 0.097661 0.015452 3.000000
-0.466955 -0.087923 0.016467 3.000000
-0.466955 0.032836 0.036213 3.000000
-0.466955 0.067654 -0.015037 3.000000
-0.466955 0.067501 0.050855 3.000000
-0.466955 0.089687 0.043191 3.000000
-0.466955 0.034248 -0.017418 3.000000
-0.466955 -0.037215 -0.086605 3.000000
-0.466955 0.074399 -0.022567 3.000000
-0.466955 -0.088973 0.022427 3.000000
-0.466955 0.070856 -0.070039 3.000000
-0.466955 -0.082795 -0.006278 3.000000
-0.466955 0.048328 0.038787 3.000000
-0.466955 0.049951 0.075126 3.000000
-0.466955 0.016578 -0.026304 3.000000
-0.466955 -0.001975 -0.075629 3.000000
-0.466955 -0.080462 -0.025944 3.000000
-0.466955 -0.007929 0.063534 3.000000
-0.466955 -0.080784 0.040602 3.000000
-0.466955 0.000927 0.022155 3.000000
-0.466955 0.003092 0.052737 3.000000
-0.466955 -0.073170 0.023010 3.000000
-0.466955 -0.027806 0.020012 3.000000
-0.466955 0.086067 0.032115 3.000000
-0.466955 -0.007076 0.067672 3.000000
-0.466955 0.043244 -0.015163 3.000000
-0.466955 0.064115 0.021310 3.000000
-0.466955 0.092020 0.022343 3.000000
-0.466955 -0.001542 -0.024662 3.000000
-0.466955 -0.024332 0.078845 3.000000
-0.466955 -0.063394 0.046652 3.000000
-0.466955 -0.079145 0.031094 3.000000
-0.466955 -0.008659 0.068343 3.000000
-0.466955 -0.007448 -0.031730 3.000000
-0.466955 -0.002756 0.087764 3.000000
-0.466955 0.007596 -0.097506 3.000000
-0.466955 0.098656 -0.012468 3.000000
-0.466955 0.068360 0.054926 3.000000
-0.466955 -0.079609 0.013241 3.000000
-0.466955 0.052664 0.005719 3.000000
-0.466955 0.039229 -0.057801 3.000000
-0.466955 0.009462 -0.097278 3.000000
-0.466955 -0.072026 -0.065124 3.000000
-0.466955 0.012886 0.074275 3.000000
-0.466955 0.020706 -0.079334 3.000000
-0.466955 0.051943 0.042908 3.000000
-0.466955 0.067810 0.015691 3.000000
-0.466955 0.084676 0.046004 3.000000
-0.466955 -0.012720 -0.056875 3.000000
-0.466955 -0.045403 -0.058315 3.000000
-0.466955 0.083160 0.015509 3.000000
-0.466955 -0.069991 -0.013711 3.000000
-0.466955 0.070595 -0.056564 3.000000
-0.466955 0.092985 0.007983 3.000000
-0.466955 0.069089 0.006614 3.000000
-0.466955 -0.028411 -0.066896 3.000000
-0.466955 -0.008684 -0.075904 3.000000
-0.466955 0.087672 0.025144 3.000000
-0.466955 -0.013010 -0.028677 3.000000
-0.466955 0.010609 -0.036575 3.000000
-0.466955 -0.017288 0.030462 3.000000
-0.466955 0.095322 -0.009436 3.000000
-0.466955 0.018832 -0.019494 3.000000
-0.466955 -0.073674 0.031382 3.000000
-0.466955 0.061549 0.011952 3.000000
-0.466955 0.064702 0.054658 3.000000
-0.466955 0.045525 -0.073352 3.000000
-0.466955 0.019814 0.051653 3.000000
-0.466955 -0.037563 0.071685 3.000000
-0.466955 0.039023 -0.023390 3.000000
-0.466955 -0.042324 -0.073305 3.000000
-0.466955 0.024451 -0.053647 3.000000
-0.466955 -0.075020 -0.049810 3.000000
-0.466955 0.091554 0.027239 3.000000
-0.466955 0.061302 0.047288 3.000000
-0.466955 0.001081 0.017817 3.000000
-0.466955 0.007030 -0.071161 3.000000
-0.466955 -0.019395 -0.022038 3.000000
-0.466955 -0.014077 0.008607 3.000000
-0.466955 0.028656 0.016948 3.000000
-0.466955 0.032144 0.065048 3.000000
-0.466955 -0.012104 0.025628 3.000000
-0.466955 -0.058470 0.027043 3.000000
-0.466955 -0.025289 -0.084450 3.000000
-0.466955 0.001839 0.015395 3.000000
-0.466955 0.007525 0.093984 3.000000
-0.466955 0.049083 -0.086300 3.000000
-0.466955 -0.027336 -0.036041 3.000000
-0.466955 0.046200 0.014686 3.000000
-0.466955 -0.013738 0.076172 3.000000
-0.466955 0.044606 -0.019855 3.000000
-0.466955 -0.041183 0.080003 3.000000
-0.466955 0.041816 0.002528 3.000000
-0.466955 0.027382 -0.053800 3.000000
-0.466955 -0.036883 -0.045845 3.000000
-0.466955 0.007449 -0.024947 3.000000
-0.466955 -0.019810 0.054587 3.000000
-0.466955 -0.004349 -0.015607 3.000000
-0.466955 0.016436 0.091275 3.000000
-0.466955 -0.042883 0.013793 3.000000
-0.466955 0.089437 -0.035189 3.000000
-0.466955 -0.076832 0.049938 3.000000
-0.466955 0.055679 -0.025883 3.000000
-0.466955 -0.065303 -0.073228 3.000000
-0.466955 0.080431 0.043822 3.000000
-0.466955 0.035988 0.076841 3.000000
-0.466955 -0.055048 -0.055985 3.000000
-0.466955 0.031978 0.001920 3.000000
-0.466955 -0.084392 -0.047821 3.000000
-0.466955 -0.061920 -0.057994 3.000000
-0.466955 0.043439 0.050807 3.000000
-0.466955 0.071484 0.052857 3.000000
-0.466955 0.004673 0.091813 3.000000
-0.466955 0.056512 0.036807 3.000000
-0.466955 0.000106 0.062510 3.000000
-0.466955 -0.083266 0.050336 3.000000
-0.466955 0.069750 0.016200 3.000000
-0.466955 0.035621 -0.061138 3.000000
-0.466955 0.046342 0.003457 3.000000
-0.466955 -0.022132 0.047898 3.000000
-0.466955 -0.079152 -0.051181 3.000000
-0.466955 -0.001705 -0.084680 3.000000
-0.466955 -0.071256 -0.036900 3.000000
-0.466955 -0.015823 0.030175 3.000000
-0.466955 -0.028113 -0.047503 3.000000
-0.466955 0.090017 -0.015280 3.000000
-0.466955 0.071136 -0.027351 3.000000
-0.466955 0.039959 -0.046287 3.000000
-0.466955 -0.021591 0.000143 3.000000
-0.466955 0.021778 0.006908 3.000000
-0.466955 0.019223 0.098070 3.000000
-0.466955 -0.026046 0.092928 3.000000
-0.466955 -0.050289 0.070378 3.000000
-0.466955 -0.053002 0.037416 3.000000
-0.466955 0.004500 0.009120 3.000000
-0.466955 -0.052540 0.002382 3.000000
-0.466955 0.071567 -0.046788 3.000000
-0.466955 0.046000 -0.044081 3.000000
-0.466955 0.001721 -0.051408 3.000000
-0.466955 0.026399 0.051341 3.000000
-0.466955 -0.069881 -0.059913 3.000000
-0.466955 0.027122 0.059369 3.000000
-0.466955 -0.019948 -0.067767 3.000000
-0.466955 0.025159 -0.084105 3.000000
-0.466955 -0.028350 -0.081669 3.000000
-0.466955 0.054954 0.007672 3.000000
-0.466955 -0.006235 -0.081622 3.000000
-0.466955 0.022981 -0.034540 3.000000
-0.466955 0.048987 -0.084370 3.000000
-0.466955 0.009682 -0.065002 3.000000
-0.466955 0.073898 -0.035025 3.000000
-0.466955 -0.024826 -0.081068 3.000000
-0.466955 -0.059479 -0.055220 3.000000
-0.466955 0.049300 0.018373 3.000000
-0.466955 -0.006854 0.061299 3.000000
-0.466955 0.047931 -0.016379 3.000000
-0.466955 -0.074050 0.017486 3.000000
-0.466955 -0.001864 0.068521 3.000000
-0.466955 -0.040594 0.026102 3.000000
-0.466955 0.043144 -0.006728 3.000000
-0.466955 0.012411 -0.064631 3.000000
-0.466955 0.041500 -0.037212 3.000000
-0.466955 -0.040674 -0.038276 3.000000
-0.466955 0.014527 0.000589 3.000000
-0.466955 -0.075921 0.003530 3.000000
-0.466955 -0.035574 0.051342 3.000000
-0.466955 -0.008972 0.004386 3.000000
-0.466955 -0.052175 0.022539 3.000000
-0.466955 0.073434 -0.033567 3.000000
-0.466955 -0.005553 0.098000 3.000000
-0.466955 0.037350 -0.007164 3.000000
-0.466955 -0.010285 0.011066 3.000000
-0.466955 -0.028375 0.068327 3.000000
-0.466955 0.027134 -0.014056 3.000000
-0.466955 0.000906 -0.036850 3.000000
-0.466955 -0.011618 0.058005 3.000000
-0.466955 -0.062315 0.047499 3.000000
-0.466955 0.002705 0.005304 3.000000
-0.466955 0.093217 0.005879 3.000000
-0.466955 0.038255 0.080430 3.000000
-0.466955 -0.021952 -0.010868 3.000000
-0.466955 -0.007191 0.012311 3.000000
-0.466955 0.043679 0.069392 3.000000
-0.466955 0.005040 -0.085844 3.000000
-0.466955 0.051385 0.058866 3.000000
-0.466955 -0.021564 -0.046288 3.000000
-0.466955 0.022834 -0.013331 3.000000
-0.466955 0.011221 -0.021763 3.000000
-0.466955 0.047594 0.059271 3.000000
-0.466955 0.027529 0.068080 3.000000
-0.466955 -0.058332 -0.006303 3.000000
-0.466955 0.018967 0.001916 3.000000
-0.466955 0.061840 0.015734 3.000000
-0.466955 -0.059505 0.079655 3.000000
-0.466955 0.087522 0.022345 3.000000
-0.466955 0.066219 -0.020087 3.000000
-0.466955 -0.077907 0.038893 3.000000
-0.466955 -0.023462 -0.085686 3.000000
-0.466955 0.030566 0.053102 3.000000
-0.466955 0.031803 0.012914 3.000000
-0.466955 0.085229 0.000021 3.000000
-0.466955 0.059517 0.048330 3.000000
-0.466955 -0.084661 0.051896 3.000000
-0.466955 0.001812 -0.045304 3.000000
-0.466955 -0.024639 0.062098 3.000000
-0.466955 0.002471 0.062892 3.000000
-0.466955 -0.073490 -0.054055 3.000000
-0.466955 -0.051153 0.078315 3.000000
-0.466955 -0.005723 -0.054629 3.000000
-0.466955 0.067862 -0.046088 3.000000
-0.466955 0.054889 0.036716 3.000000
-0.466955 -0.008191 0.060705 3.000000
-0.466955 -0.043260 0.010296 3.000000
-0.466955 0.090342 0.036532 3.000000
-0.466955 0.077029 0.002919 3.000000
-0.466955 -0.033399 0.047658 3.000000
-0.466955 -0.000622 0.090613 3.000000
-0.466955 -0.081959 0.051196 3.000000
-0.466955 0.018025 -0.056402 3.000000
-0.466955 -0.072785 -0.019778 3.000000
-0.466955 0.014098 -0.050519 3.000000
-0.466955 -0.032893 -0.090631 3.000000
-0.466955 0.058568 0.005482 3.000000
-0.466955 -0.095337 -0.005424 3.000000
-0.466955 -0.076138 0.039078 3.000000
-0.466955 0.017523 0.062223 3.000000
-0.466955 0.044150 -0.037682 3.000000
-0.466955 0.016156 -0.079953 3.000000
-0.466955 -0.068491 -0.050913 3.000000
-0.466955 -0.068529 -0.067271 3.000000
-0.466955 0.006375 0.074440 3.000000
-0.466955 0.056835 -0.017805 3.000000
-0.466955 -0.052161 -0.050085 3.000000
-0.466955 -0.037118 0.021831 3.000000
-0.466955 -0.074977 0.029916 3.000000
-0.466955 -0.000780 0.006292 3.000000
-0.466955 0.028096 0.027533 3.000000
-0.466955 -0.040776 0.031448 3.000000
-0.466955 0.091980 -0.010702 3.000000
-0.466955 -0.029621 0.045184 3.000000
-0.466955 -0.013142 -0.007999 3.000000
-0.466955 0.051149 0.013502 3.000000
-0.466955 0.001605 -0.078027 3.000000
-0.466955 -0.017054 0.032706 3.000000
-0.466955 0.000082 -0.095930 3.000000
-0.466955 0.042504 0.034058 3.000000
-0.466955 0.006000 -0.020947 3.000000
-0.466955 -0.054717 0.038132 3.000000
-0.466955 0.075075 -0.026895 3.000000
-0.466955 0.074637 -0.062510 3.000000
-0.466955 -0.000123 0.042671 3.000000
-0.466955 0.040208 0.082798 3.000000
-0.466955 0.059581 0.045321 3.000000
-0.466955 -0.013516 -0.092048 3.000000
-0.466955 -0.069645 -0.025456 3.000000
-0.466955 0.037061 0.053718 3.000000
-0.466955 0.009411 -0.085513 3.000000
-0.466955 0.061493 -0.019992 3.000000
-0.466955 -0.027528 0.078641 3.000000
-0.466955 -0.047534 -0.025686 3.000000
-0.466955 -0.075041 -0.051595 3.000000
-0.466955 -0.066451 0.073628 3.000000
-0.466955 -0.006214 -0.064132 3.000000
-0.466955 0.043793 0.073175 3.000000
-0.466955 -0.040629 -0.000899 3.000000
-0.466955 -0.032085 0.073855 3.000000
-0.466955 -0.040883 0.065753 3.000000
-0.466955 0.047791 0.042574 3.000000
-0.466955 -0.097980 -0.010814 3.000000
-0.466955 -0.035240 0.075979 3.000000
-0.466955 -0.006402 0.041727 3.000000
-0.466955 0.011314 0.041789 3.000000
-0.466955 0.031440 -0.078012 3.000000
-0.466955 -0.080782 0.000366 3.000000
-0.466955 -0.075480 0.024284 3.000000
-0.466955 -0.010707 -0.009401 3.000000
-0.466955 0.001585 0.045093 3.000000
-0.466955 -0.055915 0.072258 3.000000
-0.466955 0.042233 0.073345 3.000000
-0.466955 -0.000885 0.028035 3.000000
-0.466955 -0.029647 -0.089357 3.000000
-0.466955 0.033464 -0.012798 3.000000
-0.466955 -0.020599 0.063834 3.000000
-0.466955 0.021956 0.077263 3.000000
-0.466955 0.086538 -0.032218 3.000000
-0.466955 -0.007257 -0.029933 3.000000
-0.466955 0.042232 -0.029648 3.000000
-0.466955 0.030795 -0.032315 3.000000
-0.466955 -0.038924 0.078852 3.000000
-0.466955 0.054632 0.000278 3.000000
-0.466955 0.085537 -0.005568 3.000000
-0.466955 0.013521 -0.087121 3.000000
-0.466955 0.023297 0.030097 3.000000
-0.466955 0.047671 0.080138 3.000000
-0.466955 0.090858 -0.020138 3.000000
-0.466955 0.010146 0.017261 3.000000
-0.466955 -0.055450 0.078166 3.000000
-0.466955 0.050711 0.002246 3.000000
-0.466955 -0.001508 -0.043793 3.000000
-0.466955 0.053028 -0.039381 3.000000
-0.466955 0.074482 0.062797 3.000000
-0.466955 0.067517 0.048919 3.000000
-0.466955 0.003212 -0.085113 3.000000
-0.466955 0.049316 -0.019164 3.000000
-0.466955 0.090061 -0.033074 3.000000
-0.466955 -0.033613 -0.075923 3.000000
-0.466955 0.031619 -0.046676 3.000000
-0.466955 -0.075597 0.059478 3.000000
-0.466955 0.088156 -0.004996 3.000000
-0.466955 0.046256 -0.013400 3.000000
-0.466955 0.045048 -0.052678 3.000000
-0.466955 0.073782 -0.038002 3.000000
-0.466955 -0.093234 0.013305 3.000000
-0.466955 -0.057943 0.021333 3.000000
-0.466955 -0.052103 -0.082323 3.000000
-0.466955 0.034732 0.084249 3.000000
-0.466955 -0.071357 0.027371 3.000000
-0.466955 -0.031506 0.060382 3.000000
-0.466955 0.009935 0.092138 3.000000
-0.466955 0.005746 0.031400 3.000000
-0.466955 -0.083517 -0.000208 3.000000
-0.466955 -0.041312 -0.047690 3.000000
-0.466955 -0.075074 -0.043830 3.000000
-0.466955 -0.050904 0.046898 3.000000
-0.466955 -0.011544 -0.045348 3.000000
-0.466955 -0.051041 0.082602 3.000000
-0.466955 0.016089 0.065836 3.000000
-0.466955 0.067082 -0.006679 3.000000
-0.466955 -0.049758 0.029427 3.000000
-0.466955 -0.010820 0.020572 3.000000
-0.466955 -0.006585 -0.092345 3.000000
-0.466955 -0.011513 -0.030855 3.000000
-0.466955 0.080646 0.023537 3.000000
-0.466955 0.005322 0.049698 3.000000
-0.466955 -0.076641 0.012109 3.000000
-0.466955 -0.069712 0.027349 3.000000
-0.466955 0.001397 0.008981 3.000000
-0.466955 0.069776 0.002030 3.000000
-0.466955 0.038673 0.010481 3.000000
-0.466955 -0.049054 -0.006089 3.000000
-0.466955 0.005854 -0.037577 3.000000
-0.466955 0.078585 0.041924 3.000000
-0.466955 0.001557 0.037292 3.000000
-0.466955 0.067756 0.006000 3.000000
-0.466955 0.005475 -0.093765 3.000000
-0.466955 0.007336 0.066205 3.000000
-0.466955 0.003548 0.060726 3.000000
-0.466955 0.067114 -0.000345 3.000000
-0.466955 -0.023826 0.076050 3.000000
-0.466955 0.046431 0.041851 3.000000
-0.466955 0.072654 -0.000324 3.000000
-0.466955 -0.091234 -0.039448 3.000000
-0.466955 -0.071736 0.046251 3.000000
-0.466955 0.051330 -0.085018 3.000000
-0.466955 -0.055569 0.014446 3.000000
-0.466955 -0.074724 0.010127 3.000000
-0.466955 0.032522 0.073859 3.000000
-0.466955 0.078705 -0.014766 3.000000
-0.466955 0.093621 -0.027252 3.000000
-0.466955 0.020326 0.014568 3.000000
-0.466955 -0.041313 -0.010342 3.000000
-0.466955 0.061742 0.054630 3.000000
-0.466955 0.081942 0.018861 3.000000
-0.466955 -0.009657 -0.002872 3.000000
-0.466955 -0.033029 -0.000577 3.000000
-0.466955 -0.092071 -0.027010 3.000000
-0.466955 0.039494 -0.071391 3.000000
-0.466955 0.003379 -0.048901 3.000000
-0.466955 -0.051788 0.040452 3.000000
-0.466955 -0.079076 -0.001753 3.000000
-0.466955 0.089756 -0.043607 3.000000
-0.466955 -0.057270 -0.013128 3.000000
-0.466955 0.060886 0.052350 3.000000
-0.466955 0.024745 0.032604 3.000000
-0.466955 0.060293 0.016490 3.000000
-0.466955 0.087202 0.030302 3.000000
-0.466955 0.078735 0.028775 3.000000
-0.466955 -0.002563 0.030443 3.000000
-0.466955 0.014908 -0.051728 3.000000
-0.466955 0.071545 -0.025826 3.000000
-0.466955 -0.053405 -0.060440 3.000000
-0.466955 -0.057178 -0.023480 3.000000
-0.466955 -0.053984 0.002752 3.000000
-0.466955 0.010528 0.047046 3.000000
-0.466955 0.038926 -0.044696 3.000000
-0.466955 0.072480 0.065571 3.000000
-0.466955 -0.028662 -0.059435 3.000000
-0.466955 0.073890 0.043208 3.000000
-0.466955 0.002221 -0.070240 3.000000
-0.466955 -0.042028 -0.082072 3.000000
-0.466955 0.029129 0.042588 3.000000
-0.466955 0.011798 0.045255 3.000000
-0.466955 0.008620 0.014576 3.000000
-0.466955 -0.076083 -0.048400 3.000000
-0.466955 0.036630 -0.033697 3.000000
-0.466955 -0.079299 0.003120 3.000000
-0.466955 -0.001160 0.066046 3.000000
-0.466955 -0.072249 -0.066732 3.000000
-0.466955 0.052000 -0.009567 3.000000
-0.466955 -0.012917 0.055012 3.000000
-0.466955 -0.075796 -0.023718 3.000000
-0.466955 -0.072374 0.065687 3.000000
-0.466955 -0.087376 0.044215 3.000000
-0.466955 0.017099 0.042192 3.000000
-0.466955 -0.027968 0.095784 3.000000
-0.466955 -0.064553 -0.057092 3.000000
-0.466955 0.043613 0.052712 3.000000
-0.466955 0.023643 0.055525 3.000000
-0.466955 -0.045256 -0.016231 3.000000
-0.466955 0.024164 0.040667 3.000000
-0.466955 -0.060162 -0.004475 3.000000
-0.466955 -0.065975 -0.052648 3.000000
-0.466955 -0.092229 -0.009282 3.000000
-0.466955 -0.079844 -0.059446 3.000000
-0.466955 -0.032441 0.052892 3.000000
-0.466955 -0.000692 -0.086141 3.000000
-0.466955 -0.025806 -0.066980 3.000000
-0.466955 -0.001795 0.091491 3.000000
-0.466955 -0.067888 0.016948 3.000000
-0.466955 0.080769 0.020052 3.000000
-0.466955 -0.038550 0.072784 3.000000
-0.466955 0.028391 0.064428 3.000000
-0.466955 -0.010380 -0.088805 3.000000
-0.466955 0.028572 0.083157 3.000000
-0.466955 -0.071755 -0.024937 3.000000
-0.466955 -0.012359 -0.052584 3.000000
-0.466955 -0.034626 -0.011932 3.000000
-0.466955 -0.043653 -0.016873 3.000000
-0.466955 0.063492 -0.034800 3.000000
-0.466955 -0.051762 -0.041566 3.000000
-0.466955 -0.044558 0.063994 3.000000
-0.466955 -0.032254 -0.091880 3.000000
-0.466955 -0.052446 -0.075869 3.000000
-0.466955 -0.010382 -0.080673 3.000000
-0.466955 0.013476 0.027787 3.000000
-0.466955 0.081479 0.054590 3.000000
-0.466955 0.078355 -0.038715 3.000000
-0.466955 0.077922 0.031154 3.000000
-0.466955 0.010819 -0.023340 3.000000
-0.466955 -0.093723 0.010660 3.000000
-0.466955 -0.089782 0.030591 3.000000
-0.466955 -0.017999 0.052112 3.000000
-0.466955 0.071724 0.014197 3.000000
-0.466955 0.032395 0.077018 3.000000
-0.466955 0.010774 0.070710 3.000000
-0.466955 0.011565 0.075216 3.000000
-0.466955 -0.086998 -0.020077 3.000000
-0.466955 0.031280 -0.017232 3.000000
-0.466955 0.005180 -0.039110 3.000000
-0.466955 0.048930 -0.021048 3.000000
-0.466955 -0.053299 0.020310 3.000000
-0.466955 0.070513 -0.019670 3.000000
-0.466955 0.021823 0.055742 3.000000
-0.466955 0.032531 -0.032969 3.000000
-0.466955 -0.082820 -0.014641 3.000000
-0.466955 0.083648 0.021897 3.000000
-0.466955 0.012222 -0.071136 3.000000
-0.466955 -0.033136 -0.050109 3.000000
-0.466955 0.075659 0.008184 3.000000
-0.466955 -0.032342 -0.039716 3.000000
-0.466955 0.055134 -0.053683 3.000000
-0.466955 0.009794 -0.040111 3.000000
-0.466955 -0.084048 -0.037448 3.000000
-0.466955 -0.015823 -0.011864 3.000000
-0.466955 -0.057159 -0.006938 3.000000
-0.466955 0.010286 -0.058106 3.000000
-0.466955 0.087599 -0.039562 3.000000
-0.466955 -0.033310 -0.021672 3.000000
-0.466955 -0.018690 0.047307 3.000000
-0.466955 -0.077110 -0.029511 3.000000
-0.466955 0.050503 0.079271 3.000000
-0.466955 -0.034081 0.000598 3.000000
-0.466955 -0.082344 0.037512 3.000000
-0.466955 0.016575 -0.013736 3.000000
-0.466955 0.069267 0.059060 3.000000
-0.466955 -0.061322 -0.076742 3.000000
-0.466955 0.054589 -0.047473 3.000000
-0.466955 0.001163 0.019297 3.000000
-0.466955 0.023293 -0.057733 3.000000
-0.466955 0.080590 0.008774 3.000000
-0.466955 0.080324 -0.031284 3.000000
-0.466955 0.022016 -0.061186 3.000000
-0.466955 -0.041311 0.048050 3.000000
-0.466955 0.089628 0.008972 3.000000
-0.466955 0.055446 -0.008056 3.000000
-0.466955 -0.060874 -0.061636 3.000000
-0.466955 -0.034910 -0.038077 3.000000
-0.466955 0.024345 -0.055710 3.000000
-0.466955 -0.023791 0.024728 3.000000
-0.466955 0.073461 0.056689 3.000000
-0.466955 0.015158 -0.038266 3.000000
-0.466955 0.042259 0.041010 3.000000
-0.466955 0.044468 0.044189 3.000000
-0.466955 0.016022 0.054441 3.000000
-0.466955 -0.058169 0.053017 3.000000
-0.466955 -0.043565 -0.032000 3.000000
-0.466955 -0.046893 0.032108 3.000000
-0.466955 0.070037 0.017973 3.000000
-0.466955 0.011304 -0.002683 3.000000
-0.466955 0.056421 -0.030984 3.000000
-0.466955 0.028125 0.014961 3.000000
-0.466955 -0.033733 0.019582 3.000000
-0.466955 0.057551 -0.035131 3.000000
-0.466955 0.035022 0.068994 3.000000
-0.466955 0.025100 0.043738 3.000000
-0.466955 0.027443 0.069594 3.000000
-0.466955 0.062099 -0.037123 3.000000
-0.466955 -0.043738 -0.064501 3.000000
-0.466955 -0.069747 -0.028645 3.000000
-0.466955 -0.082181 0.013119 3.000000
-0.466955 -0.031742 0.015809 3.000000
-0.466955 -0.004848 -0.026004 3.000000
-0.466955 -0.080382 -0.008878 3.000000
-0.466955 0.074247 -0.000097 3.000000
-0.466955 -0.040285 -0.027813 3.000000
-0.466955 0.078596 0.049287 3.000000
-0.466955 0.003861 0.035810 3.000000
-0.466955 0.048486 -0.064476 3.000000
-0.466955 -0.017183 -0.016397 3.000000
-0.466955 -0.020272 -0.091317 3.000000
-0.466955 0.011877 0.099043 3.000000
-0.466955 -0.049176 -0.043226 3.000000
-0.466955 -0.026076 0.056836 3.000000
-0.466955 -0.020758 0.042648 3.000000
-0.466955 0.036808 -0.016453 3.000000
-0.466955 0.021373 0.051893 3.000000
-0.466955 -0.012970 0.039150 3.000000
-0.466955 0.022731 0.038013 3.000000
-0.466955 -0.044448 -0.065818 3.000000
-0.466955 -0.060371 0.076837 3.000000
-0.466955 -0.063752 0.005961 3.000000
-0.466955 -0.022264 -0.023068 3.000000
-0.466955 -0.098229 -0.016335 3.000000
-0.466955 0.027819 0.060902 3.000000
-0.466955 -0.082270 0.056228 3.000000
-0.466955 0.033909 -0.034045 3.000000
-0.466955 0.030891 -0.057262 3.000000
-0.466955 -0.028346 0.033264 3.000000
-0.466955 -0.031970 -0.049244 3.000000
-0.466955 -0.016544 0.020623 3.000000
-0.466955 0.014107 -0.016282 3.000000
-0.466955 0.077757 -0.032609 3.000000
-0.466955 0.051595 -0.056078 3.000000
-0.466955 0.041632 -0.064839 3.000000
-0.466955 0.086460 0.044001 3.000000
-0.466955 -0.086370 0.030410 3.000000
-0.466955 0.019440 -0.070697 3.000000
-0.466955 -0.033114 0.031528 3.000000
-0.466955 -0.037754 0.030842 3.000000
-0.466955 -0.035100 0.004657 3.000000
-0.466955 -0.023431 -0.002329 3.000000
-0.466955 0.058872 0.000877 3.000000
-0.466955 -0.021338 0.019073 3.000000
-0.466955 0.040966 0.054324 3.000000
-0.466955 0.006712 -0.064614 3.000000
-0.466955 0.073501 0.026462 3.000000
-0.466955 -0.044984 0.009140 3.000000
-0.466955 0.047097 0.024788 3.000000
-0.466955 -0.014073 0.066399 3.000000
-0.466955 0.049787 -0.058457 3.000000
-0.466955 -0.013407 -0.041537 3.000000
-0.466955 -0.060676 -0.007730 3.000000
-0.466955 0.082874 0.006268 3.000000
-0.466955 0.003031 0.092540 3.000000
-0.466955 -0.037867 0.053708 3.000000
-0.466955 0.058345 0.039069 3.000000
-0.466955 0.084076 -0.053282 3.000000
-0.466955 0.088757 0.034778 3.000000
-0.466955 -0.083264 0.046997 3.000000
-0.466955 -0.019565 -0.044351 3.000000
-0.466955 -0.062599 -0.006583 3.000000
-0.466955 -0.031585 -0.031347 3.000000
-0.466955 -0.002624 -0.037595 3.000000
-0.466955 -0.006952 -0.060018 3.000000
-0.466955 0.068420 0.030365 3.000000
-0.466955 0.012981 -0.005971 3.000000
-0.466955 0.089121 -0.031909 3.000000
-0.466955 -0.009918 -0.001434 3.000000
-0.466955 0.011588 0.013820 3.000000
-0.466955 -0.033634 -0.093594 3.000000
-0.466955 -0.056374 0.076626 3.000000
-0.466955 -0.040798 -0.090373 3.000000
-0.466955 -0.049781 -0.023942 3.000000
-0.466955 -0.068167 0.067438 3.000000
-0.466955 0.031854 -0.053050 3.000000
-0.466955 0.000310 -0.008488 3.000000
-0.466955 -0.031359 0.045315 3.000000
-0.466955 -0.014158 0.073313 3.000000
-0.466955 -0.005775 0.010800 3.000000
-0.466955 -0.019047 0.063590 3.000000
-0.466955 -0.079264 0.039988 3.000000
-0.466955 -0.045470 0.075626 3.000000
-0.466955 -0.076815 -0.003686 3.000000
-0.466955 0.034664 0.079702 3.000000
-0.466955 0.000708 0.054345 3.000000
-0.466955 0.032503 0.026518 3.000000
-0.466955 -0.005608 0.015165 3.000000
-0.466955 0.074001 0.053533 3.000000
-0.466955 -0.004654 0.041351 3.000000
-0.466955 0.085304 0.003134 3.000000
-0.466955 0.068009 -0.047547 3.000000
-0.466955 -0.048798 -0.002890 3.000000
-0.466955 -0.020650 0.096279 3.000000
-0.466955 -0.068942 0.017917 3.000000
-0.466955 0.033085 0.000506 3.000000
-0.466955 -0.021031 0.029998 3.000000
-0.466955 0.023944 -0.084699 3.000000
-0.466955 -0.085352 0.007541 3.000000
-0.466955 -0.054683 0.068359 3.000000
-0.466955 0.001182 0.027787 3.000000
-0.466955 -0.070020 0.005689 3.000000
-0.466955 0.081242 -0.001215 3.000000
-0.466955 -0.030226 -0.030575 3.000000
-0.466955 -0.025043 0.064670 3.000000
-0.466955 0.054868 0.038160 3.000000
-0.466955 0.039113 0.050378 3.000000
-0.466955 -0.088516 -0.045254 3.000000
-0.466955 -0.007891 -0.002529 3.000000
-0.466955 0.045173 -0.087332 3.000000
-0.466955 -0.041942 -0.078003 3.000000
-0.466955 -0.054966 0.056436 3.000000
-0.466955 -0.057497 0.054602 3.000000
-0.466955 -0.053987 -0.071701 3.000000
-0.466955 0.034880 -0.055726 3.000000
-0.466955 -0.043275 0.079671 3.000000
-0.466955 0.051268 0.048002 3.000000
-0.466955 0.039597 -0.003062 3.000000
-0.466955 0.032773 0.018368 3.000000
-0.466955 -0.079056 0.021613 3.000000
-0.466955 0.042956 0.014420 3.000000
-0.466955 0.006259 -0.051593 3.000000
-0.466955 0.050334 -0.082124 3.000000
-0.466955 0.039842 0.027879 3.000000
-0.466955 -0.080464 0.051532 3.000000
-0.466955 -0.052571 -0.079298 3.000000
-0.466955 -0.072313 0.056726 3.000000
-0.466955 -0.082094 -0.033229 3.000000
-0.466955 0.067465 0.038499 3.000000
-0.466955 -0.037027 -0.088280 3.000000
-0.466955 -0.094262 -0.011027 3.000000
-0.466955 0.023487 0.002263 3.000000
-0.466955 -0.008494 0.094355 3.000000
-0.466955 -0.062407 -0.062319 3.000000
-0.466955 0.058235 0.020922 3.000000
-0.466955 0.001885 -0.039804 3.000000
-0.466955 -0.086672 -0.015527 3.000000
-0.466955 -0.095744 0.017329 3.000000
-0.466955 -0.058863 -0.073771 3.000000
-0.466955 -0.033207 0.059294 3.000000
-0.466955 -0.025099 -0.053743 3.000000
-0.466955 -0.030510 0.090904 3.000000
-0.466955 -0.065674 -0.024586 3.000000
-0.466955 0.031037 0.072466 3.000000
-0.466955 -0.069107 0.071649 3.000000
-0.466955 -0.063254 0.025659 3.000000
-0.466955 0.018045 -0.000844 3.000000
-0.466955 -0.000439 -0.081534 3.000000
-0.466955 -0.092654 -0.002970 3.000000
-0.466955 -0.051009 0.024247 3.000000
-0.466955 -0.030915 -0.016456 3.000000
-0.466955 -0.032797 0.016670 3.000000
-0.466955 0.047032 -0.004172 3.000000
-0.466955 -0.037949 -0.028398 3.000000
-0.466955 -0.063320 -0.045024 3.000000
-0.466955 -0.012245 0.016016 3.000000
-0.466955 -0.031581 0.048250 3.000000
-0.466955 0.026086 0.042749 3.000000
-0.466955 0.075779 0.026334 3.000000
-0.466955 -0.032123 -0.042420 3.000000
-0.466955 -0.071278 0.054731 3.000000
-0.466955 -0.016461 0.096303 3.000000
-0.466955 -0.003924 0.028922 3.000000
-0.466955 0.031676 0.055985 3.000000
-0.466955 -0.054298 0.053680 3.000000
-0.466955 -0.004108 0.019151 3.000000
-0.466955 -0.014656 0.011492 3.000000
-0.466955 0.022626 0.024718 3.000000
-0.466955 0.079642 -0.011129 3.000000
-0.466955 0.005260 -0.018876 3.000000
-0.466955 0.066633 0.005066 3.000000
-0.466955 0.037099 -0.087175 3.000000
-0.466955 0.001053 0.012292 3.000000
-0.466955 0.097609 -0.008003 3.000000
-0.466955 -0.052809 -0.052363 3.000000
-0.466955 -0.080872 0.020171 3.000000
-0.466955 0.038823 0.083926 3.000000
-0.466955 -0.050244 0.040580 3.000000
-0.466955 -0.065689 -0.053999 3.000000
-0.466955 0.039419 0.046342 3.000000
-0.466955 0.086006 0.041541 3.000000
-0.466955 -0.074290 0.034190 3.000000
-0.466955 0.057670 0.011462 3.000000
-0.466955 0.056679 -0.043726 3.000000
-0.466955 -0.028081 -0.089011 3.000000
-0.466955 -0.003796 0.096907 3.000000
-0.466955 -0.094780 0.020304 3.000000
-0.466955 0.083252 0.049091 3.000000
-0.466955 -0.024920 0.067704 3.000000
-0.466955 -0.048026 0.023880 3.000000
-0.466955 -0.028459 -0.033333 3.000000
-0.466955 -0.074759 0.046331 3.000000
-0.466955 -0.023865 0.036189 3.000000
-0.466955 0.046468 -0.024147 3.000000
-0.466955 -0.025513 -0.069191 3.000000
-0.466955 0.033410 -0.078252 3.000000
-0.466955 -0.055800 -0.066277 3.000000
-0.466955 -0.039626 -0.091075 3.000000
-0.466955 -0.081407 0.057810 3.000000
-0.466955 -0.020732 0.093426 3.000000
-0.466955 -0.013274 0.074646 3.000000
-0.466955 -0.005164 -0.006845 3.000000
-0.466955 0.037660 -0.000157 3.000000
-0.466955 -0.002574 -0.034164 3.000000
-0.466955 -0.027974 0.085662 3.000000
-0.466955 0.063723 0.032007 3.000000
-0.466955 -0.011405 -0.036917 3.000000
-0.466955 -0.029244 0.075053 3.000000
-0.466955 0.065064 0.069924 3.000000
-0.466955 0.058638 -0.075279 3.000000
-0.466955 -0.014360 -0.035864 3.000000
-0.466955 0.011603 0.080036 3.000000
-0.466955 0.001850 -0.008620 3.000000
-0.466955 -0.093137 0.021721 3.000000
-0.466955 0.011201 -0.031599 3.000000
-0.466955 -0.056570 -0.016656 3.000000
-0.466955 -0.034637 -0.060000 3.000000
-0.466955 -0.064420 -0.059923 3.000000
-0.466955 -0.093783 0.033949 3.000000
-0.466955 -0.062222 -0.008347 3.000000
-0.466955 0.061066 0.040220 3.000000
-0.466955 0.041173 0.043391 3.000000
-0.466955 0.053775 0.004581 3.000000
-0.466955 0.035827 0.073707 3.000000
-0.466955 0.003728 -0.024342 3.000000
-0.466955 0.012621 0.009444 3.000000
-0.466955 -0.008474 -0.072443 3.000000
-0.466955 0.007056 0.033773 3.000000
-0.466955 0.032216 0.049355 3.000000
-0.466955 0.041014 0.057993 3.000000
-0.466955 -0.017560 0.075366 3.000000
-0.466955 0.071907 0.030298 3.000000
-0.466955 -0.038277 -0.039183 3.000000
-0.466955 0.085651 -0.033695 3.000000
-0.466955 0.008240 -0.067242 3.000000
-0.466955 -0.064050 0.064834 3.000000
-0.466955 -0.045324 -0.067199 3.000000
-0.466955 -0.024463 -0.042811 3.000000
-0.466955 0.050737 -0.006997 3.000000
-0.466955 0.026326 0.061748 3.000000
-0.466955 -0.055486 -0.013066 3.000000
-0.466955 -0.085185 0.032380 3.000000
-0.466955 0.049512 0.070850 3.000000
-0.466955 0.090821 -0.001512 3.000000
-0.466955 0.015762 0.027193 3.000000
-0.466955 -0.005636 -0.033611 3.000000
-0.466955 0.047586 0.031420 3.000000
-0.466955 0.046634 -0.052360 3.000000
-0.466955 0.030499 -0.012006 3.000000
-0.466955 0.076289 0.012365 3.000000
-0.466955 0.021171 0.069078 3.000000
-0.466955 0.004058 -0.099409 3.000000
-0.466955 -0.041618 -0.035505 3.000000
-0.466955 -0.079952 0.042222 3.000000
-0.466955 -0.007402 0.053850 3.000000
-0.466955 0.028715 0.094836 3.000000
-0.466955 -0.006466 0.092532 3.000000
-0.466955 0.074240 -0.008991 3.000000
-0.466955 0.008043 0.017685 3.000000
-0.466955 -0.056048 0.079700 3.000000
-0.466955 -0.049194 0.036700 3.000000
-0.466955 0.023425 -0.069132 3.000000
-0.466955 -0.056703 0.051210 3.000000
-0.466955 0.046154 0.043309 3.000000
-0.466955 0.035992 0.038183 3.000000
-0.466955 0.039298 -0.087086 3.000000
-0.466955 -0.058805 0.001126 3.000000
-0.466955 0.069577 -0.060150 3.000000
-0.466955 -0.021265 0.070196 3.000000
-0.466955 0.025587 0.046627 3.000000
-0.466955 0.037842 -0.026425 3.000000
-0.466955 0.035005 0.008887 3.000000
-0.466955 0.000259 0.038825 3.000000
-0.466955 0.031527 0.054288 3.000000
-0.466955 -0.002642 -0.005120 3.000000
-0.466955 -0.061164 0.062230 3.000000
-0.466955 0.083222 0.043768 3.000000
-0.466955 -0.033449 0.037326 3.000000
-0.466955 -0.092814 0.007524 3.000000
-0.466955 -0.041320 -0.071327 3.000000
-0.466955 0.033284 -0.075636 3.000000
-0.466955 0.058503 0.062929 3.000000
-0.466955 0.035778 0.027064 3.000000
-0.466955 0.048277 -0.081333 3.000000
-0.466955 -0.000298 -0.062018 3.000000
-0.466955 0.007952 0.099171 3.000000
-0.466955 0.088257 0.020978 3.000000
-0.466955 0.018830 0.093444 3.000000
-0.466955 -0.011695 -0.064974 3.000000
-0.466955 0.014664 0.090672 3.000000
-0.466955 -0.029754 0.051823 3.000000
-0.466955 0.070760 0.064048 3.000000
-0.466955 -0.028630 0.040537 3.000000
-0.466955 -0.054037 -0.065950 3.000000
-0.466955 -0.029218 -0.065525 3.000000
-0.466955 0.003992 -0.015351 3.000000
-0.466955 0.020639 -0.073685 3.000000
-0.466955 0.077184 -0.004062 3.000000
-0.466955 -0.002566 0.001213 3.000000
-0.466955 0.008271 -0.022320 3.000000
-0.466955 -0.036076 0.088901 3.000000
-0.466955 0.077067 0.056808 3.000000
-0.466955 -0.049650 0.078019 3.000000
-0.466955 -0.086337 0.040984 3.000000
-0.466955 0.089274 -0.013620 3.000000
-0.466955 0.070457 0.014882 3.000000
-0.466955 0.071007 0.050026 3.000000
-0.466955 -0.014261 0.071835 3.000000
-0.466955 0.048074 -0.024471 3.000000
-0.466955 0.025608 -0.010952 3.000000
-0.466955 0.038431 0.087796 3.000000
-0.466955 -0.044771 0.076998 3.000000
-0.466955 -0.046190 0.071367 3.000000
-0.466955 -0.071647 0.064109 3.000000
-0.466955 0.064825 -0.007473 3.000000
-0.466955 0.013866 -0.046746 3.000000
-0.466955 0.011139 -0.066275 3.000000
-0.466955 0.047787 0.083089 3.000000
-0.466955 0.052305 -0.060629 3.000000
-0.466955 0.009518 -0.032501 3.000000
-0.466955 -0.062757 0.051286 3.000000
-0.466955 -0.021860 0.046399 3.000000
-0.466955 -0.007482 -0.084981 3.000000
-0.466955 -0.041176 -0.029937 3.000000
-0.466955 0.052555 0.074841 3.000000
-0.466955 0.071506 0.041108 3.000000
-0.466955 -0.035180 -0.074369 3.000000
-0.466955 0.036664 0.079870 3.000000
-0.466955 -0.072686 0.021563 3.000000
-0.466955 0.084862 -0.021576 3.000000
-0.466955 0.037666 0.050436 3.000000
-0.466955 -0.012008 0.099273 3.000000
-0.466955 -0.051001 0.039039 3.000000
-0.466955 -0.076530 -0.034121 3.000000
-0.466955 -0.014110 -0.054736 3.000000
-0.466955 -0.013826 0.085996 3.000000
-0.466955 -0.040795 0.085283 3.000000
-0.466955 0.031100 0.036503 3.000000
-0.466955 -0.036611 -0.047349 3.000000
-0.466955 -0.003017 0.085153 3.000000
-0.466955 0.049361 0.042206 3.000000
-0.466955 -0.000011 -0.041270 3.000000
-0.466955 0.077313 0.043188 3.000000
-0.466955 -0.022401 0.066844 3.000000
-0.466955 -0.026605 -0.085096 3.000000
-0.466955 -0.086682 0.015377 3.000000
-0.466955 -0.003357 -0.057561 3.000000
-0.466955 -0.048670 0.073529 3.000000
-0.466955 0.014808 0.011990 3.000000
-0.466955 -0.071666 -0.015050 3.000000
-0.466955 -0.058321 -0.064403 3.000000
-0.466955 -0.044366 0.014314 3.000000
-0.466955 -0.056428 0.055706 3.000000
-0.466955 0.024790 -0.067918 3.000000
-0.466955 0.049649 0.059244 3.000000
-0.466955 -0.074501 0.000831 3.000000
-0.466955 -0.035403 -0.005122 3.000000
-0.466955 0.074925 0.065822 3.000000
-0.466955 -0.048618 0.084501 3.000000
-0.466955 0.009480 0.037770 3.000000
-0.466955 -0.023553 0.077608 3.000000
-0.466955 0.080598 0.056173 3.000000
-0.466955 0.078713 0.053411 3.000000
-0.466955 0.026925 0.063519 3.000000
-0.466955 -0.059340 0.052315 3.000000
-0.466955 -0.099614 -0.001290 3.000000
-0.466955 -0.040446 -0.053928 3.000000
-0.466955 -0.034365 0.045342 3.000000
-0.466955 -0.046240 0.082591 3.000000
-0.466955 -0.001606 0.007889 3.000000
-0.466955 0.047469 -0.031605 3.000000
-0.466955 -0.043769 0.031513 3.000000
-0.466955 -0.043000 -0.035120 3.000000
-0.466955 -0.043028 -0.048602 3.000000
-0.466955 -0.061061 0.006486 3.000000
-0.466955 0.078443 -0.003098 3.000000
-0.466955 -0.031907 0.089927 3.000000
-0.466955 0.032977 -0.001660 3.000000
-0.466955 0.064699 -0.020491 3.000000
-0.466955 0.013131 0.021387 3.000000
-0.466955 -0.054928 0.041091 3.000000
-0.466955 0.007329 0.058835 3.000000
-0.466955 -0.071872 -0.038577 3.000000
-0.466955 -0.033960 0.050383 3.000000
-0.466955 -0.009186 0.040459 3.000000
-0.466955 -0.062184 -0.056352 3.000000
-0.466955 -0.073802 -0.029625 3.000000
-0.466955 0.013484 0.083275 3.000000
