0.342868 0.093934 0.034334 1.000000
0.411601 -0.067655 -0.073169 1.000000
0.046945 -0.056976 0.082094 1.000000
0.076977 -0.022878 -0.096982 1.000000
-0.161197 -0.004784 -0.099553 1.000000
0.231619 0.066691 0.074588 1.000000
-0.166196 0.003405 0.099967 1.000000
0.354550 -0.006854 -0.099444 1.000000
-0.161437 0.099963 0.001529 1.000000
-0.218677 -0.009591 0.099548 1.000000
0.258803 -0.099340 0.008940 1.000000
0.320277 0.099041 0.013813 1.000000
-0.379566 -0.069084 0.072175 1.000000
0.019383 -0.091199 -0.040190 1.000000
0.277349 0.097761 0.021026 1.000000
0.247153 -0.035200 -0.093216 1.000000
-0.370548 -0.099209 0.010319 1.000000
0.418545 0.055690 -0.082764 1.000000
0.155041 -0.083771 -0.054005 1.000000
-0.003339 -0.012477 0.099271 1.000000
0.414152 -0.078346 -0.061560 1.000000
0.258198 0.040320 -0.091207 1.000000
0.304215 0.065199 -0.075540 1.000000
0.279626 -0.076937 -0.063376 1.000000
0.028014 -0.014087 0.099016 1.000000
0.143813 0.060536 -0.079307 1.000000
-0.424459 0.069990 0.071502 1.000000
-0.403710 0.095144 0.030953 1.000000
-0.466726 0.051155 0.085989 3.000000
-0.282987 0.065176 0.075923 1.000000
-0.313673 0.092713 0.037594 1.000000
-0.034159 -0.025207 -0.096429 1.000000
0.064643 -0.061944 -0.078033 1.000000
0.306647 -0.095909 0.027519 1.000000
-0.124067 0.061429 -0.078614 1.000000
0.349706 -0.060927 -0.078822 1.000000
-0.012861 -0.093637 -0.034147 1.000000
0.249056 -0.078940 -0.060794 1.000000
-0.356928 -0.001818 0.100009 1.000000
-0.085309 -0.039305 0.091908 1.000000
0.285259 -0.099084 -0.011286 1.000000
0.428913 0.069381 0.072111 2.000000
-0.374131 -0.078399 -0.061491 1.000000
-0.390383 -0.000967 -0.099673 1.000000
-0.039220 0.080837 0.059013 1.000000
-0.014296 -0.008004 -0.099335 1.000000
0.125623 0.066372 -0.074506 1.000000
-0.436813 0.027115 0.096305 1.000000
-0.350805 -0.026657 0.096370 1.000000
-0.291731 0.021165 -0.097417 1.000000
0.357726 0.051682 -0.085315 1.000000
0.397707 -0.097398 -0.021240 1.000000
0.012029 -0.080611 -0.058640 1.000000
-0.322640 -0.049885 -0.086240 1.000000
-0.272220 -0.031410 -0.094581 1.000000
-0.240495 -0.089456 0.044301 1.000000
0.243342 -0.086126 0.050485 1.000000
0.423426 -0.075508 -0.065011 1.000000
-0.425682 0.000136 -0.099707 1.000000
-0.114212 0.028315 -0.095594 1.000000
0.433145 -0.091919 0.038890 2.000000
0.373718 0.086349 -0.050140 1.000000
-0.420391 -0.032903 0.094406 1.000000
0.046806 0.069415 -0.071715 1.000000
0.090047 -0.053567 0.084411 1.000000
0.421241 0.098239 -0.018515 1.000000
0.053579 -0.040883 0.091226 1.000000
-0.119469 0.069009 0.072483 1.000000
-0.059054 -0.034307 -0.093538 1.000000
0.429779 -0.021897 0.097564 2.000000
-0.042516 -0.066919 -0.073818 1.000000
-0.345840 0.099137 -0.012849 1.000000
-0.196363 0.091281 -0.040541 1.000000
-0.111058 0.057805 -0.081327 1.000000
0.301787 -0.098759 -0.013760 1.000000
0.116170 0.096599 -0.025584 1.000000
0.127853 0.010853 -0.099088 1.000000
-0.427572 -0.086593 0.049695 3.000000
0.305387 -0.040168 0.091535 1.000000
-0.044929 0.046404 -0.088286 1.000000
-0.346430 -0.084129 0.053841 1.000000
-0.394631 -0.096016 -0.026786 1.000000
-0.308630 0.077756 -0.062621 1.000000
0.232539 0.088219 -0.046824 1.000000
-0.273459 -0.075473 0.065413 1.000000
0.465153 0.085893 -0.050911 2.000000
0.296211 -0.044611 -0.089081 1.000000
-0.296625 -0.094807 -0.030897 1.000000
-0.421870 -0.070606 0.070653 1.000000
0.436322 0.082894 -0.055640 1.000000
-0.124210 0.007434 0.099774 1.000000
-0.387662 0.099522 0.009481 1.000000
-0.025046 -0.006960 0.099797 1.000000
-0.219949 -0.099750 -0.000529 1.000000
0.077450 -0.089598 -0.043658 1.000000
0.128098 0.085036 0.052722 1.000000
-0.052996 -0.067633 -0.073188 1.000000
0.203884 0.063935 -0.076655 1.000000
-0.082085 0.086086 0.050948 1.000000
0.092770 0.058681 0.081094 1.000000
0.148497 0.056412 0.082636 1.000000
0.134568 0.083687 0.054835 1.000000
0.277557 0.021847 0.097627 1.000000
0.175469 0.094114 -0.033469 1.000000
-0.267401 0.080194 -0.059478 1.000000
0.014035 0.091078 -0.041010 1.000000
-0.143909 0.029986 -0.095108 1.000000
-0.410736 0.056748 0.082407 1.000000
0.166560 0.097239 -0.022996 1.000000
0.068237 -0.084468 0.053288 1.000000
0.350968 -0.069233 -0.071663 1.000000
0.445600 -0.082162 0.056736 2.000000
-0.185203 0.035054 -0.093353 1.000000
-0.389110 0.036030 -0.093002 1.000000
0.160083 -0.090174 0.042891 1.000000
0.134410 0.099625 0.008390 1.000000
-0.031991 0.052662 -0.084736 1.000000
0.455487 -0.011519 -0.099003 2.000000
-0.072408 -0.014442 0.098959 1.000000
0.144158 -0.096997 -0.023033 1.000000
0.373074 0.074369 -0.066568 1.000000
0.180285 0.018637 -0.097969 1.000000
0.213783 0.022236 -0.097177 1.000000
0.041839 -0.048871 0.087203 1.000000
0.274717 0.065102 -0.075626 1.000000
-0.080361 -0.052121 0.085280 1.000000
0.348288 -0.091101 -0.040419 1.000000
0.220030 0.045876 -0.088556 1.000000
0.279218 -0.081732 0.057368 1.000000
-0.000832 -0.039495 0.091826 1.000000
-0.228290 0.024515 -0.096668 1.000000
-0.237877 0.096014 0.027958 1.000000
-0.288590 0.022033 0.097586 1.000000
-0.217482 0.077121 -0.063440 1.000000
-0.043689 0.029799 0.095525 1.000000
-0.153528 0.040640 0.091432 1.000000
-0.050812 0.098321 -0.017998 1.000000
-0.201581 -0.097546 0.020940 1.000000
0.324033 -0.085863 -0.050567 1.000000
0.202002 -0.099729 -0.001172 1.000000
-0.302827 -0.033618 0.094149 1.000000
-0.049465 0.028636 -0.095500 1.000000
-0.318639 -0.023664 0.097169 1.000000
0.131222 0.096514 -0.025877 1.000000
-0.014554 0.005098 0.099913 1.000000
-0.019963 0.068637 0.072856 1.000000
0.283122 -0.082261 -0.056227 1.000000
0.232149 0.067060 -0.073900 1.000000
-0.422636 -0.092171 0.038307 3.000000
-0.460386 0.077125 -0.063434 3.000000
0.012789 -0.064946 0.075920 1.000000
-0.271138 0.073353 0.068083 1.000000
0.405918 -0.076003 -0.064449 1.000000
-0.434137 0.085708 -0.051224 3.000000
0.370297 -0.047128 0.088161 1.000000
0.223158 0.030952 0.095190 1.000000
0.243177 -0.021149 -0.097368 1.000000
-0.149065 -0.098417 -0.015917 1.000000
0.413958 0.060303 -0.079488 1.000000
0.456863 -0.051820 0.085458 2.000000
0.320089 -0.096921 -0.023374 1.000000
-0.328053 0.096551 -0.025748 1.000000
0.441653 0.027491 0.096196 2.000000
0.275794 0.082233 0.056974 1.000000
0.131576 0.021143 0.097785 1.000000
-0.237323 -0.076543 -0.063837 1.000000
-0.330786 -0.098584 -0.014863 1.000000
0.328333 0.017416 0.098525 1.000000
0.300832 0.074277 -0.066672 1.000000
0.406038 0.046246 0.088730 1.000000
-0.031826 -0.083378 0.054946 1.000000
0.235440 0.077513 -0.062934 1.000000
0.005908 0.075388 -0.065412 1.000000
-0.410473 -0.057939 0.081440 1.000000
-0.355737 -0.098254 0.017314 1.000000
-0.121092 -0.039436 -0.091489 1.000000
-0.247236 -0.087492 0.048155 1.000000
-0.449875 -0.092867 0.036649 3.000000
0.031866 -0.041598 -0.090554 1.000000
-0.160827 0.012109 -0.098969 1.000000
-0.014688 0.030228 0.095401 1.000000
-0.054871 0.026007 0.096627 1.000000
-0.295829 0.099130 0.013251 1.000000
0.081002 0.093932 -0.033975 1.000000
0.084953 0.061230 0.079131 1.000000
-0.466700 -0.099707 -0.001890 3.000000
-0.400650 -0.087654 -0.047474 1.000000
-0.228015 -0.099759 0.000604 1.000000
0.153464 0.099555 -0.008772 1.000000
-0.300342 0.066137 0.075076 1.000000
-0.317324 0.026699 -0.096063 1.000000
-0.271369 -0.089733 -0.043393 1.000000
-0.382741 0.091185 -0.040763 1.000000
0.004380 -0.008015 -0.099334 1.000000
0.034596 0.087753 0.048101 1.000000
-0.441767 -0.091098 -0.040425 3.000000
0.113178 -0.014785 -0.098542 1.000000
0.295070 -0.065165 0.075727 1.000000
0.425661 -0.033273 0.094273 2.000000
0.175051 -0.075784 -0.064698 1.000000
-0.349495 0.033464 0.094288 1.000000
0.236688 -0.057881 -0.081117 1.000000
0.222456 0.042469 0.090641 1.000000
0.383165 -0.090037 0.043159 1.000000
-0.447072 0.051613 -0.085356 3.000000
0.397055 0.072442 0.069050 1.000000
-0.356534 0.022940 -0.097020 1.000000
-0.082289 0.013564 0.099135 1.000000
0.037432 -0.079416 -0.060181 1.000000
-0.145014 -0.064183 -0.076230 1.000000
0.157492 -0.071606 0.069653 1.000000
-0.356189 0.056315 -0.082340 1.000000
-0.164939 0.097366 -0.022427 1.000000
0.152519 0.021983 -0.097234 1.000000
0.157069 0.045270 0.089227 1.000000
-0.259055 -0.099363 -0.008331 1.000000
0.169015 -0.018301 0.098348 1.000000
0.055300 0.040636 0.091434 1.000000
0.282946 0.099825 -0.005564 1.000000
0.000942 0.029406 0.095640 1.000000
0.224205 -0.065841 -0.074769 1.000000
-0.078527 -0.020734 -0.097461 1.000000
-0.181372 0.040019 -0.091338 1.000000
-0.212701 0.002589 0.099992 1.000000
-0.381588 -0.063793 0.076937 1.000000
0.224183 0.093979 0.034207 1.000000
0.057906 0.098586 -0.016327 1.000000
-0.425694 -0.071573 -0.069323 1.000000
-0.393599 0.055106 0.083524 1.000000
0.267625 0.040647 0.091429 1.000000
0.053234 -0.021623 -0.097262 1.000000
0.126954 0.045868 -0.088559 1.000000
-0.235867 0.039426 0.091957 1.000000
-0.237294 -0.096759 -0.024101 1.000000
-0.290020 0.052103 -0.085066 1.000000
0.055896 0.058679 0.081096 1.000000
-0.221124 -0.094742 -0.031078 1.000000
-0.177308 0.062764 0.077941 1.000000
0.238704 0.093557 0.035379 1.000000
0.065286 -0.063498 0.077191 1.000000
0.397683 0.047160 0.088264 1.000000
0.017632 -0.042475 0.090532 1.000000
0.039864 -0.074337 0.066702 1.000000
-0.398389 0.074473 0.066812 1.000000
0.272714 -0.017441 0.098484 1.000000
-0.168399 0.085103 -0.052246 1.000000
-0.436637 0.095532 -0.029254 3.000000
-0.351629 0.070574 0.070918 1.000000
-0.444969 0.050409 0.086431 3.000000
0.067513 0.072239 0.069254 1.000000
-0.259491 -0.083701 -0.054108 1.000000
-0.189335 0.021447 0.097717 1.000000
0.460125 0.099717 0.007422 2.000000
0.096568 -0.090339 -0.042179 1.000000
-0.170024 0.058839 0.080986 1.000000
-0.204232 -0.000833 0.100040 1.000000
-0.003201 -0.019388 -0.097762 1.000000
0.358285 -0.099314 0.009212 1.000000
-0.311274 0.097942 -0.019850 1.000000
0.027353 0.044674 0.089531 1.000000
0.464952 0.064004 0.076957 2.000000
0.382724 0.047619 0.088030 1.000000
-0.346079 -0.093801 -0.033693 1.000000
0.248094 -0.095907 0.027524 1.000000
-0.368114 -0.097349 -0.021460 1.000000
-0.067168 -0.079187 -0.060476 1.000000
-0.068962 -0.042839 -0.089984 1.000000
0.012480 -0.097272 0.022165 1.000000
-0.210090 -0.068652 -0.072244 1.000000
0.452879 0.099169 -0.012647 2.000000
-0.311102 -0.046241 -0.088250 1.000000
-0.415392 -0.075688 -0.064807 1.000000
0.094932 -0.073686 0.067440 1.000000
-0.191206 0.093971 0.034229 1.000000
-0.407572 -0.096614 0.025092 1.000000
0.448888 -0.066690 0.074383 2.000000
-0.344807 0.037001 0.093007 1.000000
0.391233 0.087759 0.048088 1.000000
0.373854 0.066855 -0.074081 1.000000
-0.006757 0.019626 0.098124 1.000000
0.435042 0.074248 0.067067 2.000000
0.381724 -0.097404 0.021575 1.000000
0.353549 0.054444 0.083973 1.000000
0.122554 0.013089 0.099211 1.000000
0.308857 -0.098091 -0.017975 1.000000
0.443925 -0.017811 -0.098063 1.000000
-0.012791 -0.076063 0.064744 1.000000
-0.348115 -0.094335 0.032572 1.000000
0.195505 -0.096666 -0.024516 1.000000
-0.251484 -0.099522 -0.006649 1.000000
-0.412391 0.095274 -0.030144 1.000000
0.370006 -0.095861 -0.027319 1.000000
-0.413792 0.023227 -0.096956 1.000000
-0.455340 -0.084973 0.052434 3.000000
-0.156726 0.030977 0.095183 1.000000
-0.085769 0.087326 -0.048488 1.000000
0.226996 -0.099027 0.012254 1.000000
-0.317194 0.084238 0.054025 1.000000
-0.351034 -0.007002 -0.099430 1.000000
-0.442047 -0.084580 -0.052737 3.000000
-0.235582 -0.073148 0.068050 1.000000
0.006556 0.099746 -0.006746 1.000000
-0.336727 -0.099356 -0.008404 1.000000
-0.097345 0.081173 -0.058171 1.000000
-0.101302 -0.074260 -0.066426 1.000000
0.320510 0.053714 -0.084107 1.000000
-0.383339 0.070857 -0.070273 1.000000
-0.180781 0.074678 -0.066218 1.000000
0.248043 0.075714 0.065404 1.000000
-0.113815 0.020692 -0.097523 1.000000
0.277905 0.029649 0.095569 1.000000
0.258350 0.085092 0.052628 1.000000
-0.439123 0.056252 -0.082382 3.000000
-0.423049 0.068427 -0.072695 3.000000
-0.248556 -0.037941 -0.092136 1.000000
-0.145049 -0.079691 0.060189 1.000000
0.339276 -0.093662 -0.034076 1.000000
0.313918 -0.019482 0.098104 1.000000
0.274173 -0.086587 0.049705 1.000000
-0.249687 0.059881 -0.079815 1.000000
0.087194 0.056254 0.082743 1.000000
0.162546 0.098260 -0.018385 1.000000
-0.147983 -0.071275 -0.069621 1.000000
0.183426 0.063333 -0.077137 1.000000
0.379829 -0.098833 0.013656 1.000000
-0.375425 0.093481 0.035590 1.000000
0.026874 -0.085671 -0.050892 1.000000
-0.286080 0.084071 -0.053908 1.000000
-0.285362 -0.055461 0.083124 1.000000
0.338013 -0.051671 -0.085184 1.000000
0.256824 -0.019272 0.098151 1.000000
0.397045 0.098943 0.014432 1.000000
0.167911 -0.062003 0.078351 1.000000
0.386375 -0.013163 0.099162 1.000000
-0.136551 -0.099056 -0.011580 1.000000
-0.146661 -0.099720 0.001841 1.000000
0.431666 -0.099036 0.012156 2.000000
-0.406479 0.079001 -0.061016 1.000000
-0.287078 0.066098 -0.074747 1.000000
-0.031278 -0.038603 0.092212 1.000000
0.085434 0.089416 0.044837 1.000000
-0.060521 -0.005414 -0.099533 1.000000
0.384994 -0.079478 -0.060100 1.000000
-0.181992 0.078972 -0.061054 1.000000
-0.428381 0.096082 -0.027362 1.000000
0.150747 -0.090478 -0.041858 1.000000
0.358627 -0.089121 0.044958 1.000000
-0.145393 -0.068213 0.073040 1.000000
0.383510 0.086615 0.050052 1.000000
0.424820 0.024743 -0.096617 1.000000
-0.269283 0.075103 -0.065735 1.000000
0.104256 0.090585 0.042513 1.000000
0.257973 -0.078550 -0.061297 1.000000
0.292973 0.099816 -0.005836 1.000000
-0.169202 0.082963 0.055900 1.000000
-0.012925 0.017462 0.098518 1.000000
-0.311771 -0.023288 -0.096890 1.000000
-0.434923 0.058374 0.081303 1.000000
0.266445 -0.096657 -0.024553 1.000000
0.136813 -0.095428 0.029172 1.000000
-0.026134 -0.096068 -0.026608 1.000000
-0.413962 -0.063554 0.077148 1.000000
0.219333 0.038637 -0.091936 1.000000
-0.443165 -0.079632 0.060264 3.000000
-0.336817 0.024929 0.096938 1.000000
-0.034089 -0.090852 0.041356 1.000000
-0.204441 -0.086981 0.049039 1.000000
-0.041158 0.073363 -0.067709 1.000000
-0.410963 -0.044606 0.089446 1.000000
0.182945 -0.078227 -0.061713 1.000000
0.306420 -0.021912 -0.097198 1.000000
0.302982 0.016281 -0.098342 1.000000
-0.255436 -0.012876 0.099207 1.000000
-0.335433 0.099991 -0.000263 1.000000
0.290587 0.078312 0.062267 1.000000
-0.042019 -0.023315 -0.096884 1.000000
0.012116 0.082182 0.057050 1.000000
-0.113971 -0.083711 -0.054094 1.000000
0.405731 -0.006399 -0.099487 1.000000
-0.016757 -0.080878 -0.058262 1.000000
0.165730 -0.099022 -0.011935 1.000000
0.006693 -0.052880 -0.084468 1.000000
-0.159074 0.095817 -0.028275 1.000000
-0.044400 0.098427 -0.017328 1.000000
0.019652 -0.087838 0.047476 1.000000
-0.139075 0.099846 -0.004880 1.000000
0.024481 0.087584 -0.048051 1.000000
-0.450464 -0.078570 0.061633 3.000000
0.350051 0.040804 0.091361 1.000000
-0.387019 0.094895 -0.031300 1.000000
-0.397225 0.050591 -0.085960 1.000000
0.075171 -0.083237 0.055154 1.000000
0.149337 0.089105 0.045447 1.000000
-0.024837 0.016376 -0.098327 1.000000
-0.246057 0.079335 0.060948 1.000000
0.274025 0.073888 -0.067113 1.000000
0.198479 0.099283 0.012009 1.000000
0.241542 -0.095962 0.027333 1.000000
-0.131591 -0.016206 -0.098317 1.000000
-0.128707 0.099823 0.005994 1.000000
-0.003441 -0.018647 0.098290 1.000000
-0.395312 0.062587 -0.077716 1.000000
0.162555 -0.060802 -0.078919 1.000000
-0.331331 -0.048526 0.087406 1.000000
-0.149486 -0.096464 0.025607 1.000000
-0.011513 0.045736 0.088990 1.000000
-0.166712 -0.061362 0.078848 1.000000
-0.355771 -0.023555 0.097193 1.000000
-0.129649 -0.032313 -0.094256 1.000000
0.100372 0.054551 0.083901 1.000000
0.216853 0.059244 0.080671 1.000000
-0.349430 0.054707 -0.083432 1.000000
-0.293223 -0.095078 0.030377 1.000000
0.380866 0.094536 -0.032299 1.000000
-0.331700 -0.092440 -0.037323 1.000000
-0.410339 0.026973 0.096346 1.000000
0.079107 -0.009291 -0.099214 1.000000
-0.076357 -0.029306 -0.095238 1.000000
0.132124 -0.099152 -0.010566 1.000000
0.179818 -0.075554 0.065321 1.000000
-0.079870 -0.095039 -0.030151 1.000000
0.056626 0.049085 0.087214 1.000000
-0.094369 0.049836 -0.086407 1.000000
0.048419 -0.035822 -0.092992 1.000000
-0.363313 0.027644 -0.095789 1.000000
0.445218 -0.096226 -0.026065 2.000000
-0.206960 -0.057852 -0.081136 1.000000
-0.386601 0.012258 0.099318 1.000000
0.225231 0.099326 0.011554 1.000000
0.292512 -0.030381 -0.094926 1.000000
0.036607 0.048706 0.087438 1.000000
-0.439382 0.043637 -0.089696 3.000000
-0.076914 -0.089829 -0.043205 1.000000
0.296511 0.083447 0.055188 1.000000
0.197057 -0.000041 0.100065 1.000000
0.341661 0.029966 -0.095114 1.000000
-0.361494 -0.091055 0.040886 1.000000
-0.429686 -0.013110 -0.098808 1.000000
0.425267 0.016633 0.098649 2.000000
-0.016941 0.004443 -0.099571 1.000000
0.451954 0.088955 -0.045379 2.000000
0.259272 -0.099108 -0.011029 1.000000
0.267401 -0.070922 0.070337 1.000000
-0.232605 -0.025550 -0.096329 1.000000
0.435926 -0.095753 0.028054 2.000000
0.404436 -0.019713 -0.097689 1.000000
0.364991 -0.004333 0.099930 1.000000
-0.202768 -0.089420 -0.044008 1.000000
0.200293 -0.068789 -0.072107 1.000000
-0.094515 0.099869 -0.004144 1.000000
-0.128264 -0.049957 0.086560 1.000000
0.305305 0.096275 0.027062 1.000000
-0.361585 -0.073367 0.067802 1.000000
-0.422285 -0.039747 0.091717 1.000000
-0.296370 -0.054697 -0.083280 1.000000
0.337702 -0.015898 0.098729 1.000000
-0.266657 0.070648 -0.070481 1.000000
0.060356 -0.014814 -0.098538 1.000000
0.005579 0.042525 0.090616 1.000000
0.279571 0.077516 -0.062931 1.000000
0.000104 0.099825 0.005924 1.000000
0.371214 0.005950 0.099887 1.000000
0.129249 -0.061865 0.078458 1.000000
-0.382868 0.034373 0.093961 1.000000
-0.434060 -0.065621 0.075325 3.000000
0.362467 -0.066078 -0.074560 1.000000
-0.020813 0.083396 -0.054900 1.000000
0.154468 -0.077050 0.063593 1.000000
0.004327 0.056608 0.082503 1.000000
-0.037554 0.098315 -0.018038 1.000000
-0.272221 -0.087596 0.047950 1.000000
0.395113 0.094738 -0.031738 1.000000
-0.303346 -0.022901 0.097339 1.000000
0.285394 -0.095955 0.027357 1.000000
-0.239187 0.044564 0.089587 1.000000
-0.420344 -0.056746 -0.081888 1.000000
-0.110567 0.045675 -0.088658 1.000000
-0.057787 -0.084141 0.053824 1.000000
-0.137041 0.089118 0.045420 1.000000
-0.191578 0.093279 -0.035789 1.000000
0.219253 -0.066743 0.074336 1.000000
0.098233 0.088605 0.046428 1.000000
-0.119038 0.047238 -0.087861 1.000000
-0.462554 0.094911 0.031620 3.000000
-0.339529 -0.008675 0.099635 1.000000
0.171494 0.096954 0.024635 1.000000
-0.448201 -0.027424 0.096147 3.000000
0.023883 0.011466 0.099393 1.000000
0.039172 0.018040 -0.098064 1.000000
-0.028625 -0.096503 0.025473 1.000000
0.103951 -0.099759 0.000584 1.000000
0.093119 0.043164 -0.089937 1.000000
-0.293794 -0.039353 0.091888 1.000000
-0.466686 0.035803 0.093446 3.000000
0.418534 0.072486 -0.068644 1.000000
0.191000 -0.066837 -0.073890 1.000000
-0.243854 -0.081637 -0.057146 1.000000
-0.174984 0.098543 -0.016595 1.000000
0.203327 0.044853 -0.089077 1.000000
-0.215695 -0.041169 -0.090739 1.000000
0.129005 0.087449 -0.048279 1.000000
0.275993 0.088865 -0.045556 1.000000
-0.204352 0.014959 -0.098552 1.000000
0.136788 -0.044404 0.089549 1.000000
0.075512 0.047164 0.088262 1.000000
-0.291641 0.059755 -0.079913 1.000000
0.273058 0.057491 0.081903 1.000000
-0.047983 0.089613 -0.044086 1.000000
-0.420610 -0.096615 0.025086 1.000000
0.148058 -0.062607 0.077882 1.000000
-0.381936 -0.048279 -0.087190 1.000000
0.107642 -0.057291 -0.081517 1.000000
0.097426 -0.002454 -0.099626 1.000000
-0.338344 -0.032296 0.094625 1.000000
0.067808 0.003729 0.099956 1.000000
-0.283566 -0.073948 -0.066781 1.000000
-0.221072 -0.020216 -0.097577 1.000000
0.307197 -0.083691 0.054486 1.000000
-0.276691 0.079984 -0.059749 1.000000
0.215822 -0.099729 0.001562 1.000000
-0.392739 0.098488 -0.016942 1.000000
0.264121 0.093589 0.035292 1.000000
0.415857 0.050779 0.086212 1.000000
-0.243745 0.099164 -0.012678 1.000000
0.221725 -0.030259 -0.094961 1.000000
0.250150 -0.089103 0.044992 1.000000
-0.432459 0.067769 -0.073275 3.000000
0.306486 0.064306 0.076690 1.000000
-0.272151 0.095991 0.028038 1.000000
-0.194955 -0.060340 -0.079277 1.000000
0.238768 -0.036461 -0.092762 1.000000
-0.225914 0.048760 0.087406 1.000000
-0.053691 -0.017513 0.098473 1.000000
0.052938 0.091955 -0.038983 1.000000
-0.298403 -0.012697 -0.098873 1.000000
-0.266039 -0.033448 0.094210 1.000000
0.152659 -0.047445 -0.087637 1.000000
0.349235 0.016837 0.098617 1.000000
0.296474 -0.095278 0.029689 1.000000
-0.401696 0.025444 -0.096428 1.000000
0.424793 0.096614 0.025895 1.000000
-0.150940 0.002704 -0.099626 1.000000
-0.351302 0.097259 0.023271 1.000000
0.334329 0.046708 0.088494 1.000000
-0.270046 0.090612 -0.042088 1.000000
-0.191294 -0.085354 0.051791 1.000000
0.278094 0.005137 -0.099549 1.000000
0.108607 -0.062775 -0.077389 1.000000
0.199239 0.068273 -0.072830 1.000000
0.090138 -0.069545 0.071714 1.000000
-0.145117 -0.099351 0.008826 1.000000
0.405550 0.058967 0.080887 1.000000
-0.437653 0.088783 0.046078 1.000000
0.023101 0.069629 -0.071500 1.000000
-0.240815 -0.099314 0.009208 1.000000
0.047187 0.081617 -0.057519 1.000000
0.253117 0.093114 -0.036247 1.000000
-0.195814 -0.045932 -0.088408 1.000000
0.264351 -0.098120 -0.017792 1.000000
0.326462 -0.098843 0.013590 1.000000
0.386987 0.062360 -0.077892 1.000000
0.438612 0.089422 -0.044462 2.000000
0.108788 0.095853 -0.028150 1.000000
0.357482 0.065234 -0.075509 1.000000
0.300828 -0.072622 0.068636 1.000000
0.001709 0.080729 -0.058788 1.000000
-0.457488 -0.008973 -0.099244 3.000000
0.142801 -0.014738 0.098912 1.000000
0.115116 -0.089589 -0.043676 1.000000
0.025664 0.099216 -0.012351 1.000000
-0.425758 -0.076814 -0.063530 1.000000
0.189032 0.095124 -0.030660 1.000000
0.295401 -0.087693 -0.047397 1.000000
0.003542 -0.018094 -0.098018 1.000000
-0.262249 -0.064374 -0.076062 1.000000
0.289664 -0.093638 -0.034144 1.000000
0.407847 -0.099616 0.005147 1.000000
0.165873 -0.071457 0.069801 1.000000
-0.250691 0.099716 -0.007065 1.000000
0.053914 -0.099685 -0.002588 1.000000
-0.280946 0.084976 0.052824 1.000000
0.196882 -0.051285 0.085775 1.000000
-0.107445 -0.090187 0.042866 1.000000
-0.053662 -0.010591 0.099454 1.000000
-0.179056 -0.096852 -0.023685 1.000000
-0.439747 0.086435 -0.049994 3.000000
0.451284 -0.067971 -0.072891 2.000000
-0.363872 -0.063913 -0.076468 1.000000
0.052117 0.099383 0.010946 1.000000
0.000034 -0.098129 -0.017738 1.000000
-0.429486 -0.098702 -0.014121 3.000000
0.340776 -0.098790 0.013929 1.000000
-0.166269 -0.099542 -0.006438 1.000000
0.384464 -0.036840 -0.092612 1.000000
-0.098918 -0.076727 0.063991 1.000000
0.085671 0.088083 -0.047090 1.000000
-0.119965 0.043159 0.090303 1.000000
0.049680 0.087441 -0.048294 1.000000
0.028816 -0.082955 0.055569 1.000000
-0.272600 0.092095 0.039023 1.000000
-0.395738 0.094908 0.031627 1.000000
-0.405923 -0.081724 -0.057018 1.000000
-0.105616 -0.086767 0.049401 1.000000
0.180526 0.074063 -0.066914 1.000000
0.247293 0.044790 0.089472 1.000000
0.257393 0.087925 -0.047400 1.000000
0.255605 -0.057838 -0.081145 1.000000
0.060655 -0.082303 0.056528 1.000000
-0.162649 0.047671 0.088004 1.000000
-0.251989 0.097513 -0.021769 1.000000
-0.055448 -0.094901 0.030988 1.000000
-0.134389 -0.080870 -0.058274 1.000000
0.444823 -0.092873 0.036631 2.000000
-0.324975 0.042565 0.090599 1.000000
-0.012733 0.069766 -0.071364 1.000000
-0.396223 -0.095007 0.030622 1.000000
0.156236 -0.058559 0.081019 1.000000
-0.357783 0.032704 -0.094199 1.000000
0.077851 -0.093459 0.035004 1.000000
0.408955 -0.089687 -0.043485 1.000000
0.096255 0.057387 -0.081611 1.000000
0.451117 0.007015 -0.099451 2.000000
0.004473 0.093076 -0.036354 1.000000
-0.079897 -0.063853 0.076884 1.000000
0.183478 0.005312 0.099907 1.000000
0.136848 -0.037532 -0.092313 1.000000
-0.134042 0.098240 -0.018513 1.000000
0.460788 -0.054296 -0.083553 2.000000
-0.052911 -0.055636 0.083005 1.000000
-0.246322 0.099655 0.008071 1.000000
-0.062133 -0.014710 0.098917 1.000000
-0.389755 -0.072916 -0.067951 1.000000
-0.400367 -0.078449 0.061789 1.000000
-0.295505 0.099249 -0.012009 1.000000
-0.300613 0.057428 0.081946 1.000000
-0.249397 0.026613 -0.096088 1.000000
-0.452995 0.090545 -0.042241 3.000000
-0.388546 -0.043325 0.090099 1.000000
-0.144118 0.089848 -0.043625 1.000000
-0.062416 0.067539 -0.073478 1.000000
0.321674 0.068693 -0.072436 1.000000
-0.219929 0.014062 -0.098694 1.000000
0.183892 0.028067 -0.095666 1.000000
0.297137 -0.098578 0.015262 1.000000
0.228483 0.096592 0.025968 1.000000
0.113563 -0.097471 0.021275 1.000000
-0.224255 -0.091823 -0.038750 1.000000
-0.099397 0.086068 -0.050615 1.000000
-0.377160 -0.018174 -0.098006 1.000000
0.179079 -0.030748 -0.094819 1.000000
-0.212253 0.003521 -0.099600 1.000000
-0.453411 0.096434 -0.026151 3.000000
-0.130933 0.034522 0.093907 1.000000
-0.365170 -0.097128 0.022811 1.000000
0.102833 -0.099595 -0.005455 1.000000
0.162818 0.051900 0.085549 1.000000
0.344099 0.011377 -0.099038 1.000000
0.401126 0.097617 -0.021306 1.000000
-0.439310 -0.082867 0.055698 3.000000
0.145984 0.015336 -0.098492 1.000000
0.452542 -0.016123 0.098693 2.000000
0.068737 -0.099210 0.010311 1.000000
0.086030 0.046526 0.088587 1.000000
-0.183823 0.095958 0.028151 1.000000
-0.337666 0.072313 0.069180 1.000000
-0.006223 -0.003920 0.099943 1.000000
0.295699 -0.007230 -0.099408 1.000000
0.352734 0.031409 -0.094665 1.000000
-0.240211 0.077053 0.063886 1.000000
-0.013599 -0.088487 -0.045840 1.000000
-0.121275 0.090341 -0.042659 1.000000
0.043588 -0.002008 0.100003 1.000000
-0.456111 -0.027387 0.096158 3.000000
-0.426002 -0.037890 -0.092158 1.000000
0.106783 -0.050677 -0.085772 1.000000
0.444168 -0.071431 0.069828 2.000000
-0.006131 0.053416 -0.084290 1.000000
-0.054909 -0.050273 0.086373 1.000000
0.302244 0.002799 0.099986 1.000000
-0.430629 0.037328 0.092865 1.000000
-0.266769 0.050908 0.086136 1.000000
-0.023920 0.046198 -0.088392 1.000000
-0.284279 0.097687 -0.020993 1.000000
0.060828 -0.029768 -0.095104 1.000000
0.433579 -0.053085 0.084710 2.000000
-0.015752 -0.025235 -0.096421 1.000000
0.192735 -0.034321 -0.093533 1.000000
0.333093 0.029383 -0.095283 1.000000
-0.020135 0.022664 0.097445 1.000000
-0.416687 -0.056193 0.082626 1.000000
0.226002 0.020968 -0.097461 1.000000
-0.051867 -0.025571 -0.096323 1.000000
0.371321 0.092239 -0.038328 1.000000
-0.121193 -0.093372 0.035245 1.000000
0.004748 -0.099045 0.012062 1.000000
0.254274 0.006100 -0.099519 1.000000
-0.214432 0.092263 0.038635 1.000000
-0.040384 0.067271 0.074077 1.000000
0.406443 -0.073549 0.067595 1.000000
0.360813 0.043065 -0.089988 1.000000
-0.354765 -0.008495 0.099652 1.000000
-0.261671 0.057881 -0.081275 1.000000
-0.303630 0.070908 0.070584 1.000000
-0.059281 0.093355 0.035941 1.000000
-0.424055 0.099675 -0.007499 1.000000
-0.268945 0.086169 0.050807 1.000000
0.329803 0.088288 -0.046688 1.000000
-0.147225 0.098732 -0.015404 1.000000
-0.320040 -0.099405 0.008245 1.000000
-0.183646 0.092572 0.037921 1.000000
0.219894 0.087519 -0.048162 1.000000
-0.216274 0.071195 0.070297 1.000000
0.052409 0.045391 0.089165 1.000000
-0.414853 -0.089581 -0.043692 1.000000
-0.104189 -0.099058 -0.011556 1.000000
-0.171389 0.004607 -0.099566 1.000000
0.446647 -0.050376 -0.085949 1.000000
0.211105 0.099062 0.013685 1.000000
-0.302106 -0.088986 0.045222 1.000000
0.000381 -0.012595 -0.098889 1.000000
-0.261042 0.097496 -0.021845 1.000000
0.290284 0.005341 -0.099543 1.000000
-0.210487 0.096102 -0.027293 1.000000
0.331718 0.035835 -0.093072 1.000000
-0.078693 0.057392 0.081970 1.000000
0.401161 -0.059416 -0.079994 1.000000
0.201530 -0.054498 0.083778 1.000000
0.065478 0.013136 -0.098840 1.000000
-0.413311 -0.097790 -0.019488 1.000000
-0.351030 0.097878 -0.020138 1.000000
-0.225555 -0.094563 0.031937 1.000000
-0.114401 -0.080579 0.059044 1.000000
-0.209329 0.081341 0.058288 1.000000
0.229465 -0.041902 -0.090422 1.000000
-0.456560 -0.098069 0.018481 3.000000
0.390843 0.056516 0.082566 1.000000
-0.170375 0.086137 0.050862 1.000000
-0.241478 -0.007884 -0.099347 1.000000
-0.227826 0.040099 0.091666 1.000000
0.206075 -0.011578 -0.098997 1.000000
0.103790 0.033663 0.094216 1.000000
-0.386079 -0.082901 0.055648 1.000000
-0.081868 0.094538 0.032655 1.000000
-0.076391 -0.093027 0.036204 1.000000
-0.042543 0.036301 0.093267 1.000000
0.010192 -0.095533 -0.028450 1.000000
0.203495 -0.095648 0.028415 1.000000
0.456921 -0.082397 -0.056027 2.000000
-0.433210 -0.089125 0.044950 3.000000
-0.307406 0.038687 0.092277 1.000000
-0.383895 0.024838 0.096959 1.000000
0.308970 0.076608 0.064391 1.000000
0.313332 -0.000631 -0.099684 1.000000
-0.228112 0.014457 -0.098631 1.000000
-0.106715 -0.076924 -0.063393 1.000000
-0.229289 0.053768 -0.084070 1.000000
-0.252052 0.099976 0.001104 1.000000
0.178346 -0.057485 -0.081386 1.000000
-0.160571 -0.071996 -0.068900 1.000000
0.088371 0.060094 -0.079649 1.000000
0.092193 0.098017 0.019880 1.000000
0.424315 0.035191 0.093666 2.000000
0.095486 -0.049459 -0.086492 1.000000
-0.462674 0.081586 -0.057564 3.000000
-0.211562 0.069446 -0.071684 1.000000
-0.248020 -0.075317 0.065591 1.000000
0.109001 0.097637 -0.021214 1.000000
0.183435 0.093673 -0.034696 1.000000
-0.388750 -0.055488 -0.082743 1.000000
0.187929 0.097791 0.020890 1.000000
0.370761 -0.073444 -0.067352 1.000000
0.358313 -0.061578 -0.078317 1.000000
-0.275672 -0.086832 -0.048928 1.000000
0.425720 -0.004026 0.099940 2.000000
-0.338422 -0.039368 -0.091519 1.000000
0.023534 0.033435 0.094299 1.000000
-0.164826 -0.043601 -0.089596 1.000000
-0.199128 -0.098640 -0.014514 1.000000
0.445246 0.081280 0.058377 2.000000
-0.443751 -0.092200 0.038240 3.000000
-0.280429 0.003017 0.099979 1.000000
-0.086805 0.081565 0.057958 1.000000
0.054313 0.054916 -0.083290 1.000000
-0.088796 -0.071599 0.069660 1.000000
0.016601 0.000993 0.100042 1.000000
-0.365523 -0.014778 -0.098543 1.000000
-0.042984 0.087764 0.048078 1.000000
-0.064417 -0.099338 0.008959 1.000000
-0.291324 0.006899 -0.099462 1.000000
-0.368471 -0.084191 -0.053387 1.000000
0.212273 0.088434 0.046764 1.000000
0.207834 0.021540 -0.097333 1.000000
-0.362756 -0.022461 -0.097075 1.000000
0.301716 -0.086399 -0.049661 1.000000
-0.108854 0.008741 -0.099288 1.000000
0.073672 0.099684 -0.007400 1.000000
-0.039191 0.016475 0.098674 1.000000
0.073859 0.084696 0.053298 1.000000
0.214266 -0.096032 -0.026732 1.000000
-0.233966 0.096602 -0.025573 1.000000
-0.296727 0.097499 -0.021835 1.000000
0.082056 0.085914 0.051238 1.000000
-0.024802 -0.069395 -0.071501 1.000000
-0.240938 0.032178 0.094751 1.000000
-0.155305 0.039287 -0.091655 1.000000
0.083823 -0.077860 0.062549 1.000000
0.395518 -0.052665 0.084958 1.000000
0.214356 0.099935 0.002406 1.000000
0.025006 -0.098442 0.016123 1.000000
-0.162724 -0.081612 0.057545 1.000000
-0.371086 0.025522 0.096768 1.000000
0.305010 -0.099359 -0.008378 1.000000
-0.150328 -0.009977 -0.099149 1.000000
0.202805 -0.052163 -0.084893 1.000000
0.345333 0.069942 0.071550 1.000000
-0.201573 -0.083791 -0.053975 1.000000
0.293219 -0.022964 0.097325 1.000000
0.010999 0.019624 0.098124 1.000000
0.151053 0.099920 -0.002521 1.000000
0.394400 -0.093278 -0.035145 1.000000
-0.460777 0.033710 -0.093837 3.000000
0.447202 -0.019118 0.098185 2.000000
0.230457 -0.093763 0.034159 1.000000
0.308890 0.073989 -0.066998 1.000000
-0.322212 -0.009557 0.099551 1.000000
0.272233 0.063059 0.077713 1.000000
0.084511 -0.096303 -0.025799 1.000000
0.375340 0.036701 -0.092760 1.000000
-0.316015 -0.035291 -0.093184 1.000000
0.092953 -0.058271 -0.080851 1.000000
-0.140261 0.056769 0.082393 1.000000
0.418143 -0.098171 -0.017472 1.000000
-0.184626 -0.064902 -0.075597 1.000000
-0.092601 0.049828 0.086775 1.000000
0.145038 -0.039676 -0.091385 1.000000
-0.257289 0.099806 -0.006114 1.000000
-0.310896 0.043929 -0.089547 1.000000
-0.332295 -0.026282 0.096479 1.000000
-0.410076 0.037272 -0.092527 1.000000
-0.461047 0.030903 0.095205 3.000000
-0.209897 0.064216 -0.076407 1.000000
0.190404 -0.099749 0.000913 1.000000
0.034419 0.037028 -0.092632 1.000000
0.087844 0.048941 -0.086936 1.000000
0.456362 -0.060281 -0.079324 2.000000
0.166833 -0.012492 0.099268 1.000000
-0.370838 0.065106 -0.075622 1.000000
-0.450944 0.038616 -0.091945 3.000000
-0.366465 -0.029334 -0.095230 1.000000
-0.092260 0.085633 -0.051350 1.000000
-0.466111 0.076498 -0.064152 3.000000
-0.056255 0.013472 0.099150 1.000000
0.361092 0.095191 -0.030428 1.000000
0.464641 -0.037978 0.092483 2.000000
0.081684 -0.066759 -0.073959 1.000000
0.283728 0.024379 -0.096699 1.000000
0.207926 0.067610 0.073777 1.000000
0.428170 0.052864 -0.084616 1.000000
-0.018111 -0.099615 -0.004812 1.000000
0.086128 0.096088 -0.027342 1.000000
-0.073735 -0.052196 0.085236 1.000000
-0.140185 0.024673 0.096996 1.000000
-0.285566 0.097051 0.024200 1.000000
0.312979 -0.072827 -0.068052 1.000000
-0.372002 -0.064360 -0.076074 1.000000
0.113344 0.099851 0.005103 1.000000
0.343187 -0.023604 0.097182 1.000000
0.100967 0.018330 0.098380 1.000000
0.096238 -0.083946 -0.053748 1.000000
0.354511 -0.014407 -0.098602 1.000000
-0.116181 -0.066045 0.074951 1.000000
0.207952 0.028577 0.095880 1.000000
-0.253780 -0.006730 0.099819 1.000000
-0.130811 -0.036880 0.092958 1.000000
-0.029720 -0.074730 0.066256 1.000000
0.251158 -0.099639 -0.004053 1.000000
-0.330238 0.022092 0.097572 1.000000
-0.198728 0.011692 -0.099009 1.000000
0.241136 0.028002 -0.095685 1.000000
0.312964 0.052706 0.085072 1.000000
0.277108 -0.001046 0.100033 1.000000
-0.287098 -0.069863 -0.071033 1.000000
0.028220 0.088669 0.046303 1.000000
-0.407388 0.039724 0.091828 1.000000
0.019465 -0.062101 -0.077912 1.000000
0.034967 -0.009162 -0.099226 1.000000
-0.305071 -0.030007 -0.095034 1.000000
-0.341207 0.041343 -0.090765 1.000000
-0.293028 0.000121 -0.099707 1.000000
-0.319775 0.096487 0.026331 1.000000
-0.190475 0.088987 -0.045315 1.000000
0.237678 -0.080249 0.059469 1.000000
0.110525 0.097972 0.020079 1.000000
0.378242 0.099799 -0.006182 1.000000
-0.245793 0.067270 -0.073715 1.000000
0.020785 -0.095435 0.029148 1.000000
-0.216352 -0.005230 -0.099539 1.000000
-0.023187 -0.025990 -0.096201 1.000000
-0.042085 0.091627 -0.039743 1.000000
0.319441 -0.064740 -0.075739 1.000000
-0.160691 -0.063340 0.077314 1.000000
0.010147 0.092007 0.039226 1.000000
-0.160470 0.074958 -0.065900 1.000000
0.111688 -0.067774 -0.073064 1.000000
-0.055100 -0.004655 0.099920 1.000000
0.211582 0.054613 -0.083496 1.000000
0.424891 0.032185 -0.094386 1.000000
0.202081 0.092353 -0.038064 1.000000
-0.006586 0.099361 -0.010818 1.000000
-0.275535 -0.037810 -0.092193 1.000000
0.371585 0.050859 -0.085802 1.000000
-0.250624 -0.059529 0.080269 1.000000
0.142441 -0.059770 -0.079720 1.000000
0.204482 0.052112 0.085424 1.000000
-0.167639 -0.011552 -0.099000 1.000000
-0.415178 -0.061606 -0.078295 1.000000
-0.318635 -0.095770 0.027996 1.000000
-0.254397 -0.010927 -0.099059 1.000000
0.308164 -0.092006 0.038689 1.000000
-0.338782 -0.026331 0.096465 1.000000
-0.224809 0.071263 -0.069866 1.000000
0.122451 0.000108 0.100070 1.000000
0.063243 0.045332 -0.088833 1.000000
0.253426 -0.081882 0.057148 1.000000
0.148179 -0.075013 0.065935 1.000000
-0.097860 0.029128 0.095720 1.000000
0.035247 0.073025 -0.068092 1.000000
0.211051 -0.097901 0.019352 1.000000
-0.264255 0.099870 -0.004130 1.000000
-0.131369 0.087917 -0.047416 1.000000
0.231289 -0.098129 -0.017739 1.000000
-0.450746 0.051138 0.086000 3.000000
0.441446 -0.089217 0.044769 2.000000
0.242966 0.040893 0.091323 1.000000
0.389079 -0.059261 0.080478 1.000000
-0.315300 -0.050607 0.086176 1.000000
0.023523 0.090823 0.041963 1.000000
-0.045697 0.090530 0.042638 1.000000
-0.417539 0.071374 -0.069756 1.000000
-0.079057 0.074977 -0.065878 1.000000
-0.288609 0.084658 0.053363 1.000000
0.334693 0.078139 0.062490 1.000000
-0.367258 -0.095280 -0.029319 1.000000
-0.458986 -0.092585 -0.036988 3.000000
-0.336122 0.099376 0.011021 1.000000
-0.275159 0.097713 0.021237 1.000000
0.388662 -0.017857 -0.098056 1.000000
-0.211571 0.014764 0.098945 1.000000
-0.050107 0.096849 -0.024721 1.000000
-0.358691 -0.093258 0.035562 1.000000
0.321553 -0.099699 -0.002127 1.000000
0.113171 0.091151 -0.040841 1.000000
0.381461 -0.058754 0.080871 1.000000
0.380888 0.032680 -0.094208 1.000000
-0.338197 -0.093282 -0.035133 1.000000
0.398384 0.027642 -0.095789 1.000000
-0.220341 0.099428 0.010471 1.000000
0.394309 -0.041181 0.091097 1.000000
-0.009498 0.087705 -0.047832 1.000000
0.038835 0.065773 -0.075034 1.000000
0.278258 -0.057167 -0.081602 1.000000
-0.260641 -0.099735 -0.001006 1.000000
-0.228614 -0.098647 0.014828 1.000000
0.062643 0.076467 -0.064188 1.000000
0.129830 0.017063 -0.098218 1.000000
-0.358588 -0.091771 -0.038869 1.000000
0.277127 -0.095876 0.027629 1.000000
0.307043 -0.051931 -0.085030 1.000000
-0.217028 -0.076515 -0.063869 1.000000
0.306332 -0.035718 -0.093030 1.000000
0.023923 -0.031643 0.094860 1.000000
-0.315925 0.066515 0.074743 1.000000
-0.248131 -0.091412 -0.039700 1.000000
-0.102072 0.073499 0.067917 1.000000
-0.171878 -0.091285 0.040356 1.000000
-0.225017 0.027216 0.096276 1.000000
0.422976 -0.066008 -0.074621 1.000000
-0.355634 -0.074112 -0.066595 1.000000
0.080925 0.035376 -0.093237 1.000000
0.220053 -0.044218 -0.089281 1.000000
0.119691 -0.064491 -0.075959 1.000000
-0.329970 0.039952 -0.091367 1.000000
-0.382515 0.066395 -0.074486 1.000000
-0.403066 -0.011229 -0.099030 1.000000
-0.355216 0.040554 0.091469 1.000000
-0.382427 -0.034224 0.093931 1.000000
-0.269843 -0.098634 -0.014546 1.000000
-0.300734 0.087012 0.049381 1.000000
-0.404129 -0.070335 -0.070561 1.000000
-0.146033 -0.039228 -0.091579 1.000000
-0.229596 -0.097475 0.021257 1.000000
0.464087 -0.099694 0.002654 2.000000
-0.194822 0.081885 0.057487 1.000000
0.131332 -0.052479 -0.084706 1.000000
-0.414991 -0.037576 0.092657 1.000000
0.281600 -0.089500 0.044213 1.000000
-0.452005 0.023544 -0.096885 3.000000
0.251627 -0.003786 0.099947 1.000000
0.137773 -0.090887 0.041274 1.000000
0.123116 -0.073737 0.067382 1.000000
-0.225354 0.012190 0.099324 1.000000
0.302752 0.057215 -0.081728 1.000000
-0.406495 0.067148 0.074184 1.000000
-0.034959 -0.068080 0.073157 1.000000
0.177932 0.099955 -0.001428 1.000000
-0.063101 0.098839 -0.014731 1.000000
0.158415 0.093701 -0.034616 1.000000
0.006409 0.098105 0.019483 1.000000
-0.292002 -0.014202 -0.098635 1.000000
0.236618 -0.085431 0.051660 1.000000
-0.393408 0.094320 -0.032899 1.000000
0.237038 -0.088420 0.046333 1.000000
0.109474 -0.031185 -0.094662 1.000000
0.146786 -0.098793 -0.013544 1.000000
-0.190643 0.097304 0.023070 1.000000
-0.235508 0.060893 -0.079030 1.000000
0.122471 0.055954 -0.082584 1.000000
0.163010 -0.075355 -0.065185 1.000000
-0.330426 -0.065543 0.075394 1.000000
0.439914 -0.089558 -0.043737 2.000000
-0.371846 0.090900 0.041783 1.000000
0.269537 -0.060952 -0.078803 1.000000
-0.252227 -0.090489 0.042195 1.000000
0.245022 -0.034817 0.093717 1.000000
-0.062725 -0.091973 0.038766 1.000000
0.449322 -0.053500 0.084456 2.000000
0.114030 -0.095385 -0.028957 1.000000
0.262294 -0.095112 -0.029896 1.000000
-0.329131 0.076957 -0.063633 1.000000
-0.278174 0.096388 0.026670 1.000000
-0.086146 -0.050780 -0.085710 1.000000
0.439209 0.072232 -0.068897 1.000000
0.071263 0.061473 -0.078580 1.000000
0.202151 0.097550 0.021969 1.000000
-0.445797 -0.000597 -0.099685 3.000000
0.030264 0.016535 0.098665 1.000000
-0.344190 0.096047 0.027847 1.000000
0.037905 -0.046763 -0.087984 1.000000
-0.151086 -0.099667 -0.003149 1.000000
-0.412905 -0.068803 0.072456 1.000000
-0.143762 0.095297 0.030425 1.000000
0.457562 -0.017001 -0.098191 2.000000
-0.129563 0.055044 -0.083203 1.000000
0.251450 -0.092663 0.037171 1.000000
0.361353 0.091600 0.040166 1.000000
-0.120555 0.067996 -0.073075 1.000000
-0.449603 -0.084481 -0.052903 3.000000
0.213618 -0.099299 -0.009007 1.000000
-0.208335 0.099171 0.012994 1.000000
-0.161797 -0.097436 -0.021070 1.000000
0.282459 0.045533 0.089093 1.000000
0.409077 -0.023320 -0.096883 1.000000
0.068234 0.065326 0.075791 1.000000
0.266750 -0.081692 -0.057064 1.000000
-0.085093 0.030757 0.095247 1.000000
0.327846 -0.095382 -0.028969 1.000000
-0.116728 0.084747 -0.052848 1.000000
-0.046626 0.021138 -0.097423 1.000000
-0.171771 0.081501 -0.057688 1.000000
0.451983 0.091806 0.039690 2.000000
-0.366975 -0.042197 -0.090294 1.000000
0.455747 0.007367 0.099780 2.000000
-0.208053 0.067895 0.073527 1.000000
0.010077 -0.099496 0.007285 1.000000
0.423908 -0.090197 0.042846 2.000000
-0.091458 0.061112 -0.078860 1.000000
0.340928 0.095164 -0.030521 1.000000
0.048077 0.022880 0.097396 1.000000
-0.017656 0.072032 -0.069097 1.000000
0.080545 0.076152 -0.064545 1.000000
-0.340166 -0.085982 0.050728 1.000000
-0.420467 -0.077777 0.062656 1.000000
0.265679 0.021668 0.097667 1.000000
0.190324 0.078075 0.062572 1.000000
0.070647 0.088472 0.046689 1.000000
0.269130 -0.089878 0.043472 1.000000
-0.013257 -0.032224 -0.094288 1.000000
0.144648 0.084937 -0.052528 1.000000
0.048716 -0.053702 -0.083956 1.000000
-0.413878 -0.030961 0.095105 1.000000
-0.173778 0.096344 -0.026461 1.000000
-0.368184 -0.015862 0.098734 1.000000
0.228926 -0.051862 0.085433 1.000000
-0.177194 0.093000 -0.036565 1.000000
0.057664 -0.098540 -0.015140 1.000000
0.211835 0.047802 -0.087574 1.000000
0.166167 -0.052740 -0.084551 1.000000
-0.205054 -0.092295 -0.037658 1.000000
-0.117691 0.090570 0.042546 1.000000
-0.334038 -0.068237 -0.072656 1.000000
0.198707 -0.098248 -0.016985 1.000000
0.335951 0.035942 0.093396 1.000000
0.000104 0.073882 0.067483 1.000000
0.071651 0.015493 -0.098467 1.000000
0.113453 -0.023581 -0.096825 1.000000
0.242973 -0.099126 0.011201 1.000000
0.298148 -0.099508 -0.006798 1.000000
-0.032408 0.046906 -0.088031 1.000000
-0.256672 0.040415 -0.091167 1.000000
0.290206 -0.077147 0.063468 1.000000
-0.040826 0.092160 0.038873 1.000000
0.372739 -0.080698 -0.058527 1.000000
-0.339643 0.089243 0.045177 1.000000
0.252345 -0.095877 -0.027263 1.000000
-0.225944 -0.055761 -0.082557 1.000000
-0.421553 -0.017421 0.098487 1.000000
0.080442 -0.054292 -0.083555 1.000000
0.254686 -0.024260 -0.096673 1.000000
0.045163 -0.041456 -0.090615 1.000000
0.241117 0.088644 0.046351 1.000000
0.272094 -0.030972 0.095101 1.000000
0.379266 0.075920 -0.064808 1.000000
0.095759 -0.093107 -0.035618 1.000000
0.216975 0.086494 0.050257 1.000000
0.070016 -0.017803 0.098427 1.000000
0.357677 -0.005345 0.099898 1.000000
-0.334963 0.095969 0.028115 1.000000
-0.167503 -0.051235 0.085804 1.000000
-0.095626 -0.018376 0.098336 1.000000
0.330900 0.099307 0.011756 1.000000
0.123910 0.019798 0.098085 1.000000
-0.317888 0.099594 0.008715 1.000000
0.437085 -0.094251 -0.032441 2.000000
0.231798 -0.003379 0.099960 1.000000
-0.446046 -0.033090 0.094339 3.000000
-0.371630 0.076719 -0.063902 1.000000
0.223863 0.055951 0.082949 1.000000
-0.322767 -0.024731 -0.096567 1.000000
0.022864 -0.059948 0.079944 1.000000
-0.155219 -0.097071 -0.022704 1.000000
-0.000756 0.016847 -0.098253 1.000000
0.428091 0.092503 -0.037717 1.000000
-0.299800 0.097889 0.020451 1.000000
0.063078 0.072427 -0.068702 1.000000
0.411980 0.039964 0.091725 1.000000
0.006686 0.096358 -0.026413 1.000000
-0.251478 0.035728 0.093473 1.000000
-0.107391 0.056055 0.082879 1.000000
0.111879 0.004698 -0.099563 1.000000
0.141791 0.096013 0.027962 1.000000
0.145514 -0.077393 -0.062788 1.000000
0.277756 -0.054270 0.083933 1.000000
0.216526 0.099495 0.009766 1.000000
-0.229961 0.090897 -0.041428 1.000000
0.035782 0.034502 0.093915 1.000000
-0.304950 0.099981 0.000939 1.000000
-0.271778 -0.021507 -0.097288 1.000000
-0.327993 0.027793 0.096108 1.000000
0.136418 0.041397 -0.090741 1.000000
0.276959 -0.091460 -0.039589 1.000000
-0.212728 0.050317 -0.086123 1.000000
0.143551 0.099982 0.000921 1.000000
-0.295533 0.016718 0.098636 1.000000
-0.021814 -0.097555 -0.020539 1.000000
0.137535 -0.091504 -0.039487 1.000000
-0.144624 -0.091179 0.040599 1.000000
-0.255080 0.030469 -0.094968 1.000000
0.156675 -0.051538 -0.085262 1.000000
0.258973 0.005079 0.099914 1.000000
-0.150725 0.046326 0.088689 1.000000
-0.154739 0.074559 0.066715 1.000000
-0.232148 0.052075 0.085446 1.000000
0.337412 0.092922 0.037112 1.000000
0.154454 0.093473 0.035612 1.000000
-0.362461 -0.055181 0.083314 1.000000
-0.241027 0.082854 0.056060 1.000000
-0.462454 -0.074176 -0.066521 3.000000
0.331418 -0.091696 -0.039043 1.000000
0.407444 -0.055984 0.082768 2.000000
0.150457 -0.052179 -0.084883 1.000000
0.082109 -0.072066 0.069193 1.000000
-0.239828 0.099705 -0.007187 1.000000
-0.098284 0.042364 0.090686 1.000000
0.300318 -0.092350 0.037893 1.000000
-0.374573 -0.092451 -0.037299 1.000000
-0.014111 0.091690 0.039959 1.000000
-0.199414 0.072179 -0.068950 1.000000
-0.229149 0.087571 -0.048074 1.000000
0.370310 0.032762 -0.094178 1.000000
-0.246704 -0.005049 0.099908 1.000000
-0.380986 0.094208 -0.033210 1.000000
0.390665 -0.098537 -0.015163 1.000000
-0.437564 0.083623 0.054929 1.000000
-0.013157 -0.057112 0.082002 1.000000
0.442200 -0.095671 0.028337 2.000000
-0.233478 -0.000623 0.100047 1.000000
-0.021501 0.097627 -0.021261 1.000000
0.168099 0.067246 -0.073736 1.000000
0.055869 -0.089949 0.043332 1.000000
-0.119453 -0.090589 0.041964 1.000000
0.142953 0.079314 0.060975 1.000000
0.151514 -0.001335 -0.099662 1.000000
-0.184349 -0.098205 0.017623 1.000000
-0.147724 -0.083254 -0.054766 1.000000
0.163169 0.077674 -0.062728 1.000000
0.224906 -0.058075 -0.080984 1.000000
-0.026079 -0.015094 -0.098493 1.000000
0.235578 0.025058 0.096903 1.000000
-0.041793 -0.095636 -0.028095 1.000000
0.387369 0.032382 0.094678 1.000000
0.013423 -0.093114 -0.035599 1.000000
-0.272284 -0.082981 -0.055168 1.000000
0.165313 -0.094774 -0.030989 1.000000
0.070644 -0.097352 0.021807 1.000000
0.382337 -0.095626 0.028492 1.000000
-0.139029 -0.045510 -0.088623 1.000000
-0.416126 0.064881 -0.075820 1.000000
-0.254600 0.095893 0.028374 1.000000
0.348090 -0.007296 -0.099402 1.000000
-0.072738 0.093322 -0.035669 1.000000
0.337237 -0.034562 -0.093446 1.000000
-0.036538 -0.099139 0.011061 1.000000
-0.056008 -0.097824 -0.019335 1.000000
-0.373197 -0.040016 -0.091238 1.000000
0.191180 -0.095336 -0.029125 1.000000
-0.018832 0.039706 -0.091473 1.000000
0.123621 0.080405 0.059568 1.000000
0.066050 0.039649 -0.091498 1.000000
-0.460128 0.067496 0.073878 3.000000
0.388238 -0.070455 -0.070441 1.000000
0.313588 -0.044451 -0.089163 1.000000
-0.002481 -0.068865 -0.072031 1.000000
0.384231 0.091653 -0.039681 1.000000
0.206716 -0.081266 -0.057691 1.000000
-0.302226 0.013111 -0.098844 1.000000
0.009317 -0.059676 -0.079793 1.000000
-0.009791 0.084171 0.054123 1.000000
-0.240282 0.055006 0.083592 1.000000
0.131341 0.043881 0.089935 1.000000
0.011243 -0.069656 -0.071240 1.000000
-0.147258 -0.002566 -0.099623 1.000000
-0.151756 0.088578 -0.046118 1.000000
0.300684 -0.089790 0.043645 1.000000
-0.322176 0.056336 -0.082325 1.000000
0.372021 -0.083239 0.055151 1.000000
0.183210 0.096935 0.024719 1.000000
0.316417 0.024646 0.097002 1.000000
0.126671 0.099293 -0.011536 1.000000
0.297966 -0.027917 -0.095642 1.000000
-0.314450 -0.015621 0.098773 1.000000
0.262449 -0.042040 -0.090362 1.000000
-0.288709 -0.099645 0.004235 1.000000
-0.331477 -0.040081 0.091573 1.000000
-0.129744 -0.043296 0.090114 1.000000
0.239534 0.001769 -0.099655 1.000000
-0.464657 0.004657 0.099927 3.000000
0.238416 0.069086 -0.072043 1.000000
0.301386 -0.023609 0.097181 1.000000
0.134977 0.010574 -0.099114 1.000000
-0.264960 0.005538 0.099900 1.000000
0.307299 0.011296 0.099409 1.000000
0.110739 0.089328 0.045009 1.000000
-0.277021 -0.085379 0.051748 1.000000
-0.445250 -0.055873 -0.082481 3.000000
-0.268789 -0.036864 -0.092602 1.000000
0.199001 -0.020179 -0.097585 1.000000
0.334526 -0.089091 0.045017 1.000000
-0.419088 0.048383 -0.087266 1.000000
-0.226950 0.099623 0.008413 1.000000
-0.188863 -0.048911 -0.086816 1.000000
0.293263 -0.099758 -0.000265 1.000000
-0.035397 -0.031073 0.095065 1.000000
-0.392822 0.028854 0.095800 1.000000
-0.260545 -0.041063 -0.090785 1.000000
0.095593 0.074376 0.066922 1.000000
0.401479 0.004995 -0.099554 1.000000
-0.140661 0.097284 0.023158 1.000000
-0.198279 0.039015 0.092135 1.000000
0.203246 0.023205 0.097324 1.000000
0.274752 0.098882 0.014818 1.000000
0.264470 -0.087299 0.048501 1.000000
0.400568 0.095165 0.030881 1.000000
0.444431 -0.039554 -0.091438 1.000000
0.229552 -0.089464 0.044285 1.000000
0.333853 0.011173 -0.099058 1.000000
-0.374069 -0.048448 -0.087090 1.000000
-0.217412 0.009280 0.099600 1.000000
0.104272 0.087202 -0.048697 1.000000
0.451348 -0.018154 -0.098009 2.000000
