-0.466955 0.040605 -0.014371 3.000000
-0.466955 0.055442 0.032652 3.000000
-0.466955 0.047563 -0.034489 3.000000
-0.466955 -0.052763 -0.048697 3.000000
-0.466955 -0.014537 -0.062694 3.000000
-0.466955 0.042466 -0.022489 3.000000
-0.466955 -0.030935 0.055110 3.000000
-0.466955 -0.018999 -0.039545 3.000000
-0.466955 -0.068226 0.012105 3.000000
-0.466955 -0.019154 0.067144 3.000000
-0.466955 -0.032355 0.002351 3.000000
-0.466955 -0.026352 0.007466 3.000000
-0.466955 0.072799 0.057423 3.000000
-0.466955 -0.003277 -0.014169 3.000000
-0.466955 0.031307 0.072270 3.000000
-0.466955 0.057899 -0.015347 3.000000
-0.466955 0.038243 0.030143 3.000000
-0.466955 -0.031545 0.084161 3.000000
-0.466955 -0.048044 0.072762 3.000000
-0.466955 -0.014352 -0.012290 3.000000
-0.466955 -0.006790 -0.005386 3.000000
-0.466955 0.003732 0.088933 3.000000
-0.466955 -0.060070 0.016726 3.000000
-0.466955 0.029276 0.005518 3.000000
-0.466955 0.072267 -0.043611 3.000000
-0.466955 -0.009658 -0.004133 3.000000
-0.466955 -0.059980 -0.000733 3.000000
-0.466955 0.060011 -0.033396 3.000000
-0.466955 0.036474 0.000314 3.000000
-0.466955 -0.073804 -0.050487 3.000000
-0.466955 0.036005 -0.015496 3.000000
-0.466955 -0.001481 -0.026864 3.000000
-0.466955 0.022698 0.012179 3.000000
-0.466955 0.065250 0.044460 3.000000
-0.466955 0.028883 0.056041 3.000000
-0.466955 0.052592 0.045179 3.000000
-0.466955 -0.008778 0.099006 3.000000
-0.466955 0.039633 0.066317 3.000000
-0.466955 -0.008646 0.060841 3.000000
-0.466955 -0.009921 0.097036 3.000000
-0.466955 0.042691 0.056606 3.000000
-0.466955 -0.004443 -0.073522 3.000000
-0.466955 0.031860 0.066982 3.000000
-0.466955 0.044170 -0.083568 3.000000
-0.466955 -0.077867 -0.007634 3.000000
-0.466955 -0.068442 -0.022216 3.000000
-0.466955 -0.018491 0.091084 3.000000
-0.466955 0.075921 -0.050479 3.000000
-0.466955 0.053051 0.078249 3.000000
-0.466955 0.055707 0.056163 3.000000
-0.466955 -0.044306 -0.032856 3.000000
-0.466955 -0.063265 0.009310 3.000000
-0.466955 0.063142 0.026092 3.000000
-0.466955 0.072341 -0.021708 3.000000
-0.466955 -0.082429 0.047687 3.000000
-0.466955 0.009283 0.008506 3.000000
-0.466955 0.009475 0.070076 3.000000
-0.466955 0.082010 -0.023641 3.000000
-0.466955 0.048311 0.082348 3.000000
-0.466955 0.092973 0.028499 3.000000
-0.466955 -0.074663 0.010819 3.000000
-0.466955 0.050217 -0.064739 3.000000
-0.466955 0.020620 0.072635 3.000000
-0.466955 -0.024015 0.089130 3.000000
-0.466955 0.007815 0.077460 3.000000
-0.466955 -0.058266 -0.010398 3.000000
-0.466955 -0.066106 0.008556 3.000000
-0.466955 -0.015881 0.084923 3.000000
-0.466955 0.018765 0.002958 3.000000
-0.466955 0.006287 -0.034787 3.000000
-0.466955 0.005201 0.030053 3.000000
-0.466955 -0.000204 -0.072667 3.000000
-0.466955 -0.055549 0.015058 3.000000
-0.466955 0.078084 -0.020984 3.000000
-0.466955 -0.008855 0.077372 3.000000
-0.466955 0.082108 0.021564 3.000000
-0.466955 -0.016080 0.045880 3.000000
-0.466955 -0.030613 0.064796 3.000000
-0.466955 -0.085847 -0.030053 3.000000
-0.466955 -0.001838 -0.012920 3.000000
-0.466955 0.059901 0.039071 3.000000
-0.466955 0.067983 -0.056590 3.000000
-0.466955 0.041525 0.030290 3.000000
-0.466955 0.029885 0.006999 3.000000
-0.466955 -0.079140 0.018355 3.000000
-0.466955 0.038922 0.092015 3.000000
-0.466955 -0.014734 0.082872 3.000000
-0.466955 -0.052312 -0.057565 3.000000
-0.466955 0.045663 0.030722 3.000000
-0.466955 0.028052 -0.029468 3.000000
-0.466955 0.042891 0.078650 3.000000
-0.466955 -0.004040 0.085821 3.000000
-0.466955 0.032643 -0.034608 3.000000
-0.466955 -0.021911 -0.076329 3.000000
-0.466955 0.000761 0.001252 3.000000
-0.466955 -0.043089 0.019569 3.000000
-0.466955 0.083335 -0.040741 3.000000
-0.466955 0.047199 -0.015766 3.000000
-0.466955 0.030241 -0.022469 3.000000
-0.466955 -0.013750 -0.004324 3.000000
-0.466955 0.075610 0.032149 3.000000
-0.466955 -0.079465 0.045973 3.000000
-0.466955 0.032135 0.088644 3.000000
-0.466955 0.000332 -0.090543 3.000000
-0.466955 -0.025927 -0.066460 3.000000
-0.466955 -0.043132 0.076805 3.000000
-0.466955 -0.013180 -0.014635 3.000000
-0.466955 -0.006290 0.031391 3.000000
-0.466955 0.084608 0.001680 3.000000
-0.466955 0.040835 -0.084979 3.000000
-0.466955 -0.026732 0.044615 3.000000
-0.466955 -0.006755 0.088932 3.000000
-0.466955 0.059815 -0.039224 3.000000
-0.466955 -0.031201 -0.082506 3.000000
-0.466955 0.019213 -0.031738 3.000000
-0.466955 0.002811 0.090163 3.000000
-0.466955 -0.028440 -0.078353 3.000000
-0.466955 -0.023726 -0.028292 3.000000
-0.466955 0.074769 0.024503 3.000000
-0.466955 -0.047006 0.015949 3.000000
-0.466955 0.089008 -0.045210 3.000000
-0.466955 -0.001588 0.080880 3.000000
-0.466955 0.016599 0.000675 3.000000
-0.466955 0.077600 0.009325 3.000000
-0.466955 -0.033605 -0.093764 3.000000
-0.466955 -0.065572 -0.025170 3.000000
-0.466955 0.059768 -0.049412 3.000000
-0.466955 -0.008547 0.013257 3.000000
-0.466955 0.027001 0.064824 3.000000
-0.466955 -0.067708 -0.017573 3.000000
-0.466955 -0.052088 -0.017365 3.000000
-0.466955 0.021181 0.065632 3.000000
-0.466955 0.004606 0.003598 3.000000
-0.466955 -0.011026 -0.056986 3.000000
-0.466955 0.007476 -0.067935 3.000000
-0.466955 0.078764 0.028235 3.000000
-0.466955 0.018593 0.014682 3.000000
-0.466955 0.051915 0.021383 3.000000
-0.466955 0.033986 -0.073866 3.000000
-0.466955 0.034603 0.074926 3.000000
-0.466955 0.054954 -0.064506 3.000000
-0.466955 0.046455 0.067368 3.000000
-0.466955 -0.030671 -0.085587 3.000000
-0.466955 -0.061018 -0.010924 3.000000
-0.466955 -0.072049 0.046191 3.000000
-0.466955 0.030183 0.033193 3.000000
-0.466955 -0.029425 -0.000994 3.000000
-0.466955 0.067107 0.024541 3.000000
-0.466955 -0.047635 -0.045959 3.000000
-0.466955 -0.049603 -0.074004 3.000000
-0.466955 0.017608 0.022201 3.000000
-0.466955 0.093174 -0.033480 3.000000
-0.466955 0.039955 0.038468 3.000000
-0.466955 0.029558 -0.089293 3.000000
-0.466955 0.052077 0.065525 3.000000
-0.466955 0.024521 -0.016330 3.000000
-0.466955 -0.087149 0.021209 3.000000
-0.466955 0.019036 0.020536 3.000000
-0.466955 0.033551 0.082262 3.000000
-0.466955 -0.068710 0.058259 3.000000
-0.466955 0.073044 0.004225 3.000000
-0.466955 -0.035767 -0.056756 3.000000
-0.466955 -0.083409 0.022502 3.000000
-0.466955 0.032310 -0.035989 3.000000
-0.466955 -0.015101 -0.046630 3.000000
-0.466955 0.079290 0.056512 3.000000
-0.466955 0.062553 -0.020088 3.000000
-0.466955 0.048251 0.037908 3.000000
-0.466955 -0.002084 0.007748 3.000000
-0.466955 -0.001541 -0.010475 3.000000
-0.466955 -0.045457 -0.048086 3.000000
-0.466955 -0.060223 0.024614 3.000000
-0.466955 -0.015963 -0.074018 3.000000
-0.466955 -0.079377 -0.009199 3.000000
-0.466955 0.069629 0.011667 3.000000
-0.466955 -0.073219 -0.033684 3.000000
-0.466955 0.058785 -0.022489 3.000000
-0.466955 0.030243 0.063737 3.000000
-0.466955 0.083035 -0.050804 3.000000
-0.466955 0.011735 0.025618 3.000000
-0.466955 -0.035716 -0.042259 3.000000
-0.466955 0.061072 -0.027563 3.000000
-0.466955 0.062753 -0.016037 3.000000
-0.466955 -0.036508 0.043120 3.000000
-0.466955 0.005439 0.028389 3.000000
-0.466955 -0.037094 -0.075687 3.000000
-0.466955 -0.017031 -0.015596 3.000000
-0.466955 -0.041334 -0.062335 3.000000
-0.466955 -0.049705 -0.001642 3.000000
-0.466955 0.031458 0.059477 3.000000
-0.466955 -0.013470 -0.068497 3.000000
-0.466955 0.002935 -0.096280 3.000000
-0.466955 -0.074039 0.058181 3.000000
-0.466955 0.006807 -0.002481 3.000000
-0.466955 0.040666 -0.083591 3.000000
-0.466955 -0.027908 -0.050522 3.000000
-0.466955 0.045694 -0.050452 3.000000
-0.466955 -0.072785 -0.066148 3.000000
-0.466955 0.023299 0.046580 3.000000
-0.466955 -0.085785 -0.045614 3.000000
-0.466955 -0.002236 -0.035300 3.000000
-0.466955 0.079963 0.016170 3.000000
-0.466955 -0.063534 -0.031063 3.000000
-0.466955 -0.096866 0.001083 3.000000
-0.466955 0.030710 -0.080169 3.000000
-0.466955 -0.044508 0.076260 3.000000
-0.466955 -0.082206 -0.040615 3.000000
-0.466955 0.083250 0.001020 3.000000
-0.466955 -0.031138 -0.034329 3.000000
-0.466955 -0.040073 0.041324 3.000000
-0.466955 -0.069257 0.022541 3.000000
-0.466955 -0.022993 0.049980 3.000000
-0.466955 -0.063739 0.023508 3.000000
-0.466955 0.052768 -0.007365 3.000000
-0.466955 -0.029310 0.027316 3.000000
-0.466955 0.027779 -0.064587 3.000000
-0.466955 -0.080487 0.019858 3.000000
-0.466955 -0.048671 0.048641 3.000000
-0.466955 -0.063749 0.001555 3.000000
-0.466955 0.034942 -0.037485 3.000000
-0.466955 0.047351 0.054538 3.000000
-0.466955 0.072077 -0.028442 3.000000
-0.466955 0.051526 -0.074911 3.000000
-0.466955 -0.017417 -0.073700 3.000000
-0.466955 -0.005796 0.057275 3.000000
-0.466955 0.035184 0.051405 3.000000
-0.466955 0.078122 -0.001516 3.000000
-0.466955 0.059626 -0.015067 3.000000
-0.466955 -0.016188 0.063051 3.000000
-0.466955 0.061629 0.065472 3.000000
-0.466955 -0.049597 -0.039214 3.000000
-0.466955 -0.054534 -0.022383 3.000000
-0.466955 -0.018401 0.001376 3.000000
-0.466955 0.015976 0.031587 3.000000
-0.466955 -0.019893 -0.064615 3.000000
-0.466955 0.028934 0.032110 3.000000
-0.466955 -0.024340 0.028218 3.000000
-0.466955 0.019253 0.093064 3.000000
-0.466955 0.006034 -0.019815 3.000000
-0.466955 -0.033688 0.016274 3.000000
-0.466955 -0.066960 0.026789 3.000000
-0.466955 0.025379 -0.085419 3.000000
-0.466955 0.062360 -0.046089 3.000000
-0.466955 0.073370 -0.054738 3.000000
-0.466955 -0.051780 0.071018 3.000000
-0.466955 -0.027247 -0.056006 3.000000
-0.466955 0.009299 0.062744 3.000000
-0.466955 -0.075867 0.045076 3.000000
-0.466955 -0.036677 0.008517 3.000000
-0.466955 0.087180 0.032030 3.000000
-0.466955 -0.044287 0.039255 3.000000
-0.466955 0.002867 -0.006966 3.000000
-0.466955 0.027655 -0.087180 3.000000
-0.466955 -0.067236 0.038250 3.000000
-0.466955 0.010141 -0.014491 3.000000
-0.466955 -0.075763 0.041019 3.000000
-0.466955 0.056342 0.042703 3.000000
-0.466955 0.037146 -0.052495 3.000000
-0.466955 0.060244 -0.026290 3.000000
-0.466955 0.037442 -0.021699 3.000000
-0.466955 -0.090044 -0.008404 3.000000
-0.466955 0.079428 0.022692 3.000000
-0.466955 0.030395 -0.090848 3.000000
-0.466955 0.071324 -0.048583 3.000000
-0.466955 -0.009825 0.030526 3.000000
-0.466955 0.066217 -0.070229 3.000000
-0.466955 -0.091814 -0.010492 3.000000
-0.466955 -0.037632 0.037334 3.000000
-0.466955 -0.063086 0.062973 3.000000
-0.466955 0.015890 -0.035326 3.000000
-0.466955 0.088593 -0.038585 3.000000
-0.466955 0.041207 0.019480 3.000000
-0.466955 0.044419 0.024714 3.000000
-0.466955 -0.022737 -0.029272 3.000000
-0.466955 0.049432 -0.037945 3.000000
-0.466955 -0.005192 0.037203 3.000000
-0.466955 -0.004919 -0.041813 3.000000
-0.466955 -0.011673 0.027891 3.000000
-0.466955 -0.063548 0.012433 3.000000
-0.466955 0.002504 -0.013698 3.000000
-0.466955 0.009320 0.065795 3.000000
-0.466955 -0.097177 -0.015709 3.000000
-0.466955 0.027193 0.023736 3.000000
-0.466955 -0.039781 0.077201 3.000000
-0.466955 -0.026735 -0.002611 3.000000
-0.466955 0.009908 0.029789 3.000000
-0.466955 -0.026342 0.040232 3.000000
-0.466955 -0.041370 -0.076342 3.000000
-0.466955 -0.028016 0.002160 3.000000
-0.466955 0.057435 -0.022128 3.000000
-0.466955 -0.084699 -0.037472 3.000000
-0.466955 -0.027765 0.064098 3.000000
-0.466955 -0.027504 -0.011708 3.000000
-0.466955 0.010017 0.031841 3.000000
-0.466955 -0.070288 -0.003367 3.000000
-0.466955 -0.006811 0.096409 3.000000
-0.466955 0.056132 -0.025166 3.000000
-0.466955 -0.000758 -0.016944 3.000000
-0.466955 0.043584 -0.043855 3.000000
-0.466955 -0.044849 0.010198 3.000000
-0.466955 0.056475 -0.006153 3.000000
-0.466955 -0.029348 0.032829 3.000000
-0.466955 0.062890 0.041365 3.000000
-0.466955 0.081067 -0.018220 3.000000
-0.466955 -0.061660 0.060045 3.000000
-0.466955 -0.039714 0.075803 3.000000
-0.466955 0.061660 -0.061751 3.000000
-0.466955 0.041166 0.043859 3.000000
-0.466955 -0.027809 0.086671 3.000000
-0.466955 0.036306 0.048495 3.000000
-0.466955 0.025708 0.075386 3.000000
-0.466955 0.025556 0.051912 3.000000
-0.466955 -0.071153 0.006056 3.000000
-0.466955 -0.019962 0.085415 3.000000
-0.466955 -0.062630 0.020001 3.000000
-0.466955 0.099633 0.006618 3.000000
-0.466955 0.021935 0.018483 3.000000
-0.466955 -0.047032 0.033838 3.000000
-0.466955 0.015827 -0.033636 3.000000
-0.466955 -0.005783 -0.016537 3.000000
-0.466955 0.007987 0.011130 3.000000
-0.466955 0.040928 -0.050097 3.000000
-0.466955 -0.029787 0.089084 3.000000
-0.466955 0.034384 0.042083 3.000000
-0.466955 -0.082809 0.001536 3.000000
-0.466955 0.026862 0.074014 3.000000
-0.466955 0.062415 -0.003994 3.000000
-0.466955 -0.038722 0.034161 3.000000
-0.466955 0.036485 -0.071506 3.000000
-0.466955 0.021476 0.030163 3.000000
-0.466955 0.008242 -0.015890 3.000000
-0.466955 -0.062978 -0.071797 3.000000
-0.466955 -0.085182 -0.051637 3.000000
-0.466955 -0.051628 0.052648 3.000000
-0.466955 0.016527 0.058772 3.000000
-0.466955 0.001259 -0.011994 3.000000
-0.466955 -0.043455 -0.020537 3.000000
-0.466955 0.036651 -0.023350 3.000000
-0.466955 -0.008345 -0.087518 3.000000
-0.466955 0.036583 -0.016861 3.000000
-0.466955 0.064809 0.067026 3.000000
-0.466955 -0.022095 0.041921 3.000000
-0.466955 -0.069290 -0.029064 3.000000
-0.466955 -0.010734 0.035325 3.000000
-0.466955 -0.062844 0.054495 3.000000
-0.466955 0.090141 -0.041947 3.000000
-0.466955 -0.051536 -0.069020 3.000000
-0.466955 0.041125 0.053780 3.000000
-0.466955 0.081506 0.000737 3.000000
-0.466955 -0.042808 -0.056871 3.000000
-0.466955 0.046105 0.052085 3.000000
-0.466955 0.071128 0.053666 3.000000
-0.466955 0.005012 0.068280 3.000000
-0.466955 0.083032 -0.054022 3.000000
-0.466955 0.071530 0.039858 3.000000
-0.466955 0.070056 0.008177 3.000000
-0.466955 0.046498 0.026507 3.000000
-0.466955 0.019591 -0.004717 3.000000
-0.466955 -0.005865 -0.024714 3.000000
-0.466955 -0.037843 0.019750 3.000000
-0.466955 -0.077124 0.045640 3.000000
-0.466955 -0.023868 0.041357 3.000000
-0.466955 -0.022981 0.068220 3.000000
-0.466955 0.027531 0.036998 3.000000
-0.466955 -0.002991 0.025533 3.000000
-0.466955 0.034185 0.058176 3.000000
-0.466955 0.038525 -0.054932 3.000000
-0.466955 -0.006042 0.091549 3.000000
-0.466955 0.055479 -0.057367 3.000000
-0.466955 0.000436 -0.086287 3.000000
-0.466955 -0.054253 0.054581 3.000000
-0.466955 0.071914 -0.053353 3.000000
-0.466955 -0.001878 -0.088367 3.000000
-0.466955 0.022569 -0.039321 3.000000
-0.466955 0.078780 0.025976 3.000000
-0.466955 0.020656 0.094005 3.000000
-0.466955 -0.037846 0.009451 3.000000
-0.466955 -0.051635 0.006899 3.000000
-0.466955 -0.012079 -0.033281 3.000000
-0.466955 -0.078780 0.015007 3.000000
-0.466955 -0.091138 -0.000610 3.000000
-0.466955 0.023857 0.092394 3.000000
-0.466955 -0.036356 -0.018432 3.000000
-0.466955 -0.046211 0.087134 3.000000
-0.466955 0.035705 -0.042272 3.000000
-0.466955 -0.034829 -0.055316 3.000000
-0.466955 0.059475 0.057008 3.000000
-0.466955 -0.065742 0.020028 3.000000
-0.466955 -0.002119 -0.057654 3.000000
-0.466955 -0.056212 -0.069515 3.000000
-0.466955 -0.038892 0.002225 3.000000
-0.466955 0.035869 -0.009862 3.000000
-0.466955 0.072066 -0.055321 3.000000
-0.466955 -0.013186 0.080892 3.000000
-0.466955 -0.021872 -0.079610 3.000000
-0.466955 -0.033429 -0.069446 3.000000
-0.466955 0.016315 -0.057722 3.000000
-0.466955 -0.055628 0.059789 3.000000
-0.466955 0.051802 0.063978 3.000000
-0.466955 0.005221 -0.004589 3.000000
-0.466955 -0.029867 -0.008251 3.000000
-0.466955 -0.044196 -0.088285 3.000000
-0.466955 0.022990 0.035203 3.000000
-0.466955 0.098040 0.018096 3.000000
-0.466955 0.011883 -0.011718 3.000000
-0.466955 0.084670 0.043255 3.000000
-0.466955 -0.045169 -0.000694 3.000000
-0.466955 -0.071620 -0.012874 3.000000
-0.466955 0.026107 -0.059130 3.000000
-0.466955 0.005755 -0.024569 3.000000
-0.466955 0.024561 0.080011 3.000000
-0.466955 0.014301 -0.017044 3.000000
-0.466955 -0.033958 0.053082 3.000000
-0.466955 -0.072764 -0.020313 3.000000
-0.466955 0.096339 -0.023870 3.000000
-0.466955 -0.049205 0.069583 3.000000
-0.466955 -0.071759 -0.034947 3.000000
-0.466955 0.010654 0.007291 3.000000
-0.466955 0.013638 0.052597 3.000000
-0.466955 0.034117 0.007344 3.000000
-0.466955 0.067639 -0.028347 3.000000
-0.466955 0.015195 0.077074 3.000000
-0.466955 0.012147 0.050182 3.000000
-0.466955 0.003289 -0.079431 3.000000
-0.466955 -0.077872 0.057249 3.000000
-0.466955 0.033322 0.016241 3.000000
-0.466955 0.005281 -0.012402 3.000000
-0.466955 0.022132 0.093443 3.000000
-0.466955 0.052847 -0.062363 3.000000
-0.466955 -0.050858 0.074921 3.000000
-0.466955 -0.001348 0.089658 3.000000
-0.466955 -0.069891 0.064379 3.000000
-0.466955 0.007004 -0.077806 3.000000
-0.466955 0.046371 0.034621 3.000000
-0.466955 0.014142 0.063314 3.000000
-0.466955 -0.000499 -0.011778 3.000000
-0.466955 -0.088216 -0.014149 3.000000
-0.466955 -0.003942 -0.064444 3.000000
-0.466955 -0.096065 -0.001076 3.000000
-0.466955 0.069724 -0.070807 3.000000
-0.466955 -0.051336 0.031145 3.000000
-0.466955 -0.090633 -0.029725 3.000000
-0.466955 -0.009173 -0.046929 3.000000
-0.466955 -0.060933 0.023140 3.000000
-0.466955 0.002940 -0.042897 3.000000
-0.466955 -0.038392 -0.021405 3.000000
-0.466955 0.058482 -0.043962 3.000000
-0.466955 0.031193 -0.037246 3.000000
-0.466955 0.091378 -0.020732 3.000000
-0.466955 0.051825 0.076944 3.000000
-0.466955 0.000797 0.051211 3.000000
-0.466955 -0.068075 -0.050335 3.000000
-0.466955 0.030397 -0.086673 3.000000
-0.466955 -0.043715 -0.022313 3.000000
-0.466955 -0.032598 0.025616 3.000000
-0.466955 -0.065102 -0.075417 3.000000
-0.466955 -0.022309 -0.033206 3.000000
-0.466955 -0.079748 0.032137 3.000000
-0.466955 -0.023934 -0.020930 3.000000
-0.466955 -0.084004 0.025957 3.000000
-0.466955 0.011310 0.082788 3.000000
-0.466955 -0.048149 0.010360 3.000000
-0.466955 0.037593 -0.036685 3.000000
-0.466955 0.011340 0.054900 3.000000
-0.466955 0.092124 0.025866 3.000000
-0.466955 -0.044070 0.087509 3.000000
-0.466955 0.097051 0.005086 3.000000
-0.466955 -0.066118 0.005310 3.000000
-0.466955 -0.050908 0.069498 3.000000
-0.466955 -0.048816 -0.031937 3.000000
-0.466955 -0.067248 0.000348 3.000000
-0.466955 -0.033184 0.010582 3.000000
-0.466955 0.003941 -0.051987 3.000000
-0.466955 0.057260 0.077201 3.000000
-0.466955 0.068459 -0.063947 3.000000
-0.466955 0.056213 0.037111 3.000000
-0.466955 0.006669 -0.088115 3.000000
-0.466955 0.039580 0.090352 3.000000
-0.466955 0.045454 0.046791 3.000000
-0.466955 0.054331 0.044481 3.000000
-0.466955 -0.043683 -0.004671 3.000000
-0.466955 -0.032272 -0.054276 3.000000
-0.466955 -0.019556 0.096896 3.000000
-0.466955 -0.067593 0.056414 3.000000
-0.466955 0.019108 -0.010858 3.000000
-0.466955 -0.047895 0.079558 3.000000
-0.466955 0.050537 0.016357 3.000000
-0.466955 -0.007009 0.004701 3.000000
-0.466955 -0.049114 -0.033583 3.000000
-0.466955 -0.090301 0.005176 3.000000
-0.466955 0.042525 -0.039212 3.000000
-0.466955 0.036009 -0.049427 3.000000
-0.466955 -0.037315 -0.037489 3.000000
-0.466955 0.063445 -0.047389 3.000000
-0.466955 -0.063179 0.035828 3.000000
-0.466955 -0.022364 0.062415 3.000000
-0.466955 -0.012026 0.073058 3.000000
-0.466955 0.046214 0.053423 3.000000
-0.466955 0.082155 -0.011492 3.000000
-0.466955 0.003706 0.014054 3.000000
-0.466955 0.008130 0.072456 3.000000
-0.466955 -0.006497 0.027150 3.000000
-0.466955 0.015191 -0.067796 3.000000
-0.466955 0.045081 0.029123 3.000000
-0.466955 -0.061559 0.053738 3.000000
-0.466955 -0.032419 -0.074743 3.000000
-0.466955 -0.057176 0.005069 3.000000
-0.466955 0.039971 0.055009 3.000000
-0.466955 0.057702 0.032203 3.000000
-0.466955 0.053025 0.030441 3.000000
-0.466955 -0.029545 0.018325 3.000000
-0.466955 -0.050325 -0.017853 3.000000
-0.466955 -0.043572 0.046771 3.000000
-0.466955 -0.014654 0.049802 3.000000
-0.466955 -0.037115 -0.022594 3.000000
-0.466955 0.075279 0.029146 3.000000
-0.466955 0.023312 -0.073861 3.000000
-0.466955 -0.017768 -0.089486 3.000000
-0.466955 -0.022162 0.030392 3.000000
-0.466955 -0.003754 0.021816 3.000000
-0.466955 -0.030210 0.080859 3.000000
-0.466955 0.066250 0.054768 3.000000
-0.466955 -0.007565 0.072341 3.000000
-0.466955 0.077120 -0.026610 3.000000
-0.466955 -0.071996 -0.018013 3.000000
-0.466955 0.063893 -0.017420 3.000000
-0.466955 0.015388 0.088170 3.000000
-0.466955 -0.074077 -0.066566 3.000000
-0.466955 -0.011749 0.094980 3.000000
-0.466955 0.001783 0.096478 3.000000
-0.466955 0.070174 -0.003635 3.000000
-0.466955 -0.004771 0.005337 3.000000
-0.466955 0.027531 0.093014 3.000000
-0.466955 0.009858 -0.055583 3.000000
-0.466955 -0.005985 -0.050311 3.000000
-0.466955 -0.083745 0.027866 3.000000
-0.466955 -0.055983 -0.038137 3.000000
-0.466955 0.035554 -0.053718 3.000000
-0.466955 0.002679 -0.093139 3.000000
-0.466955 0.009717 -0.081931 3.000000
-0.466955 -0.025772 -0.048012 3.000000
-0.466955 0.095944 -0.007083 3.000000
-0.466955 0.079324 -0.057596 3.000000
-0.466955 0.010477 -0.005775 3.000000
-0.466955 0.058428 -0.019282 3.000000
-0.466955 -0.057505 0.076147 3.000000
-0.466955 0.005660 -0.093219 3.000000
-0.466955 -0.074400 0.056086 3.000000
-0.466955 0.026742 0.009610 3.000000
-0.466955 0.025956 -0.076299 3.000000
-0.466955 -0.029754 0.053856 3.000000
-0.466955 -0.041482 0.050964 3.000000
-0.466955 0.017616 -0.089230 3.000000
-0.466955 -0.025255 -0.074620 3.000000
-0.466955 0.022399 -0.030605 3.000000
-0.466955 0.014885 -0.078587 3.000000
-0.466955 -0.033919 0.070508 3.000000
-0.466955 -0.004689 0.068342 3.000000
-0.466955 0.082476 -0.034780 3.000000
-0.466955 -0.018510 -0.051306 3.000000
-0.466955 0.098824 -0.003960 3.000000
-0.466955 0.098013 -0.009218 3.000000
-0.466955 0.060586 0.009410 3.000000
-0.466955 0.033522 0.089429 3.000000
-0.466955 0.052709 -0.027109 3.000000
-0.466955 0.005963 -0.060050 3.000000
-0.466955 -0.064886 0.069397 3.000000
-0.466955 -0.086409 0.009141 3.000000
-0.466955 -0.032593 -0.001646 3.000000
-0.466955 0.095268 -0.018699 3.000000
-0.466955 -0.001438 0.033553 3.000000
-0.466955 -0.030568 -0.042015 3.000000
-0.466955 -0.007806 0.007899 3.000000
-0.466955 -0.067179 0.050474 3.000000
-0.466955 -0.071933 -0.037235 3.000000
-0.466955 0.075670 -0.046336 3.000000
-0.466955 -0.071581 -0.002414 3.000000
-0.466955 -0.098729 0.005230 3.000000
-0.466955 -0.047032 -0.047516 3.000000
-0.466955 0.054020 0.049929 3.000000
-0.466955 -0.025709 0.042693 3.000000
-0.466955 -0.038360 -0.076679 3.000000
-0.466955 -0.075041 0.035389 3.000000
-0.466955 -0.000327 0.085909 3.000000
-0.466955 0.052316 -0.010743 3.000000
-0.466955 -0.005561 -0.072452 3.000000
-0.466955 0.033052 -0.043627 3.000000
-0.466955 -0.015633 -0.065809 3.000000
-0.466955 0.066396 -0.012460 3.000000
-0.466955 0.032923 -0.076502 3.000000
-0.466955 0.041884 0.085020 3.000000
-0.466955 -0.006449 -0.052213 3.000000
-0.466955 0.021490 0.033593 3.000000
-0.466955 0.063607 0.028033 3.000000
-0.466955 -0.046106 0.014659 3.000000
-0.466955 -0.095147 -0.028519 3.000000
-0.466955 -0.016684 -0.064388 3.000000
-0.466955 -0.041128 0.089776 3.000000
-0.466955 -0.013636 -0.033497 3.000000
-0.466955 -0.045536 0.013286 3.000000
-0.466955 -0.065334 -0.012560 3.000000
-0.466955 0.021830 -0.028269 3.000000
-0.466955 -0.028911 -0.053366 3.000000
-0.466955 -0.019596 0.028678 3.000000
-0.466955 0.072790 0.034057 3.000000
-0.466955 0.063196 -0.074665 3.000000
-0.466955 0.038857 0.060464 3.000000
-0.466955 0.072433 0.009913 3.000000
-0.466955 -0.051664 -0.010962 3.000000
-0.466955 -0.078319 -0.047265 3.000000
-0.466955 0.026224 -0.008101 3.000000
-0.466955 -0.000365 -0.058503 3.000000
-0.466955 0.064465 -0.004217 3.000000
-0.466955 0.039234 -0.057798 3.000000
-0.466955 0.093002 -0.030622 3.000000
-0.466955 0.000864 -0.001624 3.000000
-0.466955 0.019525 0.008892 3.000000
-0.466955 -0.039241 -0.064253 3.000000
-0.466955 -0.060688 0.048110 3.000000
-0.466955 0.014278 0.011992 3.000000
-0.466955 0.065994 0.062339 3.000000
-0.466955 -0.039030 -0.040579 3.000000
-0.466955 0.054448 -0.040818 3.000000
-0.466955 0.068668 -0.057900 3.000000
-0.466955 0.078458 0.000802 3.000000
-0.466955 0.084986 -0.051271 3.000000
-0.466955 -0.007775 0.053556 3.000000
-0.466955 -0.052242 0.005201 3.000000
-0.466955 -0.009802 0.070179 3.000000
-0.466955 -0.016872 0.083489 3.000000
-0.466955 0.072480 -0.040339 3.000000
-0.466955 0.064055 0.075638 3.000000
-0.466955 -0.023337 0.051456 3.000000
-0.466955 0.001283 0.059141 3.000000
-0.466955 -0.087004 -0.024979 3.000000
-0.466955 -0.061208 -0.040584 3.000000
-0.466955 0.001140 0.066422 3.000000
-0.466955 0.039869 -0.080921 3.000000
-0.466955 -0.024646 -0.065546 3.000000
-0.466955 0.031613 -0.021544 3.000000
-0.466955 0.027727 0.077960 3.000000
-0.466955 0.064159 0.072144 3.000000
-0.466955 -0.023037 -0.067604 3.000000
-0.466955 0.009622 0.042258 3.000000
-0.466955 -0.063850 -0.053681 3.000000
-0.466955 -0.044932 0.022719 3.000000
-0.466955 -0.054174 -0.014201 3.000000
-0.466955 -0.036294 0.057506 3.000000
-0.466955 0.082643 0.056110 3.000000
-0.466955 -0.010590 0.044801 3.000000
-0.466955 0.072191 0.045783 3.000000
-0.466955 0.023798 -0.026354 3.000000
-0.466955 -0.077647 0.005238 3.000000
-0.466955 -0.017822 0.030530 3.000000
-0.466955 -0.021711 0.024446 3.000000
-0.466955 -0.058892 0.075391 3.000000
-0.466955 0.021803 -0.083536 3.000000
-0.466955 0.001912 -0.070359 3.000000
-0.466955 -0.021957 -0.049505 3.000000
-0.466955 -0.049519 0.072653 3.000000
-0.466955 -0.006354 0.068119 3.000000
-0.466955 0.083354 0.044030 3.000000
-0.466955 0.045570 0.015857 3.000000
-0.466955 -0.026288 -0.000561 3.000000
-0.466955 0.049453 0.077305 3.000000
-0.466955 -0.046511 0.072857 3.000000
-0.466955 -0.006827 0.045798 3.000000
-0.466955 0.030657 0.048756 3.000000
-0.466955 -0.021541 0.074288 3.000000
-0.466955 -0.073094 -0.051936 3.000000
-0.466955 0.059630 -0.003210 3.000000
-0.466955 0.087629 0.039805 3.000000
-0.466955 -0.072322 0.035669 3.000000
-0.466955 0.033809 -0.036505 3.000000
-0.466955 -0.084668 -0.032879 3.000000
-0.466955 -0.013069 -0.098621 3.000000
-0.466955 0.023025 0.014983 3.000000
-0.466955 -0.012296 -0.031732 3.000000
-0.466955 0.017580 0.001795 3.000000
-0.466955 -0.077372 -0.012992 3.000000
-0.466955 -0.072239 -0.047716 3.000000
-0.466955 0.048223 0.073805 3.000000
-0.466955 0.003959 0.071736 3.000000
-0.466955 0.035093 0.065554 3.000000
-0.466955 -0.041162 0.036722 3.000000
-0.466955 0.065841 0.023692 3.000000
-0.466955 0.025294 -0.046035 3.000000
-0.466955 -0.041714 -0.066041 3.000000
-0.466955 0.004108 0.055541 3.000000
-0.466955 0.035751 -0.006531 3.000000
-0.466955 0.021916 0.059402 3.000000
-0.466955 -0.054321 0.052908 3.000000
-0.466955 -0.001196 0.017741 3.000000
-0.466955 0.005639 0.054885 3.000000
-0.466955 -0.049454 -0.080413 3.000000
-0.466955 -0.080210 0.014824 3.000000
-0.466955 0.028828 -0.022418 3.000000
-0.466955 0.021423 -0.095053 3.000000
-0.466955 -0.075179 -0.009019 3.000000
-0.466955 -0.042620 -0.011435 3.000000
-0.466955 -0.000568 0.026973 3.000000
-0.466955 0.060740 0.022966 3.000000
-0.466955 0.053036 -0.069239 3.000000
-0.466955 0.068095 -0.060112 3.000000
-0.466955 -0.037200 0.052968 3.000000
-0.466955 0.018359 -0.047628 3.000000
-0.466955 -0.069908 -0.007558 3.000000
-0.466955 0.036395 -0.080998 3.000000
-0.466955 -0.014521 0.064513 3.000000
-0.466955 -0.018949 0.008521 3.000000
-0.466955 0.049801 -0.023186 3.000000
-0.466955 -0.018026 -0.042314 3.000000
-0.466955 -0.095420 0.009117 3.000000
-0.466955 -0.085686 -0.024504 3.000000
-0.466955 -0.089830 0.009175 3.000000
-0.466955 -0.066244 0.013878 3.000000
-0.466955 -0.073545 0.042017 3.000000
-0.466955 0.053304 0.043192 3.000000
-0.466955 -0.068029 -0.063664 3.000000
-0.466955 -0.067622 0.072292 3.000000
-0.466955 -0.025271 0.029231 3.000000
-0.466955 -0.038293 0.069161 3.000000
-0.466955 0.020870 -0.061689 3.000000
-0.466955 -0.091410 0.030887 3.000000
-0.466955 -0.086812 0.035574 3.000000
-0.466955 0.024725 -0.028109 3.000000
-0.466955 0.063892 0.011456 3.000000
-0.466955 -0.081244 -0.053255 3.000000
-0.466955 -0.022785 -0.084156 3.000000
-0.466955 -0.033659 -0.079997 3.000000
-0.466955 0.032379 0.073128 3.000000
-0.466955 0.028523 0.003171 3.000000
-0.466955 0.054052 0.001902 3.000000
-0.466955 -0.079736 0.033906 3.000000
-0.466955 0.073079 0.042600 3.000000
-0.466955 0.069555 0.050158 3.000000
-0.466955 -0.071513 0.019457 3.000000
-0.466955 -0.020046 -0.056809 3.000000
-0.466955 0.021277 0.008926 3.000000
-0.466955 -0.034276 0.072551 3.000000
-0.466955 -0.063923 -0.063335 3.000000
-0.466955 -0.002087 -0.082824 3.000000
-0.466955 0.016635 0.066413 3.000000
-0.466955 0.001908 -0.090275 3.000000
-0.466955 0.032727 0.061534 3.000000
-0.466955 -0.016521 -0.032434 3.000000
-0.466955 -0.035058 0.002200 3.000000
-0.466955 0.022320 -0.052092 3.000000
-0.466955 0.070456 -0.015141 3.000000
-0.466955 -0.059308 0.026303 3.000000
-0.466955 -0.096798 0.009572 3.000000
-0.466955 -0.076020 0.028214 3.000000
-0.466955 -0.018645 0.055907 3.000000
-0.466955 0.057136 0.024068 3.000000
-0.466955 0.027042 0.058996 3.000000
-0.466955 -0.052371 -0.076396 3.000000
-0.466955 -0.003019 -0.052826 3.000000
-0.466955 0.034722 -0.011086 3.000000
-0.466955 0.014567 -0.057192 3.000000
-0.466955 0.014017 -0.042977 3.000000
-0.466955 -0.048875 -0.018477 3.000000
-0.466955 0.006448 0.061183 3.000000
-0.466955 -0.013530 -0.076085 3.000000
-0.466955 -0.011563 0.086562 3.000000
-0.466955 -0.019287 0.026771 3.000000
-0.466955 0.042598 0.016916 3.000000
-0.466955 -0.036580 -0.024829 3.000000
-0.466955 0.039863 -0.060247 3.000000
-0.466955 -0.029660 -0.039073 3.000000
-0.466955 0.008875 -0.001832 3.000000
-0.466955 0.015265 0.070795 3.000000
-0.466955 -0.074171 -0.007825 3.000000
-0.466955 0.029561 -0.059029 3.000000
-0.466955 -0.066541 -0.057852 3.000000
-0.466955 0.098762 -0.014655 3.000000
-0.466955 -0.067653 -0.010036 3.000000
-0.466955 -0.056256 -0.009913 3.000000
-0.466955 0.008214 -0.021950 3.000000
-0.466955 -0.037774 0.079336 3.000000
-0.466955 0.009574 -0.097278 3.000000
-0.466955 0.052472 0.081543 3.000000
-0.466955 -0.083661 0.016156 3.000000
-0.466955 -0.003720 -0.005111 3.000000
-0.466955 0.058120 0.059415 3.000000
-0.466955 0.023724 -0.071730 3.000000
-0.466955 -0.018396 0.041246 3.000000
-0.466955 0.031816 0.032541 3.000000
-0.466955 -0.089371 -0.031194 3.000000
-0.466955 0.017512 -0.078099 3.000000
-0.466955 -0.068789 0.027152 3.000000
-0.466955 0.058699 -0.067080 3.000000
-0.466955 -0.009060 0.059246 3.000000
-0.466955 0.000261 0.054690 3.000000
-0.466955 -0.078876 -0.060715 3.000000
-0.466955 0.063710 -0.045153 3.000000
-0.466955 0.018176 0.083286 3.000000
-0.466955 -0.028180 0.006145 3.000000
-0.466955 -0.011605 0.019347 3.000000
-0.466955 0.016148 -0.016681 3.000000
-0.466955 0.001793 0.093088 3.000000
-0.466955 -0.000005 0.029720 3.000000
-0.466955 -0.051266 0.047188 3.000000
-0.466955 0.088295 -0.011711 3.000000
-0.466955 -0.038876 0.005052 3.000000
-0.466955 0.055773 -0.047598 3.000000
-0.466955 0.046240 -0.027190 3.000000
-0.466955 -0.062392 0.051826 3.000000
-0.466955 0.084743 0.052743 3.000000
-0.466955 0.053937 -0.017027 3.000000
-0.466955 -0.023571 -0.018663 3.000000
-0.466955 0.061798 -0.070855 3.000000
-0.466955 0.031530 -0.002533 3.000000
-0.466955 0.059021 0.041725 3.000000
-0.466955 -0.078964 -0.051510 3.000000
-0.466955 -0.068906 0.009519 3.000000
-0.466955 -0.076755 -0.008990 3.000000
-0.466955 -0.001112 -0.081488 3.000000
-0.466955 -0.075670 0.055737 3.000000
-0.466955 -0.081922 -0.014403 3.000000
-0.466955 0.020285 0.019860 3.000000
-0.466955 -0.040454 0.063926 3.000000
-0.466955 -0.077524 -0.018100 3.000000
-0.466955 0.041989 -0.062230 3.000000
-0.466955 -0.007995 -0.006507 3.000000
-0.466955 0.034630 0.030456 3.000000
-0.466955 -0.091607 0.038571 3.000000
-0.466955 0.086603 0.028600 3.000000
-0.466955 0.002106 0.072451 3.000000
-0.466955 0.056778 -0.064644 3.000000
-0.466955 0.008569 0.021814 3.000000
-0.466955 -0.036514 -0.059836 3.000000
-0.466955 -0.002701 0.084745 3.000000
-0.466955 0.057302 -0.047153 3.000000
-0.466955 0.071019 0.035469 3.000000
-0.466955 -0.005712 0.003835 3.000000
-0.466955 -0.081268 0.032639 3.000000
-0.466955 -0.054799 -0.068009 3.000000
-0.466955 -0.003326 0.027512 3.000000
-0.466955 -0.085803 -0.018421 3.000000
-0.466955 -0.044443 -0.084465 3.000000
-0.466955 0.049251 0.036061 3.000000
-0.466955 0.018603 -0.019621 3.000000
-0.466955 -0.053643 0.025425 3.000000
-0.466955 -0.031386 -0.022039 3.000000
-0.466955 -0.061023 0.067193 3.000000
-0.466955 0.080582 -0.010380 3.000000
-0.466955 0.063917 0.036792 3.000000
-0.466955 0.011752 -0.046373 3.000000
-0.466955 0.014635 0.000482 3.000000
-0.466955 -0.080750 -0.056894 3.000000
-0.466955 0.013538 0.098467 3.000000
-0.466955 -0.031012 -0.015472 3.000000
-0.466955 0.012511 -0.068119 3.000000
-0.466955 0.038600 0.056759 3.000000
-0.466955 0.009634 -0.063154 3.000000
-0.466955 -0.093713 -0.031597 3.000000
-0.466955 0.019079 0.028190 3.000000
-0.466955 0.061716 -0.000046 3.000000
-0.466955 -0.005195 0.024795 3.000000
-0.466955 0.091424 -0.011989 3.000000
-0.466955 0.043345 0.035376 3.000000
-0.466955 0.056842 -0.018800 3.000000
-0.466955 0.024467 -0.075060 3.000000
-0.466955 0.018710 0.037525 3.000000
-0.466955 0.005621 0.018887 3.000000
-0.466955 0.071842 -0.032385 3.000000
-0.466955 -0.023757 -0.039928 3.000000
-0.466955 -0.088963 -0.023520 3.000000
-0.466955 -0.058657 0.054900 3.000000
-0.466955 -0.004804 0.026572 3.000000
-0.466955 0.018994 -0.017258 3.000000
-0.466955 0.097540 -0.000771 3.000000
-0.466955 -0.086970 0.033942 3.000000
-0.466955 0.067114 -0.038481 3.000000
-0.466955 -0.006315 -0.037545 3.000000
-0.466955 -0.028863 -0.024881 3.000000
-0.466955 0.054272 -0.042334 3.000000
-0.466955 -0.007213 0.081996 3.000000
-0.466955 0.071842 -0.000722 3.000000
-0.466955 -0.007985 -0.038498 3.000000
-0.466955 0.061918 0.002019 3.000000
-0.466955 0.057446 0.063706 3.000000
-0.466955 -0.013163 -0.016021 3.000000
-0.466955 -0.094156 0.021540 3.000000
-0.466955 0.030699 -0.032707 3.000000
-0.466955 -0.064274 -0.069538 3.000000
-0.466955 -0.038325 0.006442 3.000000
-0.466955 0.035527 -0.018310 3.000000
-0.466955 0.034194 -0.083344 3.000000
-0.466955 -0.015394 -0.023971 3.000000
-0.466955 -0.025827 -0.072840 3.000000
-0.466955 -0.010285 0.085412 3.000000
-0.466955 -0.059475 0.000584 3.000000
-0.466955 0.038520 -0.075356 3.000000
-0.466955 -0.036013 -0.084981 3.000000
-0.466955 0.003759 0.067433 3.000000
-0.466955 -0.015146 0.011326 3.000000
-0.466955 -0.059514 0.069904 3.000000
-0.466955 -0.016147 -0.040330 3.000000
-0.466955 -0.018083 0.052987 3.000000
-0.466955 -0.006395 -0.060218 3.000000
-0.466955 0.037431 0.031604 3.000000
-0.466955 0.033292 0.017741 3.000000
-0.466955 0.021009 -0.076823 3.000000
-0.466955 0.074608 0.045469 3.000000
-0.466955 0.070466 -0.005323 3.000000
-0.466955 0.072547 -0.025324 3.000000
-0.466955 -0.061442 -0.003179 3.000000
-0.466955 0.009202 0.074626 3.000000
-0.466955 -0.001227 -0.006786 3.000000
-0.466955 0.017913 0.000173 3.000000
-0.466955 -0.057879 0.050933 3.000000
-0.466955 -0.008050 0.062465 3.000000
-0.466955 0.020831 -0.016666 3.000000
-0.466955 0.096638 0.016735 3.000000
-0.466955 -0.070107 0.058520 3.000000
-0.466955 0.036121 -0.068174 3.000000
-0.466955 0.002647 -0.057231 3.000000
-0.466955 0.006604 0.020016 3.000000
-0.466955 0.081624 0.052514 3.000000
-0.466955 0.029443 -0.082932 3.000000
-0.466955 -0.087155 0.048532 3.000000
-0.466955 -0.032194 -0.031607 3.000000
-0.466955 -0.002808 -0.070606 3.000000
-0.466955 -0.028415 -0.063021 3.000000
-0.466955 0.021395 -0.022426 3.000000
-0.466955 0.048941 0.072136 3.000000
-0.466955 0.013524 0.010748 3.000000
-0.466955 0.046259 0.076920 3.000000
-0.466955 -0.021717 -0.008263 3.000000
-0.466955 0.030108 0.071266 3.000000
-0.466955 0.061163 0.005135 3.000000
-0.466955 0.018200 0.091729 3.000000
-0.466955 -0.024882 0.003624 3.000000
-0.466955 0.056714 0.069316 3.000000
-0.466955 0.068167 0.041974 3.000000
-0.466955 -0.039147 -0.037230 3.000000
-0.466955 -0.071005 0.043703 3.000000
-0.466955 -0.005793 0.052205 3.000000
-0.466955 0.094701 0.003154 3.000000
-0.466955 0.073505 0.000078 3.000000
-0.466955 -0.070840 0.070403 3.000000
-0.466955 0.097556 0.020271 3.000000
-0.466955 0.079357 -0.018640 3.000000
-0.466955 -0.060296 -0.027523 3.000000
-0.466955 0.037500 0.033308 3.000000
-0.466955 0.019502 -0.053911 3.000000
-0.466955 0.023881 -0.056073 3.000000
-0.466955 0.024609 0.033860 3.000000
-0.466955 -0.052761 0.032496 3.000000
-0.466955 0.073779 -0.063779 3.000000
-0.466955 -0.050176 -0.028580 3.000000
-0.466955 0.035953 -0.066450 3.000000
-0.466955 -0.011940 -0.001696 3.000000
-0.466955 -0.052062 0.017787 3.000000
-0.466955 0.012833 0.005798 3.000000
-0.466955 0.050448 0.056126 3.000000
-0.466955 0.088127 0.017076 3.000000
-0.466955 0.028333 -0.005403 3.000000
-0.466955 -0.045295 0.088885 3.000000
-0.466955 -0.035081 0.078535 3.000000
-0.466955 -0.056514 0.069818 3.000000
-0.466955 0.069861 0.046404 3.000000
-0.466955 0.049321 0.048887 3.000000
-0.466955 0.077216 0.029398 3.000000
-0.466955 -0.042553 -0.067476 3.000000
-0.466955 0.034817 0.088468 3.000000
-0.466955 -0.076366 0.002052 3.000000
-0.466955 0.077868 0.030728 3.000000
-0.466955 -0.040460 -0.020993 3.000000
-0.466955 -0.078192 -0.027045 3.000000
-0.466955 0.045423 -0.083070 3.000000
-0.466955 0.038930 -0.014053 3.000000
-0.466955 0.052534 0.055996 3.000000
-0.466955 0.031424 -0.024511 3.000000
-0.466955 -0.058968 0.077838 3.000000
-0.466955 0.091098 -0.036144 3.000000
-0.466955 0.051076 -0.047313 3.000000
-0.466955 0.000553 -0.013428 3.000000
-0.466955 -0.008371 0.057901 3.000000
-0.466955 0.069554 -0.030031 3.000000
-0.466955 0.023000 0.017081 3.000000
-0.466955 0.010756 -0.093353 3.000000
-0.466955 -0.076742 0.018712 3.000000
-0.466955 -0.049962 0.057532 3.000000
-0.466955 0.086472 -0.033078 3.000000
-0.466955 -0.049106 -0.003774 3.000000
-0.466955 0.062369 0.023010 3.000000
-0.466955 0.055566 0.013993 3.000000
-0.466955 0.014378 0.039435 3.000000
-0.466955 0.054745 0.019850 3.000000
-0.466955 -0.057705 -0.025887 3.000000
-0.466955 -0.036919 0.087176 3.000000
-0.466955 -0.070183 0.038572 3.000000
-0.466955 -0.012889 -0.048953 3.000000
-0.466955 0.071654 0.061830 3.000000
-0.466955 0.004330 0.012482 3.000000
-0.466955 0.038026 -0.063737 3.000000
-0.466955 -0.094863 0.014611 3.000000
-0.466955 -0.091530 -0.018132 3.000000
-0.466955 0.083352 -0.027896 3.000000
-0.466955 0.046749 -0.010407 3.000000
-0.466955 -0.021304 -0.058495 3.000000
-0.466955 0.057173 -0.067657 3.000000
-0.466955 -0.060787 0.075359 3.000000
-0.466955 0.035204 0.026697 3.000000
-0.466955 0.004643 0.075422 3.000000
-0.466955 -0.070497 -0.019110 3.000000
-0.466955 0.041260 0.056255 3.000000
-0.466955 -0.029677 -0.006699 3.000000
-0.466955 -0.056074 0.075275 3.000000
-0.466955 -0.034834 0.084462 3.000000
-0.466955 0.028280 0.066280 3.000000
-0.466955 0.022252 0.045473 3.000000
-0.466955 0.002046 0.041492 3.000000
-0.466955 -0.034367 -0.086312 3.000000
-0.466955 0.046583 0.079955 3.000000
-0.466955 -0.062092 -0.049671 3.000000
-0.466955 -0.062837 0.066288 3.000000
-0.466955 0.066748 0.071983 3.000000
-0.466955 0.049602 0.038290 3.000000
-0.466955 -0.019962 -0.006756 3.000000
-0.466955 0.043606 0.066594 3.000000
-0.466955 -0.051761 -0.015816 3.000000
-0.466955 0.045746 -0.007438 3.000000
-0.466955 0.038572 0.079534 3.000000
-0.466955 -0.040536 -0.035080 3.000000
-0.466955 0.055412 0.065910 3.000000
-0.466955 0.005857 -0.006186 3.000000
-0.466955 -0.027899 -0.054714 3.000000
-0.466955 0.030653 0.034827 3.000000
-0.466955 0.023054 -0.017475 3.000000
-0.466955 0.038056 0.000719 3.000000
-0.466955 -0.001912 -0.000864 3.000000
-0.466955 0.070834 0.055073 3.000000
-0.466955 -0.036407 0.044561 3.000000
-0.466955 -0.008327 0.044326 3.000000
-0.466955 -0.013638 0.076008 3.000000
-0.466955 -0.091660 -0.019814 3.000000
-0.466955 0.057677 -0.063534 3.000000
-0.466955 0.086446 0.017549 3.000000
-0.466955 -0.037589 0.059255 3.000000
-0.466955 0.003324 -0.034035 3.000000
-0.466955 -0.075545 -0.047637 3.000000
-0.466955 -0.014722 -0.039290 3.000000
-0.466955 -0.002699 0.038942 3.000000
-0.466955 -0.006410 -0.087176 3.000000
-0.466955 0.049407 -0.012031 3.000000
-0.466955 -0.066993 0.052513 3.000000
-0.466955 -0.002181 0.040280 3.000000
-0.466955 0.065305 0.042770 3.000000
-0.466955 -0.012144 -0.011782 3.000000
-0.466955 0.015143 0.078533 3.000000
-0.466955 0.050123 0.029902 3.000000
-0.466955 0.070552 0.000913 3.000000
-0.466955 0.066507 -0.049121 3.000000
-0.466955 0.022521 -0.079265 3.000000
-0.466955 0.005611 -0.067714 3.000000
-0.466955 -0.071067 -0.060617 3.000000
-0.466955 -0.014899 0.025147 3.000000
-0.466955 0.043893 0.089691 3.000000
-0.466955 0.027043 -0.046458 3.000000
-0.466955 0.092978 -0.012128 3.000000
-0.466955 0.021835 0.006548 3.000000
-0.466955 -0.079331 -0.026075 3.000000
-0.466955 0.018398 0.089378 3.000000
-0.466955 -0.005502 -0.097436 3.000000
-0.466955 -0.063584 -0.007536 3.000000
-0.466955 -0.019443 0.071075 3.000000
-0.466955 -0.009371 0.007518 3.000000
-0.466955 0.013673 0.079020 3.000000
-0.466955 -0.014510 -0.051091 3.000000
-0.466955 -0.031106 0.090928 3.000000
-0.466955 -0.019363 -0.090190 3.000000
-0.466955 0.003897 0.010618 3.000000
-0.466955 0.090267 0.032118 3.000000
-0.466955 -0.045086 0.004568 3.000000
-0.466955 -0.001373 -0.089887 3.000000
-0.466955 0.045260 -0.010796 3.000000
-0.466955 -0.086996 0.017333 3.000000
-0.466955 0.087939 0.028964 3.000000
-0.466955 0.031917 0.082891 3.000000
-0.466955 0.078415 0.010453 3.000000
-0.466955 -0.053017 0.016150 3.000000
-0.466955 0.005703 -0.011058 3.000000
-0.466955 0.015207 0.080150 3.000000
-0.466955 0.090173 0.035268 3.000000
-0.466955 0.034780 -0.078508 3.000000
-0.466955 0.001045 0.063201 3.000000
-0.466955 0.056196 0.017018 3.000000
-0.466955 0.040908 0.041766 3.000000
-0.466955 0.082998 0.026498 3.000000
-0.466955 -0.033551 0.057722 3.000000
-0.466955 -0.056244 0.024719 3.000000
-0.466955 0.002391 0.068234 3.000000
-0.466955 -0.058139 -0.045390 3.000000
-0.466955 0.081210 -0.006476 3.000000
-0.466955 -0.027144 0.025810 3.000000
-0.466955 -0.061939 -0.030226 3.000000
-0.466955 -0.047638 0.059692 3.000000
-0.466955 0.019872 -0.022107 3.000000
-0.466955 0.008557 0.037657 3.000000
-0.466955 -0.048514 0.012071 3.000000
-0.466955 0.002861 0.073753 3.000000
-0.466955 -0.071490 0.028981 3.000000
-0.466955 -0.035135 0.090774 3.000000
-0.466955 -0.065761 0.029543 3.000000
-0.466955 0.073815 -0.043874 3.000000
-0.466955 0.089606 0.004795 3.000000
-0.466955 0.038869 0.069095 3.000000
-0.466955 0.074905 -0.044915 3.000000
-0.466955 -0.029505 -0.027034 3.000000
-0.466955 -0.063605 -0.027843 3.000000
-0.466955 0.070838 0.026429 3.000000
-0.466955 -0.017845 0.006003 3.000000
-0.466955 -0.037161 -0.081525 3.000000
-0.466955 -0.054836 -0.056283 3.000000
-0.466955 0.091525 -0.034041 3.000000
-0.466955 0.028809 -0.074909 3.000000
-0.466955 0.023793 -0.019360 3.000000
-0.466955 0.013904 -0.095758 3.000000
-0.466955 0.021924 -0.023777 3.000000
-0.466955 0.048772 -0.083766 3.000000
-0.466955 -0.044791 0.082854 3.000000
-0.466955 -0.017131 -0.063003 3.000000
-0.466955 0.027503 0.067524 3.000000
-0.466955 -0.057193 -0.051369 3.000000
-0.466955 0.009512 0.061374 3.000000
-0.466955 0.019789 0.089715 3.000000
-0.466955 -0.033853 -0.066071 3.000000
-0.466955 -0.099332 -0.000343 3.000000
-0.466955 0.068449 -0.045614 3.000000
-0.466955 -0.019903 -0.027102 3.000000
-0.466955 -0.042962 0.051352 3.000000
-0.466955 0.057054 -0.070483 3.000000
-0.466955 -0.058334 0.027423 3.000000
-0.466955 -0.037005 -0.066968 3.000000
-0.466955 -0.088320 0.024423 3.000000
-0.466955 -0.013051 0.023968 3.000000
-0.466955 -0.060070 -0.022078 3.000000
-0.466955 0.082486 -0.025011 3.000000
-0.466955 -0.043575 -0.042408 3.000000
-0.466955 0.094537 -0.030523 3.000000
-0.466955 0.034478 -0.045568 3.000000
-0.466955 0.027565 -0.001746 3.000000
-0.466955 0.033531 0.065486 3.000000
-0.466955 -0.007423 -0.002045 3.000000
-0.466955 -0.027485 -0.065598 3.000000
-0.466955 0.073848 0.059685 3.000000
-0.466955 0.081642 -0.050132 3.000000
-0.466955 0.067236 -0.044012 3.000000
-0.466955 0.039759 -0.044717 3.000000
-0.466955 -0.002711 0.006246 3.000000
-0.466955 -0.007623 -0.098544 3.000000
-0.466955 0.046572 -0.004253 3.000000
-0.466955 -0.012083 0.082875 3.000000
-0.466955 0.029761 -0.093207 3.000000
-0.466955 -0.017023 -0.005890 3.000000
-0.466955 -0.056089 -0.011878 3.000000
-0.466955 -0.035310 0.054465 3.000000
-0.466955 -0.076340 -0.034770 3.000000
-0.466955 0.072880 -0.051550 3.000000
-0.466955 0.075146 -0.031866 3.000000
-0.466955 -0.097559 -0.019746 3.000000
-0.466955 0.073942 0.027626 3.000000
-0.466955 -0.020461 -0.041650 3.000000
-0.466955 -0.040252 0.034069 3.000000
-0.466955 0.052442 0.071766 3.000000
-0.466955 0.040130 0.002936 3.000000
-0.466955 0.024831 0.053409 3.000000
-0.466955 0.064345 0.054315 3.000000
-0.466955 -0.032477 0.090435 3.000000
-0.466955 -0.064104 -0.016791 3.000000
-0.466955 -0.006907 0.054645 3.000000
-0.466955 -0.016584 0.061651 3.000000
-0.466955 -0.036021 0.023405 3.000000
-0.466955 0.034267 -0.061843 3.000000
-0.466955 0.050773 -0.051123 3.000000
-0.466955 0.061683 0.021807 3.000000
-0.466955 0.016797 -0.076283 3.000000
-0.466955 0.089165 0.044759 3.000000
-0.466955 -0.093897 0.026735 3.000000
-0.466955 0.049241 0.039867 3.000000
-0.466955 0.062835 0.066700 3.000000
-0.466955 -0.010545 -0.045554 3.000000
-0.466955 0.095090 0.009248 3.000000
-0.466955 0.057434 0.073942 3.000000
-0.466955 0.056811 -0.004555 3.000000
-0.466955 -0.041751 0.009233 3.000000
-0.466955 0.006909 0.007066 3.000000
-0.466955 0.061098 -0.003305 3.000000
-0.466955 -0.021949 -0.077967 3.000000
-0.466955 0.076195 0.039546 3.000000
-0.466955 0.085212 -0.049697 3.000000
-0.466955 0.004353 -0.059768 3.000000
-0.466955 -0.080343 -0.038441 3.000000
-0.466955 0.060574 -0.036971 3.000000
-0.466955 -0.028520 0.043602 3.000000
-0.466955 0.000939 0.004792 3.000000
-0.466955 0.044596 -0.070564 3.000000
-0.466955 -0.024388 -0.048260 3.000000
-0.466955 0.001962 0.042909 3.000000
-0.466955 -0.031876 0.052277 3.000000
-0.466955 -0.080110 -0.052372 3.000000
-0.466955 0.034928 0.054683 3.000000
-0.466955 -0.059596 0.072854 3.000000
-0.466955 -0.019507 -0.005439 3.000000
-0.466955 -0.018785 -0.060005 3.000000
-0.466955 0.074411 -0.040075 3.000000
-0.466955 -0.015506 -0.060190 3.000000
-0.466955 0.080724 0.025958 3.000000
-0.466955 -0.066827 -0.042177 3.000000
-0.466955 -0.072001 -0.028700 3.000000
-0.466955 0.018000 0.010981 3.000000
-0.466955 0.049337 0.057994 3.000000
-0.466955 0.080725 0.055720 3.000000
-0.466955 -0.067159 -0.021420 3.000000
-0.466955 -0.084119 0.021217 3.000000
-0.466955 0.054065 0.060670 3.000000
-0.466955 0.031916 -0.070066 3.000000
-0.466955 -0.051778 0.020407 3.000000
-0.466955 -0.016192 -0.081653 3.000000
-0.466955 -0.057667 -0.016092 3.000000
-0.466955 -0.057992 0.052345 3.000000
-0.466955 -0.078242 -0.043913 3.000000
-0.466955 -0.083803 -0.010946 3.000000
-0.466955 0.045547 -0.088557 3.000000
-0.466955 0.040227 -0.009485 3.000000
-0.466955 0.061338 -0.042606 3.000000
-0.466955 0.032161 -0.090319 3.000000
-0.466955 -0.008326 -0.070680 3.000000
-0.466955 0.071275 -0.045456 3.000000
-0.466955 0.023256 0.025858 3.000000
-0.466955 0.022000 -0.020233 3.000000
-0.466955 0.020293 0.001217 3.000000
-0.466955 -0.013287 0.065338 3.000000
-0.466955 0.025320 -0.082955 3.000000
-0.466955 -0.027238 -0.020906 3.000000
-0.466955 -0.003368 0.074624 3.000000
-0.466955 -0.091268 0.004191 3.000000
-0.466955 0.067920 -0.070218 3.000000
-0.466955 0.036335 -0.092134 3.000000
-0.466955 -0.015157 -0.029330 3.000000
-0.466955 0.090209 0.042150 3.000000
-0.466955 0.076651 -0.008003 3.000000
-0.466955 0.090110 0.016994 3.000000
-0.466955 0.041571 -0.004301 3.000000
-0.466955 -0.041330 0.074643 3.000000
-0.466955 -0.049619 -0.037164 3.000000
-0.466955 0.000188 0.096748 3.000000
-0.466955 -0.018361 -0.003505 3.000000
-0.466955 -0.060798 -0.050653 3.000000
-0.466955 -0.029724 0.055959 3.000000
-0.466955 -0.057219 0.055311 3.000000
-0.466955 0.021424 -0.065508 3.000000
-0.466955 0.030613 0.079204 3.000000
-0.466955 -0.056569 0.009979 3.000000
-0.466955 -0.012125 -0.069110 3.000000
-0.466955 -0.080765 -0.019486 3.000000
-0.466955 0.013290 -0.023932 3.000000
-0.466955 -0.022661 0.060750 3.000000
-0.466955 -0.063267 0.064421 3.000000
-0.466955 0.021455 -0.013765 3.000000
-0.466955 0.086947 -0.003845 3.000000
