0.465339 -0.071530 0.008034 2.000000
0.465339 0.019521 -0.065046 2.000000
0.465339 0.082019 0.000874 2.000000
0.465339 0.041013 0.052677 2.000000
0.465339 -0.062177 0.034705 2.000000
0.465339 -0.061277 -0.072857 2.000000
0.465339 -0.001774 -0.091555 2.000000
0.465339 0.045960 0.084720 2.000000
0.465339 -0.036226 0.019933 2.000000
0.465339 0.037570 0.036200 2.000000
0.465339 0.031283 0.068178 2.000000
0.465339 0.030899 0.019949 2.000000
0.465339 0.038527 0.062272 2.000000
0.465339 0.042862 0.029617 2.000000
0.465339 -0.012920 0.098388 2.000000
0.465339 -0.009126 0.073853 2.000000
0.465339 0.054334 -0.065800 2.000000
0.465339 0.000672 0.082444 2.000000
0.465339 -0.090236 0.004730 2.000000
0.465339 -0.058743 -0.005884 2.000000
0.465339 -0.066736 -0.038667 2.000000
0.465339 -0.002684 0.076017 2.000000
0.465339 0.014230 -0.084909 2.000000
0.465339 0.056797 -0.075095 2.000000
0.465339 -0.082816 0.030172 2.000000
0.465339 -0.006310 -0.090052 2.000000
0.465339 -0.009128 0.014737 2.000000
0.465339 0.055184 0.066218 2.000000
0.465339 0.072370 0.039156 2.000000
0.465339 0.084206 0.046456 2.000000
0.465339 -0.091941 0.021717 2.000000
0.465339 -0.033364 -0.023370 2.000000
0.465339 0.061057 0.027856 2.000000
0.465339 -0.017432 0.031473 2.000000
0.465339 0.051585 0.057175 2.000000
0.465339 -0.051599 0.061033 2.000000
0.465339 -0.035122 0.070447 2.000000
0.465339 0.046983 -0.056487 2.000000
0.465339 0.025558 -0.008192 2.000000
0.465339 -0.067064 0.067644 2.000000
0.465339 0.078857 0.052780 2.000000
0.465339 -0.046766 -0.086064 2.000000
0.465339 -0.053563 -0.078093 2.000000
0.465339 0.014461 0.087024 2.000000
0.465339 -0.075167 -0.007284 2.000000
0.465339 0.012772 -0.096820 2.000000
0.465339 0.017918 0.086500 2.000000
0.465339 -0.059988 -0.024958 2.000000
0.465339 -0.068706 0.044125 2.000000
0.465339 -0.072659 -0.029643 2.000000
0.465339 0.031116 -0.002988 2.000000
0.465339 -0.067264 0.070205 2.000000
0.465339 -0.006814 -0.059960 2.000000
0.465339 -0.058208 0.024390 2.000000
0.465339 -0.062080 -0.020645 2.000000
0.465339 0.062569 0.005861 2.000000
0.465339 -0.042783 0.067142 2.000000
0.465339 -0.022697 0.076337 2.000000
0.465339 -0.023236 0.061414 2.000000
0.465339 0.042931 0.024088 2.000000
0.465339 -0.041109 0.038208 2.000000
0.465339 0.005728 0.002758 2.000000
0.465339 0.087839 0.009528 2.000000
0.465339 0.028636 0.002659 2.000000
0.465339 -0.016538 -0.087225 2.000000
0.465339 0.044297 -0.028797 2.000000
0.465339 0.034109 -0.004702 2.000000
0.465339 -0.025836 0.062476 2.000000
0.465339 0.043837 -0.074563 2.000000
0.465339 0.027308 0.026261 2.000000
0.465339 -0.034657 0.071757 2.000000
0.465339 -0.020530 0.057232 2.000000
0.465339 -0.009418 -0.071687 2.000000
0.465339 0.040141 0.014932 2.000000
0.465339 -0.084301 -0.030124 2.000000
0.465339 0.026788 0.043362 2.000000
0.465339 -0.013083 0.001829 2.000000
0.465339 0.058105 -0.065408 2.000000
0.465339 0.013436 0.058067 2.000000
0.465339 0.009646 -0.016604 2.000000
0.465339 -0.076514 0.056078 2.000000
0.465339 -0.028154 0.078899 2.000000
0.465339 -0.073487 -0.046900 2.000000
0.465339 -0.022841 -0.045838 2.000000
0.465339 -0.047377 -0.032698 2.000000
0.465339 0.027851 -0.006440 2.000000
0.465339 -0.051506 0.045224 2.000000
0.465339 0.073311 0.030910 2.000000
0.465339 -0.055448 -0.021400 2.000000
0.465339 -0.041165 0.032944 2.000000
0.465339 -0.042561 -0.001110 2.000000
0.465339 -0.090076 -0.034131 2.000000
0.465339 -0.062952 -0.074132 2.000000
0.465339 -0.091729 -0.038434 2.000000
0.465339 -0.092949 -0.010681 2.000000
0.465339 0.045749 -0.086171 2.000000
0.465339 -0.032475 0.043486 2.000000
0.465339 -0.054719 -0.015397 2.000000
0.465339 0.026186 -0.063518 2.000000
0.465339 0.049914 0.012565 2.000000
0.465339 0.000616 0.084232 2.000000
0.465339 -0.028753 -0.011432 2.000000
0.465339 -0.037690 0.052668 2.000000
0.465339 0.014630 -0.093038 2.000000
0.465339 0.024201 -0.003613 2.000000
0.465339 0.032338 -0.087510 2.000000
0.465339 -0.042821 -0.044615 2.000000
0.465339 -0.020898 -0.035013 2.000000
0.465339 0.092510 0.023856 2.000000
0.465339 0.008248 -0.017178 2.000000
0.465339 -0.004452 -0.066196 2.000000
0.465339 -0.069614 -0.020593 2.000000
0.465339 0.004617 0.066425 2.000000
0.465339 -0.055501 -0.072687 2.000000
0.465339 -0.042442 0.002689 2.000000
0.465339 0.040447 -0.059392 2.000000
0.465339 0.017231 -0.035053 2.000000
0.465339 -0.056589 0.056420 2.000000
0.465339 0.013311 -0.064950 2.000000
0.465339 -0.075279 -0.031607 2.000000
0.465339 -0.044489 -0.051420 2.000000
0.465339 -0.012901 -0.006467 2.000000
0.465339 -0.003366 0.064496 2.000000
0.465339 -0.009545 -0.090016 2.000000
0.465339 0.066628 0.029539 2.000000
0.465339 -0.044650 0.088205 2.000000
0.465339 -0.091581 0.025584 2.000000
0.465339 0.024507 -0.017968 2.000000
0.465339 -0.023452 0.032973 2.000000
0.465339 -0.062103 -0.070476 2.000000
0.465339 -0.018353 -0.070192 2.000000
0.465339 -0.059655 0.003672 2.000000
0.465339 -0.027831 0.028240 2.000000
0.465339 -0.004140 -0.094936 2.000000
0.465339 -0.007668 0.078951 2.000000
0.465339 -0.052975 -0.072648 2.000000
0.465339 0.045331 -0.039969 2.000000
0.465339 -0.072867 0.012238 2.000000
0.465339 -0.004298 0.058136 2.000000
0.465339 -0.056710 -0.008834 2.000000
0.465339 0.023697 -0.048431 2.000000
0.465339 -0.072490 0.038209 2.000000
0.465339 -0.050450 0.013880 2.000000
0.465339 0.060724 0.074218 2.000000
0.465339 0.017610 -0.019352 2.000000
0.465339 -0.091399 0.002095 2.000000
0.465339 0.001616 -0.011358 2.000000
0.465339 0.064445 -0.047257 2.000000
0.465339 -0.039402 -0.080030 2.000000
0.465339 0.073321 -0.067157 2.000000
0.465339 -0.046879 0.060741 2.000000
0.465339 -0.056755 0.070334 2.000000
0.465339 0.079429 0.013200 2.000000
0.465339 -0.008408 0.033308 2.000000
0.465339 0.055111 -0.028702 2.000000
0.465339 0.040489 0.070391 2.000000
0.465339 -0.051858 0.011647 2.000000
0.465339 0.002421 0.095440 2.000000
0.465339 0.015010 0.027931 2.000000
0.465339 0.037643 0.067377 2.000000
0.465339 0.001792 0.092771 2.000000
0.465339 -0.089119 0.001764 2.000000
0.465339 -0.088441 -0.037612 2.000000
0.465339 -0.026208 0.056763 2.000000
0.465339 -0.021469 0.038217 2.000000
0.465339 -0.082743 -0.003830 2.000000
0.465339 0.084910 0.048906 2.000000
0.465339 0.060167 -0.056917 2.000000
0.465339 0.080350 0.053273 2.000000
0.465339 -0.030178 -0.077237 2.000000
0.465339 0.088528 0.038693 2.000000
0.465339 0.036650 -0.067385 2.000000
0.465339 -0.055573 -0.009582 2.000000
0.465339 0.054937 0.004666 2.000000
0.465339 0.002834 0.047082 2.000000
0.465339 -0.035950 -0.011649 2.000000
0.465339 -0.077573 0.007840 2.000000
0.465339 -0.076627 -0.057284 2.000000
0.465339 -0.042430 -0.048183 2.000000
0.465339 0.012075 0.016471 2.000000
0.465339 0.073589 -0.048781 2.000000
0.465339 0.055808 0.083026 2.000000
0.465339 -0.016069 -0.034391 2.000000
0.465339 -0.062740 0.057212 2.000000
0.465339 0.001707 0.006448 2.000000
0.465339 0.054132 -0.069260 2.000000
0.465339 -0.050608 0.071334 2.000000
0.465339 -0.066688 -0.046915 2.000000
0.465339 0.005834 -0.064447 2.000000
0.465339 0.062535 -0.022304 2.000000
0.465339 -0.012013 0.068165 2.000000
0.465339 0.005535 -0.052444 2.000000
0.465339 -0.010579 0.080143 2.000000
0.465339 0.041404 0.016006 2.000000
0.465339 -0.070154 0.020207 2.000000
0.465339 0.065892 0.030808 2.000000
0.465339 0.081981 -0.043287 2.000000
0.465339 0.061060 -0.004524 2.000000
0.465339 0.007160 -0.012786 2.000000
0.465339 -0.000474 0.096480 2.000000
0.465339 0.033968 -0.014342 2.000000
0.465339 0.056418 -0.000242 2.000000
0.465339 -0.031302 0.068119 2.000000
0.465339 -0.066289 0.072724 2.000000
0.465339 0.058099 -0.049209 2.000000
0.465339 0.063869 -0.072388 2.000000
0.465339 -0.019150 0.019333 2.000000
0.465339 -0.005156 0.029305 2.000000
0.465339 0.005331 -0.050117 2.000000
0.465339 -0.055509 -0.064978 2.000000
0.465339 0.095591 -0.000864 2.000000
0.465339 0.026813 -0.038131 2.000000
0.465339 0.089130 -0.020693 2.000000
0.465339 -0.025841 0.028261 2.000000
0.465339 -0.002186 0.065992 2.000000
0.465339 0.013588 0.045020 2.000000
0.465339 -0.004782 0.041221 2.000000
0.465339 0.022065 0.060074 2.000000
0.465339 0.029226 -0.025307 2.000000
0.465339 0.019302 0.027242 2.000000
0.465339 0.049917 -0.023995 2.000000
0.465339 -0.063465 -0.046558 2.000000
0.465339 -0.038785 0.040578 2.000000
0.465339 -0.010953 -0.003256 2.000000
0.465339 0.018408 -0.056126 2.000000
0.465339 0.001277 -0.009577 2.000000
0.465339 -0.037459 0.067910 2.000000
0.465339 -0.053518 -0.033430 2.000000
0.465339 0.008626 0.081600 2.000000
0.465339 0.089444 -0.033601 2.000000
0.465339 -0.008763 0.056798 2.000000
0.465339 -0.011674 -0.064301 2.000000
0.465339 0.016214 -0.015161 2.000000
0.465339 0.036909 0.055045 2.000000
0.465339 -0.060554 -0.011057 2.000000
0.465339 0.034626 0.081299 2.000000
0.465339 0.075024 -0.044415 2.000000
0.465339 0.025320 -0.037225 2.000000
0.465339 0.049937 -0.078099 2.000000
0.465339 0.003864 -0.082820 2.000000
0.465339 0.020215 0.014465 2.000000
0.465339 0.045598 0.044679 2.000000
0.465339 0.033121 -0.070751 2.000000
0.465339 -0.034676 -0.054540 2.000000
0.465339 -0.046497 0.035503 2.000000
0.465339 0.015287 0.095340 2.000000
0.465339 0.080049 0.001008 2.000000
0.465339 0.077788 -0.052369 2.000000
0.465339 0.028607 -0.036998 2.000000
0.465339 -0.000535 -0.036834 2.000000
0.465339 -0.023759 0.028414 2.000000
0.465339 -0.038480 0.056755 2.000000
0.465339 -0.082018 -0.015221 2.000000
0.465339 0.005112 0.080310 2.000000
0.465339 -0.019928 0.051296 2.000000
0.465339 0.010930 0.049990 2.000000
0.465339 -0.013735 0.082244 2.000000
0.465339 0.084980 -0.001058 2.000000
0.465339 0.069082 0.020136 2.000000
0.465339 -0.011817 -0.040974 2.000000
0.465339 -0.027320 0.052528 2.000000
0.465339 -0.007844 0.040849 2.000000
0.465339 0.094256 -0.019911 2.000000
0.465339 0.041630 -0.025235 2.000000
0.465339 0.072311 0.035308 2.000000
0.465339 -0.030037 0.009473 2.000000
0.465339 -0.065034 -0.042726 2.000000
0.465339 -0.038091 -0.081367 2.000000
0.465339 0.011979 0.063064 2.000000
0.465339 -0.026766 0.074984 2.000000
0.465339 0.074804 -0.050129 2.000000
0.465339 -0.056919 -0.060295 2.000000
0.465339 0.096977 0.017973 2.000000
0.465339 -0.046626 -0.040069 2.000000
0.465339 -0.091607 -0.009236 2.000000
0.465339 0.059490 -0.074196 2.000000
0.465339 0.045987 0.053241 2.000000
0.465339 0.015736 0.059788 2.000000
0.465339 0.010713 -0.026098 2.000000
0.465339 -0.006514 0.093474 2.000000
0.465339 -0.071545 -0.019548 2.000000
0.465339 -0.047296 0.050792 2.000000
0.465339 -0.033250 0.031902 2.000000
0.465339 0.016564 0.020024 2.000000
0.465339 0.044665 0.002241 2.000000
0.465339 -0.016666 -0.051920 2.000000
0.465339 -0.034024 -0.015398 2.000000
0.465339 -0.010326 -0.025655 2.000000
0.465339 0.001553 0.094295 2.000000
0.465339 0.026876 0.024097 2.000000
0.465339 -0.019180 0.034423 2.000000
0.465339 -0.062406 0.037167 2.000000
0.465339 -0.039183 0.081107 2.000000
0.465339 0.006820 -0.045042 2.000000
0.465339 0.058757 -0.072632 2.000000
0.465339 -0.034020 -0.081260 2.000000
0.465339 -0.087183 -0.004302 2.000000
0.465339 -0.061572 0.024899 2.000000
0.465339 -0.043165 0.017148 2.000000
0.465339 -0.034512 -0.041871 2.000000
0.465339 -0.052690 -0.049373 2.000000
0.465339 -0.027518 -0.092922 2.000000
0.465339 0.057282 0.039311 2.000000
0.465339 0.018502 -0.010128 2.000000
0.465339 -0.042322 -0.026348 2.000000
0.465339 -0.024765 -0.052014 2.000000
0.465339 -0.030938 -0.092075 2.000000
0.465339 0.032928 -0.041315 2.000000
0.465339 -0.062999 0.046865 2.000000
0.465339 -0.005587 0.022617 2.000000
0.465339 0.024667 0.036803 2.000000
0.465339 -0.081754 -0.038532 2.000000
0.465339 0.058687 -0.034320 2.000000
0.465339 0.030618 -0.031750 2.000000
0.465339 0.039019 -0.049723 2.000000
0.465339 0.061174 -0.028544 2.000000
0.465339 0.080542 0.032035 2.000000
0.465339 -0.088334 -0.041369 2.000000
0.465339 -0.021468 -0.093708 2.000000
0.465339 -0.015448 -0.094226 2.000000
0.465339 0.011217 0.040437 2.000000
0.465339 0.025926 0.010586 2.000000
0.465339 -0.002413 -0.084417 2.000000
0.465339 0.025127 0.044042 2.000000
0.465339 -0.000627 -0.066043 2.000000
0.465339 -0.007413 -0.001540 2.000000
0.465339 0.051578 -0.023360 2.000000
0.465339 0.023321 -0.058508 2.000000
0.465339 -0.046313 0.054479 2.000000
0.465339 -0.025302 0.075693 2.000000
0.465339 0.044707 -0.054706 2.000000
0.465339 -0.008536 -0.069742 2.000000
0.465339 -0.063778 -0.071378 2.000000
0.465339 -0.036351 0.056999 2.000000
0.465339 -0.026288 -0.009230 2.000000
0.465339 -0.080377 0.028863 2.000000
0.465339 0.086489 0.027033 2.000000
0.465339 -0.033187 -0.055878 2.000000
0.465339 0.041293 0.003288 2.000000
0.465339 -0.042895 -0.027818 2.000000
0.465339 0.036252 -0.006297 2.000000
0.465339 0.043866 -0.065257 2.000000
0.465339 -0.067336 0.034679 2.000000
0.465339 0.017620 0.046127 2.000000
0.465339 0.005618 0.012303 2.000000
0.465339 0.005056 0.045733 2.000000
0.465339 -0.039870 0.037561 2.000000
0.465339 -0.072115 -0.056313 2.000000
0.465339 -0.096009 -0.018193 2.000000
0.465339 -0.094082 -0.028801 2.000000
0.465339 -0.027330 -0.040619 2.000000
0.465339 0.013847 0.062554 2.000000
0.465339 -0.090928 0.040023 2.000000
0.465339 -0.019701 -0.008405 2.000000
0.465339 -0.013106 -0.062534 2.000000
0.465339 -0.054463 0.013112 2.000000
0.465339 0.041045 -0.069671 2.000000
0.465339 -0.061738 -0.039708 2.000000
0.465339 -0.051012 0.037180 2.000000
0.465339 -0.083617 -0.026982 2.000000
0.465339 0.066030 0.059529 2.000000
0.465339 0.087520 -0.024406 2.000000
0.465339 -0.054826 0.070954 2.000000
0.465339 0.058000 -0.053242 2.000000
0.465339 0.077139 0.030316 2.000000
0.465339 0.032864 -0.017732 2.000000
0.465339 -0.016484 0.035111 2.000000
0.465339 -0.094805 0.020313 2.000000
0.465339 -0.007156 -0.043014 2.000000
0.465339 -0.014655 0.030189 2.000000
0.465339 -0.071471 0.028787 2.000000
0.465339 -0.031931 0.046181 2.000000
0.465339 0.009642 0.084958 2.000000
0.465339 -0.063469 -0.032012 2.000000
0.465339 -0.057549 -0.014978 2.000000
0.465339 -0.054412 0.014581 2.000000
0.465339 0.081914 0.049445 2.000000
0.465339 -0.041114 -0.063057 2.000000
0.465339 0.017428 -0.058012 2.000000
0.465339 -0.001797 0.048460 2.000000
0.465339 -0.092057 0.033798 2.000000
0.465339 0.012503 -0.021493 2.000000
0.465339 0.009452 -0.004953 2.000000
0.465339 0.009670 0.067586 2.000000
0.465339 0.008631 0.027195 2.000000
0.465339 -0.006074 -0.079137 2.000000
0.465339 -0.075457 0.044984 2.000000
0.465339 0.001642 0.008099 2.000000
0.465339 0.073479 -0.050738 2.000000
0.465339 -0.033536 -0.089387 2.000000
0.465339 -0.036104 0.002547 2.000000
0.465339 -0.055870 -0.066331 2.000000
0.465339 0.027375 0.074649 2.000000
0.465339 -0.003879 -0.042304 2.000000
0.465339 -0.058896 0.080298 2.000000
0.465339 0.089708 0.005956 2.000000
0.465339 0.035184 0.055458 2.000000
0.465339 -0.016119 0.053321 2.000000
0.465339 -0.016675 0.060649 2.000000
0.465339 0.049272 0.043339 2.000000
0.465339 0.016078 -0.084297 2.000000
0.465339 0.006929 -0.000600 2.000000
0.465339 -0.049238 -0.061909 2.000000
0.465339 -0.008333 0.026896 2.000000
0.465339 -0.021204 -0.047494 2.000000
0.465339 -0.039993 -0.032603 2.000000
0.465339 0.072342 -0.035832 2.000000
0.465339 -0.037071 -0.033654 2.000000
0.465339 -0.046675 -0.024994 2.000000
0.465339 0.043520 -0.032365 2.000000
0.465339 0.055626 0.068228 2.000000
0.465339 -0.047663 -0.010302 2.000000
0.465339 0.091599 -0.027772 2.000000
0.465339 0.069435 0.060262 2.000000
0.465339 -0.003663 -0.071705 2.000000
0.465339 -0.051029 -0.085463 2.000000
0.465339 0.061036 -0.002419 2.000000
0.465339 0.022463 0.018649 2.000000
0.465339 0.054926 -0.067439 2.000000
0.465339 0.008887 -0.080399 2.000000
0.465339 0.004238 -0.053260 2.000000
0.465339 -0.097911 -0.002839 2.000000
0.465339 -0.092449 -0.028137 2.000000
0.465339 -0.092544 0.026683 2.000000
0.465339 0.005080 0.009510 2.000000
0.465339 -0.037738 0.074754 2.000000
0.465339 -0.043217 0.065699 2.000000
0.465339 -0.015158 0.041664 2.000000
0.465339 -0.065506 0.053246 2.000000
0.465339 -0.081297 0.008580 2.000000
0.465339 -0.005248 0.094466 2.000000
0.465339 0.058605 0.034008 2.000000
0.465339 0.000992 -0.060246 2.000000
0.465339 -0.063951 0.074885 2.000000
0.465339 -0.064761 -0.067198 2.000000
0.465339 0.021351 0.016838 2.000000
0.465339 0.005788 0.078967 2.000000
0.465339 -0.043472 -0.047075 2.000000
0.465339 0.051537 0.023073 2.000000
0.465339 0.061575 0.029984 2.000000
0.465339 0.066743 -0.065686 2.000000
0.465339 0.021339 -0.092036 2.000000
0.465339 0.015731 -0.094032 2.000000
0.465339 0.092021 0.014547 2.000000
0.465339 0.052885 0.016685 2.000000
0.465339 -0.096446 0.014409 2.000000
0.465339 0.030190 0.040438 2.000000
0.465339 -0.006431 0.061320 2.000000
0.465339 0.060182 -0.026175 2.000000
0.465339 0.022848 -0.062633 2.000000
0.465339 -0.026562 -0.018303 2.000000
0.465339 0.052697 0.032744 2.000000
0.465339 0.051672 0.066849 2.000000
0.465339 0.039190 -0.015095 2.000000
0.465339 0.084495 0.002885 2.000000
0.465339 0.010725 0.071133 2.000000
0.465339 -0.043990 0.049841 2.000000
0.465339 0.006117 0.035622 2.000000
0.465339 0.042885 -0.064190 2.000000
0.465339 -0.038729 -0.035467 2.000000
0.465339 -0.086503 0.010305 2.000000
0.465339 0.034945 0.050100 2.000000
0.465339 -0.008017 -0.045911 2.000000
0.465339 0.062241 0.010258 2.000000
0.465339 0.084800 0.020208 2.000000
0.465339 -0.067950 0.032646 2.000000
0.465339 0.037780 0.069086 2.000000
0.465339 0.031571 0.075030 2.000000
0.465339 -0.076421 0.046036 2.000000
0.465339 0.071335 -0.062142 2.000000
0.465339 -0.015863 0.028872 2.000000
0.465339 -0.097953 -0.000054 2.000000
0.465339 0.000251 0.070957 2.000000
0.465339 -0.043447 0.082502 2.000000
0.465339 0.042356 0.053531 2.000000
0.465339 0.017199 -0.011982 2.000000
0.465339 0.037188 -0.084649 2.000000
0.465339 0.021378 -0.000030 2.000000
0.465339 -0.058365 0.002901 2.000000
0.465339 0.041665 -0.046090 2.000000
0.465339 -0.014096 -0.011562 2.000000
0.465339 0.056247 0.008135 2.000000
0.465339 0.070255 -0.000213 2.000000
0.465339 0.030572 -0.044204 2.000000
0.465339 0.070285 -0.049133 2.000000
0.465339 0.002816 -0.009839 2.000000
0.465339 -0.021231 0.087350 2.000000
0.465339 0.054830 0.027406 2.000000
0.465339 0.082339 -0.033094 2.000000
0.465339 0.000321 -0.030049 2.000000
0.465339 -0.009976 -0.054019 2.000000
0.465339 0.016874 -0.078354 2.000000
0.465339 -0.074518 0.024532 2.000000
0.465339 -0.069421 -0.032135 2.000000
0.465339 -0.056042 -0.031616 2.000000
0.465339 -0.013691 -0.032606 2.000000
0.465339 -0.085087 0.005353 2.000000
0.465339 0.013281 0.000959 2.000000
0.465339 -0.030341 -0.064225 2.000000
0.465339 0.091699 -0.020568 2.000000
0.465339 -0.045073 0.024895 2.000000
0.465339 -0.062139 0.072542 2.000000
0.465339 -0.043107 -0.051276 2.000000
0.465339 -0.035705 -0.062040 2.000000
0.465339 0.037388 -0.054361 2.000000
0.465339 -0.028695 0.018223 2.000000
0.465339 0.001546 -0.046723 2.000000
0.465339 0.032206 0.087418 2.000000
0.465339 0.094378 -0.005199 2.000000
0.465339 0.011059 -0.031522 2.000000
0.465339 0.080303 -0.035555 2.000000
0.465339 0.061914 0.060126 2.000000
0.465339 -0.091769 0.005097 2.000000
0.465339 -0.005720 -0.095715 2.000000
0.465339 -0.031841 -0.034301 2.000000
0.465339 -0.003499 0.026007 2.000000
0.465339 -0.071815 0.019519 2.000000
0.465339 -0.000886 -0.076108 2.000000
0.465339 0.022945 -0.092522 2.000000
0.465339 -0.043754 -0.077278 2.000000
0.465339 0.042967 -0.086042 2.000000
0.465339 -0.042219 0.028541 2.000000
0.465339 -0.014575 -0.047804 2.000000
0.465339 0.013322 -0.095480 2.000000
0.465339 0.037709 0.084349 2.000000
0.465339 -0.039875 -0.026529 2.000000
0.465339 0.031311 -0.033379 2.000000
0.465339 0.032864 0.046247 2.000000
0.465339 -0.081058 -0.000364 2.000000
0.465339 0.077447 0.060175 2.000000
0.465339 -0.003476 0.041736 2.000000
0.465339 0.044211 -0.080692 2.000000
0.465339 -0.029955 -0.094404 2.000000
0.465339 -0.038904 -0.076883 2.000000
0.465339 0.025183 -0.031091 2.000000
0.465339 0.091697 0.001021 2.000000
0.465339 0.090353 -0.036273 2.000000
0.465339 -0.041356 0.049528 2.000000
0.465339 0.076604 0.042071 2.000000
0.465339 -0.048056 0.075526 2.000000
0.465339 -0.080919 -0.012320 2.000000
0.465339 -0.065582 -0.002514 2.000000
0.465339 -0.029129 0.044156 2.000000
0.465339 -0.068957 0.056764 2.000000
0.465339 -0.067316 -0.034030 2.000000
0.465339 0.019515 0.056266 2.000000
0.465339 0.002927 -0.063946 2.000000
0.465339 -0.058913 0.043047 2.000000
0.465339 -0.003827 -0.012287 2.000000
0.465339 -0.017054 0.057809 2.000000
0.465339 0.087752 0.024424 2.000000
0.465339 0.082660 -0.048299 2.000000
0.465339 0.077819 0.022061 2.000000
0.465339 -0.020305 -0.030491 2.000000
0.465339 0.000602 -0.045724 2.000000
0.465339 0.036787 -0.020338 2.000000
0.465339 -0.016996 -0.027158 2.000000
0.465339 -0.036422 0.032340 2.000000
0.465339 0.035687 0.089898 2.000000
0.465339 -0.019676 -0.020993 2.000000
0.465339 0.037409 -0.013607 2.000000
0.465339 -0.032112 0.078547 2.000000
0.465339 -0.011980 0.055657 2.000000
0.465339 0.022464 0.072734 2.000000
0.465339 -0.008576 -0.079538 2.000000
0.465339 -0.007299 0.031165 2.000000
0.465339 -0.024402 0.014527 2.000000
0.465339 0.055783 -0.006285 2.000000
0.465339 -0.081009 -0.054690 2.000000
0.465339 0.027460 -0.055899 2.000000
0.465339 -0.004618 0.003729 2.000000
0.465339 -0.061764 -0.042262 2.000000
0.465339 -0.057040 -0.045871 2.000000
0.465339 0.046308 0.023629 2.000000
0.465339 -0.035112 0.003498 2.000000
0.465339 -0.075984 0.042873 2.000000
0.465339 0.067116 -0.073106 2.000000
0.465339 -0.041696 0.042009 2.000000
0.465339 0.018887 -0.068153 2.000000
0.465339 -0.021984 0.050473 2.000000
0.465339 0.034722 0.011315 2.000000
0.465339 0.003138 0.066061 2.000000
0.465339 0.007932 -0.004809 2.000000
0.465339 0.043558 -0.019688 2.000000
0.465339 0.078963 0.024656 2.000000
0.465339 -0.043083 -0.008987 2.000000
0.465339 -0.084513 -0.048822 2.000000
0.465339 -0.053498 0.075885 2.000000
0.465339 -0.072036 -0.057705 2.000000
0.465339 0.053867 0.012682 2.000000
0.465339 -0.097979 -0.008641 2.000000
0.465339 0.012366 -0.066067 2.000000
0.465339 -0.038957 -0.014857 2.000000
0.465339 -0.032520 -0.081146 2.000000
0.465339 0.041499 -0.086297 2.000000
0.465339 -0.048082 0.012303 2.000000
0.465339 0.035525 -0.046191 2.000000
0.465339 -0.009383 0.034407 2.000000
0.465339 -0.016566 -0.073083 2.000000
0.465339 -0.020035 -0.093236 2.000000
0.465339 -0.054475 -0.053149 2.000000
0.465339 -0.026080 0.068035 2.000000
0.465339 -0.060040 0.073128 2.000000
0.465339 -0.085593 -0.043990 2.000000
0.465339 0.037480 0.047608 2.000000
0.465339 -0.002008 -0.037326 2.000000
0.465339 -0.073884 0.027793 2.000000
0.465339 -0.068450 0.045904 2.000000
0.465339 -0.026739 0.095693 2.000000
0.465339 -0.002124 0.009190 2.000000
0.465339 -0.011244 -0.071238 2.000000
0.465339 -0.024485 0.034447 2.000000
0.465339 -0.057959 0.066589 2.000000
0.465339 -0.013089 0.061459 2.000000
0.465339 0.009918 0.045071 2.000000
0.465339 -0.037396 -0.031932 2.000000
0.465339 0.070878 0.055694 2.000000
0.465339 -0.057229 0.080598 2.000000
0.465339 0.074905 -0.010980 2.000000
0.465339 0.036641 0.008345 2.000000
0.465339 -0.050764 -0.062116 2.000000
0.465339 -0.002692 0.087735 2.000000
0.465339 0.056829 -0.069950 2.000000
0.465339 -0.001033 0.010396 2.000000
0.465339 0.087427 -0.009619 2.000000
0.465339 0.044847 0.009931 2.000000
0.465339 0.036505 0.074312 2.000000
0.465339 -0.093349 0.010040 2.000000
0.465339 -0.049060 -0.013639 2.000000
0.465339 0.035065 -0.016573 2.000000
0.465339 0.073891 -0.004423 2.000000
0.465339 -0.015485 -0.046523 2.000000
0.465339 0.088456 0.002057 2.000000
0.465339 0.011856 -0.012207 2.000000
0.465339 -0.012372 -0.082437 2.000000
0.465339 -0.088836 0.044400 2.000000
0.465339 -0.060043 -0.069671 2.000000
0.465339 -0.094660 0.031534 2.000000
0.465339 0.089029 0.023806 2.000000
0.465339 -0.032838 0.000876 2.000000
0.465339 0.056376 0.004745 2.000000
0.465339 -0.028882 0.015009 2.000000
0.465339 -0.087108 0.019892 2.000000
0.465339 0.071328 -0.027475 2.000000
0.465339 -0.023055 0.044106 2.000000
0.465339 -0.045663 -0.054205 2.000000
0.465339 -0.078539 -0.037285 2.000000
0.465339 -0.060827 -0.057564 2.000000
0.465339 -0.034011 -0.004799 2.000000
0.465339 0.015506 0.084037 2.000000
0.465339 -0.061389 0.003611 2.000000
0.465339 -0.039656 -0.042598 2.000000
0.465339 0.033053 0.018740 2.000000
0.465339 0.048130 0.046677 2.000000
0.465339 0.017699 -0.008532 2.000000
0.465339 -0.035418 0.026105 2.000000
0.465339 0.037156 -0.075191 2.000000
0.465339 -0.004495 0.024264 2.000000
0.465339 0.008531 -0.084859 2.000000
0.465339 -0.032270 0.018292 2.000000
0.465339 -0.012788 -0.092330 2.000000
0.465339 -0.017868 -0.038005 2.000000
0.465339 0.039304 0.087107 2.000000
0.465339 0.001813 0.061432 2.000000
0.465339 -0.062515 -0.037958 2.000000
0.465339 0.048693 0.048686 2.000000
0.465339 -0.044083 -0.067178 2.000000
0.465339 -0.073178 0.032778 2.000000
0.465339 -0.050911 0.010023 2.000000
0.465339 -0.050091 -0.017243 2.000000
0.465339 0.051251 0.082662 2.000000
0.465339 0.069933 -0.015427 2.000000
0.465339 0.071402 0.032832 2.000000
0.465339 -0.017490 -0.005136 2.000000
0.465339 -0.007352 0.086992 2.000000
0.465339 -0.050566 0.008414 2.000000
0.465339 0.054799 -0.057348 2.000000
0.465339 -0.091093 -0.031862 2.000000
0.465339 0.082142 -0.051298 2.000000
0.465339 -0.038927 -0.070251 2.000000
0.465339 0.053524 0.066704 2.000000
0.465339 0.087909 0.007666 2.000000
0.465339 0.023507 -0.036754 2.000000
0.465339 -0.066025 -0.057822 2.000000
0.465339 0.052284 0.042803 2.000000
0.465339 0.036280 -0.077534 2.000000
0.465339 -0.028439 -0.036512 2.000000
0.465339 -0.073794 -0.059525 2.000000
0.465339 -0.030690 0.015161 2.000000
0.465339 -0.030772 0.001753 2.000000
0.465339 -0.024589 -0.024877 2.000000
0.465339 -0.024397 -0.005820 2.000000
0.465339 -0.025248 0.088951 2.000000
0.465339 0.071070 0.021673 2.000000
0.465339 0.054396 -0.083381 2.000000
0.465339 -0.052457 -0.019924 2.000000
0.465339 -0.047843 0.035954 2.000000
0.465339 -0.005166 0.072266 2.000000
0.465339 -0.033482 0.090635 2.000000
0.465339 -0.082261 0.013284 2.000000
0.465339 -0.016106 -0.060175 2.000000
0.465339 -0.022249 -0.060355 2.000000
0.465339 0.001970 0.077008 2.000000
0.465339 0.005189 0.006773 2.000000
0.465339 -0.080211 0.020904 2.000000
0.465339 -0.048621 0.038872 2.000000
0.465339 -0.012001 -0.025476 2.000000
0.465339 0.014117 -0.022166 2.000000
0.465339 -0.021057 -0.056465 2.000000
0.465339 -0.049854 -0.018862 2.000000
0.465339 -0.009582 0.060597 2.000000
0.465339 0.042004 -0.067558 2.000000
0.465339 -0.027263 0.067000 2.000000
0.465339 -0.049631 0.083604 2.000000
0.465339 -0.059312 -0.018798 2.000000
0.465339 -0.021476 0.091391 2.000000
0.465339 -0.013312 -0.089067 2.000000
0.465339 -0.062298 -0.056745 2.000000
0.465339 0.049907 0.075763 2.000000
0.465339 0.067528 -0.054700 2.000000
0.465339 -0.000651 -0.097960 2.000000
0.465339 0.086931 0.023241 2.000000
0.465339 -0.041212 -0.044839 2.000000
0.465339 0.040831 -0.023778 2.000000
0.465339 0.017448 0.069803 2.000000
0.465339 -0.060742 0.049402 2.000000
0.465339 -0.010507 -0.010928 2.000000
0.465339 -0.071480 0.021306 2.000000
0.465339 0.010077 0.015811 2.000000
0.465339 0.001019 -0.040818 2.000000
0.465339 0.051430 -0.018889 2.000000
0.465339 0.048516 0.055203 2.000000
0.465339 -0.025899 0.033549 2.000000
0.465339 -0.071599 -0.044284 2.000000
0.465339 -0.043596 0.056114 2.000000
0.465339 0.060400 0.025995 2.000000
0.465339 0.087821 -0.005452 2.000000
0.465339 -0.085909 0.043934 2.000000
0.465339 0.092926 0.006215 2.000000
0.465339 -0.036612 0.024109 2.000000
0.465339 -0.013643 -0.071061 2.000000
0.465339 -0.008948 0.046819 2.000000
0.465339 0.083206 0.053191 2.000000
0.465339 -0.002298 0.028842 2.000000
0.465339 0.072666 0.033702 2.000000
0.465339 0.044917 -0.060573 2.000000
0.465339 -0.073921 -0.035396 2.000000
0.465339 -0.051911 -0.078655 2.000000
0.465339 0.002611 -0.087457 2.000000
0.465339 0.084318 -0.025539 2.000000
0.465339 -0.037480 -0.000537 2.000000
0.465339 -0.000989 -0.080427 2.000000
0.465339 -0.020260 -0.064268 2.000000
0.465339 0.006745 0.043896 2.000000
0.465339 -0.023635 -0.059525 2.000000
0.465339 -0.034419 -0.088131 2.000000
0.465339 0.004624 -0.024400 2.000000
0.465339 0.094697 -0.003793 2.000000
0.465339 -0.031973 -0.020204 2.000000
0.465339 -0.063146 0.018820 2.000000
0.465339 -0.041145 0.081314 2.000000
0.465339 -0.045711 0.084441 2.000000
0.465339 -0.070427 -0.016210 2.000000
0.465339 0.032696 -0.015022 2.000000
0.465339 0.055935 -0.046579 2.000000
0.465339 0.029002 0.067129 2.000000
0.465339 -0.000036 -0.064525 2.000000
0.465339 -0.021032 -0.070742 2.000000
0.465339 0.027665 0.029669 2.000000
0.465339 -0.005235 -0.019342 2.000000
0.465339 -0.017585 -0.082065 2.000000
0.465339 0.071093 -0.040418 2.000000
0.465339 -0.007144 -0.023801 2.000000
0.465339 -0.014478 -0.063334 2.000000
0.465339 -0.067184 -0.041749 2.000000
0.465339 0.060063 0.072783 2.000000
0.465339 0.016660 -0.090222 2.000000
0.465339 -0.056202 0.015167 2.000000
0.465339 -0.010973 0.025275 2.000000
0.465339 0.065009 -0.031721 2.000000
0.465339 -0.028504 -0.050641 2.000000
0.465339 0.007144 -0.078548 2.000000
0.465339 0.005168 0.018299 2.000000
0.465339 -0.005892 -0.017921 2.000000
0.465339 -0.063585 -0.066335 2.000000
0.465339 0.060871 -0.022057 2.000000
0.465339 0.013143 -0.093905 2.000000
0.465339 -0.047020 0.064597 2.000000
0.465339 0.003999 -0.015982 2.000000
0.465339 0.053628 0.039980 2.000000
0.465339 -0.018698 0.085235 2.000000
0.465339 -0.089665 -0.043441 2.000000
0.465339 -0.089274 -0.000886 2.000000
0.465339 -0.087437 -0.039361 2.000000
0.465339 -0.056661 0.073887 2.000000
0.465339 0.027175 -0.010275 2.000000
0.465339 -0.056878 -0.049850 2.000000
0.465339 0.067947 0.018295 2.000000
0.465339 0.016798 -0.001571 2.000000
0.465339 -0.003442 -0.083138 2.000000
0.465339 -0.081548 -0.020741 2.000000
0.465339 0.085504 0.039828 2.000000
0.465339 -0.036991 0.045829 2.000000
0.465339 0.010660 -0.082740 2.000000
0.465339 0.025471 -0.095959 2.000000
0.465339 0.024492 0.064948 2.000000
0.465339 -0.017394 -0.009570 2.000000
0.465339 0.033144 -0.076778 2.000000
0.465339 0.070316 -0.035965 2.000000
0.465339 0.034150 -0.079071 2.000000
0.465339 0.049714 0.034095 2.000000
0.465339 0.051436 -0.017172 2.000000
0.465339 -0.025717 0.087276 2.000000
0.465339 -0.035072 0.033511 2.000000
0.465339 0.003517 -0.008451 2.000000
0.465339 0.073707 -0.041500 2.000000
0.465339 0.049741 -0.050748 2.000000
0.465339 -0.070213 -0.067171 2.000000
0.465339 0.000702 0.023658 2.000000
0.465339 0.022619 -0.025851 2.000000
0.465339 0.008643 -0.032528 2.000000
0.465339 0.044714 0.026334 2.000000
0.465339 0.000579 -0.001783 2.000000
0.465339 0.018273 0.019617 2.000000
0.465339 0.003740 0.015798 2.000000
0.465339 0.058711 0.017536 2.000000
0.465339 -0.075297 0.019044 2.000000
0.465339 0.060852 -0.046535 2.000000
0.465339 0.027959 0.000878 2.000000
0.465339 0.046872 -0.075854 2.000000
0.465339 0.025196 0.031052 2.000000
0.465339 -0.021580 -0.067421 2.000000
0.465339 -0.033228 -0.034698 2.000000
0.465339 0.065140 -0.017811 2.000000
0.465339 -0.000377 0.076838 2.000000
0.465339 -0.012264 -0.043070 2.000000
0.465339 -0.015650 0.098557 2.000000
0.465339 0.020873 -0.036220 2.000000
0.465339 0.058383 0.054741 2.000000
0.465339 -0.033049 0.070354 2.000000
0.465339 -0.024206 0.096750 2.000000
0.465339 -0.015897 -0.025262 2.000000
0.465339 0.004614 0.052211 2.000000
0.465339 0.049454 -0.047162 2.000000
0.465339 -0.080258 -0.057123 2.000000
0.465339 0.090771 -0.037863 2.000000
0.465339 -0.018964 0.045224 2.000000
0.465339 0.006161 -0.070436 2.000000
0.465339 -0.064555 -0.068740 2.000000
0.465339 0.039699 -0.038246 2.000000
0.465339 -0.080408 0.019334 2.000000
0.465339 0.006645 0.084555 2.000000
0.465339 0.065108 0.010800 2.000000
0.465339 -0.043707 -0.054378 2.000000
0.465339 -0.048108 -0.026923 2.000000
0.465339 0.075459 -0.023879 2.000000
0.465339 0.047374 0.016147 2.000000
0.465339 -0.008456 0.006385 2.000000
0.465339 0.052207 -0.070288 2.000000
0.465339 -0.000764 -0.094922 2.000000
0.465339 -0.020623 0.003970 2.000000
0.465339 -0.067582 0.053027 2.000000
0.465339 0.062510 0.037208 2.000000
0.465339 0.040816 0.048703 2.000000
0.465339 0.039398 0.077778 2.000000
0.465339 -0.002733 0.071658 2.000000
0.465339 -0.060920 0.037297 2.000000
0.465339 0.080845 0.040575 2.000000
0.465339 0.063520 -0.042239 2.000000
0.465339 -0.091825 -0.025139 2.000000
0.465339 0.007564 0.035338 2.000000
0.465339 0.010991 0.046201 2.000000
0.465339 -0.024368 0.064418 2.000000
0.465339 -0.007914 -0.029854 2.000000
0.465339 0.076855 -0.007762 2.000000
0.465339 -0.025659 -0.004881 2.000000
0.465339 0.088729 0.041760 2.000000
0.465339 0.016560 -0.004083 2.000000
0.465339 0.025527 0.003649 2.000000
0.465339 -0.055534 -0.050763 2.000000
0.465339 -0.019533 -0.097529 2.000000
0.465339 0.032510 -0.088982 2.000000
0.465339 -0.086982 0.034936 2.000000
0.465339 0.063436 0.074728 2.000000
0.465339 0.063629 0.057453 2.000000
0.465339 0.025745 -0.009782 2.000000
0.465339 -0.052139 0.052445 2.000000
0.465339 0.032154 -0.052158 2.000000
0.465339 0.044815 -0.045520 2.000000
0.465339 -0.093972 0.002981 2.000000
0.465339 0.021467 0.055961 2.000000
0.465339 0.067483 0.063330 2.000000
0.465339 -0.029517 -0.080981 2.000000
0.465339 0.065303 0.052965 2.000000
0.465339 -0.029164 0.027496 2.000000
0.465339 -0.077463 -0.039753 2.000000
0.465339 0.020051 0.044745 2.000000
0.465339 -0.029850 -0.003850 2.000000
0.465339 0.029207 -0.035596 2.000000
0.465339 0.010361 0.086523 2.000000
0.465339 -0.084268 -0.012960 2.000000
0.465339 -0.031703 -0.078097 2.000000
0.465339 0.015764 0.016034 2.000000
0.465339 0.083404 -0.004090 2.000000
0.465339 -0.048660 -0.079910 2.000000
0.465339 -0.028972 -0.087363 2.000000
0.465339 0.027910 0.051752 2.000000
0.465339 0.064085 -0.050863 2.000000
0.465339 -0.095434 -0.012898 2.000000
0.465339 -0.044255 0.043684 2.000000
0.465339 0.038493 0.058193 2.000000
0.465339 -0.058463 0.014613 2.000000
0.465339 0.058321 0.044946 2.000000
0.465339 -0.058290 0.051766 2.000000
0.465339 -0.060566 -0.061142 2.000000
0.465339 -0.082410 -0.032731 2.000000
0.465339 -0.016959 -0.092175 2.000000
0.465339 0.001205 -0.083320 2.000000
0.465339 0.005279 -0.063083 2.000000
0.465339 0.052850 0.082153 2.000000
0.465339 0.022450 0.095994 2.000000
0.465339 0.056505 -0.043601 2.000000
0.465339 -0.010887 -0.058081 2.000000
0.465339 -0.041047 -0.069149 2.000000
0.465339 0.078551 -0.046122 2.000000
0.465339 0.029841 -0.071369 2.000000
0.465339 0.012762 0.018025 2.000000
0.465339 0.017686 0.055466 2.000000
0.465339 0.004490 0.059619 2.000000
0.465339 0.002893 -0.047658 2.000000
0.465339 0.002381 -0.059071 2.000000
0.465339 -0.095839 0.026637 2.000000
0.465339 0.028157 -0.076379 2.000000
0.465339 -0.003052 0.050098 2.000000
0.465339 0.086294 0.038076 2.000000
0.465339 0.008760 0.056091 2.000000
0.465339 0.026723 0.066382 2.000000
0.465339 0.050979 0.035149 2.000000
0.465339 -0.031179 0.007884 2.000000
0.465339 0.061750 -0.039525 2.000000
0.465339 -0.021938 -0.033985 2.000000
0.465339 0.030688 -0.064626 2.000000
0.465339 0.014316 -0.070518 2.000000
0.465339 0.019536 -0.089337 2.000000
0.465339 -0.069068 -0.063014 2.000000
0.465339 0.032846 0.065216 2.000000
0.465339 -0.052450 -0.043849 2.000000
0.465339 0.059987 0.058028 2.000000
0.465339 -0.074509 -0.064050 2.000000
0.465339 0.086863 -0.029846 2.000000
0.465339 0.008409 0.045220 2.000000
0.465339 0.073028 0.059059 2.000000
0.465339 0.044626 -0.014433 2.000000
0.465339 -0.044267 0.078827 2.000000
0.465339 -0.032369 0.060442 2.000000
0.465339 0.017249 0.003066 2.000000
0.465339 0.012249 0.037290 2.000000
0.465339 -0.035920 0.043508 2.000000
0.465339 0.072878 0.055097 2.000000
0.465339 -0.012471 0.030246 2.000000
0.465339 0.019351 0.039824 2.000000
0.465339 0.051366 0.037050 2.000000
0.465339 0.025030 -0.047759 2.000000
0.465339 0.050235 -0.057319 2.000000
0.465339 -0.042863 -0.082637 2.000000
0.465339 -0.042373 -0.072798 2.000000
0.465339 -0.049561 -0.070565 2.000000
0.465339 -0.050742 -0.077885 2.000000
0.465339 -0.009879 -0.086811 2.000000
0.465339 -0.025649 -0.037352 2.000000
0.465339 -0.071785 -0.014991 2.000000
0.465339 0.027832 0.058515 2.000000
0.465339 0.046940 -0.001958 2.000000
0.465339 0.008925 0.071803 2.000000
0.465339 0.041147 -0.060597 2.000000
0.465339 -0.031247 -0.018541 2.000000
0.465339 0.088411 -0.029682 2.000000
0.465339 0.063197 -0.031410 2.000000
0.465339 0.065726 -0.023932 2.000000
0.465339 0.018056 -0.061298 2.000000
0.465339 -0.006341 -0.062621 2.000000
0.465339 0.023901 -0.019764 2.000000
0.465339 0.013809 -0.068616 2.000000
0.465339 0.011133 -0.022650 2.000000
0.465339 0.032980 0.076130 2.000000
0.465339 0.056533 0.080330 2.000000
0.465339 0.033228 -0.027577 2.000000
0.465339 -0.071979 -0.016967 2.000000
0.465339 -0.076312 -0.051393 2.000000
0.465339 0.044330 -0.006940 2.000000
0.465339 -0.026876 -0.095714 2.000000
0.465339 0.070799 -0.003352 2.000000
0.465339 -0.069044 0.066977 2.000000
0.465339 -0.031070 0.043167 2.000000
0.465339 0.094469 0.030330 2.000000
0.465339 -0.059706 -0.014330 2.000000
0.465339 0.005788 0.061164 2.000000
0.465339 0.057487 0.050273 2.000000
0.465339 0.025578 0.026361 2.000000
0.465339 0.093919 0.012190 2.000000
0.465339 0.032301 0.020474 2.000000
0.465339 -0.013410 0.085810 2.000000
0.465339 0.012516 0.057012 2.000000
0.465339 -0.030313 0.047420 2.000000
0.465339 0.041213 0.011243 2.000000
0.465339 0.078090 0.055138 2.000000
0.465339 -0.052784 0.077484 2.000000
0.465339 0.030062 -0.019936 2.000000
0.465339 0.079450 0.059895 2.000000
0.465339 0.062386 -0.007647 2.000000
0.465339 0.060142 0.029507 2.000000
0.465339 -0.017274 0.080187 2.000000
0.465339 0.038668 0.032378 2.000000
0.465339 0.011873 0.082223 2.000000
0.465339 0.016722 -0.053088 2.000000
0.465339 0.045442 0.048828 2.000000
0.465339 0.051964 0.079589 2.000000
0.465339 0.089907 0.037653 2.000000
0.465339 0.075309 -0.040214 2.000000
0.465339 0.026264 -0.078437 2.000000
0.465339 0.071574 -0.015513 2.000000
0.465339 0.091781 0.012634 2.000000
0.465339 0.008951 -0.076597 2.000000
0.465339 0.039879 0.017207 2.000000
0.465339 0.072528 -0.065477 2.000000
0.465339 -0.065432 -0.014825 2.000000
0.465339 -0.076204 0.003653 2.000000
0.465339 -0.012966 -0.080669 2.000000
0.465339 -0.072699 0.056243 2.000000
0.465339 -0.000132 -0.017870 2.000000
0.465339 0.053231 0.077317 2.000000
0.465339 0.080723 -0.024272 2.000000
0.465339 0.016013 0.042853 2.000000
0.465339 0.006489 -0.065892 2.000000
0.465339 -0.009260 0.079116 2.000000
0.465339 -0.012032 -0.050420 2.000000
0.465339 -0.052179 -0.009924 2.000000
0.465339 -0.087325 0.007792 2.000000
0.465339 0.061511 0.057935 2.000000
0.465339 0.057318 -0.051564 2.000000
0.465339 0.082610 -0.041947 2.000000
0.465339 0.082312 0.038520 2.000000
0.465339 0.098821 0.013748 2.000000
0.465339 0.035299 -0.008623 2.000000
0.465339 -0.000736 0.054510 2.000000
0.465339 0.087515 -0.001821 2.000000
0.465339 -0.080553 -0.052570 2.000000
0.465339 -0.015032 0.089198 2.000000
0.465339 -0.019958 -0.025087 2.000000
0.465339 0.041571 -0.012950 2.000000
0.465339 0.032597 0.063675 2.000000
0.465339 0.019937 0.051070 2.000000
0.465339 0.016148 0.078127 2.000000
0.465339 -0.027045 0.091405 2.000000
0.465339 0.052787 0.025460 2.000000
0.465339 0.053580 -0.040423 2.000000
0.465339 -0.033971 -0.011859 2.000000
0.465339 0.020363 0.041761 2.000000
0.465339 0.050331 0.010948 2.000000
0.465339 -0.068436 -0.007127 2.000000
0.465339 0.035514 -0.000471 2.000000
0.465339 -0.042023 -0.007818 2.000000
0.465339 0.058729 -0.001819 2.000000
0.465339 -0.052792 0.032834 2.000000
0.465339 -0.057375 -0.070317 2.000000
0.465339 -0.001772 -0.067066 2.000000
0.465339 -0.044164 -0.073143 2.000000
0.465339 0.006267 -0.043391 2.000000
0.465339 -0.089116 -0.017506 2.000000
0.465339 0.034486 0.082757 2.000000
0.465339 0.065912 -0.008240 2.000000
0.465339 0.065599 -0.058190 2.000000
0.465339 -0.011838 -0.004505 2.000000
0.465339 -0.082307 -0.011553 2.000000
0.465339 -0.030169 0.050565 2.000000
0.465339 0.051814 -0.033911 2.000000
0.465339 -0.058267 0.045473 2.000000
0.465339 -0.083645 0.000249 2.000000
0.465339 -0.034504 0.040907 2.000000
0.465339 -0.028438 -0.072069 2.000000
0.465339 -0.014801 0.002159 2.000000
0.465339 0.008469 0.016889 2.000000
0.465339 -0.044704 -0.005801 2.000000
0.465339 -0.055908 -0.074171 2.000000
0.465339 -0.020083 -0.080510 2.000000
0.465339 -0.004081 -0.026633 2.000000
0.465339 0.074287 0.055839 2.000000
0.465339 0.053494 0.046791 2.000000
0.465339 0.018428 -0.085994 2.000000
0.465339 -0.064881 0.015405 2.000000
0.465339 0.058132 0.020239 2.000000
0.465339 0.013072 0.071251 2.000000
0.465339 0.041608 -0.008054 2.000000
0.465339 -0.009531 -0.091672 2.000000
0.465339 -0.023659 0.079209 2.000000
0.465339 -0.068858 -0.005352 2.000000
0.465339 -0.066283 0.029594 2.000000
0.465339 0.028406 -0.094114 2.000000
0.465339 -0.005524 -0.064708 2.000000
0.465339 0.026216 -0.006602 2.000000
0.465339 0.004445 -0.081223 2.000000
0.465339 0.039330 -0.029078 2.000000
0.465339 0.041592 0.038557 2.000000
0.465339 0.035019 -0.026627 2.000000
0.465339 -0.076795 0.019487 2.000000
0.465339 -0.055520 -0.069625 2.000000
0.465339 0.093038 -0.020945 2.000000
0.465339 0.075153 0.025303 2.000000
0.465339 0.038275 -0.083232 2.000000
0.465339 0.082528 0.002508 2.000000
0.465339 0.059215 0.067283 2.000000
0.465339 0.083848 0.036431 2.000000
0.465339 -0.006307 -0.091548 2.000000
0.465339 0.059622 0.075413 2.000000
0.465339 -0.025585 0.049886 2.000000
0.465339 0.026320 -0.058571 2.000000
0.465339 -0.035780 0.078410 2.000000
0.465339 -0.030345 -0.030493 2.000000
0.465339 -0.047615 0.047502 2.000000
0.465339 0.067912 -0.016807 2.000000
0.465339 0.012537 -0.069801 2.000000
0.465339 -0.089473 -0.023221 2.000000
0.465339 -0.018527 -0.074048 2.000000
0.465339 0.086780 0.005903 2.000000
0.465339 0.020680 -0.034091 2.000000
0.465339 -0.069401 -0.052830 2.000000
0.465339 0.041203 -0.058213 2.000000
0.465339 -0.014054 -0.061230 2.000000
0.465339 -0.082262 -0.043906 2.000000
0.465339 -0.044901 0.032468 2.000000
0.465339 0.005194 -0.044703 2.000000
0.465339 0.061752 -0.057521 2.000000
0.465339 0.042617 -0.075436 2.000000
0.465339 0.026741 -0.052715 2.000000
0.465339 -0.010543 0.041234 2.000000
0.465339 0.076566 -0.030160 2.000000
0.465339 -0.081528 0.050654 2.000000
0.465339 0.051540 -0.007705 2.000000
0.465339 -0.024711 -0.048462 2.000000
0.465339 -0.070660 -0.001846 2.000000
0.465339 0.070460 -0.067295 2.000000
0.465339 0.027263 0.044918 2.000000
0.465339 -0.053622 0.002455 2.000000
0.465339 -0.027875 -0.039127 2.000000
0.465339 0.014017 0.090241 2.000000
0.465339 -0.019927 0.061282 2.000000
0.465339 -0.040554 -0.014382 2.000000
0.465339 0.036944 0.038100 2.000000
0.465339 -0.059944 0.024769 2.000000
0.465339 0.060388 0.010091 2.000000
0.465339 -0.099380 -0.004589 2.000000
0.465339 -0.041583 -0.019382 2.000000
0.465339 -0.044607 -0.083293 2.000000
0.465339 -0.039104 0.019447 2.000000
0.465339 0.077296 0.037660 2.000000
0.465339 -0.030428 -0.065881 2.000000
0.465339 -0.065681 -0.010382 2.000000
0.465339 0.046514 0.086345 2.000000
0.465339 0.057305 0.042374 2.000000
0.465339 -0.003037 -0.062152 2.000000
0.465339 0.030674 0.012112 2.000000
0.465339 -0.062199 0.011099 2.000000
0.465339 0.094090 -0.002034 2.000000
0.465339 -0.072004 -0.041338 2.000000
0.465339 0.058251 0.075472 2.000000
0.465339 0.029013 0.033939 2.000000
0.465339 -0.066218 -0.020531 2.000000
0.465339 -0.068995 -0.017005 2.000000
0.465339 -0.040434 -0.035065 2.000000
0.465339 -0.022370 0.068380 2.000000
0.465339 0.029670 -0.082439 2.000000
0.465339 0.043203 -0.041375 2.000000
0.465339 0.090352 -0.018370 2.000000
0.465339 0.027084 0.054118 2.000000
0.465339 -0.081738 -0.034629 2.000000
0.465339 -0.016224 0.072117 2.000000
0.465339 0.070416 -0.012467 2.000000
0.465339 0.022232 0.086086 2.000000
0.465339 -0.063154 0.021408 2.000000
0.465339 -0.062766 0.068446 2.000000
0.465339 -0.035596 -0.034620 2.000000
0.465339 0.084587 0.052638 2.000000
0.465339 -0.051849 0.074792 2.000000
0.465339 -0.078750 -0.013959 2.000000
0.465339 -0.043223 0.033230 2.000000
0.465339 -0.050784 -0.029656 2.000000
0.465339 -0.033976 0.030041 2.000000
0.465339 0.055678 -0.004847 2.000000
0.465339 0.064257 -0.056630 2.000000
0.465339 0.050166 0.064286 2.000000
0.465339 -0.017761 -0.034473 2.000000
0.465339 -0.000112 0.003141 2.000000
0.465339 0.003495 -0.032528 2.000000
0.465339 0.087115 -0.008131 2.000000
0.465339 0.035151 0.061553 2.000000
0.465339 0.050237 0.008362 2.000000
0.465339 0.014784 0.020203 2.000000
0.465339 -0.023329 0.069700 2.000000
0.465339 -0.010183 0.052888 2.000000
0.465339 -0.020511 0.033410 2.000000
0.465339 0.000107 0.018271 2.000000
0.465339 0.027396 0.088819 2.000000
0.465339 0.042366 0.070759 2.000000
0.465339 -0.011837 0.049595 2.000000
0.465339 0.084208 0.017230 2.000000
0.465339 0.025858 0.016091 2.000000
0.465339 -0.047735 -0.006510 2.000000
0.465339 -0.031017 -0.026812 2.000000
0.465339 0.018041 -0.006580 2.000000
0.465339 0.014617 -0.075796 2.000000
0.465339 -0.048797 -0.005077 2.000000
0.465339 -0.050444 0.067546 2.000000
0.465339 -0.014788 0.015030 2.000000
0.465339 0.091858 -0.017820 2.000000
0.465339 -0.027577 -0.091290 2.000000
0.465339 -0.025506 -0.044368 2.000000
0.465339 -0.030794 -0.083693 2.000000
0.465339 0.089993 -0.015307 2.000000
0.465339 -0.026428 -0.042072 2.000000
0.465339 0.015869 0.035359 2.000000
0.465339 -0.075637 -0.047292 2.000000
0.465339 0.044431 0.070324 2.000000
0.465339 0.042730 0.074111 2.000000
0.465339 0.053100 0.075747 2.000000
0.465339 -0.079314 -0.009839 2.000000
0.465339 0.072184 0.027401 2.000000
0.465339 -0.016048 0.074005 2.000000
0.465339 -0.000898 -0.005772 2.000000
0.465339 -0.002942 -0.090465 2.000000
0.465339 0.044547 -0.087151 2.000000
0.465339 -0.013473 0.043607 2.000000
0.465339 0.056098 -0.008215 2.000000
0.465339 -0.013927 0.056985 2.000000
0.465339 -0.056796 -0.037814 2.000000
0.465339 -0.042841 0.061403 2.000000
0.465339 0.008392 0.020581 2.000000
0.465339 -0.019684 0.013670 2.000000
0.465339 0.021614 -0.084713 2.000000
0.465339 0.002946 0.045256 2.000000
0.465339 0.091617 0.002751 2.000000
0.465339 0.079457 -0.018185 2.000000
0.465339 -0.073550 0.025981 2.000000
0.465339 0.029231 -0.057012 2.000000
0.465339 0.043581 -0.067272 2.000000
0.465339 -0.035537 -0.067773 2.000000
0.465339 -0.066682 0.054053 2.000000
0.465339 -0.073882 -0.053746 2.000000
0.465339 0.074570 0.017385 2.000000
0.465339 -0.009239 0.030458 2.000000
0.465339 -0.064512 0.025905 2.000000
0.465339 0.047851 0.071266 2.000000
0.465339 -0.068530 0.018983 2.000000
0.465339 0.021595 0.015276 2.000000
0.465339 0.023022 0.090460 2.000000
0.465339 0.075697 0.007516 2.000000
0.465339 0.060476 0.076958 2.000000
0.465339 -0.031865 0.085478 2.000000
0.465339 0.094284 0.007360 2.000000
0.465339 0.096353 0.014565 2.000000
0.465339 0.037579 -0.071854 2.000000
0.465339 0.071891 0.036848 2.000000
0.465339 -0.025832 0.058241 2.000000
0.465339 -0.028813 0.068205 2.000000
0.465339 -0.033536 -0.072131 2.000000
0.465339 0.070273 0.049322 2.000000
0.465339 -0.014717 -0.041264 2.000000
0.465339 0.041282 -0.072704 2.000000
0.465339 -0.034302 0.005066 2.000000
0.465339 0.075797 0.045329 2.000000
0.465339 0.041842 0.018719 2.000000
0.465339 -0.034057 -0.048549 2.000000
0.465339 0.019888 -0.004682 2.000000
0.465339 0.076792 -0.033176 2.000000
0.465339 0.081391 0.024018 2.000000
0.465339 0.020063 -0.002942 2.000000
0.465339 0.055653 0.040003 2.000000
0.465339 -0.049056 0.005167 2.000000
0.465339 0.061557 -0.070463 2.000000
0.465339 0.047182 0.008490 2.000000
0.465339 0.037172 0.021093 2.000000
0.465339 -0.026600 0.093268 2.000000
0.465339 -0.042540 -0.036273 2.000000
0.465339 0.004793 0.001020 2.000000
0.465339 -0.070207 0.043733 2.000000
0.465339 0.072954 0.021284 2.000000
0.465339 0.013869 -0.050322 2.000000
0.465339 -0.038477 -0.063389 2.000000
0.465339 -0.015390 -0.062124 2.000000
0.465339 0.028577 -0.039210 2.000000
0.465339 -0.068865 0.036856 2.000000
0.465339 0.027378 0.046855 2.000000
0.465339 0.015578 0.093013 2.000000
0.465339 -0.030579 0.056010 2.000000
0.465339 -0.012302 0.057508 2.000000
0.465339 0.034470 0.036546 2.000000
0.465339 0.017335 0.067877 2.000000
