-0.466955 0.074023 -0.058846 3.000000
-0.466955 -0.032773 -0.075842 3.000000
-0.466955 0.072267 -0.063143 3.000000
-0.466955 0.019345 0.023671 3.000000
-0.466955 0.066405 0.025441 3.000000
-0.466955 0.001697 -0.035495 3.000000
-0.466955 0.050323 0.052832 3.000000
-0.466955 0.028817 0.056660 3.000000
-0.466955 -0.091059 -0.023196 3.000000
-0.466955 -0.041793 0.016791 3.000000
-0.466955 -0.014683 0.059193 3.000000
-0.466955 0.021652 0.092562 3.000000
-0.466955 0.081121 -0.036908 3.000000
-0.466955 0.090727 -0.034084 3.000000
-0.466955 0.046190 0.026349 3.000000
-0.466955 -0.018623 -0.090523 3.000000
-0.466955 -0.000663 0.094491 3.000000
-0.466955 -0.029703 0.059572 3.000000
-0.466955 -0.031905 0.041906 3.000000
-0.466955 0.003641 -0.073364 3.000000
-0.466955 -0.003833 -0.094688 3.000000
-0.466955 -0.029641 -0.037316 3.000000
-0.466955 -0.068400 0.008189 3.000000
-0.466955 -0.004571 0.050227 3.000000
-0.466955 0.014909 0.081567 3.000000
-0.466955 -0.007842 0.051706 3.000000
-0.466955 0.011942 -0.022031 3.000000
-0.466955 -0.062992 0.057251 3.000000
-0.466955 -0.023423 -0.032434 3.000000
-0.466955 -0.012074 0.039521 3.000000
-0.466955 0.024649 0.052789 3.000000
-0.466955 -0.023526 0.097180 3.000000
-0.466955 -0.046517 0.044350 3.000000
-0.466955 0.069376 -0.021789 3.000000
-0.466955 -0.006838 -0.078966 3.000000
-0.466955 0.051571 -0.007675 3.000000
-0.466955 -0.037225 -0.003621 3.000000
-0.466955 -0.037937 -0.031503 3.000000
-0.466955 0.037538 -0.021711 3.000000
-0.466955 -0.013160 -0.051739 3.000000
-0.466955 -0.034088 -0.090887 3.000000
-0.466955 -0.001892 -0.000010 3.000000
-0.466955 -0.021136 -0.050064 3.000000
-0.466955 -0.003468 0.071200 3.000000
-0.466955 -0.060846 -0.023325 3.000000
-0.466955 -0.044183 0.070598 3.000000
-0.466955 -0.060374 -0.041402 3.000000
-0.466955 -0.055786 -0.062387 3.000000
-0.466955 -0.058544 0.042235 3.000000
-0.466955 -0.037645 -0.067362 3.000000
-0.466955 0.038387 -0.072374 3.000000
-0.466955 -0.046366 -0.082604 3.000000
-0.466955 0.004688 -0.091935 3.000000
-0.466955 0.000403 0.089829 3.000000
-0.466955 -0.008500 -0.040697 3.000000
-0.466955 -0.092154 0.015058 3.000000
-0.466955 -0.010633 0.069344 3.000000
-0.466955 0.070114 -0.043840 3.000000
-0.466955 0.032536 0.016246 3.000000
-0.466955 -0.027098 0.036396 3.000000
-0.466955 -0.076802 0.030972 3.000000
-0.466955 0.036289 -0.062899 3.000000
-0.466955 -0.036210 0.076222 3.000000
-0.466955 -0.081546 -0.037254 3.000000
-0.466955 -0.039003 -0.046325 3.000000
-0.466955 -0.073358 -0.035811 3.000000
-0.466955 -0.066024 0.074215 3.000000
-0.466955 0.014940 0.056972 3.000000
-0.466955 0.007184 0.009856 3.000000
-0.466955 -0.009476 0.043914 3.000000
-0.466955 0.075742 0.033421 3.000000
-0.466955 0.006308 -0.042883 3.000000
-0.466955 -0.042697 -0.007388 3.000000
-0.466955 0.090701 0.034648 3.000000
-0.466955 -0.040401 -0.065761 3.000000
-0.466955 -0.021806 0.080550 3.000000
-0.466955 0.068698 -0.044779 3.000000
-0.466955 -0.053335 0.023241 3.000000
-0.466955 0.023039 0.044510 3.000000
-0.466955 0.092737 0.030208 3.000000
-0.466955 0.033064 0.056940 3.000000
-0.466955 0.071554 -0.001925 3.000000
-0.466955 -0.045490 0.042906 3.000000
-0.466955 -0.035637 -0.004507 3.000000
-0.466955 -0.038326 0.021796 3.000000
-0.466955 -0.029544 0.021465 3.000000
-0.466955 0.030610 0.057881 3.000000
-0.466955 -0.003330 0.039101 3.000000
-0.466955 -0.005072 -0.055585 3.000000
-0.466955 0.081007 -0.042282 3.000000
-0.466955 0.044118 0.008743 3.000000
-0.466955 0.036416 0.025900 3.000000
-0.466955 -0.015794 0.079433 3.000000
-0.466955 0.024419 0.058012 3.000000
-0.466955 -0.050012 0.045468 3.000000
-0.466955 0.084020 0.024090 3.000000
-0.466955 0.083930 -0.052877 3.000000
-0.466955 -0.036781 0.042067 3.000000
-0.466955 -0.030649 0.007465 3.000000
-0.466955 0.016963 -0.074057 3.000000
-0.466955 -0.064100 -0.069509 3.000000
-0.466955 0.060488 -0.042882 3.000000
-0.466955 -0.013554 -0.055519 3.000000
-0.466955 -0.061526 0.056433 3.000000
-0.466955 0.010080 -0.072304 3.000000
-0.466955 -0.034656 0.005362 3.000000
-0.466955 -0.069713 -0.058842 3.000000
-0.466955 -0.073541 0.013973 3.000000
-0.466955 0.086359 0.014693 3.000000
-0.466955 -0.038108 -0.083402 3.000000
-0.466955 -0.013909 0.033282 3.000000
-0.466955 0.001990 0.070215 3.000000
-0.466955 -0.072767 0.040617 3.000000
-0.466955 -0.009699 -0.014285 3.000000
-0.466955 -0.028564 -0.077964 3.000000
-0.466955 -0.005354 -0.024124 3.000000
-0.466955 0.081664 0.029658 3.000000
-0.466955 0.074648 -0.060354 3.000000
-0.466955 -0.021011 -0.027219 3.000000
-0.466955 0.034582 0.071070 3.000000
-0.466955 0.043811 0.064626 3.000000
-0.466955 0.000538 0.038723 3.000000
-0.466955 0.020085 -0.009718 3.000000
-0.466955 -0.051827 -0.084532 3.000000
-0.466955 -0.045660 0.007175 3.000000
-0.466955 0.073604 0.007363 3.000000
-0.466955 0.075922 -0.051442 3.000000
-0.466955 0.006003 -0.063412 3.000000
-0.466955 0.074552 0.042738 3.000000
-0.466955 -0.024379 0.079449 3.000000
-0.466955 -0.029533 -0.047851 3.000000
-0.466955 0.020952 -0.034198 3.000000
-0.466955 -0.066837 0.031031 3.000000
-0.466955 0.009988 -0.038173 3.000000
-0.466955 0.047293 -0.069029 3.000000
-0.466955 -0.059238 0.059518 3.000000
-0.466955 0.055797 -0.024575 3.000000
-0.466955 -0.075600 -0.013475 3.000000
-0.466955 0.043778 -0.009527 3.000000
-0.466955 -0.072211 0.037807 3.000000
-0.466955 -0.075972 -0.017528 3.000000
-0.466955 0.024055 -0.092463 3.000000
-0.466955 0.029929 -0.003226 3.000000
-0.466955 -0.029545 0.085010 3.000000
-0.466955 0.058005 0.059640 3.000000
-0.466955 0.035452 -0.051357 3.000000
-0.466955 0.028508 -0.021341 3.000000
-0.466955 -0.026191 -0.047633 3.000000
-0.466955 -0.068017 -0.047418 3.000000
-0.466955 0.073858 0.045046 3.000000
-0.466955 -0.022953 0.046400 3.000000
-0.466955 -0.070815 0.052783 3.000000
-0.466955 -0.014063 -0.034948 3.000000
-0.466955 -0.023806 -0.071373 3.000000
-0.466955 0.045735 0.044537 3.000000
-0.466955 0.041642 -0.015515 3.000000
-0.466955 0.053803 0.072279 3.000000
-0.466955 0.023613 -0.045927 3.000000
-0.466955 -0.018021 0.065640 3.000000
-0.466955 -0.000704 -0.069304 3.000000
-0.466955 0.035961 -0.024775 3.000000
-0.466955 -0.033680 0.078270 3.000000
-0.466955 -0.056665 -0.045480 3.000000
-0.466955 0.049989 -0.018901 3.000000
-0.466955 -0.056203 -0.037707 3.000000
-0.466955 -0.048606 -0.061277 3.000000
-0.466955 -0.063514 -0.003044 3.000000
-0.466955 -0.000208 0.049875 3.000000
-0.466955 0.023612 -0.068007 3.000000
-0.466955 0.098764 -0.010709 3.000000
-0.466955 -0.004749 0.070363 3.000000
-0.466955 -0.064491 -0.034610 3.000000
-0.466955 -0.027932 -0.060892 3.000000
-0.466955 0.087504 -0.012546 3.000000
-0.466955 0.075534 -0.025672 3.000000
-0.466955 -0.042914 -0.081467 3.000000
-0.466955 -0.033782 0.021258 3.000000
-0.466955 0.080070 0.006188 3.000000
-0.466955 0.005727 -0.024354 3.000000
-0.466955 0.019817 0.065756 3.000000
-0.466955 -0.019775 0.026561 3.000000
-0.466955 0.044609 0.023842 3.000000
-0.466955 -0.038239 -0.064681 3.000000
-0.466955 0.083753 0.037805 3.000000
-0.466955 -0.054235 0.075008 3.000000
-0.466955 0.029310 0.027195 3.000000
-0.466955 0.021314 0.025988 3.000000
-0.466955 0.055148 0.049690 3.000000
-0.466955 -0.034981 0.058992 3.000000
-0.466955 0.038702 0.020184 3.000000
-0.466955 -0.042170 0.026397 3.000000
-0.466955 0.001814 0.005235 3.000000
-0.466955 -0.004101 0.076986 3.000000
-0.466955 -0.037226 -0.071116 3.000000
-0.466955 -0.084834 0.021819 3.000000
-0.466955 0.004736 0.065227 3.000000
-0.466955 -0.076996 -0.039174 3.000000
-0.466955 -0.023872 -0.018336 3.000000
-0.466955 0.024596 -0.011854 3.000000
-0.466955 -0.060319 -0.048188 3.000000
-0.466955 0.022139 -0.029901 3.000000
-0.466955 0.014260 -0.043956 3.000000
-0.466955 0.016936 -0.098019 3.000000
-0.466955 -0.010649 -0.025837 3.000000
-0.466955 -0.057714 0.065765 3.000000
-0.466955 0.022543 0.022659 3.000000
-0.466955 -0.000187 -0.045626 3.000000
-0.466955 0.009282 0.096296 3.000000
-0.466955 0.000774 0.068682 3.000000
-0.466955 -0.084473 -0.029358 3.000000
-0.466955 0.076524 0.047204 3.000000
-0.466955 0.060472 0.033736 3.000000
-0.466955 -0.046972 -0.003352 3.000000
-0.466955 -0.031314 0.068363 3.000000
-0.466955 -0.059685 -0.026080 3.000000
-0.466955 0.073552 0.013989 3.000000
-0.466955 0.009983 -0.061548 3.000000
-0.466955 -0.000507 -0.095569 3.000000
-0.466955 0.019776 0.069270 3.000000
-0.466955 -0.035049 -0.068081 3.000000
-0.466955 -0.078786 -0.049350 3.000000
-0.466955 -0.003372 0.016104 3.000000
-0.466955 -0.021003 -0.087192 3.000000
-0.466955 0.026374 0.001573 3.000000
-0.466955 0.033899 -0.093682 3.000000
-0.466955 -0.082629 0.022000 3.000000
-0.466955 -0.012789 -0.024767 3.000000
-0.466955 0.008103 0.092818 3.000000
-0.466955 0.079291 -0.041183 3.000000
-0.466955 -0.062828 -0.028890 3.000000
-0.466955 0.071391 0.070034 3.000000
-0.466955 -0.023575 -0.036319 3.000000
-0.466955 0.025380 -0.056720 3.000000
-0.466955 0.070270 -0.023123 3.000000
-0.466955 -0.016066 0.055936 3.000000
-0.466955 -0.052122 -0.009584 3.000000
-0.466955 -0.013249 -0.065645 3.000000
-0.466955 0.012820 0.049276 3.000000
-0.466955 -0.024305 0.065187 3.000000
-0.466955 0.025829 -0.069405 3.000000
-0.466955 -0.046606 0.018749 3.000000
-0.466955 0.053083 -0.067318 3.000000
-0.466955 -0.021153 0.000715 3.000000
-0.466955 0.027828 0.013015 3.000000
-0.466955 0.073403 0.034662 3.000000
-0.466955 0.019720 -0.037055 3.000000
-0.466955 -0.001126 -0.061098 3.000000
-0.466955 -0.007330 0.034145 3.000000
-0.466955 0.038768 -0.016247 3.000000
-0.466955 -0.046037 -0.035471 3.000000
-0.466955 0.030617 0.076533 3.000000
-0.466955 -0.053763 -0.028371 3.000000
-0.466955 0.073331 0.051263 3.000000
-0.466955 -0.068766 -0.069171 3.000000
-0.466955 0.057837 0.075588 3.000000
-0.466955 -0.013056 0.064901 3.000000
-0.466955 0.066318 -0.063382 3.000000
-0.466955 0.083429 -0.027461 3.000000
-0.466955 -0.042876 -0.086434 3.000000
-0.466955 0.052185 0.062907 3.000000
-0.466955 0.027446 -0.090652 3.000000
-0.466955 -0.065920 0.057987 3.000000
-0.466955 0.029054 0.063984 3.000000
-0.466955 0.054896 0.013736 3.000000
-0.466955 -0.051051 -0.034922 3.000000
-0.466955 0.027078 -0.019272 3.000000
-0.466955 0.080551 0.036912 3.000000
-0.466955 -0.039539 0.011589 3.000000
-0.466955 -0.041839 0.073744 3.000000
-0.466955 0.094210 -0.029931 3.000000
-0.466955 0.009495 0.014137 3.000000
-0.466955 0.088051 0.006673 3.000000
-0.466955 0.063274 -0.001976 3.000000
-0.466955 0.012926 0.008456 3.000000
-0.466955 0.043258 -0.078451 3.000000
-0.466955 -0.036543 -0.031835 3.000000
-0.466955 -0.028822 0.050011 3.000000
-0.466955 0.010676 0.054960 3.000000
-0.466955 0.017650 0.093114 3.000000
-0.466955 0.041697 0.077908 3.000000
-0.466955 -0.061867 0.039762 3.000000
-0.466955 0.016332 0.075281 3.000000
-0.466955 -0.039914 0.047520 3.000000
-0.466955 0.022438 -0.092300 3.000000
-0.466955 0.026161 0.005174 3.000000
-0.466955 0.006430 -0.084268 3.000000
-0.466955 -0.086882 0.044520 3.000000
-0.466955 -0.020819 -0.010444 3.000000
-0.466955 -0.079830 0.024301 3.000000
-0.466955 -0.001946 0.045330 3.000000
-0.466955 -0.010832 -0.023243 3.000000
-0.466955 -0.082584 -0.029296 3.000000
-0.466955 0.052797 0.048592 3.000000
-0.466955 -0.012261 -0.037700 3.000000
-0.466955 0.018355 -0.036839 3.000000
-0.466955 0.017661 0.048250 3.000000
-0.466955 0.079778 0.013234 3.000000
-0.466955 -0.025261 -0.018841 3.000000
-0.466955 -0.023237 -0.021037 3.000000
-0.466955 0.081304 -0.017296 3.000000
-0.466955 0.070218 -0.029875 3.000000
-0.466955 0.009134 0.072851 3.000000
-0.466955 0.021830 -0.011055 3.000000
-0.466955 -0.046064 -0.048343 3.000000
-0.466955 0.052044 0.009747 3.000000
-0.466955 0.047006 0.019147 3.000000
-0.466955 0.018721 0.061429 3.000000
-0.466955 -0.081780 0.056260 3.000000
-0.466955 -0.044227 -0.021781 3.000000
-0.466955 -0.040662 -0.068612 3.000000
-0.466955 -0.010811 0.020384 3.000000
-0.466955 -0.004040 -0.058295 3.000000
-0.466955 0.019734 -0.075012 3.000000
-0.466955 -0.016550 0.031086 3.000000
-0.466955 -0.028929 -0.051911 3.000000
-0.466955 -0.001278 -0.067776 3.000000
-0.466955 0.007348 0.029389 3.000000
-0.466955 0.032855 -0.037203 3.000000
-0.466955 0.061024 0.019293 3.000000
-0.466955 0.078394 -0.021261 3.000000
-0.466955 -0.044979 -0.032367 3.000000
-0.466955 0.003779 0.081740 3.000000
-0.466955 -0.008361 -0.066865 3.000000
-0.466955 0.079799 -0.016445 3.000000
-0.466955 0.032894 -0.043789 3.000000
-0.466955 -0.062318 0.038199 3.000000
-0.466955 -0.059480 -0.000674 3.000000
-0.466955 -0.009437 -0.063835 3.000000
-0.466955 -0.036426 -0.002254 3.000000
-0.466955 0.004191 0.017241 3.000000
-0.466955 0.078073 0.013003 3.000000
-0.466955 0.009793 0.093080 3.000000
-0.466955 0.032511 -0.092522 3.000000
-0.466955 0.022112 0.000154 3.000000
-0.466955 -0.054898 -0.022835 3.000000
-0.466955 -0.015770 0.052823 3.000000
-0.466955 0.087880 0.042398 3.000000
-0.466955 -0.022904 0.090980 3.000000
-0.466955 -0.008385 0.032476 3.000000
-0.466955 0.085364 0.043095 3.000000
-0.466955 -0.077342 -0.058181 3.000000
-0.466955 0.048828 -0.065035 3.000000
-0.466955 -0.007732 0.093214 3.000000
-0.466955 -0.046272 0.058927 3.000000
-0.466955 -0.039468 -0.057950 3.000000
-0.466955 0.006361 -0.069925 3.000000
-0.466955 -0.031691 0.089569 3.000000
-0.466955 0.023119 -0.016169 3.000000
-0.466955 0.086296 -0.034043 3.000000
-0.466955 0.059848 -0.026806 3.000000
-0.466955 -0.074481 0.035518 3.000000
-0.466955 0.056943 0.003578 3.000000
-0.466955 -0.008662 0.095223 3.000000
-0.466955 -0.075300 0.037386 3.000000
-0.466955 -0.056038 -0.039786 3.000000
-0.466955 -0.022531 -0.088545 3.000000
-0.466955 0.061609 -0.069603 3.000000
-0.466955 0.044081 -0.012819 3.000000
-0.466955 -0.048761 0.028413 3.000000
-0.466955 -0.008134 0.044496 3.000000
-0.466955 0.033725 -0.065979 3.000000
-0.466955 0.090657 0.030968 3.000000
-0.466955 -0.046075 0.069589 3.000000
-0.466955 0.000485 0.035179 3.000000
-0.466955 -0.004461 -0.054106 3.000000
-0.466955 -0.041811 0.072205 3.000000
-0.466955 -0.009923 -0.018242 3.000000
-0.466955 0.006862 -0.001336 3.000000
-0.466955 0.014591 0.079359 3.000000
-0.466955 0.011315 -0.074279 3.000000
-0.466955 -0.005486 -0.080191 3.000000
-0.466955 0.050542 -0.021251 3.000000
-0.466955 -0.022618 -0.056183 3.000000
-0.466955 0.041580 -0.038770 3.000000
-0.466955 -0.053695 0.032529 3.000000
-0.466955 -0.079852 -0.059005 3.000000
-0.466955 0.036293 0.055817 3.000000
-0.466955 -0.077922 0.032600 3.000000
-0.466955 0.050181 0.020218 3.000000
-0.466955 -0.055159 -0.019161 3.000000
-0.466955 -0.005568 0.004522 3.000000
-0.466955 0.071658 -0.017864 3.000000
-0.466955 -0.071125 -0.048583 3.000000
-0.466955 0.003502 0.021018 3.000000
-0.466955 0.020981 0.043554 3.000000
-0.466955 -0.079478 -0.033679 3.000000
-0.466955 0.068223 0.041972 3.000000
-0.466955 0.021353 0.035652 3.000000
-0.466955 0.008960 -0.028577 3.000000
-0.466955 0.008015 0.008580 3.000000
-0.466955 0.007678 -0.063684 3.000000
-0.466955 -0.052645 0.054980 3.000000
-0.466955 -0.025551 0.072840 3.000000
-0.466955 0.003471 -0.046122 3.000000
-0.466955 0.082749 -0.016358 3.000000
-0.466955 0.081854 0.040584 3.000000
-0.466955 0.006126 0.040391 3.000000
-0.466955 0.058007 -0.004887 3.000000
-0.466955 -0.051396 0.043616 3.000000
-0.466955 0.000464 -0.054772 3.000000
-0.466955 -0.014432 0.028335 3.000000
-0.466955 -0.069002 0.058563 3.000000
-0.466955 0.000230 0.013440 3.000000
-0.466955 0.030109 -0.054446 3.000000
-0.466955 -0.033585 -0.042778 3.000000
-0.466955 -0.044008 0.027999 3.000000
-0.466955 0.047220 -0.055478 3.000000
-0.466955 0.009819 0.038996 3.000000
-0.466955 0.002105 -0.084054 3.000000
-0.466955 0.067886 -0.063663 3.000000
-0.466955 -0.009086 0.019965 3.000000
-0.466955 0.036793 0.027246 3.000000
-0.466955 0.026404 -0.089341 3.000000
-0.466955 0.071344 0.010723 3.000000
-0.466955 0.069515 -0.012392 3.000000
-0.466955 -0.021655 -0.036211 3.000000
-0.466955 -0.049529 -0.006284 3.000000
-0.466955 -0.049582 -0.045118 3.000000
-0.466955 -0.074252 0.060603 3.000000
-0.466955 0.082823 0.033668 3.000000
-0.466955 0.052919 -0.019326 3.000000
-0.466955 0.059729 -0.065239 3.000000
-0.466955 -0.083915 0.023817 3.000000
-0.466955 0.005482 0.012776 3.000000
-0.466955 0.018848 -0.088910 3.000000
-0.466955 0.023646 -0.074857 3.000000
-0.466955 0.081500 -0.002503 3.000000
-0.466955 -0.056057 -0.051233 3.000000
-0.466955 0.090570 0.036099 3.000000
-0.466955 -0.016244 0.066499 3.000000
-0.466955 -0.015290 0.016562 3.000000
-0.466955 -0.047732 0.000939 3.000000
-0.466955 -0.043881 0.002751 3.000000
-0.466955 0.001040 -0.016080 3.000000
-0.466955 0.021722 0.006979 3.000000
-0.466955 -0.018239 -0.037289 3.000000
-0.466955 -0.013927 -0.015785 3.000000
-0.466955 -0.086073 0.003403 3.000000
-0.466955 0.060120 0.058107 3.000000
-0.466955 -0.061217 0.023115 3.000000
-0.466955 -0.037836 0.059213 3.000000
-0.466955 0.036924 -0.032479 3.000000
-0.466955 -0.067673 -0.029022 3.000000
-0.466955 -0.003139 -0.000860 3.000000
-0.466955 -0.044317 -0.051871 3.000000
-0.466955 0.087394 0.012197 3.000000
-0.466955 0.007429 -0.026579 3.000000
-0.466955 -0.042739 -0.084610 3.000000
-0.466955 0.087231 -0.002102 3.000000
-0.466955 0.042276 0.025426 3.000000
-0.466955 -0.054275 0.047450 3.000000
-0.466955 0.003220 0.022711 3.000000
-0.466955 -0.004675 -0.084828 3.000000
-0.466955 0.070340 0.021617 3.000000
-0.466955 0.043124 -0.084552 3.000000
-0.466955 -0.027353 0.095515 3.000000
-0.466955 -0.018560 -0.017153 3.000000
-0.466955 0.035388 0.069692 3.000000
-0.466955 0.033596 -0.084046 3.000000
-0.466955 0.015000 -0.045303 3.000000
-0.466955 -0.019901 -0.060725 3.000000
-0.466955 0.047689 -0.022912 3.000000
-0.466955 0.029123 -0.026063 3.000000
-0.466955 -0.021975 0.052328 3.000000
-0.466955 -0.019528 0.018872 3.000000
-0.466955 -0.016111 -0.033320 3.000000
-0.466955 -0.027678 -0.004372 3.000000
-0.466955 -0.078888 0.034049 3.000000
-0.466955 0.008293 -0.030106 3.000000
-0.466955 0.008898 -0.058815 3.000000
-0.466955 0.065545 -0.059878 3.000000
-0.466955 -0.003710 -0.037377 3.000000
-0.466955 0.029543 0.071356 3.000000
-0.466955 -0.022531 0.019796 3.000000
-0.466955 -0.094449 0.000587 3.000000
-0.466955 -0.024266 0.054367 3.000000
-0.466955 0.063486 0.024655 3.000000
-0.466955 -0.014990 0.047787 3.000000
-0.466955 -0.001358 0.091671 3.000000
-0.466955 0.069361 0.006147 3.000000
-0.466955 -0.026505 -0.090209 3.000000
-0.466955 -0.001237 0.074469 3.000000
-0.466955 -0.011037 -0.011156 3.000000
-0.466955 -0.034436 0.001935 3.000000
-0.466955 0.013911 0.066852 3.000000
-0.466955 -0.016731 -0.090993 3.000000
-0.466955 0.023985 0.066566 3.000000
-0.466955 -0.005415 0.065932 3.000000
-0.466955 -0.087623 0.046678 3.000000
-0.466955 0.087431 0.041068 3.000000
-0.466955 0.044660 0.027043 3.000000
-0.466955 0.093031 -0.010489 3.000000
-0.466955 -0.007471 -0.094962 3.000000
-0.466955 -0.025504 -0.089057 3.000000
-0.466955 0.049923 -0.049345 3.000000
-0.466955 -0.089776 -0.042331 3.000000
-0.466955 -0.017682 0.028592 3.000000
-0.466955 -0.080086 -0.041575 3.000000
-0.466955 0.011107 -0.090012 3.000000
-0.466955 -0.024123 -0.012750 3.000000
-0.466955 0.008059 -0.016800 3.000000
-0.466955 -0.074878 0.001836 3.000000
-0.466955 0.079768 0.052502 3.000000
-0.466955 -0.003320 -0.085464 3.000000
-0.466955 0.020289 0.061050 3.000000
-0.466955 0.002271 -0.087674 3.000000
-0.466955 0.037436 0.046727 3.000000
-0.466955 0.048391 0.001413 3.000000
-0.466955 -0.041293 -0.078270 3.000000
-0.466955 -0.022536 0.040599 3.000000
-0.466955 -0.017588 -0.081353 3.000000
-0.466955 0.034213 0.040589 3.000000
-0.466955 -0.014470 -0.014414 3.000000
-0.466955 -0.075576 -0.031034 3.000000
-0.466955 0.069026 -0.061877 3.000000
-0.466955 -0.006176 0.009473 3.000000
-0.466955 0.074855 -0.003321 3.000000
-0.466955 -0.066094 0.043414 3.000000
-0.466955 0.007610 -0.086778 3.000000
-0.466955 0.000774 0.020405 3.000000
-0.466955 0.083539 -0.037673 3.000000
-0.466955 -0.065830 0.041730 3.000000
-0.466955 0.000328 0.072077 3.000000
-0.466955 -0.095892 -0.024982 3.000000
-0.466955 0.054834 0.005842 3.000000
-0.466955 0.078865 -0.054646 3.000000
-0.466955 -0.011922 0.006458 3.000000
-0.466955 0.006650 0.027782 3.000000
-0.466955 -0.029483 0.092023 3.000000
-0.466955 -0.002165 0.034040 3.000000
-0.466955 0.060960 0.078860 3.000000
-0.466955 -0.029471 -0.002378 3.000000
-0.466955 -0.067838 0.002190 3.000000
-0.466955 -0.028925 -0.089611 3.000000
-0.466955 -0.088135 0.041995 3.000000
-0.466955 0.052316 -0.001254 3.000000
-0.466955 -0.021797 -0.093780 3.000000
-0.466955 -0.069920 -0.055412 3.000000
-0.466955 0.064574 0.006141 3.000000
-0.466955 -0.065896 0.012016 3.000000
-0.466955 0.096518 0.013449 3.000000
-0.466955 -0.054665 0.053351 3.000000
-0.466955 0.035437 -0.045081 3.000000
-0.466955 -0.009462 -0.006921 3.000000
-0.466955 0.020824 -0.004816 3.000000
-0.466955 -0.018292 0.078352 3.000000
-0.466955 0.030140 -0.007590 3.000000
-0.466955 0.049863 -0.043071 3.000000
-0.466955 0.087871 -0.034654 3.000000
-0.466955 -0.075724 -0.049276 3.000000
-0.466955 0.020455 -0.025605 3.000000
-0.466955 0.032433 -0.076957 3.000000
-0.466955 0.073060 -0.053851 3.000000
-0.466955 0.034132 -0.056023 3.000000
-0.466955 -0.042140 -0.089391 3.000000
-0.466955 -0.036505 -0.079857 3.000000
-0.466955 0.039437 -0.038467 3.000000
-0.466955 -0.047807 -0.005489 3.000000
-0.466955 0.068170 -0.060520 3.000000
-0.466955 -0.017452 0.069595 3.000000
-0.466955 -0.015325 0.092266 3.000000
-0.466955 -0.045531 0.022435 3.000000
-0.466955 -0.001262 -0.073055 3.000000
-0.466955 -0.079124 0.046323 3.000000
-0.466955 0.096845 0.016267 3.000000
-0.466955 0.086061 -0.019404 3.000000
-0.466955 0.006118 -0.041292 3.000000
-0.466955 0.071533 0.043743 3.000000
-0.466955 0.024733 -0.086182 3.000000
-0.466955 -0.070511 0.010769 3.000000
-0.466955 0.052213 -0.005941 3.000000
-0.466955 -0.013249 -0.002399 3.000000
-0.466955 0.024957 0.002308 3.000000
-0.466955 -0.027015 -0.086561 3.000000
-0.466955 -0.027611 -0.014292 3.000000
-0.466955 -0.028626 0.027572 3.000000
-0.466955 0.048233 0.036765 3.000000
-0.466955 -0.056654 0.067176 3.000000
-0.466955 -0.083748 0.049427 3.000000
-0.466955 0.017831 -0.055022 3.000000
-0.466955 -0.024198 0.070486 3.000000
-0.466955 0.030374 -0.077595 3.000000
-0.466955 0.073063 0.031439 3.000000
-0.466955 -0.061926 0.036667 3.000000
-0.466955 0.029915 -0.073236 3.000000
-0.466955 -0.068280 0.011530 3.000000
-0.466955 0.023025 -0.007404 3.000000
-0.466955 0.049358 0.051758 3.000000
-0.466955 0.017990 -0.085677 3.000000
-0.466955 -0.086617 0.024510 3.000000
-0.466955 -0.009807 -0.036896 3.000000
-0.466955 0.009585 -0.077531 3.000000
-0.466955 -0.031718 -0.051064 3.000000
-0.466955 -0.041426 -0.006842 3.000000
-0.466955 0.041767 -0.019252 3.000000
-0.466955 -0.043306 0.041190 3.000000
-0.466955 0.032746 -0.008549 3.000000
-0.466955 -0.021099 0.020816 3.000000
-0.466955 -0.032619 -0.072550 3.000000
-0.466955 0.000457 0.017785 3.000000
-0.466955 -0.063023 0.042699 3.000000
-0.466955 0.015471 -0.097970 3.000000
-0.466955 -0.028634 0.055747 3.000000
-0.466955 -0.066879 -0.068511 3.000000
-0.466955 -0.003798 0.034462 3.000000
-0.466955 0.088087 -0.027877 3.000000
-0.466955 -0.080260 0.010189 3.000000
-0.466955 0.086586 -0.010928 3.000000
-0.466955 -0.026331 -0.015049 3.000000
-0.466955 -0.045135 0.073384 3.000000
-0.466955 -0.092921 0.010727 3.000000
-0.466955 -0.015124 0.044900 3.000000
-0.466955 0.070807 -0.063133 3.000000
-0.466955 -0.022676 -0.045697 3.000000
-0.466955 0.029733 -0.015872 3.000000
-0.466955 -0.086553 0.010646 3.000000
-0.466955 0.028644 -0.004051 3.000000
-0.466955 0.078296 -0.037047 3.000000
-0.466955 -0.006682 0.086815 3.000000
-0.466955 0.028660 -0.063665 3.000000
-0.466955 -0.077284 0.038819 3.000000
-0.466955 -0.023866 -0.077926 3.000000
-0.466955 -0.057369 0.040867 3.000000
-0.466955 -0.063745 -0.051215 3.000000
-0.466955 -0.015980 0.032546 3.000000
-0.466955 0.041366 0.014901 3.000000
-0.466955 0.034610 -0.041524 3.000000
-0.466955 0.041667 -0.001957 3.000000
-0.466955 0.050863 0.057592 3.000000
-0.466955 0.062329 -0.037775 3.000000
-0.466955 0.023404 0.080069 3.000000
-0.466955 0.051362 0.001259 3.000000
-0.466955 -0.016010 0.077566 3.000000
-0.466955 -0.070475 -0.044376 3.000000
-0.466955 -0.047909 -0.070187 3.000000
-0.466955 0.020679 -0.078036 3.000000
-0.466955 -0.072223 -0.043767 3.000000
-0.466955 -0.053105 0.072629 3.000000
-0.466955 -0.040558 -0.059481 3.000000
-0.466955 0.018873 -0.062904 3.000000
-0.466955 -0.047760 -0.072073 3.000000
-0.466955 0.052582 -0.017662 3.000000
-0.466955 0.064395 0.007531 3.000000
-0.466955 -0.061624 -0.027539 3.000000
-0.466955 0.087600 0.004141 3.000000
-0.466955 0.001604 -0.047801 3.000000
-0.466955 -0.090785 0.003321 3.000000
-0.466955 -0.009811 0.061457 3.000000
-0.466955 0.078087 0.044163 3.000000
-0.466955 0.011169 -0.093201 3.000000
-0.466955 0.076467 0.023702 3.000000
-0.466955 0.024507 -0.024482 3.000000
-0.466955 -0.045148 -0.075036 3.000000
-0.466955 -0.023443 -0.028774 3.000000
-0.466955 0.011581 0.060276 3.000000
-0.466955 -0.030348 0.067169 3.000000
-0.466955 0.076913 0.058902 3.000000
-0.466955 0.023081 0.092128 3.000000
-0.466955 0.085042 0.006297 3.000000
-0.466955 0.004497 -0.030485 3.000000
-0.466955 -0.049784 -0.057433 3.000000
-0.466955 0.034405 -0.029322 3.000000
-0.466955 -0.012839 -0.077388 3.000000
-0.466955 0.012898 -0.040263 3.000000
-0.466955 0.032731 -0.079417 3.000000
-0.466955 -0.055935 -0.066061 3.000000
-0.466955 -0.046045 -0.080965 3.000000
-0.466955 -0.004097 -0.030873 3.000000
-0.466955 -0.088175 0.003216 3.000000
-0.466955 0.086222 -0.049865 3.000000
-0.466955 -0.018071 0.091580 3.000000
-0.466955 0.070746 -0.006978 3.000000
-0.466955 -0.031984 0.063400 3.000000
-0.466955 0.022365 0.096892 3.000000
-0.466955 0.027796 0.059518 3.000000
-0.466955 -0.017526 -0.032771 3.000000
-0.466955 0.025585 -0.092131 3.000000
-0.466955 0.034963 -0.057760 3.000000
-0.466955 -0.002427 0.053114 3.000000
-0.466955 -0.080142 0.008836 3.000000
-0.466955 0.014968 0.034244 3.000000
-0.466955 0.003140 -0.017334 3.000000
-0.466955 0.005704 0.088898 3.000000
-0.466955 0.034848 0.034660 3.000000
-0.466955 -0.015498 -0.096675 3.000000
-0.466955 -0.006105 0.017168 3.000000
-0.466955 -0.074821 -0.004412 3.000000
-0.466955 0.035680 -0.031750 3.000000
-0.466955 0.067750 0.026769 3.000000
-0.466955 -0.044440 0.043979 3.000000
-0.466955 -0.056486 0.059648 3.000000
-0.466955 0.034055 -0.032613 3.000000
-0.466955 0.061354 0.050042 3.000000
-0.466955 0.037285 0.009266 3.000000
-0.466955 0.018140 -0.031828 3.000000
-0.466955 -0.015803 -0.029006 3.000000
-0.466955 -0.035923 -0.049581 3.000000
-0.466955 -0.056395 0.071188 3.000000
-0.466955 0.092997 -0.001693 3.000000
-0.466955 -0.005117 -0.057174 3.000000
-0.466955 0.009049 -0.006876 3.000000
-0.466955 0.012681 0.030172 3.000000
-0.466955 0.067755 0.063988 3.000000
-0.466955 0.044889 -0.062788 3.000000
-0.466955 -0.015818 0.001887 3.000000
-0.466955 0.065300 -0.026932 3.000000
-0.466955 0.084203 0.022273 3.000000
-0.466955 -0.041570 0.015023 3.000000
-0.466955 0.051462 0.047485 3.000000
-0.466955 -0.002802 -0.043051 3.000000
-0.466955 0.008962 0.075411 3.000000
-0.466955 0.052898 0.082427 3.000000
-0.466955 -0.025984 0.034991 3.000000
-0.466955 -0.013920 -0.081848 3.000000
-0.466955 -0.073488 0.016540 3.000000
-0.466955 -0.033507 0.032476 3.000000
-0.466955 -0.099259 -0.009277 3.000000
-0.466955 -0.084720 -0.023621 3.000000
-0.466955 -0.064129 0.072282 3.000000
-0.466955 -0.012635 0.081799 3.000000
-0.466955 0.060485 -0.066734 3.000000
-0.466955 0.020934 -0.038578 3.000000
-0.466955 0.073296 -0.067565 3.000000
-0.466955 0.036223 0.029463 3.000000
-0.466955 -0.012712 -0.035020 3.000000
-0.466955 0.060098 0.030383 3.000000
-0.466955 0.044892 0.059352 3.000000
-0.466955 0.043898 0.071321 3.000000
-0.466955 -0.004610 -0.051998 3.000000
-0.466955 -0.044714 0.018249 3.000000
-0.466955 -0.034131 0.057545 3.000000
-0.466955 0.037564 0.022534 3.000000
-0.466955 0.031830 -0.058229 3.000000
-0.466955 -0.063663 -0.011854 3.000000
-0.466955 -0.036509 0.063916 3.000000
-0.466955 0.018971 0.067741 3.000000
-0.466955 -0.024615 0.034982 3.000000
-0.466955 -0.089968 0.041660 3.000000
-0.466955 0.004696 -0.083221 3.000000
-0.466955 -0.014311 0.081634 3.000000
-0.466955 0.061649 0.047073 3.000000
-0.466955 -0.027936 0.054505 3.000000
-0.466955 0.067633 0.062558 3.000000
-0.466955 0.033361 -0.046978 3.000000
-0.466955 0.024275 -0.072351 3.000000
-0.466955 0.060697 -0.058730 3.000000
-0.466955 -0.059715 -0.057175 3.000000
-0.466955 -0.003786 -0.011812 3.000000
-0.466955 -0.002807 -0.033419 3.000000
-0.466955 -0.011831 -0.083740 3.000000
-0.466955 -0.091960 -0.033505 3.000000
-0.466955 0.013416 -0.062348 3.000000
-0.466955 -0.005426 -0.049512 3.000000
-0.466955 -0.067188 0.050846 3.000000
-0.466955 -0.051958 -0.073051 3.000000
-0.466955 -0.043220 -0.079954 3.000000
-0.466955 0.040067 0.000808 3.000000
-0.466955 -0.070785 -0.018598 3.000000
-0.466955 0.072352 0.029800 3.000000
-0.466955 -0.024598 -0.054999 3.000000
-0.466955 0.040564 0.083455 3.000000
-0.466955 -0.064722 -0.022307 3.000000
-0.466955 0.024318 0.054606 3.000000
-0.466955 -0.077410 -0.016669 3.000000
-0.466955 0.005258 0.014720 3.000000
-0.466955 -0.024236 0.027680 3.000000
-0.466955 0.050068 0.079086 3.000000
-0.466955 0.000534 -0.067919 3.000000
-0.466955 0.036275 -0.002370 3.000000
-0.466955 -0.089133 -0.044397 3.000000
-0.466955 0.064214 -0.070507 3.000000
-0.466955 0.081257 0.033969 3.000000
-0.466955 0.080543 -0.048875 3.000000
-0.466955 -0.019950 0.004054 3.000000
-0.466955 0.060377 -0.056951 3.000000
-0.466955 -0.034296 0.046624 3.000000
-0.466955 0.063512 0.075692 3.000000
-0.466955 -0.021085 0.022283 3.000000
-0.466955 -0.056589 0.077379 3.000000
-0.466955 -0.042913 0.050803 3.000000
-0.466955 -0.086977 -0.042406 3.000000
-0.466955 -0.009710 0.068018 3.000000
-0.466955 -0.082680 0.009858 3.000000
-0.466955 -0.091169 0.000153 3.000000
-0.466955 -0.093652 -0.033131 3.000000
-0.466955 -0.029700 0.032871 3.000000
-0.466955 0.039648 0.077874 3.000000
-0.466955 0.043005 -0.007996 3.000000
-0.466955 0.029105 0.080193 3.000000
-0.466955 0.051161 -0.080764 3.000000
-0.466955 -0.014621 0.054814 3.000000
-0.466955 0.039454 0.025535 3.000000
-0.466955 -0.010100 0.041497 3.000000
-0.466955 -0.063660 -0.016381 3.000000
-0.466955 -0.040645 0.081396 3.000000
-0.466955 -0.026466 -0.060052 3.000000
-0.466955 0.017166 0.091671 3.000000
-0.466955 -0.010775 0.014780 3.000000
-0.466955 -0.012919 -0.027933 3.000000
-0.466955 -0.076940 -0.012747 3.000000
-0.466955 0.045696 -0.008871 3.000000
-0.466955 0.030239 -0.055922 3.000000
-0.466955 0.020087 0.020894 3.000000
-0.466955 0.056808 0.071077 3.000000
-0.466955 -0.023944 -0.007789 3.000000
-0.466955 -0.002446 -0.016190 3.000000
-0.466955 0.026016 0.055142 3.000000
-0.466955 -0.078106 0.002021 3.000000
-0.466955 0.052522 0.015755 3.000000
-0.466955 -0.012147 -0.053221 3.000000
-0.466955 -0.048537 0.070056 3.000000
-0.466955 -0.028319 -0.035776 3.000000
-0.466955 -0.024559 -0.080794 3.000000
-0.466955 -0.074736 -0.000094 3.000000
-0.466955 0.065574 0.004766 3.000000
-0.466955 -0.090596 -0.010673 3.000000
-0.466955 0.095697 0.024773 3.000000
-0.466955 0.069026 -0.071258 3.000000
-0.466955 -0.091396 0.004667 3.000000
-0.466955 -0.000260 -0.031357 3.000000
-0.466955 0.028713 -0.041795 3.000000
-0.466955 0.047515 0.034094 3.000000
-0.466955 0.032441 0.081478 3.000000
-0.466955 -0.034294 0.007035 3.000000
-0.466955 0.027844 -0.031064 3.000000
-0.466955 0.015444 0.061572 3.000000
-0.466955 -0.069656 0.039359 3.000000
-0.466955 -0.026846 0.010801 3.000000
-0.466955 0.066045 0.048575 3.000000
-0.466955 0.043846 -0.043591 3.000000
-0.466955 0.043272 -0.039334 3.000000
-0.466955 0.005286 -0.049142 3.000000
-0.466955 -0.045679 0.077611 3.000000
-0.466955 -0.098255 0.009711 3.000000
-0.466955 -0.012902 -0.069434 3.000000
-0.466955 0.036081 0.021698 3.000000
-0.466955 -0.025702 -0.024164 3.000000
-0.466955 0.005003 0.023174 3.000000
-0.466955 0.038849 -0.012602 3.000000
-0.466955 -0.055514 0.063212 3.000000
-0.466955 -0.053176 -0.040101 3.000000
-0.466955 0.053032 0.019644 3.000000
-0.466955 0.010768 -0.082146 3.000000
-0.466955 -0.071626 -0.006643 3.000000
-0.466955 0.000202 0.006332 3.000000
-0.466955 -0.064145 -0.023681 3.000000
-0.466955 -0.058691 -0.077494 3.000000
-0.466955 0.038992 0.034982 3.000000
-0.466955 -0.070682 0.038138 3.000000
-0.466955 0.063918 -0.051435 3.000000
-0.466955 -0.011245 -0.000396 3.000000
-0.466955 0.013170 0.021535 3.000000
-0.466955 0.077062 0.056895 3.000000
-0.466955 0.097900 0.004227 3.000000
-0.466955 -0.076229 0.025685 3.000000
-0.466955 0.018878 0.087948 3.000000
-0.466955 0.004800 -0.012888 3.000000
-0.466955 0.049518 0.062886 3.000000
-0.466955 0.063036 -0.008435 3.000000
-0.466955 0.005354 0.081624 3.000000
-0.466955 0.077439 -0.054966 3.000000
-0.466955 0.059784 -0.044407 3.000000
-0.466955 -0.015804 -0.061136 3.000000
-0.466955 -0.048215 -0.079473 3.000000
-0.466955 0.069602 0.007843 3.000000
-0.466955 0.025437 -0.037467 3.000000
-0.466955 -0.073751 0.041896 3.000000
-0.466955 0.014405 -0.084943 3.000000
-0.466955 0.057183 -0.069064 3.000000
-0.466955 -0.059994 -0.076004 3.000000
-0.466955 0.037941 0.017363 3.000000
-0.466955 0.001610 0.027188 3.000000
-0.466955 -0.017090 0.043590 3.000000
-0.466955 0.028325 -0.053431 3.000000
-0.466955 0.025032 0.076168 3.000000
-0.466955 -0.005864 -0.097698 3.000000
-0.466955 -0.042103 0.079899 3.000000
-0.466955 -0.020383 0.065010 3.000000
-0.466955 -0.033827 -0.083285 3.000000
-0.466955 -0.010241 0.013286 3.000000
-0.466955 0.011263 0.049477 3.000000
-0.466955 -0.036059 0.028694 3.000000
-0.466955 0.055240 0.079682 3.000000
-0.466955 -0.016587 0.054186 3.000000
-0.466955 -0.045121 -0.008065 3.000000
-0.466955 0.042083 -0.081932 3.000000
-0.466955 0.015350 -0.016781 3.000000
-0.466955 0.085588 0.048081 3.000000
-0.466955 -0.054564 0.050731 3.000000
-0.466955 0.023043 -0.057954 3.000000
-0.466955 -0.089551 -0.029582 3.000000
-0.466955 -0.069490 -0.062345 3.000000
-0.466955 0.007984 0.015100 3.000000
-0.466955 0.030803 -0.037458 3.000000
-0.466955 0.091041 0.006596 3.000000
-0.466955 -0.057545 0.051040 3.000000
-0.466955 0.044584 -0.021961 3.000000
-0.466955 0.040702 0.047697 3.000000
-0.466955 0.038507 -0.022970 3.000000
-0.466955 0.032790 -0.055281 3.000000
-0.466955 0.023880 0.069626 3.000000
-0.466955 0.078987 -0.008121 3.000000
-0.466955 0.030156 0.038805 3.000000
-0.466955 0.010122 0.051890 3.000000
-0.466955 0.053919 0.067411 3.000000
-0.466955 0.013337 -0.032153 3.000000
-0.466955 -0.020104 -0.006757 3.000000
-0.466955 0.024626 0.020085 3.000000
-0.466955 0.052363 0.034566 3.000000
-0.466955 0.071522 0.018413 3.000000
-0.466955 -0.017587 -0.010385 3.000000
-0.466955 0.024112 0.051184 3.000000
-0.466955 0.088258 -0.045325 3.000000
-0.466955 0.061283 -0.035603 3.000000
-0.466955 0.028072 0.055073 3.000000
-0.466955 0.023409 -0.004297 3.000000
-0.466955 -0.032635 -0.090188 3.000000
-0.466955 0.005859 -0.056214 3.000000
-0.466955 -0.044918 0.001379 3.000000
-0.466955 -0.004450 0.045852 3.000000
-0.466955 0.036651 -0.049130 3.000000
-0.466955 -0.054171 0.069071 3.000000
-0.466955 0.008264 0.061963 3.000000
-0.466955 0.019117 -0.097095 3.000000
-0.466955 -0.060574 -0.009273 3.000000
-0.466955 -0.067275 -0.035767 3.000000
-0.466955 0.011336 0.069636 3.000000
-0.466955 -0.009760 -0.054993 3.000000
-0.466955 0.017058 0.088250 3.000000
-0.466955 0.085898 -0.027486 3.000000
-0.466955 -0.059501 -0.023991 3.000000
-0.466955 0.005300 0.007373 3.000000
-0.466955 0.011810 -0.052984 3.000000
-0.466955 0.063582 0.028207 3.000000
-0.466955 -0.056556 -0.001084 3.000000
-0.466955 0.064916 -0.019904 3.000000
-0.466955 -0.089832 0.000700 3.000000
-0.466955 0.023350 0.018465 3.000000
-0.466955 -0.081405 0.031306 3.000000
-0.466955 0.033288 -0.003160 3.000000
-0.466955 -0.044957 0.052645 3.000000
-0.466955 0.031424 -0.072972 3.000000
-0.466955 0.072751 -0.041869 3.000000
-0.466955 0.021026 -0.006610 3.000000
-0.466955 0.037991 -0.079265 3.000000
-0.466955 -0.055959 0.074625 3.000000
-0.466955 -0.047040 -0.046763 3.000000
-0.466955 -0.013371 -0.080114 3.000000
-0.466955 0.082558 0.001706 3.000000
-0.466955 -0.024523 0.015577 3.000000
-0.466955 0.079981 0.055879 3.000000
-0.466955 0.023032 0.036981 3.000000
-0.466955 -0.042373 0.024852 3.000000
-0.466955 -0.064100 -0.076179 3.000000
-0.466955 0.054991 -0.037200 3.000000
-0.466955 0.044628 -0.034361 3.000000
-0.466955 -0.037612 0.066688 3.000000
-0.466955 -0.053707 0.065091 3.000000
-0.466955 0.006624 0.024764 3.000000
-0.466955 0.073779 0.033006 3.000000
-0.466955 -0.086003 0.045579 3.000000
-0.466955 -0.067109 -0.021244 3.000000
-0.466955 0.016214 0.010974 3.000000
-0.466955 -0.094544 0.031116 3.000000
-0.466955 -0.019533 0.000310 3.000000
-0.466955 -0.004783 0.063205 3.000000
-0.466955 -0.021676 0.013931 3.000000
-0.466955 0.022159 -0.001456 3.000000
-0.466955 0.035826 -0.076493 3.000000
-0.466955 -0.072845 0.034520 3.000000
-0.466955 -0.087312 0.038213 3.000000
-0.466955 0.064761 0.054352 3.000000
-0.466955 -0.022616 0.007292 3.000000
-0.466955 0.053043 -0.021731 3.000000
-0.466955 0.012553 0.035841 3.000000
-0.466955 0.015193 -0.091960 3.000000
-0.466955 0.021928 0.051733 3.000000
-0.466955 0.073675 0.022133 3.000000
-0.466955 0.013750 -0.057194 3.000000
-0.466955 -0.000339 -0.037665 3.000000
-0.466955 0.082558 -0.007151 3.000000
-0.466955 -0.039939 0.034477 3.000000
-0.466955 0.011192 -0.084542 3.000000
-0.466955 -0.030035 0.019567 3.000000
-0.466955 0.015404 -0.013448 3.000000
-0.466955 0.013136 -0.015006 3.000000
-0.466955 0.001518 -0.093751 3.000000
-0.466955 -0.009432 0.034091 3.000000
-0.466955 -0.012424 0.024702 3.000000
-0.466955 -0.027437 0.057438 3.000000
-0.466955 0.027731 -0.088859 3.000000
-0.466955 0.054580 -0.042679 3.000000
-0.466955 0.048440 0.048630 3.000000
-0.466955 -0.053293 0.015277 3.000000
-0.466955 0.023252 -0.013020 3.000000
-0.466955 -0.013111 0.050049 3.000000
-0.466955 0.018236 0.013149 3.000000
-0.466955 0.035666 0.074701 3.000000
-0.466955 0.040095 -0.019433 3.000000
-0.466955 -0.015145 -0.090383 3.000000
-0.466955 -0.005236 0.080320 3.000000
-0.466955 0.038115 -0.041064 3.000000
-0.466955 0.047021 0.078881 3.000000
-0.466955 0.023703 -0.083041 3.000000
-0.466955 0.043414 -0.040979 3.000000
-0.466955 0.046389 -0.053069 3.000000
-0.466955 0.012383 0.097074 3.000000
-0.466955 0.002635 0.032081 3.000000
-0.466955 0.037796 0.039356 3.000000
-0.466955 0.003488 0.005551 3.000000
-0.466955 -0.082987 0.012409 3.000000
-0.466955 -0.059963 0.017054 3.000000
-0.466955 0.040178 0.040752 3.000000
-0.466955 0.059236 -0.076237 3.000000
-0.466955 0.036276 -0.061248 3.000000
-0.466955 0.010039 -0.043158 3.000000
-0.466955 0.041508 0.007307 3.000000
-0.466955 0.022768 -0.082009 3.000000
-0.466955 -0.090018 -0.034255 3.000000
-0.466955 -0.019641 -0.087921 3.000000
-0.466955 -0.078285 0.039803 3.000000
-0.466955 0.016943 0.085323 3.000000
-0.466955 0.091233 -0.029682 3.000000
-0.466955 -0.083465 -0.027968 3.000000
-0.466955 -0.077818 0.000585 3.000000
-0.466955 0.061680 -0.022909 3.000000
-0.466955 0.070638 -0.009782 3.000000
-0.466955 0.041029 0.070648 3.000000
-0.466955 0.064423 -0.064384 3.000000
-0.466955 0.052881 -0.037605 3.000000
-0.466955 0.020815 0.097818 3.000000
-0.466955 -0.008331 -0.054740 3.000000
-0.466955 -0.006833 -0.000318 3.000000
-0.466955 0.076499 -0.000358 3.000000
-0.466955 -0.035278 0.043987 3.000000
-0.466955 0.027909 -0.000238 3.000000
-0.466955 0.026316 -0.008584 3.000000
-0.466955 -0.099153 -0.000912 3.000000
-0.466955 -0.077795 0.051682 3.000000
-0.466955 -0.034884 -0.087666 3.000000
-0.466955 0.069813 -0.053700 3.000000
-0.466955 0.056793 -0.025527 3.000000
-0.466955 0.090380 0.007761 3.000000
-0.466955 0.068547 0.000968 3.000000
-0.466955 -0.017127 0.046893 3.000000
-0.466955 -0.060697 -0.024816 3.000000
-0.466955 0.066106 0.071480 3.000000
-0.466955 -0.048901 -0.035931 3.000000
-0.466955 -0.093556 -0.016467 3.000000
-0.466955 -0.057261 0.062445 3.000000
-0.466955 -0.016728 0.051740 3.000000
-0.466955 -0.077080 -0.000844 3.000000
-0.466955 -0.004482 -0.073187 3.000000
-0.466955 -0.061006 0.009367 3.000000
-0.466955 -0.065953 0.009498 3.000000
-0.466955 -0.013022 0.053779 3.000000
-0.466955 -0.001212 -0.033739 3.000000
-0.466955 0.034913 0.077119 3.000000
-0.466955 -0.023351 -0.043475 3.000000
-0.466955 -0.018874 0.062478 3.000000
-0.466955 0.048575 0.074197 3.000000
-0.466955 -0.066475 -0.011329 3.000000
-0.466955 0.021163 0.023357 3.000000
-0.466955 -0.063975 -0.030565 3.000000
-0.466955 0.031588 -0.024558 3.000000
-0.466955 0.028863 -0.077798 3.000000
-0.466955 0.001069 -0.044083 3.000000
-0.466955 -0.059205 -0.009607 3.000000
-0.466955 0.026347 0.036721 3.000000
-0.466955 -0.034861 -0.003130 3.000000
-0.466955 -0.045318 0.003242 3.000000
-0.466955 0.088458 0.021206 3.000000
-0.466955 0.010220 0.043284 3.000000
-0.466955 0.051969 -0.031482 3.000000
-0.466955 0.013277 -0.033647 3.000000
-0.466955 -0.029911 -0.086751 3.000000
-0.466955 -0.001733 -0.079919 3.000000
-0.466955 -0.029985 0.028279 3.000000
-0.466955 0.003368 0.040968 3.000000
-0.466955 0.012065 0.044894 3.000000
-0.466955 -0.016776 0.091860 3.000000
-0.466955 0.010708 -0.078631 3.000000
-0.466955 0.077138 -0.012728 3.000000
-0.466955 0.020788 0.057837 3.000000
-0.466955 -0.056724 -0.002572 3.000000
-0.466955 -0.053344 -0.013703 3.000000
-0.466955 0.008522 0.080725 3.000000
-0.466955 -0.038026 -0.052703 3.000000
-0.466955 0.041064 0.072599 3.000000
-0.466955 -0.027954 0.059382 3.000000
-0.466955 0.058481 -0.062198 3.000000
-0.466955 0.054966 -0.028428 3.000000
-0.466955 0.032339 -0.075465 3.000000
-0.466955 -0.083440 -0.053431 3.000000
-0.466955 -0.019818 0.096246 3.000000
-0.466955 -0.047554 -0.000469 3.000000
-0.466955 -0.013265 0.080279 3.000000
-0.466955 0.001034 0.063428 3.000000
-0.466955 0.003465 0.070690 3.000000
-0.466955 0.053000 0.003137 3.000000
-0.466955 0.018378 0.084719 3.000000
-0.466955 -0.064798 -0.059202 3.000000
-0.466955 -0.012789 0.098671 3.000000
-0.466955 0.073287 0.046519 3.000000
-0.466955 -0.003620 0.086687 3.000000
-0.466955 -0.081536 -0.030311 3.000000
-0.466955 0.020425 0.001307 3.000000
-0.466955 0.050500 -0.075497 3.000000
-0.466955 0.055685 0.057716 3.000000
-0.466955 0.058192 -0.035488 3.000000
-0.466955 -0.021249 -0.053620 3.000000
-0.466955 0.011949 0.003385 3.000000
-0.466955 0.044370 0.001959 3.000000
-0.466955 -0.018816 -0.030257 3.000000
-0.466955 0.034312 -0.025190 3.000000
-0.466955 0.034981 0.067006 3.000000
-0.466955 0.014443 -0.080064 3.000000
-0.466955 -0.043258 0.030801 3.000000
-0.466955 -0.006096 -0.058365 3.000000
-0.466955 0.047297 0.032715 3.000000
-0.466955 0.049218 0.040308 3.000000
-0.466955 -0.048868 -0.007989 3.000000
-0.466955 0.051379 -0.042037 3.000000
-0.466955 -0.035185 -0.052577 3.000000
-0.466955 -0.089496 0.043156 3.000000
-0.466955 0.057658 0.039571 3.000000
-0.466955 0.027586 0.029893 3.000000
-0.466955 0.092772 0.008235 3.000000
-0.466955 -0.072736 -0.001808 3.000000
-0.466955 0.042790 0.075648 3.000000
-0.466955 -0.047478 0.042754 3.000000
-0.466955 0.011450 -0.058761 3.000000
-0.466955 -0.033145 -0.025728 3.000000
-0.466955 -0.000675 0.047895 3.000000
-0.466955 -0.009309 -0.052401 3.000000
-0.466955 -0.005636 0.091769 3.000000
-0.466955 -0.011010 0.035862 3.000000
-0.466955 -0.092562 -0.000263 3.000000
-0.466955 -0.006029 0.028372 3.000000
-0.466955 -0.012770 -0.085288 3.000000
-0.466955 0.043891 0.037697 3.000000
-0.466955 -0.018649 0.095320 3.000000
-0.466955 0.061201 0.069950 3.000000
-0.466955 0.030603 0.081135 3.000000
-0.466955 0.014715 -0.002121 3.000000
-0.466955 0.079141 0.060679 3.000000
-0.466955 -0.095957 0.000936 3.000000
-0.466955 -0.033581 0.063879 3.000000
-0.466955 0.034873 -0.064406 3.000000
-0.466955 -0.006689 -0.050637 3.000000
-0.466955 -0.000615 -0.091801 3.000000
-0.466955 0.035727 0.080664 3.000000
-0.466955 -0.022621 -0.060434 3.000000
-0.466955 -0.058394 0.063777 3.000000
-0.466955 -0.084716 -0.045172 3.000000
-0.466955 -0.031812 0.073226 3.000000
-0.466955 0.054593 0.030485 3.000000
-0.466955 0.022295 -0.039823 3.000000
-0.466955 -0.058118 -0.040074 3.000000
-0.466955 0.004158 0.077068 3.000000
-0.466955 0.059734 -0.045838 3.000000
-0.466955 -0.067411 0.063990 3.000000
-0.466955 -0.042910 -0.062920 3.000000
-0.466955 0.055740 0.061732 3.000000
-0.466955 0.088326 -0.022728 3.000000
-0.466955 -0.046411 -0.059760 3.000000
-0.466955 0.058305 -0.073802 3.000000
-0.466955 0.046637 -0.027637 3.000000
-0.466955 0.035613 0.033024 3.000000
-0.466955 0.039186 0.031080 3.000000
-0.466955 -0.000795 -0.039576 3.000000
-0.466955 0.005946 0.091256 3.000000
-0.466955 0.020706 -0.013995 3.000000
-0.466955 0.011970 0.038111 3.000000
-0.466955 -0.032029 -0.032264 3.000000
-0.466955 0.023784 0.045742 3.000000
-0.466955 0.019532 -0.064527 3.000000
-0.466955 -0.074749 0.040783 3.000000
-0.466955 0.069489 -0.035159 3.000000
-0.466955 -0.002304 0.093434 3.000000
-0.466955 0.016047 -0.033934 3.000000
-0.466955 -0.010300 0.080860 3.000000
-0.466955 -0.013457 0.089887 3.000000
-0.466955 0.049777 0.034435 3.000000
-0.466955 0.061044 -0.045157 3.000000
-0.466955 -0.041141 0.058662 3.000000
-0.466955 -0.055900 0.044724 3.000000
-0.466955 -0.081173 0.001485 3.000000
-0.466955 -0.073702 -0.043628 3.000000
-0.466955 0.064336 0.038097 3.000000
-0.466955 -0.076211 0.047247 3.000000
-0.466955 0.011464 0.022014 3.000000
-0.466955 0.060880 -0.006828 3.000000
-0.466955 0.062751 0.036673 3.000000
-0.466955 -0.090343 -0.001028 3.000000
-0.466955 0.097083 0.001417 3.000000
-0.466955 0.039327 0.007314 3.000000
-0.466955 -0.032151 -0.016135 3.000000
-0.466955 0.041043 0.059801 3.000000
-0.466955 -0.017530 0.093292 3.000000
-0.466955 0.063757 -0.009742 3.000000
-0.466955 0.022933 0.019931 3.000000
-0.466955 -0.023845 -0.090483 3.000000
-0.466955 0.045397 0.021728 3.000000
-0.466955 0.050535 0.072996 3.000000
-0.466955 0.004034 -0.038658 3.000000
-0.466955 0.008979 -0.020702 3.000000
-0.466955 -0.081703 -0.024912 3.000000
-0.466955 -0.070046 0.002133 3.000000
-0.466955 0.027246 0.063237 3.000000
-0.466955 -0.014952 0.023597 3.000000
-0.466955 0.037141 0.062453 3.000000
-0.466955 0.026020 -0.043637 3.000000
-0.466955 -0.010894 0.011650 3.000000
-0.466955 0.021384 0.002669 3.000000
-0.466955 0.033930 0.061306 3.000000
-0.466955 0.018139 -0.005735 3.000000
-0.466955 0.086599 0.001665 3.000000
-0.466955 0.052577 -0.080777 3.000000
-0.466955 -0.044192 0.034092 3.000000
-0.466955 0.024363 0.049530 3.000000
-0.466955 0.066446 0.054047 3.000000
-0.466955 0.033021 0.046764 3.000000
-0.466955 -0.019179 -0.014202 3.000000
-0.466955 -0.051679 0.005472 3.000000
-0.466955 0.010784 -0.014156 3.000000
-0.466955 0.077121 0.039004 3.000000
-0.466955 0.055857 -0.019360 3.000000
-0.466955 -0.055083 0.065641 3.000000
-0.466955 0.006659 0.090071 3.000000
-0.466955 0.002519 -0.001409 3.000000
-0.466955 -0.073837 -0.062678 3.000000
-0.466955 0.072444 -0.016607 3.000000
-0.466955 -0.075289 -0.025862 3.000000
-0.466955 -0.090495 0.006281 3.000000
-0.466955 0.073957 0.053048 3.000000
-0.466955 0.051759 0.052386 3.000000
-0.466955 -0.042788 -0.078659 3.000000
-0.466955 0.019834 0.027740 3.000000
-0.466955 0.082219 0.003437 3.000000
-0.466955 -0.093216 0.025869 3.000000
-0.466955 0.000164 -0.009132 3.000000
-0.466955 -0.048836 -0.063979 3.000000
-0.466955 0.085252 0.017228 3.000000
-0.466955 -0.061747 0.010998 3.000000
-0.466955 -0.015479 0.086357 3.000000
-0.466955 -0.018250 0.054415 3.000000
-0.466955 -0.075879 0.012544 3.000000
-0.466955 -0.033992 0.035394 3.000000
-0.466955 0.060150 -0.034730 3.000000
-0.466955 -0.076000 -0.057833 3.000000
-0.466955 -0.026000 -0.091526 3.000000
-0.466955 -0.073811 0.057285 3.000000
-0.466955 0.022889 0.076727 3.000000
-0.466955 0.041816 -0.029665 3.000000
-0.466955 -0.040930 0.032451 3.000000
-0.466955 0.022038 0.084436 3.000000
-0.466955 -0.050532 0.041455 3.000000
-0.466955 0.052414 -0.072443 3.000000
-0.466955 0.079144 0.022173 3.000000
-0.466955 0.075376 0.044984 3.000000
-0.466955 0.006633 0.054636 3.000000
-0.466955 -0.016821 0.076116 3.000000
