0.287086 0.010441 0.099490 1.000000
0.190073 -0.099126 0.011200 1.000000
-0.246959 -0.095947 -0.027024 1.000000
-0.080026 -0.078486 0.061743 1.000000
-0.410085 -0.042658 0.090439 1.000000
-0.230836 0.084902 -0.052586 1.000000
0.216243 -0.097252 0.022257 1.000000
0.435494 -0.002090 0.100001 2.000000
-0.022229 -0.099131 0.011152 1.000000
-0.416655 -0.074055 0.067022 1.000000
0.198837 0.046664 0.088516 1.000000
0.212530 -0.022173 0.097502 1.000000
0.363912 -0.081522 -0.057315 1.000000
0.241597 0.088626 0.046387 1.000000
-0.099262 -0.088934 0.045325 1.000000
-0.150473 0.086605 0.050069 1.000000
0.328311 0.001301 -0.099670 1.000000
-0.412071 0.095875 0.028439 1.000000
0.437000 0.031707 0.094921 2.000000
-0.216908 -0.041699 -0.090510 1.000000
0.155180 -0.032312 -0.094256 1.000000
0.116667 -0.007253 0.099769 1.000000
0.014048 0.060358 0.079807 1.000000
0.355626 -0.095506 -0.028541 1.000000
-0.347515 0.051771 0.085625 1.000000
-0.345253 0.007042 0.099811 1.000000
0.162138 -0.058678 0.080930 1.000000
0.102347 -0.085242 -0.051617 1.000000
-0.399875 -0.085383 0.051741 1.000000
-0.360129 -0.022718 -0.097018 1.000000
0.235158 0.084631 0.053407 1.000000
0.344128 -0.096112 -0.026456 1.000000
-0.318675 0.099550 0.009188 1.000000
0.340582 -0.090957 -0.040751 1.000000
-0.310661 -0.046563 -0.088086 1.000000
0.135363 0.036988 0.093012 1.000000
0.304984 0.058479 0.081231 1.000000
-0.320330 -0.077839 -0.062213 1.000000
-0.181035 0.045222 0.089251 1.000000
0.147848 0.085312 0.052257 1.000000
0.108117 0.088132 0.047357 1.000000
-0.216312 0.047528 0.088076 1.000000
-0.287365 -0.099587 -0.005703 1.000000
-0.320209 -0.098545 -0.015112 1.000000
-0.406830 0.074212 -0.066746 1.000000
0.032564 -0.099757 -0.000294 1.000000
-0.221882 0.093006 -0.036547 1.000000
-0.014734 -0.088818 0.045553 1.000000
0.248388 -0.099767 0.000338 1.000000
0.118763 -0.092929 -0.036113 1.000000
-0.392591 0.095149 -0.030572 1.000000
0.096162 -0.086665 -0.049211 1.000000
0.023776 0.090829 0.041949 1.000000
0.334716 -0.068322 -0.072574 1.000000
-0.135840 -0.056496 0.082420 1.000000
0.286081 0.095544 0.029576 1.000000
-0.427400 -0.046405 -0.088167 1.000000
0.240890 0.027263 -0.095899 1.000000
0.077778 -0.093199 -0.035364 1.000000
-0.055086 0.052289 0.085319 1.000000
0.394586 0.002510 0.099995 1.000000
0.124149 -0.053487 -0.084102 1.000000
-0.296359 -0.085182 0.052081 1.000000
0.170267 0.066335 -0.074538 1.000000
-0.070116 0.093724 0.034915 1.000000
0.243142 0.035833 0.093435 1.000000
0.398993 -0.035148 -0.093235 1.000000
0.090839 0.054582 0.083880 1.000000
0.408608 0.028972 0.095766 1.000000
0.140558 0.098407 0.017821 1.000000
-0.317506 -0.056982 0.082090 1.000000
0.008131 -0.009544 0.099553 1.000000
-0.461392 0.089787 0.044108 3.000000
-0.179512 -0.099340 0.008936 1.000000
0.052234 -0.045021 0.089235 1.000000
0.059101 0.083896 0.054528 1.000000
0.220966 0.090509 0.042688 1.000000
-0.376736 0.091565 -0.039885 1.000000
-0.310907 0.022234 -0.097178 1.000000
0.066610 0.071387 -0.069742 1.000000
-0.283693 0.099989 0.000707 1.000000
-0.079958 0.017122 0.098572 1.000000
-0.188573 0.010340 0.099499 1.000000
0.400078 0.064489 0.076529 1.000000
0.310075 0.097105 0.023957 1.000000
0.283421 0.018959 -0.097910 1.000000
-0.420957 -0.023528 0.097199 1.000000
0.351874 -0.070089 -0.070807 1.000000
-0.281398 0.099688 0.007722 1.000000
-0.384871 -0.031018 -0.094722 1.000000
-0.387847 0.047748 0.087964 1.000000
0.385822 -0.070187 -0.070709 1.000000
0.055785 0.099524 -0.009093 1.000000
0.064977 -0.031647 -0.094496 1.000000
0.219895 -0.040893 0.091221 1.000000
-0.254666 0.072802 -0.068328 1.000000
-0.300161 -0.031708 0.094836 1.000000
-0.343529 -0.097820 0.019716 1.000000
0.097532 -0.094786 0.031317 1.000000
0.045484 0.032031 0.094804 1.000000
0.256921 -0.087907 -0.046977 1.000000
-0.388921 0.098286 -0.018217 1.000000
0.431370 -0.099626 -0.004447 2.000000
-0.292644 0.092863 0.037249 1.000000
-0.179774 -0.011420 0.099375 1.000000
-0.225176 -0.063624 -0.076723 1.000000
-0.279443 0.031551 -0.094614 1.000000
-0.040223 -0.074282 -0.066402 1.000000
-0.222142 -0.099368 0.008645 1.000000
0.452051 0.061461 0.078952 2.000000
0.242156 -0.099616 -0.004789 1.000000
0.252653 0.093762 -0.034449 1.000000
0.057597 0.072239 -0.068890 1.000000
0.416052 0.084666 0.053348 1.000000
0.336072 0.032278 0.094715 1.000000
0.043596 -0.095249 0.029789 1.000000
0.232718 -0.092493 -0.037202 1.000000
-0.380174 -0.084604 0.053058 1.000000
0.021986 0.055092 -0.083171 1.000000
0.012658 -0.065893 -0.074723 1.000000
-0.303623 0.098594 -0.016274 1.000000
-0.091033 -0.082318 0.056505 1.000000
-0.217486 -0.084426 -0.052997 1.000000
0.100735 -0.049076 -0.086718 1.000000
0.081228 -0.069421 -0.071475 1.000000
0.188377 -0.087639 0.047866 1.000000
0.166039 -0.099736 -0.000975 1.000000
0.306433 -0.096507 0.025460 1.000000
-0.139683 0.022032 0.097586 1.000000
0.430482 0.099968 -0.001013 2.000000
-0.306761 0.090430 -0.042484 1.000000
0.034859 0.042934 0.090417 1.000000
0.022602 -0.066200 -0.074452 1.000000
0.343945 0.053612 -0.084173 1.000000
-0.162994 0.073803 -0.067209 1.000000
0.304643 0.082212 -0.056643 1.000000
0.231731 0.082300 -0.056513 1.000000
0.402496 0.041559 0.091034 1.000000
0.302160 0.078505 -0.061656 1.000000
0.291557 -0.004579 0.099922 1.000000
-0.153380 -0.098237 0.017418 1.000000
0.465114 0.024833 0.096960 2.000000
0.173079 0.099505 0.009660 1.000000
0.242903 0.071070 -0.070060 1.000000
0.006319 0.014443 0.098996 1.000000
0.352615 0.024700 -0.096627 1.000000
0.280965 -0.093316 0.035401 1.000000
0.328825 -0.008237 0.099676 1.000000
0.212464 0.015032 -0.098540 1.000000
-0.394551 0.083998 -0.054014 1.000000
-0.400325 0.003311 -0.099607 1.000000
-0.181185 -0.094595 0.031848 1.000000
-0.331671 0.098999 0.014080 1.000000
0.419303 -0.081871 0.057164 2.000000
-0.214899 0.090915 0.041750 1.000000
0.180512 0.099754 -0.006666 1.000000
0.251219 0.046457 0.088622 1.000000
-0.029838 -0.050175 0.086431 1.000000
0.075367 0.024609 0.097010 1.000000
0.360442 0.026506 0.096482 1.000000
0.185571 -0.081575 0.057600 1.000000
0.108587 -0.013778 0.099064 1.000000
0.438815 0.090124 0.043447 2.000000
-0.327071 -0.017714 -0.098078 1.000000
-0.076270 0.007960 -0.099362 1.000000
-0.436424 -0.097388 0.021647 3.000000
-0.291514 -0.084465 -0.052930 1.000000
0.410633 0.020709 -0.097519 1.000000
0.210033 0.048010 0.087831 1.000000
0.319638 0.090451 -0.042443 1.000000
0.241785 -0.072010 -0.068886 1.000000
0.310867 -0.054234 -0.083595 1.000000
-0.394426 0.033556 -0.093892 1.000000
0.397122 0.008317 0.099691 1.000000
0.263437 -0.056416 -0.082112 1.000000
-0.020518 0.058942 0.080906 1.000000
0.022124 -0.071853 -0.069043 1.000000
0.176167 -0.099578 0.006368 1.000000
0.167323 0.097406 0.022612 1.000000
0.424058 0.097421 -0.022181 1.000000
0.005665 -0.033808 -0.093717 1.000000
-0.240118 -0.030893 0.095130 1.000000
-0.085091 -0.064695 -0.075779 1.000000
-0.373278 0.059169 -0.080367 1.000000
0.203132 -0.081713 -0.057034 1.000000
0.071600 0.051538 -0.085400 1.000000
0.262858 -0.099378 0.008539 1.000000
0.213199 -0.078701 0.061465 1.000000
0.218792 0.078514 0.062007 1.000000
0.142497 0.043817 -0.089604 1.000000
0.204997 0.034449 -0.093571 1.000000
-0.163490 0.061858 -0.078281 1.000000
0.368497 -0.083462 0.054822 1.000000
0.464144 -0.097074 -0.022691 2.000000
0.194419 -0.094572 0.031913 1.000000
-0.343600 0.090472 0.042765 1.000000
-0.111714 0.094134 0.033777 1.000000
-0.108516 0.051979 0.085503 1.000000
-0.343924 -0.052492 0.085061 1.000000
-0.046776 0.088058 -0.047139 1.000000
-0.355783 0.069104 -0.072026 1.000000
-0.137298 0.069469 0.072023 1.000000
-0.018296 0.097196 0.023551 1.000000
0.435788 0.093672 -0.034698 2.000000
-0.209183 -0.071559 0.069699 1.000000
-0.285566 0.066665 0.074611 1.000000
0.175432 -0.098718 0.014385 1.000000
-0.243959 -0.013237 -0.098787 1.000000
-0.269462 0.038057 -0.092187 1.000000
0.018356 -0.065314 0.075596 1.000000
-0.219311 -0.076776 -0.063573 1.000000
-0.439379 0.022186 0.097551 3.000000
0.359638 0.092247 -0.038308 1.000000
0.108153 -0.099700 0.002474 1.000000
0.117286 0.095028 0.031294 1.000000
0.462434 0.097069 -0.023759 2.000000
0.196446 -0.057424 0.081790 1.000000
-0.296021 -0.014034 0.099024 1.000000
-0.400412 -0.050624 0.086165 1.000000
-0.304402 0.038592 0.092318 1.000000
-0.419328 -0.048603 0.087361 1.000000
0.108144 0.064677 0.076363 1.000000
0.143168 0.096207 -0.026933 1.000000
-0.434194 -0.099611 -0.004935 3.000000
-0.241926 -0.099622 0.004947 1.000000
0.205094 -0.094986 0.030696 1.000000
-0.170449 0.042157 -0.090412 1.000000
0.137394 0.063308 -0.077157 1.000000
-0.241191 -0.086691 -0.049167 1.000000
0.001940 0.002143 0.100006 1.000000
-0.285188 0.028403 0.095931 1.000000
-0.440938 -0.022244 -0.097124 3.000000
0.321840 0.039233 -0.091678 1.000000
-0.184352 -0.083504 0.054762 1.000000
-0.450399 0.074987 -0.065866 3.000000
0.131223 -0.074229 -0.066462 1.000000
-0.343001 0.083619 -0.054572 1.000000
0.236943 0.053373 -0.084315 1.000000
0.251104 0.033457 0.094291 1.000000
0.229127 -0.037988 0.092479 1.000000
-0.280441 0.097686 0.021359 1.000000
-0.266616 0.084773 -0.052804 1.000000
-0.092461 0.056887 0.082313 1.000000
0.229462 0.010136 0.099519 1.000000
0.302513 0.054276 -0.083725 1.000000
-0.160318 0.024549 0.097023 1.000000
-0.466879 0.088166 -0.046928 3.000000
0.334498 0.000041 -0.099705 1.000000
0.217657 0.073556 -0.067490 1.000000
-0.255615 0.077649 -0.062759 1.000000
0.161035 0.021185 -0.097412 1.000000
0.350004 0.076965 -0.063622 1.000000
0.050067 0.075399 -0.065400 1.000000
-0.027677 0.012875 0.099245 1.000000
-0.308841 0.076207 0.064846 1.000000
-0.370175 -0.023303 -0.096887 1.000000
0.254797 -0.081581 -0.057227 1.000000
-0.194877 0.011464 0.099393 1.000000
-0.298429 -0.051283 0.085776 1.000000
0.417547 0.093583 -0.034945 1.000000
-0.097750 0.057209 -0.081732 1.000000
0.081517 0.087833 -0.047581 1.000000
-0.327369 0.071553 0.069939 1.000000
-0.199887 -0.077963 0.062416 1.000000
0.368532 -0.070896 -0.070000 1.000000
-0.180637 -0.074496 -0.066159 1.000000
-0.196330 -0.085552 0.051456 1.000000
-0.246022 -0.099132 -0.010776 1.000000
-0.344516 -0.098785 0.013956 1.000000
-0.028978 0.066857 -0.074078 1.000000
0.077858 0.026589 -0.096095 1.000000
0.317812 -0.020726 -0.097463 1.000000
0.140350 -0.098771 -0.013686 1.000000
-0.070079 0.089306 0.045053 1.000000
-0.170166 -0.017017 0.098551 1.000000
0.389215 0.042291 -0.090355 1.000000
-0.405191 -0.098205 0.017620 1.000000
0.411502 0.054044 -0.083882 1.000000
-0.114627 0.002349 -0.099637 1.000000
-0.182069 -0.057485 0.081748 1.000000
-0.062267 -0.099702 -0.002036 1.000000
-0.076198 0.078814 -0.061257 1.000000
0.374760 0.092867 -0.036877 1.000000
-0.019805 0.068610 -0.072520 1.000000
-0.167346 -0.048041 0.087693 1.000000
-0.340360 -0.087132 0.048783 1.000000
-0.180514 0.021132 0.097787 1.000000
0.240369 0.099962 0.001543 1.000000
0.016794 -0.001541 -0.099655 1.000000
-0.151316 -0.099667 0.003513 1.000000
0.160371 0.093320 -0.035674 1.000000
-0.080926 -0.096526 -0.025032 1.000000
0.063791 -0.074017 -0.066702 1.000000
-0.039300 -0.095314 -0.029201 1.000000
0.238442 0.099485 -0.009513 1.000000
-0.438949 0.049616 0.086899 3.000000
0.124671 0.099872 0.004407 1.000000
0.353871 -0.027244 -0.095837 1.000000
0.298511 -0.087803 -0.047182 1.000000
-0.009248 0.075559 -0.065217 1.000000
0.140303 0.095526 0.029638 1.000000
0.101395 -0.092209 -0.037857 1.000000
-0.284516 -0.091415 -0.039691 1.000000
0.160521 -0.029221 -0.095263 1.000000
-0.037253 0.094385 0.033081 1.000000
-0.432571 -0.081453 0.057779 3.000000
-0.388597 0.072263 -0.068866 1.000000
-0.256000 0.088975 -0.045339 1.000000
-0.089577 0.042450 -0.090286 1.000000
0.118194 -0.049397 -0.086528 1.000000
0.274350 -0.086175 0.050402 1.000000
-0.178420 0.097558 0.021931 1.000000
-0.118236 0.083009 -0.055470 1.000000
0.202733 0.067458 0.073911 1.000000
-0.148386 -0.091577 -0.039319 1.000000
0.430863 -0.013925 -0.098678 1.000000
0.250038 0.080716 0.059168 1.000000
-0.082864 0.032557 0.094615 1.000000
-0.212734 0.099983 -0.000517 1.000000
0.135067 0.026713 -0.096059 1.000000
0.379604 0.099914 0.003080 1.000000
0.257681 -0.026022 -0.096192 1.000000
-0.322932 0.033742 -0.093825 1.000000
-0.183581 -0.091716 -0.038996 1.000000
-0.345157 -0.093647 -0.034119 1.000000
0.275919 0.046072 0.088818 1.000000
-0.460374 0.092924 0.037106 3.000000
-0.331494 0.082072 -0.056848 1.000000
0.455756 -0.077757 -0.062320 2.000000
0.185597 0.035615 -0.093151 1.000000
0.145866 -0.093954 -0.033267 1.000000
-0.452350 -0.042703 0.090416 3.000000
-0.393616 -0.023809 0.097136 1.000000
-0.391919 0.088303 -0.046658 1.000000
-0.271748 0.013254 0.099184 1.000000
0.039829 0.018962 0.098272 1.000000
0.049819 0.095799 0.028698 1.000000
0.038059 -0.065914 0.075067 1.000000
0.318770 0.096603 0.025933 1.000000
0.122653 0.077539 -0.062901 1.000000
-0.406172 0.095850 -0.028162 1.000000
-0.295872 -0.056589 0.082357 1.000000
-0.378974 -0.079707 -0.059806 1.000000
-0.160991 -0.004128 0.099937 1.000000
-0.291206 -0.099576 0.006408 1.000000
0.316301 0.065112 0.075979 1.000000
0.362739 -0.016999 -0.098192 1.000000
-0.240684 -0.067405 0.073752 1.000000
0.219352 -0.033489 -0.093832 1.000000
0.307215 0.086966 0.049459 1.000000
0.272148 -0.098052 0.018586 1.000000
0.329209 0.037188 -0.092563 1.000000
-0.230078 0.098876 0.014860 1.000000
-0.009559 0.094318 -0.032903 1.000000
-0.131374 0.099865 0.004652 1.000000
0.149599 -0.041745 -0.090490 1.000000
0.062443 0.022865 0.097400 1.000000
-0.271290 0.035535 0.093543 1.000000
0.142456 0.079005 0.061374 1.000000
0.290244 -0.094685 -0.031237 1.000000
-0.346855 0.096796 0.025268 1.000000
0.361608 0.071308 0.070185 1.000000
-0.294700 -0.098334 -0.016446 1.000000
-0.039188 0.004113 -0.099582 1.000000
-0.031105 0.096834 -0.024775 1.000000
-0.306638 0.081020 0.058760 1.000000
-0.234672 0.025100 0.096891 1.000000
-0.022708 0.033802 0.094166 1.000000
-0.039000 -0.099739 0.001215 1.000000
-0.335799 0.097225 -0.023059 1.000000
-0.349073 0.042785 -0.090130 1.000000
0.259864 0.061789 0.078697 1.000000
0.312452 0.071247 0.070245 1.000000
-0.439913 0.005301 -0.099544 3.000000
-0.322407 -0.067744 -0.073091 1.000000
0.302536 -0.059627 -0.079831 1.000000
0.117551 0.069665 0.071828 1.000000
-0.319175 0.091261 0.040950 1.000000
0.098337 0.095876 0.028434 1.000000
0.077698 0.015222 0.098873 1.000000
0.447475 0.080788 -0.058712 2.000000
-0.344434 -0.006003 0.099878 1.000000
0.254718 -0.016547 0.098626 1.000000
-0.064485 0.095888 -0.028032 1.000000
-0.162386 -0.090772 -0.041178 1.000000
-0.130217 -0.011174 -0.099036 1.000000
-0.356458 0.054614 0.083858 1.000000
-0.222244 0.077644 0.063128 1.000000
-0.359582 0.047930 0.087872 1.000000
-0.209513 0.079994 0.060099 1.000000
-0.414615 -0.060308 -0.079303 1.000000
-0.069742 0.068849 -0.072281 1.000000
-0.377359 0.072485 0.069007 1.000000
-0.093417 0.062351 0.078261 1.000000
-0.192573 0.089313 -0.044675 1.000000
0.198150 0.006405 -0.099509 1.000000
0.367563 -0.057627 0.081652 1.000000
-0.108990 0.095668 -0.028786 1.000000
0.212583 -0.096879 -0.023564 1.000000
0.315944 -0.097632 0.020555 1.000000
0.431357 0.045346 -0.088825 1.000000
0.086497 -0.054919 0.083492 1.000000
-0.189099 -0.062981 0.077592 1.000000
0.116484 -0.062782 -0.077383 1.000000
-0.403246 0.038493 0.092361 1.000000
0.016211 0.014305 -0.098655 1.000000
0.457082 0.099073 0.013616 2.000000
-0.327486 -0.051711 0.085523 1.000000
-0.145456 0.030061 -0.095086 1.000000
0.216071 0.095293 0.030440 1.000000
-0.247140 0.009068 -0.099257 1.000000
0.180100 0.096958 -0.024254 1.000000
-0.207477 0.027319 0.096246 1.000000
0.251638 -0.049218 0.086997 1.000000
-0.270671 -0.097441 0.021410 1.000000
-0.383890 -0.015277 0.098827 1.000000
-0.060053 0.037144 0.092945 1.000000
-0.168404 -0.057976 -0.081052 1.000000
-0.321445 -0.004737 -0.099555 1.000000
0.211688 -0.039393 0.091870 1.000000
-0.148784 0.079042 0.061326 1.000000
0.016110 -0.069372 -0.071524 1.000000
-0.053208 -0.052203 -0.084869 1.000000
-0.246799 0.025067 -0.096537 1.000000
-0.259999 -0.048912 0.087178 1.000000
0.012260 0.054252 -0.083741 1.000000
0.354702 -0.081161 -0.057846 1.000000
0.250985 0.006824 0.099832 1.000000
-0.238272 0.011543 0.099386 1.000000
-0.417947 0.089692 -0.043931 1.000000
0.161711 0.085163 0.052508 1.000000
-0.428413 -0.098433 0.016182 3.000000
-0.245437 0.087399 0.048726 1.000000
-0.402788 -0.098657 -0.014407 1.000000
-0.078972 -0.062492 -0.077608 1.000000
-0.003409 0.071778 -0.069352 1.000000
0.231112 -0.019703 -0.097691 1.000000
0.396359 0.098682 0.016081 1.000000
0.108126 0.002749 0.099987 1.000000
-0.063503 0.034166 -0.093673 1.000000
-0.337965 0.085823 -0.051029 1.000000
0.347986 0.035867 0.093423 1.000000
0.260240 -0.001367 -0.099661 1.000000
0.174737 -0.028509 0.095832 1.000000
0.243897 -0.095531 -0.028454 1.000000
0.086531 0.028511 -0.095537 1.000000
-0.450545 0.096192 0.027348 3.000000
-0.256591 0.092972 -0.036633 1.000000
0.177873 -0.074135 0.066931 1.000000
-0.094984 0.015887 0.098767 1.000000
-0.328815 0.054718 0.083787 1.000000
-0.420665 -0.080941 0.058532 1.000000
0.432773 -0.099708 0.002215 2.000000
0.238725 0.019720 -0.097740 1.000000
0.274332 -0.081806 0.057259 1.000000
0.399494 0.093905 -0.034050 1.000000
0.187937 -0.041705 -0.090507 1.000000
0.273620 0.093729 -0.034540 1.000000
0.275865 0.091366 0.040707 1.000000
-0.362538 0.092976 -0.036625 1.000000
-0.044855 -0.099255 0.009840 1.000000
-0.370732 -0.074099 0.066972 1.000000
0.282365 -0.097349 0.021823 1.000000
0.073870 -0.092842 0.036717 1.000000
0.346187 -0.089211 -0.044417 1.000000
0.393445 -0.062910 0.077647 1.000000
-0.215069 -0.035781 0.093370 1.000000
-0.070182 0.032233 -0.094369 1.000000
0.042506 -0.099220 -0.009849 1.000000
0.207617 -0.052885 0.084828 1.000000
0.034351 0.099958 0.001670 1.000000
0.276975 0.098901 0.014699 1.000000
-0.380303 -0.098331 0.016824 1.000000
-0.034000 0.089879 0.043928 1.000000
0.090139 0.087676 -0.047888 1.000000
-0.313175 -0.053484 -0.084105 1.000000
0.116846 -0.090342 -0.042172 1.000000
0.408386 0.063349 0.077487 1.000000
0.201425 0.061177 -0.078809 1.000000
0.006006 0.091300 0.040861 1.000000
-0.045773 -0.074003 0.067080 1.000000
0.404177 -0.076079 -0.064363 1.000000
-0.240454 0.000291 -0.099702 1.000000
-0.001490 0.028781 0.095821 1.000000
-0.217621 0.080556 0.059375 1.000000
0.314567 -0.003228 -0.099602 1.000000
-0.364164 -0.018316 0.098346 1.000000
0.257760 0.031877 -0.094497 1.000000
0.175486 -0.094204 -0.032572 1.000000
-0.425056 0.014921 -0.098558 1.000000
-0.225691 0.086059 0.050993 1.000000
-0.021577 -0.059647 0.080178 1.000000
0.132911 0.096271 -0.026712 1.000000
-0.313803 0.070248 0.071245 1.000000
0.307025 -0.002873 -0.099613 1.000000
-0.218049 0.022252 0.097537 1.000000
0.164844 -0.085380 -0.051383 1.000000
-0.031003 -0.069000 0.072259 1.000000
0.346628 0.096747 -0.025072 1.000000
-0.358647 -0.054932 0.083483 1.000000
0.454133 0.081012 0.058772 2.000000
0.051026 0.097598 -0.021392 1.000000
-0.013931 0.001363 0.100031 1.000000
0.432047 0.016360 0.098693 2.000000
-0.138042 -0.058541 -0.080668 1.000000
-0.355391 -0.015941 -0.098359 1.000000
0.083263 0.083132 0.055651 1.000000
0.008117 -0.053728 0.084302 1.000000
0.413848 0.070051 0.071441 1.000000
0.334995 -0.081051 -0.058007 1.000000
-0.031839 -0.095560 -0.028355 1.000000
-0.409349 0.099868 -0.004181 1.000000
-0.014297 0.096987 -0.024125 1.000000
0.299537 -0.099273 0.009646 1.000000
-0.058751 -0.053459 0.084485 1.000000
0.070046 -0.069762 0.071496 1.000000
-0.040008 -0.098026 -0.018387 1.000000
0.445791 0.092613 -0.037463 2.000000
0.275061 -0.057667 0.081625 1.000000
-0.006026 0.029527 -0.095242 1.000000
0.125576 -0.022502 -0.097066 1.000000
-0.293630 0.019866 0.098070 1.000000
0.140036 0.053013 0.084891 1.000000
0.301212 0.028161 0.096001 1.000000
0.420785 0.077544 -0.062895 1.000000
-0.341520 0.053519 -0.084229 1.000000
0.021888 -0.021760 -0.097232 1.000000
0.407868 -0.026178 0.096510 1.000000
0.163312 0.047383 -0.087787 1.000000
0.260947 0.082327 0.056836 1.000000
-0.382118 -0.096856 -0.023667 1.000000
-0.168712 -0.096575 -0.024861 1.000000
-0.211358 0.093600 0.035260 1.000000
-0.347008 0.099764 0.006915 1.000000
0.318713 0.090890 0.041808 1.000000
-0.126794 0.096855 -0.024702 1.000000
0.020991 0.022739 0.097428 1.000000
0.008076 0.003449 -0.099602 1.000000
0.215473 0.036992 -0.092648 1.000000
-0.373143 -0.064120 -0.076286 1.000000
-0.324751 0.066334 0.074902 1.000000
0.410642 0.098542 -0.016604 1.000000
0.235483 -0.014511 -0.098586 1.000000
-0.451584 -0.099338 0.008962 3.000000
0.428327 0.057929 0.081605 2.000000
-0.032074 -0.010941 0.099420 1.000000
-0.119807 -0.032352 -0.094242 1.000000
-0.144994 -0.099738 -0.000902 1.000000
-0.422829 0.057219 0.082088 1.000000
-0.415488 -0.076546 -0.063834 1.000000
0.264758 -0.087235 -0.048246 1.000000
-0.035417 0.082992 0.055858 1.000000
-0.255486 0.063802 -0.076772 1.000000
-0.237854 -0.048221 0.087587 1.000000
-0.007954 -0.063205 -0.077056 1.000000
0.397774 0.030548 0.095308 1.000000
0.093315 -0.044007 -0.089389 1.000000
0.388632 -0.011775 0.099342 1.000000
-0.220267 0.043457 -0.089788 1.000000
-0.106442 -0.099674 0.003293 1.000000
-0.291270 0.060606 0.079615 1.000000
-0.345601 0.098591 -0.016292 1.000000
-0.003415 -0.095150 0.030130 1.000000
0.072331 0.091239 -0.040639 1.000000
-0.267914 -0.059438 0.080340 1.000000
0.274946 -0.069426 -0.071470 1.000000
-0.421383 -0.088598 0.045984 3.000000
-0.128690 -0.082292 -0.056182 1.000000
-0.174919 -0.055807 0.082889 1.000000
0.032668 0.030666 0.095274 1.000000
-0.051763 -0.094118 0.033172 1.000000
0.159605 -0.098967 -0.012445 1.000000
-0.017219 0.071218 0.070274 1.000000
0.276578 0.054718 0.083788 1.000000
-0.216255 -0.015828 0.098740 1.000000
0.388793 -0.091037 0.040929 1.000000
0.087653 -0.071604 -0.069292 1.000000
0.179169 0.039029 -0.091766 1.000000
-0.224703 -0.077385 0.063161 1.000000
0.174541 -0.064884 0.075975 1.000000
-0.352595 -0.065478 0.075451 1.000000
0.291252 0.098055 0.019710 1.000000
0.198699 -0.085631 -0.050960 1.000000
0.126195 -0.011942 0.099326 1.000000
0.233062 -0.080925 -0.058193 1.000000
0.413389 -0.074165 0.066897 2.000000
-0.238506 0.063996 -0.076601 1.000000
-0.051465 -0.098996 0.012576 1.000000
-0.320338 0.074233 0.067085 1.000000
0.104536 0.083023 -0.055450 1.000000
-0.412185 0.071674 -0.069455 1.000000
0.037031 -0.007495 -0.099383 1.000000
0.272457 0.059117 0.080770 1.000000
-0.199231 0.005859 0.099890 1.000000
-0.106637 0.099849 -0.004777 1.000000
0.448747 0.014194 -0.098673 2.000000
0.236655 0.080304 -0.059336 1.000000
-0.189919 0.000131 -0.099707 1.000000
0.071138 -0.093735 -0.033875 1.000000
-0.152188 -0.005292 0.099900 1.000000
0.398086 -0.048936 0.087164 1.000000
-0.318391 0.022667 -0.097081 1.000000
-0.430193 -0.066522 0.074531 3.000000
0.444146 0.022915 0.097389 2.000000
-0.123384 0.086970 0.049452 1.000000
-0.360309 -0.099663 -0.003283 1.000000
0.287403 -0.019031 -0.097842 1.000000
0.004312 -0.018171 -0.098006 1.000000
-0.004173 0.059975 -0.079742 1.000000
-0.068982 -0.035713 -0.093032 1.000000
-0.374866 0.032120 0.094772 1.000000
-0.078607 0.096375 -0.026353 1.000000
-0.204752 -0.087995 -0.046804 1.000000
0.269494 -0.065651 -0.074936 1.000000
-0.103454 -0.081736 0.057363 1.000000
0.008523 0.036207 0.093301 1.000000
-0.270555 -0.096904 -0.023450 1.000000
0.399877 -0.066457 0.074588 1.000000
0.182173 -0.028716 0.095772 1.000000
-0.410065 -0.020410 -0.097533 1.000000
-0.397804 -0.099498 -0.006907 1.000000
0.374043 0.024512 -0.096669 1.000000
0.344255 0.061808 0.078683 1.000000
-0.019485 -0.081488 0.057727 1.000000
-0.253994 0.096830 0.025149 1.000000
0.274427 -0.091517 0.039819 1.000000
-0.097239 -0.023661 -0.096807 1.000000
-0.006733 0.039437 0.091952 1.000000
0.342753 0.091701 -0.039570 1.000000
0.056367 0.014376 -0.098644 1.000000
-0.097471 0.062321 -0.077922 1.000000
-0.057424 0.084675 -0.052970 1.000000
-0.246269 -0.030264 -0.094960 1.000000
0.353515 -0.081605 0.057555 1.000000
-0.133192 0.094933 0.031559 1.000000
-0.286510 0.097914 0.020337 1.000000
0.171461 -0.070479 0.070779 1.000000
-0.267727 -0.010512 -0.099098 1.000000
-0.361787 -0.075225 0.065694 1.000000
0.184329 -0.099765 0.000398 1.000000
-0.417140 0.088636 0.046366 1.000000
-0.441260 -0.098241 -0.017030 3.000000
0.450258 -0.099598 -0.005345 2.000000
0.090953 0.021764 -0.097283 1.000000
0.162208 0.059032 -0.080473 1.000000
-0.084203 0.007796 0.099740 1.000000
0.163358 -0.086637 0.049621 1.000000
-0.444351 -0.060936 0.079178 3.000000
0.435090 0.072771 -0.068359 1.000000
0.041050 -0.047378 -0.087671 1.000000
0.252727 -0.049870 -0.086248 1.000000
-0.165132 0.097697 0.021311 1.000000
0.280736 0.099994 0.000548 1.000000
-0.071284 0.058864 -0.080603 1.000000
-0.036003 0.071867 -0.069262 1.000000
-0.287968 0.077066 0.063871 1.000000
-0.253918 -0.058679 0.080929 1.000000
0.370753 -0.083334 -0.054648 1.000000
0.213478 0.093004 0.036915 1.000000
-0.099175 -0.039461 -0.091478 1.000000
-0.065844 0.044397 -0.089309 1.000000
0.304164 -0.031275 0.094992 1.000000
0.155037 -0.075541 -0.064973 1.000000
0.308819 -0.091527 0.039797 1.000000
0.259096 0.096469 -0.026030 1.000000
-0.236454 0.092550 0.037972 1.000000
-0.366497 -0.056606 0.082346 1.000000
-0.175685 0.099713 -0.007096 1.000000
0.306955 -0.016465 -0.098276 1.000000
0.169720 0.062578 0.078086 1.000000
-0.196870 0.099802 -0.006154 1.000000
-0.079741 0.061791 -0.078333 1.000000
-0.220067 -0.022526 -0.097061 1.000000
0.417624 -0.011178 -0.099035 1.000000
0.219449 0.054078 0.084222 1.000000
0.177336 0.089481 0.044709 1.000000
0.373725 0.093524 0.035472 1.000000
-0.023390 0.063579 0.077309 1.000000
-0.145611 -0.036454 -0.092765 1.000000
-0.099241 -0.036519 0.093104 1.000000
0.282584 0.004122 0.099944 1.000000
-0.424350 0.037121 0.092955 1.000000
-0.179285 -0.063468 -0.076851 1.000000
-0.329741 0.036990 -0.092649 1.000000
-0.328530 -0.092693 0.037100 1.000000
-0.340076 -0.099586 0.006083 1.000000
-0.462015 0.023421 -0.096913 3.000000
0.425723 0.093230 0.036289 1.000000
0.117693 -0.043580 0.089969 1.000000
0.034729 -0.091574 0.039687 1.000000
-0.003132 0.090949 -0.041307 1.000000
0.261113 -0.099546 -0.006394 1.000000
0.014805 -0.093189 -0.035390 1.000000
-0.350351 0.010569 -0.099115 1.000000
0.153281 0.092250 -0.038301 1.000000
0.091351 -0.007348 -0.099397 1.000000
0.253487 -0.000041 -0.099702 1.000000
0.350464 -0.064281 -0.076143 1.000000
0.065828 0.091229 -0.040661 1.000000
0.392921 0.099582 0.008841 1.000000
0.098045 0.097851 0.020621 1.000000
-0.407195 -0.075211 0.065711 1.000000
0.128032 -0.097303 -0.021664 1.000000
0.213257 -0.001715 0.100012 1.000000
0.166766 -0.028346 -0.095517 1.000000
-0.405046 0.047640 0.088019 1.000000
0.029142 0.097751 0.021070 1.000000
-0.124273 0.099988 -0.000355 1.000000
0.199592 0.099896 0.003657 1.000000
0.208492 -0.090644 -0.041473 1.000000
-0.028539 -0.095324 0.029531 1.000000
-0.288926 0.064798 -0.075894 1.000000
0.208460 0.097787 -0.020545 1.000000
0.421742 -0.011906 0.099329 2.000000
0.432004 -0.023843 -0.096766 1.000000
0.422187 -0.074361 0.066675 2.000000
-0.141931 0.098067 0.019653 1.000000
0.217188 -0.098591 -0.014822 1.000000
0.424666 -0.072659 -0.068237 1.000000
0.253455 0.047400 -0.087779 1.000000
0.375875 0.099463 -0.009741 1.000000
0.451240 0.099600 -0.008294 2.000000
-0.405389 -0.033926 0.094038 1.000000
0.040058 0.084281 -0.053599 1.000000
0.128554 -0.087226 -0.048262 1.000000
-0.222294 0.098102 -0.019136 1.000000
0.134810 -0.016020 0.098709 1.000000
0.207591 0.052343 -0.084924 1.000000
-0.462101 0.098601 0.016591 3.000000
-0.384974 -0.002267 0.099995 1.000000
0.144945 0.099771 -0.006483 1.000000
0.437270 0.095777 -0.028412 2.000000
-0.198265 -0.088906 0.045380 1.000000
0.227777 0.069437 -0.071692 1.000000
0.360344 0.086069 -0.050614 1.000000
0.267723 0.083197 -0.055193 1.000000
-0.349682 -0.010820 0.099432 1.000000
0.073919 0.030215 0.095404 1.000000
0.049579 0.078777 0.061668 1.000000
0.265920 -0.098693 -0.014175 1.000000
0.433423 0.003286 -0.099608 1.000000
0.124225 0.099539 -0.008938 1.000000
-0.180292 0.099849 0.005168 1.000000
0.230758 -0.098630 -0.014577 1.000000
-0.168294 -0.042145 0.090679 1.000000
-0.298618 0.098775 0.015497 1.000000
-0.331369 -0.004855 -0.099551 1.000000
-0.129836 0.024189 0.097104 1.000000
-0.059350 0.005731 0.099894 1.000000
-0.301085 0.091282 0.040901 1.000000
0.169373 0.074436 -0.066491 1.000000
-0.125337 -0.078148 -0.061815 1.000000
0.222539 0.014101 0.099050 1.000000
0.018424 -0.057207 -0.081574 1.000000
0.395492 -0.098126 -0.017758 1.000000
-0.405895 -0.055816 -0.082519 1.000000
0.417274 -0.017058 0.098545 2.000000
0.436879 0.049311 0.087080 2.000000
0.131572 0.096264 0.027097 1.000000
0.430340 -0.043249 -0.089775 1.000000
0.404757 -0.083221 0.055177 1.000000
-0.053001 0.090605 -0.042103 1.000000
-0.432575 -0.027545 0.096112 3.000000
0.387506 -0.075758 0.065090 1.000000
-0.211768 -0.008348 0.099666 1.000000
-0.021850 -0.099582 -0.005848 1.000000
0.287315 0.001058 -0.099678 1.000000
-0.275487 0.099456 0.010182 1.000000
0.304162 0.061241 -0.078760 1.000000
-0.059618 0.097065 -0.023776 1.000000
-0.350792 0.048354 -0.087283 1.000000
0.318687 0.074214 -0.066743 1.000000
-0.072787 0.083536 -0.054694 1.000000
-0.397928 -0.099772 0.000188 1.000000
0.310073 0.009318 0.099596 1.000000
0.370710 0.098971 -0.013897 1.000000
0.203863 0.042165 0.090772 1.000000
0.377161 0.098523 0.017087 1.000000
-0.192998 0.002778 0.099986 1.000000
0.155180 -0.066154 0.074856 1.000000
-0.265257 0.064860 -0.075839 1.000000
-0.098851 0.023824 -0.096822 1.000000
0.315164 -0.009318 -0.099211 1.000000
-0.381279 0.050765 -0.085857 1.000000
0.091806 -0.078253 0.062043 1.000000
0.246271 -0.006970 0.099796 1.000000
0.156072 -0.060461 -0.079184 1.000000
0.442317 0.041024 0.091266 2.000000
-0.112366 0.052350 -0.084920 1.000000
-0.424824 -0.028294 0.095895 1.000000
-0.254492 -0.097716 0.020179 1.000000
-0.182706 0.039641 -0.091501 1.000000
0.082049 0.099881 0.004149 1.000000
-0.352396 0.099511 0.009598 1.000000
0.347122 0.066239 -0.074624 1.000000
-0.277395 -0.080050 0.059725 1.000000
0.049767 -0.065238 0.075663 1.000000
-0.021528 -0.033363 -0.093878 1.000000
-0.126686 -0.053523 0.084441 1.000000
-0.198639 -0.091593 -0.039280 1.000000
-0.178876 -0.043479 0.090020 1.000000
-0.311558 -0.099600 -0.005276 1.000000
0.201108 -0.029011 -0.095324 1.000000
-0.261212 -0.085386 -0.051373 1.000000
-0.232952 -0.066992 -0.073753 1.000000
-0.154487 0.097973 -0.019711 1.000000
-0.193679 -0.015071 -0.098497 1.000000
0.139089 -0.074987 -0.065601 1.000000
-0.307980 0.097082 -0.023699 1.000000
0.130089 -0.094434 0.032297 1.000000
0.397876 0.037382 0.092842 1.000000
-0.122102 -0.025070 -0.096469 1.000000
-0.183538 -0.041303 -0.090681 1.000000
0.142048 0.090915 0.041749 1.000000
0.323077 -0.010180 0.099492 1.000000
0.141091 0.082574 -0.056110 1.000000
0.276783 0.066277 -0.074590 1.000000
0.011258 -0.096673 -0.024484 1.000000
-0.097192 -0.095783 -0.027590 1.000000
-0.452304 -0.099312 -0.008869 3.000000
-0.324842 0.099872 0.004405 1.000000
-0.406339 0.066767 0.074521 1.000000
0.055816 -0.086701 0.049513 1.000000
-0.229671 0.061909 0.078604 1.000000
0.154138 0.094493 -0.032418 1.000000
0.093402 -0.097476 0.021254 1.000000
-0.155222 -0.061132 0.079026 1.000000
0.307381 -0.069998 -0.070898 1.000000
-0.225700 0.014484 -0.098627 1.000000
-0.440425 0.089571 0.044533 3.000000
-0.288550 0.096105 -0.027283 1.000000
-0.373072 0.049637 0.086887 1.000000
-0.451825 -0.070855 0.070403 3.000000
0.023405 0.098370 0.018055 1.000000
-0.238892 0.090843 -0.041553 1.000000
0.083956 0.040085 0.091672 1.000000
-0.118952 0.099896 0.003645 1.000000
0.180216 0.017170 0.098564 1.000000
-0.122404 -0.041344 0.091026 1.000000
0.113407 -0.044902 -0.088933 1.000000
-0.391881 -0.047542 0.087951 1.000000
-0.248999 -0.062590 -0.077532 1.000000
0.454132 -0.090552 0.042049 2.000000
-0.464561 0.038752 0.092249 3.000000
0.327787 0.020084 0.098021 1.000000
-0.294268 -0.091770 0.039235 1.000000
0.425697 0.052048 0.085461 2.000000
-0.310969 0.009641 -0.099203 1.000000
0.222482 0.099326 0.011549 1.000000
-0.150552 -0.046401 -0.088169 1.000000
0.422136 -0.035639 0.093421 2.000000
0.444396 0.034728 0.093833 2.000000
0.258013 0.078372 0.062190 1.000000
0.077462 0.096686 -0.025285 1.000000
0.068390 -0.091115 0.040748 1.000000
0.425553 0.062369 0.078248 2.000000
-0.001513 -0.099394 -0.008004 1.000000
0.044570 -0.005649 0.099889 1.000000
-0.213452 -0.047659 -0.087528 1.000000
0.370338 -0.099601 0.005624 1.000000
-0.388168 0.030674 -0.094908 1.000000
0.108803 -0.099109 -0.011019 1.000000
-0.107188 -0.093467 0.034983 1.000000
0.303284 0.005008 0.099916 1.000000
-0.408355 -0.003493 -0.099594 1.000000
0.202369 0.024467 0.097041 1.000000
-0.188987 0.073226 -0.067864 1.000000
-0.240749 -0.095315 -0.029199 1.000000
-0.041813 -0.099637 -0.004118 1.000000
-0.027598 0.084575 -0.053140 1.000000
-0.463216 -0.057149 0.081976 3.000000
-0.233416 -0.019040 -0.097840 1.000000
0.254399 0.013027 -0.098858 1.000000
0.106884 -0.025430 0.096727 1.000000
0.189845 -0.064207 0.076571 1.000000
0.332934 -0.025359 -0.096385 1.000000
-0.024820 0.019303 0.098196 1.000000
0.009594 -0.084737 -0.052471 1.000000
0.029945 0.094694 -0.031860 1.000000
-0.447924 -0.097858 0.019545 3.000000
0.296558 0.000804 0.100048 1.000000
-0.018738 -0.040036 -0.091229 1.000000
-0.172712 -0.038560 0.092231 1.000000
-0.406487 0.005306 0.099907 1.000000
0.235117 -0.064220 -0.076197 1.000000
-0.046150 0.045421 0.089150 1.000000
-0.399537 0.009316 -0.099233 1.000000
-0.345809 -0.067241 0.073897 1.000000
-0.312724 -0.013947 -0.098675 1.000000
-0.372839 0.087287 -0.048554 1.000000
0.081022 -0.026084 0.096537 1.000000
-0.191989 0.078955 -0.061075 1.000000
-0.133230 0.061415 -0.078625 1.000000
0.068234 -0.083594 -0.054265 1.000000
0.433678 0.043674 0.090040 2.000000
-0.106755 -0.031421 0.094940 1.000000
0.042333 -0.017930 0.098407 1.000000
0.451889 0.096015 -0.027593 2.000000
-0.175573 -0.067684 0.073506 1.000000
0.461004 0.021692 -0.097299 2.000000
0.364103 -0.039568 0.091795 1.000000
0.110355 -0.040123 0.091555 1.000000
-0.215909 -0.091729 -0.038966 1.000000
0.089210 -0.054032 -0.083732 1.000000
-0.144409 -0.050122 -0.086100 1.000000
-0.313417 -0.096097 -0.026507 1.000000
-0.274197 0.026371 -0.096159 1.000000
-0.458145 -0.098257 -0.016931 3.000000
0.203033 0.041212 -0.090822 1.000000
0.323703 -0.051012 0.085936 1.000000
-0.412375 0.095531 -0.029258 1.000000
-0.108969 0.078594 -0.061542 1.000000
0.419038 0.072966 0.068521 2.000000
-0.050139 0.095753 -0.028496 1.000000
-0.358881 0.099491 -0.009449 1.000000
-0.270703 0.045982 0.088864 1.000000
0.036758 0.097885 0.020468 1.000000
0.311744 -0.085439 -0.051284 1.000000
0.227516 0.087728 -0.047786 1.000000
0.129690 -0.099668 0.003504 1.000000
0.012850 -0.045085 -0.088839 1.000000
0.262180 -0.090649 -0.041462 1.000000
-0.132193 -0.098255 -0.016941 1.000000
0.205999 -0.015459 -0.098435 1.000000
0.233994 0.041026 0.091265 1.000000
-0.030658 0.094751 -0.031701 1.000000
-0.309518 0.020018 0.098036 1.000000
-0.191402 -0.076872 -0.063460 1.000000
-0.206285 0.098578 0.016739 1.000000
-0.260344 -0.059263 0.080475 1.000000
-0.252619 0.094672 -0.031920 1.000000
0.328896 0.069758 0.071735 1.000000
0.412178 0.012862 0.099247 1.000000
-0.163689 -0.019539 0.098091 1.000000
-0.293246 0.046666 -0.088153 1.000000
-0.249153 -0.040306 0.091475 1.000000
0.223007 -0.033350 0.094245 1.000000
-0.261185 -0.088363 0.046445 1.000000
-0.057755 -0.084246 -0.053302 1.000000
-0.306549 0.089240 0.045182 1.000000
0.439958 0.092993 0.036947 2.000000
0.128086 -0.070060 -0.070836 1.000000
-0.045543 0.076108 -0.064595 1.000000
0.157705 0.069226 -0.071903 1.000000
-0.407036 -0.057966 0.081421 1.000000
-0.415187 -0.004230 0.099933 1.000000
-0.187232 0.035125 -0.093327 1.000000
-0.248438 -0.099354 0.008786 1.000000
-0.038182 -0.004610 0.099921 1.000000
-0.383690 0.025925 -0.096288 1.000000
0.008725 -0.099577 -0.006026 1.000000
-0.056613 0.095008 -0.030988 1.000000
-0.449641 -0.084521 0.053198 3.000000
-0.223639 -0.007853 -0.099350 1.000000
-0.196094 0.082674 -0.055963 1.000000
0.385755 0.098273 -0.018303 1.000000
0.229745 0.028508 -0.095538 1.000000
0.146417 -0.016205 0.098680 1.000000
0.193339 -0.097012 -0.022969 1.000000
-0.142687 0.034165 0.094036 1.000000
0.241161 0.091719 0.039891 1.000000
0.413717 0.068258 -0.072843 1.000000
0.453964 -0.011003 -0.099052 2.000000
-0.449929 0.097918 0.020323 3.000000
0.315134 0.039494 0.091928 1.000000
0.161823 -0.064442 0.076364 1.000000
0.339399 -0.098877 0.013377 1.000000
0.127168 0.038686 0.092277 1.000000
0.456975 0.090041 0.043609 2.000000
-0.334939 0.085084 0.052642 1.000000
-0.465665 -0.098834 0.013649 3.000000
0.379245 -0.082359 0.056446 1.000000
0.282021 0.091693 0.039952 1.000000
0.131263 -0.016993 -0.098192 1.000000
0.127054 0.062454 -0.077819 1.000000
0.081755 0.063351 0.077486 1.000000
-0.026191 -0.083688 0.054490 1.000000
-0.279323 -0.092963 0.036380 1.000000
-0.108026 -0.018376 0.098336 1.000000
-0.125985 -0.036561 0.093089 1.000000
0.338746 -0.050368 -0.085954 1.000000
0.406222 0.093854 -0.034194 1.000000
-0.375833 -0.090039 -0.042793 1.000000
0.301463 -0.099325 -0.008729 1.000000
-0.222599 -0.097893 -0.019027 1.000000
-0.465373 -0.098995 -0.012220 3.000000
-0.417856 -0.094234 -0.032490 1.000000
0.076050 0.099028 0.013900 1.000000
-0.054167 -0.098128 -0.017745 1.000000
-0.210789 -0.009798 -0.099166 1.000000
-0.045708 0.039590 0.091886 1.000000
-0.217297 -0.095925 0.027463 1.000000
-0.208232 0.045117 0.089305 1.000000
0.234975 0.024341 -0.096707 1.000000
0.301830 -0.048763 0.087266 1.000000
-0.204896 0.087853 -0.047541 1.000000
-0.016242 -0.029032 -0.095317 1.000000
-0.362856 0.099986 -0.000434 1.000000
0.266740 -0.026877 -0.095944 1.000000
0.406052 0.092499 0.038090 1.000000
-0.211105 -0.000737 0.100043 1.000000
0.164890 -0.077902 0.062494 1.000000
0.216393 0.043448 -0.089793 1.000000
0.393921 0.062929 0.077813 1.000000
-0.115893 0.044482 -0.089266 1.000000
-0.090723 -0.001743 -0.099649 1.000000
-0.444117 -0.073277 0.067904 3.000000
-0.270742 -0.025061 -0.096471 1.000000
-0.282434 0.098811 0.015266 1.000000
-0.100440 0.034355 0.093967 1.000000
0.371546 -0.098377 -0.016171 1.000000
0.018908 0.082041 0.057256 1.000000
0.421420 0.067035 0.074285 2.000000
0.018437 -0.025413 0.096732 1.000000
0.428402 -0.008578 -0.099281 1.000000
-0.396434 -0.005663 -0.099526 1.000000
0.090044 0.096704 -0.025223 1.000000
-0.293492 -0.004421 0.099927 1.000000
0.382751 0.089641 0.044394 1.000000
-0.276981 -0.046309 0.088579 1.000000
-0.261938 0.089958 -0.043409 1.000000
0.047238 -0.094437 -0.031924 1.000000
0.061470 0.093887 -0.034101 1.000000
-0.389975 -0.018106 0.098379 1.000000
-0.031096 0.010498 -0.099122 1.000000
-0.361424 -0.079740 0.060125 1.000000
-0.131903 0.051173 -0.085616 1.000000
0.292385 0.088675 -0.045927 1.000000
0.254549 -0.065605 -0.074976 1.000000
-0.197065 0.094480 -0.032453 1.000000
-0.150461 -0.090579 0.041987 1.000000
-0.346833 0.017074 -0.098217 1.000000
-0.442130 -0.028601 0.095806 3.000000
-0.018820 0.095850 -0.028161 1.000000
-0.256661 -0.042367 0.090583 1.000000
0.407648 -0.096344 -0.025657 1.000000
-0.099455 0.099873 0.004388 1.000000
0.276659 0.014540 0.098981 1.000000
-0.094369 -0.098474 -0.015559 1.000000
0.244359 -0.028992 0.095692 1.000000
-0.114586 -0.011432 -0.099011 1.000000
-0.120697 0.075902 -0.064829 1.000000
0.175685 0.044374 -0.089321 1.000000
-0.239597 -0.099156 -0.010522 1.000000
-0.448140 0.008260 -0.099333 3.000000
-0.389735 0.018419 -0.098004 1.000000
-0.182370 0.077739 0.063007 1.000000
-0.310939 0.086126 -0.050517 1.000000
-0.043831 -0.011546 -0.099001 1.000000
0.260778 -0.048915 -0.086813 1.000000
-0.435440 0.087524 0.048516 1.000000
0.192412 -0.076548 0.064194 1.000000
0.097119 -0.084349 0.053490 1.000000
-0.090263 0.075065 -0.065779 1.000000
-0.381349 -0.092617 0.037277 1.000000
-0.384770 0.082015 0.057296 1.000000
-0.152033 -0.001981 -0.099641 1.000000
0.213199 -0.099685 -0.002593 1.000000
0.216812 0.086642 0.050007 1.000000
-0.038680 0.040161 -0.091276 1.000000
0.057991 -0.032204 0.094658 1.000000
-0.367454 0.099832 -0.005319 1.000000
-0.317995 0.099671 -0.007541 1.000000
0.381331 0.099520 0.009496 1.000000
0.416132 -0.097748 -0.019676 1.000000
0.077606 -0.095453 -0.028725 1.000000
0.420417 -0.099058 0.011919 1.000000
0.119508 0.097400 -0.022277 1.000000
-0.074016 -0.098763 -0.013738 1.000000
0.123791 -0.095368 0.029378 1.000000
0.092848 -0.036851 0.092970 1.000000
0.073759 0.099770 -0.006498 1.000000
0.314126 0.091394 -0.040279 1.000000
-0.021891 0.000170 0.100068 1.000000
-0.389952 -0.051478 -0.085298 1.000000
-0.083816 -0.054754 -0.083242 1.000000
0.316385 0.015421 -0.098478 1.000000
0.179261 -0.091774 0.039225 1.000000
-0.259365 0.097446 0.022431 1.000000
-0.460014 0.079865 0.060266 3.000000
-0.453795 -0.058548 -0.080663 3.000000
0.446013 -0.000358 -0.099692 2.000000
-0.162117 -0.099762 0.000482 1.000000
0.246258 -0.093851 0.033915 1.000000
0.047219 -0.029430 0.095565 1.000000
0.449271 -0.098569 -0.014957 2.000000
-0.201787 -0.029526 0.095537 1.000000
-0.442584 0.099896 0.003669 3.000000
-0.090634 -0.054395 0.083848 1.000000
0.335933 0.064977 -0.075736 1.000000
-0.412067 0.050575 -0.085970 1.000000
0.331191 -0.069443 0.071815 1.000000
0.009698 0.089090 -0.045114 1.000000
0.241008 -0.067358 -0.073431 1.000000
0.408088 -0.090314 -0.042236 1.000000
0.102936 -0.090922 0.041195 1.000000
0.006273 0.030020 0.095461 1.000000
0.215431 0.078424 -0.061760 1.000000
-0.024764 -0.008622 0.099640 1.000000
-0.407180 0.058670 0.081101 1.000000
0.140877 -0.088837 -0.045151 1.000000
-0.037939 -0.075707 0.065148 1.000000
0.179362 -0.060984 0.079141 1.000000
-0.414741 -0.052560 0.085021 1.000000
-0.377998 -0.002102 -0.099638 1.000000
-0.056449 0.010589 -0.099113 1.000000
-0.147092 0.099314 -0.011314 1.000000
-0.242483 -0.082582 0.056118 1.000000
0.166001 0.009231 -0.099241 1.000000
-0.248530 0.077330 -0.063170 1.000000
0.464686 -0.099346 -0.008515 2.000000
-0.028473 0.088363 -0.046541 1.000000
0.284610 0.074340 -0.066601 1.000000
-0.072029 0.095497 -0.029377 1.000000
0.103776 -0.099708 -0.001851 1.000000
-0.065341 0.091604 -0.039795 1.000000
-0.414426 -0.070754 -0.070142 1.000000
-0.431928 0.081499 -0.057692 3.000000
0.206257 -0.046501 -0.088118 1.000000
-0.004469 0.013448 -0.098791 1.000000
0.388251 0.001765 -0.099655 1.000000
-0.264688 0.044666 0.089534 1.000000
0.416503 0.022397 -0.097142 1.000000
-0.372693 -0.083848 -0.053892 1.000000
0.391894 -0.048701 0.087303 1.000000
-0.174631 -0.048841 0.087220 1.000000
0.322619 -0.057408 0.081801 1.000000
0.162849 0.099104 0.013417 1.000000
0.203042 0.077339 0.063522 1.000000
-0.127139 -0.014955 0.098878 1.000000
-0.307444 -0.096357 -0.025612 1.000000
0.261930 0.097796 0.020869 1.000000
0.376381 -0.058161 -0.080926 1.000000
-0.450250 0.072820 0.068672 3.000000
0.219381 -0.005471 -0.099532 1.000000
-0.169792 0.096485 -0.025977 1.000000
0.065976 0.079511 -0.060359 1.000000
-0.383087 -0.078847 0.061276 1.000000
-0.243865 0.051867 0.085568 1.000000
-0.216953 -0.097900 0.019357 1.000000
-0.382501 0.095368 0.030181 1.000000
-0.365559 -0.026609 0.096384 1.000000
0.071829 -0.099710 0.002146 1.000000
0.011344 0.096618 0.025879 1.000000
-0.025164 -0.078489 0.061739 1.000000
0.210558 0.075405 0.065755 1.000000
0.211760 -0.025129 -0.096452 1.000000
0.208979 0.087879 0.047853 1.000000
-0.119427 0.070066 -0.071064 1.000000
0.161298 0.079345 0.060935 1.000000
-0.426498 -0.087733 -0.047318 1.000000
0.140587 0.097146 0.023775 1.000000
-0.462941 -0.085227 0.052005 3.000000
0.087263 -0.011463 -0.099008 1.000000
-0.070153 -0.082705 0.055936 1.000000
-0.300676 0.089468 -0.044371 1.000000
-0.261652 0.078872 -0.061183 1.000000
-0.058008 0.099178 0.012949 1.000000
-0.118275 0.098287 0.018579 1.000000
0.017462 -0.075261 -0.065291 1.000000
0.241919 0.012856 0.099248 1.000000
0.306905 -0.078995 -0.060723 1.000000
-0.153044 -0.081695 -0.057060 1.000000
-0.294443 0.043653 0.090051 1.000000
-0.232998 -0.001319 0.100025 1.000000
0.233604 0.065566 -0.075216 1.000000
-0.368174 0.003695 0.099958 1.000000
-0.171159 -0.074545 -0.066103 1.000000
-0.174880 -0.058613 -0.080617 1.000000
-0.087970 -0.087543 0.048053 1.000000
-0.163078 -0.091720 0.039350 1.000000
0.398546 -0.041651 -0.090531 1.000000
-0.420808 -0.062677 0.077827 1.000000
0.170805 -0.080621 0.058990 1.000000
-0.119659 -0.007917 0.099706 1.000000
0.452353 -0.081908 -0.056746 2.000000
-0.061328 -0.084000 0.054031 1.000000
0.076199 -0.073831 -0.066913 1.000000
0.392534 -0.053978 0.084132 1.000000
-0.272703 -0.017597 0.098460 1.000000
0.001037 -0.027062 0.096253 1.000000
-0.288046 -0.098339 -0.016412 1.000000
0.430335 0.023662 0.097221 2.000000
-0.433156 0.040088 0.091671 1.000000
0.457058 -0.096507 -0.025096 2.000000
0.393669 0.083866 0.054572 1.000000
0.182879 0.085811 -0.051050 1.000000
0.260076 -0.077036 0.063611 1.000000
0.412200 0.094801 -0.031562 1.000000
-0.183324 -0.005442 -0.099533 1.000000
0.389053 0.059892 -0.079806 1.000000
-0.466806 0.091436 0.040546 3.000000
-0.232993 -0.060768 -0.078946 1.000000
0.174700 -0.098013 -0.018471 1.000000
0.111383 -0.019848 0.098022 1.000000
0.339640 -0.086250 0.050275 1.000000
0.312725 -0.096500 -0.025121 1.000000
0.229815 -0.099210 0.010311 1.000000
0.430924 0.027603 -0.095801 1.000000
-0.285638 0.072614 0.068878 1.000000
0.338696 -0.032413 -0.094220 1.000000
-0.002277 0.085273 -0.051959 1.000000
0.449742 0.066982 0.074331 2.000000
-0.247007 0.000327 -0.099701 1.000000
-0.014551 0.099910 0.003198 1.000000
0.062454 -0.080822 0.058708 1.000000
-0.425028 0.082696 -0.055930 3.000000
0.450938 -0.097274 -0.021795 2.000000
0.107244 0.095929 -0.027888 1.000000
-0.465955 0.071809 -0.069321 3.000000
-0.253878 -0.079956 -0.059485 1.000000
-0.170003 0.013075 -0.098850 1.000000
-0.121465 0.096624 0.025859 1.000000
0.052572 -0.035854 0.093344 1.000000
0.433329 0.093712 0.034950 2.000000
-0.068879 -0.098908 0.013183 1.000000
-0.435544 -0.046652 -0.088041 1.000000
0.045773 -0.061845 -0.078110 1.000000
-0.204879 -0.098109 0.018227 1.000000
0.150677 0.099439 -0.009999 1.000000
0.145995 0.094577 -0.032184 1.000000
0.103757 -0.024823 -0.096541 1.000000
0.057284 -0.015909 -0.098364 1.000000
-0.114206 0.097045 0.024227 1.000000
-0.380955 0.093789 -0.034374 1.000000
0.379329 -0.098316 -0.016559 1.000000
0.286510 -0.091548 0.039747 1.000000
-0.062302 -0.047572 0.087935 1.000000
0.169754 0.014907 -0.098560 1.000000
-0.251774 0.068455 -0.072670 1.000000
-0.366477 -0.034260 -0.093555 1.000000
0.431877 -0.055971 0.082777 2.000000
-0.115038 -0.088440 0.046293 1.000000
0.399707 -0.016691 0.098603 1.000000
0.261634 0.034403 0.093950 1.000000
-0.221851 0.079539 -0.060323 1.000000
-0.411133 -0.011046 0.099411 1.000000
-0.396381 0.039232 0.092041 1.000000
0.232861 -0.088983 0.045227 1.000000
-0.362756 0.095224 -0.030314 1.000000
-0.400918 0.052443 0.085228 1.000000
-0.136766 -0.090556 0.042040 1.000000
-0.354652 -0.060991 -0.078773 1.000000
-0.241094 0.026871 0.096376 1.000000
0.464937 0.081285 -0.058007 2.000000
-0.259091 0.069466 0.072026 1.000000
-0.416610 -0.099379 0.008524 1.000000
-0.212513 0.092406 -0.037941 1.000000
-0.393313 -0.068059 -0.072813 1.000000
-0.269194 -0.095854 0.027707 1.000000
-0.131003 0.099558 -0.008732 1.000000
-0.327543 -0.087272 -0.048185 1.000000
-0.166721 -0.080794 0.058748 1.000000
-0.077516 -0.046699 -0.088017 1.000000
-0.351035 -0.017362 0.098497 1.000000
0.291766 -0.025625 0.096670 1.000000
0.001509 -0.098484 0.015859 1.000000
0.046191 0.055659 0.083148 1.000000
-0.419038 -0.049149 -0.086675 1.000000
0.316701 0.012021 0.099340 1.000000
0.172901 0.001687 -0.099658 1.000000
0.457871 0.080973 -0.058466 2.000000
0.362057 0.095535 0.029606 1.000000
-0.384169 0.063218 -0.077227 1.000000
0.066270 -0.078706 -0.061096 1.000000
-0.393740 0.044254 0.089745 1.000000
-0.278742 0.099546 -0.008863 1.000000
0.003998 -0.058042 -0.081007 1.000000
-0.414146 0.070074 0.071419 1.000000
0.435939 -0.083571 -0.054300 1.000000
0.000492 0.061644 0.078810 1.000000
0.174392 -0.090003 0.043226 1.000000
-0.376918 -0.017680 0.098446 1.000000
-0.279593 -0.099000 0.012538 1.000000
-0.451422 0.089924 -0.043477 3.000000
0.289288 -0.028004 -0.095616 1.000000
-0.426572 -0.053751 0.084286 1.000000
0.136297 -0.079538 0.060385 1.000000
-0.240334 0.098869 -0.014538 1.000000
0.309863 0.099935 -0.002069 1.000000
