-0.340723 0.096109 -0.027269 1.000000
-0.007435 -0.099177 -0.010295 1.000000
0.124724 -0.012565 0.099257 1.000000
-0.276949 0.013599 0.099130 1.000000
-0.113645 -0.071145 -0.069751 1.000000
-0.228802 -0.026159 -0.096152 1.000000
-0.290566 -0.042748 -0.090030 1.000000
-0.302595 -0.026937 -0.095926 1.000000
0.224612 -0.079523 0.060406 1.000000
-0.288886 -0.083336 -0.054646 1.000000
-0.255914 -0.014479 -0.098591 1.000000
0.053010 -0.032167 -0.094308 1.000000
-0.249268 -0.065244 -0.075295 1.000000
0.059442 -0.007480 -0.099385 1.000000
-0.223861 -0.092470 -0.037255 1.000000
0.082988 -0.025920 0.096584 1.000000
-0.039292 -0.002048 -0.099639 1.000000
-0.300146 0.050438 -0.086051 1.000000
-0.038283 -0.047591 -0.087563 1.000000
0.079012 0.022872 -0.097035 1.000000
0.429298 0.029231 0.095691 2.000000
-0.302706 -0.098380 -0.016154 1.000000
-0.289719 -0.079314 -0.060312 1.000000
0.294456 0.098762 0.015578 1.000000
0.452017 0.070389 -0.070741 2.000000
-0.156757 -0.020226 0.097937 1.000000
-0.253670 0.040018 -0.091338 1.000000
0.403656 0.097093 -0.023648 1.000000
0.089197 -0.099739 -0.000870 1.000000
-0.103325 -0.096153 -0.026315 1.000000
0.229724 0.050497 -0.086016 1.000000
-0.018802 -0.034854 0.093704 1.000000
-0.194230 -0.002798 -0.099616 1.000000
-0.212444 0.077767 -0.062607 1.000000
0.178716 -0.039605 -0.091416 1.000000
-0.099118 0.022866 0.097400 1.000000
0.301737 -0.024160 0.097058 1.000000
0.160718 0.002689 0.099989 1.000000
0.049245 -0.012134 0.099308 1.000000
0.173666 0.063381 0.077463 1.000000
0.426762 -0.034149 0.093958 2.000000
-0.353326 0.008660 -0.099295 1.000000
-0.177697 -0.023697 -0.096799 1.000000
-0.347765 0.028320 -0.095592 1.000000
0.053965 0.040600 0.091449 1.000000
-0.051796 0.002225 -0.099641 1.000000
-0.127866 -0.067830 -0.073015 1.000000
-0.308513 0.043297 0.090232 1.000000
0.376453 0.016183 -0.098358 1.000000
-0.203113 -0.097777 0.019908 1.000000
-0.071433 -0.025003 0.096851 1.000000
-0.225877 -0.078002 -0.062004 1.000000
0.275009 0.007848 -0.099372 1.000000
-0.055237 -0.056704 -0.081916 1.000000
-0.361306 0.099967 0.001410 1.000000
-0.102198 0.087545 0.048481 1.000000
-0.291057 0.095902 0.028343 1.000000
0.209812 -0.049736 0.086691 1.000000
-0.375699 -0.089709 0.043803 1.000000
0.136411 -0.097423 -0.021131 1.000000
-0.444000 -0.088911 0.045370 3.000000
-0.229719 0.033650 0.094221 1.000000
0.012779 -0.012374 0.099285 1.000000
0.405257 -0.053019 0.084749 1.000000
0.133287 0.078518 0.062002 1.000000
-0.231225 -0.004236 -0.099570 1.000000
0.282522 0.032711 -0.094196 1.000000
-0.445803 -0.036794 -0.092633 3.000000
0.366197 0.096429 -0.026167 1.000000
-0.413373 -0.099760 -0.000186 1.000000
-0.444930 0.017288 0.098546 3.000000
0.422452 0.028781 0.095821 2.000000
-0.285702 -0.095163 -0.029722 1.000000
0.404980 0.075297 0.065878 1.000000
0.063450 -0.068838 -0.072058 1.000000
0.367446 -0.091087 0.040813 1.000000
-0.219764 -0.051941 0.085387 1.000000
0.365400 -0.082976 0.055538 1.000000
0.304301 0.099425 -0.010140 1.000000
0.322453 -0.079865 -0.059602 1.000000
-0.294916 0.057484 -0.081545 1.000000
0.349228 -0.027699 0.096068 1.000000
0.170636 0.089568 -0.044176 1.000000
-0.236169 -0.051652 -0.085195 1.000000
-0.449504 0.061554 0.078880 3.000000
-0.175998 0.074956 0.066264 1.000000
0.098465 0.064558 -0.076105 1.000000
-0.274588 -0.098585 -0.014859 1.000000
-0.172718 0.034934 0.093759 1.000000
-0.064473 -0.099573 0.006476 1.000000
0.377887 0.062356 0.078258 1.000000
0.091018 -0.050442 -0.085910 1.000000
-0.200400 0.025349 -0.096455 1.000000
-0.432699 -0.013299 0.099140 3.000000
0.352923 0.064164 0.076816 1.000000
-0.223339 -0.069777 0.071481 1.000000
0.209672 0.005712 0.099894 1.000000
-0.266222 -0.098556 0.015403 1.000000
-0.034839 -0.099587 -0.005698 1.000000
-0.109511 -0.094510 -0.031723 1.000000
-0.002238 0.066536 -0.074361 1.000000
-0.378058 0.048421 -0.087244 1.000000
0.095207 0.094643 0.032364 1.000000
0.047417 0.097066 0.024133 1.000000
-0.220009 -0.098538 0.015516 1.000000
-0.276460 0.099939 0.002293 1.000000
-0.233305 0.077678 0.063085 1.000000
0.307580 -0.025488 -0.096347 1.000000
0.247216 -0.005665 -0.099526 1.000000
0.400406 0.099557 -0.008747 1.000000
0.289691 0.098746 -0.015315 1.000000
-0.155059 -0.063040 0.077546 1.000000
-0.355580 0.097672 -0.021058 1.000000
-0.432311 -0.047519 -0.087599 1.000000
-0.367860 0.087746 0.048114 1.000000
0.074757 -0.057343 -0.081482 1.000000
0.355361 -0.094728 -0.031117 1.000000
0.318317 0.017332 -0.098176 1.000000
0.192251 0.004929 -0.099556 1.000000
-0.437105 -0.009777 -0.099168 3.000000
-0.107271 0.092703 0.037619 1.000000
0.084742 -0.068547 0.072712 1.000000
0.269352 -0.088960 -0.044911 1.000000
-0.211881 -0.035889 0.093331 1.000000
0.324335 -0.098064 0.018512 1.000000
-0.241823 0.099317 0.011645 1.000000
0.115675 0.033546 -0.093896 1.000000
0.036140 0.096866 -0.024663 1.000000
-0.387331 0.080103 -0.059595 1.000000
-0.322414 0.007049 -0.099448 1.000000
0.059683 -0.091137 -0.040334 1.000000
-0.094564 0.050015 0.086664 1.000000
-0.145668 0.085308 0.052262 1.000000
-0.120870 0.075558 0.065582 1.000000
0.356018 0.092063 0.039096 1.000000
-0.442791 -0.093584 -0.034294 3.000000
-0.266290 -0.094818 -0.030866 1.000000
-0.127264 0.028029 0.096040 1.000000
0.080181 0.098754 0.015627 1.000000
-0.281320 -0.084863 -0.052257 1.000000
0.158752 0.096266 -0.026730 1.000000
0.248546 -0.068534 0.072725 1.000000
0.167473 0.094762 -0.031671 1.000000
0.286934 -0.035384 0.093513 1.000000
0.191242 0.086635 0.050019 1.000000
0.086614 -0.099465 -0.007256 1.000000
0.035726 -0.065461 -0.075104 1.000000
-0.416894 -0.085364 -0.051410 1.000000
-0.402985 0.099838 -0.005128 1.000000
0.419945 -0.024812 0.096906 2.000000
0.451757 0.093951 -0.033923 2.000000
0.285902 -0.092567 -0.037029 1.000000
0.438790 -0.021118 -0.097375 1.000000
-0.257099 0.087423 0.048686 1.000000
-0.005683 0.015455 -0.098473 1.000000
-0.428820 0.074058 -0.066920 3.000000
0.213857 0.039948 0.091731 1.000000
-0.376001 -0.063290 0.077352 1.000000
0.334257 -0.098910 0.013171 1.000000
0.222286 -0.033701 0.094119 1.000000
0.190080 0.096098 -0.027306 1.000000
-0.019780 0.094627 -0.032046 1.000000
-0.402292 -0.099716 0.001974 1.000000
-0.138359 0.089310 -0.044682 1.000000
-0.182860 -0.064950 -0.075554 1.000000
-0.041808 0.081060 0.058701 1.000000
-0.414160 -0.038160 -0.092041 1.000000
-0.359037 0.055608 -0.082820 1.000000
-0.010760 0.094733 0.032114 1.000000
0.094803 0.038133 0.092517 1.000000
0.244884 -0.087262 -0.048201 1.000000
-0.341625 0.098535 0.017010 1.000000
0.236772 -0.001663 0.100014 1.000000
0.111097 0.019951 -0.097688 1.000000
0.116119 -0.042797 0.090368 1.000000
-0.461197 -0.086879 -0.048849 3.000000
0.029014 0.098806 0.015300 1.000000
0.292783 -0.070376 -0.070520 1.000000
0.198529 -0.093298 -0.035088 1.000000
0.333284 0.039583 0.091889 1.000000
-0.417250 -0.095547 -0.028402 1.000000
0.153991 -0.094909 0.030959 1.000000
-0.156505 0.044978 0.089375 1.000000
0.342930 0.053763 0.084436 1.000000
-0.236254 0.008063 0.099715 1.000000
-0.072378 0.056703 0.082439 1.000000
-0.022875 -0.061404 -0.078453 1.000000
-0.032874 -0.099461 0.007653 1.000000
0.252178 -0.097233 0.022343 1.000000
0.131381 0.098883 -0.014452 1.000000
0.286822 -0.068595 0.072664 1.000000
0.057657 -0.068055 -0.072817 1.000000
-0.103742 0.012291 0.099315 1.000000
-0.338460 -0.013077 0.099175 1.000000
0.446474 0.024889 0.096947 2.000000
-0.097260 -0.045034 -0.088865 1.000000
0.280347 0.014229 0.099030 1.000000
0.149622 0.068359 -0.072754 1.000000
0.333092 0.099903 -0.003077 1.000000
0.367370 0.030529 0.095313 1.000000
0.159839 -0.008413 -0.099297 1.000000
-0.402744 0.098799 0.015346 1.000000
0.447580 -0.061476 -0.078396 2.000000
0.191273 0.099411 0.010657 1.000000
-0.144707 0.099874 0.004362 1.000000
0.157830 -0.099581 0.006249 1.000000
-0.458649 0.056087 0.082857 3.000000
0.202018 -0.038947 0.092064 1.000000
0.103983 0.098184 -0.018767 1.000000
-0.085544 -0.098129 0.018098 1.000000
0.448242 0.042364 -0.090323 2.000000
0.226300 -0.083616 0.054597 1.000000
-0.440203 -0.013733 0.099072 3.000000
0.176344 -0.097203 0.022476 1.000000
-0.025814 0.096022 0.027931 1.000000
-0.121705 -0.035270 0.093554 1.000000
0.228377 -0.096004 0.027191 1.000000
0.306549 0.068793 0.072699 1.000000
-0.387578 0.031417 -0.094663 1.000000
0.002712 -0.045450 -0.088654 1.000000
-0.407521 -0.082065 0.056878 1.000000
-0.105480 0.097635 -0.021224 1.000000
-0.284155 0.009609 0.099568 1.000000
-0.459529 0.064354 0.076648 3.000000
0.031180 -0.071993 0.069265 1.000000
0.054265 -0.054752 0.083605 1.000000
-0.357549 0.088393 -0.046481 1.000000
-0.434930 0.018739 -0.097953 3.000000
-0.252041 -0.082292 0.056545 1.000000
-0.271142 0.074369 0.066931 1.000000
-0.250726 -0.092129 0.038406 1.000000
0.188552 -0.035191 -0.093220 1.000000
0.459048 0.085968 0.051146 2.000000
0.314452 -0.099663 -0.003300 1.000000
0.039351 0.078068 -0.062219 1.000000
-0.351441 -0.099726 -0.001296 1.000000
-0.372113 -0.098961 -0.012482 1.000000
-0.324068 0.097232 0.023392 1.000000
0.281969 0.002046 -0.099647 1.000000
0.319633 0.097245 -0.022968 1.000000
-0.323456 0.047967 -0.087490 1.000000
-0.043358 0.058725 -0.080701 1.000000
0.084667 0.092233 -0.038341 1.000000
0.105550 -0.032580 -0.094160 1.000000
-0.245209 0.075568 0.065570 1.000000
0.019168 0.027274 -0.095896 1.000000
0.253289 0.084829 -0.052709 1.000000
0.257983 0.098955 0.014360 1.000000
-0.024614 0.089166 -0.044965 1.000000
0.436920 -0.099208 -0.009972 2.000000
-0.038250 -0.014691 -0.098557 1.000000
-0.249913 0.082496 -0.056225 1.000000
0.443785 0.018703 0.098321 2.000000
0.237887 -0.089763 0.043698 1.000000
0.168827 -0.048661 -0.086964 1.000000
-0.293267 0.089753 0.044174 1.000000
0.444391 -0.070033 -0.070863 2.000000
0.008480 0.088132 0.047356 1.000000
-0.014467 -0.010186 -0.099129 1.000000
0.223432 0.015158 -0.098520 1.000000
-0.463835 -0.078355 -0.061549 3.000000
0.226027 -0.015385 -0.098447 1.000000
-0.116821 0.052869 -0.084613 1.000000
0.180204 0.093057 0.036769 1.000000
-0.083140 -0.090032 0.043170 1.000000
-0.242012 0.004495 0.099932 1.000000
-0.220716 -0.075406 0.065490 1.000000
-0.423102 -0.072135 -0.068761 1.000000
0.353933 -0.098851 0.013540 1.000000
0.315579 -0.099220 0.010210 1.000000
-0.466194 -0.093240 -0.035249 3.000000
-0.023936 -0.094797 -0.030925 1.000000
-0.416297 0.094760 -0.031677 1.000000
-0.420079 -0.099710 0.002159 1.000000
-0.185449 0.037948 0.092597 1.000000
0.196265 -0.042434 0.090553 1.000000
0.375097 -0.077883 0.062520 1.000000
0.342819 -0.000183 0.100061 1.000000
0.195091 -0.075064 0.065878 1.000000
0.449220 -0.098794 0.013904 2.000000
0.247040 0.064184 -0.076435 1.000000
0.157237 -0.065117 0.075769 1.000000
0.114528 -0.014479 -0.098591 1.000000
-0.367864 -0.017080 0.098542 1.000000
-0.231092 -0.055962 0.082783 1.000000
-0.041792 0.076193 0.064862 1.000000
0.179068 0.097322 -0.022626 1.000000
0.310809 0.058344 -0.080960 1.000000
0.096269 -0.073792 -0.066957 1.000000
-0.455277 0.099334 0.011473 3.000000
-0.088263 -0.095955 -0.026996 1.000000
0.431396 0.075403 -0.065394 1.000000
-0.444196 -0.026652 -0.096009 3.000000
0.347058 0.014772 -0.098581 1.000000
0.078136 -0.090171 0.042896 1.000000
-0.006259 0.012534 0.099292 1.000000
0.149525 -0.097521 -0.020690 1.000000
-0.275071 -0.015469 -0.098434 1.000000
-0.184582 0.086525 0.050204 1.000000
0.080991 0.059346 -0.080230 1.000000
0.095856 -0.097583 0.020778 1.000000
0.309684 0.066089 -0.074755 1.000000
0.000265 -0.017435 -0.098123 1.000000
0.123692 0.099863 0.004698 1.000000
0.131978 -0.091067 -0.040496 1.000000
0.165075 -0.090940 -0.040790 1.000000
-0.170485 -0.012278 -0.098931 1.000000
0.154405 -0.011905 -0.098967 1.000000
-0.072049 0.024500 -0.096671 1.000000
0.064199 -0.077647 -0.062461 1.000000
0.392583 0.084384 -0.053447 1.000000
0.445347 -0.099416 0.008135 2.000000
0.293398 -0.064644 -0.075824 1.000000
0.333985 0.047772 -0.087589 1.000000
0.455410 -0.098228 0.017477 2.000000
-0.341478 -0.075411 -0.065121 1.000000
-0.187103 -0.011678 0.099351 1.000000
0.385888 -0.085366 0.051771 1.000000
-0.050564 -0.083459 0.054827 1.000000
-0.388826 0.031801 0.094887 1.000000
-0.043596 -0.058813 -0.080462 1.000000
-0.337059 -0.045827 0.088824 1.000000
0.057081 0.073091 0.068380 1.000000
-0.461113 0.099707 0.007520 3.000000
-0.355883 -0.091973 0.038765 1.000000
0.409279 0.097494 -0.021856 1.000000
0.015514 -0.090889 -0.040908 1.000000
0.464278 0.070642 0.070850 2.000000
-0.337515 -0.099762 0.000503 1.000000
-0.364368 0.076806 -0.063804 1.000000
0.386183 0.090830 0.041946 1.000000
-0.406841 0.027946 0.096064 1.000000
-0.274694 0.031767 -0.094536 1.000000
0.381868 0.038583 0.092322 1.000000
-0.297437 -0.079433 0.060521 1.000000
0.181166 0.082428 -0.056325 1.000000
-0.060363 0.070990 0.070502 1.000000
-0.278809 0.080762 -0.058746 1.000000
-0.065153 -0.068847 0.072412 1.000000
0.025838 0.093346 -0.035603 1.000000
0.117785 0.003669 0.099958 1.000000
0.151475 0.003832 0.099953 1.000000
-0.051569 0.022793 0.097416 1.000000
-0.394605 -0.052870 0.084837 1.000000
-0.155729 -0.099342 0.008916 1.000000
0.373671 -0.079263 -0.060378 1.000000
0.285249 -0.018667 -0.097923 1.000000
0.430709 -0.057916 0.081455 2.000000
0.299700 0.025082 0.096896 1.000000
-0.022478 0.066448 -0.074439 1.000000
-0.065561 0.089562 -0.044187 1.000000
-0.336278 0.097751 0.021069 1.000000
-0.325449 0.099871 -0.004085 1.000000
0.013239 0.084845 0.053046 1.000000
0.323807 0.099482 -0.009540 1.000000
0.212082 0.021997 0.097594 1.000000
0.027825 -0.081094 0.058307 1.000000
0.165296 0.047253 -0.087854 1.000000
0.409379 0.027688 0.096139 1.000000
0.087961 0.046971 0.088360 1.000000
0.408595 0.095183 -0.030456 1.000000
-0.439354 -0.099689 -0.002451 3.000000
0.441606 0.033012 0.094451 2.000000
-0.419832 0.083660 0.054875 1.000000
0.001112 -0.041324 0.091035 1.000000
-0.443044 0.025579 0.096751 3.000000
-0.084926 -0.099678 -0.002801 1.000000
0.153402 -0.080974 -0.058121 1.000000
0.433883 0.097178 -0.023271 2.000000
-0.212928 -0.056721 -0.081905 1.000000
0.085082 -0.092387 -0.037445 1.000000
-0.458956 0.028973 0.095765 3.000000
-0.275997 0.087355 0.048801 1.000000
0.314982 -0.049649 0.086742 1.000000
-0.423390 -0.068754 0.072505 1.000000
-0.405039 -0.010694 0.099444 1.000000
-0.189986 -0.083804 -0.053957 1.000000
0.010179 0.047318 -0.087821 1.000000
-0.258705 -0.021948 -0.097190 1.000000
0.399360 0.046052 0.088829 1.000000
0.119543 0.048553 -0.087166 1.000000
-0.231278 -0.020818 -0.097442 1.000000
-0.176806 -0.093149 0.035866 1.000000
0.393343 -0.039974 0.091619 1.000000
-0.006474 -0.066850 -0.073879 1.000000
-0.447730 0.006610 0.099852 3.000000
0.059484 -0.014026 -0.098662 1.000000
0.340566 -0.053838 -0.083864 1.000000
-0.427933 0.099941 -0.001865 1.000000
-0.377986 0.099256 0.012299 1.000000
-0.162106 -0.099391 0.008394 1.000000
0.015652 0.012149 -0.098966 1.000000
0.284756 0.027209 0.096278 1.000000
-0.243006 0.031962 0.094829 1.000000
-0.058268 -0.049919 0.086583 1.000000
-0.436463 0.083181 0.055580 1.000000
-0.459656 0.073786 -0.067229 3.000000
-0.294665 -0.059351 -0.080045 1.000000
0.354775 -0.053723 0.084305 1.000000
-0.259169 -0.031494 0.094913 1.000000
0.016158 -0.091671 0.039463 1.000000
-0.466325 0.096105 -0.027284 3.000000
-0.156051 -0.098134 0.018071 1.000000
-0.364019 0.098993 -0.013757 1.000000
0.312530 0.070881 0.070611 1.000000
-0.252421 -0.005913 -0.099518 1.000000
0.078225 -0.008767 -0.099263 1.000000
0.216558 -0.091853 -0.038679 1.000000
0.136596 0.099993 0.000556 1.000000
0.085921 0.077488 0.063329 1.000000
0.280699 -0.031565 -0.094525 1.000000
-0.315328 -0.065143 -0.075384 1.000000
0.004755 0.028220 -0.095621 1.000000
0.300138 0.069216 -0.071913 1.000000
0.277368 0.099621 0.008431 1.000000
-0.348023 0.098794 0.015378 1.000000
0.357544 0.018141 0.098410 1.000000
0.037466 -0.056310 -0.082184 1.000000
-0.408121 -0.093905 -0.033401 1.000000
-0.443312 -0.099675 0.003275 3.000000
0.065508 0.004210 0.099941 1.000000
-0.135346 -0.013037 -0.098819 1.000000
-0.247499 0.027343 0.096239 1.000000
-0.222914 0.033852 -0.093786 1.000000
0.104208 -0.006873 -0.099442 1.000000
0.433491 -0.087332 -0.048083 1.000000
-0.129045 0.057361 -0.081628 1.000000
0.379422 -0.096897 0.023844 1.000000
0.425269 -0.018644 -0.097928 1.000000
0.197029 -0.090719 0.041664 1.000000
-0.118193 0.069057 0.072435 1.000000
-0.245352 -0.069732 -0.071164 1.000000
-0.194304 -0.095759 0.028033 1.000000
0.408688 -0.022652 0.097395 1.000000
-0.398681 -0.092953 0.036410 1.000000
0.092917 0.038314 -0.092076 1.000000
0.347557 0.096546 0.026127 1.000000
-0.074659 0.072904 0.068588 1.000000
-0.388996 -0.097939 -0.018821 1.000000
-0.203787 -0.042081 0.090707 1.000000
-0.179618 0.022300 -0.097163 1.000000
-0.402852 -0.032067 0.094707 1.000000
0.039025 -0.099713 0.002055 1.000000
-0.014632 -0.096256 0.026323 1.000000
-0.118339 0.047906 -0.087521 1.000000
-0.276417 0.035915 0.093406 1.000000
-0.132141 -0.095309 0.029583 1.000000
0.221494 -0.047552 0.087945 1.000000
0.140845 0.059476 0.080492 1.000000
-0.258095 -0.084862 -0.052260 1.000000
-0.119720 0.083084 -0.055360 1.000000
0.339930 -0.077253 -0.062969 1.000000
-0.347935 -0.038503 -0.091893 1.000000
0.243533 0.090170 -0.042994 1.000000
-0.203297 -0.095777 -0.027610 1.000000
0.037548 0.084881 0.052985 1.000000
0.384323 -0.098736 -0.013907 1.000000
0.078737 -0.052020 -0.084977 1.000000
0.047601 -0.093967 0.033593 1.000000
-0.091063 -0.002453 0.099989 1.000000
-0.196149 0.039766 0.091810 1.000000
0.438201 0.095742 0.028895 2.000000
0.419265 -0.009280 0.099578 2.000000
-0.092782 0.078329 0.062245 1.000000
0.158708 -0.090815 -0.041079 1.000000
0.286248 0.058518 -0.080842 1.000000
-0.276657 0.063710 0.077208 1.000000
-0.254227 0.060873 0.079408 1.000000
-0.303280 -0.006000 0.099878 1.000000
-0.345616 0.099931 0.002551 1.000000
-0.048474 0.067040 0.074280 1.000000
0.135942 -0.099555 0.006662 1.000000
-0.037403 0.004041 -0.099584 1.000000
0.237639 -0.088173 -0.046454 1.000000
0.171050 -0.090638 -0.041488 1.000000
-0.281076 0.096142 -0.027157 1.000000
0.435573 -0.033802 -0.093720 1.000000
0.068595 -0.090017 -0.042837 1.000000
-0.019291 -0.088582 0.046016 1.000000
0.355639 -0.045102 -0.088831 1.000000
-0.382165 0.013531 -0.098778 1.000000
-0.438988 0.036340 0.093253 3.000000
0.041667 0.029084 -0.095370 1.000000
0.274820 0.046530 0.088585 1.000000
0.402331 -0.070597 -0.070299 1.000000
0.245366 0.076939 0.064016 1.000000
0.344420 0.095099 -0.030733 1.000000
0.343998 -0.007186 0.099775 1.000000
-0.315019 -0.031582 -0.094519 1.000000
-0.094677 -0.096423 0.025747 1.000000
-0.284201 -0.097530 -0.020649 1.000000
0.207405 0.092736 0.037541 1.000000
0.184526 -0.076626 -0.063742 1.000000
-0.230805 -0.061229 -0.078588 1.000000
-0.172552 0.098857 -0.014615 1.000000
0.061903 -0.099113 0.011336 1.000000
0.371881 -0.085833 -0.050617 1.000000
0.011628 0.057936 -0.081238 1.000000
-0.233536 -0.021874 0.097569 1.000000
0.430853 -0.091512 0.039831 2.000000
-0.342801 -0.015584 -0.098416 1.000000
-0.266321 -0.021519 0.097648 1.000000
-0.371047 0.095647 -0.028859 1.000000
-0.138476 0.094344 0.033193 1.000000
0.123537 0.088296 0.047034 1.000000
0.265060 -0.084725 0.052854 1.000000
-0.119822 0.097593 -0.021412 1.000000
-0.400976 -0.031205 -0.094655 1.000000
0.289427 0.100004 0.000223 1.000000
0.006162 0.067257 -0.073726 1.000000
-0.178363 -0.044190 -0.089296 1.000000
0.202655 -0.052209 0.085228 1.000000
-0.299601 0.059398 0.080552 1.000000
0.010491 0.072081 -0.069048 1.000000
-0.339363 -0.099559 -0.006259 1.000000
0.068226 0.082367 0.056777 1.000000
0.172908 -0.088344 0.046483 1.000000
-0.036933 -0.070984 0.070274 1.000000
0.306033 0.043328 0.090216 1.000000
0.279184 0.079556 0.060663 1.000000
0.329585 0.076240 -0.064446 1.000000
0.210197 -0.026138 -0.096159 1.000000
0.188660 -0.092063 0.038557 1.000000
-0.309844 0.059483 -0.080124 1.000000
-0.337536 0.046890 -0.088039 1.000000
0.114343 -0.087818 -0.047152 1.000000
0.072673 -0.083464 0.054820 1.000000
0.036860 -0.007734 -0.099361 1.000000
-0.442080 0.020921 -0.097471 3.000000
0.195644 0.012080 0.099335 1.000000
-0.441735 -0.027312 0.096180 3.000000
0.346637 0.097922 -0.019943 1.000000
0.235001 -0.099688 -0.002492 1.000000
-0.153806 -0.084494 0.053244 1.000000
-0.021202 0.003302 -0.099607 1.000000
0.281868 0.062956 -0.077430 1.000000
0.328142 0.017285 -0.098183 1.000000
-0.342805 -0.070593 -0.070303 1.000000
-0.387628 -0.035278 -0.093188 1.000000
0.005128 0.090743 0.042147 1.000000
0.309239 -0.043186 0.090170 1.000000
0.274963 -0.058969 -0.080341 1.000000
-0.283978 0.065809 -0.075002 1.000000
-0.020555 -0.097857 0.019548 1.000000
0.428431 -0.066615 0.074449 2.000000
0.463949 0.090964 -0.041273 2.000000
-0.417384 0.034042 -0.093717 1.000000
-0.056251 -0.094536 -0.031649 1.000000
-0.125972 -0.030265 0.095322 1.000000
-0.241567 -0.095008 0.030620 1.000000
0.074283 0.028342 -0.095586 1.000000
-0.226021 -0.097621 0.020606 1.000000
0.341178 0.026193 -0.096210 1.000000
0.275373 0.010605 0.099474 1.000000
-0.153086 -0.077396 0.063147 1.000000
-0.244651 -0.053706 0.084316 1.000000
-0.415638 0.099876 -0.003923 1.000000
0.295922 0.068281 0.073186 1.000000
0.232476 -0.099325 -0.008737 1.000000
-0.024430 -0.057032 0.082056 1.000000
-0.017381 0.053901 0.084343 1.000000
0.311964 -0.057204 -0.081576 1.000000
-0.221479 0.046917 0.088388 1.000000
0.400757 -0.044700 0.089399 1.000000
0.307113 0.087935 0.047743 1.000000
-0.172663 -0.085185 0.052075 1.000000
-0.062642 -0.095464 0.029049 1.000000
-0.226703 0.076660 0.064332 1.000000
0.337571 0.002836 0.099985 1.000000
-0.044075 0.092159 -0.038511 1.000000
0.381844 0.077890 -0.062448 1.000000
0.422958 0.089650 0.044377 1.000000
0.389438 0.004300 -0.099576 1.000000
-0.320484 0.097930 -0.019905 1.000000
-0.400135 -0.002742 -0.099617 1.000000
0.126464 0.046129 0.088789 1.000000
-0.235596 0.089869 0.043948 1.000000
-0.026800 -0.043204 -0.089798 1.000000
0.263238 -0.085139 -0.051791 1.000000
-0.450395 -0.077555 0.062942 3.000000
-0.194421 0.050512 -0.086007 1.000000
-0.061897 -0.032452 -0.094206 1.000000
-0.448546 0.094129 -0.033428 3.000000
0.226056 -0.053830 0.084232 1.000000
-0.229474 0.067168 -0.073804 1.000000
0.218868 0.010544 -0.099117 1.000000
-0.200743 -0.027125 -0.095872 1.000000
-0.384931 0.076400 0.064626 1.000000
0.090987 0.027699 0.096135 1.000000
-0.457370 -0.097218 0.022409 3.000000
0.042084 0.099530 0.009394 1.000000
-0.236361 0.016188 0.098720 1.000000
0.038613 0.094957 -0.031128 1.000000
0.400755 -0.098140 0.018028 1.000000
-0.132139 -0.075212 0.065709 1.000000
-0.433739 -0.034702 0.093758 3.000000
-0.328431 -0.098241 0.017395 1.000000
-0.425917 -0.021462 0.097661 1.000000
-0.029740 0.097712 0.021242 1.000000
0.394039 -0.076406 0.064355 1.000000
-0.454388 0.008899 -0.099273 3.000000
-0.345070 0.063381 -0.077100 1.000000
-0.087184 -0.099592 0.005915 1.000000
0.289175 0.065621 0.075531 1.000000
0.237488 0.091238 -0.040640 1.000000
0.459235 -0.040323 0.091468 2.000000
0.164799 0.088753 -0.045775 1.000000
-0.442595 -0.087192 -0.048319 3.000000
-0.250610 -0.095103 -0.029928 1.000000
-0.434737 -0.045671 0.088904 3.000000
0.306814 -0.095622 0.028505 1.000000
-0.374442 -0.099595 -0.005434 1.000000
-0.201356 -0.069368 -0.071528 1.000000
-0.362543 -0.099168 0.010760 1.000000
0.350977 -0.085919 -0.050473 1.000000
-0.318186 0.032328 -0.094334 1.000000
0.195681 0.067395 -0.073604 1.000000
-0.456867 0.065075 -0.075649 3.000000
0.160583 0.091841 -0.039246 1.000000
-0.426609 -0.082713 0.055925 3.000000
0.416086 -0.070241 0.071018 2.000000
0.379407 -0.031895 -0.094406 1.000000
0.046011 -0.083504 0.054761 1.000000
0.122427 0.069214 0.072279 1.000000
-0.159306 -0.003244 0.099964 1.000000
-0.130688 -0.082203 -0.056313 1.000000
-0.351506 0.001897 -0.099651 1.000000
-0.229651 -0.072886 0.068348 1.000000
-0.307015 -0.078464 -0.061407 1.000000
0.404303 -0.099100 -0.011108 1.000000
0.234725 0.086178 0.050791 1.000000
0.133282 0.010059 0.099526 1.000000
-0.099820 -0.099695 0.002634 1.000000
-0.255800 0.093272 0.036171 1.000000
-0.061476 -0.059453 -0.079966 1.000000
-0.240886 0.098554 -0.016529 1.000000
0.058081 0.098489 0.017303 1.000000
0.208169 0.083940 -0.054100 1.000000
-0.418647 0.024899 0.096945 1.000000
-0.234056 0.029307 0.095668 1.000000
0.325842 -0.002745 -0.099617 1.000000
0.045582 0.034481 -0.093559 1.000000
-0.393215 -0.096956 -0.023219 1.000000
-0.377805 -0.092121 -0.038060 1.000000
-0.465343 -0.029977 -0.095043 3.000000
0.369088 -0.005709 0.099887 1.000000
-0.353129 -0.055552 -0.082699 1.000000
-0.274256 -0.015879 0.098732 1.000000
0.302420 0.048903 0.087321 1.000000
0.280473 -0.037447 0.092713 1.000000
0.227654 -0.008092 -0.099327 1.000000
0.097318 -0.067700 0.073492 1.000000
-0.315724 -0.091167 -0.040266 1.000000
0.071106 -0.023749 0.097150 1.000000
-0.064314 0.034065 0.094072 1.000000
-0.071359 0.031795 0.094889 1.000000
0.405064 -0.083851 -0.053887 1.000000
-0.296307 -0.085292 -0.051532 1.000000
0.435245 0.091755 0.039809 2.000000
-0.426771 0.027823 0.096100 1.000000
-0.447771 -0.070119 -0.070777 3.000000
-0.438539 -0.040807 0.091259 3.000000
0.055049 -0.094201 0.032942 1.000000
-0.121268 -0.006705 0.099821 1.000000
-0.136319 0.026490 -0.096124 1.000000
0.430946 0.071463 0.070029 2.000000
-0.198395 -0.032087 0.094700 1.000000
0.435503 0.052187 -0.085017 1.000000
-0.237792 -0.045317 -0.088721 1.000000
-0.202673 -0.055642 0.083001 1.000000
0.107826 -0.000049 -0.099702 1.000000
0.021523 0.005931 -0.099524 1.000000
0.373901 -0.028273 -0.095538 1.000000
-0.007999 0.073539 -0.067509 1.000000
0.408117 0.074179 -0.066783 1.000000
-0.183261 -0.037207 0.092817 1.000000
-0.464775 0.099229 -0.012213 3.000000
0.269700 -0.074670 -0.065961 1.000000
0.192667 -0.084442 -0.052970 1.000000
-0.192426 -0.049605 0.086768 1.000000
0.365721 -0.095826 0.027801 1.000000
-0.112850 0.098784 -0.015075 1.000000
0.349916 -0.011194 0.099397 1.000000
0.029712 -0.084949 0.052475 1.000000
-0.130163 -0.093997 -0.033148 1.000000
-0.312613 0.098541 -0.016607 1.000000
-0.416641 0.083031 -0.055437 1.000000
0.337900 -0.015331 -0.098456 1.000000
0.098233 0.096271 0.027073 1.000000
0.291660 0.076492 -0.064160 1.000000
0.415323 -0.003281 -0.099600 1.000000
-0.203492 0.040051 -0.091324 1.000000
0.170622 -0.053559 -0.084053 1.000000
-0.144384 -0.078269 -0.061659 1.000000
0.020400 -0.054761 0.083599 1.000000
0.288444 0.099646 -0.007802 1.000000
-0.333190 -0.094709 0.031531 1.000000
-0.452212 0.096415 -0.026218 3.000000
-0.388611 -0.090967 -0.040726 1.000000
0.272600 0.031511 -0.094629 1.000000
0.080614 0.050743 -0.085871 1.000000
-0.013797 0.091914 0.039441 1.000000
-0.201903 0.067427 0.073939 1.000000
-0.029200 -0.051879 -0.085061 1.000000
-0.465566 0.089223 0.045215 3.000000
0.237101 -0.071790 -0.069106 1.000000
-0.389156 -0.057327 -0.081493 1.000000
-0.153216 -0.099025 -0.011903 1.000000
0.107640 -0.038777 -0.091774 1.000000
0.312164 -0.023744 0.097151 1.000000
-0.302415 -0.086444 -0.049585 1.000000
-0.323491 -0.040915 0.091212 1.000000
0.262135 0.099458 0.010162 1.000000
-0.160641 0.037854 -0.092275 1.000000
0.023627 0.047065 -0.087950 1.000000
-0.096134 0.061883 -0.078262 1.000000
0.430525 -0.038708 0.092167 2.000000
-0.443099 0.003327 -0.099606 3.000000
-0.451216 0.097648 0.021528 3.000000
0.223419 -0.093779 0.034117 1.000000
0.099302 -0.074848 0.066122 1.000000
-0.191463 -0.062801 0.077731 1.000000
0.362244 0.098811 -0.014908 1.000000
0.174939 0.088058 0.047501 1.000000
0.269375 0.098922 0.014568 1.000000
-0.463805 0.097873 0.020521 3.000000
-0.057755 -0.092781 0.036887 1.000000
-0.176516 0.061984 0.078546 1.000000
-0.066310 -0.015699 0.098760 1.000000
-0.199200 -0.081776 -0.056941 1.000000
-0.079070 0.095140 0.030967 1.000000
-0.042039 -0.096862 0.024000 1.000000
-0.019492 0.081239 0.058437 1.000000
0.299042 -0.093103 0.035993 1.000000
-0.329741 0.029170 0.095708 1.000000
-0.340355 0.070515 -0.070615 1.000000
0.167176 0.092214 -0.038386 1.000000
0.227769 -0.061196 0.078977 1.000000
-0.342102 0.018943 0.098276 1.000000
-0.035217 0.099170 -0.012637 1.000000
-0.271148 -0.092741 -0.036628 1.000000
0.316202 -0.073616 0.067520 1.000000
-0.011622 0.088591 -0.046092 1.000000
-0.011826 0.099997 -0.000082 1.000000
0.390174 0.077362 -0.063130 1.000000
0.230527 -0.099337 0.008964 1.000000
0.294347 -0.099566 -0.006179 1.000000
0.227092 -0.053145 -0.084312 1.000000
0.189066 -0.098177 0.017795 1.000000
0.277829 -0.099520 0.007036 1.000000
-0.232141 -0.097624 -0.020228 1.000000
0.431836 -0.077621 0.062858 2.000000
-0.420353 0.071549 -0.069580 1.000000
-0.097914 0.008294 -0.099330 1.000000
-0.377686 0.089829 0.044026 1.000000
0.159651 0.082437 0.056674 1.000000
-0.459408 0.085048 -0.052340 3.000000
0.341363 0.061237 0.079126 1.000000
0.137638 -0.041774 0.090840 1.000000
-0.212445 -0.072070 -0.068826 1.000000
-0.044384 -0.075135 -0.065434 1.000000
-0.281824 0.083750 0.054743 1.000000
0.152660 0.098697 0.015987 1.000000
-0.259864 0.099282 0.012018 1.000000
0.314881 0.029899 -0.095134 1.000000
0.073636 0.049482 0.086979 1.000000
-0.319160 -0.045976 0.088748 1.000000
-0.005427 0.040993 -0.090916 1.000000
-0.176145 -0.098815 -0.013409 1.000000
-0.232386 -0.095013 0.030601 1.000000
-0.411017 0.076427 0.064596 1.000000
0.208703 -0.019026 0.098206 1.000000
0.049016 0.097973 -0.019714 1.000000
0.000667 -0.093791 0.034083 1.000000
-0.261869 -0.065492 -0.075076 1.000000
0.384851 0.048299 0.087679 1.000000
0.046371 0.061642 0.078812 1.000000
0.128730 0.000485 0.100058 1.000000
-0.274651 0.068534 -0.072595 1.000000
0.454594 -0.095455 -0.028719 2.000000
-0.310913 0.054195 0.084143 1.000000
-0.218889 0.025138 -0.096517 1.000000
-0.387189 0.008084 0.099713 1.000000
0.171575 -0.072517 -0.068379 1.000000
0.334009 -0.051426 0.085691 1.000000
-0.418303 0.064661 -0.076015 1.000000
0.077816 -0.092979 0.036337 1.000000
0.066440 -0.018964 -0.097857 1.000000
0.272722 -0.091765 -0.038882 1.000000
-0.182293 -0.060020 -0.079526 1.000000
0.433784 -0.070116 0.071143 2.000000
-0.147562 -0.072298 -0.068598 1.000000
-0.128611 -0.015401 -0.098445 1.000000
-0.342550 0.051222 -0.085587 1.000000
0.017262 -0.087894 -0.047002 1.000000
-0.146840 -0.005854 -0.099520 1.000000
-0.141915 -0.074078 -0.066633 1.000000
0.415973 -0.088325 0.046519 1.000000
0.183872 -0.098970 0.012789 1.000000
0.464377 -0.085695 -0.050852 2.000000
-0.201383 0.083357 0.055321 1.000000
0.356293 0.093564 -0.034998 1.000000
0.101788 0.042872 0.090449 1.000000
0.366075 0.054806 0.083727 1.000000
-0.379486 -0.040896 0.091220 1.000000
-0.398711 0.097756 -0.020684 1.000000
-0.262643 0.074268 -0.066682 1.000000
-0.037459 0.034408 -0.093586 1.000000
-0.129769 0.082444 0.056664 1.000000
-0.454836 -0.062967 0.077603 3.000000
0.395866 0.033590 0.094243 1.000000
-0.440157 -0.019372 -0.097765 3.000000
-0.422842 0.054164 -0.083801 3.000000
-0.330507 0.068254 -0.072847 1.000000
0.415171 -0.092734 -0.036644 1.000000
-0.159889 0.032485 0.094641 1.000000
0.081965 0.095998 -0.027650 1.000000
0.270568 -0.062782 -0.077383 1.000000
-0.011405 -0.065353 0.075561 1.000000
0.020543 0.083711 0.054799 1.000000
-0.228179 0.090607 0.042461 1.000000
-0.075271 -0.098335 -0.016438 1.000000
-0.326312 -0.005731 0.099886 1.000000
0.354714 0.096971 0.024559 1.000000
0.087686 -0.087107 -0.048464 1.000000
0.423003 -0.090051 0.043133 2.000000
-0.288144 -0.029098 0.095661 1.000000
0.254165 0.029442 -0.095266 1.000000
0.338909 -0.088213 0.046739 1.000000
-0.060571 -0.068290 -0.072606 1.000000
-0.151928 -0.038833 0.092113 1.000000
0.055125 0.097254 0.023291 1.000000
0.238759 0.098389 -0.017568 1.000000
0.354594 0.079499 0.060737 1.000000
0.464608 -0.098356 0.016668 2.000000
-0.391987 0.020001 0.098040 1.000000
0.206002 -0.041401 -0.090639 1.000000
-0.164514 0.002214 0.100004 1.000000
-0.260932 -0.046643 -0.088046 1.000000
-0.334618 -0.077319 -0.062884 1.000000
0.447661 0.096717 -0.025175 2.000000
-0.419680 0.037748 0.092683 1.000000
0.002955 -0.018418 0.098330 1.000000
0.050488 -0.086385 -0.049684 1.000000
-0.221864 0.099992 -0.000236 1.000000
-0.454803 0.008740 0.099651 3.000000
0.024869 0.097021 0.024334 1.000000
0.125288 0.076735 0.064246 1.000000
0.038631 0.034799 -0.093445 1.000000
-0.408984 -0.096151 -0.026320 1.000000
0.082173 -0.043814 0.089850 1.000000
0.193775 -0.095357 -0.029053 1.000000
-0.308551 -0.082793 0.055807 1.000000
0.375213 -0.098995 0.012591 1.000000
0.228460 0.076277 -0.064403 1.000000
-0.224502 0.094909 -0.031262 1.000000
-0.380560 0.099011 -0.013640 1.000000
-0.311220 -0.022372 0.097458 1.000000
-0.151134 -0.006860 0.099806 1.000000
0.288627 0.089245 -0.044809 1.000000
-0.252093 -0.096888 -0.023521 1.000000
-0.120807 0.099378 -0.010638 1.000000
0.320956 -0.056350 -0.082157 1.000000
-0.053189 0.091725 0.039878 1.000000
0.387798 0.077420 0.063418 1.000000
0.333759 0.037813 -0.092292 1.000000
-0.134373 -0.070877 0.070382 1.000000
-0.080300 0.057047 -0.081842 1.000000
0.403415 0.032797 0.094528 1.000000
-0.074299 -0.030036 0.095389 1.000000
0.002635 -0.078426 0.061820 1.000000
-0.113841 0.092108 -0.038630 1.000000
0.111030 -0.015033 0.098866 1.000000
0.107279 -0.099766 0.000367 1.000000
-0.176765 -0.073653 -0.067115 1.000000
-0.323423 0.072946 -0.068181 1.000000
0.313008 -0.062950 -0.077253 1.000000
0.084573 -0.006221 0.099867 1.000000
-0.047957 -0.005799 0.099884 1.000000
-0.186370 -0.066340 0.074692 1.000000
0.384684 -0.067563 0.073613 1.000000
-0.378213 0.087673 -0.047894 1.000000
-0.141370 0.099367 0.011123 1.000000
0.253838 -0.074330 -0.066347 1.000000
0.199056 -0.099530 -0.006563 1.000000
0.063496 -0.090718 0.041666 1.000000
0.034966 0.050982 0.086092 1.000000
-0.174030 -0.059101 -0.080239 1.000000
0.269195 -0.050042 -0.086147 1.000000
-0.328896 -0.099005 -0.012116 1.000000
0.066695 0.001934 -0.099650 1.000000
0.243603 0.095436 -0.029585 1.000000
0.045362 -0.097733 -0.019743 1.000000
-0.092031 0.085891 -0.050914 1.000000
0.047061 -0.052328 0.085158 1.000000
0.006569 -0.002303 0.099994 1.000000
-0.103134 0.003514 -0.099600 1.000000
-0.158841 0.003176 0.099974 1.000000
-0.095487 0.043895 0.089928 1.000000
0.377467 0.091425 0.040572 1.000000
-0.115013 0.073161 0.068300 1.000000
0.245187 0.058160 -0.081086 1.000000
0.442807 0.053409 -0.084294 2.000000
-0.095854 0.028186 0.095994 1.000000
0.320999 0.001481 -0.099664 1.000000
-0.135115 0.062767 0.077939 1.000000
-0.217529 0.065910 -0.074913 1.000000
0.379041 0.013019 0.099222 1.000000
-0.078507 -0.084265 0.053631 1.000000
-0.200111 0.055741 0.083092 1.000000
-0.122900 -0.094496 -0.031762 1.000000
0.089625 -0.093421 0.035109 1.000000
0.133825 -0.079453 -0.060133 1.000000
0.054498 -0.096488 0.025525 1.000000
0.217485 -0.097307 -0.021649 1.000000
-0.065966 0.097887 0.020461 1.000000
0.034142 -0.010439 0.099468 1.000000
0.255612 0.082084 0.057195 1.000000
0.017602 0.087836 0.047937 1.000000
-0.266361 -0.099186 -0.010206 1.000000
-0.161886 -0.096659 0.024908 1.000000
0.321174 -0.045870 -0.088440 1.000000
0.459966 -0.096952 0.023598 2.000000
-0.027905 0.038513 -0.091989 1.000000
0.246319 0.098652 0.016270 1.000000
0.051110 0.059844 -0.079843 1.000000
0.182187 -0.096509 0.025452 1.000000
0.437235 -0.082615 -0.055707 1.000000
-0.263374 0.011187 0.099419 1.000000
-0.189300 -0.065675 -0.074915 1.000000
-0.107406 -0.024415 -0.096638 1.000000
-0.090592 0.039647 -0.091499 1.000000
0.095389 -0.030218 -0.094973 1.000000
-0.461804 -0.025016 0.096847 3.000000
-0.197494 0.007360 0.099781 1.000000
-0.013554 -0.098981 -0.012356 1.000000
-0.099608 -0.013506 -0.098745 1.000000
-0.355082 0.075789 -0.064957 1.000000
-0.160675 0.061778 0.078706 1.000000
-0.256756 -0.085237 0.051988 1.000000
0.035808 0.099238 0.012482 1.000000
-0.091732 -0.098135 0.018063 1.000000
-0.362068 0.023768 -0.096835 1.000000
-0.372631 0.096609 0.025912 1.000000
0.088470 0.024860 -0.096591 1.000000
0.081263 0.086015 0.051068 1.000000
-0.347508 0.046394 -0.088292 1.000000
-0.039394 0.046688 0.088505 1.000000
-0.218032 -0.078869 0.061248 1.000000
0.427798 0.093394 -0.035469 1.000000
-0.351511 0.096243 0.027169 1.000000
-0.327418 -0.022510 0.097427 1.000000
-0.134818 0.020625 -0.097538 1.000000
0.391048 0.091804 -0.039332 1.000000
-0.099444 0.099946 -0.001698 1.000000
0.208884 0.027290 0.096254 1.000000
-0.451064 0.051851 0.085578 3.000000
-0.189184 0.099874 -0.003986 1.000000
0.234981 0.091813 0.039674 1.000000
-0.300978 -0.048143 0.087633 1.000000
-0.246946 -0.047498 0.087973 1.000000
0.002880 -0.082570 0.056136 1.000000
-0.458445 -0.011843 -0.098973 3.000000
-0.084271 0.034981 -0.093379 1.000000
-0.112042 -0.091684 0.039434 1.000000
0.181199 0.098586 0.016692 1.000000
0.107196 -0.095417 0.029212 1.000000
0.409536 0.088479 0.046675 1.000000
0.370484 0.051306 0.085900 1.000000
0.189224 -0.096755 0.024478 1.000000
0.061398 0.036008 0.093372 1.000000
0.113971 -0.059500 0.080292 1.000000
-0.122404 -0.013706 0.099076 1.000000
-0.139255 -0.019722 0.098050 1.000000
0.396743 -0.090203 0.042833 1.000000
-0.015744 0.025278 0.096839 1.000000
-0.213177 0.087337 -0.048470 1.000000
0.199003 0.099821 -0.005667 1.000000
-0.275687 0.073165 -0.067934 1.000000
-0.056308 -0.033597 0.094156 1.000000
0.167867 0.032555 -0.094253 1.000000
-0.179944 -0.030583 0.095230 1.000000
-0.304689 -0.090298 -0.042274 1.000000
0.339190 -0.099310 -0.008894 1.000000
-0.074202 0.023731 0.097206 1.000000
-0.442017 0.041355 0.091122 3.000000
0.206330 0.099871 0.004439 1.000000
0.255906 0.035066 -0.093349 1.000000
-0.084600 0.020519 -0.097561 1.000000
0.161923 0.030479 -0.094965 1.000000
0.257664 0.068238 -0.072861 1.000000
-0.219823 0.096870 0.025010 1.000000
0.226844 0.059272 -0.080287 1.000000
0.446326 0.055268 0.083414 2.000000
-0.082041 0.076345 -0.064326 1.000000
-0.439408 -0.061486 0.078752 3.000000
-0.239276 -0.038171 -0.092037 1.000000
0.200804 -0.062279 -0.077773 1.000000
0.061773 0.096702 -0.025229 1.000000
0.211749 -0.099596 0.005793 1.000000
-0.310748 -0.073406 -0.067395 1.000000
-0.219441 0.086065 -0.050620 1.000000
0.047807 0.042871 -0.090087 1.000000
-0.053263 0.035634 -0.093144 1.000000
-0.402345 0.099963 0.001517 1.000000
-0.385293 -0.061818 -0.078131 1.000000
0.404701 -0.062671 -0.077470 1.000000
-0.462644 0.067766 -0.073277 3.000000
-0.018313 0.030929 0.095197 1.000000
0.164917 -0.095183 -0.029652 1.000000
-0.088959 -0.096779 0.024371 1.000000
0.326367 0.004883 0.099920 1.000000
-0.239834 -0.005375 -0.099535 1.000000
0.173333 -0.085207 0.052039 1.000000
-0.152584 -0.002312 -0.099631 1.000000
0.319569 -0.024219 -0.096682 1.000000
-0.308018 -0.058102 -0.080966 1.000000
0.458625 -0.091754 -0.038909 2.000000
-0.392808 0.000370 0.100062 1.000000
0.236935 -0.098444 0.016115 1.000000
-0.059973 0.087269 -0.048585 1.000000
-0.335416 0.090448 -0.042448 1.000000
-0.090661 -0.097695 -0.019910 1.000000
0.169023 0.084494 0.053639 1.000000
0.106368 0.074823 -0.066052 1.000000
0.271216 0.039342 0.091994 1.000000
-0.126979 0.060910 0.079379 1.000000
-0.354533 0.099116 0.013342 1.000000
-0.013582 0.098527 -0.016699 1.000000
0.402201 -0.038281 0.092352 1.000000
0.070329 0.043973 0.089888 1.000000
-0.268503 -0.045450 0.089016 1.000000
-0.206665 0.095168 -0.030509 1.000000
-0.327940 0.066391 0.074852 1.000000
0.185355 -0.062382 -0.077694 1.000000
-0.030744 0.098348 -0.017830 1.000000
0.026504 0.000777 -0.099686 1.000000
0.409329 -0.071932 -0.068964 1.000000
-0.229809 0.090037 -0.043255 1.000000
0.000307 0.055053 0.083560 1.000000
-0.314745 -0.012179 0.099303 1.000000
-0.078576 0.082758 -0.055840 1.000000
0.191015 0.091854 -0.039216 1.000000
0.442106 0.041443 -0.090721 1.000000
0.064025 0.049160 0.087169 1.000000
0.192276 0.047662 -0.087645 1.000000
-0.087722 -0.058171 0.081282 1.000000
0.297910 0.013697 0.099114 1.000000
0.152089 -0.044536 -0.089119 1.000000
-0.192385 -0.049871 -0.086248 1.000000
-0.463819 0.072947 0.068544 3.000000
-0.204956 -0.099652 -0.003641 1.000000
0.447143 -0.085676 -0.050883 2.000000
-0.102805 -0.013455 0.099116 1.000000
0.049518 0.022004 -0.097229 1.000000
0.293914 0.094000 0.034149 1.000000
-0.063750 -0.082161 -0.056374 1.000000
0.005842 0.099764 0.006921 1.000000
0.174821 -0.013083 0.099175 1.000000
-0.323945 0.044888 0.089421 1.000000
-0.179736 0.099171 0.012997 1.000000
-0.046089 -0.057153 0.081974 1.000000
0.145405 0.099995 -0.000142 1.000000
-0.463950 0.051310 0.085898 3.000000
-0.174618 -0.099690 0.002788 1.000000
0.274895 -0.001347 0.100024 1.000000
-0.451621 -0.074835 -0.065774 3.000000
-0.123544 0.059640 -0.080002 1.000000
0.359170 0.091167 -0.040804 1.000000
0.093416 0.078706 0.061759 1.000000
0.340711 0.093067 -0.036379 1.000000
0.343139 0.069976 -0.071153 1.000000
-0.304613 -0.078660 0.061518 1.000000
0.017984 0.072460 -0.068670 1.000000
-0.008807 0.096562 0.026073 1.000000
0.052828 0.034668 0.093855 1.000000
0.271181 -0.097133 -0.022424 1.000000
0.048489 0.044878 0.089426 1.000000
0.283951 0.071939 0.069554 1.000000
0.269935 0.026222 0.096565 1.000000
-0.361669 0.050539 -0.085991 1.000000
0.100205 0.068797 0.072695 1.000000
0.068340 -0.030263 0.095323 1.000000
0.043165 -0.010443 -0.099105 1.000000
0.089252 -0.099265 0.009727 1.000000
0.246729 0.025799 0.096687 1.000000
0.409490 -0.049608 -0.086403 1.000000
0.419007 -0.060455 -0.079188 1.000000
0.364835 0.043358 0.090201 1.000000
-0.328165 -0.053576 0.084405 1.000000
0.316513 -0.096182 -0.026214 1.000000
0.045016 -0.050227 -0.086037 1.000000
0.251816 -0.066780 -0.073941 1.000000
0.070167 -0.042470 -0.090172 1.000000
0.114099 -0.028257 -0.095543 1.000000
-0.105945 -0.004798 -0.099553 1.000000
0.246947 -0.083374 -0.054590 1.000000
-0.131621 0.001920 0.100013 1.000000
0.443035 0.002537 -0.099631 1.000000
-0.293448 0.061955 0.078569 1.000000
0.329211 -0.092441 0.037684 1.000000
0.040073 -0.093591 0.034636 1.000000
0.210954 -0.045907 -0.088420 1.000000
0.295190 0.056058 -0.082514 1.000000
-0.144668 0.059991 0.080092 1.000000
0.446082 0.098635 0.016378 2.000000
-0.213042 -0.093585 0.034655 1.000000
-0.417335 0.016369 -0.098328 1.000000
-0.359363 -0.022383 -0.097093 1.000000
-0.031763 -0.039121 -0.091626 1.000000
-0.313278 -0.080935 -0.058178 1.000000
-0.353377 0.057808 -0.081325 1.000000
-0.104254 0.099836 0.005564 1.000000
0.180325 0.074775 -0.066107 1.000000
-0.296147 -0.099729 0.001551 1.000000
-0.434024 -0.094572 -0.031549 3.000000
-0.424029 -0.099508 -0.006797 1.000000
0.063749 -0.097306 -0.021653 1.000000
0.393497 0.089973 0.043743 1.000000
0.337289 -0.038467 0.092271 1.000000
0.240055 -0.051323 0.085752 1.000000
-0.097113 0.038789 -0.091870 1.000000
-0.134759 0.099873 -0.004014 1.000000
-0.156241 0.070218 0.071274 1.000000
-0.416622 0.043933 -0.089545 1.000000
0.303386 0.098473 0.017400 1.000000
-0.123224 0.070987 0.070505 1.000000
0.383266 0.097073 -0.023741 1.000000
0.114123 0.092642 0.037760 1.000000
0.023497 -0.097063 -0.022738 1.000000
0.352066 0.052506 -0.084828 1.000000
0.264878 0.098761 -0.015223 1.000000
0.068005 0.030187 -0.095050 1.000000
-0.150072 0.047079 -0.087942 1.000000
0.317132 -0.098265 -0.016877 1.000000
0.067746 -0.016935 0.098564 1.000000
0.268823 0.099980 0.000981 1.000000
0.440317 0.088258 -0.046747 2.000000
-0.252740 -0.020242 -0.097571 1.000000
0.303895 0.048327 -0.087299 1.000000
-0.089133 0.062755 -0.077586 1.000000
0.327152 0.087551 -0.048108 1.000000
0.088328 0.086128 -0.050514 1.000000
0.190025 -0.097588 -0.020392 1.000000
0.167899 -0.080758 -0.058439 1.000000
-0.053419 -0.056863 0.082171 1.000000
0.208944 0.099358 0.011220 1.000000
-0.045498 0.099553 0.009157 1.000000
0.106100 -0.092423 0.037725 1.000000
-0.386287 0.016196 0.098718 1.000000
0.020782 -0.094375 0.032460 1.000000
0.008557 -0.085195 0.052060 1.000000
0.134800 0.070268 0.071225 1.000000
-0.401938 0.061755 0.078724 1.000000
-0.188914 0.009235 0.099604 1.000000
0.050146 0.095378 -0.029785 1.000000
0.414754 0.036571 -0.092807 1.000000
-0.070861 0.097003 0.024413 1.000000
-0.092697 0.001618 -0.099660 1.000000
0.448859 0.069531 0.071961 2.000000
-0.112970 -0.025337 0.096754 1.000000
-0.452542 0.060170 -0.079591 3.000000
0.047937 -0.035908 -0.092961 1.000000
0.452427 -0.037263 0.092792 2.000000
-0.021192 0.064321 0.076677 1.000000
-0.126629 -0.099558 0.006637 1.000000
-0.339468 -0.021304 0.097696 1.000000
0.027673 0.098946 -0.014054 1.000000
-0.388951 0.053965 -0.083936 1.000000
-0.058269 0.051251 -0.085570 1.000000
0.056264 -0.086649 0.049600 1.000000
-0.439741 0.019924 0.098057 3.000000
0.154476 -0.099468 -0.007222 1.000000
0.438023 0.047055 0.088317 2.000000
-0.211179 -0.042499 0.090520 1.000000
0.209300 -0.079738 0.060128 1.000000
-0.327865 0.080578 0.059346 1.000000
0.026000 0.075416 0.065743 1.000000
0.054497 0.098826 -0.014810 1.000000
0.265076 0.054139 -0.083818 1.000000
-0.341060 0.028080 -0.095662 1.000000
-0.149022 0.093569 0.035346 1.000000
-0.454837 0.094098 0.033878 3.000000
0.446886 0.045370 0.089176 2.000000
0.221908 0.100000 0.000344 1.000000
0.172346 0.100002 0.000091 1.000000
-0.229855 -0.039737 -0.091359 1.000000
-0.334983 -0.059159 0.080556 1.000000
-0.253188 -0.099313 0.009222 1.000000
-0.055623 -0.065262 0.075642 1.000000
-0.215582 -0.016051 0.098704 1.000000
0.010480 -0.025847 -0.096243 1.000000
0.446519 -0.079524 0.060404 2.000000
0.147725 0.099104 -0.013053 1.000000
-0.426177 -0.076358 -0.064047 1.000000
-0.049719 -0.003702 -0.099587 1.000000
0.325958 -0.096337 0.026043 1.000000
-0.378588 0.084235 0.054029 1.000000
-0.214723 -0.043355 -0.089721 1.000000
-0.114908 -0.008618 0.099640 1.000000
-0.052089 0.099484 -0.009523 1.000000
-0.293911 -0.008733 0.099629 1.000000
0.304699 0.090045 -0.043239 1.000000
0.091408 0.098460 -0.017122 1.000000
0.258435 -0.085644 0.051300 1.000000
0.282593 -0.000408 0.100054 1.000000
0.045794 0.084483 -0.053295 1.000000
0.327411 -0.066386 0.074651 1.000000
-0.449911 -0.051290 0.085772 3.000000
0.423588 0.095982 -0.027707 1.000000
-0.369931 0.065554 -0.075227 1.000000
0.227704 -0.088357 -0.046094 1.000000
0.286333 0.027468 -0.095840 1.000000
-0.141604 0.022817 0.097410 1.000000
0.105496 0.099833 0.005675 1.000000
0.110501 0.100003 0.000267 1.000000
0.071588 -0.098923 0.013086 1.000000
0.060335 -0.059962 -0.079570 1.000000
-0.042040 0.084476 0.053670 1.000000
0.045615 -0.057142 0.081982 1.000000
0.431207 -0.053028 0.084744 2.000000
0.071215 -0.074450 0.066574 1.000000
0.393048 0.095696 0.029055 1.000000
-0.150845 0.078331 -0.061880 1.000000
0.157673 0.099942 0.002207 1.000000
-0.332376 -0.081409 -0.057480 1.000000
0.397541 -0.066225 -0.074430 1.000000
0.226105 0.044131 -0.089444 1.000000
0.075398 0.017883 -0.098089 1.000000
0.036830 -0.031094 -0.094695 1.000000
-0.220947 0.099747 -0.006737 1.000000
-0.072692 -0.071070 0.070189 1.000000
0.311700 0.014595 -0.098609 1.000000
-0.455486 0.088331 -0.046603 3.000000
-0.397188 0.094360 0.033150 1.000000
-0.199832 0.065926 -0.074899 1.000000
-0.446739 -0.098756 0.014142 3.000000
0.374413 -0.021709 -0.097243 1.000000
0.067170 -0.035933 0.093315 1.000000
0.354316 -0.074856 -0.065751 1.000000
-0.386428 -0.069746 -0.071150 1.000000
-0.019044 -0.099304 -0.008952 1.000000
0.019351 0.048668 0.087461 1.000000
-0.141397 -0.058047 -0.081003 1.000000
0.095552 -0.061523 -0.078360 1.000000
0.113129 -0.058055 -0.080998 1.000000
0.237271 0.010102 -0.099159 1.000000
0.112643 -0.021383 -0.097316 1.000000
0.335450 0.098642 -0.015970 1.000000
0.170145 -0.042700 -0.090055 1.000000
-0.026670 -0.089481 0.044250 1.000000
-0.309739 -0.099369 -0.008269 1.000000
0.429006 0.058031 -0.081173 1.000000
-0.453506 -0.093426 0.035097 3.000000
-0.445429 -0.099227 -0.009771 3.000000
-0.192240 -0.097298 0.022050 1.000000
0.223922 -0.077163 -0.063085 1.000000
0.202531 -0.005330 0.099899 1.000000
0.338749 -0.087621 -0.047539 1.000000
0.213302 0.093434 0.035721 1.000000
-0.110846 -0.046174 -0.088285 1.000000
0.421891 -0.045546 0.088968 2.000000
-0.025248 -0.061787 0.078518 1.000000
0.165472 -0.084943 -0.052122 1.000000
0.094490 0.098343 0.018222 1.000000
0.041590 -0.066024 -0.074607 1.000000
0.376496 0.045077 -0.088963 1.000000
0.310965 0.094556 -0.032243 1.000000
0.365180 0.065551 -0.075230 1.000000
0.272757 -0.097025 0.023272 1.000000
-0.445258 -0.008308 -0.099307 3.000000
0.210435 -0.036981 -0.092552 1.000000
-0.048516 -0.091297 0.040328 1.000000
0.045075 0.099930 -0.002208 1.000000
-0.226015 0.099754 0.007022 1.000000
0.262159 0.092761 -0.037121 1.000000
-0.362611 -0.094623 -0.031409 1.000000
-0.300884 -0.068187 0.073063 1.000000
-0.259147 0.049261 0.087110 1.000000
