-0.466955 0.023142 -0.063572 3.000000
-0.466955 0.063046 -0.029386 3.000000
-0.466955 -0.042723 0.084188 3.000000
-0.466955 -0.059390 0.021414 3.000000
-0.466955 0.059306 0.039155 3.000000
-0.466955 -0.079523 -0.012482 3.000000
-0.466955 -0.059162 -0.059336 3.000000
-0.466955 0.058708 -0.034483 3.000000
-0.466955 -0.079808 -0.016597 3.000000
-0.466955 0.029427 -0.089908 3.000000
-0.466955 -0.039246 0.082407 3.000000
-0.466955 -0.035809 0.041859 3.000000
-0.466955 0.002945 -0.056489 3.000000
-0.466955 0.023666 -0.071614 3.000000
-0.466955 -0.005603 0.009134 3.000000
-0.466955 0.064868 0.054095 3.000000
-0.466955 -0.001559 -0.021175 3.000000
-0.466955 -0.057660 -0.014588 3.000000
-0.466955 -0.053869 -0.017698 3.000000
-0.466955 -0.044688 0.063088 3.000000
-0.466955 0.005281 0.086696 3.000000
-0.466955 0.049967 0.080064 3.000000
-0.466955 -0.055079 -0.021694 3.000000
-0.466955 -0.000490 -0.019986 3.000000
-0.466955 -0.053037 0.071556 3.000000
-0.466955 -0.077200 0.002908 3.000000
-0.466955 0.092428 -0.022248 3.000000
-0.466955 -0.002044 -0.010010 3.000000
-0.466955 0.039760 -0.049018 3.000000
-0.466955 -0.090555 -0.034523 3.000000
-0.466955 -0.021966 -0.031996 3.000000
-0.466955 0.052892 0.026744 3.000000
-0.466955 0.054981 -0.035806 3.000000
-0.466955 0.019541 -0.038558 3.000000
-0.466955 -0.021300 -0.093350 3.000000
-0.466955 0.050367 0.038245 3.000000
-0.466955 0.068233 0.010175 3.000000
-0.466955 0.050369 0.008777 3.000000
-0.466955 0.029557 -0.058838 3.000000
-0.466955 -0.093471 -0.004701 3.000000
-0.466955 -0.075578 0.017768 3.000000
-0.466955 -0.049087 -0.068252 3.000000
-0.466955 0.089251 -0.006539 3.000000
-0.466955 0.082945 0.013968 3.000000
-0.466955 -0.050369 -0.000239 3.000000
-0.466955 -0.003107 -0.015266 3.000000
-0.466955 0.057063 0.068956 3.000000
-0.466955 -0.041717 -0.000349 3.000000
-0.466955 0.054702 -0.062857 3.000000
-0.466955 0.042870 -0.073739 3.000000
-0.466955 -0.040428 -0.010800 3.000000
-0.466955 -0.070600 -0.007523 3.000000
-0.466955 0.070401 0.050937 3.000000
-0.466955 -0.071998 0.027815 3.000000
-0.466955 0.006869 0.087516 3.000000
-0.466955 -0.017971 0.037506 3.000000
-0.466955 -0.019215 0.078147 3.000000
-0.466955 0.046278 -0.033193 3.000000
-0.466955 0.052746 -0.001893 3.000000
-0.466955 0.077859 0.042182 3.000000
-0.466955 -0.053798 0.028526 3.000000
-0.466955 0.086397 0.000592 3.000000
-0.466955 -0.066576 0.019401 3.000000
-0.466955 0.059163 -0.042532 3.000000
-0.466955 0.020562 0.025929 3.000000
-0.466955 -0.020122 0.010993 3.000000
-0.466955 0.073161 -0.001628 3.000000
-0.466955 0.004861 -0.069835 3.000000
-0.466955 0.077151 0.001505 3.000000
-0.466955 0.076555 -0.005103 3.000000
-0.466955 -0.094386 -0.023104 3.000000
-0.466955 -0.047662 0.076030 3.000000
-0.466955 -0.000931 0.050598 3.000000
-0.466955 0.071943 0.048572 3.000000
-0.466955 0.030884 0.004272 3.000000
-0.466955 0.005944 -0.057397 3.000000
-0.466955 -0.083722 -0.033403 3.000000
-0.466955 0.049141 -0.014902 3.000000
-0.466955 -0.065369 0.074254 3.000000
-0.466955 0.003312 -0.081162 3.000000
-0.466955 -0.082642 -0.026843 3.000000
-0.466955 0.001506 0.007313 3.000000
-0.466955 0.009821 0.022425 3.000000
-0.466955 -0.012693 -0.006143 3.000000
-0.466955 0.057883 -0.009276 3.000000
-0.466955 -0.006953 -0.095898 3.000000
-0.466955 -0.036731 -0.044928 3.000000
-0.466955 0.030333 -0.094251 3.000000
-0.466955 -0.002479 0.086048 3.000000
-0.466955 0.012238 0.075035 3.000000
-0.466955 0.024899 -0.051273 3.000000
-0.466955 0.033419 -0.026965 3.000000
-0.466955 0.036635 0.066198 3.000000
-0.466955 0.023276 0.055007 3.000000
-0.466955 -0.044757 -0.030154 3.000000
-0.466955 0.017766 0.065101 3.000000
-0.466955 -0.065389 0.059225 3.000000
-0.466955 -0.090699 -0.040603 3.000000
-0.466955 -0.026051 0.005821 3.000000
-0.466955 0.067859 -0.069959 3.000000
-0.466955 -0.008928 -0.066954 3.000000
-0.466955 0.045967 0.068457 3.000000
-0.466955 0.016515 -0.098061 3.000000
-0.466955 -0.060114 -0.048486 3.000000
-0.466955 0.047408 0.036793 3.000000
-0.466955 -0.055513 -0.033398 3.000000
-0.466955 0.006581 -0.090035 3.000000
-0.466955 0.064190 -0.059706 3.000000
-0.466955 0.022488 0.070476 3.000000
-0.466955 -0.076711 -0.041767 3.000000
-0.466955 0.068694 0.016124 3.000000
-0.466955 0.073477 -0.058574 3.000000
-0.466955 -0.005677 -0.020142 3.000000
-0.466955 0.013000 -0.092778 3.000000
-0.466955 0.062332 0.056735 3.000000
-0.466955 -0.038298 0.074615 3.000000
-0.466955 -0.005591 -0.086327 3.000000
-0.466955 -0.023792 0.081550 3.000000
-0.466955 0.023389 0.046443 3.000000
-0.466955 0.014358 0.069841 3.000000
-0.466955 -0.051181 0.012589 3.000000
-0.466955 -0.010505 0.049866 3.000000
-0.466955 0.048809 -0.039360 3.000000
-0.466955 0.050287 0.077694 3.000000
-0.466955 -0.020586 -0.056823 3.000000
-0.466955 0.001991 0.070621 3.000000
-0.466955 -0.061395 0.044134 3.000000
-0.466955 -0.027895 -0.019260 3.000000
-0.466955 0.070933 -0.068955 3.000000
-0.466955 -0.009862 0.030666 3.000000
-0.466955 0.066193 0.072767 3.000000
-0.466955 -0.083006 -0.048689 3.000000
-0.466955 -0.090044 -0.025894 3.000000
-0.466955 -0.085003 0.034855 3.000000
-0.466955 0.065356 0.075189 3.000000
-0.466955 -0.004595 0.001131 3.000000
-0.466955 -0.012239 -0.026590 3.000000
-0.466955 -0.077901 -0.008361 3.000000
-0.466955 0.035848 -0.060287 3.000000
-0.466955 -0.079695 -0.032490 3.000000
-0.466955 -0.009426 0.015409 3.000000
-0.466955 0.006634 0.079377 3.000000
-0.466955 0.034720 -0.005345 3.000000
-0.466955 -0.023594 -0.079617 3.000000
-0.466955 0.003421 -0.095321 3.000000
-0.466955 -0.071912 -0.026706 3.000000
-0.466955 0.024956 0.018283 3.000000
-0.466955 0.072255 0.049963 3.000000
-0.466955 0.022808 0.062100 3.000000
-0.466955 -0.014334 0.027216 3.000000
-0.466955 0.059766 0.059038 3.000000
-0.466955 -0.062319 -0.057801 3.000000
-0.466955 0.044664 0.037430 3.000000
-0.466955 0.032346 -0.036718 3.000000
-0.466955 -0.063537 -0.019910 3.000000
-0.466955 -0.010471 0.048311 3.000000
-0.466955 -0.059258 -0.017038 3.000000
-0.466955 -0.061921 -0.044004 3.000000
-0.466955 -0.087451 -0.010990 3.000000
-0.466955 0.015817 0.010737 3.000000
-0.466955 -0.019314 0.026333 3.000000
-0.466955 -0.026250 -0.051567 3.000000
-0.466955 0.012480 -0.076000 3.000000
-0.466955 0.045851 0.047771 3.000000
-0.466955 0.018662 0.025861 3.000000
-0.466955 -0.088281 0.004942 3.000000
-0.466955 0.012738 -0.074051 3.000000
-0.466955 -0.078291 -0.015880 3.000000
-0.466955 0.001488 0.023509 3.000000
-0.466955 0.062483 0.006663 3.000000
-0.466955 -0.031808 0.040007 3.000000
-0.466955 -0.053923 0.083542 3.000000
-0.466955 0.068317 0.043532 3.000000
-0.466955 -0.061117 0.029102 3.000000
-0.466955 -0.037390 -0.023388 3.000000
-0.466955 -0.000879 0.086404 3.000000
-0.466955 0.072474 -0.032321 3.000000
-0.466955 0.073237 -0.051606 3.000000
-0.466955 0.035687 0.070023 3.000000
-0.466955 0.040001 0.033560 3.000000
-0.466955 -0.089067 -0.015422 3.000000
-0.466955 -0.076897 -0.039615 3.000000
-0.466955 -0.035517 0.003228 3.000000
-0.466955 -0.011418 0.019744 3.000000
-0.466955 0.099165 0.012936 3.000000
-0.466955 0.031643 0.076394 3.000000
-0.466955 -0.025170 -0.038470 3.000000
-0.466955 0.008470 -0.017626 3.000000
-0.466955 0.007917 0.080412 3.000000
-0.466955 -0.030206 0.059048 3.000000
-0.466955 0.005899 -0.050472 3.000000
-0.466955 -0.013262 -0.007686 3.000000
-0.466955 0.065315 -0.003917 3.000000
-0.466955 -0.063300 -0.025208 3.000000
-0.466955 0.006778 -0.010869 3.000000
-0.466955 0.069246 0.031745 3.000000
-0.466955 0.099325 -0.010378 3.000000
-0.466955 -0.032724 -0.018535 3.000000
-0.466955 0.032811 0.075082 3.000000
-0.466955 0.043993 0.006479 3.000000
-0.466955 -0.014078 -0.065773 3.000000
-0.466955 0.082549 -0.053257 3.000000
-0.466955 -0.015435 -0.007206 3.000000
-0.466955 -0.062604 0.045690 3.000000
-0.466955 0.015707 0.054071 3.000000
-0.466955 -0.057225 -0.049108 3.000000
-0.466955 -0.067174 0.065709 3.000000
-0.466955 0.052965 -0.071117 3.000000
-0.466955 -0.082168 0.007125 3.000000
-0.466955 0.007621 0.008610 3.000000
-0.466955 -0.055521 0.030499 3.000000
-0.466955 0.072149 -0.066187 3.000000
-0.466955 0.038600 -0.039688 3.000000
-0.466955 0.017147 -0.087547 3.000000
-0.466955 -0.002819 0.019736 3.000000
-0.466955 -0.024990 -0.057999 3.000000
-0.466955 0.012902 0.040995 3.000000
-0.466955 0.017554 -0.000516 3.000000
-0.466955 -0.040491 0.000793 3.000000
-0.466955 -0.067542 0.070255 3.000000
-0.466955 0.051027 0.081950 3.000000
-0.466955 -0.055919 -0.036731 3.000000
-0.466955 0.075571 0.042321 3.000000
-0.466955 -0.044650 -0.012814 3.000000
-0.466955 -0.093260 0.029902 3.000000
-0.466955 -0.009640 -0.038053 3.000000
-0.466955 0.021510 0.078618 3.000000
-0.466955 -0.012923 -0.028193 3.000000
-0.466955 0.017371 0.060070 3.000000
-0.466955 0.021691 0.009759 3.000000
-0.466955 0.013524 0.068723 3.000000
-0.466955 -0.057840 0.011661 3.000000
-0.466955 0.031576 0.036852 3.000000
-0.466955 0.001355 0.027395 3.000000
-0.466955 0.076440 -0.057391 3.000000
-0.466955 -0.078784 -0.045934 3.000000
-0.466955 -0.004675 0.040637 3.000000
-0.466955 -0.059316 0.064001 3.000000
-0.466955 0.068103 0.024396 3.000000
-0.466955 0.072359 0.028906 3.000000
-0.466955 -0.080563 0.032344 3.000000
-0.466955 0.059051 -0.059891 3.000000
-0.466955 -0.083937 -0.021826 3.000000
-0.466955 0.028460 0.067323 3.000000
-0.466955 -0.049838 -0.060383 3.000000
-0.466955 0.055845 0.003279 3.000000
-0.466955 -0.024688 0.056711 3.000000
-0.466955 -0.078971 -0.055060 3.000000
-0.466955 0.022324 0.001138 3.000000
-0.466955 -0.037175 0.017149 3.000000
-0.466955 -0.067095 -0.064978 3.000000
-0.466955 -0.053737 -0.051194 3.000000
-0.466955 -0.039891 0.035198 3.000000
-0.466955 -0.031590 -0.034445 3.000000
-0.466955 0.022287 0.032332 3.000000
-0.466955 0.062514 0.059926 3.000000
-0.466955 -0.028529 0.012974 3.000000
-0.466955 0.038537 0.042120 3.000000
-0.466955 0.074237 0.051963 3.000000
-0.466955 -0.088812 -0.037929 3.000000
-0.466955 -0.002356 -0.085283 3.000000
-0.466955 0.038759 0.028781 3.000000
-0.466955 0.048510 0.055142 3.000000
-0.466955 0.015579 0.008013 3.000000
-0.466955 -0.032487 -0.068948 3.000000
-0.466955 -0.037919 0.040233 3.000000
-0.466955 -0.038937 -0.083509 3.000000
-0.466955 0.045699 -0.046220 3.000000
-0.466955 -0.075661 -0.060294 3.000000
-0.466955 -0.001789 -0.065976 3.000000
-0.466955 0.005144 -0.058990 3.000000
-0.466955 -0.030335 -0.000591 3.000000
-0.466955 0.008605 0.052994 3.000000
-0.466955 0.031415 -0.017464 3.000000
-0.466955 0.023312 -0.035760 3.000000
-0.466955 0.054480 0.066982 3.000000
-0.466955 0.053288 -0.057169 3.000000
-0.466955 -0.010562 0.094723 3.000000
-0.466955 0.040208 0.062338 3.000000
-0.466955 -0.006778 0.057304 3.000000
-0.466955 0.053462 0.058829 3.000000
-0.466955 0.015620 0.041916 3.000000
-0.466955 0.089999 -0.014344 3.000000
-0.466955 -0.058548 0.070294 3.000000
-0.466955 0.007131 0.025792 3.000000
-0.466955 -0.022107 -0.013128 3.000000
-0.466955 -0.064126 -0.040259 3.000000
-0.466955 -0.062124 0.017917 3.000000
-0.466955 0.045947 0.075242 3.000000
-0.466955 -0.006126 -0.079432 3.000000
-0.466955 0.043012 0.000089 3.000000
-0.466955 -0.058626 0.016448 3.000000
-0.466955 0.025242 -0.000894 3.000000
-0.466955 -0.033326 -0.033429 3.000000
-0.466955 0.015228 -0.016232 3.000000
-0.466955 0.073108 0.027613 3.000000
-0.466955 -0.008987 -0.075300 3.000000
-0.466955 -0.000291 0.012233 3.000000
-0.466955 -0.067559 0.046189 3.000000
-0.466955 0.092970 0.012973 3.000000
-0.466955 0.001076 0.039058 3.000000
-0.466955 0.075749 0.060429 3.000000
-0.466955 0.047466 -0.038706 3.000000
-0.466955 -0.071441 -0.035515 3.000000
-0.466955 -0.006637 0.080641 3.000000
-0.466955 -0.037245 0.025706 3.000000
-0.466955 -0.051369 -0.066393 3.000000
-0.466955 -0.037725 0.090375 3.000000
-0.466955 0.081771 -0.054378 3.000000
-0.466955 -0.011521 -0.083247 3.000000
-0.466955 0.068389 -0.010113 3.000000
-0.466955 -0.019217 -0.034988 3.000000
-0.466955 0.015644 0.081452 3.000000
-0.466955 -0.044608 -0.021436 3.000000
-0.466955 -0.072783 0.062231 3.000000
-0.466955 -0.073279 -0.067300 3.000000
-0.466955 0.039063 -0.037082 3.000000
-0.466955 -0.064685 -0.025425 3.000000
-0.466955 0.079549 0.010507 3.000000
-0.466955 0.017549 -0.080453 3.000000
-0.466955 0.006148 0.019694 3.000000
-0.466955 0.009025 -0.048672 3.000000
-0.466955 0.003023 0.015302 3.000000
-0.466955 0.090638 0.030239 3.000000
-0.466955 -0.030391 -0.086672 3.000000
-0.466955 -0.032300 0.075356 3.000000
-0.466955 -0.056243 0.007124 3.000000
-0.466955 -0.036226 -0.025342 3.000000
-0.466955 -0.078698 -0.022307 3.000000
-0.466955 -0.055505 -0.080053 3.000000
-0.466955 0.079591 0.060526 3.000000
-0.466955 -0.077032 0.038962 3.000000
-0.466955 0.009309 0.056107 3.000000
-0.466955 -0.005291 -0.062132 3.000000
-0.466955 0.069665 0.004072 3.000000
-0.466955 -0.021687 -0.062313 3.000000
-0.466955 -0.020833 0.085177 3.000000
-0.466955 -0.053630 -0.045537 3.000000
-0.466955 -0.079049 0.024476 3.000000
-0.466955 0.075721 -0.047641 3.000000
-0.466955 0.037222 -0.051744 3.000000
-0.466955 -0.062250 0.056492 3.000000
-0.466955 -0.025199 0.032350 3.000000
-0.466955 -0.082678 -0.001297 3.000000
-0.466955 0.002720 0.046416 3.000000
-0.466955 -0.040631 0.029496 3.000000
-0.466955 0.012933 -0.009566 3.000000
-0.466955 0.023375 -0.040648 3.000000
-0.466955 -0.031032 -0.041363 3.000000
-0.466955 0.046016 0.073138 3.000000
-0.466955 0.024424 0.083454 3.000000
-0.466955 0.034156 0.073697 3.000000
-0.466955 -0.024261 -0.036886 3.000000
-0.466955 0.005200 -0.083118 3.000000
-0.466955 -0.096135 0.020451 3.000000
-0.466955 0.087511 -0.026550 3.000000
-0.466955 -0.041640 -0.061377 3.000000
-0.466955 0.096119 0.016868 3.000000
-0.466955 0.003780 0.027197 3.000000
-0.466955 0.023018 -0.061597 3.000000
-0.466955 0.028513 0.024525 3.000000
-0.466955 0.020737 0.059826 3.000000
-0.466955 -0.001344 0.060666 3.000000
-0.466955 0.027724 0.079010 3.000000
-0.466955 0.071875 0.042312 3.000000
-0.466955 -0.006828 -0.059834 3.000000
-0.466955 -0.010903 -0.017718 3.000000
-0.466955 0.010769 0.082183 3.000000
-0.466955 -0.023930 -0.069790 3.000000
-0.466955 -0.035002 0.088114 3.000000
-0.466955 0.002369 -0.086137 3.000000
-0.466955 0.081406 -0.025064 3.000000
-0.466955 0.044759 -0.011370 3.000000
-0.466955 -0.025836 0.018315 3.000000
-0.466955 -0.030009 -0.022200 3.000000
-0.466955 0.066587 -0.063290 3.000000
-0.466955 -0.087151 0.013559 3.000000
-0.466955 -0.003130 -0.055466 3.000000
-0.466955 0.034170 0.058082 3.000000
-0.466955 -0.018333 -0.016101 3.000000
-0.466955 -0.043257 -0.050921 3.000000
-0.466955 0.063142 -0.038140 3.000000
-0.466955 0.083677 -0.008007 3.000000
-0.466955 -0.095852 -0.014290 3.000000
-0.466955 -0.009536 0.071958 3.000000
-0.466955 0.003611 0.060547 3.000000
-0.466955 0.067613 0.021862 3.000000
-0.466955 -0.092099 0.026991 3.000000
-0.466955 -0.053363 0.012250 3.000000
-0.466955 0.069211 -0.054702 3.000000
-0.466955 0.044223 -0.067945 3.000000
-0.466955 -0.087717 0.007539 3.000000
-0.466955 -0.071141 -0.024492 3.000000
-0.466955 -0.054314 0.070519 3.000000
-0.466955 -0.044367 0.074979 3.000000
-0.466955 -0.010160 0.006553 3.000000
-0.466955 -0.031282 0.073679 3.000000
-0.466955 -0.012547 0.091740 3.000000
-0.466955 -0.029035 -0.065872 3.000000
-0.466955 0.021255 -0.093778 3.000000
-0.466955 -0.023862 0.096589 3.000000
-0.466955 -0.044658 -0.063904 3.000000
-0.466955 0.047048 -0.067144 3.000000
-0.466955 -0.026510 0.019553 3.000000
-0.466955 0.056221 0.037219 3.000000
-0.466955 -0.018041 0.055686 3.000000
-0.466955 -0.003550 0.098174 3.000000
-0.466955 0.064866 -0.075787 3.000000
-0.466955 0.030856 -0.038737 3.000000
-0.466955 0.003728 0.087412 3.000000
-0.466955 -0.022061 0.088542 3.000000
-0.466955 0.044056 0.083012 3.000000
-0.466955 -0.096771 0.016510 3.000000
-0.466955 -0.054950 0.060253 3.000000
-0.466955 -0.046572 0.003988 3.000000
-0.466955 0.028990 0.001722 3.000000
-0.466955 0.081348 0.047088 3.000000
-0.466955 -0.063791 -0.035135 3.000000
-0.466955 0.099801 0.001059 3.000000
-0.466955 -0.019572 -0.053976 3.000000
-0.466955 -0.011388 -0.077040 3.000000
-0.466955 -0.030907 0.045443 3.000000
-0.466955 -0.014716 -0.073626 3.000000
-0.466955 -0.045406 -0.046617 3.000000
-0.466955 -0.012453 0.035376 3.000000
-0.466955 0.041144 -0.028969 3.000000
-0.466955 0.088270 0.001645 3.000000
-0.466955 -0.057343 -0.080363 3.000000
-0.466955 0.027110 -0.036975 3.000000
-0.466955 -0.026234 -0.006899 3.000000
-0.466955 -0.065683 0.065856 3.000000
-0.466955 0.045864 0.079869 3.000000
-0.466955 -0.044500 0.064412 3.000000
-0.466955 0.054074 -0.027616 3.000000
-0.466955 0.068672 -0.041715 3.000000
-0.466955 -0.072514 -0.046759 3.000000
-0.466955 0.015870 -0.024802 3.000000
-0.466955 0.020671 0.015217 3.000000
-0.466955 0.017948 -0.049154 3.000000
-0.466955 0.066195 0.017758 3.000000
-0.466955 0.051979 0.025002 3.000000
-0.466955 0.048102 -0.054236 3.000000
-0.466955 -0.016882 -0.067134 3.000000
-0.466955 -0.043090 0.087049 3.000000
-0.466955 0.052661 0.081398 3.000000
-0.466955 -0.000712 0.037322 3.000000
-0.466955 -0.019475 0.094739 3.000000
-0.466955 0.041110 -0.056909 3.000000
-0.466955 0.088046 0.017884 3.000000
-0.466955 0.024041 0.015723 3.000000
-0.466955 -0.013567 0.070090 3.000000
-0.466955 0.011718 0.015001 3.000000
-0.466955 -0.025099 0.019542 3.000000
-0.466955 -0.049762 -0.040228 3.000000
-0.466955 0.009812 -0.006659 3.000000
-0.466955 0.005861 -0.073773 3.000000
-0.466955 -0.049174 0.083334 3.000000
-0.466955 -0.007408 0.075597 3.000000
-0.466955 0.020752 -0.044099 3.000000
-0.466955 -0.072318 -0.051953 3.000000
-0.466955 -0.094334 0.013214 3.000000
-0.466955 -0.062957 0.066757 3.000000
-0.466955 0.056942 -0.053211 3.000000
-0.466955 -0.079578 -0.048543 3.000000
-0.466955 -0.083394 -0.051864 3.000000
-0.466955 -0.057654 0.048322 3.000000
-0.466955 0.063223 0.069722 3.000000
-0.466955 0.043310 -0.087289 3.000000
-0.466955 -0.067427 0.003106 3.000000
-0.466955 -0.041370 -0.026127 3.000000
-0.466955 -0.067650 -0.070662 3.000000
-0.466955 0.070332 0.062427 3.000000
-0.466955 0.076738 -0.034027 3.000000
-0.466955 -0.001805 -0.061701 3.000000
-0.466955 0.007072 0.043392 3.000000
-0.466955 0.026224 -0.096183 3.000000
-0.466955 0.043570 0.055472 3.000000
-0.466955 0.048395 -0.034884 3.000000
-0.466955 -0.028425 0.071956 3.000000
-0.466955 -0.020472 -0.017479 3.000000
-0.466955 -0.036616 0.008919 3.000000
-0.466955 -0.044786 0.001001 3.000000
-0.466955 0.080483 -0.028524 3.000000
-0.466955 0.041887 -0.044700 3.000000
-0.466955 0.098872 0.014336 3.000000
-0.466955 0.090081 0.002885 3.000000
-0.466955 -0.001658 -0.015286 3.000000
-0.466955 0.045354 -0.057835 3.000000
-0.466955 0.042756 0.070683 3.000000
-0.466955 -0.034952 -0.046577 3.000000
-0.466955 0.024402 -0.021077 3.000000
-0.466955 -0.064099 -0.017296 3.000000
-0.466955 0.021583 -0.050786 3.000000
-0.466955 -0.053235 -0.075985 3.000000
-0.466955 0.008789 -0.014429 3.000000
-0.466955 -0.034191 -0.054193 3.000000
-0.466955 0.019148 -0.044479 3.000000
-0.466955 0.032343 -0.027801 3.000000
-0.466955 -0.032685 0.014370 3.000000
-0.466955 -0.007658 -0.085787 3.000000
-0.466955 0.061501 -0.041647 3.000000
-0.466955 -0.025382 0.065840 3.000000
-0.466955 0.047004 0.046194 3.000000
-0.466955 -0.034479 0.054060 3.000000
-0.466955 0.045414 0.027590 3.000000
-0.466955 -0.016960 -0.082119 3.000000
-0.466955 0.050971 -0.083675 3.000000
-0.466955 0.009105 -0.037197 3.000000
-0.466955 -0.037170 0.013478 3.000000
-0.466955 0.057689 0.035467 3.000000
-0.466955 -0.041019 0.059440 3.000000
-0.466955 0.007814 -0.023234 3.000000
-0.466955 -0.086919 0.004310 3.000000
-0.466955 -0.062875 0.044118 3.000000
-0.466955 0.034053 0.063927 3.000000
-0.466955 -0.019247 0.089631 3.000000
-0.466955 -0.053409 0.042448 3.000000
-0.466955 0.026448 -0.045256 3.000000
-0.466955 -0.044115 -0.078125 3.000000
-0.466955 -0.029395 -0.069534 3.000000
-0.466955 -0.068629 0.018555 3.000000
-0.466955 0.060411 0.020322 3.000000
-0.466955 -0.078950 -0.038249 3.000000
-0.466955 -0.042422 0.068729 3.000000
-0.466955 -0.083530 0.013923 3.000000
-0.466955 -0.014789 -0.013607 3.000000
-0.466955 0.020079 -0.041129 3.000000
-0.466955 0.009652 -0.035636 3.000000
-0.466955 -0.047069 -0.072516 3.000000
-0.466955 -0.010900 -0.064101 3.000000
-0.466955 -0.070132 0.016293 3.000000
-0.466955 -0.029173 -0.015910 3.000000
-0.466955 0.014981 0.039816 3.000000
-0.466955 -0.065774 -0.062535 3.000000
-0.466955 0.058616 0.018087 3.000000
-0.466955 -0.028019 -0.038039 3.000000
-0.466955 -0.055718 -0.014728 3.000000
-0.466955 0.035514 0.060616 3.000000
-0.466955 0.044624 0.087982 3.000000
-0.466955 0.067097 -0.067099 3.000000
-0.466955 -0.039187 0.024900 3.000000
-0.466955 0.073052 0.008899 3.000000
-0.466955 -0.039280 -0.071152 3.000000
-0.466955 0.075488 -0.037675 3.000000
-0.466955 0.048599 0.048842 3.000000
-0.466955 0.065238 -0.035199 3.000000
-0.466955 0.040026 -0.015907 3.000000
-0.466955 -0.031593 -0.042846 3.000000
-0.466955 0.063494 -0.050671 3.000000
-0.466955 -0.016928 0.093174 3.000000
-0.466955 0.030571 0.031225 3.000000
-0.466955 0.087680 0.026445 3.000000
-0.466955 0.021764 -0.054206 3.000000
-0.466955 0.030193 -0.006464 3.000000
-0.466955 0.048761 -0.064263 3.000000
-0.466955 -0.022742 0.064801 3.000000
-0.466955 0.076155 -0.051550 3.000000
-0.466955 -0.023086 -0.075157 3.000000
-0.466955 -0.063134 0.016546 3.000000
-0.466955 0.019187 0.088148 3.000000
-0.466955 -0.040917 0.066390 3.000000
-0.466955 0.027562 -0.059069 3.000000
-0.466955 -0.053098 -0.061532 3.000000
-0.466955 -0.021816 0.075228 3.000000
-0.466955 0.093914 -0.015903 3.000000
-0.466955 0.000124 0.010008 3.000000
-0.466955 0.029477 -0.092972 3.000000
-0.466955 0.014228 0.007674 3.000000
-0.466955 0.011498 -0.045667 3.000000
-0.466955 0.045377 -0.085795 3.000000
-0.466955 -0.004499 0.043710 3.000000
-0.466955 0.091262 -0.011971 3.000000
-0.466955 -0.069032 -0.031598 3.000000
-0.466955 0.061868 -0.013463 3.000000
-0.466955 0.012086 -0.062201 3.000000
-0.466955 0.055017 -0.050224 3.000000
-0.466955 0.000361 0.032182 3.000000
-0.466955 -0.047948 0.029536 3.000000
-0.466955 0.026867 0.004404 3.000000
-0.466955 -0.008359 0.071258 3.000000
-0.466955 0.041356 -0.069375 3.000000
-0.466955 -0.006004 -0.017314 3.000000
-0.466955 -0.026039 0.087832 3.000000
-0.466955 0.010948 -0.032087 3.000000
-0.466955 -0.019056 0.084335 3.000000
-0.466955 0.014021 0.094207 3.000000
-0.466955 -0.012638 0.057511 3.000000
-0.466955 -0.028899 0.063189 3.000000
-0.466955 0.021229 0.011344 3.000000
-0.466955 0.021716 -0.036026 3.000000
-0.466955 -0.025942 0.038502 3.000000
-0.466955 -0.065389 0.012715 3.000000
-0.466955 -0.032499 -0.053124 3.000000
-0.466955 -0.086730 -0.044702 3.000000
-0.466955 -0.063207 -0.064811 3.000000
-0.466955 -0.055719 -0.063881 3.000000
-0.466955 -0.000913 -0.078262 3.000000
-0.466955 0.075516 -0.025656 3.000000
-0.466955 -0.040115 -0.074388 3.000000
-0.466955 -0.074878 0.021774 3.000000
-0.466955 -0.036053 0.078888 3.000000
-0.466955 0.034387 -0.049441 3.000000
-0.466955 0.063197 -0.076584 3.000000
-0.466955 -0.032188 0.078270 3.000000
-0.466955 0.011630 0.007551 3.000000
-0.466955 0.040143 -0.072257 3.000000
-0.466955 0.037547 -0.045791 3.000000
-0.466955 -0.008222 -0.037951 3.000000
-0.466955 0.010621 0.090852 3.000000
-0.466955 -0.082969 0.032482 3.000000
-0.466955 0.072563 -0.012758 3.000000
-0.466955 -0.052386 -0.080024 3.000000
-0.466955 0.078661 0.046228 3.000000
-0.466955 0.008954 0.050889 3.000000
-0.466955 -0.018120 -0.076209 3.000000
-0.466955 -0.039862 0.058387 3.000000
-0.466955 0.025565 -0.030109 3.000000
-0.466955 -0.004576 0.090135 3.000000
-0.466955 0.093527 -0.000382 3.000000
-0.466955 0.062874 -0.059190 3.000000
-0.466955 -0.058034 -0.022662 3.000000
-0.466955 -0.016258 0.031447 3.000000
-0.466955 0.079244 0.005148 3.000000
-0.466955 0.024831 0.075367 3.000000
-0.466955 -0.075703 -0.063753 3.000000
-0.466955 -0.059316 -0.032223 3.000000
-0.466955 -0.037213 -0.060164 3.000000
-0.466955 -0.088380 -0.012151 3.000000
-0.466955 0.051019 -0.013132 3.000000
-0.466955 0.054883 0.081003 3.000000
-0.466955 0.036379 -0.021721 3.000000
-0.466955 0.077524 -0.056154 3.000000
-0.466955 0.082874 -0.049235 3.000000
-0.466955 0.050722 0.001657 3.000000
-0.466955 -0.054953 0.023645 3.000000
-0.466955 -0.030224 0.035685 3.000000
-0.466955 0.012097 -0.095581 3.000000
-0.466955 -0.028588 0.022363 3.000000
-0.466955 0.008906 0.036212 3.000000
-0.466955 0.047180 0.014570 3.000000
-0.466955 0.024445 0.070719 3.000000
-0.466955 -0.043086 -0.037280 3.000000
-0.466955 0.072709 -0.030865 3.000000
-0.466955 0.072762 -0.002932 3.000000
-0.466955 0.016003 -0.030388 3.000000
-0.466955 -0.062558 -0.001764 3.000000
-0.466955 0.061643 0.026657 3.000000
-0.466955 -0.019810 -0.075488 3.000000
-0.466955 0.027613 -0.007260 3.000000
-0.466955 0.019249 -0.085293 3.000000
-0.466955 0.029309 0.020559 3.000000
-0.466955 0.006780 -0.022178 3.000000
-0.466955 -0.001001 -0.089062 3.000000
-0.466955 -0.026465 -0.083857 3.000000
-0.466955 -0.025812 0.047367 3.000000
-0.466955 0.026422 0.063823 3.000000
-0.466955 0.054035 0.044690 3.000000
-0.466955 0.001557 0.053374 3.000000
-0.466955 -0.076364 0.052648 3.000000
-0.466955 -0.088901 0.038119 3.000000
-0.466955 0.055506 -0.058861 3.000000
-0.466955 -0.019004 -0.085586 3.000000
-0.466955 -0.052764 -0.055573 3.000000
-0.466955 0.018020 0.095645 3.000000
-0.466955 -0.075393 -0.052978 3.000000
-0.466955 0.090522 0.035220 3.000000
-0.466955 -0.020053 -0.080091 3.000000
-0.466955 -0.001460 -0.031099 3.000000
-0.466955 -0.029561 -0.041855 3.000000
-0.466955 0.011481 0.085587 3.000000
-0.466955 -0.031533 -0.049713 3.000000
-0.466955 -0.000659 -0.057374 3.000000
-0.466955 0.059053 -0.013169 3.000000
-0.466955 -0.035638 -0.002900 3.000000
-0.466955 0.037695 -0.028314 3.000000
-0.466955 0.057027 0.065315 3.000000
-0.466955 0.002160 -0.014921 3.000000
-0.466955 0.009930 -0.051080 3.000000
-0.466955 -0.046638 0.026759 3.000000
-0.466955 -0.054782 0.074057 3.000000
-0.466955 0.041158 -0.051502 3.000000
-0.466955 -0.048246 0.026806 3.000000
-0.466955 -0.016557 -0.033427 3.000000
-0.466955 -0.072450 0.003988 3.000000
-0.466955 0.057618 0.026650 3.000000
-0.466955 0.034403 0.000101 3.000000
-0.466955 -0.027008 -0.027079 3.000000
-0.466955 -0.057237 -0.067720 3.000000
-0.466955 0.021675 -0.025191 3.000000
-0.466955 -0.036845 0.069914 3.000000
-0.466955 -0.007791 0.054723 3.000000
-0.466955 0.035273 -0.068078 3.000000
-0.466955 -0.046616 -0.064170 3.000000
-0.466955 0.006104 -0.019958 3.000000
-0.466955 0.004837 0.001345 3.000000
-0.466955 -0.016819 0.054843 3.000000
-0.466955 -0.062961 -0.054608 3.000000
-0.466955 0.031828 -0.058828 3.000000
-0.466955 -0.059129 0.049182 3.000000
-0.466955 -0.062219 -0.077566 3.000000
-0.466955 0.050471 0.056292 3.000000
-0.466955 0.039648 -0.056149 3.000000
-0.466955 -0.074993 0.047695 3.000000
-0.466955 -0.010301 0.087542 3.000000
-0.466955 -0.028944 0.059944 3.000000
-0.466955 0.009377 0.084568 3.000000
-0.466955 -0.030394 -0.038373 3.000000
-0.466955 0.029967 -0.079071 3.000000
-0.466955 0.077911 -0.059874 3.000000
-0.466955 0.023046 0.009280 3.000000
-0.466955 -0.007745 -0.097252 3.000000
-0.466955 0.025289 -0.071585 3.000000
-0.466955 -0.090787 -0.018170 3.000000
-0.466955 -0.012743 -0.053918 3.000000
-0.466955 0.027043 -0.054381 3.000000
-0.466955 0.074287 0.050133 3.000000
-0.466955 0.046747 0.066464 3.000000
-0.466955 0.023774 0.032196 3.000000
-0.466955 0.065700 0.037654 3.000000
-0.466955 -0.059595 0.055186 3.000000
-0.466955 -0.037997 0.046561 3.000000
-0.466955 -0.038695 -0.065607 3.000000
-0.466955 0.009641 -0.043041 3.000000
-0.466955 0.089729 -0.028699 3.000000
-0.466955 0.045045 0.003197 3.000000
-0.466955 -0.093239 0.035425 3.000000
-0.466955 0.053025 -0.017882 3.000000
-0.466955 -0.011946 0.045940 3.000000
-0.466955 -0.022022 0.050450 3.000000
-0.466955 0.049645 -0.081675 3.000000
-0.466955 0.062531 -0.060840 3.000000
-0.466955 -0.014125 -0.046553 3.000000
-0.466955 -0.070643 0.061397 3.000000
-0.466955 0.034728 0.078863 3.000000
-0.466955 -0.081528 0.049395 3.000000
-0.466955 -0.052378 0.033942 3.000000
-0.466955 -0.001491 -0.041716 3.000000
-0.466955 -0.077747 0.049364 3.000000
-0.466955 0.002090 -0.054820 3.000000
-0.466955 -0.065551 -0.027330 3.000000
-0.466955 -0.078643 0.038055 3.000000
-0.466955 -0.011450 -0.008735 3.000000
-0.466955 0.051635 0.083599 3.000000
-0.466955 0.064487 -0.073700 3.000000
-0.466955 0.064627 0.062533 3.000000
-0.466955 -0.074296 -0.028322 3.000000
-0.466955 -0.027984 0.082980 3.000000
-0.466955 0.015033 -0.088892 3.000000
-0.466955 0.074807 -0.048883 3.000000
-0.466955 0.060263 -0.032068 3.000000
-0.466955 0.009406 -0.079809 3.000000
-0.466955 -0.012454 0.017845 3.000000
-0.466955 -0.041897 -0.083531 3.000000
-0.466955 -0.007759 -0.003722 3.000000
-0.466955 0.070135 0.000393 3.000000
-0.466955 0.066973 0.032524 3.000000
-0.466955 0.074419 0.005968 3.000000
-0.466955 -0.087999 -0.016869 3.000000
-0.466955 0.009674 -0.082132 3.000000
-0.466955 -0.068076 -0.026033 3.000000
-0.466955 0.049789 -0.046756 3.000000
-0.466955 0.076622 0.015276 3.000000
-0.466955 -0.009890 0.010171 3.000000
-0.466955 0.037201 0.000992 3.000000
-0.466955 0.007117 0.095655 3.000000
-0.466955 0.041978 0.041552 3.000000
-0.466955 -0.087479 -0.013175 3.000000
-0.466955 0.006892 0.003873 3.000000
-0.466955 -0.087286 0.031595 3.000000
-0.466955 -0.089928 0.043247 3.000000
-0.466955 0.017133 -0.008457 3.000000
-0.466955 0.077850 -0.044556 3.000000
-0.466955 -0.043977 0.052885 3.000000
-0.466955 0.048045 0.069153 3.000000
-0.466955 0.009341 -0.085034 3.000000
-0.466955 0.038366 -0.025968 3.000000
-0.466955 0.053639 -0.072350 3.000000
-0.466955 0.069559 0.067112 3.000000
-0.466955 0.004078 0.022772 3.000000
-0.466955 0.076921 0.019354 3.000000
-0.466955 0.030595 0.049189 3.000000
-0.466955 -0.016339 0.009250 3.000000
-0.466955 -0.074671 -0.061848 3.000000
-0.466955 0.058385 -0.048606 3.000000
-0.466955 -0.016378 0.080001 3.000000
-0.466955 0.020464 -0.053561 3.000000
-0.466955 -0.056649 0.033300 3.000000
-0.466955 -0.046773 0.081608 3.000000
-0.466955 -0.031165 -0.090902 3.000000
-0.466955 -0.047251 0.032016 3.000000
-0.466955 -0.029439 -0.013813 3.000000
-0.466955 0.085964 0.034380 3.000000
-0.466955 0.035116 -0.026607 3.000000
-0.466955 -0.063749 0.060106 3.000000
-0.466955 -0.076219 0.030858 3.000000
-0.466955 -0.087185 0.025554 3.000000
-0.466955 0.074222 -0.029407 3.000000
-0.466955 -0.035355 -0.044649 3.000000
-0.466955 -0.097252 -0.021346 3.000000
-0.466955 -0.015580 0.088578 3.000000
-0.466955 0.024251 -0.082694 3.000000
-0.466955 -0.030960 0.008648 3.000000
-0.466955 0.049191 -0.070143 3.000000
-0.466955 0.087911 0.042758 3.000000
-0.466955 -0.086564 -0.048163 3.000000
-0.466955 -0.033794 0.012621 3.000000
-0.466955 0.057257 0.014942 3.000000
-0.466955 0.020266 -0.083965 3.000000
-0.466955 -0.058148 0.073101 3.000000
-0.466955 0.099791 0.006077 3.000000
-0.466955 -0.039955 0.018148 3.000000
-0.466955 0.042886 0.001466 3.000000
-0.466955 0.001142 0.093131 3.000000
-0.466955 0.064758 -0.012517 3.000000
-0.466955 -0.060486 -0.017725 3.000000
-0.466955 0.007157 -0.078169 3.000000
-0.466955 0.005328 0.073981 3.000000
-0.466955 0.010970 0.023343 3.000000
-0.466955 0.035806 -0.010296 3.000000
-0.466955 -0.003932 0.012081 3.000000
-0.466955 0.068630 -0.000344 3.000000
-0.466955 0.013804 0.027985 3.000000
-0.466955 -0.037933 0.022313 3.000000
-0.466955 -0.051805 -0.032402 3.000000
-0.466955 0.013743 -0.077792 3.000000
-0.466955 0.034475 -0.028316 3.000000
-0.466955 -0.071314 -0.036924 3.000000
-0.466955 -0.020248 0.080789 3.000000
-0.466955 -0.058569 -0.049901 3.000000
-0.466955 -0.007730 -0.017114 3.000000
-0.466955 0.018549 0.075482 3.000000
-0.466955 0.021811 0.022621 3.000000
-0.466955 -0.033254 0.027528 3.000000
-0.466955 -0.050526 0.084035 3.000000
-0.466955 0.025322 0.095073 3.000000
-0.466955 -0.028962 0.088005 3.000000
-0.466955 0.040846 0.089838 3.000000
-0.466955 0.040445 0.064956 3.000000
-0.466955 0.083979 0.039097 3.000000
-0.466955 0.014659 -0.011792 3.000000
-0.466955 -0.088749 0.029641 3.000000
-0.466955 0.046092 0.049208 3.000000
-0.466955 0.064145 0.037203 3.000000
-0.466955 0.022299 0.025472 3.000000
-0.466955 -0.020510 0.057820 3.000000
-0.466955 0.076051 0.061815 3.000000
-0.466955 0.001610 0.018204 3.000000
-0.466955 -0.070439 -0.045219 3.000000
-0.466955 -0.071968 0.019628 3.000000
-0.466955 -0.038300 -0.020223 3.000000
-0.466955 -0.014501 0.072270 3.000000
-0.466955 0.067333 -0.054051 3.000000
-0.466955 -0.073140 0.054668 3.000000
-0.466955 0.011612 0.078711 3.000000
-0.466955 -0.031926 0.020497 3.000000
-0.466955 -0.066523 0.064025 3.000000
-0.466955 0.046608 -0.082148 3.000000
-0.466955 -0.069781 -0.027869 3.000000
-0.466955 -0.050625 -0.024397 3.000000
-0.466955 -0.027276 -0.056103 3.000000
-0.466955 0.057029 -0.031500 3.000000
-0.466955 -0.091794 -0.026211 3.000000
-0.466955 -0.056425 -0.057262 3.000000
-0.466955 0.033895 -0.009757 3.000000
-0.466955 0.016775 -0.018859 3.000000
-0.466955 0.043854 -0.059140 3.000000
-0.466955 -0.005555 -0.066819 3.000000
-0.466955 -0.027483 -0.091060 3.000000
-0.466955 -0.006047 0.013034 3.000000
-0.466955 -0.034310 -0.060764 3.000000
-0.466955 -0.054998 -0.027199 3.000000
-0.466955 0.047534 0.084030 3.000000
-0.466955 0.011824 0.036191 3.000000
-0.466955 0.036786 0.015717 3.000000
-0.466955 0.067783 -0.024430 3.000000
-0.466955 0.013889 -0.098458 3.000000
-0.466955 -0.049057 -0.066465 3.000000
-0.466955 -0.095705 0.011823 3.000000
-0.466955 0.019990 0.031345 3.000000
-0.466955 -0.082727 0.046650 3.000000
-0.466955 -0.041929 -0.039158 3.000000
-0.466955 -0.023271 0.075847 3.000000
-0.466955 0.053970 0.020504 3.000000
-0.466955 0.020210 -0.076714 3.000000
-0.466955 0.084628 0.027683 3.000000
-0.466955 -0.009229 0.024632 3.000000
-0.466955 0.081511 0.057577 3.000000
-0.466955 0.048386 -0.071694 3.000000
-0.466955 -0.004184 0.088813 3.000000
-0.466955 0.012420 0.029853 3.000000
-0.466955 0.088683 -0.027687 3.000000
-0.466955 0.090167 -0.026777 3.000000
-0.466955 0.016488 0.096613 3.000000
-0.466955 -0.050341 -0.076131 3.000000
-0.466955 -0.026690 -0.074567 3.000000
-0.466955 0.011819 0.038391 3.000000
-0.466955 0.002281 0.088639 3.000000
-0.466955 0.054387 0.021870 3.000000
-0.466955 0.052092 0.018606 3.000000
-0.466955 -0.043429 0.055980 3.000000
-0.466955 -0.056217 -0.039300 3.000000
-0.466955 -0.090342 -0.011431 3.000000
-0.466955 -0.074215 0.011710 3.000000
-0.466955 -0.075411 0.032387 3.000000
-0.466955 -0.066572 0.044716 3.000000
-0.466955 -0.053144 0.022997 3.000000
-0.466955 -0.014949 0.008759 3.000000
-0.466955 -0.047624 -0.025515 3.000000
-0.466955 -0.064323 -0.051064 3.000000
-0.466955 -0.044404 -0.087290 3.000000
-0.466955 -0.028166 0.042829 3.000000
-0.466955 0.066982 -0.045047 3.000000
-0.466955 0.053254 0.065882 3.000000
-0.466955 -0.008722 0.093731 3.000000
-0.466955 -0.065314 -0.018167 3.000000
-0.466955 -0.013661 0.075106 3.000000
-0.466955 0.063023 -0.023634 3.000000
-0.466955 0.014967 -0.068581 3.000000
-0.466955 -0.008904 0.004163 3.000000
-0.466955 -0.084935 0.004538 3.000000
-0.466955 0.014520 -0.018166 3.000000
-0.466955 -0.015934 0.005661 3.000000
-0.466955 -0.021443 -0.097063 3.000000
-0.466955 -0.062041 0.060536 3.000000
-0.466955 0.043011 0.042756 3.000000
-0.466955 0.022409 0.013139 3.000000
-0.466955 -0.083439 -0.044634 3.000000
-0.466955 -0.002729 -0.034273 3.000000
-0.466955 0.050425 0.011762 3.000000
-0.466955 -0.024808 0.083315 3.000000
-0.466955 -0.024366 -0.071273 3.000000
-0.466955 -0.063466 -0.038732 3.000000
-0.466955 0.054518 0.031801 3.000000
-0.466955 -0.041590 -0.056432 3.000000
-0.466955 -0.047397 -0.082907 3.000000
-0.466955 -0.076592 0.035385 3.000000
-0.466955 0.082707 -0.020716 3.000000
-0.466955 0.012229 -0.037417 3.000000
-0.466955 -0.005084 -0.034010 3.000000
-0.466955 -0.070257 0.030923 3.000000
-0.466955 -0.020506 0.088667 3.000000
-0.466955 0.069432 -0.015123 3.000000
-0.466955 -0.080301 0.058924 3.000000
-0.466955 0.051965 -0.080732 3.000000
-0.466955 0.047641 0.026705 3.000000
-0.466955 -0.097449 0.009365 3.000000
-0.466955 -0.029925 0.003571 3.000000
-0.466955 -0.068256 -0.029406 3.000000
-0.466955 -0.029439 -0.003120 3.000000
-0.466955 -0.078998 0.018119 3.000000
-0.466955 -0.039524 -0.029171 3.000000
-0.466955 0.018574 0.089892 3.000000
-0.466955 0.019326 0.028304 3.000000
-0.466955 -0.051238 -0.060917 3.000000
-0.466955 0.013888 0.088959 3.000000
-0.466955 0.068359 0.028052 3.000000
-0.466955 0.049095 0.027020 3.000000
-0.466955 -0.091121 -0.038780 3.000000
-0.466955 -0.012905 0.076360 3.000000
-0.466955 0.042425 0.014676 3.000000
-0.466955 0.012368 0.002253 3.000000
-0.466955 0.006867 0.023486 3.000000
-0.466955 -0.029014 0.032092 3.000000
-0.466955 0.075857 0.001023 3.000000
-0.466955 0.037012 -0.059304 3.000000
-0.466955 -0.070860 -0.000703 3.000000
-0.466955 0.059198 0.054060 3.000000
-0.466955 -0.037879 -0.025174 3.000000
-0.466955 0.058445 0.051307 3.000000
-0.466955 0.049695 -0.053860 3.000000
-0.466955 -0.027010 0.084014 3.000000
-0.466955 0.070101 0.040361 3.000000
-0.466955 -0.081402 -0.042565 3.000000
-0.466955 0.036063 0.081954 3.000000
-0.466955 -0.003512 0.087032 3.000000
-0.466955 0.068470 0.006434 3.000000
-0.466955 -0.099252 -0.000446 3.000000
-0.466955 0.013233 -0.013418 3.000000
-0.466955 -0.028729 -0.093014 3.000000
-0.466955 0.044475 0.000507 3.000000
-0.466955 -0.006965 -0.006250 3.000000
-0.466955 0.074597 0.048654 3.000000
-0.466955 0.050450 0.070116 3.000000
-0.466955 -0.071474 0.050324 3.000000
-0.466955 -0.034308 0.064190 3.000000
-0.466955 0.019252 0.015178 3.000000
-0.466955 -0.038663 0.017354 3.000000
-0.466955 -0.012493 0.051344 3.000000
-0.466955 -0.015050 0.025675 3.000000
-0.466955 -0.009880 -0.006037 3.000000
-0.466955 -0.010445 0.058001 3.000000
-0.466955 -0.076983 -0.018679 3.000000
-0.466955 0.006173 -0.046999 3.000000
-0.466955 0.008180 -0.042910 3.000000
-0.466955 0.040041 -0.046299 3.000000
-0.466955 -0.056790 -0.046053 3.000000
-0.466955 -0.016841 0.047783 3.000000
-0.466955 -0.025293 0.003593 3.000000
-0.466955 -0.003027 -0.031764 3.000000
-0.466955 -0.070227 0.065482 3.000000
-0.466955 -0.082041 0.014545 3.000000
-0.466955 -0.069486 0.063592 3.000000
-0.466955 0.071936 0.002099 3.000000
-0.466955 -0.063598 -0.037266 3.000000
-0.466955 -0.023395 -0.096775 3.000000
-0.466955 -0.076726 -0.021909 3.000000
-0.466955 0.003629 -0.037035 3.000000
-0.466955 -0.087519 0.036860 3.000000
-0.466955 0.001678 -0.020312 3.000000
-0.466955 0.022983 -0.003145 3.000000
-0.466955 -0.056581 0.001006 3.000000
-0.466955 0.072357 -0.014767 3.000000
-0.466955 0.065931 0.055230 3.000000
-0.466955 0.011902 0.099104 3.000000
-0.466955 0.018884 0.049987 3.000000
-0.466955 -0.021897 -0.077560 3.000000
-0.466955 0.031539 0.020464 3.000000
-0.466955 -0.002186 0.002459 3.000000
-0.466955 -0.069765 0.054336 3.000000
-0.466955 -0.080182 0.041633 3.000000
-0.466955 0.038415 -0.072566 3.000000
-0.466955 0.023308 0.092526 3.000000
-0.466955 0.029042 -0.043324 3.000000
-0.466955 -0.043195 -0.044391 3.000000
-0.466955 0.012742 -0.022639 3.000000
-0.466955 0.072156 -0.054349 3.000000
-0.466955 0.018526 -0.083835 3.000000
-0.466955 0.014212 -0.048897 3.000000
-0.466955 0.085231 0.001647 3.000000
-0.466955 0.015904 0.098721 3.000000
-0.466955 0.030119 0.012312 3.000000
-0.466955 -0.008970 0.059176 3.000000
-0.466955 -0.024724 -0.015218 3.000000
-0.466955 0.087030 -0.002616 3.000000
-0.466955 -0.058150 0.037560 3.000000
-0.466955 -0.015382 0.093212 3.000000
-0.466955 -0.067398 0.052220 3.000000
-0.466955 -0.061288 -0.007029 3.000000
-0.466955 0.060871 -0.037070 3.000000
-0.466955 -0.022239 0.068068 3.000000
-0.466955 0.061994 0.025011 3.000000
-0.466955 -0.049147 0.086360 3.000000
-0.466955 0.019681 -0.019431 3.000000
-0.466955 -0.002038 0.075620 3.000000
-0.466955 0.088831 0.045680 3.000000
-0.466955 -0.013662 -0.021216 3.000000
-0.466955 0.044192 0.022509 3.000000
-0.466955 -0.076973 0.058663 3.000000
-0.466955 0.067818 0.030927 3.000000
-0.466955 0.074768 -0.003445 3.000000
-0.466955 0.085964 0.006012 3.000000
-0.466955 -0.055713 0.063422 3.000000
-0.466955 -0.041920 0.062780 3.000000
-0.466955 -0.008841 0.097337 3.000000
-0.466955 -0.057128 -0.077020 3.000000
-0.466955 -0.050631 0.014536 3.000000
-0.466955 0.031539 0.011043 3.000000
-0.466955 0.059832 -0.062839 3.000000
-0.466955 0.014058 -0.060442 3.000000
-0.466955 -0.057835 -0.018663 3.000000
-0.466955 0.008200 0.037990 3.000000
-0.466955 -0.021443 -0.051882 3.000000
-0.466955 0.005963 -0.004015 3.000000
-0.466955 -0.007045 -0.094373 3.000000
-0.466955 0.039684 -0.029486 3.000000
-0.466955 0.057088 -0.000105 3.000000
-0.466955 0.076100 -0.023847 3.000000
-0.466955 0.034524 0.011109 3.000000
-0.466955 0.026410 0.065544 3.000000
-0.466955 0.034159 0.070244 3.000000
-0.466955 -0.087528 -0.002757 3.000000
-0.466955 0.063320 0.008535 3.000000
-0.466955 -0.016054 0.071730 3.000000
-0.466955 0.070809 0.022760 3.000000
-0.466955 0.072714 0.034204 3.000000
-0.466955 0.032298 0.055318 3.000000
-0.466955 -0.003177 -0.020320 3.000000
-0.466955 -0.082592 0.039866 3.000000
-0.466955 -0.078292 -0.033451 3.000000
-0.466955 0.067973 -0.039788 3.000000
-0.466955 0.034052 -0.001731 3.000000
-0.466955 0.033250 0.049575 3.000000
-0.466955 -0.052561 -0.003347 3.000000
-0.466955 0.001868 -0.000068 3.000000
-0.466955 0.067795 0.055504 3.000000
-0.466955 0.030362 0.043780 3.000000
-0.466955 -0.031642 0.063769 3.000000
-0.466955 0.066940 -0.016555 3.000000
-0.466955 -0.057661 0.075794 3.000000
-0.466955 0.080538 -0.037906 3.000000
-0.466955 0.025901 0.088001 3.000000
-0.466955 0.018276 0.010374 3.000000
-0.466955 -0.047281 -0.055381 3.000000
-0.466955 0.002641 -0.043388 3.000000
-0.466955 0.051313 0.057949 3.000000
-0.466955 -0.016428 0.017329 3.000000
-0.466955 0.036109 -0.012703 3.000000
-0.466955 -0.025376 0.040403 3.000000
-0.466955 -0.010841 0.054678 3.000000
-0.466955 -0.017692 0.068568 3.000000
-0.466955 0.014774 0.004239 3.000000
-0.466955 -0.034513 0.008303 3.000000
-0.466955 -0.022065 0.013448 3.000000
-0.466955 -0.006784 -0.088721 3.000000
-0.466955 -0.014417 -0.057532 3.000000
-0.466955 -0.067446 -0.072888 3.000000
-0.466955 -0.064911 -0.038119 3.000000
-0.466955 -0.023961 0.045059 3.000000
-0.466955 -0.082864 -0.042708 3.000000
-0.466955 0.041441 0.069889 3.000000
-0.466955 -0.023915 0.053140 3.000000
-0.466955 -0.073135 0.060568 3.000000
-0.466955 -0.081949 -0.054130 3.000000
-0.466955 0.055157 -0.021697 3.000000
-0.466955 -0.073769 0.043707 3.000000
-0.466955 0.047402 0.003172 3.000000
-0.466955 -0.047409 -0.050247 3.000000
-0.466955 -0.016588 -0.058775 3.000000
-0.466955 0.005818 0.015484 3.000000
-0.466955 0.020581 -0.028364 3.000000
-0.466955 0.040634 0.015766 3.000000
-0.466955 0.009668 -0.002663 3.000000
-0.466955 0.006158 0.007890 3.000000
-0.466955 0.015449 -0.004682 3.000000
-0.466955 0.073548 -0.049471 3.000000
-0.466955 0.047829 0.031936 3.000000
-0.466955 0.074819 0.040663 3.000000
-0.466955 0.044427 0.075440 3.000000
-0.466955 0.033038 -0.020150 3.000000
-0.466955 0.006199 -0.097588 3.000000
-0.466955 -0.028175 0.040265 3.000000
-0.466955 0.011042 0.013392 3.000000
-0.466955 0.002463 -0.099138 3.000000
-0.466955 0.087395 -0.045359 3.000000
-0.466955 0.000446 -0.012952 3.000000
-0.466955 -0.046567 -0.014614 3.000000
-0.466955 0.031228 -0.076640 3.000000
-0.466955 0.054511 0.027505 3.000000
-0.466955 -0.012576 0.056054 3.000000
-0.466955 0.001730 -0.087681 3.000000
-0.466955 0.055610 0.050530 3.000000
-0.466955 0.032776 -0.077366 3.000000
-0.466955 -0.046817 0.025195 3.000000
-0.466955 0.064749 0.017676 3.000000
-0.466955 0.026225 -0.017433 3.000000
-0.466955 0.004847 -0.094836 3.000000
-0.466955 0.084531 -0.033798 3.000000
-0.466955 -0.048132 0.080892 3.000000
-0.466955 0.088004 -0.018581 3.000000
-0.466955 0.068610 0.062752 3.000000
-0.466955 -0.083474 0.002204 3.000000
-0.466955 0.022619 0.020536 3.000000
-0.466955 -0.006515 0.040704 3.000000
-0.466955 0.082834 -0.041610 3.000000
-0.466955 0.026240 0.092665 3.000000
-0.466955 -0.013189 -0.029984 3.000000
-0.466955 0.041358 0.047372 3.000000
-0.466955 -0.046520 0.069927 3.000000
-0.466955 -0.061734 0.025222 3.000000
-0.466955 0.023630 0.024782 3.000000
-0.466955 0.075458 0.031379 3.000000
-0.466955 -0.073505 0.045273 3.000000
-0.466955 0.017421 -0.011782 3.000000
-0.466955 -0.072751 0.039948 3.000000
-0.466955 0.075968 0.029103 3.000000
-0.466955 0.009292 -0.098957 3.000000
-0.466955 -0.030209 0.062221 3.000000
-0.466955 0.062091 -0.050677 3.000000
-0.466955 0.001940 -0.063741 3.000000
-0.466955 0.017454 0.074045 3.000000
-0.466955 0.007640 0.029395 3.000000
-0.466955 0.015256 -0.047112 3.000000
-0.466955 -0.004136 0.006386 3.000000
-0.466955 -0.025547 0.045883 3.000000
-0.466955 0.049880 0.036649 3.000000
-0.466955 -0.015742 0.001744 3.000000
-0.466955 0.067053 -0.001663 3.000000
-0.466955 0.079536 0.051375 3.000000
-0.466955 -0.085517 -0.038114 3.000000
-0.466955 0.071631 0.037339 3.000000
-0.466955 -0.057934 -0.038015 3.000000
-0.466955 0.046286 0.081346 3.000000
-0.466955 -0.036222 -0.068008 3.000000
-0.466955 -0.071376 -0.015821 3.000000
-0.466955 -0.032102 -0.067423 3.000000
-0.466955 -0.068595 -0.006039 3.000000
-0.466955 -0.018751 -0.027941 3.000000
-0.466955 0.055027 -0.010860 3.000000
-0.466955 -0.060645 -0.019258 3.000000
-0.466955 -0.047227 -0.012897 3.000000
-0.466955 0.059924 -0.025101 3.000000
-0.466955 0.000678 0.088079 3.000000
-0.466955 0.009536 -0.076872 3.000000
-0.466955 -0.002025 0.031798 3.000000
-0.466955 0.067743 -0.034563 3.000000
-0.466955 -0.092956 0.018742 3.000000
-0.466955 0.067796 -0.032964 3.000000
-0.466955 0.075513 0.018639 3.000000
-0.466955 -0.054076 -0.025673 3.000000
-0.466955 0.004866 -0.047319 3.000000
-0.466955 0.070648 0.052532 3.000000
-0.466955 -0.069742 -0.059872 3.000000
-0.466955 0.022446 -0.023649 3.000000
-0.466955 -0.020243 0.016054 3.000000
-0.466955 0.000448 -0.066781 3.000000
-0.466955 0.072507 -0.037224 3.000000
-0.466955 0.053668 0.042752 3.000000
-0.466955 -0.027150 0.041526 3.000000
-0.466955 -0.002889 -0.070438 3.000000
-0.466955 0.081053 0.004541 3.000000
-0.466955 -0.065841 -0.033209 3.000000
-0.466955 0.013167 -0.041955 3.000000
-0.466955 0.019034 -0.026071 3.000000
-0.466955 0.052409 -0.040568 3.000000
-0.466955 -0.030585 0.094330 3.000000
-0.466955 -0.083873 0.042788 3.000000
-0.466955 -0.078600 -0.005855 3.000000
-0.466955 -0.026204 -0.080612 3.000000
-0.466955 -0.013332 0.016804 3.000000
-0.466955 -0.016910 -0.043447 3.000000
-0.466955 -0.016455 0.053414 3.000000
-0.466955 -0.014607 0.028821 3.000000
-0.466955 -0.042041 0.030647 3.000000
-0.466955 -0.035423 -0.053335 3.000000
-0.466955 0.029147 -0.080549 3.000000
-0.466955 0.007925 0.058651 3.000000
-0.466955 0.077875 0.029670 3.000000
-0.466955 -0.093127 -0.008812 3.000000
-0.466955 -0.001621 -0.029358 3.000000
-0.466955 -0.087182 -0.021336 3.000000
-0.466955 -0.081500 0.024802 3.000000
-0.466955 -0.061076 0.051682 3.000000
-0.466955 0.027929 -0.045495 3.000000
-0.466955 0.039533 0.003675 3.000000
-0.466955 0.068353 -0.043332 3.000000
-0.466955 0.013794 -0.008414 3.000000
-0.466955 -0.070554 0.068837 3.000000
-0.466955 -0.010848 0.035118 3.000000
-0.466955 -0.055694 0.049389 3.000000
-0.466955 0.016975 0.009661 3.000000
-0.466955 -0.036022 0.063551 3.000000
-0.466955 -0.076578 0.046354 3.000000
-0.466955 0.045442 -0.051236 3.000000
-0.466955 -0.004041 -0.006431 3.000000
-0.466955 -0.063266 0.034501 3.000000
-0.466955 -0.039881 -0.061130 3.000000
-0.466955 -0.007552 0.059074 3.000000
-0.466955 -0.042820 0.010727 3.000000
-0.466955 -0.024773 0.067587 3.000000
-0.466955 -0.047665 -0.065357 3.000000
-0.466955 -0.073961 0.032064 3.000000
-0.466955 0.088196 -0.012245 3.000000
-0.466955 -0.036114 0.028554 3.000000
-0.466955 -0.034399 -0.082043 3.000000
-0.466955 0.050237 0.040100 3.000000
-0.466955 -0.063747 0.027473 3.000000
-0.466955 0.021914 -0.015019 3.000000
-0.466955 0.079128 -0.021136 3.000000
-0.466955 -0.039799 -0.008636 3.000000
-0.466955 -0.033134 0.019669 3.000000
-0.466955 0.050293 -0.045071 3.000000
-0.466955 -0.097965 -0.014843 3.000000
-0.466955 -0.049892 -0.002807 3.000000
