-0.306592 -0.098326 -0.016496 1.000000
-0.355601 -0.099608 -0.005025 1.000000
-0.177277 0.045489 0.089115 1.000000
-0.305006 0.017029 0.098587 1.000000
0.079408 0.094933 0.031559 1.000000
-0.465592 -0.097898 0.019368 3.000000
0.131837 -0.061646 -0.078265 1.000000
0.193271 0.063217 -0.077227 1.000000
0.406235 0.081903 -0.057097 1.000000
-0.334667 0.099501 -0.009344 1.000000
-0.202678 -0.062249 0.078160 1.000000
0.335335 0.042725 0.090524 1.000000
0.090634 0.012852 -0.098885 1.000000
0.018995 -0.032316 0.094618 1.000000
-0.150070 0.010274 -0.099143 1.000000
-0.014545 0.085742 0.051528 1.000000
0.350241 0.097404 0.022621 1.000000
0.043165 0.045615 0.089051 1.000000
-0.280084 -0.084426 -0.052997 1.000000
-0.386083 0.080017 -0.059707 1.000000
-0.464089 0.002973 -0.099617 3.000000
-0.466535 -0.014701 -0.098556 3.000000
-0.265351 -0.098133 0.018075 1.000000
0.348984 -0.018257 0.098355 1.000000
0.354230 -0.055832 0.082872 1.000000
0.317172 -0.093468 0.034979 1.000000
-0.397655 0.073313 0.068128 1.000000
0.447339 -0.051465 0.085668 2.000000
-0.238413 -0.003635 0.099952 1.000000
0.058900 0.048383 -0.087266 1.000000
-0.258893 -0.094074 -0.032934 1.000000
-0.158716 0.011157 0.099422 1.000000
-0.050791 -0.075380 -0.065156 1.000000
0.379247 -0.098765 -0.013720 1.000000
-0.095424 0.069178 -0.071951 1.000000
-0.429897 -0.098997 -0.012205 3.000000
0.375972 0.097967 -0.019739 1.000000
0.188807 -0.093655 -0.034098 1.000000
0.462707 0.063605 0.077289 2.000000
-0.032904 -0.053026 0.084745 1.000000
-0.378853 -0.096905 -0.023447 1.000000
0.263657 0.076617 -0.064018 1.000000
0.031645 0.097122 0.023881 1.000000
0.219133 -0.099646 -0.003837 1.000000
0.027197 0.090702 -0.041880 1.000000
0.297714 -0.075953 0.064869 1.000000
-0.195527 0.088364 0.046900 1.000000
-0.296586 0.099745 -0.006754 1.000000
-0.193222 0.001128 0.100038 1.000000
-0.067208 0.017531 0.098507 1.000000
0.063404 -0.072010 -0.068886 1.000000
-0.064426 0.097434 0.022486 1.000000
-0.037741 -0.069347 0.071912 1.000000
-0.290075 -0.016577 0.098621 1.000000
0.273417 -0.093275 0.035515 1.000000
-0.372136 -0.096981 0.023467 1.000000
0.202207 0.098579 -0.016370 1.000000
0.290465 0.063273 -0.077183 1.000000
-0.263894 0.070203 0.071289 1.000000
0.262519 0.043965 0.089892 1.000000
0.333512 -0.097598 -0.020348 1.000000
-0.450298 -0.072691 -0.068205 3.000000
0.111630 0.096920 -0.024424 1.000000
0.142962 0.052335 -0.084929 1.000000
-0.282021 -0.070557 0.070702 1.000000
-0.381109 -0.099254 -0.009484 1.000000
-0.271533 0.047304 -0.087828 1.000000
-0.082406 -0.084788 -0.052385 1.000000
-0.132706 -0.004956 -0.099548 1.000000
-0.413484 -0.020915 0.097783 1.000000
0.170292 -0.058038 -0.081010 1.000000
0.265815 0.098125 0.019397 1.000000
-0.081067 -0.042578 -0.090117 1.000000
-0.014238 0.024895 0.096946 1.000000
-0.437900 -0.070593 0.070666 3.000000
0.160354 -0.006065 -0.099513 1.000000
0.152288 -0.024766 0.096920 1.000000
0.200245 -0.004555 -0.099560 1.000000
-0.114572 0.098825 0.015181 1.000000
-0.268248 0.027560 0.096176 1.000000
-0.155344 -0.078392 0.061863 1.000000
0.033706 -0.029777 0.095464 1.000000
-0.270381 -0.004078 -0.099575 1.000000
0.349935 -0.096768 0.024422 1.000000
-0.073245 0.002333 -0.099638 1.000000
-0.356888 -0.034599 -0.093433 1.000000
0.459839 -0.057300 0.081874 2.000000
0.322430 -0.094744 -0.031072 1.000000
0.439182 0.075430 0.065727 2.000000
0.067286 -0.048464 0.087443 1.000000
0.445742 -0.099122 -0.010884 2.000000
-0.101761 -0.084030 -0.053625 1.000000
-0.233309 0.041158 0.091208 1.000000
-0.078979 -0.083805 0.054318 1.000000
0.448770 0.067597 -0.073426 2.000000
0.206923 0.010701 -0.099102 1.000000
-0.281510 -0.098036 0.018689 1.000000
0.123665 0.099217 0.012701 1.000000
-0.241842 -0.088218 -0.046367 1.000000
0.290276 -0.085244 -0.051613 1.000000
-0.021142 0.031942 0.094836 1.000000
-0.367101 0.044458 0.089641 1.000000
0.173855 -0.089686 0.043848 1.000000
0.463839 0.095304 0.030403 2.000000
0.388205 0.099329 0.011524 1.000000
0.185441 -0.039255 0.091930 1.000000
0.178934 -0.085310 -0.051502 1.000000
-0.276074 0.039069 0.092112 1.000000
-0.266373 0.059174 -0.080363 1.000000
0.138776 0.007424 0.099775 1.000000
0.372312 -0.077816 -0.062243 1.000000
0.010865 0.045346 0.089188 1.000000
-0.019071 -0.098585 0.015221 1.000000
-0.434567 -0.066389 -0.074286 3.000000
-0.342358 0.021673 0.097666 1.000000
0.083018 -0.069098 0.072161 1.000000
-0.396170 -0.058862 0.080787 1.000000
-0.163231 -0.015943 0.098722 1.000000
-0.388293 -0.069140 -0.071756 1.000000
0.365100 0.081964 -0.057008 1.000000
0.427083 0.095930 0.028249 1.000000
-0.146309 -0.097112 0.022884 1.000000
-0.294198 -0.052502 0.085055 1.000000
0.066299 -0.057785 -0.081181 1.000000
0.335912 0.096637 0.025816 1.000000
0.218893 0.088130 -0.046998 1.000000
0.334745 0.004386 0.099936 1.000000
0.425416 0.050958 -0.085743 1.000000
-0.427195 -0.084693 -0.052546 1.000000
-0.142392 -0.032132 0.094684 1.000000
0.101922 -0.084906 -0.052185 1.000000
0.371643 0.043297 -0.089869 1.000000
0.282353 0.073706 0.067682 1.000000
0.404678 -0.073854 -0.066887 1.000000
-0.195135 0.064951 0.076121 1.000000
0.017340 0.050828 0.086183 1.000000
0.357022 -0.099646 0.004182 1.000000
-0.147570 -0.081725 0.057379 1.000000
0.450074 0.069163 0.072329 2.000000
0.312768 0.099408 0.010683 1.000000
-0.087442 0.059622 -0.080016 1.000000
0.276331 0.015472 -0.098470 1.000000
0.061811 -0.095827 -0.027438 1.000000
-0.362838 0.037087 -0.092607 1.000000
0.022471 -0.005370 -0.099535 1.000000
0.040708 -0.004362 -0.099566 1.000000
-0.154456 0.095693 0.029064 1.000000
-0.153257 -0.099627 0.004784 1.000000
-0.107774 -0.052269 -0.084830 1.000000
-0.105151 0.072655 -0.068475 1.000000
-0.166806 0.024120 -0.096756 1.000000
-0.358225 0.095977 0.028087 1.000000
0.159263 -0.097946 -0.018790 1.000000
0.354002 0.011731 0.099368 1.000000
0.450429 -0.000924 -0.099674 2.000000
0.054174 0.074835 0.066402 1.000000
0.290817 0.093081 -0.036338 1.000000
-0.244339 -0.099769 0.000094 1.000000
0.387582 0.072272 0.069221 1.000000
-0.315630 0.025725 -0.096346 1.000000
0.058498 -0.067649 0.073538 1.000000
-0.069510 0.087357 -0.048435 1.000000
-0.359604 -0.077808 -0.062253 1.000000
-0.061301 -0.087177 -0.048345 1.000000
-0.432245 -0.038417 -0.091930 1.000000
-0.246472 0.094034 0.034055 1.000000
-0.096036 -0.003442 0.099958 1.000000
-0.010566 0.001880 -0.099652 1.000000
0.109952 0.000183 0.100068 1.000000
0.278374 0.029681 0.095560 1.000000
0.337858 0.024024 0.097141 1.000000
-0.329880 0.027752 0.096120 1.000000
-0.437306 -0.026871 0.096308 3.000000
-0.159161 -0.057371 0.081826 1.000000
0.250649 0.093427 -0.035379 1.000000
0.245227 -0.061182 -0.078624 1.000000
-0.413032 -0.090735 0.041625 1.000000
-0.307284 0.042831 0.090469 1.000000
-0.140520 -0.035760 -0.093015 1.000000
0.446876 -0.067144 0.073983 2.000000
0.007794 0.085111 -0.052233 1.000000
-0.163827 -0.097133 -0.022425 1.000000
0.453930 0.098821 -0.014839 2.000000
0.392429 0.025509 0.096772 1.000000
-0.035949 0.099577 -0.008540 1.000000
-0.297495 -0.001728 -0.099649 1.000000
-0.182078 -0.069996 -0.070900 1.000000
0.422388 0.029339 -0.095296 1.000000
0.277403 0.059947 0.080126 1.000000
-0.043551 -0.075824 0.065015 1.000000
0.432298 -0.066326 0.074703 2.000000
-0.440836 0.057963 -0.081219 3.000000
-0.191111 0.056730 -0.082057 1.000000
-0.080013 0.085899 -0.050900 1.000000
0.382616 -0.012976 -0.098829 1.000000
0.246183 0.022336 -0.097155 1.000000
-0.302952 -0.088900 0.045391 1.000000
-0.203674 0.068646 0.072846 1.000000
0.214041 -0.018116 -0.098015 1.000000
0.423463 -0.019965 0.097996 2.000000
0.115905 0.073012 -0.068106 1.000000
-0.227759 0.068639 0.072853 1.000000
0.154684 -0.080194 0.059540 1.000000
-0.218285 0.077851 0.062861 1.000000
0.116472 -0.049206 -0.086642 1.000000
-0.424394 -0.061739 0.078555 1.000000
-0.302233 0.026738 0.096414 1.000000
0.270314 -0.006415 0.099848 1.000000
0.008114 0.097396 0.022656 1.000000
0.464967 -0.073560 -0.067221 2.000000
0.166185 0.017475 -0.098153 1.000000
-0.043756 0.071217 0.070275 1.000000
-0.039374 0.037424 -0.092461 1.000000
0.103955 0.018022 -0.098067 1.000000
0.149539 0.097145 0.023778 1.000000
0.108643 -0.095969 0.027311 1.000000
-0.127133 0.079034 -0.060973 1.000000
-0.105569 0.046538 0.088581 1.000000
0.199959 0.042890 0.090439 1.000000
0.248002 -0.082104 0.056821 1.000000
0.452570 -0.056044 0.082727 2.000000
-0.310348 -0.021397 -0.097313 1.000000
0.392757 0.042812 -0.090117 1.000000
0.020067 -0.098308 0.016973 1.000000
-0.345926 -0.066981 0.074126 1.000000
0.014305 -0.079878 0.059947 1.000000
-0.276192 -0.057130 -0.081626 1.000000
0.207468 -0.055466 -0.082758 1.000000
-0.368478 0.011056 -0.099069 1.000000
0.367801 0.097685 0.021362 1.000000
-0.280273 0.067943 -0.073121 1.000000
0.046297 -0.099574 0.006461 1.000000
0.107008 -0.074963 0.065992 1.000000
0.416569 0.021139 0.097786 2.000000
-0.023792 -0.040147 0.091544 1.000000
-0.132647 -0.099484 0.007414 1.000000
-0.466779 0.089522 -0.044265 3.000000
0.042877 -0.024214 -0.096683 1.000000
0.194199 0.036756 0.093103 1.000000
0.394826 0.049401 -0.086664 1.000000
0.109310 0.058692 -0.080724 1.000000
-0.463124 -0.097963 -0.018711 3.000000
0.133796 0.088168 -0.046924 1.000000
0.003285 -0.018787 -0.097896 1.000000
0.153463 -0.007752 0.099722 1.000000
-0.165021 -0.053533 0.084434 1.000000
-0.074870 -0.039274 0.091922 1.000000
0.038194 -0.074193 0.066865 1.000000
0.086936 0.017699 -0.098118 1.000000
0.191998 0.099985 -0.000449 1.000000
0.362937 -0.059210 -0.080154 1.000000
-0.004253 0.063503 0.077368 1.000000
0.010504 -0.037462 0.092706 1.000000
0.101954 0.057916 -0.081251 1.000000
0.173140 -0.093668 -0.034060 1.000000
-0.202804 0.097134 -0.023466 1.000000
-0.147947 0.095946 0.028194 1.000000
-0.319684 0.095355 -0.029863 1.000000
-0.394534 -0.035746 0.093383 1.000000
0.381329 -0.038935 -0.091706 1.000000
0.044829 -0.099100 -0.011119 1.000000
0.162852 -0.058042 -0.081007 1.000000
0.223801 0.013578 0.099133 1.000000
-0.362394 -0.012272 -0.098932 1.000000
0.031191 -0.074620 0.066381 1.000000
0.414259 0.003258 0.099971 1.000000
0.439817 0.053552 0.084572 2.000000
0.412659 -0.091540 0.039767 1.000000
-0.119425 -0.094650 -0.031332 1.000000
-0.412844 0.088688 -0.045903 1.000000
0.317624 -0.085018 -0.051996 1.000000
0.113883 -0.071958 -0.068938 1.000000
-0.165778 -0.096476 0.025565 1.000000
-0.208612 0.099745 -0.006757 1.000000
0.336569 -0.049043 0.087101 1.000000
-0.113389 0.094252 -0.033087 1.000000
-0.338276 -0.009772 -0.099168 1.000000
0.286682 0.099794 0.006599 1.000000
-0.238032 -0.035764 0.093376 1.000000
0.356427 0.090179 -0.042976 1.000000
0.247751 -0.087686 -0.047410 1.000000
-0.100551 -0.095568 0.028690 1.000000
0.267212 -0.095621 0.028510 1.000000
0.104153 0.077872 0.062834 1.000000
-0.394279 0.099381 0.010972 1.000000
0.092874 0.089363 0.044941 1.000000
0.027921 -0.090784 0.041512 1.000000
-0.386595 -0.096689 0.024774 1.000000
0.191644 -0.085888 -0.050525 1.000000
-0.288644 0.098544 0.016956 1.000000
-0.057584 -0.083506 -0.054396 1.000000
-0.341337 0.059757 -0.079911 1.000000
-0.465749 -0.070350 0.070909 3.000000
0.095324 0.097050 0.024207 1.000000
-0.107803 -0.099739 -0.000869 1.000000
0.087850 0.050710 -0.085890 1.000000
-0.190754 -0.050184 -0.086063 1.000000
-0.286696 -0.067730 0.073466 1.000000
0.226519 -0.076320 0.064452 1.000000
0.029956 -0.094951 0.030815 1.000000
-0.122399 0.095685 0.029091 1.000000
-0.193061 0.007185 0.099798 1.000000
-0.426929 0.096827 -0.024797 1.000000
-0.106343 -0.081474 -0.057386 1.000000
0.284685 -0.099606 0.005457 1.000000
0.113550 0.046717 0.088489 1.000000
0.389442 -0.059100 -0.080239 1.000000
-0.122394 -0.084770 -0.052415 1.000000
0.427048 -0.057296 -0.081514 1.000000
0.243157 0.055399 0.083324 1.000000
0.306218 -0.079880 0.059945 1.000000
-0.281489 0.030244 -0.095033 1.000000
0.085321 -0.059067 0.080628 1.000000
-0.463598 0.001845 0.100016 3.000000
0.008913 -0.092843 0.036715 1.000000
0.003075 -0.031146 -0.094676 1.000000
-0.225768 -0.080608 -0.058643 1.000000
0.001875 0.016160 -0.098361 1.000000
-0.175910 -0.080811 -0.058360 1.000000
0.370318 -0.036631 -0.092701 1.000000
0.345982 -0.032775 0.094452 1.000000
0.229295 0.065532 0.075609 1.000000
0.285990 -0.078768 -0.061016 1.000000
-0.074881 0.078992 -0.061028 1.000000
0.302717 0.097551 -0.021599 1.000000
0.306779 -0.040819 -0.090890 1.000000
-0.107365 0.098354 0.018153 1.000000
0.156067 0.092403 0.038312 1.000000
-0.123012 -0.064850 -0.075642 1.000000
-0.323199 0.057009 -0.081867 1.000000
-0.150999 -0.014291 0.098983 1.000000
-0.121611 -0.099612 -0.004903 1.000000
0.239847 -0.032213 -0.094292 1.000000
-0.049302 0.092654 0.037731 1.000000
-0.156090 -0.087517 0.048106 1.000000
-0.424648 0.079715 0.060459 1.000000
-0.311602 -0.075636 0.065228 1.000000
0.172402 0.099642 0.008212 1.000000
0.358239 0.032336 0.094694 1.000000
-0.449186 -0.085515 0.051519 3.000000
0.287820 0.083122 -0.055303 1.000000
-0.366872 0.095064 0.031195 1.000000
0.014761 0.035629 0.093509 1.000000
0.343577 0.027877 0.096084 1.000000
-0.109085 0.064314 -0.076320 1.000000
-0.312300 0.083340 -0.054983 1.000000
-0.200508 0.097856 0.020600 1.000000
0.066837 0.004373 0.099936 1.000000
-0.047045 0.077558 -0.062876 1.000000
0.333314 -0.086949 -0.048730 1.000000
0.116561 -0.095297 0.029625 1.000000
0.044566 -0.082968 0.055550 1.000000
-0.246378 -0.080412 -0.058896 1.000000
-0.254312 -0.095438 0.029137 1.000000
0.090710 -0.028911 0.095715 1.000000
0.222906 -0.046386 0.088539 1.000000
-0.257182 0.091465 -0.040116 1.000000
0.309390 -0.087292 0.048512 1.000000
0.139334 -0.089886 0.043456 1.000000
-0.454680 0.099883 0.004059 3.000000
0.084658 0.053561 0.084567 1.000000
0.382703 -0.026233 -0.096131 1.000000
0.121270 0.070465 -0.070664 1.000000
0.246275 0.053546 -0.084213 1.000000
0.292912 -0.079566 0.060350 1.000000
0.178166 -0.040118 0.091557 1.000000
0.288338 0.078468 -0.061703 1.000000
0.465189 -0.035975 -0.092937 2.000000
0.387681 0.066317 0.074917 1.000000
0.050466 0.085542 -0.051504 1.000000
0.063321 -0.038062 -0.092084 1.000000
-0.421487 0.079088 -0.060904 3.000000
-0.027045 -0.030669 0.095205 1.000000
0.252905 0.099464 -0.009730 1.000000
-0.170100 -0.075808 0.065033 1.000000
-0.458419 -0.034003 0.094010 3.000000
-0.155712 -0.049507 -0.086463 1.000000
0.194810 -0.015317 0.098821 1.000000
-0.211701 0.086451 0.050330 1.000000
-0.249259 0.096677 -0.025313 1.000000
-0.374256 0.065270 -0.075478 1.000000
-0.093122 -0.092290 -0.037670 1.000000
0.176130 -0.094587 0.031872 1.000000
-0.415851 -0.076024 0.064789 1.000000
-0.269540 -0.093286 -0.035122 1.000000
-0.186178 -0.073239 -0.067585 1.000000
-0.254120 0.087981 0.047652 1.000000
-0.208692 0.095388 0.030113 1.000000
0.031641 -0.092620 -0.036907 1.000000
0.105104 -0.070637 0.070622 1.000000
0.073512 -0.065825 0.075146 1.000000
-0.058880 -0.086652 0.049596 1.000000
0.127556 -0.096163 -0.026278 1.000000
-0.067735 0.033693 -0.093843 1.000000
-0.376503 -0.014847 -0.098532 1.000000
0.000948 -0.099380 -0.008154 1.000000
-0.259430 0.049510 -0.086600 1.000000
0.128246 -0.097806 -0.019413 1.000000
-0.241171 0.014457 0.098994 1.000000
0.410830 -0.083864 -0.053868 1.000000
-0.387828 -0.099254 0.009847 1.000000
-0.430355 -0.061497 -0.078380 1.000000
-0.246543 0.099524 0.009459 1.000000
0.146322 0.097654 -0.021139 1.000000
0.380271 -0.052528 -0.084676 1.000000
-0.066868 0.087570 0.048438 1.000000
-0.137545 0.094541 0.032647 1.000000
0.365329 0.026423 -0.096143 1.000000
0.309093 -0.042550 0.090494 1.000000
0.353184 -0.023353 -0.096876 1.000000
0.318387 0.009917 -0.099177 1.000000
0.234028 -0.099524 -0.006626 1.000000
-0.109686 0.006004 -0.099522 1.000000
0.099835 -0.077156 -0.063094 1.000000
0.147315 0.024726 0.096984 1.000000
0.275217 -0.039713 -0.091369 1.000000
0.173638 0.033591 0.094242 1.000000
0.310119 0.039993 -0.091349 1.000000
-0.466677 -0.098933 0.013023 3.000000
0.465050 0.058494 -0.080859 2.000000
0.027792 -0.016616 -0.098252 1.000000
0.134797 -0.096322 -0.025733 1.000000
0.026592 0.049005 0.087261 1.000000
-0.425137 -0.091662 0.039485 3.000000
0.103693 -0.092412 0.037750 1.000000
0.002351 0.016754 0.098630 1.000000
-0.422160 0.098314 0.018404 1.000000
-0.265058 -0.099345 -0.008520 1.000000
0.236853 0.000556 0.100056 1.000000
0.129343 -0.001077 0.100032 1.000000
-0.164941 -0.099343 -0.008547 1.000000
0.229879 -0.020439 0.097890 1.000000
-0.309854 -0.073708 -0.067052 1.000000
0.458142 -0.040303 -0.091114 2.000000
0.197609 0.077172 -0.063375 1.000000
0.448375 -0.087625 -0.047531 2.000000
-0.207092 -0.090830 -0.041045 1.000000
-0.157100 0.023079 0.097352 1.000000
0.388696 0.077179 0.063728 1.000000
0.414730 0.023517 -0.096891 1.000000
0.278756 -0.099668 0.003488 1.000000
0.267934 -0.099490 -0.006984 1.000000
-0.214533 -0.013059 0.099178 1.000000
-0.028508 0.017156 -0.098204 1.000000
0.454169 0.081368 -0.057884 2.000000
-0.006543 -0.029491 0.095547 1.000000
0.248349 0.094222 0.033533 1.000000
0.369370 0.060884 -0.079037 1.000000
-0.354383 -0.094975 0.030732 1.000000
0.171266 -0.091104 -0.040412 1.000000
0.297203 -0.097567 0.020847 1.000000
0.164287 -0.041237 0.091073 1.000000
-0.446014 0.003478 0.099964 3.000000
-0.460833 -0.075164 -0.065402 3.000000
0.183450 -0.023099 0.097295 1.000000
-0.109478 0.010678 0.099467 1.000000
-0.428148 -0.097273 0.022160 3.000000
-0.365667 0.021158 0.097781 1.000000
0.403058 0.087607 0.048375 1.000000
0.186057 -0.003090 0.099969 1.000000
0.033213 -0.097109 -0.022532 1.000000
-0.249742 -0.057465 0.081761 1.000000
0.352303 0.087415 -0.048337 1.000000
0.272177 -0.099702 -0.002031 1.000000
-0.415073 -0.053270 0.084601 1.000000
-0.290788 -0.068905 -0.071991 1.000000
-0.437058 0.093364 -0.035552 3.000000
-0.394017 0.018977 -0.097906 1.000000
-0.162172 0.096632 -0.025470 1.000000
-0.370514 -0.099696 0.002606 1.000000
0.410215 0.094651 -0.031977 1.000000
0.154734 0.095705 -0.028660 1.000000
0.457239 0.096908 -0.024475 2.000000
-0.125037 0.097352 0.022855 1.000000
0.456685 -0.061082 -0.078702 2.000000
0.119789 -0.099747 -0.000603 1.000000
-0.141913 -0.075411 0.065483 1.000000
-0.369879 0.074234 -0.066720 1.000000
0.432720 -0.032516 0.094546 2.000000
0.128427 0.041743 0.090954 1.000000
0.412718 0.090555 -0.042219 1.000000
-0.188513 -0.082480 0.056267 1.000000
0.126152 -0.098159 0.017912 1.000000
-0.176627 -0.019821 -0.097665 1.000000
0.425781 0.079448 0.060803 2.000000
-0.069976 -0.096484 -0.025175 1.000000
-0.144655 0.001440 -0.099666 1.000000
0.273659 0.054445 -0.083610 1.000000
-0.269083 0.091254 -0.040602 1.000000
-0.140270 0.048330 0.087660 1.000000
-0.251242 -0.031609 0.094872 1.000000
0.287854 -0.002419 -0.099627 1.000000
-0.102722 0.012284 0.099316 1.000000
0.132191 0.099995 0.000504 1.000000
-0.221963 -0.074429 0.066597 1.000000
0.326658 0.029108 -0.095363 1.000000
0.043640 0.072361 -0.068768 1.000000
0.151158 -0.099624 -0.004532 1.000000
-0.338139 0.008752 0.099649 1.000000
0.055496 -0.053414 -0.084152 1.000000
0.385435 -0.017108 0.098537 1.000000
0.135248 -0.023526 0.097200 1.000000
0.421694 0.099407 -0.010334 1.000000
0.086846 -0.033801 -0.093720 1.000000
-0.054658 -0.065846 0.075126 1.000000
-0.457750 0.001623 -0.099660 3.000000
-0.369101 -0.095568 0.028691 1.000000
0.222210 -0.039587 0.091786 1.000000
0.146158 -0.079111 -0.060573 1.000000
-0.317717 -0.002164 -0.099636 1.000000
-0.031458 0.075751 -0.065000 1.000000
-0.380161 -0.067532 0.073640 1.000000
0.223955 0.055588 0.083196 1.000000
0.078127 -0.056636 0.082325 1.000000
0.245804 0.095952 0.028171 1.000000
-0.047332 0.018709 -0.097958 1.000000
-0.375683 0.095816 0.028641 1.000000
0.013951 -0.043511 -0.089641 1.000000
-0.363166 -0.026055 -0.096183 1.000000
-0.389700 0.017013 0.098589 1.000000
0.168897 0.045563 0.089078 1.000000
0.207010 0.074036 0.067308 1.000000
0.021536 0.034898 0.093772 1.000000
0.017029 0.080229 0.059796 1.000000
-0.301147 -0.098801 0.013856 1.000000
-0.212587 -0.098938 -0.012627 1.000000
0.183913 0.089039 -0.045213 1.000000
0.025500 -0.061883 0.078443 1.000000
-0.330355 -0.020671 0.097838 1.000000
0.175981 -0.096010 -0.026808 1.000000
0.245587 -0.083645 -0.054191 1.000000
0.094658 -0.075721 0.065132 1.000000
0.217691 0.097819 0.020763 1.000000
0.227748 -0.033652 0.094137 1.000000
0.223062 0.064073 -0.076533 1.000000
-0.339853 -0.069030 0.072229 1.000000
-0.360956 -0.057628 0.081651 1.000000
-0.042770 0.031107 0.095137 1.000000
0.405594 0.013183 0.099196 1.000000
0.071994 -0.053829 0.084233 1.000000
-0.438415 -0.093762 -0.033800 3.000000
-0.233026 -0.010756 0.099438 1.000000
-0.208750 0.060950 0.079348 1.000000
-0.059996 0.086817 -0.049348 1.000000
0.214400 -0.095141 -0.029798 1.000000
-0.219550 0.007867 -0.099370 1.000000
0.228076 -0.096016 -0.026785 1.000000
-0.393166 -0.099509 -0.006783 1.000000
0.169734 -0.099115 -0.010951 1.000000
-0.370587 -0.021475 0.097658 1.000000
-0.235586 -0.055534 0.083074 1.000000
0.056193 -0.041097 0.091133 1.000000
0.245760 0.014121 -0.098684 1.000000
0.253181 -0.079022 -0.060689 1.000000
-0.412773 0.082966 -0.055533 1.000000
0.260544 -0.099686 0.002901 1.000000
-0.390796 -0.094569 -0.031557 1.000000
-0.134720 -0.023669 -0.096805 1.000000
0.274716 -0.078620 -0.061206 1.000000
0.003940 0.095677 -0.028755 1.000000
0.166586 0.098761 0.015587 1.000000
0.201422 0.092178 0.038832 1.000000
0.199700 -0.078968 -0.060758 1.000000
0.406343 -0.078767 -0.061018 1.000000
0.325458 -0.079787 0.060065 1.000000
0.344945 -0.049074 -0.086719 1.000000
-0.304324 -0.024283 -0.096668 1.000000
-0.217987 0.094802 -0.031559 1.000000
0.068610 0.093562 -0.035005 1.000000
0.404887 -0.089007 0.045181 1.000000
-0.349556 -0.093895 -0.033429 1.000000
0.086251 -0.097298 0.022049 1.000000
-0.358570 0.025630 0.096736 1.000000
-0.071993 0.090823 0.041962 1.000000
-0.160867 -0.046920 -0.087905 1.000000
-0.050886 0.056058 0.082877 1.000000
-0.181438 -0.082203 -0.056312 1.000000
-0.066449 0.018926 -0.097917 1.000000
-0.128372 0.064459 -0.076193 1.000000
-0.442947 0.031309 0.095064 3.000000
-0.426191 0.052363 0.085275 1.000000
-0.098328 -0.034335 -0.093528 1.000000
-0.415242 0.054496 -0.083576 1.000000
-0.160462 -0.061909 -0.078060 1.000000
-0.038982 -0.098668 -0.014336 1.000000
-0.307944 0.003921 -0.099588 1.000000
0.410102 -0.099088 0.011599 1.000000
-0.001194 0.068490 0.073001 1.000000
0.122758 -0.094687 0.031594 1.000000
-0.419589 0.058947 0.080902 1.000000
-0.291446 -0.098699 0.014501 1.000000
0.208351 0.096169 -0.027061 1.000000
-0.404081 0.024182 0.097105 1.000000
-0.054677 -0.002941 0.099974 1.000000
0.364747 0.086522 0.050210 1.000000
0.402397 0.098066 0.019661 1.000000
0.334165 -0.033679 -0.093764 1.000000
0.287698 0.012879 0.099244 1.000000
0.328226 0.004850 0.099921 1.000000
-0.255549 0.094298 0.033321 1.000000
0.295439 -0.002246 -0.099633 1.000000
-0.074277 -0.006232 -0.099503 1.000000
-0.257953 -0.005091 0.099906 1.000000
0.282610 0.020406 0.097949 1.000000
0.334720 0.084369 0.053832 1.000000
-0.006690 -0.044105 0.089702 1.000000
-0.324920 -0.090021 0.043190 1.000000
0.290553 0.028568 -0.095520 1.000000
0.412910 0.099895 -0.003314 1.000000
-0.134219 0.099652 -0.007740 1.000000
0.168957 -0.030724 -0.094826 1.000000
-0.004205 -0.063046 -0.077179 1.000000
0.283189 -0.023763 0.097147 1.000000
-0.125456 0.075221 -0.065601 1.000000
-0.084991 0.099820 0.006068 1.000000
0.197101 0.021606 0.097681 1.000000
0.226654 0.085257 0.052349 1.000000
0.431618 0.093638 0.035154 2.000000
-0.427831 -0.016273 0.098669 1.000000
0.013008 -0.054422 -0.083467 1.000000
-0.404261 -0.000625 -0.099684 1.000000
0.400816 0.036603 0.093158 1.000000
-0.409926 -0.079352 0.060626 1.000000
0.207735 0.084485 -0.053291 1.000000
-0.070044 -0.045417 0.089033 1.000000
-0.403045 0.018443 -0.098000 1.000000
-0.379672 0.058889 0.080947 1.000000
0.049480 -0.025800 -0.096257 1.000000
0.152470 0.098221 -0.018603 1.000000
-0.041834 -0.029579 -0.095159 1.000000
-0.452247 0.058093 -0.081131 3.000000
0.357152 -0.035027 0.093641 1.000000
0.073541 0.035963 -0.093026 1.000000
0.352701 0.074558 -0.066354 1.000000
0.358637 0.052676 0.085090 1.000000
0.127327 0.055728 -0.082738 1.000000
-0.018576 -0.097852 -0.019209 1.000000
0.367170 0.077379 -0.063107 1.000000
-0.425677 -0.050510 0.086233 1.000000
0.129960 -0.036036 -0.092915 1.000000
-0.209836 -0.091668 0.039470 1.000000
-0.386963 -0.018456 0.098324 1.000000
-0.319656 -0.057117 -0.081636 1.000000
0.362703 -0.076886 -0.063442 1.000000
-0.352669 0.099868 -0.004183 1.000000
0.381822 -0.031852 -0.094422 1.000000
0.361395 0.057961 0.081584 1.000000
0.419316 0.077514 0.063297 2.000000
0.421145 -0.098791 0.013921 1.000000
-0.439829 0.042812 -0.090117 3.000000
-0.024082 -0.061691 0.078593 1.000000
0.060811 -0.097676 -0.019995 1.000000
0.349933 -0.094022 -0.033078 1.000000
0.275948 0.038879 -0.091831 1.000000
-0.010758 -0.026881 -0.095943 1.000000
-0.187282 0.099831 0.005720 1.000000
-0.215534 -0.090639 0.041847 1.000000
-0.152381 0.068148 0.073303 1.000000
0.346691 0.099936 0.002382 1.000000
-0.137040 0.075773 -0.064975 1.000000
-0.415803 0.097539 -0.021656 1.000000
-0.089104 0.017091 -0.098214 1.000000
-0.386667 0.010640 -0.099108 1.000000
-0.367753 -0.070488 0.070771 1.000000
-0.292408 -0.094602 0.031828 1.000000
-0.431304 -0.090204 0.042832 3.000000
-0.410998 -0.072483 0.068776 1.000000
-0.231753 -0.077915 -0.062116 1.000000
-0.297424 0.091586 0.040199 1.000000
-0.035633 -0.019135 -0.097819 1.000000
0.335889 0.094014 0.034112 1.000000
0.360876 0.085073 -0.052296 1.000000
0.133881 0.091661 -0.039664 1.000000
-0.223923 -0.048688 -0.086948 1.000000
-0.299507 -0.061300 -0.078533 1.000000
0.049263 -0.036904 -0.092585 1.000000
0.010946 0.099486 0.009863 1.000000
0.195249 0.085506 -0.051565 1.000000
-0.011081 -0.098115 0.018187 1.000000
0.396289 0.066024 -0.074813 1.000000
-0.161453 0.094824 -0.031499 1.000000
0.010818 -0.064306 -0.076122 1.000000
-0.136560 0.091939 -0.039021 1.000000
-0.080624 0.077806 -0.062557 1.000000
-0.359436 -0.044707 -0.089032 1.000000
-0.057622 -0.093247 -0.035230 1.000000
0.128537 0.027895 0.096079 1.000000
-0.294717 0.068962 0.072530 1.000000
-0.451455 0.098279 -0.018266 3.000000
-0.272868 0.085498 -0.051579 1.000000
0.358065 -0.052875 -0.084472 1.000000
0.161769 0.029509 -0.095247 1.000000
0.109339 0.003170 -0.099611 1.000000
0.039802 0.099321 0.011602 1.000000
-0.460962 0.090511 -0.042321 3.000000
-0.333856 -0.078823 -0.060944 1.000000
0.431111 -0.086017 0.050669 2.000000
-0.092125 0.077578 -0.062851 1.000000
-0.248918 0.008583 -0.099303 1.000000
-0.310104 -0.025723 0.096642 1.000000
0.143156 0.095257 -0.030203 1.000000
-0.295653 0.042683 0.090545 1.000000
-0.256309 -0.074899 0.066064 1.000000
-0.000651 -0.030069 0.095379 1.000000
-0.034299 -0.059481 0.080307 1.000000
0.161873 0.099944 0.002136 1.000000
0.154827 -0.052056 0.085319 1.000000
0.442756 -0.022795 0.097363 2.000000
-0.206833 0.095197 -0.030408 1.000000
0.129269 -0.026049 0.096547 1.000000
-0.334313 -0.077489 0.063027 1.000000
0.232982 0.090108 0.043479 1.000000
0.317566 -0.068674 0.072584 1.000000
-0.040560 -0.043067 0.090230 1.000000
-0.096752 0.066686 0.074592 1.000000
0.285373 -0.099138 -0.010716 1.000000
-0.297035 0.067519 -0.073495 1.000000
-0.320986 -0.099601 -0.005252 1.000000
0.305087 -0.023007 -0.096953 1.000000
0.383125 -0.098332 0.016817 1.000000
-0.340562 -0.087902 -0.046987 1.000000
0.032230 -0.098989 0.012652 1.000000
0.180221 0.027820 -0.095738 1.000000
0.254065 -0.096831 -0.023779 1.000000
-0.453206 0.033148 -0.094039 3.000000
-0.285185 0.082316 -0.056489 1.000000
0.100220 0.099153 -0.012744 1.000000
-0.031420 0.079979 0.060118 1.000000
-0.347288 -0.011863 0.099333 1.000000
-0.044725 -0.095105 -0.029922 1.000000
0.036318 -0.009255 -0.099217 1.000000
0.274836 0.089734 0.044212 1.000000
-0.116388 0.030130 0.095429 1.000000
0.344041 0.069446 0.072046 1.000000
-0.270255 0.091190 0.041114 1.000000
0.032492 -0.048503 0.087420 1.000000
0.434190 -0.096295 -0.025824 2.000000
-0.139566 -0.097073 0.023059 1.000000
0.346023 0.053146 0.084812 1.000000
-0.105193 0.095760 -0.028471 1.000000
0.426404 -0.034834 -0.093348 1.000000
0.168553 -0.052025 -0.084974 1.000000
0.019937 0.002863 -0.099621 1.000000
0.001049 0.099885 -0.003634 1.000000
0.082759 0.086535 0.050188 1.000000
-0.041132 -0.014971 0.098876 1.000000
0.246606 -0.004846 0.099914 1.000000
-0.020971 -0.090008 0.043216 1.000000
-0.140642 0.099884 0.004025 1.000000
-0.170883 0.077180 0.063727 1.000000
-0.044661 -0.089993 0.043247 1.000000
-0.026008 0.041352 0.091124 1.000000
0.347607 -0.073553 0.067591 1.000000
0.191082 0.016368 0.098691 1.000000
-0.079849 0.097265 -0.022880 1.000000
0.305808 0.034658 -0.093495 1.000000
-0.019760 0.006428 0.099869 1.000000
0.135629 -0.074523 -0.066128 1.000000
0.391960 0.092039 0.039153 1.000000
-0.448759 0.012902 0.099240 3.000000
0.179190 -0.088961 -0.044908 1.000000
0.221942 -0.068629 -0.072267 1.000000
0.157768 -0.020328 0.097915 1.000000
-0.284229 -0.043469 0.090025 1.000000
0.246005 0.034244 -0.093645 1.000000
0.373285 0.024924 -0.096577 1.000000
0.074097 0.023435 -0.096910 1.000000
-0.448051 0.099716 0.007424 3.000000
-0.287997 0.035990 -0.093016 1.000000
0.121518 0.099909 0.003244 1.000000
0.253865 -0.004871 0.099913 1.000000
-0.090682 0.010423 0.099492 1.000000
0.389734 -0.034501 0.093831 1.000000
0.295242 0.052432 0.085234 1.000000
-0.190822 0.071842 0.069651 1.000000
0.310842 -0.035696 -0.093038 1.000000
0.171728 0.001235 0.100035 1.000000
0.370637 0.099055 -0.013363 1.000000
-0.413086 -0.058162 0.081288 1.000000
-0.318341 -0.072810 -0.068071 1.000000
0.373866 -0.073415 -0.067385 1.000000
0.123284 -0.004462 0.099926 1.000000
0.344398 0.011639 0.099377 1.000000
-0.410521 0.037033 -0.092630 1.000000
-0.069544 -0.050122 -0.086100 1.000000
0.059230 0.034561 -0.093530 1.000000
-0.427494 0.099813 -0.005920 1.000000
0.142981 0.013252 0.099185 1.000000
-0.183047 -0.089677 0.043865 1.000000
0.093432 -0.052230 -0.084853 1.000000
-0.273427 -0.099663 -0.003290 1.000000
-0.234120 -0.065339 -0.075211 1.000000
0.262885 0.071192 0.070300 1.000000
-0.260274 0.015994 0.098750 1.000000
0.310365 -0.064881 0.075977 1.000000
-0.009906 0.012944 -0.098871 1.000000
-0.245793 0.088836 -0.045613 1.000000
0.100938 -0.000835 -0.099677 1.000000
-0.133624 0.069836 -0.071294 1.000000
-0.094877 0.086695 -0.049554 1.000000
-0.160773 -0.027893 0.096011 1.000000
0.404007 -0.099450 -0.007411 1.000000
0.229844 -0.094834 0.031184 1.000000
0.438671 0.093352 0.035950 2.000000
0.428878 0.099902 0.003479 1.000000
0.163733 -0.034180 0.093947 1.000000
-0.373757 0.044846 0.089443 1.000000
-0.055618 -0.012950 0.099196 1.000000
-0.069105 0.040943 0.091301 1.000000
-0.068861 -0.097844 -0.019243 1.000000
0.014038 -0.000775 0.100042 1.000000
-0.307469 0.084970 0.052834 1.000000
0.439456 -0.042706 -0.090051 1.000000
-0.010724 -0.015566 0.098781 1.000000
-0.186218 0.095449 -0.029540 1.000000
-0.118100 0.017829 0.098460 1.000000
0.380230 -0.050008 0.086530 1.000000
-0.092325 0.051615 0.085717 1.000000
-0.226531 0.039712 -0.091470 1.000000
0.040152 -0.051081 0.085895 1.000000
0.190627 -0.043217 0.090154 1.000000
0.385009 -0.095196 0.029970 1.000000
-0.052298 0.096371 -0.026366 1.000000
0.414427 -0.000049 -0.099702 1.000000
0.421139 0.097017 -0.023990 1.000000
0.239088 0.061633 -0.078455 1.000000
-0.274597 -0.093228 0.035647 1.000000
-0.120614 0.054613 0.083859 1.000000
0.333397 0.099587 -0.008426 1.000000
-0.037215 -0.001285 -0.099663 1.000000
-0.064189 0.037566 0.092762 1.000000
-0.308264 -0.099606 0.005450 1.000000
-0.073623 -0.089488 -0.043874 1.000000
-0.384573 -0.018409 -0.097968 1.000000
0.430341 0.054237 0.084114 2.000000
0.024340 0.073978 -0.067011 1.000000
0.446087 0.073432 0.067994 2.000000
0.219884 -0.067128 0.073997 1.000000
0.014267 -0.084300 0.053573 1.000000
0.185922 -0.095769 -0.027637 1.000000
0.358933 0.029595 -0.095222 1.000000
0.206725 -0.099041 0.012104 1.000000
-0.237383 -0.093600 0.034613 1.000000
-0.452118 0.024708 0.096988 3.000000
-0.060316 0.014862 -0.098567 1.000000
0.285327 0.072949 -0.068178 1.000000
0.309499 0.047251 -0.087855 1.000000
0.114092 -0.028245 0.095909 1.000000
-0.319881 -0.097058 -0.022759 1.000000
0.297010 -0.072022 0.069236 1.000000
0.271317 0.056219 0.082768 1.000000
0.133603 -0.056396 -0.082125 1.000000
0.430726 0.089322 -0.044659 1.000000
0.353126 -0.012619 -0.098885 1.000000
0.055767 0.053189 0.084787 1.000000
0.279045 0.071136 -0.069993 1.000000
-0.079746 0.061053 -0.078905 1.000000
0.412762 -0.088368 0.046435 1.000000
-0.227353 -0.084527 -0.052825 1.000000
0.090341 -0.045569 -0.088593 1.000000
-0.145642 0.099675 0.007861 1.000000
0.032691 0.093565 0.035357 1.000000
-0.450626 -0.055094 0.083373 3.000000
0.181457 0.080776 -0.058729 1.000000
-0.079306 0.032402 0.094670 1.000000
0.442641 0.008724 0.099652 2.000000
-0.280701 0.094298 -0.032959 1.000000
-0.423672 0.088860 0.045928 1.000000
0.435186 -0.038316 -0.091974 1.000000
-0.085724 0.019553 0.098140 1.000000
-0.269131 0.039390 0.091973 1.000000
-0.086248 0.074028 0.067317 1.000000
0.448869 -0.091687 -0.039064 2.000000
0.120176 0.099862 -0.004392 1.000000
-0.188672 0.090198 -0.042939 1.000000
-0.445825 0.099985 0.000812 3.000000
-0.173774 -0.046595 -0.088070 1.000000
0.465310 -0.022553 0.097417 2.000000
0.261518 0.098849 -0.014666 1.000000
0.060739 0.040615 -0.091080 1.000000
-0.216842 0.089934 0.043819 1.000000
-0.149153 0.045151 0.089287 1.000000
-0.098326 -0.081680 0.057444 1.000000
-0.050321 -0.061427 0.078797 1.000000
0.163594 -0.062504 0.077962 1.000000
0.170732 0.085593 0.051780 1.000000
-0.054796 0.060449 -0.079374 1.000000
-0.408066 -0.097621 -0.020242 1.000000
0.137939 -0.036098 -0.092893 1.000000
0.115888 0.094768 0.032015 1.000000
0.069041 0.029547 0.095598 1.000000
-0.185132 -0.098863 0.013465 1.000000
0.003393 -0.084245 -0.053303 1.000000
0.413315 0.083415 -0.054872 1.000000
-0.129253 -0.098619 0.015008 1.000000
-0.238388 0.095122 -0.030665 1.000000
-0.102463 -0.099584 -0.005792 1.000000
-0.426170 0.081445 -0.057771 3.000000
0.294012 -0.012606 0.099250 1.000000
0.426447 0.095759 -0.028473 1.000000
0.174207 0.020137 0.098009 1.000000
0.041875 0.096962 0.024599 1.000000
-0.209023 -0.063676 0.077040 1.000000
-0.322944 0.088070 0.047478 1.000000
-0.076186 0.019419 -0.097807 1.000000
0.155395 0.026408 -0.096148 1.000000
-0.238949 0.097397 -0.022291 1.000000
-0.346183 0.009942 0.099537 1.000000
0.261225 0.088356 0.046916 1.000000
-0.336326 0.057227 -0.081719 1.000000
0.293361 -0.059444 -0.079972 1.000000
-0.293007 -0.045791 0.088842 1.000000
0.162564 -0.091588 -0.039291 1.000000
-0.143077 -0.096885 -0.023536 1.000000
0.258941 -0.037418 -0.092362 1.000000
0.349550 -0.098975 -0.012397 1.000000
0.450190 0.087624 -0.047983 2.000000
0.382173 -0.072381 0.068878 1.000000
0.140804 -0.046100 -0.088322 1.000000
-0.061049 0.056688 -0.082085 1.000000
-0.138793 -0.081664 -0.057106 1.000000
-0.116569 -0.098985 0.012692 1.000000
0.080638 0.085755 -0.051144 1.000000
0.277303 -0.002020 -0.099640 1.000000
-0.070171 -0.085136 -0.051796 1.000000
0.360612 -0.078095 0.062246 1.000000
0.002852 0.098616 0.016499 1.000000
0.036622 0.030157 0.095421 1.000000
0.125382 0.096938 -0.024345 1.000000
-0.056754 -0.073234 0.067953 1.000000
-0.332437 0.086491 0.050262 1.000000
-0.368019 0.021683 -0.097301 1.000000
0.042019 -0.079214 0.060804 1.000000
0.146995 0.078303 0.062279 1.000000
0.214079 -0.079197 0.060825 1.000000
-0.171607 0.091009 -0.041169 1.000000
0.008566 0.098914 -0.014256 1.000000
-0.109742 0.026609 -0.096089 1.000000
-0.086681 0.033996 0.094097 1.000000
0.304289 -0.097977 0.019013 1.000000
0.423322 -0.084877 -0.052234 1.000000
-0.237071 0.098474 0.017398 1.000000
-0.319874 -0.021404 -0.097311 1.000000
-0.252838 -0.087278 0.048538 1.000000
0.034637 0.099432 -0.010073 1.000000
0.055269 -0.023440 -0.096856 1.000000
0.039750 0.099849 -0.004782 1.000000
0.160081 0.054145 0.084177 1.000000
-0.383058 0.091790 0.039728 1.000000
0.333280 0.010868 0.099449 1.000000
0.188230 -0.032180 -0.094304 1.000000
-0.388854 0.093533 0.035447 1.000000
-0.445215 -0.023747 0.097150 3.000000
0.331090 0.001281 -0.099671 1.000000
-0.238200 -0.082260 0.056591 1.000000
-0.265070 0.093737 0.034879 1.000000
-0.077326 0.094384 -0.032721 1.000000
-0.026291 -0.083835 0.054273 1.000000
0.149064 -0.062611 0.077879 1.000000
0.052922 -0.087109 -0.048460 1.000000
0.445221 0.090178 -0.042978 2.000000
-0.435188 -0.098304 -0.016630 3.000000
-0.401674 -0.006099 -0.099512 1.000000
0.456446 -0.099347 -0.008498 2.000000
0.350811 -0.099767 0.000324 1.000000
0.206942 0.095933 0.028236 1.000000
-0.183212 -0.057748 0.081569 1.000000
-0.373667 0.058822 -0.080636 1.000000
-0.222810 -0.071333 -0.069563 1.000000
-0.165460 0.008115 -0.099347 1.000000
0.377573 -0.097005 -0.022999 1.000000
0.022078 0.084073 -0.053904 1.000000
-0.369903 0.005219 0.099910 1.000000
0.423039 -0.094090 0.033250 1.000000
-0.349924 -0.001971 -0.099642 1.000000
-0.375789 -0.021304 -0.097334 1.000000
0.121273 0.093293 0.036112 1.000000
-0.221380 0.014220 -0.098669 1.000000
-0.337771 -0.040441 0.091417 1.000000
-0.248304 -0.013154 0.099163 1.000000
0.430258 0.003704 -0.099594 1.000000
0.272582 -0.084476 0.053274 1.000000
0.151758 0.089021 -0.045250 1.000000
-0.416349 0.060198 -0.079569 1.000000
0.282595 -0.060241 -0.079354 1.000000
0.052233 0.005207 0.099910 1.000000
0.285750 0.031970 0.094826 1.000000
0.156770 -0.001763 0.100011 1.000000
0.433035 0.058728 -0.080699 1.000000
-0.344784 -0.019783 0.098036 1.000000
-0.101331 -0.075940 -0.064520 1.000000
-0.218940 0.045366 0.089178 1.000000
0.143718 -0.081638 0.057506 1.000000
0.073651 -0.011434 -0.099011 1.000000
-0.161061 0.099961 0.001594 1.000000
-0.376826 -0.007127 -0.099418 1.000000
-0.280533 -0.002177 -0.099635 1.000000
-0.120907 0.099966 0.001424 1.000000
0.203015 0.099810 0.006393 1.000000
-0.017663 -0.079603 -0.059939 1.000000
0.038823 0.040285 -0.091223 1.000000
0.093165 -0.040902 0.091217 1.000000
-0.017569 -0.011383 -0.099016 1.000000
0.151867 -0.071761 0.069498 1.000000
0.235293 0.099532 0.009372 1.000000
-0.172734 0.065200 0.075902 1.000000
-0.081789 0.003598 -0.099598 1.000000
0.091135 0.093411 -0.035423 1.000000
-0.363996 0.072509 -0.068620 1.000000
-0.188620 0.063542 0.077337 1.000000
0.124424 -0.064812 0.076038 1.000000
0.295785 -0.029281 -0.095245 1.000000
0.035960 0.063717 -0.076839 1.000000
0.268024 0.065815 -0.074997 1.000000
0.364535 -0.096727 0.024605 1.000000
0.054495 -0.071362 -0.069534 1.000000
0.212366 0.071953 -0.069177 1.000000
-0.181094 -0.015284 -0.098463 1.000000
0.066358 -0.097792 0.019838 1.000000
-0.406933 0.074110 0.067224 1.000000
0.397860 -0.024346 -0.096654 1.000000
-0.103779 0.087010 0.049385 1.000000
0.244006 0.039821 -0.091424 1.000000
-0.287409 -0.034731 0.093748 1.000000
-0.328528 -0.031994 -0.094371 1.000000
-0.158511 -0.099599 -0.005309 1.000000
-0.167918 0.098034 -0.019442 1.000000
0.109521 0.050980 0.086093 1.000000
-0.129790 0.008570 -0.099304 1.000000
0.374516 0.029093 0.095731 1.000000
-0.400323 0.077606 0.063177 1.000000
-0.432002 0.039508 -0.091559 3.000000
0.190903 0.079248 -0.060698 1.000000
-0.140103 0.030200 0.095409 1.000000
0.079906 -0.098075 0.018444 1.000000
-0.336852 0.083131 0.055653 1.000000
-0.011035 -0.094715 -0.031151 1.000000
0.232901 0.004906 -0.099557 1.000000
0.025790 0.079974 -0.059762 1.000000
0.024401 0.094105 -0.033496 1.000000
-0.293842 0.099984 -0.000494 1.000000
-0.133605 0.059285 0.080639 1.000000
0.327026 0.099503 -0.009316 1.000000
0.020969 -0.038687 0.092176 1.000000
-0.390009 -0.076059 -0.064386 1.000000
0.047214 0.089300 -0.044702 1.000000
0.117231 0.051229 -0.085583 1.000000
0.046715 0.036415 -0.092863 1.000000
-0.418868 -0.075915 -0.064550 1.000000
-0.410750 0.022257 0.097535 1.000000
0.408091 -0.017376 -0.098132 1.000000
-0.043313 -0.097416 -0.021160 1.000000
-0.171279 0.099838 -0.005147 1.000000
0.003913 0.080271 -0.059380 1.000000
0.151523 0.075429 0.065728 1.000000
-0.337317 0.000838 0.100047 1.000000
-0.444225 0.092467 0.038163 3.000000
-0.199818 -0.096002 -0.026833 1.000000
0.136150 0.077842 -0.062510 1.000000
0.131082 -0.099707 0.002235 1.000000
0.256124 -0.083099 -0.054994 1.000000
0.364202 0.099285 0.011990 1.000000
0.328628 -0.040597 0.091349 1.000000
-0.182865 0.013506 0.099145 1.000000
0.295818 0.073387 -0.067681 1.000000
0.356820 0.062760 0.077945 1.000000
-0.095302 0.090031 -0.043266 1.000000
0.356969 -0.080716 -0.058500 1.000000
-0.143634 -0.090613 -0.041544 1.000000
0.032988 0.000652 0.100053 1.000000
0.426559 -0.095832 0.027781 2.000000
0.086726 0.086301 -0.050221 1.000000
0.076023 -0.069914 0.071345 1.000000
-0.009844 -0.088326 -0.046156 1.000000
0.024197 0.086131 0.050871 1.000000
0.398507 -0.071687 0.069572 1.000000
-0.391901 0.026904 -0.096004 1.000000
0.250467 0.074305 -0.066640 1.000000
-0.426872 -0.035156 0.093595 1.000000
-0.195696 -0.023707 -0.096796 1.000000
0.063330 -0.096071 0.026959 1.000000
0.025337 -0.030215 0.095337 1.000000
0.317412 0.072034 0.069458 1.000000
-0.457759 -0.050666 0.086141 3.000000
-0.141582 0.079406 0.060857 1.000000
0.112600 0.028914 -0.095420 1.000000
0.397666 -0.086785 0.049370 1.000000
-0.088814 0.032866 -0.094141 1.000000
-0.140827 -0.008946 0.099609 1.000000
-0.326082 -0.056764 -0.081875 1.000000
-0.103275 0.081106 -0.058270 1.000000
-0.011707 0.071675 0.069817 1.000000
-0.114793 -0.003573 0.099954 1.000000
0.450076 0.056299 -0.082350 2.000000
0.125671 -0.091102 0.040779 1.000000
0.312833 -0.081858 -0.056820 1.000000
-0.156000 -0.020307 0.097919 1.000000
-0.455541 -0.078264 0.062029 3.000000
0.146082 0.040595 -0.091088 1.000000
-0.378862 -0.076217 0.064569 1.000000
0.457943 0.046938 -0.088014 2.000000
-0.234249 -0.030202 0.095341 1.000000
-0.306627 0.077631 0.063145 1.000000
-0.310211 0.037080 0.092972 1.000000
0.055360 0.093474 -0.035247 1.000000
-0.039035 0.096232 -0.026845 1.000000
0.260926 -0.058119 0.081318 1.000000
-0.090673 -0.000530 0.100050 1.000000
-0.156286 0.081622 -0.057511 1.000000
0.215887 0.031102 -0.094776 1.000000
0.273818 0.085366 -0.051802 1.000000
0.379593 0.023061 -0.096993 1.000000
0.428925 -0.039125 0.091987 2.000000
-0.342511 -0.055228 0.083282 1.000000
0.121762 0.089835 0.044014 1.000000
0.277214 0.026937 -0.095994 1.000000
0.284245 0.046761 -0.088105 1.000000
0.010400 0.018399 0.098369 1.000000
-0.052402 -0.018764 0.098264 1.000000
0.018884 0.023889 0.097171 1.000000
0.082265 -0.031326 0.094974 1.000000
0.154954 -0.091750 0.039281 1.000000
0.302410 0.074632 -0.066269 1.000000
-0.270712 -0.073486 -0.067305 1.000000
0.203764 0.048248 0.087709 1.000000
0.193783 -0.035539 -0.093094 1.000000
-0.128699 -0.001557 0.100017 1.000000
-0.333730 -0.086123 0.050490 1.000000
-0.178913 -0.052845 -0.084489 1.000000
0.353700 -0.030833 -0.094789 1.000000
-0.023374 0.088006 -0.047241 1.000000
-0.384451 0.097112 0.023928 1.000000
0.141852 0.026757 0.096409 1.000000
0.305482 -0.098041 -0.018290 1.000000
0.092709 -0.031992 -0.094371 1.000000
0.303604 0.022212 0.097546 1.000000
0.385765 -0.054887 0.083514 1.000000
0.031223 -0.073008 -0.067846 1.000000
-0.124925 -0.044774 0.089361 1.000000
-0.443817 -0.056299 0.082554 3.000000
-0.370496 0.002817 -0.099622 1.000000
-0.055970 -0.068621 -0.072275 1.000000
-0.276400 0.011124 0.099425 1.000000
-0.193446 0.025089 -0.096531 1.000000
-0.285526 0.098646 -0.015950 1.000000
-0.132817 -0.091366 -0.039806 1.000000
0.393060 0.057591 -0.081472 1.000000
0.072323 0.029595 -0.095222 1.000000
-0.351789 -0.023472 0.097212 1.000000
0.168649 -0.098217 0.017543 1.000000
0.272157 -0.066333 0.074698 1.000000
0.020374 0.051886 -0.085194 1.000000
-0.370296 0.069609 0.071883 1.000000
0.145202 -0.003000 -0.099609 1.000000
0.245926 -0.096185 0.026569 1.000000
-0.244283 0.099861 -0.004415 1.000000
-0.031129 -0.099714 -0.001669 1.000000
0.052814 -0.053560 0.084415 1.000000
0.280232 -0.058927 0.080737 1.000000
-0.411083 -0.057342 -0.081483 1.000000
0.163490 0.019604 0.098129 1.000000
0.026529 -0.057601 -0.081306 1.000000
-0.061862 -0.024185 0.097052 1.000000
-0.211578 -0.079214 0.060804 1.000000
-0.087905 0.086032 0.051038 1.000000
0.430940 0.012438 -0.098938 1.000000
-0.401436 -0.092865 0.036654 1.000000
-0.180492 -0.099665 -0.003233 1.000000
-0.328049 0.019996 -0.097678 1.000000
-0.334662 0.077402 0.063440 1.000000
-0.356774 -0.030431 0.095274 1.000000
-0.263757 0.026197 -0.096209 1.000000
0.170456 0.036456 -0.092848 1.000000
-0.392756 -0.003265 0.099964 1.000000
0.233955 0.091432 -0.040192 1.000000
0.386126 -0.074242 -0.066447 1.000000
0.241936 -0.044685 -0.089043 1.000000
-0.062633 -0.035685 -0.093042 1.000000
-0.108495 0.078895 -0.061153 1.000000
0.209148 0.026926 -0.095997 1.000000
0.247805 -0.093410 -0.034777 1.000000
-0.070961 0.094539 0.032652 1.000000
-0.391731 -0.043246 -0.089776 1.000000
-0.101938 -0.093597 0.034622 1.000000
0.395062 -0.056047 -0.082362 1.000000
-0.416871 0.091236 -0.040646 1.000000
-0.433585 0.099023 -0.013569 3.000000
0.285321 -0.011371 -0.099017 1.000000
0.022449 0.027598 -0.095802 1.000000
-0.357921 -0.072133 -0.068763 1.000000
0.058994 0.098143 0.019315 1.000000
0.186014 -0.011071 -0.099045 1.000000
0.111690 -0.033674 0.094129 1.000000
0.088283 0.099938 0.002322 1.000000
0.350393 -0.090585 0.041972 1.000000
-0.454753 0.066746 -0.074176 3.000000
-0.299187 0.087239 0.048997 1.000000
0.151867 -0.014579 -0.098575 1.000000
0.019663 -0.099767 0.000350 1.000000
0.268144 0.099056 0.013722 1.000000
-0.002822 0.083696 0.054821 1.000000
-0.087936 -0.036240 0.093205 1.000000
-0.404488 -0.090914 0.041213 1.000000
0.459284 0.099212 -0.012371 2.000000
-0.410622 0.027636 -0.095791 1.000000
-0.238128 -0.016931 0.098565 1.000000
0.306807 0.048378 0.087632 1.000000
0.320444 -0.021530 -0.097283 1.000000
-0.142863 0.013102 -0.098846 1.000000
0.229215 -0.089192 -0.044455 1.000000
0.335443 0.098568 -0.016441 1.000000
-0.330840 0.008933 -0.099270 1.000000
0.196170 0.094367 0.033130 1.000000
-0.348559 0.070561 0.070931 1.000000
-0.055830 -0.099031 0.012208 1.000000
-0.388394 -0.078199 0.062112 1.000000
-0.362558 0.061851 -0.078286 1.000000
-0.284390 0.092223 -0.038365 1.000000
0.393509 0.067628 0.073762 1.000000
0.258918 -0.099617 -0.004764 1.000000
-0.245213 0.058950 -0.080537 1.000000
-0.279198 0.086507 -0.049872 1.000000
0.384552 0.079270 -0.060669 1.000000
-0.436805 0.079846 -0.059927 3.000000
0.448912 -0.097174 0.022604 2.000000
0.236170 -0.095683 0.028295 1.000000
0.202579 -0.039743 0.091719 1.000000
0.008945 -0.099576 -0.006065 1.000000
0.069596 0.099113 0.013360 1.000000
0.412118 0.078046 0.062610 1.000000
-0.218881 0.067413 0.073951 1.000000
0.454203 -0.039260 0.091928 2.000000
-0.212816 0.068896 -0.072234 1.000000
0.149454 0.085494 -0.051585 1.000000
-0.130464 -0.021239 0.097711 1.000000
0.369087 0.016919 0.098604 1.000000
-0.463846 0.077880 0.062824 3.000000
0.320217 -0.012195 -0.098939 1.000000
-0.358546 0.040798 0.091363 1.000000
-0.135529 -0.076809 0.063897 1.000000
-0.406197 0.089376 0.044915 1.000000
0.233102 0.099866 -0.004265 1.000000
-0.056584 -0.092519 0.037504 1.000000
-0.068889 0.082049 -0.056882 1.000000
0.085249 -0.074607 -0.066033 1.000000
-0.449341 -0.080536 -0.058736 3.000000
0.079994 0.024932 0.096938 1.000000
0.208625 0.069527 0.071966 1.000000
-0.147069 0.057560 0.081856 1.000000
0.211788 -0.049321 -0.086573 1.000000
-0.215073 -0.022784 -0.097003 1.000000
0.374741 0.052650 0.085106 1.000000
-0.355190 0.064088 0.076882 1.000000
0.290497 -0.072397 0.068862 1.000000
0.157727 -0.042542 -0.090135 1.000000
0.153928 -0.014238 0.098992 1.000000
-0.011129 0.083991 -0.054025 1.000000
0.197789 -0.043415 0.090053 1.000000
-0.208186 -0.021459 -0.097299 1.000000
-0.303168 -0.003367 0.099960 1.000000
0.307208 0.077488 -0.062967 1.000000
0.062989 -0.063700 0.077019 1.000000
0.268247 0.021141 -0.097422 1.000000
0.421374 -0.027679 -0.095711 1.000000
0.314102 0.084140 -0.053805 1.000000
0.118521 0.097291 0.023127 1.000000
-0.431082 -0.015480 -0.098432 1.000000
0.322454 0.046021 0.088844 1.000000
0.465134 0.079875 -0.059890 2.000000
0.046649 0.050448 -0.086045 1.000000
0.274906 0.002070 0.100009 1.000000
0.255396 -0.035023 0.093643 1.000000
-0.339984 0.069436 -0.071694 1.000000
0.163882 0.008167 -0.099342 1.000000
-0.122641 0.099463 0.010100 1.000000
-0.208720 0.097529 -0.021700 1.000000
0.336920 0.091487 0.040427 1.000000
0.224657 -0.015120 -0.098489 1.000000
0.266734 0.035505 0.093553 1.000000
0.134639 0.018113 -0.098052 1.000000
