-0.466955 -0.031390 0.082049 3.000000
-0.466955 0.076309 0.004919 3.000000
-0.466955 -0.064961 -0.043410 3.000000
-0.466955 0.024272 -0.026853 3.000000
-0.466955 0.029846 0.032345 3.000000
-0.466955 0.062492 -0.063740 3.000000
-0.466955 0.014886 0.071695 3.000000
-0.466955 0.072861 0.023331 3.000000
-0.466955 0.023553 0.094803 3.000000
-0.466955 0.003374 0.096894 3.000000
-0.466955 0.015052 0.073319 3.000000
-0.466955 -0.051238 0.061282 3.000000
-0.466955 0.082032 0.028994 3.000000
-0.466955 -0.001446 -0.057498 3.000000
-0.466955 0.033828 -0.085113 3.000000
-0.466955 0.083264 0.032194 3.000000
-0.466955 -0.003444 -0.043149 3.000000
-0.466955 -0.016598 -0.053496 3.000000
-0.466955 0.062948 0.077384 3.000000
-0.466955 0.055426 -0.036290 3.000000
-0.466955 -0.031720 -0.013528 3.000000
-0.466955 -0.085670 0.043917 3.000000
-0.466955 0.009889 -0.061188 3.000000
-0.466955 0.065645 0.033935 3.000000
-0.466955 -0.080518 -0.049726 3.000000
-0.466955 -0.027972 0.061634 3.000000
-0.466955 0.057458 0.075951 3.000000
-0.466955 -0.061578 0.061244 3.000000
-0.466955 0.038468 -0.056389 3.000000
-0.466955 -0.016309 0.070606 3.000000
-0.466955 0.017142 -0.068395 3.000000
-0.466955 0.068299 -0.002225 3.000000
-0.466955 0.005463 -0.073154 3.000000
-0.466955 -0.088215 -0.016134 3.000000
-0.466955 0.044232 -0.060953 3.000000
-0.466955 -0.038027 0.060975 3.000000
-0.466955 -0.033593 -0.001751 3.000000
-0.466955 -0.051591 0.065774 3.000000
-0.466955 -0.068735 0.045105 3.000000
-0.466955 0.083932 0.051893 3.000000
-0.466955 0.057200 -0.000604 3.000000
-0.466955 -0.049612 0.045692 3.000000
-0.466955 -0.022231 0.010462 3.000000
-0.466955 -0.029151 0.021762 3.000000
-0.466955 -0.031745 0.019375 3.000000
-0.466955 -0.048069 0.066980 3.000000
-0.466955 -0.021971 0.097384 3.000000
-0.466955 -0.051205 -0.055301 3.000000
-0.466955 0.057052 0.051937 3.000000
-0.466955 0.023903 0.096661 3.000000
-0.466955 0.047029 -0.005560 3.000000
-0.466955 -0.001326 -0.098121 3.000000
-0.466955 0.017794 0.076817 3.000000
-0.466955 -0.056209 -0.013888 3.000000
-0.466955 -0.055413 0.076595 3.000000
-0.466955 -0.066507 0.049699 3.000000
-0.466955 0.082899 -0.053719 3.000000
-0.466955 -0.064558 0.036191 3.000000
-0.466955 -0.006952 -0.051413 3.000000
-0.466955 0.096863 -0.016470 3.000000
-0.466955 0.041466 0.049439 3.000000
-0.466955 0.093566 0.018278 3.000000
-0.466955 -0.001398 0.007954 3.000000
-0.466955 0.042010 -0.078223 3.000000
-0.466955 -0.015416 0.036835 3.000000
-0.466955 -0.089164 0.040450 3.000000
-0.466955 -0.002816 0.088011 3.000000
-0.466955 -0.044271 -0.001425 3.000000
-0.466955 0.020583 0.000337 3.000000
-0.466955 -0.013010 0.050533 3.000000
-0.466955 -0.002542 0.095106 3.000000
-0.466955 0.006236 -0.094538 3.000000
-0.466955 -0.061028 -0.058177 3.000000
-0.466955 -0.060636 0.005568 3.000000
-0.466955 0.021345 -0.013341 3.000000
-0.466955 0.096092 0.006844 3.000000
-0.466955 0.015237 -0.048228 3.000000
-0.466955 0.066287 -0.065148 3.000000
-0.466955 0.028986 0.066971 3.000000
-0.466955 0.014288 0.085684 3.000000
-0.466955 0.003386 -0.033224 3.000000
-0.466955 0.003439 0.057650 3.000000
-0.466955 0.005934 0.077956 3.000000
-0.466955 -0.058931 0.015731 3.000000
-0.466955 -0.040850 0.064846 3.000000
-0.466955 -0.055085 0.004378 3.000000
-0.466955 -0.078873 -0.011455 3.000000
-0.466955 0.043724 0.019392 3.000000
-0.466955 -0.030307 -0.092577 3.000000
-0.466955 0.023138 0.049408 3.000000
-0.466955 -0.014184 0.056104 3.000000
-0.466955 -0.008012 -0.004603 3.000000
-0.466955 -0.069414 0.018610 3.000000
-0.466955 -0.061838 0.022651 3.000000
-0.466955 -0.025298 -0.004775 3.000000
-0.466955 -0.061043 -0.029221 3.000000
-0.466955 -0.023199 -0.077933 3.000000
-0.466955 -0.007896 -0.021891 3.000000
-0.466955 -0.097930 -0.004369 3.000000
-0.466955 0.001861 -0.050536 3.000000
-0.466955 0.085623 0.045236 3.000000
-0.466955 -0.095061 -0.021815 3.000000
-0.466955 -0.001426 -0.088925 3.000000
-0.466955 -0.076060 -0.000667 3.000000
-0.466955 0.045190 -0.067882 3.000000
-0.466955 -0.084820 0.012890 3.000000
-0.466955 -0.052778 -0.021438 3.000000
-0.466955 0.000953 0.025656 3.000000
-0.466955 -0.087581 0.030570 3.000000
-0.466955 0.053369 0.019996 3.000000
-0.466955 0.054925 -0.034457 3.000000
-0.466955 -0.042024 -0.006231 3.000000
-0.466955 0.088210 0.014822 3.000000
-0.466955 -0.054808 0.055224 3.000000
-0.466955 0.034756 -0.079833 3.000000
-0.466955 0.064688 -0.016899 3.000000
-0.466955 -0.042007 0.021012 3.000000
-0.466955 -0.038487 -0.081634 3.000000
-0.466955 0.064464 0.058250 3.000000
-0.466955 -0.022203 0.069167 3.000000
-0.466955 0.071844 -0.066007 3.000000
-0.466955 0.082356 0.043562 3.000000
-0.466955 0.016003 0.088699 3.000000
-0.466955 0.014843 -0.078839 3.000000
-0.466955 0.042157 -0.021369 3.000000
-0.466955 0.002108 0.095752 3.000000
-0.466955 -0.019359 0.008465 3.000000
-0.466955 -0.018041 -0.037544 3.000000
-0.466955 0.028618 -0.019083 3.000000
-0.466955 0.004560 -0.026267 3.000000
-0.466955 0.068507 0.043371 3.000000
-0.466955 -0.014113 -0.025280 3.000000
-0.466955 0.054159 0.050698 3.000000
-0.466955 0.015507 -0.068855 3.000000
-0.466955 -0.082185 -0.030317 3.000000
-0.466955 -0.046451 0.045526 3.000000
-0.466955 -0.051327 0.064292 3.000000
-0.466955 -0.016488 -0.060734 3.000000
-0.466955 -0.007540 0.041638 3.000000
-0.466955 -0.012678 0.044748 3.000000
-0.466955 0.003505 0.030865 3.000000
-0.466955 -0.023854 -0.008793 3.000000
-0.466955 0.023560 0.032379 3.000000
-0.466955 0.051325 0.082894 3.000000
-0.466955 0.027619 -0.001051 3.000000
-0.466955 0.056146 -0.054974 3.000000
-0.466955 0.062245 -0.004214 3.000000
-0.466955 -0.083093 -0.049146 3.000000
-0.466955 -0.034850 0.053219 3.000000
-0.466955 -0.020680 0.085690 3.000000
-0.466955 0.066564 0.036369 3.000000
-0.466955 0.056929 -0.004084 3.000000
-0.466955 0.036814 -0.067289 3.000000
-0.466955 0.088752 -0.032397 3.000000
-0.466955 0.032279 0.064405 3.000000
-0.466955 -0.085121 0.042246 3.000000
-0.466955 0.022437 -0.045736 3.000000
-0.466955 0.013859 -0.036230 3.000000
-0.466955 0.022664 -0.039310 3.000000
-0.466955 -0.017402 0.006204 3.000000
-0.466955 0.039193 0.069832 3.000000
-0.466955 -0.094488 -0.024292 3.000000
-0.466955 -0.065211 0.008382 3.000000
-0.466955 0.049210 -0.050016 3.000000
-0.466955 0.088225 0.011303 3.000000
-0.466955 0.020976 0.043712 3.000000
-0.466955 -0.018189 0.046574 3.000000
-0.466955 0.084562 -0.052331 3.000000
-0.466955 -0.000334 0.024761 3.000000
-0.466955 0.020262 -0.072932 3.000000
-0.466955 0.022466 -0.062460 3.000000
-0.466955 0.038738 -0.028294 3.000000
-0.466955 -0.030491 -0.055358 3.000000
-0.466955 -0.085118 -0.045148 3.000000
-0.466955 0.093579 -0.012583 3.000000
-0.466955 0.031000 -0.082151 3.000000
-0.466955 0.006976 -0.054271 3.000000
-0.466955 0.020748 0.081202 3.000000
-0.466955 -0.048768 -0.028482 3.000000
-0.466955 0.037347 0.075966 3.000000
-0.466955 0.011059 -0.023761 3.000000
-0.466955 0.028684 0.075904 3.000000
-0.466955 -0.024740 0.076100 3.000000
-0.466955 0.011904 0.041573 3.000000
-0.466955 -0.019808 -0.054341 3.000000
-0.466955 0.019758 0.013974 3.000000
-0.466955 -0.037339 0.014712 3.000000
-0.466955 0.069069 0.055661 3.000000
-0.466955 -0.047776 -0.025072 3.000000
-0.466955 0.010801 -0.073008 3.000000
-0.466955 0.074715 -0.060520 3.000000
-0.466955 0.071760 0.036927 3.000000
-0.466955 -0.062699 -0.017435 3.000000
-0.466955 0.055621 -0.021806 3.000000
-0.466955 -0.003168 -0.095081 3.000000
-0.466955 -0.015250 0.033906 3.000000
-0.466955 -0.006796 -0.072972 3.000000
-0.466955 0.061747 -0.077910 3.000000
-0.466955 0.095796 0.003700 3.000000
-0.466955 -0.055539 0.080138 3.000000
-0.466955 0.077435 -0.053873 3.000000
-0.466955 -0.040944 -0.064407 3.000000
-0.466955 0.019625 0.039012 3.000000
-0.466955 0.013449 -0.065031 3.000000
-0.466955 0.029076 -0.072760 3.000000
-0.466955 0.033850 0.046410 3.000000
-0.466955 -0.055805 0.000300 3.000000
-0.466955 -0.047289 -0.074633 3.000000
-0.466955 -0.016094 0.048263 3.000000
-0.466955 -0.013892 -0.096289 3.000000
-0.466955 -0.026159 0.005840 3.000000
-0.466955 0.088758 -0.004841 3.000000
-0.466955 0.034999 0.020460 3.000000
-0.466955 -0.011052 -0.092043 3.000000
-0.466955 0.016427 0.083200 3.000000
-0.466955 0.038711 0.088914 3.000000
-0.466955 0.007613 -0.083045 3.000000
-0.466955 0.074746 -0.035557 3.000000
-0.466955 0.029637 0.054812 3.000000
-0.466955 0.000831 0.073734 3.000000
-0.466955 -0.059850 -0.015873 3.000000
-0.466955 0.029137 0.064137 3.000000
-0.466955 0.032997 0.030832 3.000000
-0.466955 0.026760 0.007457 3.000000
-0.466955 -0.006552 0.003499 3.000000
-0.466955 -0.039942 0.078904 3.000000
-0.466955 -0.009483 -0.020391 3.000000
-0.466955 -0.095934 0.010316 3.000000
-0.466955 0.074546 -0.051240 3.000000
-0.466955 -0.068572 -0.006150 3.000000
-0.466955 -0.069852 -0.058876 3.000000
-0.466955 0.040392 -0.016496 3.000000
-0.466955 -0.088800 -0.038211 3.000000
-0.466955 -0.036718 0.056945 3.000000
-0.466955 -0.024693 0.051004 3.000000
-0.466955 -0.010150 -0.032859 3.000000
-0.466955 0.077014 -0.030397 3.000000
-0.466955 0.084317 0.013134 3.000000
-0.466955 -0.070665 0.065495 3.000000
-0.466955 0.049302 -0.046510 3.000000
-0.466955 -0.031996 0.036802 3.000000
-0.466955 -0.002150 0.066582 3.000000
-0.466955 0.047468 -0.023094 3.000000
-0.466955 0.033215 -0.039771 3.000000
-0.466955 -0.027482 -0.093692 3.000000
-0.466955 0.060894 -0.020247 3.000000
-0.466955 0.021229 0.032948 3.000000
-0.466955 0.071064 0.067463 3.000000
-0.466955 -0.039821 0.019013 3.000000
-0.466955 -0.025097 0.059825 3.000000
-0.466955 0.029012 0.049856 3.000000
-0.466955 -0.030130 0.003078 3.000000
-0.466955 0.091344 0.005198 3.000000
-0.466955 0.072112 0.054485 3.000000
-0.466955 -0.027123 -0.014568 3.000000
-0.466955 0.006671 -0.046961 3.000000
-0.466955 -0.080058 -0.017861 3.000000
-0.466955 -0.053906 -0.072974 3.000000
-0.466955 0.073095 -0.035511 3.000000
-0.466955 -0.024587 0.001904 3.000000
-0.466955 0.023369 -0.002134 3.000000
-0.466955 0.096021 -0.006383 3.000000
-0.466955 -0.052574 0.081249 3.000000
-0.466955 -0.016915 0.096666 3.000000
-0.466955 0.007264 0.055917 3.000000
-0.466955 -0.004018 -0.049135 3.000000
-0.466955 -0.067001 0.010275 3.000000
-0.466955 -0.095129 -0.011282 3.000000
-0.466955 -0.014687 0.029770 3.000000
-0.466955 -0.016610 0.077302 3.000000
-0.466955 0.090016 0.033501 3.000000
-0.466955 0.080455 -0.043515 3.000000
-0.466955 0.049823 -0.029614 3.000000
-0.466955 0.017688 -0.074770 3.000000
-0.466955 -0.073067 -0.030922 3.000000
-0.466955 0.033774 0.032609 3.000000
-0.466955 -0.072716 0.036681 3.000000
-0.466955 0.042099 -0.023235 3.000000
-0.466955 -0.004049 -0.076379 3.000000
-0.466955 -0.052847 0.000562 3.000000
-0.466955 0.096527 0.026048 3.000000
-0.466955 0.021031 0.013356 3.000000
-0.466955 -0.047510 0.016880 3.000000
-0.466955 0.092422 -0.000613 3.000000
-0.466955 0.045575 -0.070007 3.000000
-0.466955 -0.000943 0.001001 3.000000
-0.466955 0.044342 0.076390 3.000000
-0.466955 0.029011 -0.012456 3.000000
-0.466955 0.091596 -0.023194 3.000000
-0.466955 -0.039946 0.061610 3.000000
-0.466955 -0.043220 -0.054938 3.000000
-0.466955 0.010941 0.030233 3.000000
-0.466955 -0.087857 0.002061 3.000000
-0.466955 -0.003947 -0.089626 3.000000
-0.466955 -0.044876 -0.055283 3.000000
-0.466955 0.025182 -0.010242 3.000000
-0.466955 0.065081 -0.074176 3.000000
-0.466955 0.007518 0.018217 3.000000
-0.466955 0.017143 -0.026347 3.000000
-0.466955 -0.016606 0.079463 3.000000
-0.466955 0.041161 0.063589 3.000000
-0.466955 0.037075 -0.062980 3.000000
-0.466955 0.045917 -0.088429 3.000000
-0.466955 -0.082818 -0.038430 3.000000
-0.466955 0.072687 0.008377 3.000000
-0.466955 0.012344 -0.028349 3.000000
-0.466955 -0.055689 0.010052 3.000000
-0.466955 0.026244 -0.024857 3.000000
-0.466955 -0.061539 -0.038328 3.000000
-0.466955 0.021112 0.053529 3.000000
-0.466955 -0.063013 0.037497 3.000000
-0.466955 0.023627 0.029144 3.000000
-0.466955 0.047991 0.065177 3.000000
-0.466955 0.024807 0.023991 3.000000
-0.466955 -0.065220 -0.029989 3.000000
-0.466955 0.034632 0.092470 3.000000
-0.466955 -0.029864 -0.057352 3.000000
-0.466955 0.057485 0.064453 3.000000
-0.466955 -0.005986 0.044698 3.000000
-0.466955 -0.042754 -0.015112 3.000000
-0.466955 0.080829 0.032690 3.000000
-0.466955 -0.027294 -0.024530 3.000000
-0.466955 0.026634 0.072860 3.000000
-0.466955 0.031086 -0.006557 3.000000
-0.466955 -0.072507 0.003635 3.000000
-0.466955 -0.079472 -0.021143 3.000000
-0.466955 -0.045118 0.081016 3.000000
-0.466955 0.061425 -0.036785 3.000000
-0.466955 -0.001457 0.074990 3.000000
-0.466955 0.053670 -0.066066 3.000000
-0.466955 0.048765 0.011858 3.000000
-0.466955 -0.033698 0.023742 3.000000
-0.466955 -0.076569 0.033185 3.000000
-0.466955 0.037756 -0.085234 3.000000
-0.466955 -0.025190 0.048604 3.000000
-0.466955 0.051262 0.031991 3.000000
-0.466955 -0.031386 -0.030142 3.000000
-0.466955 0.008247 0.072346 3.000000
-0.466955 -0.040082 0.053540 3.000000
-0.466955 -0.049733 -0.053319 3.000000
-0.466955 0.009602 0.032382 3.000000
-0.466955 0.041383 -0.090493 3.000000
-0.466955 0.076135 -0.022393 3.000000
-0.466955 0.023739 0.072090 3.000000
-0.466955 0.057283 0.055564 3.000000
-0.466955 0.057229 -0.013875 3.000000
-0.466955 0.091216 0.022967 3.000000
-0.466955 0.010721 0.087621 3.000000
-0.466955 0.003755 -0.056362 3.000000
-0.466955 0.077817 -0.047468 3.000000
-0.466955 0.010225 -0.081741 3.000000
-0.466955 -0.012509 0.097184 3.000000
-0.466955 0.064974 -0.045914 3.000000
-0.466955 -0.026058 0.081373 3.000000
-0.466955 0.010928 -0.038126 3.000000
-0.466955 0.055511 -0.041755 3.000000
-0.466955 0.052842 0.008171 3.000000
-0.466955 0.006654 -0.000011 3.000000
-0.466955 -0.007383 0.092699 3.000000
-0.466955 0.065982 -0.007069 3.000000
-0.466955 0.028105 0.025127 3.000000
-0.466955 0.036329 0.056938 3.000000
-0.466955 0.046199 0.060251 3.000000
-0.466955 0.051054 -0.025631 3.000000
-0.466955 0.049575 -0.053389 3.000000
-0.466955 0.003865 0.067944 3.000000
-0.466955 0.043466 -0.087951 3.000000
-0.466955 -0.033147 -0.041807 3.000000
-0.466955 0.000609 -0.014648 3.000000
-0.466955 -0.074298 -0.057063 3.000000
-0.466955 0.058696 0.071521 3.000000
-0.466955 0.029814 0.068787 3.000000
-0.466955 0.091465 0.008673 3.000000
-0.466955 0.018309 0.003188 3.000000
-0.466955 0.053312 0.034653 3.000000
-0.466955 0.001844 0.052549 3.000000
-0.466955 0.068814 0.071240 3.000000
-0.466955 0.000675 0.010895 3.000000
-0.466955 0.054824 -0.067016 3.000000
-0.466955 0.013374 -0.003834 3.000000
-0.466955 -0.068496 -0.064492 3.000000
-0.466955 0.043772 0.072198 3.000000
-0.466955 -0.055323 0.028044 3.000000
-0.466955 0.053724 0.037136 3.000000
-0.466955 0.057675 -0.049874 3.000000
-0.466955 -0.054824 0.030659 3.000000
-0.466955 0.076708 -0.038109 3.000000
-0.466955 0.074825 -0.017948 3.000000
-0.466955 0.068628 0.049697 3.000000
-0.466955 0.034230 0.056331 3.000000
-0.466955 0.065097 0.054661 3.000000
-0.466955 -0.008794 0.035288 3.000000
-0.466955 -0.005918 0.032749 3.000000
-0.466955 0.002738 0.026216 3.000000
-0.466955 -0.006873 0.080923 3.000000
-0.466955 -0.069187 0.067880 3.000000
-0.466955 0.038963 -0.001483 3.000000
-0.466955 -0.055580 0.058461 3.000000
-0.466955 -0.072207 0.060928 3.000000
-0.466955 -0.014493 0.095791 3.000000
-0.466955 0.055745 0.039904 3.000000
-0.466955 0.007372 -0.027745 3.000000
-0.466955 0.068711 -0.003668 3.000000
-0.466955 0.017065 0.064758 3.000000
-0.466955 0.018615 -0.060262 3.000000
-0.466955 -0.028848 -0.023449 3.000000
-0.466955 -0.016802 -0.089540 3.000000
-0.466955 -0.055269 -0.032123 3.000000
-0.466955 0.018650 -0.033220 3.000000
-0.466955 0.025529 0.067323 3.000000
-0.466955 0.012382 -0.062664 3.000000
-0.466955 -0.047021 0.060804 3.000000
-0.466955 0.085449 -0.010455 3.000000
-0.466955 0.013643 0.078345 3.000000
-0.466955 -0.018844 0.041218 3.000000
-0.466955 0.038674 -0.040606 3.000000
-0.466955 -0.015129 0.016382 3.000000
-0.466955 -0.072679 0.048426 3.000000
-0.466955 -0.018380 -0.077323 3.000000
-0.466955 0.073429 0.005688 3.000000
-0.466955 -0.083778 -0.036128 3.000000
-0.466955 0.010549 0.024234 3.000000
-0.466955 -0.079814 -0.022754 3.000000
-0.466955 -0.026612 0.029062 3.000000
-0.466955 -0.002313 -0.011651 3.000000
-0.466955 0.031044 0.062490 3.000000
-0.466955 0.087493 0.035698 3.000000
-0.466955 0.094234 0.012815 3.000000
-0.466955 -0.012576 -0.041620 3.000000
-0.466955 0.050016 0.081803 3.000000
-0.466955 -0.067799 0.025611 3.000000
-0.466955 0.012221 0.086617 3.000000
-0.466955 0.070177 -0.029424 3.000000
-0.466955 0.036149 -0.047434 3.000000
-0.466955 0.058773 0.065822 3.000000
-0.466955 0.045249 -0.045642 3.000000
-0.466955 0.062530 -0.068211 3.000000
-0.466955 -0.083636 -0.008766 3.000000
-0.466955 -0.030644 -0.047233 3.000000
-0.466955 0.070357 0.009946 3.000000
-0.466955 0.023835 0.033703 3.000000
-0.466955 -0.015631 0.011139 3.000000
-0.466955 0.038048 -0.060374 3.000000
-0.466955 0.062023 -0.043200 3.000000
-0.466955 0.082228 -0.027430 3.000000
-0.466955 -0.063177 -0.024493 3.000000
-0.466955 0.066448 0.038961 3.000000
-0.466955 -0.003194 -0.056384 3.000000
-0.466955 -0.062507 0.025688 3.000000
-0.466955 0.018304 -0.052723 3.000000
-0.466955 -0.005129 0.071130 3.000000
-0.466955 0.036215 -0.029008 3.000000
-0.466955 -0.056984 -0.046909 3.000000
-0.466955 0.046789 -0.068218 3.000000
-0.466955 -0.023104 -0.043143 3.000000
-0.466955 0.089610 0.024369 3.000000
-0.466955 -0.047170 0.024609 3.000000
-0.466955 0.079531 -0.048687 3.000000
-0.466955 -0.021530 0.001226 3.000000
-0.466955 -0.061130 -0.054624 3.000000
-0.466955 0.022046 -0.052289 3.000000
-0.466955 -0.076090 0.030509 3.000000
-0.466955 0.020016 0.050955 3.000000
-0.466955 0.009846 -0.045568 3.000000
-0.466955 0.041947 -0.006684 3.000000
-0.466955 -0.033385 -0.046600 3.000000
-0.466955 0.018917 0.011337 3.000000
-0.466955 0.075694 0.014005 3.000000
-0.466955 -0.055579 -0.048277 3.000000
-0.466955 -0.053702 0.034085 3.000000
-0.466955 -0.012263 -0.062293 3.000000
-0.466955 -0.017981 0.078908 3.000000
-0.466955 0.008796 -0.023795 3.000000
-0.466955 0.087380 -0.023840 3.000000
-0.466955 0.006983 -0.062083 3.000000
-0.466955 0.000651 -0.087174 3.000000
-0.466955 0.068689 -0.060777 3.000000
-0.466955 -0.024185 0.064128 3.000000
-0.466955 -0.048356 -0.016977 3.000000
-0.466955 0.053471 -0.037083 3.000000
-0.466955 0.067447 -0.026639 3.000000
-0.466955 -0.054775 0.025996 3.000000
-0.466955 0.003246 -0.012062 3.000000
-0.466955 -0.055942 0.014118 3.000000
-0.466955 -0.096003 -0.018862 3.000000
-0.466955 0.030162 0.025899 3.000000
-0.466955 -0.036650 -0.040910 3.000000
-0.466955 -0.059819 -0.041892 3.000000
-0.466955 0.016843 -0.082822 3.000000
-0.466955 -0.097466 0.020388 3.000000
-0.466955 -0.021680 -0.058043 3.000000
-0.466955 -0.047662 -0.085623 3.000000
-0.466955 -0.007324 0.014941 3.000000
-0.466955 0.053880 -0.048921 3.000000
-0.466955 -0.029503 -0.066684 3.000000
-0.466955 -0.089051 0.019943 3.000000
-0.466955 0.078778 0.021187 3.000000
-0.466955 0.030133 0.051142 3.000000
-0.466955 -0.063412 -0.035510 3.000000
-0.466955 0.055583 0.041995 3.000000
-0.466955 0.000530 0.057521 3.000000
-0.466955 -0.072402 0.013798 3.000000
-0.466955 0.050276 -0.078125 3.000000
-0.466955 0.023754 0.078474 3.000000
-0.466955 -0.036868 0.068797 3.000000
-0.466955 0.043075 0.022943 3.000000
-0.466955 -0.010880 0.095238 3.000000
-0.466955 0.029296 -0.089414 3.000000
-0.466955 -0.005961 0.061708 3.000000
-0.466955 0.088621 0.007595 3.000000
-0.466955 0.038720 0.049126 3.000000
-0.466955 -0.063139 -0.009228 3.000000
-0.466955 0.045977 -0.038720 3.000000
-0.466955 0.061489 0.058128 3.000000
-0.466955 0.007203 -0.015457 3.000000
-0.466955 -0.062139 0.033109 3.000000
-0.466955 -0.034285 -0.011322 3.000000
-0.466955 -0.055772 -0.062077 3.000000
-0.466955 0.004988 0.032749 3.000000
-0.466955 0.042521 0.085242 3.000000
-0.466955 0.005888 0.086055 3.000000
-0.466955 0.003557 0.081240 3.000000
-0.466955 -0.009045 -0.000318 3.000000
-0.466955 0.023757 0.068218 3.000000
-0.466955 0.017550 0.009972 3.000000
-0.466955 0.031949 0.076861 3.000000
-0.466955 0.032854 -0.062480 3.000000
-0.466955 -0.019756 -0.039928 3.000000
-0.466955 0.033859 -0.052599 3.000000
-0.466955 -0.038817 0.022323 3.000000
-0.466955 0.040555 0.037095 3.000000
-0.466955 -0.060745 0.073168 3.000000
-0.466955 -0.026168 0.027237 3.000000
-0.466955 0.050188 -0.042715 3.000000
-0.466955 -0.018324 -0.080093 3.000000
-0.466955 0.010014 0.009184 3.000000
-0.466955 0.052215 0.033534 3.000000
-0.466955 -0.075924 0.034621 3.000000
-0.466955 0.015701 0.074678 3.000000
-0.466955 -0.076713 0.039841 3.000000
-0.466955 0.047804 -0.047565 3.000000
-0.466955 -0.051939 0.050499 3.000000
-0.466955 0.045018 -0.063413 3.000000
-0.466955 0.027453 0.053650 3.000000
-0.466955 0.028518 0.052272 3.000000
-0.466955 0.051002 -0.041480 3.000000
-0.466955 -0.025674 -0.064899 3.000000
-0.466955 -0.075425 0.016882 3.000000
-0.466955 -0.032991 -0.027776 3.000000
-0.466955 0.011303 -0.032581 3.000000
-0.466955 0.060710 0.055298 3.000000
-0.466955 0.031124 -0.044624 3.000000
-0.466955 0.045037 -0.049556 3.000000
-0.466955 0.068370 -0.023662 3.000000
-0.466955 -0.058400 0.018320 3.000000
-0.466955 0.071701 0.011068 3.000000
-0.466955 -0.069164 -0.004350 3.000000
-0.466955 0.056099 -0.062214 3.000000
-0.466955 -0.040412 -0.032970 3.000000
-0.466955 0.025150 -0.006599 3.000000
-0.466955 -0.012173 0.058053 3.000000
-0.466955 0.011217 -0.039942 3.000000
-0.466955 -0.032455 0.088730 3.000000
-0.466955 -0.082198 0.049695 3.000000
-0.466955 -0.087294 0.027301 3.000000
-0.466955 0.003173 0.090846 3.000000
-0.466955 0.032719 0.016524 3.000000
-0.466955 -0.089628 0.008980 3.000000
-0.466955 -0.096264 -0.024813 3.000000
-0.466955 0.032736 0.056789 3.000000
-0.466955 -0.049839 0.084288 3.000000
-0.466955 -0.061389 0.010664 3.000000
-0.466955 0.007002 -0.097207 3.000000
-0.466955 -0.007301 0.082212 3.000000
-0.466955 0.006029 0.017544 3.000000
-0.466955 0.060392 -0.052236 3.000000
-0.466955 0.027501 -0.013952 3.000000
-0.466955 0.001120 0.034768 3.000000
-0.466955 -0.054767 -0.067550 3.000000
-0.466955 -0.015755 0.093118 3.000000
-0.466955 -0.084369 -0.020559 3.000000
-0.466955 -0.039434 -0.043875 3.000000
-0.466955 -0.035642 0.028818 3.000000
-0.466955 0.044628 -0.065086 3.000000
-0.466955 0.081909 -0.021812 3.000000
-0.466955 0.081070 -0.046309 3.000000
-0.466955 0.031157 -0.086238 3.000000
-0.466955 0.012089 0.094560 3.000000
-0.466955 0.027723 0.061094 3.000000
-0.466955 0.094676 0.007073 3.000000
-0.466955 0.070930 0.051717 3.000000
-0.466955 0.030288 -0.041320 3.000000
-0.466955 0.063244 -0.074404 3.000000
-0.466955 0.019256 -0.093274 3.000000
-0.466955 0.062231 0.046874 3.000000
-0.466955 0.000561 -0.073354 3.000000
-0.466955 0.019858 -0.044027 3.000000
-0.466955 0.099309 -0.008432 3.000000
-0.466955 0.050238 0.083899 3.000000
-0.466955 0.033158 -0.076609 3.000000
-0.466955 0.022673 -0.025710 3.000000
-0.466955 -0.063006 -0.065019 3.000000
-0.466955 0.058213 0.005959 3.000000
-0.466955 -0.051303 -0.075404 3.000000
-0.466955 -0.019987 -0.077107 3.000000
-0.466955 -0.083882 -0.052958 3.000000
-0.466955 -0.045478 -0.087113 3.000000
-0.466955 -0.052071 -0.006540 3.000000
-0.466955 0.042213 0.037205 3.000000
-0.466955 -0.090543 0.022395 3.000000
-0.466955 0.032827 0.029099 3.000000
-0.466955 -0.069158 -0.049063 3.000000
-0.466955 -0.052930 0.061690 3.000000
-0.466955 0.046276 0.034214 3.000000
-0.466955 -0.012995 0.055317 3.000000
-0.466955 -0.014153 0.048212 3.000000
-0.466955 0.034981 -0.008381 3.000000
-0.466955 -0.083102 0.017926 3.000000
-0.466955 0.061637 0.040513 3.000000
-0.466955 -0.024456 -0.043588 3.000000
-0.466955 0.065680 -0.048910 3.000000
-0.466955 -0.004950 -0.042415 3.000000
-0.466955 -0.057513 0.071424 3.000000
-0.466955 -0.073323 -0.055665 3.000000
-0.466955 0.001877 -0.070556 3.000000
-0.466955 0.042642 -0.055112 3.000000
-0.466955 -0.076327 -0.055790 3.000000
-0.466955 -0.054304 0.051753 3.000000
-0.466955 -0.086872 -0.002578 3.000000
-0.466955 -0.078524 -0.032785 3.000000
-0.466955 0.059990 -0.008500 3.000000
-0.466955 0.056281 0.071080 3.000000
-0.466955 0.008100 0.048548 3.000000
-0.466955 0.007763 0.029763 3.000000
-0.466955 0.040561 -0.021228 3.000000
-0.466955 -0.032289 -0.049908 3.000000
-0.466955 0.040155 -0.051225 3.000000
-0.466955 0.067861 0.061363 3.000000
-0.466955 0.058805 0.049913 3.000000
-0.466955 -0.005526 -0.082669 3.000000
-0.466955 0.059142 0.027427 3.000000
-0.466955 -0.056386 -0.003808 3.000000
-0.466955 -0.067607 0.017529 3.000000
-0.466955 -0.044158 -0.035680 3.000000
-0.466955 -0.009101 -0.011841 3.000000
-0.466955 0.091269 -0.025172 3.000000
-0.466955 -0.044902 0.055008 3.000000
-0.466955 -0.019009 -0.048495 3.000000
-0.466955 0.029046 0.088233 3.000000
-0.466955 0.007397 -0.050291 3.000000
-0.466955 -0.039346 -0.079335 3.000000
-0.466955 -0.034352 0.071770 3.000000
-0.466955 -0.037169 -0.005399 3.000000
-0.466955 0.026005 -0.072656 3.000000
-0.466955 0.058999 0.018967 3.000000
-0.466955 -0.011237 0.047140 3.000000
-0.466955 0.079701 0.017882 3.000000
-0.466955 0.035723 0.055652 3.000000
-0.466955 0.004786 0.084735 3.000000
-0.466955 -0.021809 -0.049407 3.000000
-0.466955 0.012070 0.082811 3.000000
-0.466955 -0.091066 -0.000831 3.000000
-0.466955 -0.005346 0.041586 3.000000
-0.466955 0.059760 0.035676 3.000000
-0.466955 0.082136 0.007890 3.000000
-0.466955 -0.092136 0.038234 3.000000
-0.466955 0.080227 -0.000435 3.000000
-0.466955 0.039917 0.010260 3.000000
-0.466955 0.010121 0.084738 3.000000
-0.466955 0.039202 -0.077255 3.000000
-0.466955 0.042950 -0.031369 3.000000
-0.466955 -0.094119 0.007055 3.000000
-0.466955 -0.057876 0.021576 3.000000
-0.466955 -0.089567 -0.023910 3.000000
-0.466955 -0.051383 0.055493 3.000000
-0.466955 0.059889 -0.011635 3.000000
-0.466955 0.000272 -0.055820 3.000000
-0.466955 -0.066711 0.056091 3.000000
-0.466955 0.001954 -0.072785 3.000000
-0.466955 -0.071974 0.023287 3.000000
-0.466955 0.045584 0.019489 3.000000
-0.466955 -0.026091 0.047110 3.000000
-0.466955 0.065071 0.065012 3.000000
-0.466955 0.055395 0.037072 3.000000
-0.466955 0.018978 -0.051113 3.000000
-0.466955 -0.003767 0.019635 3.000000
-0.466955 0.018459 -0.024265 3.000000
-0.466955 -0.043551 -0.007386 3.000000
-0.466955 -0.006641 0.038340 3.000000
-0.466955 -0.052758 0.005317 3.000000
-0.466955 0.031329 -0.062106 3.000000
-0.466955 0.092203 -0.028349 3.000000
-0.466955 -0.015055 0.003793 3.000000
-0.466955 0.021853 0.065837 3.000000
-0.466955 -0.015914 -0.074364 3.000000
-0.466955 -0.087828 0.014823 3.000000
-0.466955 -0.029089 0.069667 3.000000
-0.466955 -0.021655 -0.008555 3.000000
-0.466955 0.004961 0.079408 3.000000
-0.466955 0.093717 0.025381 3.000000
-0.466955 -0.038661 -0.038822 3.000000
-0.466955 -0.063195 0.027161 3.000000
-0.466955 -0.064111 -0.069696 3.000000
-0.466955 -0.010403 0.066323 3.000000
-0.466955 -0.095367 0.005438 3.000000
-0.466955 0.029649 0.045211 3.000000
-0.466955 0.029001 0.021484 3.000000
-0.466955 -0.004112 0.090787 3.000000
-0.466955 0.089633 -0.035166 3.000000
-0.466955 -0.031920 -0.054678 3.000000
-0.466955 0.036467 -0.037939 3.000000
-0.466955 -0.032689 -0.006317 3.000000
-0.466955 -0.008962 -0.024491 3.000000
-0.466955 0.007238 -0.044384 3.000000
-0.466955 0.063701 -0.040148 3.000000
-0.466955 0.034757 -0.072134 3.000000
-0.466955 -0.009810 -0.093436 3.000000
-0.466955 -0.020803 0.027499 3.000000
-0.466955 0.023960 -0.078164 3.000000
-0.466955 -0.002818 0.084663 3.000000
-0.466955 0.004848 0.048915 3.000000
-0.466955 0.066594 -0.046147 3.000000
-0.466955 -0.058935 0.062793 3.000000
-0.466955 0.008967 -0.062297 3.000000
-0.466955 0.044170 0.004710 3.000000
-0.466955 0.044669 -0.039549 3.000000
-0.466955 -0.005442 0.029661 3.000000
-0.466955 0.035272 0.036873 3.000000
-0.466955 -0.020008 -0.071858 3.000000
-0.466955 -0.036163 -0.050734 3.000000
-0.466955 -0.022612 0.087434 3.000000
-0.466955 -0.070895 0.002593 3.000000
-0.466955 -0.011967 -0.000403 3.000000
-0.466955 -0.029895 -0.010882 3.000000
-0.466955 -0.061587 0.076825 3.000000
-0.466955 -0.036663 0.079143 3.000000
-0.466955 0.016627 -0.035840 3.000000
-0.466955 0.028311 -0.010245 3.000000
-0.466955 0.066136 0.024729 3.000000
-0.466955 0.081464 -0.009158 3.000000
-0.466955 -0.081786 -0.005732 3.000000
-0.466955 -0.067177 -0.005655 3.000000
-0.466955 -0.079611 0.054251 3.000000
-0.466955 -0.063858 0.039297 3.000000
-0.466955 0.011437 0.007084 3.000000
-0.466955 0.022238 0.004622 3.000000
-0.466955 -0.024259 -0.051234 3.000000
-0.466955 -0.008529 0.048134 3.000000
-0.466955 -0.062072 -0.004942 3.000000
-0.466955 0.025065 0.054002 3.000000
-0.466955 -0.052814 -0.040990 3.000000
-0.466955 0.067736 0.006712 3.000000
-0.466955 -0.002930 -0.037171 3.000000
-0.466955 0.071325 -0.056810 3.000000
-0.466955 -0.026574 0.036475 3.000000
-0.466955 -0.085284 0.036347 3.000000
-0.466955 0.095825 -0.015411 3.000000
-0.466955 -0.036847 -0.030603 3.000000
-0.466955 0.065073 -0.001536 3.000000
-0.466955 0.025136 0.072214 3.000000
-0.466955 0.039838 0.082441 3.000000
-0.466955 0.006832 0.003710 3.000000
-0.466955 -0.083340 0.031828 3.000000
-0.466955 0.009820 0.060594 3.000000
-0.466955 0.053381 0.064577 3.000000
-0.466955 0.039526 -0.005501 3.000000
-0.466955 -0.098346 -0.013631 3.000000
-0.466955 0.017775 -0.056091 3.000000
-0.466955 -0.013920 -0.010742 3.000000
-0.466955 -0.057369 0.013543 3.000000
-0.466955 0.000959 0.059344 3.000000
-0.466955 0.094576 -0.013781 3.000000
-0.466955 -0.073239 0.026055 3.000000
-0.466955 -0.014184 0.040137 3.000000
-0.466955 -0.058444 -0.026902 3.000000
-0.466955 0.033207 0.049779 3.000000
-0.466955 -0.083050 -0.040829 3.000000
-0.466955 -0.063461 -0.026090 3.000000
-0.466955 0.071231 -0.038444 3.000000
-0.466955 0.049776 -0.001777 3.000000
-0.466955 -0.014142 -0.014484 3.000000
-0.466955 -0.026251 -0.092553 3.000000
-0.466955 -0.056830 -0.076091 3.000000
-0.466955 -0.064927 -0.027098 3.000000
-0.466955 -0.002803 0.062748 3.000000
-0.466955 -0.061370 -0.000886 3.000000
-0.466955 -0.009168 -0.037758 3.000000
-0.466955 0.050858 -0.000838 3.000000
-0.466955 -0.020196 -0.032541 3.000000
-0.466955 -0.018682 0.035178 3.000000
-0.466955 0.011539 0.025878 3.000000
-0.466955 0.007235 -0.030642 3.000000
-0.466955 -0.006844 0.048926 3.000000
-0.466955 0.051568 0.044913 3.000000
-0.466955 -0.024780 0.009821 3.000000
-0.466955 0.057068 0.079580 3.000000
-0.466955 -0.034826 0.069758 3.000000
-0.466955 -0.038889 -0.088217 3.000000
-0.466955 0.046669 -0.014138 3.000000
-0.466955 0.002107 -0.007354 3.000000
-0.466955 -0.001138 -0.036369 3.000000
-0.466955 -0.095064 -0.028171 3.000000
-0.466955 -0.024970 -0.035070 3.000000
-0.466955 -0.028571 0.002472 3.000000
-0.466955 -0.082630 -0.010097 3.000000
-0.466955 0.007936 -0.007015 3.000000
-0.466955 -0.012288 0.099172 3.000000
-0.466955 -0.047331 0.009485 3.000000
-0.466955 0.079535 0.009309 3.000000
-0.466955 0.000305 -0.046221 3.000000
-0.466955 0.057302 0.062562 3.000000
-0.466955 -0.017815 -0.049769 3.000000
-0.466955 -0.056587 -0.059755 3.000000
-0.466955 -0.059820 0.010856 3.000000
-0.466955 -0.040516 0.043334 3.000000
-0.466955 0.004593 -0.087651 3.000000
-0.466955 0.018112 0.040985 3.000000
-0.466955 -0.048878 -0.074143 3.000000
-0.466955 0.023843 -0.028898 3.000000
-0.466955 0.073879 -0.049017 3.000000
-0.466955 -0.035518 -0.060611 3.000000
-0.466955 -0.095012 0.015510 3.000000
-0.466955 -0.038467 -0.063818 3.000000
-0.466955 -0.063689 0.068850 3.000000
-0.466955 -0.015524 0.096866 3.000000
-0.466955 -0.081305 0.056891 3.000000
-0.466955 -0.066713 0.013130 3.000000
-0.466955 0.079416 -0.018858 3.000000
-0.466955 -0.068183 -0.050058 3.000000
-0.466955 -0.008805 0.074313 3.000000
-0.466955 -0.059464 0.021000 3.000000
-0.466955 0.003468 -0.095559 3.000000
-0.466955 0.049651 0.019411 3.000000
-0.466955 -0.031016 -0.082139 3.000000
-0.466955 0.063423 0.050811 3.000000
-0.466955 -0.012819 -0.069260 3.000000
-0.466955 -0.019996 -0.023651 3.000000
-0.466955 0.027850 0.081445 3.000000
-0.466955 0.041193 0.015242 3.000000
-0.466955 -0.048590 0.015378 3.000000
-0.466955 0.066896 0.058186 3.000000
-0.466955 -0.003258 -0.062930 3.000000
-0.466955 0.060891 -0.002975 3.000000
-0.466955 -0.069418 -0.015415 3.000000
-0.466955 0.028493 -0.095505 3.000000
-0.466955 0.028567 -0.017150 3.000000
-0.466955 0.058374 0.034526 3.000000
-0.466955 -0.018333 0.017729 3.000000
-0.466955 0.029708 -0.068728 3.000000
-0.466955 0.010633 -0.096968 3.000000
-0.466955 -0.083285 0.045762 3.000000
-0.466955 -0.067239 0.001629 3.000000
-0.466955 -0.030306 0.050430 3.000000
-0.466955 0.007506 0.092624 3.000000
-0.466955 0.007621 0.020989 3.000000
-0.466955 0.041627 0.041417 3.000000
-0.466955 -0.001991 -0.045495 3.000000
-0.466955 -0.011206 -0.032013 3.000000
-0.466955 -0.010676 -0.060274 3.000000
-0.466955 -0.058017 -0.034038 3.000000
-0.466955 0.010332 -0.020918 3.000000
-0.466955 0.064921 0.004772 3.000000
-0.466955 -0.010498 0.089342 3.000000
-0.466955 -0.067802 0.033976 3.000000
-0.466955 -0.017206 0.049634 3.000000
-0.466955 0.012663 0.028646 3.000000
-0.466955 -0.055464 0.038649 3.000000
-0.466955 0.064190 0.041477 3.000000
-0.466955 0.025439 -0.084702 3.000000
-0.466955 -0.033371 0.001258 3.000000
-0.466955 -0.053763 -0.008824 3.000000
-0.466955 -0.018850 0.097976 3.000000
-0.466955 -0.021542 0.040615 3.000000
-0.466955 -0.005836 -0.019632 3.000000
-0.466955 -0.037026 -0.080060 3.000000
-0.466955 -0.001628 0.070149 3.000000
-0.466955 0.020381 -0.066471 3.000000
-0.466955 0.047649 0.035365 3.000000
-0.466955 0.068558 -0.053939 3.000000
-0.466955 -0.041823 -0.090118 3.000000
-0.466955 0.089029 0.041932 3.000000
-0.466955 0.036559 0.024982 3.000000
-0.466955 -0.075905 0.064158 3.000000
-0.466955 -0.059544 0.007383 3.000000
-0.466955 -0.046373 0.077056 3.000000
-0.466955 0.044491 -0.043759 3.000000
-0.466955 -0.046239 -0.078582 3.000000
-0.466955 -0.006251 -0.094563 3.000000
-0.466955 0.046675 -0.021710 3.000000
-0.466955 0.096427 0.002396 3.000000
-0.466955 -0.007722 -0.074250 3.000000
-0.466955 -0.054930 -0.071584 3.000000
-0.466955 -0.041460 -0.074050 3.000000
-0.466955 0.024839 -0.012658 3.000000
-0.466955 -0.052857 0.041802 3.000000
-0.466955 0.049621 -0.020747 3.000000
-0.466955 0.077938 0.038350 3.000000
-0.466955 -0.092057 0.031471 3.000000
-0.466955 -0.008116 0.064353 3.000000
-0.466955 0.007885 -0.008653 3.000000
-0.466955 0.017754 -0.050436 3.000000
-0.466955 0.053578 -0.019698 3.000000
-0.466955 0.020172 0.037478 3.000000
-0.466955 -0.082204 0.038519 3.000000
-0.466955 0.071269 0.020273 3.000000
-0.466955 -0.059613 0.008954 3.000000
-0.466955 0.063993 -0.022251 3.000000
-0.466955 -0.021598 -0.063577 3.000000
-0.466955 -0.079062 0.004097 3.000000
-0.466955 -0.032883 -0.045263 3.000000
-0.466955 -0.066945 0.008304 3.000000
-0.466955 0.033706 0.036485 3.000000
-0.466955 -0.013393 -0.083982 3.000000
-0.466955 0.005396 0.067372 3.000000
-0.466955 -0.050599 0.034499 3.000000
-0.466955 -0.053787 0.016174 3.000000
-0.466955 -0.030743 0.087617 3.000000
-0.466955 -0.021970 0.043999 3.000000
-0.466955 0.007374 0.099037 3.000000
-0.466955 -0.026655 0.019744 3.000000
-0.466955 0.016624 -0.006330 3.000000
-0.466955 -0.087397 0.008004 3.000000
-0.466955 0.089464 0.034797 3.000000
-0.466955 0.049623 -0.017718 3.000000
-0.466955 0.057051 0.077569 3.000000
-0.466955 -0.075659 0.007957 3.000000
-0.466955 0.012927 -0.067310 3.000000
-0.466955 -0.012547 -0.082303 3.000000
-0.466955 -0.045468 -0.022097 3.000000
-0.466955 -0.070597 -0.028821 3.000000
-0.466955 -0.071444 0.039021 3.000000
-0.466955 -0.005681 0.039768 3.000000
-0.466955 0.069313 0.030484 3.000000
-0.466955 0.060166 -0.078747 3.000000
-0.466955 0.006575 0.049192 3.000000
-0.466955 -0.039686 -0.065395 3.000000
-0.466955 -0.005630 -0.034028 3.000000
-0.466955 -0.093389 -0.008746 3.000000
-0.466955 0.057868 -0.030040 3.000000
-0.466955 -0.036791 0.082386 3.000000
-0.466955 0.021611 0.082960 3.000000
-0.466955 0.043704 0.088109 3.000000
-0.466955 -0.012733 -0.060084 3.000000
-0.466955 0.050464 0.047957 3.000000
-0.466955 -0.064337 0.074078 3.000000
-0.466955 -0.078680 0.038504 3.000000
-0.466955 0.026674 -0.002277 3.000000
-0.466955 0.085173 -0.041272 3.000000
-0.466955 -0.066106 0.054810 3.000000
-0.466955 -0.078122 -0.025633 3.000000
-0.466955 -0.068548 0.023934 3.000000
-0.466955 0.069299 -0.025303 3.000000
-0.466955 0.026993 0.066682 3.000000
-0.466955 0.010911 -0.031012 3.000000
-0.466955 0.035361 -0.002590 3.000000
-0.466955 -0.014594 0.002113 3.000000
-0.466955 0.046893 -0.033814 3.000000
-0.466955 -0.034253 0.042875 3.000000
-0.466955 -0.001773 -0.003955 3.000000
-0.466955 0.089665 0.015159 3.000000
-0.466955 -0.009942 0.099083 3.000000
-0.466955 0.072218 0.062227 3.000000
-0.466955 0.039316 0.062982 3.000000
-0.466955 -0.066545 0.018907 3.000000
-0.466955 0.020768 -0.030734 3.000000
-0.466955 0.010067 0.069765 3.000000
-0.466955 0.003761 0.098355 3.000000
-0.466955 -0.067346 0.029620 3.000000
-0.466955 -0.071999 0.066528 3.000000
-0.466955 -0.038940 -0.032053 3.000000
-0.466955 0.034462 0.050311 3.000000
-0.466955 0.024932 0.029635 3.000000
-0.466955 0.014964 -0.020017 3.000000
-0.466955 -0.067293 0.032194 3.000000
-0.466955 0.013509 -0.044957 3.000000
-0.466955 -0.034173 -0.091565 3.000000
-0.466955 0.059836 -0.032208 3.000000
-0.466955 0.097101 0.021921 3.000000
-0.466955 -0.022412 0.061223 3.000000
-0.466955 -0.072026 0.033846 3.000000
-0.466955 0.060066 -0.046279 3.000000
-0.466955 0.053253 0.067947 3.000000
-0.466955 0.059374 -0.040707 3.000000
-0.466955 -0.067497 0.069452 3.000000
-0.466955 -0.060689 -0.045787 3.000000
-0.466955 -0.017026 -0.079228 3.000000
-0.466955 -0.066769 -0.011602 3.000000
-0.466955 0.045375 -0.021021 3.000000
-0.466955 -0.046328 0.040603 3.000000
-0.466955 -0.066975 -0.043564 3.000000
-0.466955 0.076219 0.031970 3.000000
-0.466955 -0.029115 0.092731 3.000000
-0.466955 -0.084939 0.046238 3.000000
-0.466955 0.075182 -0.058430 3.000000
-0.466955 -0.068319 -0.031377 3.000000
-0.466955 0.068194 -0.022236 3.000000
-0.466955 0.028382 0.006381 3.000000
-0.466955 -0.005492 0.046214 3.000000
-0.466955 -0.079045 -0.015777 3.000000
-0.466955 -0.030298 0.007162 3.000000
-0.466955 0.022045 -0.056541 3.000000
-0.466955 0.039254 0.090385 3.000000
-0.466955 -0.087663 -0.012109 3.000000
-0.466955 0.077345 -0.005313 3.000000
-0.466955 -0.060067 0.071629 3.000000
-0.466955 -0.046421 0.058948 3.000000
-0.466955 0.043224 -0.062259 3.000000
-0.466955 0.012688 -0.026563 3.000000
-0.466955 -0.047852 -0.018616 3.000000
-0.466955 -0.028424 -0.076931 3.000000
-0.466955 -0.057680 0.034312 3.000000
-0.466955 0.041548 0.003282 3.000000
-0.466955 -0.016460 -0.021614 3.000000
-0.466955 -0.020781 -0.007093 3.000000
-0.466955 0.085543 0.041831 3.000000
-0.466955 -0.012493 -0.036584 3.000000
-0.466955 -0.052631 0.055966 3.000000
-0.466955 -0.032807 0.017714 3.000000
-0.466955 -0.040175 -0.084148 3.000000
-0.466955 -0.084501 -0.041514 3.000000
-0.466955 0.011604 0.070782 3.000000
-0.466955 0.036526 0.031594 3.000000
-0.466955 -0.049308 -0.044928 3.000000
-0.466955 -0.037467 0.012480 3.000000
-0.466955 -0.030246 0.052047 3.000000
-0.466955 0.046657 -0.009845 3.000000
-0.466955 0.017206 0.017446 3.000000
-0.466955 -0.077158 -0.042422 3.000000
-0.466955 -0.014877 -0.063518 3.000000
-0.466955 -0.033581 -0.034779 3.000000
-0.466955 0.049287 -0.080251 3.000000
-0.466955 0.027141 0.078254 3.000000
-0.466955 -0.040429 0.001723 3.000000
-0.466955 0.024556 0.092877 3.000000
-0.466955 -0.041100 0.067396 3.000000
-0.466955 -0.052857 -0.077733 3.000000
-0.466955 -0.032457 -0.081499 3.000000
-0.466955 0.028355 -0.026657 3.000000
-0.466955 -0.027470 0.018197 3.000000
-0.466955 0.053696 -0.029737 3.000000
-0.466955 0.052100 -0.036313 3.000000
-0.466955 -0.024905 -0.081428 3.000000
-0.466955 0.074402 0.022431 3.000000
-0.466955 0.023701 0.090454 3.000000
-0.466955 0.058380 0.079098 3.000000
-0.466955 -0.044220 0.023633 3.000000
-0.466955 0.062221 0.026842 3.000000
-0.466955 -0.056327 0.059887 3.000000
-0.466955 -0.033860 -0.000200 3.000000
-0.466955 0.002387 0.055271 3.000000
-0.466955 -0.068906 -0.037483 3.000000
-0.466955 -0.015698 0.059300 3.000000
-0.466955 0.016893 -0.048379 3.000000
-0.466955 -0.007672 -0.008244 3.000000
-0.466955 0.081799 -0.049272 3.000000
-0.466955 0.021087 -0.054929 3.000000
-0.466955 0.021259 -0.059077 3.000000
-0.466955 -0.053128 0.071405 3.000000
-0.466955 -0.014212 0.020608 3.000000
-0.466955 0.012172 -0.095674 3.000000
-0.466955 -0.027830 -0.038860 3.000000
-0.466955 0.046662 -0.080983 3.000000
-0.466955 0.019457 0.008241 3.000000
-0.466955 -0.045054 0.032478 3.000000
-0.466955 -0.022571 -0.069972 3.000000
-0.466955 -0.025634 0.052709 3.000000
-0.466955 0.062567 0.016773 3.000000
-0.466955 -0.066939 -0.039923 3.000000
-0.466955 0.000742 -0.029127 3.000000
-0.466955 0.005186 0.069270 3.000000
-0.466955 0.016889 -0.000805 3.000000
-0.466955 -0.065129 -0.050795 3.000000
-0.466955 -0.009366 0.059139 3.000000
-0.466955 -0.054319 -0.004230 3.000000
-0.466955 0.051799 0.064468 3.000000
-0.466955 0.005251 0.003522 3.000000
-0.466955 0.008386 0.028399 3.000000
-0.466955 0.004169 0.056340 3.000000
-0.466955 0.092759 0.011039 3.000000
-0.466955 0.002945 -0.065048 3.000000
-0.466955 -0.014657 -0.082162 3.000000
-0.466955 -0.038885 0.084660 3.000000
-0.466955 -0.048779 0.034398 3.000000
-0.466955 0.057791 -0.075304 3.000000
-0.466955 -0.037181 -0.022817 3.000000
-0.466955 -0.028141 -0.042504 3.000000
-0.466955 0.007203 -0.091667 3.000000
-0.466955 -0.051451 0.059733 3.000000
-0.466955 -0.065159 -0.058265 3.000000
-0.466955 -0.043529 -0.045448 3.000000
-0.466955 -0.083826 0.011551 3.000000
-0.466955 -0.050481 0.080350 3.000000
-0.466955 -0.057228 -0.043878 3.000000
-0.466955 0.063066 -0.016708 3.000000
-0.466955 0.024700 0.001300 3.000000
-0.466955 -0.039291 0.055871 3.000000
-0.466955 0.000016 0.090160 3.000000
-0.466955 0.082587 0.040097 3.000000
-0.466955 -0.000126 -0.054251 3.000000
-0.466955 -0.034074 -0.016197 3.000000
-0.466955 0.082587 -0.020403 3.000000
-0.466955 0.050829 0.018510 3.000000
-0.466955 0.015932 -0.007725 3.000000
-0.466955 0.055055 0.038485 3.000000
-0.466955 0.047271 0.047491 3.000000
-0.466955 -0.082095 0.040440 3.000000
-0.466955 0.004782 -0.046407 3.000000
-0.466955 -0.046038 -0.049425 3.000000
-0.466955 0.053094 0.024075 3.000000
-0.466955 -0.062292 0.042291 3.000000
-0.466955 -0.045321 0.063890 3.000000
-0.466955 0.068841 -0.047600 3.000000
-0.466955 0.022924 0.073414 3.000000
-0.466955 -0.040463 0.026947 3.000000
-0.466955 0.027194 0.059114 3.000000
-0.466955 -0.021242 -0.042088 3.000000
-0.466955 0.047054 0.076893 3.000000
-0.466955 -0.006563 0.087526 3.000000
-0.466955 0.064319 0.035716 3.000000
-0.466955 0.006896 -0.021165 3.000000
-0.466955 0.031056 -0.024144 3.000000
-0.466955 -0.092310 -0.019123 3.000000
-0.466955 0.016065 -0.088609 3.000000
-0.466955 0.051262 -0.073479 3.000000
-0.466955 -0.010371 -0.095877 3.000000
-0.466955 0.069890 -0.055715 3.000000
-0.466955 -0.056339 0.011497 3.000000
-0.466955 -0.015544 -0.025481 3.000000
-0.466955 0.098947 0.009112 3.000000
-0.466955 -0.025746 0.095684 3.000000
-0.466955 0.085017 0.006226 3.000000
-0.466955 0.005061 -0.000996 3.000000
-0.466955 0.017379 0.011442 3.000000
-0.466955 -0.017216 0.072235 3.000000
-0.466955 0.045936 0.044093 3.000000
-0.466955 0.031300 -0.036780 3.000000
-0.466955 0.074195 0.042269 3.000000
-0.466955 -0.037262 -0.038440 3.000000
-0.466955 0.010000 -0.019499 3.000000
-0.466955 0.078774 0.011447 3.000000
-0.466955 0.054165 0.018673 3.000000
-0.466955 0.093960 -0.028550 3.000000
-0.466955 -0.036930 0.017449 3.000000
-0.466955 -0.014469 0.062047 3.000000
-0.466955 -0.062835 -0.067684 3.000000
-0.466955 0.042449 0.071310 3.000000
-0.466955 0.005231 -0.049759 3.000000
-0.466955 -0.025512 -0.088924 3.000000
-0.466955 -0.011388 0.015998 3.000000
-0.466955 0.032901 0.070796 3.000000
-0.466955 0.076486 0.053217 3.000000
-0.466955 -0.050615 -0.035872 3.000000
-0.466955 -0.096003 -0.005247 3.000000
-0.466955 0.057347 -0.045869 3.000000
-0.466955 0.016244 -0.013973 3.000000
-0.466955 0.082627 -0.023299 3.000000
-0.466955 -0.011390 0.041579 3.000000
-0.466955 0.067838 0.039512 3.000000
-0.466955 0.030720 0.047625 3.000000
-0.466955 0.040229 0.089106 3.000000
-0.466955 0.015563 0.022069 3.000000
-0.466955 -0.049348 -0.020624 3.000000
-0.466955 -0.012749 0.039046 3.000000
-0.466955 0.011217 0.061439 3.000000
-0.466955 -0.055383 0.043386 3.000000
-0.466955 -0.012646 -0.065871 3.000000
-0.466955 -0.029667 0.060609 3.000000
-0.466955 -0.071802 -0.049244 3.000000
-0.466955 -0.009075 -0.028348 3.000000
-0.466955 0.078149 0.017754 3.000000
-0.466955 0.010543 -0.090227 3.000000
-0.466955 -0.079285 -0.060286 3.000000
-0.466955 0.038269 -0.089495 3.000000
-0.466955 -0.029800 0.014845 3.000000
-0.466955 0.060542 -0.057334 3.000000
-0.466955 0.012192 -0.090006 3.000000
-0.466955 -0.089893 -0.012601 3.000000
-0.466955 0.051768 -0.029972 3.000000
-0.466955 -0.065259 -0.015573 3.000000
-0.466955 -0.004457 -0.014722 3.000000
-0.466955 -0.039681 -0.070070 3.000000
-0.466955 0.092123 0.037846 3.000000
-0.466955 0.016940 0.078551 3.000000
-0.466955 -0.009095 0.021422 3.000000
-0.466955 0.003156 -0.086328 3.000000
-0.466955 -0.059950 -0.068999 3.000000
-0.466955 0.006179 0.011405 3.000000
-0.466955 0.068518 0.051412 3.000000
-0.466955 -0.064438 0.075737 3.000000
-0.466955 0.009495 -0.010914 3.000000
-0.466955 0.015094 0.009389 3.000000
-0.466955 0.022535 -0.087110 3.000000
-0.466955 -0.089755 -0.042747 3.000000
-0.466955 0.017774 0.093864 3.000000
-0.466955 0.034625 -0.046159 3.000000
-0.466955 -0.073803 0.041636 3.000000
-0.466955 -0.003687 -0.079989 3.000000
-0.466955 -0.011596 -0.003767 3.000000
-0.466955 0.026109 -0.043015 3.000000
-0.466955 0.086887 -0.016430 3.000000
-0.466955 0.051707 0.077361 3.000000
-0.466955 -0.079303 0.058347 3.000000
-0.466955 -0.044638 0.077170 3.000000
-0.466955 0.010260 0.062502 3.000000
-0.466955 0.054660 -0.017841 3.000000
-0.466955 -0.002687 0.069171 3.000000
-0.466955 -0.059670 0.079822 3.000000
-0.466955 -0.073949 -0.028070 3.000000
-0.466955 -0.009124 0.019954 3.000000
-0.466955 0.038399 -0.063968 3.000000
-0.466955 0.010215 -0.055948 3.000000
-0.466955 -0.003274 0.060142 3.000000
-0.466955 -0.018075 -0.071642 3.000000
-0.466955 -0.020872 0.082796 3.000000
-0.466955 -0.034800 0.031849 3.000000
-0.466955 0.030508 0.058269 3.000000
-0.466955 0.074123 -0.027098 3.000000
-0.466955 0.081704 0.056946 3.000000
-0.466955 0.066740 0.030894 3.000000
-0.466955 -0.034859 0.093692 3.000000
-0.466955 -0.064734 0.056020 3.000000
-0.466955 -0.081390 0.053708 3.000000
-0.466955 -0.003244 0.099035 3.000000
-0.466955 -0.010685 0.068510 3.000000
-0.466955 -0.033419 -0.073198 3.000000
-0.466955 -0.020561 0.021692 3.000000
-0.466955 0.014147 0.021853 3.000000
-0.466955 -0.060464 0.019506 3.000000
-0.466955 -0.014819 0.051299 3.000000
-0.466955 0.077941 0.054684 3.000000
-0.466955 -0.020990 0.053463 3.000000
-0.466955 -0.088147 0.013132 3.000000
-0.466955 0.033760 0.089303 3.000000
-0.466955 0.019612 0.092808 3.000000
-0.466955 0.009280 0.011884 3.000000
-0.466955 0.018369 0.086369 3.000000
-0.466955 0.012849 -0.096890 3.000000
-0.466955 -0.043083 0.058033 3.000000
-0.466955 0.085566 0.043630 3.000000
-0.466955 0.003309 -0.073389 3.000000
-0.466955 0.065285 0.030707 3.000000
-0.466955 -0.048631 -0.057277 3.000000
-0.466955 0.039264 0.072849 3.000000
-0.466955 -0.063694 -0.013144 3.000000
-0.466955 0.046217 -0.047929 3.000000
-0.466955 -0.041689 0.009873 3.000000
-0.466955 0.088391 -0.041183 3.000000
-0.466955 -0.028955 0.062793 3.000000
-0.466955 -0.040474 -0.022658 3.000000
-0.466955 -0.034884 -0.020964 3.000000
-0.466955 -0.027318 0.073154 3.000000
-0.466955 0.024984 0.014011 3.000000
-0.466955 0.014208 -0.069324 3.000000
-0.466955 -0.036682 -0.012664 3.000000
-0.466955 -0.064291 -0.068206 3.000000
-0.466955 0.011269 0.072220 3.000000
-0.466955 -0.078784 0.030219 3.000000
-0.466955 0.052596 0.041547 3.000000
-0.466955 0.000734 0.064578 3.000000
-0.466955 -0.020641 -0.061974 3.000000
-0.466955 0.025301 0.094010 3.000000
-0.466955 0.031458 0.052209 3.000000
-0.466955 -0.052566 -0.024054 3.000000
-0.466955 -0.014380 -0.078640 3.000000
