-0.466955 -0.031790 0.038290 3.000000
-0.466955 0.039606 -0.018872 3.000000
-0.466955 0.065318 0.056691 3.000000
-0.466955 0.097198 0.016949 3.000000
-0.466955 0.006444 0.069367 3.000000
-0.466955 0.082308 0.029504 3.000000
-0.466955 -0.086191 -0.003076 3.000000
-0.466955 -0.042568 0.089421 3.000000
-0.466955 -0.045337 0.008322 3.000000
-0.466955 0.012464 0.044411 3.000000
-0.466955 -0.006610 0.065954 3.000000
-0.466955 0.020663 0.003950 3.000000
-0.466955 0.024703 -0.022205 3.000000
-0.466955 0.038134 -0.027114 3.000000
-0.466955 0.043207 0.024841 3.000000
-0.466955 -0.020061 0.002787 3.000000
-0.466955 -0.043099 0.050204 3.000000
-0.466955 0.007458 0.090177 3.000000
-0.466955 -0.070238 -0.047864 3.000000
-0.466955 -0.021834 0.052708 3.000000
-0.466955 0.009028 -0.073366 3.000000
-0.466955 -0.011576 -0.043627 3.000000
-0.466955 0.098600 0.011985 3.000000
-0.466955 0.032009 -0.023748 3.000000
-0.466955 0.007969 -0.064329 3.000000
-0.466955 -0.074800 0.022122 3.000000
-0.466955 0.027460 0.003985 3.000000
-0.466955 0.034728 -0.056575 3.000000
-0.466955 0.029098 0.095248 3.000000
-0.466955 0.018684 0.023260 3.000000
-0.466955 0.034507 -0.034796 3.000000
-0.466955 -0.016003 0.045093 3.000000
-0.466955 -0.046659 0.043653 3.000000
-0.466955 -0.000480 0.075025 3.000000
-0.466955 -0.055292 0.071255 3.000000
-0.466955 -0.013202 0.081071 3.000000
-0.466955 0.031726 -0.003387 3.000000
-0.466955 0.001423 0.023269 3.000000
-0.466955 -0.081715 0.028713 3.000000
-0.466955 -0.081557 -0.042862 3.000000
-0.466955 -0.064818 0.067857 3.000000
-0.466955 0.058643 -0.025819 3.000000
-0.466955 -0.034434 0.062883 3.000000
-0.466955 0.083076 -0.042320 3.000000
-0.466955 0.026145 -0.031181 3.000000
-0.466955 -0.018456 -0.079395 3.000000
-0.466955 -0.075855 -0.019198 3.000000
-0.466955 -0.054805 -0.078327 3.000000
-0.466955 -0.065883 -0.057790 3.000000
-0.466955 -0.013888 0.029695 3.000000
-0.466955 -0.022399 -0.079761 3.000000
-0.466955 -0.002429 -0.041219 3.000000
-0.466955 -0.010121 -0.029983 3.000000
-0.466955 0.043801 0.006909 3.000000
-0.466955 -0.047509 0.067617 3.000000
-0.466955 -0.070906 -0.037081 3.000000
-0.466955 -0.005714 -0.080839 3.000000
-0.466955 0.024779 0.040342 3.000000
-0.466955 0.046237 -0.045087 3.000000
-0.466955 -0.020631 -0.071352 3.000000
-0.466955 0.002040 0.080577 3.000000
-0.466955 0.018239 0.092077 3.000000
-0.466955 -0.070010 0.012101 3.000000
-0.466955 0.042197 0.041533 3.000000
-0.466955 -0.040197 -0.052440 3.000000
-0.466955 -0.017890 -0.060995 3.000000
-0.466955 -0.054258 0.069771 3.000000
-0.466955 -0.039408 -0.060658 3.000000
-0.466955 -0.014646 0.038379 3.000000
-0.466955 -0.079429 -0.048385 3.000000
-0.466955 0.088499 0.000998 3.000000
-0.466955 -0.064002 -0.027436 3.000000
-0.466955 0.053993 0.049645 3.000000
-0.466955 -0.015666 -0.097282 3.000000
-0.466955 0.003534 -0.025431 3.000000
-0.466955 0.021894 0.043692 3.000000
-0.466955 -0.079268 0.020541 3.000000
-0.466955 0.050654 -0.009872 3.000000
-0.466955 0.049914 0.013585 3.000000
-0.466955 -0.019392 -0.003931 3.000000
-0.466955 -0.005339 -0.094192 3.000000
-0.466955 -0.032825 0.032577 3.000000
-0.466955 0.033768 -0.013152 3.000000
-0.466955 -0.060763 0.056814 3.000000
-0.466955 -0.006093 -0.098158 3.000000
-0.466955 -0.068165 0.070547 3.000000
-0.466955 -0.002619 -0.005373 3.000000
-0.466955 0.020454 -0.064409 3.000000
-0.466955 0.019740 -0.078729 3.000000
-0.466955 0.034173 -0.036131 3.000000
-0.466955 0.024525 -0.086228 3.000000
-0.466955 -0.061280 -0.072865 3.000000
-0.466955 0.082223 -0.036647 3.000000
-0.466955 -0.065061 0.028000 3.000000
-0.466955 0.009268 -0.086733 3.000000
-0.466955 0.072716 -0.055137 3.000000
-0.466955 0.043929 0.085758 3.000000
-0.466955 0.076377 0.018202 3.000000
-0.466955 -0.005270 0.076124 3.000000
-0.466955 -0.020359 -0.075914 3.000000
-0.466955 0.086548 0.026129 3.000000
-0.466955 0.056883 -0.013057 3.000000
-0.466955 0.017000 -0.086213 3.000000
-0.466955 -0.003420 -0.059427 3.000000
-0.466955 -0.053525 0.054517 3.000000
-0.466955 -0.058546 -0.055634 3.000000
-0.466955 -0.079006 0.052268 3.000000
-0.466955 0.024331 -0.014456 3.000000
-0.466955 -0.037819 -0.026058 3.000000
-0.466955 0.042219 0.042914 3.000000
-0.466955 -0.072722 0.001297 3.000000
-0.466955 0.009431 -0.021898 3.000000
-0.466955 0.081965 -0.043207 3.000000
-0.466955 0.042393 -0.031730 3.000000
-0.466955 0.055651 -0.056274 3.000000
-0.466955 -0.077236 0.055112 3.000000
-0.466955 0.023520 0.072072 3.000000
-0.466955 0.056233 -0.082185 3.000000
-0.466955 -0.033908 0.064801 3.000000
-0.466955 0.085203 0.047637 3.000000
-0.466955 -0.026490 0.038047 3.000000
-0.466955 -0.078935 0.032726 3.000000
-0.466955 -0.047299 0.087917 3.000000
-0.466955 -0.016571 -0.064535 3.000000
-0.466955 0.049559 -0.058943 3.000000
-0.466955 0.004553 -0.014004 3.000000
-0.466955 0.021219 -0.038161 3.000000
-0.466955 -0.018875 -0.096317 3.000000
-0.466955 -0.034556 0.001178 3.000000
-0.466955 -0.066032 -0.068261 3.000000
-0.466955 0.035834 -0.073132 3.000000
-0.466955 -0.075673 0.052779 3.000000
-0.466955 -0.037516 0.071643 3.000000
-0.466955 0.060113 0.024628 3.000000
-0.466955 -0.075482 0.037830 3.000000
-0.466955 -0.046083 -0.076868 3.000000
-0.466955 0.045221 -0.083473 3.000000
-0.466955 0.012797 0.054869 3.000000
-0.466955 -0.063606 0.073791 3.000000
-0.466955 0.017958 0.001196 3.000000
-0.466955 0.074713 0.034549 3.000000
-0.466955 0.045817 -0.031439 3.000000
-0.466955 -0.056769 -0.004658 3.000000
-0.466955 -0.010220 -0.002286 3.000000
-0.466955 -0.015102 0.008465 3.000000
-0.466955 0.052687 0.001334 3.000000
-0.466955 -0.087000 0.029376 3.000000
-0.466955 -0.037370 0.010727 3.000000
-0.466955 0.006828 -0.028059 3.000000
-0.466955 -0.085170 0.025209 3.000000
-0.466955 -0.031340 0.019688 3.000000
-0.466955 -0.010969 -0.095218 3.000000
-0.466955 0.085715 -0.015828 3.000000
-0.466955 0.090522 0.005559 3.000000
-0.466955 -0.022031 -0.031027 3.000000
-0.466955 0.041617 0.080038 3.000000
-0.466955 0.040158 -0.050491 3.000000
-0.466955 0.089387 -0.043997 3.000000
-0.466955 0.003137 0.079654 3.000000
-0.466955 0.071500 0.024117 3.000000
-0.466955 0.066953 -0.019556 3.000000
-0.466955 -0.037200 0.082796 3.000000
-0.466955 -0.025348 0.092488 3.000000
-0.466955 0.029616 -0.039314 3.000000
-0.466955 0.094083 0.020961 3.000000
-0.466955 -0.047745 0.011775 3.000000
-0.466955 0.035637 -0.090119 3.000000
-0.466955 -0.032986 0.041976 3.000000
-0.466955 0.003731 -0.050506 3.000000
-0.466955 0.068869 0.018846 3.000000
-0.466955 0.093770 0.024973 3.000000
-0.466955 0.028601 0.013974 3.000000
-0.466955 0.026485 -0.076906 3.000000
-0.466955 0.024939 -0.043376 3.000000
-0.466955 -0.047353 -0.012279 3.000000
-0.466955 -0.069383 -0.014714 3.000000
-0.466955 -0.004332 0.024400 3.000000
-0.466955 -0.058537 -0.062830 3.000000
-0.466955 0.080811 -0.048546 3.000000
-0.466955 -0.038088 0.031175 3.000000
-0.466955 0.012617 0.085568 3.000000
-0.466955 0.090041 0.004256 3.000000
-0.466955 0.080538 -0.041021 3.000000
-0.466955 -0.010215 0.091457 3.000000
-0.466955 -0.051557 0.014796 3.000000
-0.466955 -0.076118 0.048268 3.000000
-0.466955 -0.009652 0.021227 3.000000
-0.466955 -0.086623 0.007059 3.000000
-0.466955 0.060657 0.034212 3.000000
-0.466955 0.037414 -0.014347 3.000000
-0.466955 0.006058 -0.073698 3.000000
-0.466955 0.077731 -0.045978 3.000000
-0.466955 0.007680 -0.040305 3.000000
-0.466955 0.050403 -0.045454 3.000000
-0.466955 0.068458 -0.011615 3.000000
-0.466955 -0.046929 0.032890 3.000000
-0.466955 -0.016568 0.002161 3.000000
-0.466955 0.008471 0.097418 3.000000
-0.466955 0.084057 0.043580 3.000000
-0.466955 -0.043248 -0.023473 3.000000
-0.466955 0.001127 -0.065614 3.000000
-0.466955 0.075893 0.058092 3.000000
-0.466955 0.012605 -0.034918 3.000000
-0.466955 0.025497 0.017826 3.000000
-0.466955 -0.036005 -0.091292 3.000000
-0.466955 0.003914 -0.092109 3.000000
-0.466955 -0.049179 0.073996 3.000000
-0.466955 0.069285 -0.000645 3.000000
-0.466955 0.006192 0.087557 3.000000
-0.466955 -0.076173 0.028918 3.000000
-0.466955 0.014034 -0.041253 3.000000
-0.466955 0.028444 0.017232 3.000000
-0.466955 0.045522 0.034994 3.000000
-0.466955 -0.046531 -0.036628 3.000000
-0.466955 -0.003267 -0.026728 3.000000
-0.466955 0.024538 -0.012340 3.000000
-0.466955 0.061283 -0.043137 3.000000
-0.466955 0.072940 -0.021293 3.000000
-0.466955 -0.089329 0.030133 3.000000
-0.466955 0.022353 -0.090395 3.000000
-0.466955 0.091669 -0.011041 3.000000
-0.466955 -0.019084 0.068107 3.000000
-0.466955 -0.082444 0.037769 3.000000
-0.466955 0.032609 0.002272 3.000000
-0.466955 -0.026804 -0.046391 3.000000
-0.466955 -0.067004 -0.071225 3.000000
-0.466955 0.025290 0.089057 3.000000
-0.466955 -0.073067 -0.059170 3.000000
-0.466955 0.042050 0.032183 3.000000
-0.466955 0.086759 -0.019561 3.000000
-0.466955 0.050381 0.051798 3.000000
-0.466955 -0.084514 0.041764 3.000000
-0.466955 0.047655 -0.072315 3.000000
-0.466955 -0.039377 0.067572 3.000000
-0.466955 -0.028210 -0.066930 3.000000
-0.466955 0.039174 0.069771 3.000000
-0.466955 -0.044581 -0.062617 3.000000
-0.466955 -0.083037 0.013611 3.000000
-0.466955 0.013804 -0.020153 3.000000
-0.466955 -0.041675 0.050976 3.000000
-0.466955 0.028823 -0.010297 3.000000
-0.466955 0.028916 0.028591 3.000000
-0.466955 0.063873 -0.046513 3.000000
-0.466955 0.085883 0.005807 3.000000
-0.466955 0.067266 0.057989 3.000000
-0.466955 -0.065500 0.010642 3.000000
-0.466955 -0.030491 0.073862 3.000000
-0.466955 0.068135 0.054263 3.000000
-0.466955 -0.056740 0.001446 3.000000
-0.466955 -0.076490 0.042369 3.000000
-0.466955 -0.015739 -0.063316 3.000000
-0.466955 0.018319 0.051489 3.000000
-0.466955 -0.013868 -0.045167 3.000000
-0.466955 -0.037679 -0.084802 3.000000
-0.466955 0.038865 -0.074449 3.000000
-0.466955 -0.064726 0.050390 3.000000
-0.466955 0.031787 0.004989 3.000000
-0.466955 0.039619 0.035537 3.000000
-0.466955 -0.027441 0.033204 3.000000
-0.466955 -0.020703 -0.010831 3.000000
-0.466955 -0.049070 0.009588 3.000000
-0.466955 0.051108 -0.012138 3.000000
-0.466955 -0.076894 0.036234 3.000000
-0.466955 0.078120 -0.008881 3.000000
-0.466955 -0.053388 -0.072551 3.000000
-0.466955 -0.014704 -0.098386 3.000000
-0.466955 -0.008108 0.030789 3.000000
-0.466955 0.051289 0.069672 3.000000
-0.466955 -0.037808 0.057320 3.000000
-0.466955 0.003479 0.062350 3.000000
-0.466955 -0.047487 0.030280 3.000000
-0.466955 0.044785 0.027965 3.000000
-0.466955 0.034456 0.004169 3.000000
-0.466955 -0.071501 -0.035270 3.000000
-0.466955 0.060978 0.066316 3.000000
-0.466955 0.059469 0.029332 3.000000
-0.466955 -0.022673 0.022875 3.000000
-0.466955 0.059680 -0.063948 3.000000
-0.466955 0.000831 -0.042407 3.000000
-0.466955 0.002073 0.055929 3.000000
-0.466955 -0.070377 -0.046007 3.000000
-0.466955 -0.070167 0.055251 3.000000
-0.466955 0.052342 -0.008225 3.000000
-0.466955 0.006872 -0.066488 3.000000
-0.466955 -0.049526 -0.074011 3.000000
-0.466955 -0.011803 0.081650 3.000000
-0.466955 0.066114 0.021284 3.000000
-0.466955 -0.042156 -0.069737 3.000000
-0.466955 -0.010697 -0.051584 3.000000
-0.466955 0.007723 0.065936 3.000000
-0.466955 0.096342 -0.004675 3.000000
-0.466955 0.005936 0.089605 3.000000
-0.466955 -0.008764 -0.073981 3.000000
-0.466955 -0.046019 0.049122 3.000000
-0.466955 0.082879 -0.023834 3.000000
-0.466955 0.057065 -0.001688 3.000000
-0.466955 0.016114 -0.072697 3.000000
-0.466955 0.011245 0.067218 3.000000
-0.466955 0.019722 -0.072913 3.000000
-0.466955 -0.000698 0.021763 3.000000
-0.466955 0.016478 -0.000748 3.000000
-0.466955 -0.034026 0.074109 3.000000
-0.466955 -0.091271 -0.037857 3.000000
-0.466955 0.034225 0.051549 3.000000
-0.466955 0.084094 0.015101 3.000000
-0.466955 0.061738 0.010774 3.000000
-0.466955 0.083133 0.016903 3.000000
-0.466955 0.018736 -0.090577 3.000000
-0.466955 -0.047045 -0.053445 3.000000
-0.466955 0.013692 0.096401 3.000000
-0.466955 0.014481 0.050911 3.000000
-0.466955 -0.078996 0.042193 3.000000
-0.466955 0.063113 0.009446 3.000000
-0.466955 -0.050925 0.000923 3.000000
-0.466955 -0.022208 -0.027766 3.000000
-0.466955 0.042039 -0.033751 3.000000
-0.466955 -0.072054 0.011081 3.000000
-0.466955 0.081677 -0.030022 3.000000
-0.466955 0.077016 0.003954 3.000000
-0.466955 -0.007067 0.062699 3.000000
-0.466955 0.072835 0.035007 3.000000
-0.466955 0.013130 -0.061323 3.000000
-0.466955 -0.085644 -0.030756 3.000000
-0.466955 -0.013498 -0.002548 3.000000
-0.466955 0.084149 -0.001719 3.000000
-0.466955 0.025282 0.064296 3.000000
-0.466955 -0.047102 0.007805 3.000000
-0.466955 0.097955 -0.017985 3.000000
-0.466955 -0.035436 0.090606 3.000000
-0.466955 0.004786 -0.016174 3.000000
-0.466955 0.005440 -0.041596 3.000000
-0.466955 0.026113 -0.009135 3.000000
-0.466955 -0.052947 0.061744 3.000000
-0.466955 -0.019449 -0.016385 3.000000
-0.466955 0.014385 0.055253 3.000000
-0.466955 -0.011052 0.015281 3.000000
-0.466955 -0.025564 0.027527 3.000000
-0.466955 0.082229 0.010355 3.000000
-0.466955 -0.010668 0.050343 3.000000
-0.466955 -0.072389 -0.043120 3.000000
-0.466955 0.006450 -0.014396 3.000000
-0.466955 -0.018090 0.063912 3.000000
-0.466955 0.085897 0.045542 3.000000
-0.466955 0.053835 -0.016677 3.000000
-0.466955 -0.020543 0.054044 3.000000
-0.466955 0.017595 -0.064507 3.000000
-0.466955 0.044822 -0.049096 3.000000
-0.466955 0.053754 -0.020326 3.000000
-0.466955 -0.028413 0.054977 3.000000
-0.466955 -0.009310 -0.034120 3.000000
-0.466955 -0.043067 0.001310 3.000000
-0.466955 0.069437 0.047525 3.000000
-0.466955 0.000906 -0.028544 3.000000
-0.466955 -0.017499 0.085992 3.000000
-0.466955 0.032562 0.032373 3.000000
-0.466955 -0.038836 0.050967 3.000000
-0.466955 0.016864 0.039085 3.000000
-0.466955 0.049051 -0.045345 3.000000
-0.466955 -0.016190 -0.025444 3.000000
-0.466955 -0.064544 0.017310 3.000000
-0.466955 0.088919 -0.007825 3.000000
-0.466955 0.051134 0.061361 3.000000
-0.466955 0.051666 0.043019 3.000000
-0.466955 -0.075878 -0.011606 3.000000
-0.466955 -0.074085 0.064654 3.000000
-0.466955 -0.052837 -0.019031 3.000000
-0.466955 0.034800 -0.088595 3.000000
-0.466955 -0.060119 0.074413 3.000000
-0.466955 -0.067831 0.065342 3.000000
-0.466955 -0.008249 0.036072 3.000000
-0.466955 -0.084931 -0.009762 3.000000
-0.466955 -0.081383 -0.021433 3.000000
-0.466955 0.008157 0.076261 3.000000
-0.466955 0.057789 -0.015283 3.000000
-0.466955 -0.017698 -0.032913 3.000000
-0.466955 -0.012734 0.032142 3.000000
-0.466955 0.037930 -0.075665 3.000000
-0.466955 -0.012387 -0.029920 3.000000
-0.466955 -0.050215 0.007009 3.000000
-0.466955 0.062491 0.003033 3.000000
-0.466955 0.075823 0.054467 3.000000
-0.466955 -0.018732 0.031033 3.000000
-0.466955 0.071246 -0.062760 3.000000
-0.466955 0.050461 0.075861 3.000000
-0.466955 0.095427 0.025045 3.000000
-0.466955 -0.035556 -0.092792 3.000000
-0.466955 -0.056444 0.014935 3.000000
-0.466955 0.027160 -0.045823 3.000000
-0.466955 0.020762 0.035448 3.000000
-0.466955 -0.058269 0.079207 3.000000
-0.466955 0.034077 0.009076 3.000000
-0.466955 0.051404 -0.015525 3.000000
-0.466955 -0.071849 0.029810 3.000000
-0.466955 0.032368 -0.048543 3.000000
-0.466955 0.067825 0.025105 3.000000
-0.466955 -0.075347 -0.052106 3.000000
-0.466955 0.094629 -0.004261 3.000000
-0.466955 0.011381 -0.003747 3.000000
-0.466955 0.080347 0.027464 3.000000
-0.466955 0.069884 0.061926 3.000000
-0.466955 -0.021113 0.021152 3.000000
-0.466955 0.039749 0.060288 3.000000
-0.466955 0.028399 0.035024 3.000000
-0.466955 0.031954 -0.027291 3.000000
-0.466955 -0.091062 0.000766 3.000000
-0.466955 -0.019288 -0.012976 3.000000
-0.466955 -0.018662 -0.070874 3.000000
-0.466955 -0.052297 -0.070177 3.000000
-0.466955 0.093985 0.028270 3.000000
-0.466955 0.069785 0.033324 3.000000
-0.466955 -0.078244 0.026863 3.000000
-0.466955 -0.041062 -0.005679 3.000000
-0.466955 -0.030983 0.032092 3.000000
-0.466955 -0.095403 -0.003202 3.000000
-0.466955 0.036231 0.088323 3.000000
-0.466955 0.046464 0.058086 3.000000
-0.466955 -0.091756 -0.032491 3.000000
-0.466955 -0.045637 -0.069180 3.000000
-0.466955 0.055127 0.026371 3.000000
-0.466955 0.066312 0.068582 3.000000
-0.466955 0.052538 0.077345 3.000000
-0.466955 0.015062 0.074223 3.000000
-0.466955 0.023776 0.056520 3.000000
-0.466955 0.017578 -0.089522 3.000000
-0.466955 -0.036530 0.077858 3.000000
-0.466955 0.047820 -0.069547 3.000000
-0.466955 0.002287 0.087105 3.000000
-0.466955 0.019872 0.059136 3.000000
-0.466955 -0.070081 -0.068506 3.000000
-0.466955 -0.065044 -0.001454 3.000000
-0.466955 0.033473 0.061456 3.000000
-0.466955 -0.078272 -0.039010 3.000000
-0.466955 -0.010400 0.080718 3.000000
-0.466955 -0.049174 -0.071356 3.000000
-0.466955 0.008275 0.006777 3.000000
-0.466955 -0.093123 0.030820 3.000000
-0.466955 0.009523 0.069716 3.000000
-0.466955 0.051315 -0.036040 3.000000
-0.466955 0.012519 0.001259 3.000000
-0.466955 -0.034036 -0.033988 3.000000
-0.466955 0.000732 0.058484 3.000000
-0.466955 0.017213 0.067847 3.000000
-0.466955 0.072572 -0.040592 3.000000
-0.466955 -0.023644 0.001807 3.000000
-0.466955 -0.048452 -0.068775 3.000000
-0.466955 -0.022908 0.044046 3.000000
-0.466955 0.031078 -0.000566 3.000000
-0.466955 -0.003130 -0.050673 3.000000
-0.466955 0.037681 -0.008127 3.000000
-0.466955 0.034867 -0.093366 3.000000
-0.466955 -0.001948 0.063549 3.000000
-0.466955 0.032505 -0.045973 3.000000
-0.466955 -0.089267 -0.010900 3.000000
-0.466955 0.049808 0.002174 3.000000
-0.466955 0.007406 0.022603 3.000000
-0.466955 -0.094519 0.007775 3.000000
-0.466955 -0.014480 0.061247 3.000000
-0.466955 0.054653 -0.006974 3.000000
-0.466955 -0.050197 0.035401 3.000000
-0.466955 -0.002428 -0.064174 3.000000
-0.466955 -0.010082 -0.018904 3.000000
-0.466955 -0.031654 -0.076299 3.000000
-0.466955 -0.045716 0.060527 3.000000
-0.466955 0.027121 0.036417 3.000000
-0.466955 -0.028200 0.015205 3.000000
-0.466955 -0.071778 -0.033631 3.000000
-0.466955 -0.090792 -0.028129 3.000000
-0.466955 0.009376 0.072002 3.000000
-0.466955 -0.022869 -0.022793 3.000000
-0.466955 -0.079211 0.046143 3.000000
-0.466955 -0.074876 -0.017692 3.000000
-0.466955 0.009294 -0.091226 3.000000
-0.466955 0.028485 0.060096 3.000000
-0.466955 0.033380 0.016619 3.000000
-0.466955 -0.095936 -0.027019 3.000000
-0.466955 0.052766 0.034903 3.000000
-0.466955 0.016414 -0.021807 3.000000
-0.466955 0.033368 0.025139 3.000000
-0.466955 0.055150 0.023119 3.000000
-0.466955 0.060345 0.053258 3.000000
-0.466955 -0.007931 0.018334 3.000000
-0.466955 -0.032783 0.001130 3.000000
-0.466955 -0.036955 -0.059256 3.000000
-0.466955 0.006782 0.095531 3.000000
-0.466955 -0.094133 0.006383 3.000000
-0.466955 -0.008039 0.008747 3.000000
-0.466955 0.069076 0.044184 3.000000
-0.466955 0.029608 0.053679 3.000000
-0.466955 -0.073997 0.018354 3.000000
-0.466955 -0.060898 -0.039661 3.000000
-0.466955 0.023312 -0.020821 3.000000
-0.466955 0.096327 0.026615 3.000000
-0.466955 0.004566 -0.032374 3.000000
-0.466955 0.048437 -0.064242 3.000000
-0.466955 0.001619 -0.066966 3.000000
-0.466955 0.001845 0.040259 3.000000
-0.466955 -0.089314 -0.027835 3.000000
-0.466955 0.060525 -0.038209 3.000000
-0.466955 0.049848 -0.075388 3.000000
-0.466955 0.015757 0.056349 3.000000
-0.466955 0.001718 -0.085807 3.000000
-0.466955 0.054319 0.070516 3.000000
-0.466955 0.048505 -0.014682 3.000000
-0.466955 -0.042049 0.071597 3.000000
-0.466955 0.022192 -0.001955 3.000000
-0.466955 -0.098616 -0.005087 3.000000
-0.466955 -0.008599 -0.056642 3.000000
-0.466955 -0.010450 -0.038732 3.000000
-0.466955 0.004629 0.063690 3.000000
-0.466955 -0.012681 0.066430 3.000000
-0.466955 -0.039197 -0.002729 3.000000
-0.466955 -0.032275 0.093265 3.000000
-0.466955 -0.016596 0.057894 3.000000
-0.466955 -0.074178 -0.043833 3.000000
-0.466955 0.007791 -0.019018 3.000000
-0.466955 -0.038311 0.068510 3.000000
-0.466955 -0.005431 0.095334 3.000000
-0.466955 -0.077551 0.014589 3.000000
-0.466955 0.045224 -0.071191 3.000000
-0.466955 0.032039 0.090518 3.000000
-0.466955 -0.024001 -0.060680 3.000000
-0.466955 0.072840 -0.013506 3.000000
-0.466955 0.051883 -0.004841 3.000000
-0.466955 0.007102 -0.017830 3.000000
-0.466955 -0.058553 -0.006409 3.000000
-0.466955 -0.073347 0.059923 3.000000
-0.466955 0.061183 -0.048898 3.000000
-0.466955 -0.030776 0.092347 3.000000
-0.466955 -0.035050 -0.031077 3.000000
-0.466955 -0.051649 -0.085164 3.000000
-0.466955 0.056075 0.052550 3.000000
-0.466955 -0.001227 0.066593 3.000000
-0.466955 -0.028573 0.078583 3.000000
-0.466955 0.066891 -0.043897 3.000000
-0.466955 0.042963 -0.045883 3.000000
-0.466955 -0.056834 0.033168 3.000000
-0.466955 0.027281 0.009248 3.000000
-0.466955 0.006455 -0.005544 3.000000
-0.466955 -0.015987 -0.088100 3.000000
-0.466955 -0.083526 0.032676 3.000000
-0.466955 0.068622 0.013001 3.000000
-0.466955 -0.014364 -0.076757 3.000000
-0.466955 -0.032073 0.070907 3.000000
-0.466955 -0.054655 0.029431 3.000000
-0.466955 -0.001211 0.034316 3.000000
-0.466955 0.016662 -0.057485 3.000000
-0.466955 -0.004491 0.099248 3.000000
-0.466955 -0.037926 -0.076160 3.000000
-0.466955 -0.083172 -0.009135 3.000000
-0.466955 -0.042780 -0.064068 3.000000
-0.466955 -0.009437 0.017916 3.000000
-0.466955 0.050615 -0.078453 3.000000
-0.466955 -0.044384 -0.019231 3.000000
-0.466955 -0.002736 0.005392 3.000000
-0.466955 -0.043112 0.058753 3.000000
-0.466955 0.055341 0.024608 3.000000
-0.466955 -0.011562 0.085500 3.000000
-0.466955 -0.095671 -0.022382 3.000000
-0.466955 0.037300 0.068088 3.000000
-0.466955 0.077758 0.026281 3.000000
-0.466955 0.051854 0.068158 3.000000
-0.466955 0.017367 0.032425 3.000000
-0.466955 0.063485 0.058979 3.000000
-0.466955 -0.006624 0.049582 3.000000
-0.466955 -0.051459 -0.078125 3.000000
-0.466955 0.080487 0.053419 3.000000
-0.466955 -0.040021 -0.033181 3.000000
-0.466955 0.048856 0.021377 3.000000
-0.466955 -0.059508 0.059887 3.000000
-0.466955 0.073969 -0.009170 3.000000
-0.466955 -0.024670 0.083407 3.000000
-0.466955 0.073137 0.062776 3.000000
-0.466955 0.015525 -0.079273 3.000000
-0.466955 0.035958 -0.063375 3.000000
-0.466955 0.093068 -0.003943 3.000000
-0.466955 -0.042560 0.065310 3.000000
-0.466955 -0.048966 -0.010938 3.000000
-0.466955 0.074995 0.006447 3.000000
-0.466955 0.004526 0.065608 3.000000
-0.466955 -0.024302 0.037644 3.000000
-0.466955 0.037723 -0.053837 3.000000
-0.466955 -0.008067 -0.010857 3.000000
-0.466955 0.038078 0.071966 3.000000
-0.466955 0.001720 0.098903 3.000000
-0.466955 0.051311 -0.018486 3.000000
-0.466955 -0.062662 -0.045913 3.000000
-0.466955 0.055693 -0.053441 3.000000
-0.466955 0.049397 0.065998 3.000000
-0.466955 -0.091037 -0.013373 3.000000
-0.466955 0.048096 0.082525 3.000000
-0.466955 -0.010520 0.028103 3.000000
-0.466955 -0.031102 -0.056726 3.000000
-0.466955 0.071069 0.026140 3.000000
-0.466955 0.059726 -0.043018 3.000000
-0.466955 -0.000454 0.049639 3.000000
-0.466955 -0.038664 -0.027563 3.000000
-0.466955 -0.059584 0.078241 3.000000
-0.466955 -0.012329 -0.003524 3.000000
-0.466955 -0.036423 0.053909 3.000000
-0.466955 0.000251 0.084925 3.000000
-0.466955 0.005982 -0.094677 3.000000
-0.466955 -0.007918 0.029197 3.000000
-0.466955 0.022435 0.065581 3.000000
-0.466955 -0.007836 -0.022051 3.000000
-0.466955 -0.052755 -0.053307 3.000000
-0.466955 0.054013 0.004157 3.000000
-0.466955 0.038742 0.013237 3.000000
-0.466955 0.004544 0.047290 3.000000
-0.466955 0.037164 0.060831 3.000000
-0.466955 0.083341 -0.029503 3.000000
-0.466955 0.030523 -0.021144 3.000000
-0.466955 -0.016593 -0.046876 3.000000
-0.466955 -0.035763 0.061602 3.000000
-0.466955 -0.068743 0.053432 3.000000
-0.466955 0.030693 -0.077134 3.000000
-0.466955 0.031800 0.056372 3.000000
-0.466955 0.074381 -0.033043 3.000000
-0.466955 -0.032347 0.089917 3.000000
-0.466955 -0.060208 -0.005594 3.000000
-0.466955 0.028444 0.070062 3.000000
-0.466955 0.047517 0.038460 3.000000
-0.466955 0.034326 -0.081242 3.000000
-0.466955 0.065553 -0.015597 3.000000
-0.466955 -0.022509 0.049475 3.000000
-0.466955 -0.016495 -0.050701 3.000000
-0.466955 -0.026044 -0.053151 3.000000
-0.466955 0.075292 -0.036823 3.000000
-0.466955 -0.069246 0.046868 3.000000
-0.466955 0.006274 0.076137 3.000000
-0.466955 0.030920 -0.061957 3.000000
-0.466955 0.013743 -0.074017 3.000000
-0.466955 -0.022314 0.047046 3.000000
-0.466955 0.044503 -0.085660 3.000000
-0.466955 0.046543 0.046942 3.000000
-0.466955 -0.006934 0.013690 3.000000
-0.466955 -0.057908 0.055641 3.000000
-0.466955 0.042646 -0.053920 3.000000
-0.466955 -0.084786 0.038987 3.000000
-0.466955 0.083163 0.013168 3.000000
-0.466955 0.046996 0.086754 3.000000
-0.466955 0.008832 0.021203 3.000000
-0.466955 0.059034 0.077311 3.000000
-0.466955 -0.082347 0.020674 3.000000
-0.466955 -0.038256 -0.008849 3.000000
-0.466955 0.029538 0.033660 3.000000
-0.466955 -0.022925 -0.062145 3.000000
-0.466955 0.064688 0.053538 3.000000
-0.466955 0.079453 -0.017067 3.000000
-0.466955 0.040125 -0.020997 3.000000
-0.466955 -0.078515 -0.024589 3.000000
-0.466955 -0.036047 0.073416 3.000000
-0.466955 -0.048696 -0.064623 3.000000
-0.466955 0.064788 0.025331 3.000000
-0.466955 0.004497 -0.002539 3.000000
-0.466955 0.011925 -0.095351 3.000000
-0.466955 0.042274 -0.019228 3.000000
-0.466955 -0.053030 -0.046221 3.000000
-0.466955 0.028872 -0.008688 3.000000
-0.466955 -0.022244 0.075093 3.000000
-0.466955 0.048314 -0.022426 3.000000
-0.466955 -0.065848 -0.020170 3.000000
-0.466955 0.072045 -0.027827 3.000000
-0.466955 -0.088930 0.044826 3.000000
-0.466955 0.043767 0.048891 3.000000
-0.466955 0.001226 -0.013288 3.000000
-0.466955 0.069661 -0.041636 3.000000
-0.466955 0.021827 -0.004901 3.000000
-0.466955 0.012584 0.029261 3.000000
-0.466955 0.073566 0.038883 3.000000
-0.466955 -0.007957 0.065707 3.000000
-0.466955 0.028125 0.093756 3.000000
-0.466955 0.077558 0.043368 3.000000
-0.466955 0.011934 0.040887 3.000000
-0.466955 -0.092041 0.032165 3.000000
-0.466955 0.002285 0.044487 3.000000
-0.466955 -0.044509 -0.007741 3.000000
-0.466955 -0.067713 0.063798 3.000000
-0.466955 0.001967 0.089763 3.000000
-0.466955 0.092053 0.022715 3.000000
-0.466955 -0.051930 -0.057382 3.000000
-0.466955 0.031550 -0.032549 3.000000
-0.466955 -0.032764 0.050655 3.000000
-0.466955 -0.079228 -0.036553 3.000000
-0.466955 0.059911 0.031413 3.000000
-0.466955 -0.020642 -0.049444 3.000000
-0.466955 0.033273 0.005227 3.000000
-0.466955 -0.017820 0.017141 3.000000
-0.466955 0.059952 0.069047 3.000000
-0.466955 -0.071650 0.002380 3.000000
-0.466955 -0.035105 -0.077359 3.000000
-0.466955 -0.067804 -0.065488 3.000000
-0.466955 -0.045503 0.074642 3.000000
-0.466955 0.064787 0.075918 3.000000
-0.466955 -0.007948 0.071165 3.000000
-0.466955 -0.022555 -0.084642 3.000000
-0.466955 0.005316 -0.011383 3.000000
-0.466955 -0.010167 0.084981 3.000000
-0.466955 -0.013764 -0.074303 3.000000
-0.466955 0.021821 -0.025377 3.000000
-0.466955 0.010630 0.025302 3.000000
-0.466955 0.017214 -0.084358 3.000000
-0.466955 -0.081821 0.011135 3.000000
-0.466955 0.081908 0.046992 3.000000
-0.466955 -0.010274 -0.042760 3.000000
-0.466955 0.033600 -0.029919 3.000000
-0.466955 0.086710 0.007880 3.000000
-0.466955 0.061793 -0.057224 3.000000
-0.466955 -0.059393 -0.059185 3.000000
-0.466955 -0.046194 -0.067665 3.000000
-0.466955 0.006840 0.005139 3.000000
-0.466955 -0.094109 -0.000647 3.000000
-0.466955 0.084406 0.005478 3.000000
-0.466955 -0.004535 -0.064340 3.000000
-0.466955 -0.078641 -0.055805 3.000000
-0.466955 0.047244 0.002182 3.000000
-0.466955 0.000941 -0.092119 3.000000
-0.466955 -0.034039 0.031270 3.000000
-0.466955 0.077319 0.040711 3.000000
-0.466955 0.028794 0.008838 3.000000
-0.466955 0.053012 -0.075769 3.000000
-0.466955 0.031606 -0.073954 3.000000
-0.466955 -0.025602 0.009037 3.000000
-0.466955 0.094352 0.011608 3.000000
-0.466955 -0.038117 0.074475 3.000000
-0.466955 -0.045797 -0.043987 3.000000
-0.466955 0.003966 -0.079899 3.000000
-0.466955 -0.053686 0.016637 3.000000
-0.466955 0.043201 -0.074958 3.000000
-0.466955 -0.074341 0.009435 3.000000
-0.466955 -0.046762 -0.065832 3.000000
-0.466955 -0.000703 0.065217 3.000000
-0.466955 0.029194 -0.076627 3.000000
-0.466955 0.084986 -0.004100 3.000000
-0.466955 -0.027164 -0.075263 3.000000
-0.466955 -0.095819 0.006137 3.000000
-0.466955 0.043857 0.087533 3.000000
-0.466955 -0.081347 -0.010853 3.000000
-0.466955 -0.045304 0.088960 3.000000
-0.466955 0.055697 -0.027889 3.000000
-0.466955 -0.023042 -0.091980 3.000000
-0.466955 -0.025909 0.062128 3.000000
-0.466955 0.055614 0.065218 3.000000
-0.466955 -0.037625 0.048113 3.000000
-0.466955 -0.012738 -0.082326 3.000000
-0.466955 -0.031337 0.041549 3.000000
-0.466955 0.056919 -0.004803 3.000000
-0.466955 -0.078016 0.029780 3.000000
-0.466955 0.042202 0.048211 3.000000
-0.466955 -0.056366 0.008769 3.000000
-0.466955 0.051757 -0.034267 3.000000
-0.466955 0.079668 -0.009229 3.000000
-0.466955 0.050878 -0.065083 3.000000
-0.466955 -0.070793 -0.019492 3.000000
-0.466955 0.032611 -0.061513 3.000000
-0.466955 0.093650 -0.008876 3.000000
-0.466955 0.040456 0.029687 3.000000
-0.466955 0.058756 -0.009889 3.000000
-0.466955 -0.001234 0.005860 3.000000
-0.466955 0.060167 -0.056411 3.000000
-0.466955 0.002974 -0.037243 3.000000
-0.466955 -0.052806 -0.074588 3.000000
-0.466955 0.027130 0.080263 3.000000
-0.466955 -0.058282 -0.029209 3.000000
-0.466955 -0.074150 -0.021218 3.000000
-0.466955 -0.044020 -0.035343 3.000000
-0.466955 0.023438 0.051675 3.000000
-0.466955 0.034025 0.076421 3.000000
-0.466955 -0.093657 -0.007193 3.000000
-0.466955 -0.048747 0.056699 3.000000
-0.466955 -0.065621 0.062436 3.000000
-0.466955 -0.004693 -0.007318 3.000000
-0.466955 -0.042166 -0.014484 3.000000
-0.466955 0.047374 -0.046270 3.000000
-0.466955 0.002276 0.033047 3.000000
-0.466955 -0.023970 -0.003035 3.000000
-0.466955 -0.025918 -0.085999 3.000000
-0.466955 -0.073513 -0.051272 3.000000
-0.466955 -0.053187 0.023945 3.000000
-0.466955 -0.083167 -0.040270 3.000000
-0.466955 -0.093357 0.020544 3.000000
-0.466955 0.079131 0.050925 3.000000
-0.466955 -0.029757 0.081899 3.000000
-0.466955 -0.091458 -0.000996 3.000000
-0.466955 -0.012921 0.006809 3.000000
-0.466955 -0.063466 -0.047768 3.000000
-0.466955 -0.055437 0.068641 3.000000
-0.466955 -0.037788 -0.070468 3.000000
-0.466955 0.009345 -0.083070 3.000000
-0.466955 -0.031479 -0.040561 3.000000
-0.466955 -0.010540 0.026292 3.000000
-0.466955 0.009753 -0.016259 3.000000
-0.466955 0.024166 -0.023549 3.000000
-0.466955 0.047883 -0.024170 3.000000
-0.466955 -0.006063 -0.019069 3.000000
-0.466955 0.007876 -0.006371 3.000000
-0.466955 -0.023933 0.086391 3.000000
-0.466955 0.022179 -0.039487 3.000000
-0.466955 -0.020752 -0.037077 3.000000
-0.466955 0.045473 0.018519 3.000000
-0.466955 -0.064149 -0.005752 3.000000
-0.466955 0.064577 -0.016958 3.000000
-0.466955 0.042361 0.052423 3.000000
-0.466955 0.025547 -0.038961 3.000000
-0.466955 0.045361 -0.014368 3.000000
-0.466955 -0.045400 0.037359 3.000000
-0.466955 0.014253 -0.078235 3.000000
-0.466955 -0.048291 -0.055881 3.000000
-0.466955 -0.058598 -0.023390 3.000000
-0.466955 -0.044694 -0.027515 3.000000
-0.466955 -0.072945 0.028842 3.000000
-0.466955 0.039079 -0.085767 3.000000
-0.466955 0.003030 0.008504 3.000000
-0.466955 -0.052457 -0.064455 3.000000
-0.466955 0.066847 -0.064183 3.000000
-0.466955 0.028692 -0.031074 3.000000
-0.466955 -0.067811 -0.039207 3.000000
-0.466955 -0.035980 -0.078509 3.000000
-0.466955 0.045985 0.014787 3.000000
-0.466955 -0.071937 -0.057863 3.000000
-0.466955 -0.052741 0.077558 3.000000
-0.466955 0.049936 -0.005032 3.000000
-0.466955 -0.000465 -0.048507 3.000000
-0.466955 0.020800 -0.047004 3.000000
-0.466955 0.074244 0.030110 3.000000
-0.466955 -0.010094 0.086773 3.000000
-0.466955 0.023008 0.045241 3.000000
-0.466955 -0.049505 -0.043155 3.000000
-0.466955 -0.045504 0.062132 3.000000
-0.466955 -0.071905 -0.010032 3.000000
-0.466955 -0.011458 -0.093697 3.000000
-0.466955 -0.014778 0.009748 3.000000
-0.466955 0.049026 0.037669 3.000000
-0.466955 -0.093499 -0.013224 3.000000
-0.466955 -0.024092 -0.081897 3.000000
-0.466955 0.082563 -0.055694 3.000000
-0.466955 0.062819 0.022023 3.000000
-0.466955 -0.040761 0.054046 3.000000
-0.466955 -0.019249 0.088019 3.000000
-0.466955 -0.012070 -0.078351 3.000000
-0.466955 0.059569 0.066393 3.000000
-0.466955 -0.004167 -0.001907 3.000000
-0.466955 -0.054868 0.083219 3.000000
-0.466955 -0.061156 -0.065542 3.000000
-0.466955 0.054347 0.017995 3.000000
-0.466955 0.001740 -0.053603 3.000000
-0.466955 -0.042743 0.063042 3.000000
-0.466955 0.001749 -0.031512 3.000000
-0.466955 0.005078 0.062242 3.000000
-0.466955 -0.027963 -0.079854 3.000000
-0.466955 -0.078854 -0.015296 3.000000
-0.466955 -0.084152 0.009817 3.000000
-0.466955 0.008228 0.079573 3.000000
-0.466955 0.080168 0.018509 3.000000
-0.466955 -0.034850 -0.069419 3.000000
-0.466955 0.085870 -0.006866 3.000000
-0.466955 -0.065428 -0.036113 3.000000
-0.466955 0.054163 0.052881 3.000000
-0.466955 -0.025389 0.079683 3.000000
-0.466955 -0.057715 0.012229 3.000000
-0.466955 -0.096712 -0.015118 3.000000
-0.466955 0.032189 0.092610 3.000000
-0.466955 -0.033508 -0.031389 3.000000
-0.466955 -0.011803 0.051259 3.000000
-0.466955 0.031496 0.073973 3.000000
-0.466955 -0.017402 0.050462 3.000000
-0.466955 -0.015714 -0.076208 3.000000
-0.466955 0.076325 -0.042202 3.000000
-0.466955 -0.024505 -0.009335 3.000000
-0.466955 -0.027394 -0.037002 3.000000
-0.466955 -0.066768 0.061542 3.000000
-0.466955 -0.035617 0.079514 3.000000
-0.466955 0.072807 0.068235 3.000000
-0.466955 0.011744 0.087278 3.000000
-0.466955 0.053271 0.071656 3.000000
-0.466955 -0.049049 0.022008 3.000000
-0.466955 0.015161 0.008872 3.000000
-0.466955 0.011716 -0.010325 3.000000
-0.466955 0.054379 -0.023347 3.000000
-0.466955 0.035937 -0.004294 3.000000
-0.466955 -0.055613 0.062682 3.000000
-0.466955 0.011597 -0.028514 3.000000
-0.466955 0.070216 -0.068519 3.000000
-0.466955 0.042630 -0.022755 3.000000
-0.466955 -0.047619 0.040892 3.000000
-0.466955 -0.017243 0.042144 3.000000
-0.466955 -0.080665 -0.034593 3.000000
-0.466955 0.067234 -0.042408 3.000000
-0.466955 0.056481 0.041784 3.000000
-0.466955 -0.056233 -0.017530 3.000000
-0.466955 0.042636 -0.057090 3.000000
-0.466955 0.004439 0.039046 3.000000
-0.466955 0.058894 0.039122 3.000000
-0.466955 -0.079858 0.030938 3.000000
-0.466955 0.001248 -0.034407 3.000000
-0.466955 0.047393 -0.032058 3.000000
-0.466955 0.018006 -0.011893 3.000000
-0.466955 0.069905 0.003150 3.000000
-0.466955 -0.019582 0.008120 3.000000
-0.466955 -0.034967 -0.089777 3.000000
-0.466955 0.076676 0.035839 3.000000
-0.466955 -0.048135 -0.051899 3.000000
-0.466955 0.016809 0.012529 3.000000
-0.466955 -0.070582 -0.069847 3.000000
-0.466955 -0.084236 -0.034950 3.000000
-0.466955 -0.012384 0.073447 3.000000
-0.466955 0.067563 0.038988 3.000000
-0.466955 -0.038513 0.025804 3.000000
-0.466955 -0.040794 0.007229 3.000000
-0.466955 -0.024378 -0.047637 3.000000
-0.466955 0.023909 -0.072525 3.000000
-0.466955 0.053639 -0.008899 3.000000
-0.466955 -0.036431 -0.009744 3.000000
-0.466955 -0.046707 -0.001830 3.000000
-0.466955 0.094378 0.001423 3.000000
-0.466955 0.029067 -0.055054 3.000000
-0.466955 0.034637 -0.065553 3.000000
-0.466955 -0.003985 0.014318 3.000000
-0.466955 0.050701 -0.052124 3.000000
-0.466955 -0.061153 -0.074439 3.000000
-0.466955 0.045541 0.068076 3.000000
-0.466955 0.042971 -0.025304 3.000000
-0.466955 0.000198 0.081841 3.000000
-0.466955 0.050267 0.079331 3.000000
-0.466955 0.085652 -0.027909 3.000000
-0.466955 -0.050826 -0.001418 3.000000
-0.466955 -0.012288 0.076868 3.000000
-0.466955 -0.087196 -0.032396 3.000000
-0.466955 0.033883 -0.086044 3.000000
-0.466955 0.063833 0.023884 3.000000
-0.466955 0.022599 -0.094158 3.000000
-0.466955 -0.043258 0.080060 3.000000
-0.466955 0.026066 -0.017410 3.000000
-0.466955 -0.006686 -0.069308 3.000000
-0.466955 0.021011 0.096052 3.000000
-0.466955 0.006993 -0.043584 3.000000
-0.466955 0.012721 0.084183 3.000000
-0.466955 0.024666 -0.077279 3.000000
-0.466955 0.062535 0.048729 3.000000
-0.466955 -0.093024 -0.025699 3.000000
-0.466955 -0.000221 0.071766 3.000000
-0.466955 0.001033 -0.084370 3.000000
-0.466955 -0.041497 -0.049360 3.000000
-0.466955 -0.000165 0.089829 3.000000
-0.466955 0.023275 -0.008925 3.000000
-0.466955 -0.042695 -0.030009 3.000000
-0.466955 -0.067406 -0.008154 3.000000
-0.466955 0.034491 0.074949 3.000000
-0.466955 -0.013530 0.059023 3.000000
-0.466955 0.008297 0.095030 3.000000
-0.466955 0.001556 -0.090118 3.000000
-0.466955 0.071248 -0.069612 3.000000
-0.466955 0.003258 0.066936 3.000000
-0.466955 0.079483 0.008425 3.000000
-0.466955 -0.003769 -0.032032 3.000000
-0.466955 0.044082 0.052643 3.000000
-0.466955 -0.030878 -0.010958 3.000000
-0.466955 -0.002177 0.089990 3.000000
-0.466955 0.085593 0.037281 3.000000
-0.466955 -0.082343 0.006543 3.000000
-0.466955 -0.040488 0.043507 3.000000
-0.466955 0.008406 -0.066753 3.000000
-0.466955 -0.017336 -0.074891 3.000000
-0.466955 0.033186 0.086493 3.000000
-0.466955 -0.005829 -0.045663 3.000000
-0.466955 -0.016738 0.048867 3.000000
-0.466955 0.026119 -0.082348 3.000000
-0.466955 -0.031190 0.022158 3.000000
-0.466955 -0.009915 -0.084895 3.000000
-0.466955 0.074965 -0.040884 3.000000
-0.466955 0.023681 -0.035665 3.000000
-0.466955 0.007835 0.071925 3.000000
-0.466955 -0.072944 0.014055 3.000000
-0.466955 -0.058856 -0.003650 3.000000
-0.466955 -0.066343 0.066641 3.000000
-0.466955 -0.007239 0.075631 3.000000
-0.466955 0.004846 0.067784 3.000000
-0.466955 -0.051562 0.003030 3.000000
-0.466955 0.027599 0.012887 3.000000
-0.466955 -0.075420 0.003504 3.000000
-0.466955 0.096786 0.023298 3.000000
-0.466955 -0.005049 -0.036646 3.000000
-0.466955 -0.040982 -0.016737 3.000000
-0.466955 0.065903 0.013248 3.000000
-0.466955 -0.080569 0.040236 3.000000
-0.466955 0.026851 0.069370 3.000000
-0.466955 -0.076343 0.006420 3.000000
-0.466955 0.023182 0.025387 3.000000
-0.466955 0.077998 0.018132 3.000000
-0.466955 -0.074792 0.042473 3.000000
-0.466955 0.014001 0.012241 3.000000
-0.466955 -0.051829 0.040115 3.000000
-0.466955 0.021191 0.010260 3.000000
-0.466955 -0.050656 0.054151 3.000000
-0.466955 0.060038 -0.011913 3.000000
-0.466955 0.046075 -0.076153 3.000000
-0.466955 -0.020386 -0.014822 3.000000
-0.466955 0.014685 0.062136 3.000000
-0.466955 -0.010709 0.038191 3.000000
-0.466955 -0.078220 0.051125 3.000000
-0.466955 0.043337 -0.000662 3.000000
-0.466955 0.072183 -0.043366 3.000000
-0.466955 0.030234 0.049372 3.000000
-0.466955 0.016075 -0.087335 3.000000
-0.466955 -0.010934 -0.096929 3.000000
-0.466955 -0.068318 0.048019 3.000000
-0.466955 0.091470 -0.040075 3.000000
-0.466955 -0.050555 0.073250 3.000000
-0.466955 -0.097743 0.000479 3.000000
-0.466955 -0.090182 -0.042316 3.000000
-0.466955 -0.004603 0.035548 3.000000
-0.466955 0.028292 -0.090285 3.000000
-0.466955 -0.025384 -0.064914 3.000000
-0.466955 0.081711 0.042062 3.000000
-0.466955 -0.011716 -0.066368 3.000000
-0.466955 0.069779 -0.043309 3.000000
-0.466955 -0.042596 -0.035380 3.000000
-0.466955 -0.030339 0.095233 3.000000
-0.466955 0.087549 0.036955 3.000000
-0.466955 0.025342 0.016403 3.000000
-0.466955 -0.071241 -0.011456 3.000000
-0.466955 0.048845 0.040068 3.000000
-0.466955 -0.032532 -0.086459 3.000000
-0.466955 -0.002567 0.091577 3.000000
-0.466955 -0.040180 -0.055750 3.000000
-0.466955 -0.025784 0.075297 3.000000
-0.466955 -0.059388 0.047077 3.000000
-0.466955 -0.092301 -0.024435 3.000000
-0.466955 0.013855 0.060400 3.000000
-0.466955 -0.082833 -0.015674 3.000000
-0.466955 -0.047443 0.036465 3.000000
-0.466955 0.020574 0.072661 3.000000
-0.466955 0.017474 0.036916 3.000000
-0.466955 -0.003769 0.051446 3.000000
-0.466955 -0.067373 0.023674 3.000000
-0.466955 0.032824 -0.058375 3.000000
-0.466955 0.050362 0.028998 3.000000
-0.466955 0.077792 0.024908 3.000000
-0.466955 0.025321 -0.047922 3.000000
-0.466955 0.019903 -0.070702 3.000000
-0.466955 -0.001495 0.008483 3.000000
-0.466955 -0.038839 -0.059171 3.000000
-0.466955 0.069575 0.042609 3.000000
-0.466955 -0.059761 0.054219 3.000000
-0.466955 -0.002924 0.002324 3.000000
-0.466955 -0.011725 0.095114 3.000000
-0.466955 -0.031614 -0.080410 3.000000
-0.466955 -0.017207 -0.005722 3.000000
-0.466955 0.021557 -0.013130 3.000000
-0.466955 0.070941 -0.024640 3.000000
-0.466955 0.009522 -0.046082 3.000000
-0.466955 -0.016952 -0.071860 3.000000
-0.466955 0.021699 0.079124 3.000000
-0.466955 0.019829 -0.030815 3.000000
-0.466955 0.002420 -0.018187 3.000000
-0.466955 -0.007450 -0.061282 3.000000
-0.466955 0.012978 -0.029455 3.000000
-0.466955 0.058915 -0.047599 3.000000
-0.466955 0.091373 0.021267 3.000000
-0.466955 0.010522 -0.075295 3.000000
-0.466955 0.055060 -0.052004 3.000000
-0.466955 -0.075132 -0.053861 3.000000
-0.466955 -0.018209 0.015580 3.000000
-0.466955 -0.019156 -0.039991 3.000000
-0.466955 -0.003262 0.088590 3.000000
-0.466955 -0.046109 0.031712 3.000000
-0.466955 0.032331 0.051485 3.000000
-0.466955 -0.008779 0.038073 3.000000
-0.466955 -0.027118 -0.068710 3.000000
-0.466955 0.002166 -0.095257 3.000000
-0.466955 -0.043882 0.010729 3.000000
-0.466955 0.056760 -0.036859 3.000000
-0.466955 -0.066997 0.048492 3.000000
-0.466955 0.011391 -0.089043 3.000000
-0.466955 0.073313 -0.064881 3.000000
-0.466955 0.045532 0.059077 3.000000
-0.466955 -0.029530 -0.060969 3.000000
-0.466955 0.044319 -0.031367 3.000000
-0.466955 0.006752 0.030589 3.000000
-0.466955 0.053736 0.026081 3.000000
-0.466955 -0.086698 0.012791 3.000000
-0.466955 -0.060764 0.078882 3.000000
-0.466955 0.044673 0.029597 3.000000
-0.466955 -0.010179 -0.027379 3.000000
-0.466955 -0.065822 0.029345 3.000000
-0.466955 -0.068365 0.067010 3.000000
-0.466955 -0.082216 -0.025016 3.000000
-0.466955 0.088327 -0.011186 3.000000
-0.466955 0.011956 -0.070702 3.000000
-0.466955 -0.096117 0.002488 3.000000
-0.466955 0.002924 0.084615 3.000000
-0.466955 0.046752 -0.015890 3.000000
-0.466955 0.042178 -0.016012 3.000000
-0.466955 -0.018804 0.057572 3.000000
-0.466955 0.028105 0.030407 3.000000
-0.466955 0.034569 0.071810 3.000000
-0.466955 0.003675 -0.062090 3.000000
-0.466955 -0.032599 0.022929 3.000000
-0.466955 -0.013126 0.052060 3.000000
-0.466955 0.021760 -0.061510 3.000000
-0.466955 0.064240 0.018679 3.000000
-0.466955 -0.059827 0.032282 3.000000
-0.466955 0.000003 0.078009 3.000000
-0.466955 0.092750 0.029287 3.000000
-0.466955 0.091023 -0.003275 3.000000
-0.466955 -0.081370 -0.037938 3.000000
-0.466955 -0.086292 -0.001629 3.000000
-0.466955 -0.050793 -0.034311 3.000000
-0.466955 -0.007789 0.072937 3.000000
-0.466955 0.082433 0.043518 3.000000
-0.466955 0.040902 -0.069837 3.000000
-0.466955 -0.033098 -0.075904 3.000000
-0.466955 -0.056207 0.017181 3.000000
-0.466955 -0.024885 0.016434 3.000000
-0.466955 -0.059778 -0.010785 3.000000
-0.466955 0.004261 -0.046541 3.000000
-0.466955 0.003607 -0.021600 3.000000
-0.466955 -0.090668 0.029593 3.000000
-0.466955 0.036648 0.000583 3.000000
-0.466955 0.049733 0.032433 3.000000
-0.466955 -0.001015 0.069683 3.000000
-0.466955 0.038927 0.054661 3.000000
-0.466955 0.031776 0.042172 3.000000
-0.466955 0.092964 -0.012628 3.000000
-0.466955 0.003900 -0.012078 3.000000
-0.466955 -0.065665 -0.026840 3.000000
-0.466955 0.041117 0.034706 3.000000
-0.466955 -0.090743 -0.025148 3.000000
-0.466955 -0.051919 -0.022864 3.000000
-0.466955 0.025933 -0.015519 3.000000
-0.466955 0.078128 -0.017433 3.000000
-0.466955 0.079907 0.005066 3.000000
-0.466955 0.062769 0.017096 3.000000
-0.466955 -0.017324 0.013295 3.000000
-0.466955 -0.069638 0.009831 3.000000
-0.466955 -0.080945 0.005507 3.000000
-0.466955 0.001246 0.008597 3.000000
-0.466955 0.058793 -0.041450 3.000000
-0.466955 0.034064 0.040954 3.000000
-0.466955 -0.011181 -0.012381 3.000000
-0.466955 -0.090830 0.034990 3.000000
-0.466955 0.026274 -0.058370 3.000000
-0.466955 0.029998 0.077076 3.000000
-0.466955 0.001181 0.002492 3.000000
-0.466955 -0.030831 -0.073016 3.000000
-0.466955 0.059769 -0.078282 3.000000
-0.466955 0.094003 -0.027076 3.000000
-0.466955 -0.028548 -0.022388 3.000000
-0.466955 0.029765 -0.056429 3.000000
-0.466955 -0.087594 0.041527 3.000000
-0.466955 -0.055741 0.077295 3.000000
-0.466955 -0.001488 -0.051948 3.000000
-0.466955 0.021362 -0.058351 3.000000
-0.466955 -0.031703 0.033627 3.000000
-0.466955 0.079826 -0.033311 3.000000
-0.466955 -0.082294 -0.028505 3.000000
-0.466955 0.003443 0.071341 3.000000
-0.466955 -0.069403 0.071723 3.000000
-0.466955 0.024540 0.044291 3.000000
-0.466955 -0.063675 0.024492 3.000000
-0.466955 -0.022849 0.079987 3.000000
-0.466955 -0.063436 0.067309 3.000000
-0.466955 -0.040844 -0.087609 3.000000
-0.466955 0.008906 0.041017 3.000000
-0.466955 0.067639 0.047330 3.000000
-0.466955 0.010156 0.065925 3.000000
-0.466955 -0.002858 -0.082554 3.000000
-0.466955 -0.009395 -0.058183 3.000000
-0.466955 0.075091 -0.031706 3.000000
-0.466955 0.064895 -0.045623 3.000000
-0.466955 0.003692 0.034531 3.000000
-0.466955 -0.086341 -0.039700 3.000000
-0.466955 -0.049404 -0.041640 3.000000
-0.466955 -0.025735 -0.051152 3.000000
-0.466955 -0.047459 -0.075974 3.000000
-0.466955 0.057247 -0.069594 3.000000
-0.466955 -0.018210 -0.097910 3.000000
-0.466955 -0.076225 0.020828 3.000000
-0.466955 0.066073 0.046813 3.000000
-0.466955 -0.056514 -0.051774 3.000000
-0.466955 -0.044857 -0.064177 3.000000
-0.466955 0.079035 0.020051 3.000000
-0.466955 -0.007736 0.040131 3.000000
-0.466955 -0.047024 0.020900 3.000000
-0.466955 -0.056795 0.013515 3.000000
-0.466955 0.061754 -0.018214 3.000000
-0.466955 -0.016793 -0.022314 3.000000
-0.466955 0.015406 0.029391 3.000000
-0.466955 0.048874 -0.028703 3.000000
-0.466955 -0.046368 0.065018 3.000000
-0.466955 0.020657 -0.045559 3.000000
-0.466955 0.016803 -0.041290 3.000000
-0.466955 -0.062297 -0.057563 3.000000
-0.466955 0.002552 -0.073491 3.000000
-0.466955 0.032390 0.058495 3.000000
-0.466955 0.031782 -0.047342 3.000000
-0.466955 0.017248 -0.037017 3.000000
-0.466955 -0.039696 0.061724 3.000000
-0.466955 -0.092242 -0.018703 3.000000
-0.466955 0.036747 0.035787 3.000000
-0.466955 -0.017890 -0.065328 3.000000
-0.466955 -0.023016 0.087473 3.000000
-0.466955 -0.040513 0.033299 3.000000
-0.466955 -0.069637 0.056498 3.000000
-0.466955 0.098082 0.008351 3.000000
-0.466955 0.006916 -0.057300 3.000000
-0.466955 0.025590 0.037171 3.000000
-0.466955 0.072284 0.060249 3.000000
-0.466955 -0.030586 0.083189 3.000000
-0.466955 -0.009995 0.074960 3.000000
-0.466955 0.034674 -0.003142 3.000000
-0.466955 -0.062670 -0.011763 3.000000
-0.466955 -0.034177 0.026506 3.000000
-0.466955 -0.053122 -0.025728 3.000000
-0.466955 -0.054551 -0.023422 3.000000
-0.466955 -0.063659 -0.071661 3.000000
-0.466955 -0.087202 -0.009945 3.000000
-0.466955 0.016958 -0.002249 3.000000
-0.466955 -0.039291 0.069606 3.000000
-0.466955 -0.075122 -0.048408 3.000000
-0.466955 0.099133 0.006041 3.000000
-0.466955 0.067363 0.029489 3.000000
-0.466955 0.035461 0.070496 3.000000
-0.466955 -0.024883 0.013915 3.000000
-0.466955 0.048615 0.062052 3.000000
-0.466955 0.034394 -0.004804 3.000000
-0.466955 0.066358 0.053121 3.000000
-0.466955 0.024781 -0.030644 3.000000
-0.466955 -0.053741 -0.010038 3.000000
-0.466955 -0.068567 -0.026607 3.000000
-0.466955 -0.004500 -0.098794 3.000000
-0.466955 0.005606 -0.098646 3.000000
-0.466955 -0.061390 0.025711 3.000000
-0.466955 -0.058352 0.008936 3.000000
-0.466955 -0.013664 0.076740 3.000000
-0.466955 -0.001024 -0.082790 3.000000
-0.466955 -0.016579 -0.018854 3.000000
-0.466955 -0.003209 -0.091061 3.000000
-0.466955 0.056222 -0.024675 3.000000
-0.466955 0.058244 0.056973 3.000000
-0.466955 0.005702 -0.086876 3.000000
-0.466955 0.003219 0.093659 3.000000
-0.466955 0.084753 0.010345 3.000000
-0.466955 0.066231 0.014749 3.000000
-0.466955 0.074666 0.011414 3.000000
-0.466955 0.044398 0.057862 3.000000
-0.466955 0.068914 -0.038709 3.000000
-0.466955 -0.028661 -0.017844 3.000000
-0.466955 -0.017071 -0.089209 3.000000
-0.466955 0.061767 0.054270 3.000000
-0.466955 0.064789 -0.027205 3.000000
-0.466955 -0.001579 -0.063033 3.000000
-0.466955 -0.030028 0.037731 3.000000
-0.466955 -0.030652 -0.075034 3.000000
-0.466955 0.091036 0.027894 3.000000
-0.466955 -0.068029 -0.018713 3.000000
-0.466955 -0.084572 0.016925 3.000000
-0.466955 -0.040566 -0.085906 3.000000
-0.466955 0.053871 -0.082014 3.000000
-0.466955 -0.060062 -0.040949 3.000000
-0.466955 -0.054133 -0.053681 3.000000
-0.466955 -0.043731 -0.074256 3.000000
-0.466955 0.045178 -0.052118 3.000000
-0.466955 -0.018407 -0.093208 3.000000
