50.091873 -46.165754 59.799511
50.163934 -46.870720 44.896919
27.821976 -5.563945 37.964490
50.389582 -49.860395 56.880791
45.233426 -27.528619 42.900220
44.417673 -25.736746 32.029219
49.001757 -39.319181 54.840455
46.857730 -31.664515 62.669717
36.678657 -13.735386 7.152822
24.812164 -3.572308 27.216619
40.208957 -18.376145 33.285863
50.460890 -51.687490 31.208269
44.412998 -25.727100 12.008842
49.695580 -43.102146 5.436453
48.266225 -36.256501 35.917770
50.466149 -51.912056 9.372729
33.215789 -10.058164 43.666833
50.488588 -54.136723 63.799375
48.495801 -37.147015 32.691697
49.759174 -43.542138 51.188195
44.537311 -25.985603 47.760651
46.760183 -31.393685 13.606655
49.908138 -44.605769 10.540954
39.801080 -17.783844 64.983546
46.200933 -29.885756 14.036617
36.926461 -14.029672 57.845438
48.358208 -36.598186 4.526576
42.507554 -22.076017 30.342498
45.774050 -28.810437 41.899330
29.402690 -6.745007 41.077504
28.681516 -6.194604 16.613837
47.754646 -34.437749 44.280439
46.365605 -30.314595 9.008417
49.884486 -44.421130 50.405942
43.369342 -23.644766 4.960338
49.447994 -41.610928 59.441018
49.291271 -40.757918 23.577003
50.247349 -47.812634 19.174113
49.713296 -43.220326 51.633537
36.990070 -14.106442 42.094164
48.322537 -36.465681 62.372341
29.796253 -7.058971 26.198992
48.188108 -35.966326 8.141286
36.240927 -13.230602 43.084954
50.444123 -51.112638 44.572418
33.804043 -10.631956 64.969140
42.362276 -21.819756 24.595051
49.671845 -42.956558 55.206822
45.243036 -27.550807 42.149952
50.103208 -46.276636 46.026337
39.894155 -17.919004 46.068144
43.387190 -23.677896 20.666424
30.960967 -8.016453 35.233852
34.631192 -11.473669 5.196837
47.701057 -34.253826 43.627759
36.806002 -13.884290 29.938809
40.181784 -18.336686 44.358473
50.463924 -51.817047 28.476605
47.131429 -32.470704 67.920760
32.259816 -9.162236 4.453428
39.300259 -17.079879 6.423575
32.261954 -9.164199 14.607653
33.819087 -10.647093 14.543560
49.646977 -42.804025 35.908156
30.759576 -7.847999 67.840142
48.724408 -38.082803 35.493935
26.941958 -4.947995 67.878419
47.920721 -35.007735 42.934226
50.154319 -46.776656 3.081674
43.557865 -24.008195 33.810047
28.205236 -5.841432 8.339647
49.965634 -45.075898 27.490985
41.755775 -20.791753 53.431964
50.431160 -50.810659 37.564806
47.300244 -32.972336 66.945280
45.971558 -29.294161 14.124982
49.083991 -39.720963 37.421949
50.356775 -49.335910 64.201795
43.769065 -24.421251 29.133727
45.205647 -27.464486 22.558373
43.266587 -23.454031 17.025996
50.241946 -47.746987 50.706754
50.076499 -46.015345 43.942119
49.117777 -39.886037 21.013230
38.984663 -16.642570 55.367490
34.534532 -11.371882 11.417484
35.950845 -12.898831 29.389124
44.387201 -25.673867 46.621974
42.692828 -22.402827 14.418582
49.616148 -42.614930 6.646809
50.352652 -49.270007 57.986762
47.920646 -35.007479 3.012235
42.993877 -22.947819 53.801619
50.301636 -48.472177 32.488037
47.558688 -33.795690 33.756868
44.386564 -25.672552 26.563802
25.083761 -3.741043 15.436453
42.696414 -22.409153 54.861818
49.747318 -43.458970 13.388225
50.289221 -48.321340 55.304914
30.867935 -7.938637 37.309405
48.774844 -38.306089 47.456447
44.027449 -24.931511 33.401514
49.119149 -39.892738 49.031599
28.152989 -5.803604 46.692197
25.899796 -4.254934 17.269287
48.112710 -35.686250 31.862688
50.222385 -47.509345 51.686129
49.234954 -40.458541 4.514686
45.002462 -26.999948 51.612104
28.332319 -5.933442 38.209039
29.389084 -6.734152 66.188144
50.442593 -51.077006 11.164657
50.479953 -54.700699 61.748348
44.265449 -25.422630 53.375002
48.744441 -38.171492 57.348067
39.132674 -16.847663 67.529665
44.022787 -24.921892 5.769902
46.757443 -31.386077 53.237765
28.496650 -6.054050 13.883433
50.488214 -53.732019 35.327990
50.440048 -51.017715 53.691269
27.364778 -5.239237 6.129730
41.348959 -20.131103 54.269868
27.743933 -5.507440 60.405629
41.262654 -19.993200 52.514872
49.155270 -40.069221 64.730043
35.109613 -11.977464 21.504768
36.938173 -14.043808 65.985630
42.015080 -21.226883 54.422863
50.078248 -46.032459 67.438569
43.841683 -24.563273 11.548328
38.796863 -16.392358 32.254218
41.715165 -20.723608 67.530012
49.924159 -44.736769 33.892021
41.157549 -19.825258 21.811402
48.056927 -35.479038 52.542064
45.109095 -27.241579 24.886865
27.252754 -5.162074 45.493457
27.210499 -5.132968 3.305179
50.025641 -45.566563 67.981350
49.990811 -45.281768 9.022904
49.801929 -43.842038 11.381022
49.334657 -40.994054 15.781793
38.754275 -16.336020 5.956190
47.845283 -34.748825 4.421302
37.187996 -14.345320 31.807535
50.487513 -53.557323 40.361296
41.075181 -19.693647 50.668500
34.686939 -11.532373 27.723197
48.974696 -39.190844 23.951094
25.549672 -4.030499 16.051179
46.777007 -31.440394 43.009466
33.914552 -10.743148 48.203634
26.147285 -4.416936 41.709427
50.324363 -48.817754 43.366504
50.459369 -51.622569 18.769999
30.383558 -7.533478 29.046306
44.996884 -26.987785 28.974587
50.480824 -54.643814 15.306463
48.750592 -38.198722 12.116725
30.073382 -7.280049 7.524701
48.321042 -36.460127 45.896145
35.927574 -12.873187 9.637440
24.854581 -3.598660 65.259131
50.474358 -52.262575 6.193618
34.713577 -11.560423 53.875947
50.245757 -47.793294 49.644916
41.950811 -21.119035 60.758853
39.851899 -17.857641 17.018986
48.296642 -36.369490 37.189871
50.488587 -53.824900 30.287090
25.870403 -4.235693 61.737221
46.912327 -31.820211 55.763673
44.643719 -26.217644 8.494573
31.231103 -8.247763 62.596273
41.514676 -20.395893 17.867511
28.635157 -6.159357 48.109371
44.036423 -24.950029 14.632987
49.827609 -44.022170 35.208506
46.048081 -29.487698 48.963106
37.645656 -14.905078 35.591825
43.716610 -24.318662 54.875945
38.994485 -16.656180 48.038082
40.362900 -18.602231 15.493019
49.942667 -44.888108 15.215245
38.671785 -16.226898 9.981163
32.114020 -9.028383 63.072341
25.379227 -3.924607 62.487805
50.466062 -51.908325 63.515446
38.517357 -16.022612 8.979148
50.419977 -50.550154 20.523967
31.309690 -8.316646 59.746352
50.150965 -46.743837 23.492226
49.534074 -42.111512 53.809617
46.829852 -31.587115 25.219156
48.150348 -35.826063 21.538792
32.142523 -9.054551 27.503690
49.397490 -41.336042 36.737128
24.816496 -3.574999 44.186431
29.938154 -7.172171 18.736051
50.276596 -48.167961 32.856397
38.769573 -16.356257 9.631365
45.882667 -29.076455 4.974933
32.843648 -9.700438 41.918743
49.240388 -40.485093 36.636504
50.419986 -50.550363 32.710383
35.430470 -12.325394 3.726877
35.658931 -12.577151 25.735491
48.996327 -39.292652 10.854661
48.733350 -38.122391 67.097284
46.775725 -31.436836 58.040659
50.407414 -50.257490 17.302198
30.330893 -7.489426 50.859541
49.937956 -44.849586 11.915040
49.957453 -45.009003 63.837660
49.649574 -42.819956 20.945517
36.912931 -14.013343 33.835316
50.424116 -50.646575 61.337045
45.190934 -27.430519 39.673880
34.095442 -10.925158 21.513679
42.149746 -21.452860 25.962185
34.522682 -11.359403 25.064375
39.659284 -17.577935 63.013452
30.748316 -7.838581 62.143962
26.744512 -4.811992 10.573114
44.393733 -25.687346 42.709148
50.470072 -55.346104 35.476799
45.233090 -27.527843 28.774365
50.478610 -52.444137 36.112851
44.388100 -25.675722 38.518398
30.946892 -8.004681 47.472685
50.356884 -49.337650 53.545770
50.469280 -55.397810 30.447743
32.596862 -9.471673 8.217049
38.176108 -15.575235 14.315747
30.295782 -7.460058 7.281911
50.326071 -48.845056 37.811848
44.697634 -26.335217 23.439570
44.688504 -26.315306 4.760887
38.677017 -16.233820 44.180946
32.527413 -9.407913 12.725658
26.221313 -4.465393 63.299695
45.838650 -28.968652 31.281764
47.648033 -34.080325 59.527497
49.773936 -43.645682 65.985521
50.311210 -48.607473 44.386251
49.969905 -45.110820 30.194844
37.651424 -14.912366 18.183323
34.109544 -10.939347 33.078959
36.049545 -13.009901 48.443226
45.872874 -29.052471 30.888013
44.225948 -25.341117 54.910947
47.336799 -33.088796 50.653277
28.207531 -5.843093 38.569758
36.460032 -13.483271 67.957567
49.896499 -44.510604 63.672689
35.532709 -12.438058 62.376149
33.338428 -10.176052 23.581195
49.701111 -43.136070 67.427403
40.002290 -18.076033 67.768488
47.321529 -33.040147 36.203932
46.506298 -30.688791 44.857294
29.510314 -6.830863 53.177282
50.238309 -47.702810 48.288950
25.255685 -3.847854 4.268893
40.208334 -18.375241 38.124600
41.844449 -20.940554 8.842626
48.409841 -36.799544 58.943943
43.258132 -23.438336 18.527478
46.946398 -31.921365 30.713033
50.332118 -48.941721 52.478485
39.641251 -17.552378 19.669277
49.078521 -39.694237 13.325637
46.228919 -29.958636 49.528930
25.150652 -3.782600 40.491978
38.093510 -15.470882 42.322525
38.571212 -16.093855 59.554418
37.082304 -14.217760 38.392247
50.065936 -45.912012 43.011851
37.985657 -15.334625 67.754126
49.422113 -41.470060 17.023009
31.114443 -8.145508 16.607785
34.376444 -11.207898 10.882294
31.199669 -8.220210 7.321778
45.913861 -29.152855 48.731681
42.173456 -21.492646 56.185605
34.989509 -11.850990 28.841092
43.787657 -24.457611 48.614727
26.265996 -4.494642 50.048554
31.131502 -8.160460 65.255009
49.669738 -42.943637 66.421232
41.761583 -20.801500 45.192111
36.281421 -13.277298 59.915551
45.788217 -28.845135 30.406637
46.976709 -32.011357 61.946214
29.080567 -6.498004 48.845310
49.480567 -41.788214 8.173480
33.363142 -10.199809 19.078887
47.692012 -34.222784 63.205572
31.560029 -8.536075 50.035515
39.748049 -17.706835 66.688973
34.629036 -11.471398 67.409030
46.094835 -29.609454 33.812658
45.698474 -28.625340 26.923768
38.222035 -15.633258 56.223228
37.048433 -14.176880 24.988499
34.247112 -11.077766 20.492759
50.303751 -48.497870 62.305035
45.313891 -27.714385 63.811911
25.870123 -4.235510 53.078486
50.025938 -45.568986 37.622432
49.658955 -42.877497 64.230959
50.487619 -53.583692 21.324778
42.465550 -22.001924 65.512521
35.373391 -12.262495 16.777486
34.360357 -11.191712 40.251900
44.023966 -24.924325 47.706549
46.662525 -31.122544 34.948125
50.488473 -53.796656 62.225182
40.052802 -18.149384 64.045412
46.418669 -30.452785 17.785952
29.077606 -6.495753 15.452503
46.516958 -30.718389 59.044879
48.548064 -37.358277 29.150990
46.255407 -30.027617 8.527382
50.472203 -52.170569 30.659300
50.486533 -53.313204 52.257645
49.487729 -41.827245 49.469794
35.296331 -12.177577 4.034533
50.420716 -50.567363 58.117853
49.876596 -44.365788 30.651743
47.985452 -35.229900 16.842293
29.417468 -6.756796 31.895179
49.323191 -40.931652 8.774083
41.316202 -20.078761 46.381338
36.424541 -13.442343 55.162155
35.650181 -12.567509 20.188713
43.743400 -24.371057 27.888825
36.746380 -13.813484 40.900238
49.052847 -39.568798 66.138308
50.486051 -54.302429 49.218446
28.240109 -5.866681 23.192131
36.696459 -13.755915 9.261265
50.443474 -51.097536 5.623363
46.048851 -29.489703 56.624108
40.203171 -18.367742 18.799245
37.140352 -14.287818 47.938766
41.255066 -19.981076 13.162903
36.568037 -13.607820 3.089965
44.920777 -26.821820 25.586415
50.196627 -47.196403 55.528904
34.287783 -11.118689 41.153957
29.870901 -7.118521 21.637106
35.514047 -12.417494 59.066241
50.287857 -48.304769 35.698831
30.691092 -7.790716 31.785391
33.830413 -10.658488 33.851791
27.357161 -5.233990 43.023073
44.001995 -24.878986 64.799292
47.726419 -34.340873 37.006294
50.314088 -48.653485 60.917561
40.095211 -18.210968 40.051476
49.319135 -40.909575 67.627141
30.034764 -7.249242 11.104401
40.552866 -18.891498 16.145632
27.154520 -5.094409 51.299756
25.320166 -3.887914 13.504563
32.078039 -8.995349 21.797089
48.731659 -38.114906 29.495992
49.998212 -45.342279 12.427531
50.042395 -45.703555 29.646830
44.165901 -25.217211 27.750153
44.157243 -25.199345 16.528550
49.784983 -43.723173 61.628407
28.454635 -6.022106 5.769841
50.043643 -45.713757 7.346648
50.476700 -54.913155 9.441306
25.652077 -4.094121 21.919967
43.040146 -23.033705 52.915597
43.891676 -24.661048 24.698973
30.195643 -7.377582 12.416107
38.052050 -15.418504 52.702010
42.719748 -22.450313 17.445523
32.198784 -9.106203 12.661475
50.398908 -50.059336 29.077363
39.547109 -17.421929 3.136119
46.282074 -30.097063 18.002776
50.480474 -54.666640 50.857151
46.556919 -30.829338 4.444923
45.158383 -27.355369 55.958676
33.546456 -10.376022 65.913209
37.858611 -15.174119 3.075859
50.488083 -54.169660 66.455193
46.886092 -31.743262 43.403012
29.934801 -7.169496 60.693700
50.455478 -51.456440 36.959440
29.853139 -7.104351 47.567261
48.201956 -36.017767 66.956174
40.020472 -18.102436 56.655319
41.229190 -19.939730 60.242572
27.765520 -5.523069 57.407639
50.337861 -49.033533 15.393882
39.058949 -16.745505 42.716529
41.735144 -20.757135 54.827184
49.924858 -44.742486 33.492424
49.501434 -41.911308 27.543211
27.158977 -5.097479 53.892871
50.011364 -45.449824 56.563415
45.595140 -28.372259 67.797668
25.329605 -3.893778 43.823380
49.322572 -40.928278 61.920335
50.487830 -53.636291 18.859725
24.758770 -3.539135 53.241866
50.150325 -46.737580 37.481047
39.625172 -17.530097 6.581843
43.617372 -24.124576 14.924756
30.726076 -7.819978 59.396288
41.054752 -19.661004 66.691130
48.244531 -36.175918 22.101349
40.543609 -18.877403 29.514550
41.240107 -19.957173 65.838119
46.821133 -31.562907 24.259568
33.343159 -10.180600 12.160507
32.892950 -9.747830 54.718445
40.168654 -18.317619 8.964685
32.205419 -9.112296 29.037969
35.819824 -12.754450 6.183474
50.056845 -45.823072 28.280850
38.462307 -15.949789 15.059281
42.656521 -22.338784 20.784875
50.443050 -51.087661 29.820225
44.282273 -25.457346 62.690265
39.443012 -17.277686 62.431125
30.719310 -7.814318 66.070746
49.785816 -43.729017 15.378304
47.830303 -34.697412 45.034558
46.746857 -31.356686 38.394445
39.438716 -17.271734 40.740387
46.569101 -30.863161 17.425232
36.966485 -14.077978 53.123809
41.553311 -20.457626 26.683266
48.447533 -36.951906 50.968411
50.463079 -51.780970 61.286786
38.640342 -16.185304 24.404933
41.164312 -19.836064 16.801787
34.856124 -11.710531 14.707363
40.815874 -19.291989 17.731465
48.705076 -37.997222 45.377412
43.382771 -23.669693 32.813683
47.083669 -32.328909 32.214607
41.786618 -20.843510 64.770680
50.363523 -49.443791 66.707415
45.994985 -29.351538 49.399098
28.768297 -6.260584 7.052154
46.842136 -31.621220 29.266970
34.980655 -11.841667 44.089660
49.745624 -43.447086 32.764685
49.846758 -44.156491 18.416531
38.514082 -16.018280 58.994548
33.871278 -10.699606 41.577508
34.348689 -11.179972 38.802097
49.688396 -43.058081 36.598214
41.903119 -21.039005 17.666136
25.688339 -4.116649 22.668276
34.972911 -11.833511 46.551082
50.102047 -46.265286 62.931121
50.417464 -50.491622 54.376613
49.651644 -42.832653 46.988930
50.468996 -55.416361 63.748466
50.072003 -45.971362 66.123806
39.442103 -17.276426 39.566851
38.336171 -15.782931 57.306744
33.724660 -10.552082 63.731255
45.063375 -27.136028 39.898036
37.798975 -15.098777 46.378547
27.437937 -5.289629 54.889036
40.370988 -18.614548 28.477344
49.422325 -41.471213 45.087117
34.417898 -11.249609 44.873983
34.732416 -11.580261 50.216810
33.380507 -10.216501 44.663416
44.645547 -26.221631 38.228922
32.172889 -9.082430 53.722989
50.171174 -46.941546 28.297653
46.873151 -31.707331 38.292180
50.300466 -48.457965 51.065102
47.713067 -34.295048 14.220392
48.411271 -36.805325 60.195335
49.723393 -43.291147 63.806155
36.286485 -13.283138 22.482797
50.286091 -48.283314 25.446061
42.822600 -22.631736 60.366932
50.315826 -48.681269 48.111581
44.641390 -26.212566 43.519091
49.409971 -41.403972 40.946114
46.392016 -30.383375 48.662435
25.141931 -3.777182 6.921239
50.381689 -49.734211 51.994716
46.782617 -31.455971 64.342172
37.562282 -14.799746 32.600316
30.349326 -7.504845 34.979769
50.489142 -53.963276 44.168703
47.334411 -33.081186 65.951217
36.384738 -13.396443 3.438603
50.066196 -45.914558 61.459874
50.379158 -49.693745 11.329884
49.564045 -42.295344 45.954355
50.468580 -52.015857 36.059151
49.049730 -39.553570 25.162726
27.895394 -5.617100 55.354733
48.167101 -35.888293 43.279603
29.848705 -7.100814 25.463558
44.538639 -25.988498 7.234466
25.527230 -4.016557 60.193859
28.919216 -6.375329 61.408477
32.346388 -9.241717 55.036987
48.833826 -38.567204 55.804731
50.072826 -45.979418 47.629672
43.711862 -24.309376 35.300923
35.697500 -12.619653 67.302740
34.105207 -10.934984 42.483790
50.079023 -46.040037 6.648886
45.739914 -28.726833 35.700164
50.238570 -47.705978 43.616338
29.326031 -6.684631 43.503084
49.319413 -40.911084 19.955069
50.168992 -46.920200 14.475118
41.117043 -19.760535 61.686485
33.027070 -9.876755 42.727653
38.676948 -16.233727 57.242300
44.483259 -25.872084 65.018841
41.197015 -19.888318 28.659659
40.289203 -18.492675 11.479474
42.711948 -22.436554 41.873580
38.276027 -15.703369 54.862435
48.014636 -35.330060 13.093033
46.921461 -31.847331 33.727328
35.675980 -12.595938 41.741940
46.606577 -30.967210 22.838808
37.117882 -14.260699 32.457353
38.138417 -15.527617 33.782850
39.597508 -17.491765 57.695941
49.823688 -43.994669 55.378560
43.794346 -24.470694 58.937998
50.484663 -52.847020 54.523642
39.914290 -17.948243 41.157509
48.567123 -37.435318 25.785993
44.617336 -26.160110 48.069702
27.639942 -5.432148 18.950475
39.907094 -17.937793 40.512711
41.124151 -19.771893 36.509746
47.232748 -32.771511 7.819599
29.995641 -7.218031 61.952919
37.344689 -14.534432 22.987299
43.782331 -24.447195 56.617510
34.252757 -11.083446 52.671192
50.188828 -47.114252 22.533558
49.453267 -41.639625 6.674398
48.488155 -37.116111 9.894251
42.320613 -21.746266 42.556774
26.271906 -4.498511 62.926912
35.875086 -12.815347 34.901212
50.479768 -54.712787 55.548971
44.566415 -26.049068 31.786527
39.125418 -16.837609 3.790173
31.462537 -8.450621 32.543967
27.670613 -5.454355 33.761019
29.204420 -6.592170 27.774640
48.358239 -36.598299 12.879615
38.683477 -16.242365 39.846536
26.738496 -4.807848 48.225997
37.324031 -14.509500 15.070962
45.728374 -28.698570 22.209894
33.591730 -10.419541 31.554515
50.468979 -55.417463 57.263693
43.885102 -24.648191 67.476120
37.043626 -14.171079 48.301255
26.563103 -4.689123 56.425953
48.790004 -38.373201 37.046811
43.457436 -23.811780 62.811344
31.457887 -8.446545 11.171025
48.879993 -38.771588 23.739245
35.019215 -11.882272 37.745254
28.208480 -5.843780 9.563550
42.425880 -21.931950 32.011647
50.453747 -51.382521 65.603017
43.606463 -24.103240 5.573055
50.044998 -45.724840 62.986757
44.157766 -25.200423 52.520000
39.868033 -17.881071 30.223137
39.759329 -17.723216 26.147768
49.919718 -44.700457 42.593321
47.350053 -33.131018 38.592012
35.021332 -11.884501 15.947755
45.872997 -29.052772 32.413454
50.319351 -48.737633 50.263116
50.474827 -55.035488 67.743852
50.448189 -51.207363 59.363293
26.616866 -4.724316 29.274204
40.338247 -18.564691 25.412907
37.816810 -15.121309 58.031493
46.644194 -31.071649 30.849438
47.929881 -35.039172 61.222565
44.189638 -25.266191 43.627138
30.698573 -7.796973 48.411617
41.545649 -20.445385 33.955937
42.280909 -21.676230 55.124174
43.442235 -23.782051 28.754774
41.072866 -19.689947 56.213878
32.493508 -9.376785 13.798459
39.198528 -16.938915 6.004743
24.778626 -3.551471 61.300402
48.558136 -37.398989 34.267368
50.485685 -53.101745 37.789827
50.478422 -52.436084 57.965721
49.704181 -43.156390 50.845945
42.703797 -22.422176 12.310424
26.512881 -4.656249 6.213268
48.577382 -37.476786 67.515598
49.344913 -41.049876 30.185629
37.709482 -14.985714 36.119775
34.041124 -10.870504 6.426092
38.304879 -15.741536 53.220516
39.347679 -17.145587 4.827123
48.508271 -37.197424 43.920322
49.688238 -43.057113 61.614282
34.071775 -10.901344 54.278056
46.801305 -31.507857 64.860241
44.811228 -26.582928 67.998333
49.565878 -42.306587 60.064155
50.396783 -50.009835 40.267420
40.015417 -18.095095 50.049850
44.569716 -26.056267 67.981539
45.946833 -29.233607 42.786378
37.589479 -14.834106 65.279261
46.888151 -31.748978 53.119875
45.609927 -28.408477 24.189161
50.246601 -47.803540 18.220291
44.527002 -25.963122 62.645895
48.477359 -37.072468 61.387872
38.898783 -16.527183 53.957869
47.700023 -34.250278 9.309944
43.742245 -24.368796 41.931016
24.861702 -3.603084 32.835061
47.896507 -34.924632 12.354423
49.813199 -43.921090 36.262138
44.036377 -24.949934 3.966272
47.490381 -33.578077 23.077115
50.433105 -50.855976 57.866093
50.478915 -54.768503 37.199740
25.116223 -3.761210 65.629673
39.904928 -17.934648 61.304639
50.081088 -46.060244 67.939693
50.140261 -46.639126 29.071841
44.459899 -25.823880 36.402712
50.164914 -46.880306 67.825398
46.022154 -29.420177 3.803523
49.917127 -44.679271 34.375128
49.473068 -41.747399 15.807033
32.245813 -9.149380 28.472900
50.469925 -55.355684 64.158894
44.121077 -25.124715 40.275958
38.751194 -16.331944 29.505573
32.674541 -9.542990 32.907331
38.964241 -16.614272 3.490942
36.830955 -13.914406 25.286569
38.718583 -16.288805 60.736648
50.489051 -54.106439 32.949628
34.322759 -11.153882 7.845551
28.436350 -6.008762 41.407535
49.808110 -43.885396 51.490118
50.322205 -48.783251 21.297845
30.964370 -8.019300 6.393615
42.830065 -22.644903 23.761993
50.323545 -48.804678 24.081326
49.191958 -40.248471 39.941309
48.939847 -39.036564 40.228581
36.036260 -12.994581 14.216857
45.152211 -27.341120 33.881081
43.309320 -23.533353 9.914499
32.653636 -9.523797 25.905681
47.197309 -32.666296 16.493280
46.528846 -30.751395 21.792423
34.827601 -11.680495 25.372407
32.854394 -9.710767 25.610388
48.518748 -37.239774 4.829922
38.066865 -15.437221 41.753411
49.976816 -45.167332 33.498015
31.761472 -8.712645 60.236299
37.822449 -15.128432 53.351857
50.406362 -50.233000 47.582382
26.043891 -4.349256 52.171812
48.355160 -36.586861 17.682499
48.361863 -36.611762 45.299657
42.821147 -22.629174 57.779284
50.224078 -47.529905 28.996339
47.188139 -32.639072 57.770400
44.495958 -25.898290 22.423104
37.182167 -14.338284 36.309291
29.988059 -7.211983 33.180169
36.154399 -13.130818 66.508474
48.093223 -35.613863 66.336301
50.405934 -50.223026 58.846826
38.915653 -16.549500 30.262619
49.137505 -39.982422 37.909894
27.028602 -5.007676 4.611857
50.466309 -51.918876 37.601512
47.677258 -34.173430 66.421313
34.601810 -11.442728 65.001694
50.489191 -54.097306 64.407709
39.956034 -18.008861 58.515980
40.490537 -18.796589 49.173492
37.355704 -14.547727 65.979337
50.476215 -54.944829 29.259073
39.795447 -17.775664 53.191261
49.349309 -41.073807 14.483867
50.475817 -54.970865 17.135568
50.485393 -54.345397 58.506785
40.236871 -18.416680 26.765283
27.476456 -5.316161 20.131478
50.459433 -51.625275 54.174617
33.890633 -10.719082 55.764180
47.792268 -34.566871 58.725557
33.478227 -10.310436 16.877140
41.127156 -19.776694 29.915744
24.966907 -3.668445 60.148886
46.753393 -31.374833 30.558614
50.467160 -51.955227 27.331685
44.898819 -26.773937 32.714968
45.713781 -28.662830 60.571914
49.379131 -41.236118 37.810087
40.747585 -19.188003 12.840056
29.820707 -7.078479 6.835958
47.148268 -32.520700 64.189215
40.435264 -18.712422 57.668017
50.464638 -51.847545 39.144875
48.299707 -36.380876 7.623685
28.310931 -5.917957 61.894940
47.001769 -32.085756 8.273005
42.942066 -22.851647 3.469653
50.257239 -47.932793 21.368424
50.468532 -55.446649 24.671840
40.374167 -18.619387 49.552930
47.303752 -32.983512 44.185590
46.596061 -30.938011 39.771692
41.530244 -20.420769 13.006285
29.735687 -7.010654 30.884854
38.430813 -15.908128 66.349727
47.119413 -32.435030 43.058164
30.690753 -7.790432 37.031714
32.226750 -9.131879 22.888709
50.090343 -46.150783 57.710350
50.000948 -45.364652 64.206573
47.278105 -32.906172 63.997531
35.684110 -12.604897 55.055710
44.863757 -26.697478 44.210222
25.347016 -3.904595 31.020279
50.430882 -50.804200 13.900038
28.772048 -6.263436 37.052249
29.460451 -6.791085 11.787859
48.073913 -35.542133 57.728137
48.750030 -38.196234 50.011173
30.501896 -7.632462 44.722233
50.029954 -45.601828 9.996469
50.304301 -48.504554 55.957789
44.570006 -26.056899 25.345223
44.243046 -25.376400 33.619135
50.238969 -47.710821 11.879178
45.979959 -29.314737 34.488764
39.710454 -17.652241 30.417855
50.371198 -49.566492 58.352428
47.538091 -33.730072 7.881534
30.324923 -7.484433 51.863693
25.237605 -3.836621 55.282024
41.200274 -19.893527 63.830349
47.005696 -32.097415 48.135527
34.095196 -10.924910 42.109716
41.699436 -20.697213 55.255894
44.271284 -25.434670 26.305993
50.479723 -54.715696 38.672044
47.621937 -33.997188 39.619770
49.498366 -41.892487 28.187347
38.858265 -16.473584 13.678430
38.838299 -16.447172 61.115655
50.487706 -53.605447 20.863256
42.078529 -21.333354 56.698133
48.786028 -38.355599 67.379273
29.666655 -6.955584 43.344475
45.110251 -27.244248 13.534291
50.419217 -50.532447 38.821249
50.462458 -51.754449 46.820016
50.331704 -48.935110 25.942606
26.189032 -4.444263 24.888800
29.440792 -6.775402 25.629434
33.531665 -10.361803 18.725042
50.485387 -53.027483 31.941175
48.878108 -38.763242 25.970938
50.384287 -49.775748 28.106044
31.297178 -8.305679 54.710379
50.332534 -48.948380 30.434880
43.522781 -23.939580 38.990679
50.165290 -46.883979 8.637582
48.231649 -36.128065 5.140145
46.610445 -30.977949 27.262221
36.098612 -13.066485 63.461309
40.912095 -19.438508 57.646330
47.336176 -33.086811 23.214838
47.388915 -33.254827 30.001864
41.164337 -19.836105 29.534864
28.188844 -5.829564 17.575001
49.198381 -40.279854 65.105684
41.615690 -20.557298 47.702315
26.030715 -4.340631 24.144847
45.179910 -27.405068 31.550537
29.167358 -6.563991 66.458422
50.476199 -52.341163 52.446710
41.113034 -19.754130 17.739333
37.712735 -14.989824 14.890040
37.084283 -14.220149 6.757080
42.850132 -22.680996 26.426088
34.113026 -10.942850 18.608092
27.000734 -4.988480 67.045557
50.484835 -52.889899 7.830679
48.142091 -35.795390 54.579403
47.797160 -34.583662 16.160391
27.134386 -5.080541 58.274059
50.488056 -53.692655 29.285311
42.679727 -22.379717 66.238688
33.058612 -9.907075 44.754106
29.818235 -7.076507 61.210357
34.383194 -11.214690 28.122343
49.289373 -40.747586 26.694564
37.742967 -15.028018 16.909459
42.553220 -22.156568 49.195058
50.176596 -46.994589 13.313946
41.314627 -20.076246 40.121320
50.486715 -53.358474 5.864339
24.899418 -3.626516 50.986751
47.245087 -32.808145 14.849679
36.448030 -13.469430 42.562461
27.154663 -5.094508 21.503164
41.041275 -19.639470 15.905338
50.468452 -52.010413 40.440109
45.496127 -28.135108 25.627956
46.433836 -30.492284 38.320431
50.483914 -52.670577 40.183803
47.883420 -34.879715 59.840994
49.940340 -44.869078 8.288176
49.770338 -43.620445 67.201008
26.370359 -4.562956 52.240865
46.138713 -29.723720 29.203499
33.658371 -10.485382 18.036451
50.461589 -51.717347 63.158609
43.590468 -24.071958 18.362335
42.734344 -22.476059 21.319894
40.989638 -19.556961 23.102298
41.516493 -20.398797 31.327351
29.886066 -7.130619 10.665274
50.473022 -52.205526 60.455412
50.439375 -51.002046 18.537955
42.917258 -22.805598 63.707136
49.899713 -44.536879 44.539471
35.376251 -12.265646 13.758112
44.393372 -25.686600 21.516288
41.703997 -20.704868 16.496516
39.082411 -16.778016 46.381726
49.855286 -44.216312 10.678986
49.031155 -39.462816 58.365852
48.077107 -35.553999 41.843216
29.183624 -6.576359 46.314925
43.112039 -23.167154 10.492271
43.439357 -23.776422 21.512539
40.023387 -18.106669 54.372554
25.114787 -3.760318 67.754105
46.634467 -31.044644 13.135950
42.717881 -22.447018 16.668407
45.814618 -28.909793 66.732426
35.934150 -12.880434 53.483909
41.721235 -20.733793 40.057000
50.484782 -52.876794 54.908376
37.760715 -15.050440 5.345551
50.070175 -45.953485 65.600998
37.284155 -14.461375 27.102880
36.795579 -13.871711 26.991050
41.891804 -21.020018 53.976780
48.864854 -38.704567 51.215946
46.744617 -31.350466 19.084528
34.547621 -11.385666 24.250764
50.410187 -50.322082 53.001806
45.168512 -27.378755 41.370630
42.827572 -22.640506 24.348431
48.338768 -36.525973 23.607047
48.377629 -36.670327 13.839718
39.953579 -18.005297 44.466986
42.194212 -21.527477 7.389743
47.070389 -32.289484 37.537249
42.905655 -22.784059 50.128498
28.178943 -5.822396 24.396579
32.053760 -8.973059 37.258922
35.357801 -12.245315 14.344697
50.320523 -48.756354 54.600569
24.905629 -3.630375 45.869535
49.489603 -41.838736 7.817327
49.820720 -43.973849 34.054015
50.247472 -47.814123 20.170497
24.911160 -3.633811 44.551056
38.465300 -15.953749 10.140607
44.862528 -26.694798 57.569158
49.702031 -43.141714 52.142662
47.574715 -33.846747 21.477132
50.488354 -53.767027 15.708233
42.392636 -21.873310 11.748358
50.087917 -46.127047 64.255429
47.431684 -33.391079 19.219520
50.484276 -52.750706 11.813538
42.290796 -21.693670 48.169802
50.480000 -52.503486 58.514176
50.485159 -52.970837 39.985025
27.131808 -5.078765 43.679498
50.055661 -45.812022 19.994487
50.486048 -53.192365 46.356905
46.653856 -31.098476 62.158422
34.440130 -11.272473 39.889785
38.452917 -15.937367 14.148982
37.425240 -14.631650 30.657905
50.385315 -49.792177 65.601624
46.074599 -29.556755 40.703926
38.343640 -15.792810 15.982660
49.710784 -43.202705 56.948145
50.479667 -54.719350 10.955612
47.767672 -34.482455 59.648402
49.282138 -40.708204 7.975914
45.364119 -27.830346 54.563525
46.085695 -29.585651 17.472479
41.353933 -20.139051 32.909731
47.692322 -34.223848 48.526750
40.013817 -18.092772 46.765551
39.485117 -17.336029 18.834730
50.290849 -48.341126 19.374526
30.695809 -7.794661 27.845255
41.815042 -20.891207 12.192371
46.564684 -30.850896 10.442756
50.144394 -46.679563 27.660153
50.079572 -46.045415 29.657009
50.327337 -48.865301 17.472833
49.544745 -42.176966 36.738606
48.010030 -35.314254 37.455415
42.694753 -22.406222 46.450708
40.594447 -18.954816 51.714135
31.125316 -8.155037 6.060487
49.857719 -44.233374 58.642936
50.487422 -53.534728 61.930195
49.706831 -43.174976 46.213346
47.011101 -32.113463 38.493905
44.612037 -26.148555 13.624924
32.533583 -9.413577 43.904392
37.627613 -14.882283 21.542488
47.745745 -34.407202 61.270365
46.978067 -32.015388 63.134142
49.222126 -40.395868 54.626399
49.474846 -41.757075 39.899651
50.469049 -55.412907 10.975611
44.982429 -26.956262 6.329125
50.481617 -52.572512 60.208955
39.368572 -17.174537 67.205773
50.353267 -49.279832 46.181595
24.778676 -3.551503 11.966119
47.508067 -33.634420 34.314282
38.191235 -15.594346 41.249574
28.790358 -6.277357 60.538454
37.477845 -14.695139 46.156622
49.232399 -40.446059 11.220671
49.339026 -41.017833 12.006457
36.642339 -13.693505 58.175020
49.217082 -40.371224 6.115537
50.414985 -50.433859 3.348779
46.298936 -30.140976 9.587473
43.198174 -23.327040 3.018181
47.476194 -33.532880 57.162087
46.347486 -30.267411 18.865623
42.949784 -22.865973 25.973362
50.486597 -53.328966 65.733882
43.703145 -24.292327 22.752385
48.554434 -37.384028 32.361934
50.442739 -51.080409 57.540224
38.288579 -15.719972 20.424033
33.906901 -10.735450 8.906723
45.351295 -27.800739 47.676531
45.134151 -27.299427 52.590371
46.351039 -30.276663 7.363437
46.757052 -31.384991 42.546307
45.898638 -29.115570 64.859187
42.898386 -22.770566 64.583311
28.661561 -6.179433 19.095739
40.489214 -18.794573 7.773676
50.034158 -45.636202 55.820176
50.474517 -55.055728 24.047295
47.006682 -32.100342 23.298375
50.468719 -55.434453 17.957202
50.488444 -53.789240 8.771455
41.775300 -20.824517 29.002884
37.418490 -14.623503 41.400115
47.758109 -34.449634 40.506449
50.459544 -51.630047 20.261778
48.665411 -37.832622 65.370528
49.634912 -42.730024 32.128590
47.865395 -34.817853 41.412181
29.562904 -6.872817 63.099868
48.802668 -38.429266 62.596205
45.425656 -27.972415 32.819079
47.360804 -33.165271 18.464063
50.359510 -49.379642 10.328696
47.565086 -33.816071 37.936721
49.712666 -43.215908 54.112364
46.356873 -30.291857 4.723832
49.056396 -39.586139 6.472266
50.145820 -46.693510 52.582422
38.131316 -15.518645 51.335839
44.843234 -26.652722 25.108628
40.802230 -19.271213 4.562257
43.874045 -24.626565 32.647751
27.559065 -5.373592 64.597508
49.900323 -44.541866 24.384758
27.885547 -5.609972 64.388666
41.590365 -20.516834 62.174130
50.487260 -53.494274 48.116081
46.592154 -30.927165 12.557438
40.228048 -18.403869 58.413414
42.139599 -21.435833 4.095399
45.037206 -27.075715 38.718884
32.229362 -9.134277 49.425109
31.864279 -8.802757 27.002413
39.331157 -17.122693 3.895785
48.286857 -36.333143 28.413129
43.403864 -23.708847 55.967639
34.122983 -10.952869 67.844367
36.073616 -13.037660 25.168791
48.765393 -38.264249 63.697907
49.147788 -40.032666 14.945900
47.076010 -32.306172 46.551448
41.263371 -19.994345 27.045027
41.242689 -19.961299 36.205353
49.430479 -41.515594 7.896301
41.802878 -20.870796 60.046873
28.212162 -5.846446 58.396214
48.520758 -37.247901 42.661990
50.484130 -52.714263 28.085698
44.415258 -25.731764 48.956916
41.774620 -20.823377 22.049324
40.076931 -18.184423 20.366725
46.336074 -30.237691 64.875350
37.219672 -14.383550 64.474940
26.703443 -4.783704 24.512398
36.113609 -13.083779 34.730675
36.092825 -13.059812 10.204381
49.804370 -43.859159 43.440561
26.495916 -4.645144 33.748874
50.293108 -48.368562 50.654408
28.612804 -6.142362 39.875320
46.593001 -30.929515 16.085387
50.200350 -47.241633 55.104028
49.842979 -44.129979 61.639360
46.293075 -30.125714 60.007576
50.105926 -46.303226 9.330043
50.260339 -47.970448 37.028938
45.022794 -27.044286 19.463066
38.927578 -16.565274 15.491333
41.553652 -20.458171 60.837961
39.004407 -16.669929 16.724705
50.234784 -47.659982 40.936793
27.021650 -5.002887 48.469156
33.831036 -10.659115 62.264850
50.465636 -51.890168 35.238430
32.125821 -9.039218 18.846139
48.070173 -35.528241 63.919523
31.116643 -8.147435 23.599814
46.491822 -30.648602 41.348874
46.398824 -30.401105 34.798365
40.351086 -18.584241 13.722671
32.386598 -9.278633 23.536079
41.834456 -20.923785 11.764177
47.764972 -34.473190 24.861925
45.435875 -27.996008 6.861722
48.908874 -38.899445 55.219433
35.604137 -12.516770 9.812305
48.970938 -39.174204 38.159972
38.033912 -15.395589 38.784470
45.892907 -29.101535 57.198824
45.531214 -28.216114 34.686035
50.126390 -46.503426 54.721540
49.363904 -41.153244 46.590253
30.124746 -7.321025 38.816062
46.011104 -29.391400 41.621431
47.114538 -32.420557 39.497736
44.676066 -26.288183 58.207908
50.132632 -46.564488 30.093773
45.398445 -27.909594 64.631425
48.425655 -36.863469 62.485844
31.624623 -8.592693 8.444622
50.470382 -55.325849 65.535206
48.519253 -37.241817 44.316762
28.082637 -5.752668 20.912756
46.258724 -30.036257 11.903199
31.789775 -8.737453 27.546555
50.329279 -48.896344 27.303117
28.894776 -6.356747 65.743131
29.117928 -6.526410 59.968001
48.394245 -36.736503 46.181960
35.183206 -12.054960 58.953379
50.288205 -48.308995 67.529603
43.865977 -24.610786 57.117467
45.227900 -27.515862 27.556064
26.137465 -4.410508 47.018562
50.348713 -49.207027 15.100686
48.489445 -37.121326 33.507371
50.105334 -46.297435 10.000625
42.623716 -22.280919 23.735222
49.722091 -43.282014 20.027221
33.511894 -10.342798 8.872341
44.424822 -25.751499 60.164339
49.026214 -39.438674 11.458081
49.627384 -42.683847 33.988844
50.468192 -55.468897 43.898718
35.915607 -12.859999 56.463872
49.663457 -42.905110 57.972281
46.905060 -31.798637 22.123304
38.402518 -15.870697 40.373479
45.136077 -27.303873 42.632754
50.488064 -53.694666 47.460733
41.026703 -19.616186 25.621144
48.236572 -36.146350 35.451046
50.240214 -47.725952 51.048707
32.005993 -8.929205 28.637416
50.484448 -52.793435 15.210902
43.311916 -23.538172 22.067412
44.917152 -26.813915 60.550632
27.062171 -5.030798 60.738334
43.716945 -24.319318 43.636367
48.003013 -35.290169 7.032659
26.966151 -4.964659 38.051888
37.572425 -14.812560 13.282821
49.689112 -43.062471 8.996422
49.948493 -44.935742 52.153561
48.232754 -36.132170 52.073962
46.409207 -30.428145 58.018933
50.481788 -52.579838 62.016209
50.489505 -54.053881 13.191330
46.253372 -30.022318 66.506131
45.885942 -29.084477 22.288878
25.330652 -3.894429 66.507316
48.507497 -37.194294 57.730545
24.841346 -3.590437 63.652032
50.423159 -50.624291 47.102652
33.293221 -10.132596 33.508656
45.746917 -28.743984 27.278948
49.357949 -41.120831 16.354467
50.416718 -50.474239 27.433488
48.909603 -38.902670 49.054223
26.627357 -4.731295 66.943669
50.480953 -54.635364 58.828606
27.213947 -5.135343 61.585280
36.707897 -13.769105 6.343843
36.104554 -13.073338 41.239984
49.987956 -45.258421 40.574000
31.190327 -8.212022 38.609368
50.377529 -49.667702 64.037025
49.542953 -42.165973 28.662892
39.574470 -17.459841 45.178012
44.586948 -26.093845 28.905827
41.894108 -21.023884 46.016419
48.699136 -37.970925 33.935656
34.510510 -11.346586 34.414016
50.360459 -49.394818 30.166219
49.021461 -39.415452 12.937205
42.114170 -21.393161 36.748915
48.010462 -35.315736 51.374712
39.787965 -17.764799 25.683897
50.346647 -49.174006 16.935846
47.668625 -34.145926 52.689563
49.760617 -43.552258 13.818246
47.610820 -33.961771 37.382622
50.147927 -46.714125 19.983239
49.217756 -40.374516 38.751044
43.225596 -23.377942 54.633224
49.438900 -41.561432 25.832460
41.641574 -20.600118 11.535225
50.485830 -53.138000 58.603158
30.238691 -7.412304 13.742449
28.414673 -5.993068 59.934176
39.674471 -17.599989 65.286699
49.863884 -44.276620 10.160640
43.701208 -24.288538 60.399732
25.764825 -4.166584 3.524299
39.017843 -16.688546 10.607736
43.613099 -24.116219 65.351862
28.395935 -5.979501 11.995387
44.995130 -26.983959 25.261762
40.831179 -19.315294 45.222870
50.107065 -46.314372 60.173965
48.066212 -35.513526 25.729897
26.767607 -4.827900 28.900452
33.731442 -10.558905 47.870499
35.410103 -12.302950 31.800533
31.521784 -8.502552 8.016562
44.638174 -26.205553 54.850575
34.702946 -11.549229 55.879601
36.229182 -13.217057 16.590400
33.252159 -10.093125 48.703636
50.428539 -50.749620 40.363296
25.716128 -4.134707 13.069519
28.102264 -5.766878 59.882996
48.203991 -36.025327 21.237699
39.495089 -17.349848 35.154042
33.913580 -10.742170 45.793284
43.901747 -24.680743 25.100117
50.380945 -49.722323 50.054383
30.946481 -8.004337 57.326624
42.388889 -21.866700 60.358715
49.871114 -44.327333 48.960202
35.433554 -12.328793 41.619337
30.619668 -7.730973 22.057858
37.860788 -15.176869 56.670635
45.490331 -28.121727 56.704009
50.454538 -51.416268 57.195219
41.272727 -20.009296 8.617913
49.356735 -41.114224 32.841120
44.234947 -25.359688 23.368452
50.254050 -47.894041 52.534624
45.983188 -29.322646 31.908510
31.491467 -8.475979 11.994966
40.908733 -19.433389 6.048051
38.443757 -15.925250 48.123337
39.767991 -17.735795 20.711895
50.299601 -48.447453 59.211645
50.327542 -48.868566 38.531296
32.582398 -9.458394 14.854765
50.156388 -46.796894 49.095321
46.308940 -30.167030 44.796034
49.524483 -42.052683 44.360765
48.070637 -35.529964 14.768061
33.056243 -9.904797 29.859175
49.530643 -42.090466 3.753906
35.034208 -11.898060 30.660261
50.481392 -52.562919 14.147243
50.455520 -51.458208 8.383224
34.219127 -11.049608 66.821150
30.600239 -7.714721 52.894191
39.708708 -17.649706 32.175278
46.162900 -29.786710 12.490521
45.550755 -28.263556 4.697038
49.751626 -43.489189 34.722918
50.455774 -51.469040 6.026415
42.635178 -22.301136 36.230823
41.869399 -20.982422 14.266153
49.152778 -40.057046 4.924948
36.984108 -14.099247 23.683257
44.499416 -25.905426 23.919817
50.478032 -52.419458 51.621447
49.973255 -45.138213 50.574236
47.438832 -33.413853 40.391382
30.528168 -7.654437 30.244202
44.433982 -25.770400 30.478720
49.562286 -42.284553 26.012369
50.313512 -48.644277 51.900294
50.400044 -50.085798 42.578917
39.780483 -17.753934 3.220719
47.727634 -34.345042 30.520159
50.408213 -50.276106 25.850555
40.714983 -19.138358 7.575348
39.785590 -17.761351 21.078931
34.080929 -10.910555 10.119557
47.211805 -32.709333 7.383730
30.599459 -7.714069 36.634290
49.327283 -40.953920 65.498239
38.780718 -16.371000 36.542944
30.322574 -7.482467 62.767345
40.692929 -19.104777 3.812951
24.897570 -3.625368 46.273263
50.459615 -51.633058 34.145274
33.897939 -10.726433 32.892052
39.812797 -17.800859 3.614907
44.133183 -25.149697 55.332200
40.844557 -19.335665 8.774480
50.213256 -47.398431 9.726013
34.404869 -11.236500 46.165979
33.441926 -10.275541 47.807527
26.356233 -4.553710 27.124159
40.875629 -19.382980 9.918566
36.459940 -13.483165 57.803633
38.307703 -15.745271 58.514312
42.295146 -21.701343 33.549622
50.484859 -52.895867 7.125947
49.930134 -44.785627 38.974662
25.658657 -4.098209 66.645719
28.014142 -5.703076 12.090372
45.506453 -28.158948 28.445683
48.470839 -37.046115 15.016549
48.337907 -36.522774 16.102403
32.929881 -9.783330 14.782024
49.746931 -43.456254 44.392318
36.440162 -13.460357 7.049569
50.479552 -52.484343 55.419685
44.452969 -25.809581 49.563888
46.989614 -32.049671 65.138710
33.937648 -10.766387 12.064241
44.206590 -25.301172 47.584730
32.937628 -9.790778 21.650926
48.751494 -38.202714 49.591734
37.948267 -15.287388 60.464365
44.552626 -26.018999 16.894737
49.697988 -43.116912 62.994695
26.809363 -4.856662 28.007482
49.611095 -42.583934 42.263952
36.172671 -13.151890 45.757747
46.458970 -30.557737 65.567468
32.086616 -9.003224 63.622643
33.055293 -9.903884 7.043168
29.496770 -6.820059 10.612993
43.503320 -23.901519 5.268719
48.542078 -37.334080 37.997160
44.861267 -26.692047 29.422445
50.484155 -52.720415 42.338614
43.470701 -23.837723 66.167698
49.055281 -39.580693 37.826177
47.006834 -32.100795 22.883044
45.224798 -27.508700 46.646448
30.422901 -7.566386 19.582792
50.488853 -53.891296 28.894870
43.516525 -23.927344 11.159297
50.005719 -45.403665 47.258616
47.036162 -32.187865 18.992138
28.571932 -6.111287 34.943064
36.834577 -13.918778 31.379181
39.367445 -17.172976 44.976757
50.078424 -46.034184 22.040184
50.176628 -46.994899 39.260648
36.913318 -14.013810 26.252663
50.046850 -45.739983 59.842186
48.644184 -37.746819 34.835895
37.301570 -14.482392 30.140367
43.198896 -23.328382 32.856690
49.111702 -39.856353 60.777910
40.519630 -18.840889 23.283316
50.478851 -52.454433 46.085738
40.743174 -19.181286 33.960280
50.159883 -46.831089 24.442244
34.492103 -11.327203 12.566325
50.471228 -55.270572 59.656889
44.984229 -26.960188 53.846457
50.474353 -55.066496 63.877355
36.515995 -13.547806 6.579718
50.487540 -53.564001 67.355018
36.303033 -13.302221 67.122895
31.729011 -8.684192 31.789643
35.324179 -12.208264 64.767014
42.493903 -22.051937 58.138002
50.448743 -51.220268 36.004308
49.087476 -39.737993 53.236290
48.695670 -37.955579 23.563506
24.773576 -3.548334 50.485684
43.799214 -24.480215 49.845755
27.874034 -5.601636 15.327830
50.484751 -52.869148 59.730195
26.876488 -4.902899 54.078671
50.413873 -50.407949 6.011233
50.462803 -51.769184 8.772029
27.376156 -5.247074 17.100118
33.232316 -10.074050 33.940652
50.475546 -54.988564 37.561186
49.088972 -39.745301 20.249129
26.244166 -4.480352 42.100069
35.673916 -12.593664 13.702056
24.936688 -3.649671 17.569738
42.134241 -21.426841 38.631529
38.410517 -15.881279 12.248606
41.473617 -20.330288 30.370550
32.406401 -9.296814 40.293469
38.900582 -16.529562 47.524052
37.428681 -14.635803 63.894947
49.475852 -41.762553 42.246509
35.428405 -12.323119 53.904722
44.226021 -25.341269 52.154502
31.159397 -8.184910 25.476467
25.975254 -4.304327 8.753271
26.584089 -4.702861 20.472098
40.456284 -18.744430 20.098498
34.006095 -10.835258 22.982704
49.960982 -45.037864 58.519831
48.929146 -38.989192 32.629581
49.111628 -39.855995 32.710198
37.559125 -14.795758 43.486517
48.681731 -37.898592 59.940590
46.354384 -30.285375 49.951215
50.386407 -49.809642 25.304613
50.083184 -46.080750 32.706927
34.267260 -11.098039 13.732182
49.746155 -43.450815 17.217051
27.488002 -5.324114 4.275928
44.782866 -26.521079 43.278559
48.194148 -35.988763 40.345523
50.484523 -52.812120 16.543363
30.186729 -7.370472 35.690956
31.506348 -8.489022 49.387909
46.780947 -31.451334 49.294838
50.462798 -51.768973 25.765401
50.487631 -54.199231 33.463142
50.386567 -49.812201 39.675258
50.457746 -51.553244 54.533627
46.534607 -30.767390 16.536738
39.802490 -17.785891 45.285372
50.481228 -54.617392 11.358456
30.915376 -7.978319 50.452090
46.083736 -29.580550 54.041642
49.874940 -44.354175 60.404970
44.936364 -26.855810 58.071864
40.398352 -18.656215 17.777609
49.909562 -44.617410 32.410363
47.632573 -34.031072 67.266184
49.942722 -44.888552 29.874649
28.849839 -6.322581 16.245978
25.344839 -3.903243 18.613983
45.719387 -28.676560 31.487999
50.241906 -47.746506 16.636632
42.192020 -21.523797 59.970282
42.674659 -22.370778 67.923168
50.455355 -51.451187 67.547786
45.726251 -28.693369 44.611815
35.202320 -12.075088 26.239306
50.487990 -54.175733 14.550859
40.143575 -18.281200 41.276665
31.022173 -8.067650 27.604063
37.989992 -15.340102 64.512542
33.223333 -10.065415 11.395970
27.000792 -4.988520 12.439750
46.575662 -30.881377 32.840244
30.194223 -7.376450 14.124424
48.626082 -37.673644 16.545624
49.050237 -39.556048 43.398142
50.475364 -55.000428 28.439560
34.646156 -11.489426 8.537518
35.763759 -12.692668 57.802127
35.488754 -12.389621 27.005381
41.689499 -20.680539 32.599896
35.982879 -12.934131 43.099446
26.763715 -4.825220 60.930330
49.939291 -44.860498 10.799464
46.039124 -29.464370 61.158282
49.286140 -40.729989 27.727372
26.110794 -4.393050 25.578734
49.513153 -41.983184 65.517383
31.298758 -8.307065 17.175673
48.997540 -39.298578 26.159319
50.336193 -49.006872 3.693724
50.283656 -48.253728 52.947199
41.634273 -20.587867 50.022295
47.182477 -32.622262 19.661935
42.995483 -22.950801 30.937959
47.006038 -32.098432 66.868411
45.268586 -27.609792 29.235816
49.806197 -43.871978 37.721858
49.259274 -40.583761 49.375558
36.846603 -13.933292 17.249851
33.762127 -10.589780 18.564838
44.924496 -26.829929 26.023972
48.207226 -36.037344 59.569610
49.668551 -42.936356 50.528929
36.700124 -13.760142 33.216096
26.066315 -4.363934 16.408187
43.549747 -23.992318 22.809133
47.983069 -35.221720 21.081786
38.737250 -16.313499 52.580236
30.116594 -7.314522 52.516757
42.919660 -22.810055 7.583753
50.215294 -47.423191 49.637699
49.699767 -43.127824 30.395947
37.859612 -15.175384 32.260129
39.211429 -16.956791 32.638095
50.488093 -54.169014 47.380131
43.908059 -24.693089 54.379265
47.392195 -33.265276 46.874766
48.617966 -37.640841 26.404459
47.204828 -32.688620 11.746446
42.684094 -22.387420 10.774584
49.507349 -41.947589 45.026190
35.029965 -11.893591 39.415171
50.426706 -50.706908 62.692931
50.438148 -50.973452 51.268478
50.009242 -45.432468 53.136651
43.734486 -24.353622 61.041405
41.298560 -20.050573 4.066066
37.475658 -14.692500 17.396316
31.632681 -8.599756 35.357261
50.449781 -51.244456 23.981905
44.579111 -26.076755 44.316898
48.560390 -37.408103 26.840499
50.487723 -54.193219 8.803382
37.155908 -14.306592 23.364422
49.639561 -42.758537 22.070565
27.626293 -5.422267 38.272075
49.526600 -42.065665 38.102718
46.885533 -31.741709 64.563438
46.093363 -29.605622 65.706612
45.545318 -28.250239 47.301884
49.151432 -40.050468 29.999480
42.896519 -22.767102 33.860382
42.085442 -21.344955 61.217633
40.924965 -19.458105 64.119370
46.918692 -31.839108 65.573316
44.729807 -26.405375 18.743793
28.072530 -5.745350 41.811819
50.118004 -46.421388 44.677114
41.844590 -20.940790 23.528137
34.345293 -11.176555 39.497363
41.351802 -20.135645 11.383467
50.126303 -46.502580 12.438352
48.257888 -36.225531 44.740405
50.133613 -46.574091 41.553109
41.510883 -20.389833 67.980861
47.454353 -33.463298 39.158389
50.479583 -52.485670 27.826347
50.454371 -51.409147 55.635857
41.135777 -19.790469 47.946513
28.347529 -5.944455 26.197109
33.310153 -10.148872 5.291957
27.711286 -5.483803 60.937362
47.551742 -33.773561 14.803487
50.303014 -48.488921 23.387740
48.228015 -36.114567 59.941191
49.445224 -41.595848 9.274824
50.025249 -45.563350 57.474974
47.459953 -33.481140 25.412858
50.487112 -53.457330 57.357728
50.463813 -51.812317 66.406807
44.278715 -25.450005 8.222943
42.582820 -22.208781 36.803179
43.798757 -24.479321 12.017613
44.330034 -25.555902 32.510484
31.879175 -8.815814 24.632131
44.997289 -26.988667 13.771263
41.008904 -19.587745 63.190487
50.203452 -47.279324 64.232116
50.202553 -47.268394 8.329216
36.608439 -13.654411 30.097064
36.079707 -13.044684 56.868699
25.606476 -4.065790 31.198028
50.080571 -46.055189 46.921794
47.391360 -33.262614 33.802080
46.268217 -30.060977 63.189083
27.953603 -5.659245 61.115928
47.686044 -34.202302 22.163361
50.339670 -49.062458 62.443817
27.823372 -5.564955 44.584202
34.697923 -11.543939 48.976033
41.762575 -20.803165 17.292178
40.711425 -19.132940 27.568901
25.909669 -4.261396 31.085051
47.205790 -32.691475 40.975646
48.122704 -35.723372 53.656267
42.950833 -22.867920 22.000803
40.300437 -18.508989 34.293648
