-25.129730 -23.682031 38.168889 6.00000000
-53.958866 -24.074808 21.004313 6.00000000
-67.095549 -19.342192 16.768220 6.00000000
-55.928602 -23.565800 29.000763 6.00000000
-19.443114 -21.631594 30.197476 6.00000000
-26.235208 -23.992434 35.372156 6.00000000
-26.130023 -23.964598 60.495812 6.00000000
-68.322109 -18.734820 63.660406 6.00000000
-48.666975 -25.118209 11.112985 6.00000000
-55.904006 -23.572359 7.794582 6.00000000
-64.652422 -20.464623 57.355956 6.00000000
-47.418321 -25.293627 9.685980 6.00000000
-63.755135 -20.846005 28.850260 6.00000000
-58.180884 -22.894623 53.940070 6.00000000
-17.752270 -20.856616 3.123823 6.00000000
-54.390018 -23.969261 47.011155 6.00000000
-59.985896 -22.293277 45.181605 6.00000000
-68.048636 -18.870696 4.573210 6.00000000
-29.988404 -24.849426 63.689219 6.00000000
-62.339036 -21.421727 4.433555 6.00000000
-29.282559 -24.713111 13.301345 6.00000000
-33.206815 -25.354674 26.305721 6.00000000
-20.153792 -21.929667 18.018768 6.00000000
-72.364178 -16.514857 62.914338 6.00000000
-37.620043 -25.726298 30.996294 6.00000000
-58.963162 -22.640235 19.026339 6.00000000
-47.025675 -25.343411 57.153875 6.00000000
-66.694276 -19.531827 11.918887 6.00000000
-22.207805 -22.726077 41.397665 6.00000000
-63.199192 -21.076184 8.460219 6.00000000
-41.001552 -25.769665 56.969740 6.00000000
-24.382184 -23.456490 20.936605 6.00000000
-68.389136 -18.701517 57.820307 6.00000000
-27.713493 -24.365605 37.245072 6.00000000
-43.736395 -25.653615 29.877471 6.00000000
-58.721927 -22.720637 34.835377 6.00000000
-30.824532 -25.000315 33.574733 6.00000000
-45.870250 -25.474579 5.112532 6.00000000
-45.728816 -25.487862 66.888915 6.00000000
-21.118465 -22.316837 44.355749 6.00000000
-43.685883 -25.657275 41.370633 6.00000000
-16.504623 -20.236692 40.328751 6.00000000
-30.206602 -24.891565 29.310065 6.00000000
-45.857468 -25.475780 39.768369 6.00000000
-58.669371 -22.738153 56.020136 6.00000000
-32.634176 -25.282326 34.428828 6.00000000
-25.008508 -23.646970 27.692593 6.00000000
-27.779023 -24.381362 8.478653 6.00000000
-54.138240 -24.030897 3.502458 6.00000000
-70.911639 -17.353290 12.837653 6.00000000
-73.257063 -15.980960 28.356166 6.00000000
-52.928051 -24.315779 37.248031 6.00000000
-51.510087 -24.617120 57.805826 6.00000000
-62.891039 -21.199976 59.983128 6.00000000
-41.043381 -25.769336 38.393381 6.00000000
-62.051468 -21.533469 3.296276 6.00000000
-22.861766 -22.958191 37.174630 6.00000000
-64.115777 -20.692718 41.748393 6.00000000
-60.983872 -21.937739 4.422740 6.00000000
-63.060444 -21.131922 57.061027 6.00000000
-70.412562 -17.627427 21.626734 6.00000000
-24.688021 -23.552600 65.812010 6.00000000
-71.593903 -16.963027 17.931987 6.00000000
-68.227716 -18.781720 42.076943 6.00000000
-39.864810 -25.778604 34.739614 6.00000000
-47.495826 -25.283025 17.015977 6.00000000
-43.596985 -25.663717 52.774078 6.00000000
-22.499847 -22.832887 35.574342 6.00000000
-57.953059 -22.965458 43.840476 6.00000000
-70.461336 -17.600770 17.814499 6.00000000
-17.652993 -20.809390 47.636369 6.00000000
-58.064689 -22.930750 60.256724 6.00000000
-62.448124 -21.377904 33.437694 6.00000000
-52.266429 -24.463343 49.350393 6.00000000
-16.079300 -20.011871 31.349855 6.00000000
-47.306450 -25.308931 32.217412 6.00000000
-35.728463 -25.610797 64.146899 6.00000000
-68.976456 -18.395771 16.750301 6.00000000
-22.006844 -22.652580 9.617578 6.00000000
-29.397675 -24.735343 59.173392 6.00000000
-60.886953 -21.972617 11.437587 6.00000000
-17.115386 -20.545102 6.264053 6.00000000
-16.793805 -20.382716 16.053300 6.00000000
-41.015990 -25.769551 21.851676 6.00000000
-65.254154 -20.195888 5.294609 6.00000000
-40.117766 -25.776615 4.880032 6.00000000
-57.049587 -23.242779 35.448964 6.00000000
-58.472584 -22.803741 47.628299 6.00000000
-72.764428 -16.275529 27.645544 6.00000000
-31.219690 -25.067463 3.670979 6.00000000
-59.213576 -22.556773 16.253366 6.00000000
-66.993698 -19.390325 55.393355 6.00000000
-70.832575 -17.397872 6.786946 6.00000000
-28.699297 -24.588135 20.906293 6.00000000
-53.261499 -24.241408 32.063613 6.00000000
-67.732425 -19.027806 8.253069 6.00000000
-29.234123 -24.703757 56.367400 6.00000000
-41.706660 -25.749971 63.834077 6.00000000
-37.385995 -25.717168 25.766614 6.00000000
-33.617893 -25.405784 32.852548 6.00000000
-27.885234 -24.406900 59.085549 6.00000000
-71.233811 -17.169004 50.058617 6.00000000
-47.127370 -25.331680 38.329047 6.00000000
-63.326025 -21.025233 11.491387 6.00000000
-26.758610 -24.130950 41.271657 6.00000000
-56.834683 -23.304827 28.552183 6.00000000
-28.043286 -24.444904 50.549116 6.00000000
-25.139047 -23.684726 56.885673 6.00000000
-62.611102 -21.312432 26.425754 6.00000000
-68.823796 -18.475383 53.488774 6.00000000
-45.065894 -25.550120 15.574812 6.00000000
-37.525866 -25.722944 17.923804 6.00000000
-44.692863 -25.584303 5.746883 6.00000000
-50.749559 -24.765991 47.661472 6.00000000
-24.545075 -23.507678 41.552690 6.00000000
-20.930735 -22.243195 56.632331 6.00000000
-72.868472 -16.213317 63.282638 6.00000000
-19.374871 -21.601181 33.596825 6.00000000
-69.795836 -17.964492 15.790499 6.00000000
-35.158230 -25.565393 23.042584 6.00000000
-18.868212 -21.374598 41.442878 6.00000000
-50.994480 -24.720948 15.306691 6.00000000
-26.507930 -24.064609 29.417200 6.00000000
-52.050840 -24.508229 13.266592 6.00000000
-68.060759 -18.864673 37.428711 6.00000000
-61.033986 -21.918762 4.064198 6.00000000
-25.797807 -23.875262 32.085888 6.00000000
-18.716225 -21.306627 13.906153 6.00000000
-43.327303 -25.679540 19.704502 6.00000000
-23.669290 -23.232462 40.497943 6.00000000
-31.462583 -25.108737 31.500598 6.00000000
-26.842629 -24.153185 16.465147 6.00000000
-39.520252 -25.774479 43.001199 6.00000000
-15.875943 -19.903067 67.410225 6.00000000
-67.692301 -19.047742 23.779363 6.00000000
-31.287281 -25.078948 44.498311 6.00000000
-53.439985 -24.201600 17.901706 6.00000000
-57.130962 -23.219284 33.855835 6.00000000
-72.709465 -16.308394 4.153433 6.00000000
-21.343916 -22.405277 19.486837 6.00000000
-69.173531 -18.292996 9.313645 6.00000000
-65.134751 -20.249459 39.721235 6.00000000
-19.200860 -21.523361 41.315420 6.00000000
-53.945247 -24.078142 33.881933 6.00000000
-29.731807 -24.799871 12.056150 6.00000000
-62.172327 -21.487703 7.446035 6.00000000
-46.234851 -25.434634 15.568027 6.00000000
-67.436639 -19.174769 41.181015 6.00000000
-64.380707 -20.580113 41.130757 6.00000000
-29.342830 -24.724751 55.679401 6.00000000
-57.830519 -23.003558 26.340854 6.00000000
-67.359189 -19.213250 63.588122 6.00000000
-68.772176 -18.502303 63.669926 6.00000000
-67.870278 -18.959314 13.096534 6.00000000
-47.710814 -25.253615 45.139252 6.00000000
-30.786745 -24.993894 30.748075 6.00000000
-56.917377 -23.280951 40.436380 6.00000000
-45.947345 -25.467339 33.533414 6.00000000
-51.763503 -24.566090 36.363718 6.00000000
-47.131647 -25.331187 26.235244 6.00000000
-54.899626 -23.840222 25.309666 6.00000000
-36.304557 -25.654935 11.137475 6.00000000
-26.968409 -24.186448 67.540420 6.00000000
-55.376774 -23.712969 30.482855 6.00000000
-56.451546 -23.415449 47.389857 6.00000000
-50.642168 -24.785299 65.776319 6.00000000
-64.598514 -20.487536 13.512785 6.00000000
-35.494434 -25.592163 4.317231 6.00000000
-53.801356 -24.113367 12.644679 6.00000000
-63.848481 -20.806330 66.624264 6.00000000
-51.989390 -24.520603 35.493974 6.00000000
-19.939423 -21.839756 61.406727 6.00000000
-64.144330 -20.680582 25.324290 6.00000000
-63.617866 -20.904350 17.414231 6.00000000
-46.741183 -25.376227 10.062526 6.00000000
-51.269666 -24.665534 60.258089 6.00000000
-55.803405 -23.599189 29.444036 6.00000000
-48.778381 -25.100577 6.383786 6.00000000
-61.159860 -21.871097 56.644682 6.00000000
-73.183594 -16.024891 32.355368 6.00000000
-63.654173 -20.888918 46.798663 6.00000000
-25.557778 -23.805837 47.791830 6.00000000
-43.678592 -25.657804 26.435403 6.00000000
-49.848432 -24.928002 12.709179 6.00000000
-36.697321 -25.677537 66.762760 6.00000000
-46.161214 -25.443128 45.532821 6.00000000
-67.933501 -18.927901 36.555429 6.00000000
-34.331691 -25.483873 9.294040 6.00000000
-24.141318 -23.380797 12.677590 6.00000000
-42.063069 -25.739472 5.562178 6.00000000
-39.663411 -25.776458 5.552962 6.00000000
-51.757153 -24.567369 9.576473 6.00000000
-36.073958 -25.638307 40.635936 6.00000000
-63.000558 -21.155980 39.207551 6.00000000
-28.377950 -24.518524 18.781273 6.00000000
-22.233673 -22.735538 49.957999 6.00000000
-65.400947 -20.130029 9.461979 6.00000000
-54.626951 -23.911259 60.039598 6.00000000
-71.565614 -16.979209 10.336555 6.00000000
-71.002566 -17.301279 7.376274 6.00000000
-48.647215 -25.121337 32.726263 6.00000000
-35.338603 -25.579755 36.090283 6.00000000
-55.683062 -23.631284 22.582128 6.00000000
-70.094062 -17.801500 44.446866 6.00000000
-26.833955 -24.150890 46.854730 6.00000000
-70.986076 -17.310711 47.394945 6.00000000
-46.723560 -25.378260 53.518640 6.00000000
-16.397367 -20.182049 18.194937 6.00000000
-49.152406 -25.041381 34.492419 6.00000000
-67.620417 -19.083458 36.405985 6.00000000
-22.623721 -22.877318 17.289895 6.00000000
-51.383998 -24.642510 38.772363 6.00000000
-18.937967 -21.405793 20.382584 6.00000000
-49.210844 -25.032132 45.689003 6.00000000
-70.375726 -17.647559 61.373708 6.00000000
-32.320709 -25.236244 7.137009 6.00000000
-68.384724 -18.703709 64.891944 6.00000000
-39.948684 -25.777944 44.410956 6.00000000
-71.777461 -16.858029 65.210335 6.00000000
-61.686350 -21.671729 59.946120 6.00000000
-42.085917 -25.738799 15.741896 6.00000000
-56.585165 -23.376870 30.746929 6.00000000
-47.964620 -25.218896 25.685846 6.00000000
-64.421489 -20.562778 57.830404 6.00000000
-68.110765 -18.839827 44.682062 6.00000000
-44.285269 -25.613840 47.150962 6.00000000
-40.681749 -25.772180 46.347112 6.00000000
-66.335186 -19.701526 65.354077 6.00000000
-39.642253 -25.776166 33.939531 6.00000000
-64.488165 -20.534438 58.391434 6.00000000
-43.371924 -25.677265 51.170924 6.00000000
-22.080049 -22.679353 59.966906 6.00000000
-67.399614 -19.193165 12.894544 6.00000000
-49.160613 -25.040082 59.541901 6.00000000
-38.617383 -25.761822 4.757427 6.00000000
-59.415521 -22.489466 56.540881 6.00000000
-58.829375 -22.684825 13.061808 6.00000000
-54.825087 -23.860101 52.243394 6.00000000
-64.199333 -20.657204 55.274337 6.00000000
-18.532087 -21.224279 60.763184 6.00000000
-49.167014 -25.039069 56.179507 6.00000000
-40.958310 -25.770005 60.353461 6.00000000
-39.758422 -25.777771 12.805992 6.00000000
-35.336482 -25.579586 55.306777 6.00000000
-53.193690 -24.256532 9.936148 6.00000000
-65.390825 -20.134570 19.219088 6.00000000
-38.178191 -25.746179 27.652155 6.00000000
-57.745085 -23.030121 3.563479 6.00000000
-27.690157 -24.359994 63.502179 6.00000000
-68.640882 -18.570773 18.175010 6.00000000
-38.619885 -25.761911 63.704125 6.00000000
-43.360100 -25.677867 54.602985 6.00000000
-63.369710 -21.007683 50.430488 6.00000000
-57.248175 -23.184619 58.361614 6.00000000
-59.631049 -22.417632 35.451814 6.00000000
-54.664557 -23.902053 50.097405 6.00000000
-19.393792 -21.609643 8.059441 6.00000000
-59.471059 -22.470956 65.917892 6.00000000
-45.740836 -25.486733 49.393835 6.00000000
-17.450829 -20.713219 66.295167 6.00000000
-23.480344 -23.168344 65.492638 6.00000000
-53.314271 -24.229638 19.677914 6.00000000
-36.214857 -25.649526 66.417840 6.00000000
-66.971062 -19.401022 31.137690 6.00000000
-61.289960 -21.821832 53.344407 6.00000000
-42.861349 -25.703297 41.568781 6.00000000
-56.417495 -23.425280 45.264688 6.00000000
-46.394055 -25.416269 54.998476 6.00000000
-72.630781 -16.355443 43.518409 6.00000000
-40.086232 -25.776863 14.107473 6.00000000
-62.408116 -21.393976 23.477361 6.00000000
-40.675357 -25.772230 17.308233 6.00000000
-44.143890 -25.624085 20.251361 6.00000000
-17.246963 -20.611542 42.132097 6.00000000
-32.337424 -25.238702 20.088084 6.00000000
-17.145891 -20.560506 13.664939 6.00000000
-31.966321 -25.184148 9.945195 6.00000000
-33.312639 -25.367831 36.759653 6.00000000
-47.698159 -25.255347 46.900774 6.00000000
-62.935140 -21.182260 53.919754 6.00000000
-33.848368 -25.434439 7.368074 6.00000000
-38.153447 -25.745297 35.309215 6.00000000
-23.842494 -23.286892 58.563203 6.00000000
-53.275854 -24.238207 38.807619 6.00000000
-45.086085 -25.548224 60.576600 6.00000000
-47.045903 -25.341077 5.767977 6.00000000
-71.998768 -16.731439 24.721210 6.00000000
-43.380053 -25.676850 44.127506 6.00000000
-36.049177 -25.636334 43.664449 6.00000000
-18.898787 -21.388271 26.135379 6.00000000
-26.206797 -23.984916 25.820741 6.00000000
-46.848629 -25.363833 61.175123 6.00000000
-28.131254 -24.465084 37.165792 6.00000000
-18.050470 -20.998472 31.359008 6.00000000
-40.708290 -25.771971 53.061876 6.00000000
-40.944809 -25.770111 42.614805 6.00000000
-67.965500 -18.912003 62.667086 6.00000000
-59.023102 -22.620257 8.965346 6.00000000
-55.551444 -23.666386 67.110943 6.00000000
-34.084961 -25.458736 3.023035 6.00000000
-58.468148 -22.805220 35.252829 6.00000000
-15.984218 -19.960998 58.104463 6.00000000
-29.570038 -24.768630 37.922930 6.00000000
-60.487251 -22.114859 54.617816 6.00000000
-27.400438 -24.290330 7.772843 6.00000000
-25.689848 -23.844036 46.884357 6.00000000
-47.737968 -25.249901 15.324055 6.00000000
-29.496765 -24.754479 37.443302 6.00000000
-72.763185 -16.276272 26.504843 6.00000000
-25.103890 -23.674557 14.315513 6.00000000
-62.874248 -21.206721 66.679850 6.00000000
-22.005307 -22.652017 47.047186 6.00000000
-65.419416 -20.121742 39.607003 6.00000000
-59.108952 -22.591644 7.174513 6.00000000
-68.558823 -18.613567 29.873333 6.00000000
-67.163414 -19.310120 58.026937 6.00000000
-50.659233 -24.782231 29.246090 6.00000000
-32.358566 -25.241810 39.200367 6.00000000
-57.227719 -23.190979 62.643772 6.00000000
-41.248809 -25.763459 67.914128 6.00000000
-62.028936 -21.542001 35.913718 6.00000000
-51.773376 -24.564102 60.132885 6.00000000
-37.786391 -25.732223 25.231615 6.00000000
-64.227247 -20.645339 63.750356 6.00000000
-55.485585 -23.683950 50.377324 6.00000000
-55.686209 -23.630445 65.156584 6.00000000
-64.129220 -20.687004 10.303683 6.00000000
-26.819014 -24.146935 42.498535 6.00000000
-51.452389 -24.628739 64.413827 6.00000000
-53.994653 -24.066048 16.791868 6.00000000
-59.729785 -22.384420 40.721040 6.00000000
-61.453602 -21.759865 55.594935 6.00000000
-20.420090 -22.041358 67.008598 6.00000000
-55.710374 -23.624000 66.528489 6.00000000
-64.962212 -20.326869 11.599206 6.00000000
-44.936765 -25.562247 17.562575 6.00000000
-38.100669 -25.743418 28.461983 6.00000000
-65.831405 -19.936901 57.641575 6.00000000
-67.188706 -19.297955 46.073344 6.00000000
-53.305836 -24.231519 46.620300 6.00000000
-66.503445 -19.622010 45.584717 6.00000000
-51.087216 -24.702274 53.891490 6.00000000
-38.913800 -25.766096 48.075460 6.00000000
-65.113439 -20.259020 18.236646 6.00000000
-61.793447 -21.631174 15.019754 6.00000000
-67.203583 -19.290563 44.182080 6.00000000
-61.210881 -21.851777 45.425976 6.00000000
-36.120340 -25.642000 16.287251 6.00000000
-57.400766 -23.137176 65.913783 6.00000000
-48.582136 -25.131637 57.019739 6.00000000
-27.396939 -24.289489 6.257093 6.00000000
-61.817251 -21.622160 39.355419 6.00000000
-59.984217 -22.293875 52.159677 6.00000000
-62.220239 -21.469450 17.924987 6.00000000
-25.611870 -23.821482 60.092783 6.00000000
-59.256155 -22.542582 27.232343 6.00000000
-58.061609 -22.931708 30.653911 6.00000000
-16.214824 -20.084382 52.634872 6.00000000
-51.547213 -24.609644 26.999250 6.00000000
-19.562176 -21.681531 6.781883 6.00000000
-33.329374 -25.369912 42.103277 6.00000000
-41.619192 -25.752548 30.359163 6.00000000
-58.507579 -22.792077 18.723227 6.00000000
-67.190920 -19.296855 31.448814 6.00000000
-40.703359 -25.772010 66.527107 6.00000000
-68.708564 -18.535477 20.011544 6.00000000
-23.954988 -23.322243 21.024188 6.00000000
-53.017799 -24.295762 7.827969 6.00000000
-48.046335 -25.207717 59.876592 6.00000000
-35.562983 -25.597621 30.317836 6.00000000
-69.627964 -18.056010 6.788395 6.00000000
-31.466430 -25.109391 17.230928 6.00000000
-26.106770 -23.958444 6.699794 6.00000000
-64.731593 -20.430337 35.413895 6.00000000
-49.578416 -24.973956 30.919627 6.00000000
-26.668646 -24.107141 19.618860 6.00000000
-25.528007 -23.797226 32.716113 6.00000000
-44.469153 -25.600514 39.496262 6.00000000
-71.055230 -17.271155 51.595324 6.00000000
-64.705138 -20.442206 35.000916 6.00000000
-67.100045 -19.340067 8.220318 6.00000000
-44.815841 -25.573603 35.042328 6.00000000
-51.877230 -24.543189 54.244398 6.00000000
-52.149883 -24.488285 60.036559 6.00000000
-64.739148 -20.426948 44.762290 6.00000000
-20.765279 -22.178290 14.619333 6.00000000
-70.728741 -17.454622 29.353194 6.00000000
-55.801038 -23.599820 62.067981 6.00000000
-23.535520 -23.187090 45.686966 6.00000000
-27.393417 -24.288642 7.400640 6.00000000
-31.122959 -25.051025 30.557393 6.00000000
-19.426239 -21.624154 4.266772 6.00000000
-45.700393 -25.490531 32.340166 6.00000000
-18.277699 -21.106565 66.635148 6.00000000
-72.204366 -16.610415 30.052112 6.00000000
-30.633945 -24.967929 29.502141 6.00000000
-21.217062 -22.355515 8.416185 6.00000000
-69.872838 -17.922408 56.385345 6.00000000
-69.637847 -18.050840 53.065097 6.00000000
-35.450238 -25.588644 9.693726 6.00000000
-69.680699 -18.027420 18.897253 6.00000000
-64.574077 -20.497922 46.587300 6.00000000
-56.266028 -23.469013 62.982469 6.00000000
-20.131642 -21.920377 23.461022 6.00000000
-62.619088 -21.309224 28.307314 6.00000000
-19.721933 -21.748536 42.136860 6.00000000
-24.093312 -23.365712 11.431567 6.00000000
-73.025124 -16.119648 5.851314 6.00000000
-48.782715 -25.099891 3.800960 6.00000000
-36.184231 -25.647087 24.128373 6.00000000
-49.024302 -25.061656 40.542559 6.00000000
-48.242353 -25.180903 36.026137 6.00000000
-73.211919 -16.007954 16.916164 6.00000000
-45.651531 -25.495120 67.362211 6.00000000
-43.782609 -25.650266 51.021556 6.00000000
-52.516539 -24.407560 39.108439 6.00000000
-53.713629 -24.134843 5.582337 6.00000000
-48.197354 -25.187059 44.130218 6.00000000
-58.585934 -22.765962 32.139503 6.00000000
-49.175938 -25.037656 27.089551 6.00000000
-40.195821 -25.776001 34.849330 6.00000000
-54.204773 -24.014610 64.078458 6.00000000
-64.458766 -20.546935 59.463071 6.00000000
-51.956927 -24.527140 4.749156 6.00000000
-19.058708 -21.459789 8.025933 6.00000000
-30.502588 -24.945608 24.684162 6.00000000
-29.152332 -24.686273 48.348297 6.00000000
-57.351510 -23.152490 5.469281 6.00000000
-46.363022 -25.419849 31.050861 6.00000000
-42.780026 -25.707444 7.429222 6.00000000
-48.868571 -25.086303 4.359754 6.00000000
-67.511567 -19.137541 39.231908 6.00000000
-25.068401 -23.664293 18.010017 6.00000000
-72.786028 -16.262614 35.180653 6.00000000
-70.812973 -17.408585 35.544371 6.00000000
-67.092516 -19.343625 18.591765 6.00000000
-54.338374 -23.981904 30.672028 6.00000000
-52.814700 -24.341060 5.677133 6.00000000
-20.233296 -21.963013 42.135676 6.00000000
-49.131650 -25.044666 54.044170 6.00000000
-71.027838 -17.286823 51.244352 6.00000000
-54.093490 -24.041852 10.448262 6.00000000
-57.459176 -23.119015 15.230701 6.00000000
-47.930420 -25.223574 19.186774 6.00000000
-42.347272 -25.729509 3.780927 6.00000000
-35.427087 -25.586800 52.649296 6.00000000
-65.200958 -20.219755 21.201653 6.00000000
-42.945953 -25.698984 4.803752 6.00000000
-73.220692 -16.002708 33.229089 6.00000000
-27.024405 -24.199912 41.566139 6.00000000
-53.370945 -24.216998 40.502909 6.00000000
-67.848021 -18.970372 48.368489 6.00000000
-26.900797 -24.168579 47.931431 6.00000000
-54.072724 -24.046936 32.726526 6.00000000
-58.520798 -22.787672 66.910427 6.00000000
-49.863382 -24.925315 38.026450 6.00000000
-68.562044 -18.611887 32.119652 6.00000000
-19.567403 -21.683723 41.546151 6.00000000
-30.646128 -24.969999 9.246090 6.00000000
-48.152482 -25.193197 36.706005 6.00000000
-60.934398 -21.955732 35.042498 6.00000000
-39.932054 -25.778075 8.142641 6.00000000
-58.202734 -22.887829 33.194891 6.00000000
-36.113817 -25.641481 12.064880 6.00000000
-17.218128 -20.596982 39.727781 6.00000000
-20.043684 -21.883485 15.695834 6.00000000
-72.072757 -16.689111 64.457598 6.00000000
-41.614833 -25.752677 5.780590 6.00000000
-67.658823 -19.064376 33.980564 6.00000000
-33.465745 -25.386867 54.744900 6.00000000
-20.443578 -22.051210 56.010709 6.00000000
-17.219082 -20.597464 55.735272 6.00000000
-16.883828 -20.428175 17.079887 6.00000000
-17.895553 -20.924777 22.314383 6.00000000
-22.974563 -22.996512 59.559131 6.00000000
-63.871807 -20.796415 62.097351 6.00000000
-30.991833 -25.028744 35.644264 6.00000000
-29.032980 -24.660419 65.398391 6.00000000
-27.318491 -24.270626 66.985722 6.00000000
-33.025153 -25.332088 11.375965 6.00000000
-17.397361 -20.687488 9.930004 6.00000000
-29.324339 -24.721180 5.858792 6.00000000
-24.813645 -23.590609 50.161304 6.00000000
-67.552355 -19.117275 14.485132 6.00000000
-17.779319 -20.869484 52.355663 6.00000000
-67.667874 -19.059879 28.379415 6.00000000
-71.699189 -16.902802 46.834979 6.00000000
-62.445993 -21.378760 50.319626 6.00000000
-66.279390 -19.727894 23.095271 6.00000000
-53.755755 -24.124531 8.513689 6.00000000
-66.300477 -19.717929 4.004460 6.00000000
-54.017150 -24.060540 32.335303 6.00000000
-40.269088 -25.775425 29.302088 6.00000000
-67.662008 -19.062793 23.081945 6.00000000
-69.584250 -18.078807 34.618374 6.00000000
-54.367237 -23.974838 7.373423 6.00000000
-67.963319 -18.913086 11.594700 6.00000000
-52.833612 -24.336842 45.876868 6.00000000
-71.148567 -17.217765 63.696482 6.00000000
-72.832082 -16.235076 22.648478 6.00000000
-34.305157 -25.481169 46.913639 6.00000000
-26.770288 -24.134040 4.683223 6.00000000
-29.155288 -24.686913 16.950623 6.00000000
-17.453980 -20.714718 30.354598 6.00000000
-55.480796 -23.685227 52.709472 6.00000000
-69.430601 -18.158935 63.696086 6.00000000
-68.163778 -18.813487 56.779381 6.00000000
-36.440339 -25.662749 18.245159 6.00000000
-28.945324 -24.641430 24.818344 6.00000000
-37.095500 -25.700451 50.891538 6.00000000
-62.643860 -21.299273 6.559889 6.00000000
-44.451313 -25.601807 54.832749 6.00000000
-46.676849 -25.383648 67.990851 6.00000000
-36.204821 -25.648727 27.183624 6.00000000
-56.865481 -23.295935 8.087378 6.00000000
-34.843061 -25.535970 10.787160 6.00000000
-26.841299 -24.152833 49.257760 6.00000000
-54.534591 -23.933869 66.093636 6.00000000
-50.713670 -24.772444 34.394743 6.00000000
-51.730044 -24.572827 6.612381 6.00000000
-52.972371 -24.305894 48.025059 6.00000000
-16.732752 -20.351887 46.626651 6.00000000
-47.744904 -25.248952 60.805414 6.00000000
-20.600899 -22.113808 16.679576 6.00000000
-24.276555 -23.423296 21.317748 6.00000000
-46.353868 -25.420905 46.831293 6.00000000
-33.744629 -25.421541 17.360961 6.00000000
-71.821918 -16.832599 34.871558 6.00000000
-26.399270 -24.035853 36.145849 6.00000000
-64.013567 -20.736161 54.299120 6.00000000
-50.841803 -24.749407 40.487034 6.00000000
-64.187072 -20.662415 5.722938 6.00000000
-64.971232 -20.322822 18.604895 6.00000000
-68.137198 -18.826694 16.920403 6.00000000
-72.177604 -16.626418 34.083344 6.00000000
-20.539630 -22.089773 39.623198 6.00000000
-21.622983 -22.512189 62.904117 6.00000000
-34.905086 -25.542289 60.856416 6.00000000
-44.913215 -25.564458 16.346363 6.00000000
-67.910565 -18.939297 60.290122 6.00000000
-50.228464 -24.859678 13.711887 6.00000000
-62.264887 -21.451514 35.280167 6.00000000
-36.754039 -25.680801 40.128443 6.00000000
-57.858180 -22.994957 29.392619 6.00000000
-46.697408 -25.381277 9.659283 6.00000000
-19.984302 -21.858579 24.844155 6.00000000
-67.392785 -19.196558 64.499741 6.00000000
-37.667274 -25.727981 36.874692 6.00000000
-63.551125 -20.932718 45.940737 6.00000000
-46.611923 -25.391138 32.643660 6.00000000
-30.927903 -25.017880 48.640879 6.00000000
-41.891633 -25.744522 62.062982 6.00000000
-38.641134 -25.762326 56.523117 6.00000000
-27.869758 -24.403179 51.451320 6.00000000
-17.143210 -20.559152 24.403269 6.00000000
-49.651488 -24.962391 3.079217 6.00000000
-25.322997 -23.737931 33.763964 6.00000000
-58.014575 -22.946331 19.955309 6.00000000
-53.259409 -24.241874 24.320892 6.00000000
-64.593680 -20.489590 50.392858 6.00000000
-47.599588 -25.268831 55.566156 6.00000000
-16.455931 -20.212104 34.782792 6.00000000
-29.009797 -24.655397 17.871079 6.00000000
-51.518796 -24.615366 67.058851 6.00000000
-28.229086 -24.486277 14.977139 6.00000000
-61.096009 -21.895276 57.541912 6.00000000
-18.172465 -21.056505 55.853997 6.00000000
-59.904097 -22.322387 26.206098 6.00000000
-22.356314 -22.780392 42.313849 6.00000000
-31.356244 -25.090667 24.545303 6.00000000
-42.492316 -25.722113 62.313695 6.00000000
-68.671785 -18.554657 58.535582 6.00000000
-46.911029 -25.356635 23.307806 6.00000000
-59.907064 -22.321331 49.458594 6.00000000
-69.090912 -18.336082 57.950193 6.00000000
-21.613407 -22.508687 53.002402 6.00000000
-42.261745 -25.733619 36.486196 6.00000000
-63.484713 -20.960946 40.252849 6.00000000
-57.553521 -23.089681 4.460606 6.00000000
-50.741495 -24.767441 8.420924 6.00000000
-44.146871 -25.623869 59.888565 6.00000000
-68.289020 -18.751260 36.012713 6.00000000
-30.826447 -25.000640 20.172090 6.00000000
-50.316844 -24.843788 4.203420 6.00000000
-45.270796 -25.530877 34.771245 6.00000000
-27.655533 -24.351668 12.405746 6.00000000
-42.610179 -25.716104 67.649647 6.00000000
-61.635168 -21.691111 7.605399 6.00000000
-18.313196 -21.123452 53.737359 6.00000000
-65.416743 -20.122942 33.824203 6.00000000
-73.279255 -15.967691 49.726865 6.00000000
-18.441894 -21.183943 40.834092 6.00000000
-70.799175 -17.416127 63.797802 6.00000000
-71.322754 -17.118128 51.091852 6.00000000
-16.374234 -20.169672 34.007352 6.00000000
-20.834869 -22.205589 31.466280 6.00000000
-51.880988 -24.542432 52.751560 6.00000000
-24.542483 -23.506864 19.373288 6.00000000
-35.559353 -25.597332 47.751161 6.00000000
-35.232560 -25.571311 52.236354 6.00000000
-19.967834 -21.851672 35.698095 6.00000000
-54.449519 -23.954695 49.633819 6.00000000
-56.754668 -23.327930 53.851816 6.00000000
-25.102246 -23.674082 49.255814 6.00000000
-40.305667 -25.775137 22.015425 6.00000000
-38.015661 -25.740390 33.598330 6.00000000
-38.116705 -25.743989 66.114575 6.00000000
-39.691884 -25.776852 48.265771 6.00000000
-47.504271 -25.281870 36.773459 6.00000000
-50.600850 -24.792727 31.153074 6.00000000
-38.052079 -25.741687 41.631728 6.00000000
-71.526812 -17.001404 58.417608 6.00000000
-29.002313 -24.653775 8.615870 6.00000000
-27.564947 -24.329887 42.940164 6.00000000
-16.963863 -20.468589 62.790712 6.00000000
-21.433458 -22.440402 20.406901 6.00000000
-59.862077 -22.337341 43.950593 6.00000000
-15.923141 -19.928320 65.133026 6.00000000
-64.718415 -20.436250 42.176777 6.00000000
-20.335851 -22.006026 12.871816 6.00000000
-57.278204 -23.175282 6.220149 6.00000000
-40.612787 -25.772722 42.403797 6.00000000
-19.118783 -21.486656 66.027304 6.00000000
-64.733367 -20.429541 9.525573 6.00000000
-60.272742 -22.191197 57.512112 6.00000000
-38.511405 -25.758047 46.826649 6.00000000
-67.088593 -19.345479 7.405975 6.00000000
-28.412176 -24.525938 31.517418 6.00000000
-35.231329 -25.571213 22.355997 6.00000000
-26.476653 -24.056331 9.594830 6.00000000
-37.373783 -25.716465 54.178311 6.00000000
-54.848517 -23.853852 21.733033 6.00000000
-48.870891 -25.085936 40.245072 6.00000000
-50.809038 -24.755298 49.882880 6.00000000
-45.358274 -25.522661 62.950428 6.00000000
-48.172838 -25.190412 65.773359 6.00000000
-35.754453 -25.612867 43.393328 6.00000000
-40.280398 -25.775336 60.614092 6.00000000
-25.328668 -23.739571 36.382941 6.00000000
-17.366351 -20.671829 26.820807 6.00000000
-59.546569 -22.445789 65.529033 6.00000000
-16.194750 -20.073641 67.723751 6.00000000
-29.960265 -24.843992 12.453203 6.00000000
-59.554807 -22.443043 52.389375 6.00000000
-42.995076 -25.696479 26.130529 6.00000000
-33.944453 -25.444422 56.304628 6.00000000
-22.354723 -22.779810 66.640178 6.00000000
-43.671587 -25.658311 65.899479 6.00000000
-39.360145 -25.772266 31.727646 6.00000000
-29.345249 -24.725218 50.726067 6.00000000
-27.479275 -24.309287 29.196869 6.00000000
-69.005733 -18.380503 63.050744 6.00000000
-45.273079 -25.530662 64.173122 6.00000000
-63.948688 -20.763738 52.475072 6.00000000
-35.776004 -25.614582 14.838034 6.00000000
-39.647736 -25.776241 53.358323 6.00000000
-20.520798 -22.082386 63.264727 6.00000000
-70.561148 -17.546218 50.103658 6.00000000
-71.245647 -17.162234 31.988684 6.00000000
-59.093704 -22.596726 18.671102 6.00000000
-46.964276 -25.350493 35.496115 6.00000000
-28.785235 -24.606751 65.123703 6.00000000
-22.862442 -22.958420 3.302456 6.00000000
-21.244285 -22.366193 54.259257 6.00000000
-51.943456 -24.529853 58.074773 6.00000000
-33.636664 -25.408117 3.042804 6.00000000
-44.747485 -25.580023 57.960273 6.00000000
-57.269995 -23.177835 16.103536 6.00000000
-59.948073 -22.306737 67.418552 6.00000000
-64.153365 -20.676742 3.100103 6.00000000
-52.186988 -24.480813 45.524605 6.00000000
-30.535315 -24.951169 14.838934 6.00000000
-69.905439 -17.904590 63.831866 6.00000000
-53.525047 -24.181009 50.031392 6.00000000
-70.917661 -17.349846 40.329508 6.00000000
-45.292449 -25.528843 37.084269 6.00000000
-61.416643 -21.773860 62.791224 6.00000000
-17.939569 -20.945715 60.346740 6.00000000
-64.402730 -20.570752 40.617003 6.00000000
-72.450092 -16.463485 51.541052 6.00000000
-18.244783 -21.090907 7.450107 6.00000000
-51.755492 -24.567703 32.908349 6.00000000
-23.368345 -23.130294 34.812413 6.00000000
-46.712949 -25.379484 26.798367 6.00000000
-55.816593 -23.595672 51.530111 6.00000000
-70.073860 -17.812541 4.350821 6.00000000
-52.342461 -24.446385 35.397958 6.00000000
-42.984291 -25.697029 44.057436 6.00000000
-42.540876 -25.719637 30.804925 6.00000000
-24.607087 -23.527166 30.587565 6.00000000
-70.785869 -17.423399 59.156756 6.00000000
-69.044834 -18.360112 38.184115 6.00000000
-17.960037 -20.955452 16.432812 6.00000000
-33.342186 -25.371505 30.299874 6.00000000
-59.960290 -22.302390 43.533037 6.00000000
-41.041664 -25.769349 56.541729 6.00000000
-34.242844 -25.474821 54.709895 6.00000000
-30.109355 -24.872784 41.881098 6.00000000
-20.973258 -22.259876 18.626235 6.00000000
-35.914311 -25.625595 19.546324 6.00000000
-23.906700 -23.307069 45.676503 6.00000000
-36.662065 -25.675509 8.445563 6.00000000
-54.323103 -23.985642 3.041368 6.00000000
-32.526928 -25.266560 48.241449 6.00000000
-61.134337 -21.880762 8.564886 6.00000000
-52.894292 -24.323308 19.891001 6.00000000
-17.241000 -20.608532 14.000094 6.00000000
-45.707869 -25.489829 31.193685 6.00000000
-49.622763 -24.966938 31.335543 6.00000000
-33.106291 -25.342176 39.396136 6.00000000
-44.030333 -25.632314 65.921771 6.00000000
-68.627778 -18.577607 67.928552 6.00000000
-63.094033 -21.118429 59.678207 6.00000000
-60.309810 -22.178005 44.621437 6.00000000
-25.098824 -23.673092 43.209909 6.00000000
-40.981404 -25.769823 58.009548 6.00000000
-31.092341 -25.045823 8.008395 6.00000000
-27.920760 -24.415443 67.479791 6.00000000
-19.413922 -21.618645 36.975786 6.00000000
-50.409123 -24.827197 35.574423 6.00000000
-61.792607 -21.631492 37.831445 6.00000000
-45.256047 -25.532262 17.761321 6.00000000
-20.897580 -22.230189 57.036314 6.00000000
-19.407614 -21.615824 30.730009 6.00000000
-33.113574 -25.343081 42.866464 6.00000000
-52.776472 -24.349586 46.486424 6.00000000
-35.716274 -25.609826 48.323311 6.00000000
-29.509316 -24.756903 4.405917 6.00000000
-36.380716 -25.659318 54.171321 6.00000000
-43.586886 -25.664449 7.497717 6.00000000
-55.564880 -23.662802 47.107605 6.00000000
-24.721501 -23.563121 36.999174 6.00000000
-42.677148 -25.712689 29.840572 6.00000000
-68.989376 -18.389033 9.619374 6.00000000
-43.737951 -25.653502 40.191582 6.00000000
-19.784782 -21.774896 40.768639 6.00000000
-60.785004 -22.008897 47.710988 6.00000000
-54.775258 -23.873390 42.004640 6.00000000
-61.803464 -21.627381 57.464374 6.00000000
-28.061302 -24.449236 58.747802 6.00000000
-26.924184 -24.174768 10.638116 6.00000000
-60.549998 -22.092529 23.945013 6.00000000
-53.522866 -24.181543 4.693886 6.00000000
-54.493446 -23.943942 22.598705 6.00000000
-67.763478 -19.012378 12.515785 6.00000000
-62.536176 -21.342532 58.314605 6.00000000
-32.936366 -25.321049 8.702053 6.00000000
-59.100385 -22.594499 66.330119 6.00000000
-44.848605 -25.570526 21.500967 6.00000000
-71.155549 -17.213771 30.996467 6.00000000
-52.079616 -24.502434 21.193320 6.00000000
-17.538977 -20.755152 23.566457 6.00000000
-28.360481 -24.514740 62.667790 6.00000000
-29.890198 -24.830460 43.901929 6.00000000
-31.583935 -25.127935 21.422822 6.00000000
-65.094845 -20.267363 23.883018 6.00000000
-18.896565 -21.387277 11.230437 6.00000000
-58.148965 -22.904547 26.861450 6.00000000
-39.429669 -25.773227 11.680473 6.00000000
-30.370716 -24.923199 61.373005 6.00000000
-38.161264 -25.745576 57.820420 6.00000000
-25.298360 -23.730804 56.530488 6.00000000
-42.526294 -25.720381 15.642189 6.00000000
-46.647459 -25.387039 15.468122 6.00000000
-66.200855 -19.765008 66.792472 6.00000000
-72.160150 -16.636854 38.809950 6.00000000
-34.480645 -25.499048 40.049462 6.00000000
-19.578587 -21.688414 16.980550 6.00000000
-16.801371 -20.386537 49.686583 6.00000000
-42.910047 -25.700814 43.683476 6.00000000
-31.883268 -25.171939 27.519280 6.00000000
-65.874176 -19.917712 21.227560 6.00000000
-50.828886 -24.751729 24.717474 6.00000000
-52.369644 -24.440322 59.566165 6.00000000
-26.603989 -24.090030 58.487457 6.00000000
-49.150761 -25.041641 19.466420 6.00000000
-21.285663 -22.382425 19.984577 6.00000000
-66.750546 -19.505234 18.639552 6.00000000
-66.638700 -19.558091 62.068343 6.00000000
-24.721558 -23.563139 41.996566 6.00000000
-32.279377 -25.230168 28.558874 6.00000000
-32.806032 -25.304845 67.709789 6.00000000
-65.437982 -20.113413 9.109557 6.00000000
-73.257283 -15.980829 58.950027 6.00000000
-24.547700 -23.508503 22.477703 6.00000000
-56.703554 -23.342688 53.317628 6.00000000
-66.049738 -19.836424 58.086653 6.00000000
-18.472921 -21.197819 41.536834 6.00000000
-35.573240 -25.598438 49.798549 6.00000000
-30.791667 -24.994730 21.720389 6.00000000
-39.537207 -25.774713 4.258354 6.00000000
-48.875858 -25.085150 13.363929 6.00000000
-23.218634 -23.079432 28.272901 6.00000000
-70.687060 -17.477402 63.363664 6.00000000
-31.581219 -25.127536 26.742671 6.00000000
-41.843862 -25.745930 34.917442 6.00000000
-35.717677 -25.609938 44.017164 6.00000000
-23.497459 -23.174159 30.613318 6.00000000
-50.843596 -24.749085 34.961226 6.00000000
-32.107189 -25.204856 40.916055 6.00000000
-26.821175 -24.147507 55.904160 6.00000000
-71.888666 -16.794419 12.573978 6.00000000
-19.614727 -21.703571 11.159791 6.00000000
-15.880807 -19.905670 67.942811 6.00000000
-26.714482 -24.119272 45.436564 6.00000000
-22.085938 -22.681507 53.763060 6.00000000
-63.432188 -20.982585 62.393787 6.00000000
-29.160129 -24.687962 35.540104 6.00000000
-32.038317 -25.194732 6.664653 6.00000000
-35.903049 -25.624698 7.669992 6.00000000
-42.839548 -25.704409 49.726950 6.00000000
-38.075492 -25.742521 30.123785 6.00000000
-24.206341 -23.401231 17.626858 6.00000000
-50.084898 -24.885489 22.806902 6.00000000
-18.107206 -21.025461 15.649621 6.00000000
-16.573986 -20.271717 9.108121 6.00000000
-41.474083 -25.756823 66.725760 6.00000000
-58.585879 -22.765981 63.890355 6.00000000
-56.386706 -23.434170 6.028342 6.00000000
-38.051413 -25.741663 12.069490 6.00000000
-55.279007 -23.739043 49.992243 6.00000000
-45.589387 -25.500956 64.294514 6.00000000
-61.311954 -21.813503 54.929419 6.00000000
-52.745447 -24.356505 63.388301 6.00000000
-64.908314 -20.351051 24.416482 6.00000000
-43.318504 -25.679988 58.130031 6.00000000
-59.911084 -22.319901 59.947668 6.00000000
-28.471653 -24.538823 36.626848 6.00000000
-68.696701 -18.541663 42.655413 6.00000000
-19.734338 -21.753739 23.657962 6.00000000
-21.500462 -22.466686 26.341265 6.00000000
-57.482908 -23.111636 65.097736 6.00000000
-55.362038 -23.716899 62.706929 6.00000000
-21.891420 -22.610365 56.074331 6.00000000
-19.825652 -21.792038 19.054417 6.00000000
-28.775659 -24.604677 16.822795 6.00000000
-43.736029 -25.653641 31.517692 6.00000000
-62.345740 -21.419034 49.430167 6.00000000
-36.502294 -25.666314 40.983767 6.00000000
-63.493614 -20.957162 44.682878 6.00000000
-64.907460 -20.351434 19.459035 6.00000000
-65.371571 -20.143208 37.571031 6.00000000
-52.973752 -24.305586 33.502249 6.00000000
-63.818435 -20.819101 9.244524 6.00000000
-19.310517 -21.572401 53.265680 6.00000000
-37.527052 -25.722986 32.490221 6.00000000
-46.384876 -25.417328 15.199615 6.00000000
-26.383334 -24.031635 62.584309 6.00000000
-61.306425 -21.815597 12.307458 6.00000000
-53.825293 -24.107507 56.260577 6.00000000
-32.982057 -25.326730 27.661481 6.00000000
-38.985938 -25.767093 53.456123 6.00000000
-35.225648 -25.570761 20.004560 6.00000000
-31.939718 -25.180237 55.037989 6.00000000
-34.283151 -25.478928 3.482502 6.00000000
-30.546645 -24.953094 22.045245 6.00000000
-62.821797 -21.227792 6.984558 6.00000000
-30.655520 -24.971595 45.879521 6.00000000
-67.992032 -18.898820 34.840951 6.00000000
-71.201039 -17.187750 35.986210 6.00000000
-24.002195 -23.337078 34.500754 6.00000000
-38.018632 -25.740496 35.621004 6.00000000
-53.404838 -24.209438 38.311704 6.00000000
-23.008244 -23.007955 60.748468 6.00000000
-70.236532 -17.723634 67.305666 6.00000000
-16.393232 -20.179837 28.299359 6.00000000
-44.050347 -25.630864 9.692125 6.00000000
-65.642224 -20.021778 62.493812 6.00000000
-57.254765 -23.182570 47.472412 6.00000000
-40.823562 -25.771064 43.779817 6.00000000
-38.004071 -25.739977 8.083811 6.00000000
-46.413360 -25.414042 58.739201 6.00000000
-19.396347 -21.610786 38.325933 6.00000000
-41.447284 -25.757613 28.092109 6.00000000
-29.796862 -24.812435 48.827481 6.00000000
-35.028473 -25.554859 30.137929 6.00000000
-58.500837 -22.794324 4.144065 6.00000000
-34.493528 -25.500360 15.580936 6.00000000
-65.990302 -19.864512 37.248103 6.00000000
-68.977452 -18.395252 31.229676 6.00000000
-62.053176 -21.532822 64.134616 6.00000000
-55.908173 -23.571248 12.425059 6.00000000
-66.749442 -19.505756 8.605031 6.00000000
-34.381883 -25.488986 5.545480 6.00000000
-71.484702 -17.025491 28.450372 6.00000000
-29.305828 -24.717605 32.239472 6.00000000
-43.333433 -25.679227 18.159458 6.00000000
-20.136117 -21.922254 16.807969 6.00000000
-64.253724 -20.634085 40.187978 6.00000000
-25.903851 -23.904742 6.209525 6.00000000
-67.020517 -19.377651 12.318090 6.00000000
-49.329152 -25.013407 54.343248 6.00000000
-27.411530 -24.292997 26.825055 6.00000000
-67.053390 -19.362115 16.302728 6.00000000
-65.211896 -20.214847 6.989312 6.00000000
-71.074668 -17.260036 18.687063 6.00000000
-40.285802 -25.775293 19.964352 6.00000000
-46.861341 -25.362367 47.626648 6.00000000
-24.302677 -23.431505 14.761967 6.00000000
-30.777810 -24.992375 59.301414 6.00000000
-32.914891 -25.318379 23.244200 6.00000000
-32.778931 -25.301475 58.199443 6.00000000
-21.852476 -22.596122 18.987567 6.00000000
-19.848267 -21.801523 21.178586 6.00000000
-26.065042 -23.947401 10.655007 6.00000000
-41.035843 -25.769395 59.954946 6.00000000
-19.915139 -21.829571 42.411652 6.00000000
-37.965517 -25.738604 7.502181 6.00000000
-23.393003 -23.138672 24.836717 6.00000000
-49.546084 -24.979074 26.558323 6.00000000
-24.506413 -23.495529 57.308159 6.00000000
-45.484937 -25.510766 40.675919 6.00000000
-53.283592 -24.236481 22.453428 6.00000000
-69.774121 -17.976361 18.457983 6.00000000
-22.015852 -22.655874 30.212009 6.00000000
-30.209571 -24.892138 55.281546 6.00000000
-31.004413 -25.030881 63.235615 6.00000000
-54.057020 -24.050780 49.544082 6.00000000
-65.029597 -20.296636 4.364122 6.00000000
-45.665553 -25.493803 20.846284 6.00000000
-34.646260 -25.515920 59.690937 6.00000000
-52.321284 -24.451108 16.285039 6.00000000
-51.186400 -24.682301 9.723458 6.00000000
-18.897783 -21.387822 20.819486 6.00000000
-28.569868 -24.560098 64.687391 6.00000000
-19.422395 -21.622434 37.520391 6.00000000
-54.496664 -23.943154 53.590758 6.00000000
-46.013344 -25.460185 6.876197 6.00000000
-50.196836 -24.865364 7.513620 6.00000000
-25.777645 -23.869430 40.489471 6.00000000
-24.726291 -23.564626 42.463964 6.00000000
-17.132262 -20.553623 28.483622 6.00000000
-70.729944 -17.453964 14.503590 6.00000000
-32.258934 -25.227163 26.806151 6.00000000
-53.842329 -24.103337 51.591781 6.00000000
-31.416733 -25.100946 20.318861 6.00000000
-42.371672 -25.728265 26.222099 6.00000000
-54.643284 -23.907261 19.930230 6.00000000
-68.768376 -18.504285 9.214021 6.00000000
-31.326509 -25.085614 23.707536 6.00000000
-70.532538 -17.561854 63.016983 6.00000000
-43.952899 -25.637926 37.401652 6.00000000
-54.795003 -23.868124 8.316251 6.00000000
-23.142651 -23.053618 55.917151 6.00000000
-24.275172 -23.422861 9.619430 6.00000000
-46.052576 -25.455660 39.316688 6.00000000
-47.653905 -25.261400 53.491495 6.00000000
-21.386486 -22.421976 6.331106 6.00000000
-45.231648 -25.534553 50.895423 6.00000000
-37.702971 -25.729252 53.715477 6.00000000
-44.518233 -25.596958 53.765922 6.00000000
-17.477846 -20.726072 25.899686 6.00000000
-48.864712 -25.086914 45.566152 6.00000000
-63.726983 -20.857971 41.949442 6.00000000
-26.047927 -23.942871 53.541795 6.00000000
-51.547955 -24.609494 3.087217 6.00000000
-48.201260 -25.186525 57.600573 6.00000000
-59.874227 -22.333017 31.014322 6.00000000
-45.437039 -25.515264 4.979146 6.00000000
-38.805940 -25.764605 34.885919 6.00000000
-43.220474 -25.684987 41.446243 6.00000000
-27.816230 -24.390308 45.886136 6.00000000
-48.997483 -25.065900 12.984499 6.00000000
-48.290091 -25.174373 17.788075 6.00000000
-48.743264 -25.106135 54.209241 6.00000000
-62.312003 -21.432587 27.276978 6.00000000
-60.351690 -22.163101 4.469191 6.00000000
-73.091231 -16.080119 31.939752 6.00000000
-44.457880 -25.601331 12.182688 6.00000000
-54.293626 -23.992858 21.966452 6.00000000
-70.241697 -17.720811 60.146341 6.00000000
-22.612990 -22.873672 20.450990 6.00000000
-70.302007 -17.687849 4.100723 6.00000000
-57.162216 -23.210260 28.126423 6.00000000
-44.993394 -25.556928 11.815138 6.00000000
-19.317446 -21.575500 67.414534 6.00000000
-50.201792 -24.864473 31.287082 6.00000000
-46.205895 -25.437974 63.513762 6.00000000
-19.629410 -21.709730 32.778835 6.00000000
-58.423494 -22.819191 3.469617 6.00000000
-30.737825 -24.985581 3.402352 6.00000000
-70.798144 -17.416690 67.125401 6.00000000
-70.841300 -17.393104 22.355427 6.00000000
-34.802766 -25.531865 19.765536 6.00000000
-58.314827 -22.852978 40.996915 6.00000000
-34.611187 -25.512347 5.952253 6.00000000
-38.261875 -25.749159 23.775618 6.00000000
-19.572711 -21.685949 20.880298 6.00000000
-64.929699 -20.341456 67.105675 6.00000000
-65.406736 -20.127431 20.556332 6.00000000
-47.829240 -25.237415 61.217168 6.00000000
-31.574760 -25.126587 38.056483 6.00000000
-54.865386 -23.849353 11.004101 6.00000000
-66.396045 -19.672765 9.543232 6.00000000
-16.430722 -20.199374 28.865881 6.00000000
-23.740783 -23.254929 24.570989 6.00000000
-30.566929 -24.956541 57.598015 6.00000000
-57.922992 -22.974806 7.453933 6.00000000
-25.060186 -23.661917 65.773162 6.00000000
-31.924297 -25.177970 28.880546 6.00000000
-23.100085 -23.039156 3.602596 6.00000000
-43.981569 -25.635848 16.603109 6.00000000
-44.429583 -25.603382 57.385630 6.00000000
-68.492735 -18.648032 3.573297 6.00000000
-34.350934 -25.485833 66.147454 6.00000000
-42.448703 -25.724337 10.866951 6.00000000
-50.334321 -24.840646 49.283508 6.00000000
-60.085045 -22.257993 50.245088 6.00000000
-54.799842 -23.866833 29.923225 6.00000000
-73.276987 -15.969047 61.895575 6.00000000
-39.210830 -25.770202 33.273666 6.00000000
-27.590211 -24.335962 51.051067 6.00000000
-26.947968 -24.181062 32.632532 6.00000000
-23.007450 -23.007685 30.989596 6.00000000
-61.465180 -21.755480 56.252176 6.00000000
-21.536439 -22.480538 37.840822 6.00000000
-30.107455 -24.872417 15.073417 6.00000000
-42.837471 -25.704515 5.838359 6.00000000
-51.017149 -24.716383 4.258354 6.00000000
-24.798201 -23.586142 37.609020 6.00000000
-52.362587 -24.441896 40.124880 6.00000000
-60.900903 -21.967652 59.039631 6.00000000
-19.004089 -21.435363 52.515919 6.00000000
-51.990418 -24.520396 58.732706 6.00000000
-59.091813 -22.597356 10.687170 6.00000000
-24.603062 -23.525901 52.091142 6.00000000
-44.519297 -25.596881 42.043038 6.00000000
-71.149992 -17.216950 45.431386 6.00000000
-69.209326 -18.274329 21.842213 6.00000000
-24.442964 -23.475590 33.129237 6.00000000
-23.432551 -23.152107 13.015248 6.00000000
-44.641884 -25.587997 33.322624 6.00000000
-62.765664 -21.250342 28.768029 6.00000000
-71.086826 -17.253081 39.374211 6.00000000
-42.446488 -25.724450 52.254185 6.00000000
-66.285205 -19.725146 13.413533 6.00000000
-53.638810 -24.153159 33.994017 6.00000000
-19.149183 -21.500251 7.688504 6.00000000
-19.137067 -21.494833 36.682564 6.00000000
-48.137249 -25.195281 60.330883 6.00000000
-51.500754 -24.618999 50.824445 6.00000000
-19.399558 -21.612221 27.828214 6.00000000
-17.423478 -20.700209 14.790851 6.00000000
-33.936352 -25.443597 43.647170 6.00000000
-30.841087 -25.003128 51.843799 6.00000000
-29.416167 -24.738914 54.511923 6.00000000
-35.183545 -25.567408 58.727259 6.00000000
-55.825892 -23.593192 19.141720 6.00000000
-50.348566 -24.838085 25.088246 6.00000000
-32.302540 -25.233574 11.040120 6.00000000
-21.409926 -22.431171 51.151971 6.00000000
-30.712460 -24.981271 31.588429 6.00000000
-43.554332 -25.666808 34.654290 6.00000000
-53.313416 -24.229829 67.940410 6.00000000
-36.624877 -25.673369 42.409113 6.00000000
-48.894766 -25.082157 62.408877 6.00000000
-38.378730 -25.753322 3.011912 6.00000000
-43.915921 -25.640605 59.105833 6.00000000
-45.166026 -25.540716 28.659911 6.00000000
-24.420901 -23.468657 52.990331 6.00000000
-55.818023 -23.595291 65.754046 6.00000000
-46.329136 -25.423758 67.966742 6.00000000
-50.792839 -24.758210 20.817450 6.00000000
-49.968265 -24.906458 19.251952 6.00000000
-51.596994 -24.599620 13.061009 6.00000000
-32.536180 -25.267920 50.833201 6.00000000
-30.163274 -24.883197 64.464312 6.00000000
-30.641206 -24.969163 23.027086 6.00000000
-66.247710 -19.742865 53.125759 6.00000000
-51.692093 -24.580469 10.586785 6.00000000
-57.413702 -23.133154 38.622658 6.00000000
-65.539820 -20.067723 46.867504 6.00000000
-45.325604 -25.525729 59.164969 6.00000000
-71.448617 -17.046132 25.108011 6.00000000
-50.159408 -24.872093 45.667654 6.00000000
-29.597947 -24.774020 54.995084 6.00000000
-37.119943 -25.701858 15.467754 6.00000000
-43.639043 -25.660670 63.556116 6.00000000
-53.783099 -24.117837 51.241445 6.00000000
-48.960250 -25.071793 37.726377 6.00000000
-64.447269 -20.551821 44.965296 6.00000000
-34.084194 -25.458658 22.590727 6.00000000
-39.223753 -25.770380 22.414471 6.00000000
-23.217171 -23.078935 48.414318 6.00000000
-33.309824 -25.367481 50.313143 6.00000000
-42.579791 -25.717653 65.439671 6.00000000
-16.747750 -20.359461 29.517976 6.00000000
-68.391795 -18.700196 45.440625 6.00000000
-62.221005 -21.469143 28.558331 6.00000000
-24.171849 -23.390392 43.271417 6.00000000
-42.317874 -25.731008 31.251618 6.00000000
-63.085484 -21.121863 52.213616 6.00000000
-57.249651 -23.184160 44.225697 6.00000000
-28.500158 -24.544997 3.454687 6.00000000
-68.042964 -18.873514 5.813611 6.00000000
-19.883621 -21.816352 45.400320 6.00000000
-42.351491 -25.729294 31.622751 6.00000000
-29.650950 -24.784256 3.663254 6.00000000
-73.223515 -16.001021 61.464772 6.00000000
-71.734882 -16.882385 65.996253 6.00000000
-64.399139 -20.572278 36.503815 6.00000000
-43.033855 -25.694502 27.096359 6.00000000
-55.368954 -23.715055 18.461159 6.00000000
-20.074270 -21.896314 59.778179 6.00000000
-62.981707 -21.163552 10.185552 6.00000000
-56.611977 -23.369128 20.830504 6.00000000
-63.947782 -20.764123 6.201089 6.00000000
-69.162969 -18.298505 30.272221 6.00000000
-22.757430 -22.922744 30.254047 6.00000000
-17.227801 -20.601867 7.345978 6.00000000
-56.777188 -23.321428 20.375256 6.00000000
-56.102962 -23.516094 47.755676 6.00000000
-44.859243 -25.569527 25.631024 6.00000000
-28.530685 -24.551610 47.347983 6.00000000
-69.841425 -17.939576 44.069439 6.00000000
-71.231987 -17.170047 58.246064 6.00000000
-31.457250 -25.107831 3.249211 6.00000000
-26.097102 -23.955885 67.659270 6.00000000
-65.288624 -20.180423 47.279250 6.00000000
