-74.271554 -10.347376 59.287220 7.00000000
-74.108826 -11.270256 44.836843 7.00000000
-74.160498 -10.977207 47.929657 7.00000000
-73.566440 -14.346279 49.548174 7.00000000
-73.809508 -12.967771 49.656507 7.00000000
-73.468575 -14.901300 61.096389 7.00000000
-73.885193 -12.538539 66.772634 7.00000000
-73.456340 -14.970686 16.603806 7.00000000
-74.062930 -11.530541 63.647473 7.00000000
-74.292553 -10.228288 51.463457 7.00000000
-74.120674 -11.203063 22.179651 7.00000000
-73.452845 -14.990508 39.383635 7.00000000
-73.355594 -15.542048 38.938901 7.00000000
-73.521854 -14.599138 15.630816 7.00000000
-73.468215 -14.903340 33.286469 7.00000000
-73.690639 -13.641911 52.503874 7.00000000
-74.025074 -11.745234 61.570662 7.00000000
-73.487374 -14.794684 7.950461 7.00000000
-73.864530 -12.655724 10.524456 7.00000000
-74.180306 -10.864869 24.028364 7.00000000
-73.828474 -12.860209 12.797603 7.00000000
-73.774694 -13.165211 16.216287 7.00000000
-73.829496 -12.854411 50.151101 7.00000000
-73.848960 -12.744027 37.376982 7.00000000
-73.737951 -13.373594 38.290987 7.00000000
-73.291165 -15.907442 20.736913 7.00000000
-74.153085 -11.019249 49.406073 7.00000000
-73.422633 -15.161848 38.595612 7.00000000
-73.434514 -15.094470 46.670640 7.00000000
-74.184572 -10.840679 32.947003 7.00000000
-73.858760 -12.688451 20.788239 7.00000000
-74.124691 -11.180277 27.354083 7.00000000
-73.872244 -12.611975 51.073831 7.00000000
-73.486713 -14.798435 43.026671 7.00000000
-73.707607 -13.545680 41.141292 7.00000000
-73.848451 -12.746916 19.604318 7.00000000
-73.680439 -13.699760 15.997351 7.00000000
-73.461480 -14.941537 12.354137 7.00000000
-74.317046 -10.089381 32.819748 7.00000000
-73.818493 -12.916813 51.821776 7.00000000
-74.137015 -11.110386 5.161351 7.00000000
-73.381023 -15.397830 63.747687 7.00000000
-73.758798 -13.255361 60.530676 7.00000000
-73.853393 -12.718888 9.693636 7.00000000
-73.761479 -13.240156 24.055039 7.00000000
-73.915248 -12.368088 50.034580 7.00000000
-74.253315 -10.450814 5.362303 7.00000000
-73.382795 -15.387784 34.641316 7.00000000
-73.625991 -14.008549 46.032662 7.00000000
-73.926230 -12.305807 50.583255 7.00000000
-74.043798 -11.639049 49.728574 7.00000000
-73.533963 -14.530465 59.556978 7.00000000
-73.306284 -15.821700 37.827734 7.00000000
-73.992992 -11.927180 59.502673 7.00000000
-73.784096 -13.111888 24.157671 7.00000000
-73.446431 -15.026886 56.405022 7.00000000
-73.796343 -13.042433 38.812700 7.00000000
-74.046907 -11.621414 42.057690 7.00000000
-73.971111 -12.051273 54.893984 7.00000000
-74.259016 -10.418485 55.923351 7.00000000
-74.101216 -11.313415 27.769695 7.00000000
-73.865112 -12.652425 32.436558 7.00000000
-74.213106 -10.678854 63.877869 7.00000000
-73.503923 -14.700830 26.016949 7.00000000
-74.245313 -10.496195 44.344477 7.00000000
-73.675034 -13.730413 48.802913 7.00000000
-73.386249 -15.368191 5.009711 7.00000000
-73.364294 -15.492707 26.922007 7.00000000
-74.133615 -11.129666 50.946021 7.00000000
-73.322583 -15.729263 9.870025 7.00000000
-74.171266 -10.916138 64.793077 7.00000000
-74.029963 -11.717507 43.801449 7.00000000
-73.305342 -15.827038 67.429083 7.00000000
-73.410223 -15.232231 67.424606 7.00000000
-73.655537 -13.840983 10.913065 7.00000000
-73.645735 -13.896575 32.425441 7.00000000
-74.015552 -11.799240 65.393387 7.00000000
-73.480364 -14.834442 41.106046 7.00000000
-73.481882 -14.825829 27.765750 7.00000000
-73.285831 -15.937691 14.842656 7.00000000
-74.081833 -11.423338 14.964773 7.00000000
-73.558693 -14.390215 65.015621 7.00000000
-74.048828 -11.610520 34.531564 7.00000000
-73.796975 -13.038850 26.677465 7.00000000
-74.049801 -11.605001 10.675846 7.00000000
-73.673904 -13.736817 3.239263 7.00000000
-73.280940 -15.965432 59.364814 7.00000000
-73.371127 -15.453953 13.883112 7.00000000
-74.096565 -11.339787 36.471590 7.00000000
-73.976865 -12.018643 23.618920 7.00000000
-73.866808 -12.642804 37.445179 7.00000000
-73.640589 -13.925757 42.668446 7.00000000
-73.325532 -15.712539 8.422583 7.00000000
-73.575400 -14.295463 9.223156 7.00000000
-73.302862 -15.841106 36.929210 7.00000000
-74.143262 -11.074957 6.114056 7.00000000
-73.281485 -15.962340 17.015991 7.00000000
-73.888495 -12.519812 58.548589 7.00000000
-73.796433 -13.041922 31.293344 7.00000000
-74.191745 -10.799994 9.374822 7.00000000
-73.456058 -14.972287 57.486748 7.00000000
-73.731152 -13.412148 46.949797 7.00000000
-73.521540 -14.600920 39.307753 7.00000000
-73.305469 -15.826321 66.418505 7.00000000
-74.116411 -11.227240 36.367961 7.00000000
-73.447306 -15.021923 58.215181 7.00000000
-73.978980 -12.006649 54.257290 7.00000000
-73.878755 -12.575051 30.284219 7.00000000
-74.026954 -11.734575 51.011821 7.00000000
-73.546466 -14.459560 39.086309 7.00000000
-73.572572 -14.311500 26.964326 7.00000000
-73.652977 -13.855506 28.286401 7.00000000
-74.259985 -10.412989 45.921333 7.00000000
-73.656451 -13.835801 19.059529 7.00000000
-73.778951 -13.141068 63.744373 7.00000000
-73.475320 -14.863047 4.108463 7.00000000
-74.131105 -11.143905 23.007808 7.00000000
-73.801778 -13.011612 59.053690 7.00000000
-74.237534 -10.540313 53.710626 7.00000000
-73.285811 -15.937804 54.338310 7.00000000
-73.912130 -12.385772 8.918445 7.00000000
-73.496172 -14.744786 5.903501 7.00000000
-73.947575 -12.184756 48.400486 7.00000000
-74.094054 -11.354030 49.132928 7.00000000
-73.574981 -14.297839 48.144370 7.00000000
-74.279738 -10.300961 19.196832 7.00000000
-74.322171 -10.060316 28.443621 7.00000000
-73.549882 -14.440183 67.099902 7.00000000
-73.535141 -14.523785 5.878872 7.00000000
-74.143972 -11.070930 10.292446 7.00000000
-74.245531 -10.494962 18.390411 7.00000000
-73.760938 -13.243224 59.728027 7.00000000
-73.861681 -12.671881 55.803138 7.00000000
-74.037768 -11.673245 61.256127 7.00000000
-73.667026 -13.775827 49.588829 7.00000000
-73.556562 -14.402299 8.376038 7.00000000
-74.317220 -10.088392 65.913005 7.00000000
-74.199911 -10.753687 13.300327 7.00000000
-73.845258 -12.765023 16.620676 7.00000000
-73.710177 -13.531103 26.865343 7.00000000
-73.299290 -15.861364 39.516365 7.00000000
-73.926569 -12.303886 20.058155 7.00000000
-73.632053 -13.974171 32.621109 7.00000000
-74.246497 -10.489480 55.657003 7.00000000
-74.173539 -10.903246 19.259823 7.00000000
-73.782967 -13.118292 8.268940 7.00000000
-73.466431 -14.913460 44.360611 7.00000000
-73.979270 -12.005001 47.816165 7.00000000
-74.293920 -10.220532 18.274847 7.00000000
-74.195925 -10.776292 28.064177 7.00000000
-73.526986 -14.570033 61.330402 7.00000000
-74.219459 -10.642825 48.679650 7.00000000
-73.972667 -12.042449 48.382452 7.00000000
-73.888260 -12.521149 62.246874 7.00000000
-73.356426 -15.537327 64.677542 7.00000000
-73.812434 -12.951178 64.736293 7.00000000
-74.188188 -10.820169 17.532359 7.00000000
-73.560718 -14.378728 16.255689 7.00000000
-73.860673 -12.677601 3.856007 7.00000000
-74.306325 -10.150182 41.734549 7.00000000
-73.406910 -15.251018 5.014321 7.00000000
-73.926123 -12.306413 24.985011 7.00000000
-73.848707 -12.745463 27.837687 7.00000000
-73.532617 -14.538099 6.744303 7.00000000
-74.229918 -10.583508 57.576411 7.00000000
-74.155243 -11.007008 38.090370 7.00000000
-73.700368 -13.586737 21.134739 7.00000000
-73.303250 -15.838902 31.288431 7.00000000
-73.882874 -12.551692 3.379281 7.00000000
-74.199550 -10.755730 15.571335 7.00000000
-74.291914 -10.231910 60.510844 7.00000000
-73.766465 -13.211879 67.174181 7.00000000
-73.919472 -12.344134 40.997287 7.00000000
-74.065251 -11.517382 57.933832 7.00000000
-73.325748 -15.711311 9.005484 7.00000000
-73.912550 -12.383391 32.481771 7.00000000
-73.403773 -15.268811 26.342201 7.00000000
-73.589418 -14.215962 37.082720 7.00000000
-74.129128 -11.155115 61.690596 7.00000000
-74.315695 -10.097042 66.314470 7.00000000
-74.321185 -10.065904 45.088703 7.00000000
-73.728999 -13.424360 38.890593 7.00000000
-73.366396 -15.480787 8.535097 7.00000000
-74.015143 -11.801559 3.513606 7.00000000
-73.846742 -12.756606 51.333560 7.00000000
-73.882144 -12.555829 47.972899 7.00000000
-73.687774 -13.658157 55.035573 7.00000000
-73.731532 -13.409996 53.231704 7.00000000
-73.803319 -13.002870 20.378458 7.00000000
-73.435192 -15.090625 53.450873 7.00000000
-74.310109 -10.128722 21.477839 7.00000000
-73.570135 -14.325325 29.145263 7.00000000
-73.700444 -13.586306 25.779587 7.00000000
-73.669063 -13.764277 46.956051 7.00000000
-73.282663 -15.955657 50.121446 7.00000000
-74.319399 -10.076032 38.324947 7.00000000
-73.912936 -12.381202 44.605720 7.00000000
-74.132413 -11.136488 63.569917 7.00000000
-73.694265 -13.621345 50.581858 7.00000000
-74.264345 -10.388260 34.893051 7.00000000
-73.478279 -14.846267 14.428931 7.00000000
-74.037441 -11.675099 5.904626 7.00000000
-73.826732 -12.870090 38.528955 7.00000000
-73.901084 -12.448415 4.633596 7.00000000
-73.506620 -14.685534 21.962781 7.00000000
-73.738906 -13.368176 48.996562 7.00000000
-74.194775 -10.782812 9.642788 7.00000000
-73.667320 -13.774161 20.746190 7.00000000
-73.864048 -12.658457 21.139533 7.00000000
-73.614899 -14.071453 36.142130 7.00000000
-73.718770 -13.482372 5.578020 7.00000000
-73.921146 -12.334643 65.497063 7.00000000
-73.817955 -12.919865 44.278564 7.00000000
-74.292057 -10.231101 23.553504 7.00000000
-73.470831 -14.888503 14.549765 7.00000000
-73.400042 -15.289968 59.643177 7.00000000
-74.313068 -10.111937 31.420227 7.00000000
-73.866340 -12.645462 67.720085 7.00000000
-73.829657 -12.853500 21.628632 7.00000000
-74.263446 -10.393358 51.664260 7.00000000
-73.716065 -13.497712 34.650912 7.00000000
-73.624209 -14.018657 25.655105 7.00000000
-74.243175 -10.508323 43.033710 7.00000000
-73.809504 -12.967792 61.405300 7.00000000
-73.851208 -12.731281 22.590841 7.00000000
-73.282621 -15.955898 30.301529 7.00000000
-73.315768 -15.767910 33.830430 7.00000000
-74.316124 -10.094610 34.853826 7.00000000
-73.569985 -14.326172 44.781775 7.00000000
-73.389096 -15.352049 10.266466 7.00000000
-73.640190 -13.928020 52.726633 7.00000000
-73.859318 -12.685283 33.626554 7.00000000
-74.007556 -11.844588 39.930304 7.00000000
-73.752764 -13.289583 43.448673 7.00000000
-73.644643 -13.902765 8.526112 7.00000000
-74.104549 -11.294512 33.091901 7.00000000
-73.600492 -14.153163 55.669018 7.00000000
-73.684533 -13.676541 41.071235 7.00000000
-73.500765 -14.718740 36.921390 7.00000000
-74.293835 -10.221016 15.820298 7.00000000
-74.145493 -11.062303 20.177464 7.00000000
-73.627176 -14.001826 45.835765 7.00000000
-73.605221 -14.126341 42.252806 7.00000000
-73.596848 -14.173827 7.091143 7.00000000
-73.304416 -15.832291 16.605054 7.00000000
-74.118313 -11.216451 32.529940 7.00000000
-73.377300 -15.418948 42.859050 7.00000000
-74.146475 -11.056736 6.232556 7.00000000
-74.082726 -11.418272 26.450243 7.00000000
-73.822586 -12.893601 6.831738 7.00000000
-73.641325 -13.921584 54.109211 7.00000000
-73.726311 -13.439607 17.518896 7.00000000
-73.333049 -15.669903 6.891664 7.00000000
-74.032279 -11.704374 45.804792 7.00000000
-73.498760 -14.730111 31.988008 7.00000000
-73.825792 -12.875418 65.906711 7.00000000
-73.917661 -12.354405 60.829521 7.00000000
-74.172923 -10.906743 23.474983 7.00000000
-74.118349 -11.216246 38.212850 7.00000000
-73.328424 -15.696135 21.703206 7.00000000
-73.361442 -15.508879 17.618705 7.00000000
-73.538499 -14.504742 19.574040 7.00000000
-73.918850 -12.347661 21.780141 7.00000000
-73.363944 -15.494693 15.999899 7.00000000
-74.315966 -10.095506 20.727004 7.00000000
-74.206399 -10.716891 62.564913 7.00000000
-74.019441 -11.777181 23.416347 7.00000000
-73.403700 -15.269226 6.795044 7.00000000
-73.726982 -13.435800 53.663796 7.00000000
-73.471659 -14.883807 9.030539 7.00000000
-74.255495 -10.438450 14.444907 7.00000000
-74.196912 -10.770691 7.649620 7.00000000
-74.192621 -10.795029 28.974840 7.00000000
-73.757077 -13.265121 50.757131 7.00000000
-73.766718 -13.210446 39.190356 7.00000000
-73.550068 -14.439127 15.636545 7.00000000
-73.290329 -15.912182 40.075111 7.00000000
-73.533162 -14.535009 26.172592 7.00000000
-73.450245 -15.005253 29.942690 7.00000000
-74.276271 -10.320629 44.715519 7.00000000
-73.815047 -12.936358 30.888625 7.00000000
-73.877339 -12.583084 40.413863 7.00000000
-73.469431 -14.896443 65.614401 7.00000000
-74.121165 -11.200277 20.539357 7.00000000
-73.386780 -15.365181 30.767626 7.00000000
-73.975839 -12.024463 5.248666 7.00000000
-74.042807 -11.644664 25.310419 7.00000000
-73.460123 -14.949235 45.791353 7.00000000
-74.004989 -11.859140 50.008235 7.00000000
-74.301430 -10.177942 56.988617 7.00000000
-74.250009 -10.469564 26.487926 7.00000000
-73.937607 -12.241283 56.801925 7.00000000
-73.308955 -15.806550 7.809000 7.00000000
-73.561640 -14.373502 49.695243 7.00000000
-74.102034 -11.308773 67.434333 7.00000000
-74.098884 -11.326635 23.058148 7.00000000
-74.032236 -11.704617 45.498989 7.00000000
-74.183048 -10.849317 39.006655 7.00000000
-73.625001 -14.014163 35.613029 7.00000000
-74.022612 -11.759196 17.058362 7.00000000
-73.831501 -12.843044 52.750433 7.00000000
-74.177669 -10.879826 58.929256 7.00000000
-73.352734 -15.558264 28.410825 7.00000000
-74.166018 -10.945903 43.172594 7.00000000
-74.086586 -11.396384 21.005876 7.00000000
-73.331163 -15.680602 61.192096 7.00000000
-73.449371 -15.010210 65.651818 7.00000000
-73.740590 -13.358627 44.897733 7.00000000
-74.318928 -10.078708 25.504764 7.00000000
-73.402577 -15.275594 31.499714 7.00000000
-74.314991 -10.101034 33.999748 7.00000000
-73.872318 -12.611556 12.814998 7.00000000
-73.615143 -14.070070 3.358722 7.00000000
-73.532828 -14.536902 42.166538 7.00000000
-73.461553 -14.941126 56.658299 7.00000000
-73.844050 -12.771872 29.419782 7.00000000
-73.806021 -12.987545 14.174602 7.00000000
-74.275216 -10.326607 28.723343 7.00000000
-74.089295 -11.381018 8.557636 7.00000000
-73.629742 -13.987276 40.665290 7.00000000
-74.286839 -10.260691 67.296951 7.00000000
-73.670140 -13.758169 37.105331 7.00000000
-73.556283 -14.403881 39.861196 7.00000000
-73.422646 -15.161775 42.666367 7.00000000
-73.975457 -12.026630 38.779896 7.00000000
-73.964253 -12.090169 52.185836 7.00000000
-73.903107 -12.436946 64.387805 7.00000000
-73.496230 -14.744462 34.724034 7.00000000
-74.102274 -11.307411 28.193601 7.00000000
-73.783032 -13.117926 19.649947 7.00000000
-73.672878 -13.742638 15.601015 7.00000000
-74.071813 -11.480164 61.389954 7.00000000
-74.229288 -10.587078 12.767304 7.00000000
-73.508790 -14.673228 15.443225 7.00000000
-73.639325 -13.932927 66.086396 7.00000000
-73.547183 -14.455493 60.157156 7.00000000
-74.135388 -11.119611 6.347228 7.00000000
-73.972836 -12.041493 29.862578 7.00000000
-73.795334 -13.048153 6.979017 7.00000000
-74.261845 -10.402439 61.506675 7.00000000
-74.140168 -11.092504 13.680850 7.00000000
-73.971669 -12.048108 9.224904 7.00000000
-73.670334 -13.757064 15.896883 7.00000000
-73.618199 -14.052742 24.446834 7.00000000
-74.102365 -11.306895 66.059463 7.00000000
-74.169275 -10.927433 57.321496 7.00000000
-73.925429 -12.310352 36.244750 7.00000000
-74.122868 -11.190615 66.472099 7.00000000
-73.539735 -14.497734 18.389718 7.00000000
-73.380833 -15.398909 46.816629 7.00000000
-73.809975 -12.965123 13.941038 7.00000000
-73.528297 -14.562601 36.740728 7.00000000
-73.434301 -15.095675 54.420591 7.00000000
-73.394031 -15.324058 43.737624 7.00000000
-73.845967 -12.761000 55.571306 7.00000000
-74.209852 -10.697307 11.607475 7.00000000
-73.590319 -14.210853 22.581421 7.00000000
-73.416166 -15.198523 17.948692 7.00000000
-73.588751 -14.219750 7.411124 7.00000000
-74.019197 -11.778566 44.700824 7.00000000
-74.228262 -10.592899 30.186788 7.00000000
-73.749587 -13.307603 30.124303 7.00000000
-74.110750 -11.259340 56.281048 7.00000000
-74.321797 -10.062437 30.377679 7.00000000
-73.882410 -12.554321 11.556021 7.00000000
-73.615779 -14.066466 7.910427 7.00000000
-73.610180 -14.098215 59.847139 7.00000000
-74.212906 -10.679986 14.421538 7.00000000
-74.311584 -10.120355 22.712572 7.00000000
-73.312486 -15.786526 49.372149 7.00000000
-73.754549 -13.279459 33.145158 7.00000000
-74.061007 -11.541448 26.385377 7.00000000
-74.077027 -11.450596 13.403781 7.00000000
-73.705263 -13.558977 66.504762 7.00000000
-73.408022 -15.244712 16.980457 7.00000000
-73.625935 -14.008865 10.088993 7.00000000
-74.266206 -10.377709 14.099206 7.00000000
-73.911687 -12.388284 19.866286 7.00000000
-73.283469 -15.951089 15.572153 7.00000000
-74.299217 -10.190494 7.770277 7.00000000
-73.626229 -14.007200 67.005645 7.00000000
-73.357166 -15.533133 14.095262 7.00000000
-73.835987 -12.817604 3.254307 7.00000000
-73.694203 -13.621701 13.477593 7.00000000
-73.598481 -14.164564 63.691917 7.00000000
-73.684768 -13.675205 67.100400 7.00000000
-73.909533 -12.400504 9.148059 7.00000000
-74.102947 -11.303595 26.555632 7.00000000
-74.295737 -10.210228 51.094694 7.00000000
-74.206805 -10.714587 34.185649 7.00000000
-73.887341 -12.526357 38.057615 7.00000000
-74.195580 -10.778245 62.960692 7.00000000
-73.947955 -12.182596 36.652691 7.00000000
-73.385600 -15.371874 46.692246 7.00000000
-73.309299 -15.804599 40.040281 7.00000000
-73.534104 -14.529663 54.448458 7.00000000
-73.283662 -15.949993 18.333007 7.00000000
-74.261597 -10.403845 28.579797 7.00000000
-74.015139 -11.801577 62.051471 7.00000000
-74.216943 -10.657091 27.077404 7.00000000
-73.685163 -13.672965 45.675057 7.00000000
-73.693311 -13.626755 60.173060 7.00000000
-74.258670 -10.420447 24.373463 7.00000000
-73.742086 -13.350140 36.153010 7.00000000
-73.378101 -15.414402 54.914570 7.00000000
-73.504269 -14.698868 14.636009 7.00000000
-73.537498 -14.510418 58.238742 7.00000000
-73.447260 -15.022183 9.872250 7.00000000
-73.959090 -12.119450 57.373154 7.00000000
-73.882777 -12.552244 60.403232 7.00000000
-73.659662 -13.817593 4.065524 7.00000000
-73.458000 -14.961274 60.279231 7.00000000
-73.601512 -14.147378 49.030966 7.00000000
-74.054216 -11.579965 9.918760 7.00000000
-73.461588 -14.940925 19.407228 7.00000000
-73.958964 -12.120163 40.328642 7.00000000
-73.943009 -12.210647 41.041092 7.00000000
-73.931163 -12.277829 5.334041 7.00000000
-74.253572 -10.449357 50.474707 7.00000000
-73.772369 -13.178394 63.861490 7.00000000
-73.668889 -13.765264 11.824489 7.00000000
-73.802628 -13.006789 34.462449 7.00000000
-73.934028 -12.261585 27.355997 7.00000000
-73.378670 -15.411173 20.075317 7.00000000
-73.645946 -13.895375 31.328454 7.00000000
-74.222872 -10.623464 22.595110 7.00000000
-74.189409 -10.813246 39.416755 7.00000000
-73.391761 -15.336934 48.501820 7.00000000
-74.084766 -11.406706 54.495905 7.00000000
-74.318570 -10.080738 58.641704 7.00000000
-73.557319 -14.398006 30.793405 7.00000000
-73.785479 -13.104044 66.675599 7.00000000
-74.281318 -10.292004 61.556991 7.00000000
-74.103327 -11.301443 10.128141 7.00000000
-73.471423 -14.885146 60.001578 7.00000000
-73.507600 -14.679976 45.227731 7.00000000
-73.717552 -13.489278 27.128584 7.00000000
-73.379612 -15.405836 24.446556 7.00000000
-73.466827 -14.911213 17.015978 7.00000000
-73.936092 -12.249880 8.573325 7.00000000
-73.792501 -13.064220 28.892933 7.00000000
-73.911385 -12.389999 58.519408 7.00000000
-74.264716 -10.386156 37.416655 7.00000000
-74.034262 -11.693126 29.928126 7.00000000
-74.051389 -11.595997 48.241743 7.00000000
-73.656293 -13.836695 59.794165 7.00000000
-73.476309 -14.857437 40.820440 7.00000000
-74.029946 -11.717602 21.395840 7.00000000
-73.832944 -12.834859 23.122889 7.00000000
-74.321784 -10.062509 28.075270 7.00000000
-73.341467 -15.622166 35.925748 7.00000000
-73.485981 -14.802583 33.328105 7.00000000
-73.876234 -12.589348 23.245635 7.00000000
-73.422939 -15.160115 3.884554 7.00000000
-73.404155 -15.266646 43.043221 7.00000000
-73.962738 -12.098759 43.476696 7.00000000
-74.267340 -10.371278 22.058491 7.00000000
-73.306856 -15.818456 29.009058 7.00000000
-74.280749 -10.295230 23.828008 7.00000000
-73.854002 -12.715434 46.267561 7.00000000
-73.345245 -15.600739 43.942149 7.00000000
-73.387101 -15.363364 40.930967 7.00000000
-73.943128 -12.209977 35.898983 7.00000000
-73.512927 -14.649769 25.493424 7.00000000
-73.432856 -15.103872 42.347977 7.00000000
-73.777991 -13.146513 35.911346 7.00000000
-73.524102 -14.586388 43.855410 7.00000000
-73.872978 -12.607817 60.926177 7.00000000
-74.154232 -11.012746 40.451642 7.00000000
-73.991966 -11.932998 57.952675 7.00000000
-73.751550 -13.296469 39.530860 7.00000000
-73.963775 -12.092881 36.038508 7.00000000
-74.000876 -11.882468 52.885330 7.00000000
-73.815011 -12.936564 35.600059 7.00000000
-74.104493 -11.294830 28.303494 7.00000000
-73.621010 -14.036798 40.216155 7.00000000
-73.995371 -11.913690 9.203551 7.00000000
-73.883383 -12.548804 10.710056 7.00000000
-73.675916 -13.725409 29.640456 7.00000000
-73.925662 -12.309027 8.233033 7.00000000
-73.339923 -15.630921 4.754417 7.00000000
-73.988851 -11.950666 15.158026 7.00000000
-74.259631 -10.414998 38.713076 7.00000000
-74.232487 -10.568939 49.119379 7.00000000
-73.844455 -12.769577 61.169535 7.00000000
-74.036632 -11.679689 5.127001 7.00000000
-73.566991 -14.343151 4.701397 7.00000000
-74.177341 -10.881684 15.792800 7.00000000
-73.313237 -15.782267 11.442463 7.00000000
-74.268033 -10.367347 51.821877 7.00000000
-74.170200 -10.922184 19.136606 7.00000000
-73.653089 -13.854870 29.248673 7.00000000
-73.783312 -13.116337 45.540155 7.00000000
-73.511145 -14.659874 66.813031 7.00000000
-73.411228 -15.226528 11.647247 7.00000000
-73.924994 -12.312819 48.646981 7.00000000
-73.693782 -13.624084 43.667528 7.00000000
-74.303595 -10.165664 61.445438 7.00000000
-73.988701 -11.951517 38.043886 7.00000000
-74.113739 -11.242389 12.446151 7.00000000
-73.556377 -14.403350 31.551539 7.00000000
-73.833946 -12.829175 34.914152 7.00000000
-73.614827 -14.071865 63.609892 7.00000000
-73.499863 -14.723857 58.170579 7.00000000
-73.312192 -15.788190 13.591883 7.00000000
-74.129176 -11.154842 65.958672 7.00000000
-73.448486 -15.015231 29.557155 7.00000000
-73.888005 -12.522592 7.484235 7.00000000
-74.317847 -10.084835 36.412406 7.00000000
-74.115313 -11.233462 11.705955 7.00000000
-73.596959 -14.173199 23.896959 7.00000000
-73.525461 -14.578680 37.521916 7.00000000
-73.967754 -12.070316 16.379784 7.00000000
-73.477127 -14.852796 45.427131 7.00000000
-73.289398 -15.917462 58.670985 7.00000000
-73.441523 -15.054718 46.532577 7.00000000
-74.285620 -10.267607 6.333054 7.00000000
-73.850902 -12.733016 39.805198 7.00000000
-73.711489 -13.523664 26.067036 7.00000000
-73.718471 -13.484070 6.464420 7.00000000
-73.776101 -13.157234 38.919567 7.00000000
-73.459894 -14.950532 39.099358 7.00000000
-73.585824 -14.236346 52.802220 7.00000000
-73.359355 -15.520719 13.581494 7.00000000
-73.991971 -11.932975 27.042545 7.00000000
-73.983837 -11.979104 54.141980 7.00000000
-73.950595 -12.167625 19.032148 7.00000000
-73.480517 -14.833575 19.735237 7.00000000
-73.317229 -15.759627 35.892035 7.00000000
-74.009957 -11.830970 60.558604 7.00000000
-73.838070 -12.805789 66.940870 7.00000000
-74.067870 -11.502530 10.625969 7.00000000
-73.623706 -14.021508 59.679533 7.00000000
-73.488033 -14.790947 26.078623 7.00000000
-73.526875 -14.570665 46.625919 7.00000000
-73.738761 -13.368998 57.144947 7.00000000
-73.584667 -14.242907 44.262086 7.00000000
-73.616459 -14.062609 65.524014 7.00000000
-74.225598 -10.608009 39.569295 7.00000000
-74.156246 -11.001322 51.461825 7.00000000
-73.919695 -12.342872 16.871500 7.00000000
-73.414618 -15.207308 55.218189 7.00000000
-73.719180 -13.480048 34.455541 7.00000000
-73.956885 -12.131954 24.478316 7.00000000
-73.476835 -14.854452 8.915064 7.00000000
-73.679613 -13.704442 17.340295 7.00000000
-73.430647 -15.116401 15.038743 7.00000000
-74.060662 -11.543403 37.458623 7.00000000
-74.025784 -11.741211 46.731761 7.00000000
-73.919675 -12.342980 34.520038 7.00000000
-73.398584 -15.298239 66.588712 7.00000000
-74.002014 -11.876015 5.921097 7.00000000
-73.754348 -13.280602 40.550138 7.00000000
-74.284345 -10.274834 41.009310 7.00000000
-74.242086 -10.514501 5.793437 7.00000000
-73.321338 -15.736325 62.092319 7.00000000
-73.299382 -15.860839 12.254260 7.00000000
-73.737182 -13.377952 30.272353 7.00000000
-73.996243 -11.908742 14.315748 7.00000000
-73.987991 -11.955542 45.471868 7.00000000
-74.021788 -11.763870 49.555929 7.00000000
-73.497265 -14.738589 34.148102 7.00000000
-73.854391 -12.713226 12.200074 7.00000000
-73.663930 -13.793386 16.419575 7.00000000
-73.424222 -15.152840 46.788830 7.00000000
-74.069136 -11.495349 36.564924 7.00000000
-73.413677 -15.212640 26.226683 7.00000000
-73.425902 -15.143312 5.064944 7.00000000
-73.442453 -15.049446 11.957088 7.00000000
-73.940973 -12.222193 32.788154 7.00000000
-73.978332 -12.010325 57.421584 7.00000000
-73.566957 -14.343345 63.417115 7.00000000
-74.177955 -10.878202 25.555290 7.00000000
-73.478544 -14.844763 57.278314 7.00000000
-73.686806 -13.663651 50.887938 7.00000000
-73.724974 -13.447186 66.495961 7.00000000
-73.336107 -15.652566 10.426681 7.00000000
-73.971694 -12.047966 3.853490 7.00000000
-73.934469 -12.259081 53.055524 7.00000000
-74.288908 -10.248960 25.140069 7.00000000
-74.109234 -11.267939 56.059935 7.00000000
-74.221969 -10.628586 39.103099 7.00000000
-73.703557 -13.568649 32.131696 7.00000000
-73.755181 -13.275876 33.379082 7.00000000
-73.994999 -11.915801 22.318317 7.00000000
-73.573198 -14.307955 23.507293 7.00000000
-73.553226 -14.421221 27.389717 7.00000000
-74.248709 -10.476939 59.707062 7.00000000
-73.321061 -15.737892 28.578295 7.00000000
-73.730084 -13.418208 48.312061 7.00000000
-73.978638 -12.008587 10.190913 7.00000000
-74.053129 -11.586129 10.453273 7.00000000
-74.215701 -10.664138 35.341277 7.00000000
-74.184487 -10.841157 38.592336 7.00000000
-73.516172 -14.631364 33.542280 7.00000000
-74.086941 -11.394369 47.681320 7.00000000
-73.337225 -15.646221 16.394211 7.00000000
-73.579806 -14.270477 65.032936 7.00000000
-74.204043 -10.730253 26.069795 7.00000000
-74.171065 -10.917279 42.632522 7.00000000
-73.350220 -15.572525 9.308347 7.00000000
-73.954550 -12.145197 51.459337 7.00000000
-74.250467 -10.466965 66.097279 7.00000000
-73.586222 -14.234091 42.261753 7.00000000
-74.306979 -10.146473 11.480679 7.00000000
-74.191807 -10.799644 42.408928 7.00000000
-74.160835 -10.975294 48.362850 7.00000000
-73.902120 -12.442540 54.410564 7.00000000
-73.387588 -15.360598 42.474012 7.00000000
-73.753502 -13.285400 18.750754 7.00000000
-74.040544 -11.657500 26.228698 7.00000000
-73.314382 -15.775772 65.874349 7.00000000
-73.698391 -13.597949 17.877986 7.00000000
-74.135205 -11.120651 37.071740 7.00000000
-74.286407 -10.263141 18.381847 7.00000000
-73.322407 -15.730258 64.157244 7.00000000
-73.705734 -13.556304 5.252465 7.00000000
-74.116564 -11.226370 38.541289 7.00000000
-73.788359 -13.087712 50.048085 7.00000000
-73.788510 -13.086859 32.958014 7.00000000
-74.273667 -10.335396 9.457948 7.00000000
-73.404705 -15.263526 48.705743 7.00000000
-74.254109 -10.446315 44.625825 7.00000000
-73.630048 -13.985538 39.611691 7.00000000
-73.700617 -13.585325 67.563493 7.00000000
-73.954689 -12.144410 37.523755 7.00000000
-74.124862 -11.179311 46.968153 7.00000000
-73.763508 -13.228649 43.547939 7.00000000
-73.915746 -12.365268 47.595330 7.00000000
-73.763358 -13.229504 17.592926 7.00000000
-73.657487 -13.829927 8.881416 7.00000000
-73.635332 -13.955573 50.387684 7.00000000
-74.089356 -11.380672 21.124147 7.00000000
-73.358338 -15.526487 36.050726 7.00000000
-74.075588 -11.458757 59.754076 7.00000000
-73.447328 -15.021798 35.161159 7.00000000
-73.985471 -11.969835 35.353333 7.00000000
-73.948558 -12.179177 9.870018 7.00000000
-73.899510 -12.457346 5.591907 7.00000000
-74.074315 -11.465978 45.327741 7.00000000
-74.237191 -10.542262 16.913023 7.00000000
-73.826176 -12.873242 22.294925 7.00000000
-73.452504 -14.992442 4.821697 7.00000000
-74.138555 -11.101652 7.103832 7.00000000
-73.663266 -13.797149 54.058686 7.00000000
-74.254320 -10.445118 66.506165 7.00000000
-73.810458 -12.962383 50.033481 7.00000000
-73.303783 -15.835882 37.554892 7.00000000
-73.350352 -15.571776 23.114335 7.00000000
-73.404080 -15.267072 59.138112 7.00000000
-73.398924 -15.296309 33.602493 7.00000000
-73.430479 -15.117353 25.463293 7.00000000
-74.133584 -11.129845 33.225984 7.00000000
-74.091301 -11.369643 56.341696 7.00000000
-73.584970 -14.241189 51.396403 7.00000000
-73.431235 -15.113063 53.619803 7.00000000
-73.548972 -14.445345 16.537754 7.00000000
-73.436821 -15.081385 45.568790 7.00000000
-73.588189 -14.222934 25.694822 7.00000000
-74.171859 -10.912778 48.130502 7.00000000
-73.506931 -14.683770 55.841701 7.00000000
-73.882373 -12.554532 65.440956 7.00000000
-73.770583 -13.188528 48.372914 7.00000000
-73.841074 -12.788752 19.342971 7.00000000
-74.309967 -10.129524 3.266395 7.00000000
-73.765401 -13.217918 49.460964 7.00000000
-73.739303 -13.365927 63.719773 7.00000000
-73.325205 -15.714391 45.775848 7.00000000
-73.828143 -12.862089 66.063640 7.00000000
-73.988718 -11.951419 57.698209 7.00000000
-73.391202 -15.340105 46.948965 7.00000000
-73.926003 -12.307094 26.321725 7.00000000
-73.829241 -12.855859 23.694119 7.00000000
-73.526149 -14.574780 55.171611 7.00000000
-74.244538 -10.500592 53.268887 7.00000000
-73.329208 -15.691687 54.559507 7.00000000
-74.249468 -10.472635 17.202739 7.00000000
-74.208331 -10.705933 16.099568 7.00000000
-74.295517 -10.211476 7.002699 7.00000000
-73.389861 -15.347707 65.600334 7.00000000
-73.936489 -12.247624 25.687644 7.00000000
-73.811459 -12.956706 11.428252 7.00000000
-73.388212 -15.357063 26.612887 7.00000000
-74.244231 -10.502332 58.697698 7.00000000
-73.868081 -12.635587 7.380883 7.00000000
-73.602772 -14.140229 30.025177 7.00000000
-73.783938 -13.112787 57.166810 7.00000000
-73.787407 -13.093110 61.784711 7.00000000
-73.420380 -15.174629 26.411985 7.00000000
-74.041235 -11.653581 3.231664 7.00000000
-73.631345 -13.978184 41.916812 7.00000000
-73.662631 -13.800752 50.826254 7.00000000
-73.993598 -11.923746 9.623883 7.00000000
-74.319472 -10.075620 56.147131 7.00000000
-73.603903 -14.133818 31.461278 7.00000000
-74.163838 -10.958263 22.792487 7.00000000
-73.368040 -15.471464 64.786755 7.00000000
-74.001725 -11.877655 46.897468 7.00000000
-73.693614 -13.625038 56.065666 7.00000000
-74.122878 -11.190558 32.363880 7.00000000
-74.014905 -11.802907 29.568872 7.00000000
-73.964320 -12.089790 56.780571 7.00000000
-73.431937 -15.109084 26.864411 7.00000000
-74.167645 -10.936675 33.613418 7.00000000
-73.381861 -15.393079 48.990734 7.00000000
-73.520239 -14.608299 24.468236 7.00000000
-73.703276 -13.570244 3.618225 7.00000000
-73.942795 -12.211862 6.271042 7.00000000
-74.061676 -11.537656 41.549879 7.00000000
-73.978266 -12.010698 11.323629 7.00000000
-74.312332 -10.116116 60.101860 7.00000000
-74.284183 -10.275756 15.933241 7.00000000
-73.407146 -15.249683 35.634102 7.00000000
-73.806665 -12.983896 67.164167 7.00000000
-73.569924 -14.326523 64.109257 7.00000000
-73.692316 -13.632399 20.032739 7.00000000
-73.325450 -15.713000 64.484203 7.00000000
-73.862901 -12.664966 54.780826 7.00000000
-73.373184 -15.442289 29.315453 7.00000000
-73.998206 -11.897612 28.721930 7.00000000
-74.021232 -11.767023 55.878819 7.00000000
-73.725302 -13.445330 64.117501 7.00000000
-74.231330 -10.575501 41.736951 7.00000000
-74.144597 -11.067385 67.618444 7.00000000
-73.664441 -13.790488 49.794945 7.00000000
-73.314609 -15.774484 20.753057 7.00000000
-73.599709 -14.157600 38.475794 7.00000000
-73.506231 -14.687742 33.909670 7.00000000
-73.454963 -14.978496 46.610603 7.00000000
-73.806652 -12.983966 25.663152 7.00000000
-73.798394 -13.030804 46.057199 7.00000000
-73.634295 -13.961455 59.287661 7.00000000
-74.256172 -10.434615 61.391069 7.00000000
-73.424570 -15.150862 10.322399 7.00000000
-73.867173 -12.640734 27.599893 7.00000000
-73.761041 -13.242640 66.683848 7.00000000
-74.007689 -11.843832 53.700024 7.00000000
-74.154793 -11.009564 25.786026 7.00000000
-73.546381 -14.460038 59.729753 7.00000000
-73.688681 -13.653016 63.834931 7.00000000
-74.280267 -10.297966 51.570042 7.00000000
-74.139236 -11.097789 26.632103 7.00000000
-73.962137 -12.102167 5.144160 7.00000000
-73.333798 -15.665659 38.962572 7.00000000
-74.068932 -11.496504 54.717892 7.00000000
-74.054009 -11.581139 39.377656 7.00000000
-73.883148 -12.550136 35.167481 7.00000000
-74.123347 -11.187901 31.297666 7.00000000
-74.162513 -10.965779 25.354191 7.00000000
-73.823366 -12.889180 18.540312 7.00000000
-74.180659 -10.862869 40.230573 7.00000000
-73.890890 -12.506230 23.173383 7.00000000
-74.010410 -11.828400 18.912305 7.00000000
-73.463695 -14.928976 48.162487 7.00000000
-73.372677 -15.445162 23.538082 7.00000000
-73.382566 -15.389078 42.966459 7.00000000
-74.200101 -10.752606 44.964362 7.00000000
-73.406156 -15.255298 57.853603 7.00000000
-74.045152 -11.631368 56.257852 7.00000000
-73.373966 -15.437853 58.769180 7.00000000
-73.496811 -14.741165 51.485581 7.00000000
-73.362879 -15.500731 32.478397 7.00000000
-74.171474 -10.914958 60.046817 7.00000000
-73.558336 -14.392241 45.123161 7.00000000
-74.239879 -10.527017 18.509652 7.00000000
-73.640808 -13.924520 21.818499 7.00000000
-73.290287 -15.912423 33.870814 7.00000000
-73.702049 -13.577203 44.945863 7.00000000
-73.652062 -13.860694 59.202575 7.00000000
-73.281235 -15.963758 22.956000 7.00000000
-73.394739 -15.320047 20.283826 7.00000000
-74.034842 -11.689838 53.779137 7.00000000
-73.942307 -12.214633 21.828714 7.00000000
-73.415677 -15.201299 21.101613 7.00000000
-73.781834 -13.124721 15.156803 7.00000000
-73.572560 -14.311569 27.940468 7.00000000
-73.693842 -13.623746 66.753541 7.00000000
-73.519350 -14.613338 35.120141 7.00000000
-73.558799 -14.389613 24.263086 7.00000000
-74.098305 -11.329922 38.579221 7.00000000
-73.446699 -15.025363 66.843698 7.00000000
-73.624215 -14.018619 57.423550 7.00000000
-73.702027 -13.577327 65.861252 7.00000000
-73.724817 -13.448078 52.463914 7.00000000
-73.817515 -12.922363 46.958809 7.00000000
-74.075254 -11.460650 63.968735 7.00000000
-73.854645 -12.711788 9.357052 7.00000000
-73.606232 -14.120609 4.314094 7.00000000
-73.853356 -12.719097 14.890247 7.00000000
-73.475639 -14.861238 18.197879 7.00000000
-74.210340 -10.694542 48.271008 7.00000000
-73.347235 -15.589452 50.812352 7.00000000
-74.289051 -10.248144 25.528542 7.00000000
-74.172373 -10.909860 44.349999 7.00000000
-73.865426 -12.650642 36.722831 7.00000000
-73.328003 -15.698520 67.392033 7.00000000
-73.357199 -15.532944 20.125709 7.00000000
-73.423865 -15.154861 18.358438 7.00000000
-73.898804 -12.461348 28.651246 7.00000000
-73.792806 -13.062491 51.452479 7.00000000
-73.425039 -15.148207 27.553115 7.00000000
-73.753727 -13.284122 7.184033 7.00000000
-73.912013 -12.386434 28.042604 7.00000000
-74.053253 -11.585425 20.317405 7.00000000
-74.283125 -10.281755 65.349466 7.00000000
-74.078173 -11.444097 52.569086 7.00000000
-74.140666 -11.089678 24.117183 7.00000000
-73.926270 -12.305579 25.370463 7.00000000
-73.458059 -14.960939 50.597185 7.00000000
-73.299434 -15.860544 59.618183 7.00000000
-73.971168 -12.050952 19.257033 7.00000000
-74.294903 -10.214957 14.337293 7.00000000
-73.725997 -13.441386 52.204125 7.00000000
-73.659364 -13.819281 43.317448 7.00000000
-73.727909 -13.430542 45.716167 7.00000000
-73.628957 -13.991730 31.781058 7.00000000
-74.148462 -11.045468 51.985049 7.00000000
-73.501160 -14.716500 41.122867 7.00000000
-73.441703 -15.053699 60.132358 7.00000000
-73.515652 -14.634312 48.904868 7.00000000
-73.390164 -15.345991 13.479917 7.00000000
-74.238829 -10.532967 47.144264 7.00000000
-73.337506 -15.644631 53.192865 7.00000000
-74.145384 -11.062921 53.146617 7.00000000
-73.299690 -15.859092 3.948781 7.00000000
-73.481959 -14.825393 16.246562 7.00000000
-73.685766 -13.669549 66.640043 7.00000000
-74.315039 -10.100763 14.529999 7.00000000
-73.859509 -12.684199 31.525011 7.00000000
-73.282013 -15.959346 47.115793 7.00000000
-73.641353 -13.921426 55.150383 7.00000000
-73.484551 -14.810694 17.373997 7.00000000
-74.214681 -10.669919 66.632238 7.00000000
-74.315745 -10.096755 12.365921 7.00000000
-73.395762 -15.314244 41.232518 7.00000000
-73.306581 -15.820012 20.422055 7.00000000
-73.441914 -15.052501 19.043194 7.00000000
-73.767941 -13.203509 24.783476 7.00000000
-73.821991 -12.896976 51.178893 7.00000000
-74.289921 -10.243212 67.895490 7.00000000
-73.833469 -12.831880 39.352937 7.00000000
-74.320991 -10.067005 48.659995 7.00000000
-74.027377 -11.732174 54.660273 7.00000000
-73.431006 -15.114363 56.030499 7.00000000
-73.652528 -13.858049 32.594654 7.00000000
-74.243994 -10.503676 56.563142 7.00000000
-73.864603 -12.655315 63.078739 7.00000000
-73.866623 -12.643857 36.915600 7.00000000
-73.888426 -12.520206 50.228274 7.00000000
-73.906508 -12.417657 13.926185 7.00000000
-73.608216 -14.109354 51.525265 7.00000000
-74.207169 -10.712523 61.392021 7.00000000
-74.168555 -10.931513 40.888354 7.00000000
-74.197508 -10.767310 47.588290 7.00000000
-73.991794 -11.933978 8.385008 7.00000000
-73.360671 -15.513253 49.027951 7.00000000
-73.987067 -11.960782 63.317842 7.00000000
-74.321854 -10.062109 55.301372 7.00000000
-73.779765 -13.136454 22.682230 7.00000000
-74.224360 -10.615025 27.748291 7.00000000
-73.575120 -14.297055 36.166103 7.00000000
-74.129753 -11.151570 65.143089 7.00000000
-73.596261 -14.177155 58.174304 7.00000000
-73.905697 -12.422255 31.131136 7.00000000
-73.978705 -12.008206 60.349037 7.00000000
-73.731814 -13.408397 54.378415 7.00000000
-73.592126 -14.200606 41.207211 7.00000000
-74.318536 -10.080931 4.356784 7.00000000
-73.433968 -15.097563 60.958715 7.00000000
-74.031940 -11.706295 52.373140 7.00000000
-73.320259 -15.742441 19.176932 7.00000000
-74.081094 -11.427531 36.169739 7.00000000
-73.911623 -12.388648 3.356410 7.00000000
-73.572865 -14.309843 45.293286 7.00000000
-73.841052 -12.788879 6.132621 7.00000000
-73.319403 -15.747294 60.194499 7.00000000
-73.292865 -15.897802 43.794041 7.00000000
-73.354336 -15.549181 12.771250 7.00000000
-73.958115 -12.124979 48.194032 7.00000000
-73.834469 -12.826210 31.255835 7.00000000
-73.463929 -14.927647 42.913653 7.00000000
-73.598030 -14.167125 22.272340 7.00000000
-74.048088 -11.614718 21.878442 7.00000000
-73.971719 -12.047829 18.928277 7.00000000
-73.385408 -15.372961 64.413655 7.00000000
-73.651848 -13.861904 17.436621 7.00000000
-73.916282 -12.362226 19.130598 7.00000000
-74.139194 -11.098031 35.246908 7.00000000
-74.122548 -11.192433 34.955984 7.00000000
-74.258188 -10.423181 58.920822 7.00000000
-73.498618 -14.730915 64.461667 7.00000000
-74.134909 -11.122329 29.259940 7.00000000
-73.410853 -15.228659 43.375273 7.00000000
-73.758102 -13.259307 31.733799 7.00000000
-73.626821 -14.003841 17.717544 7.00000000
-73.585697 -14.237065 66.950665 7.00000000
-73.863651 -12.660711 28.811631 7.00000000
-73.578522 -14.277758 49.797960 7.00000000
-73.461654 -14.940550 32.194107 7.00000000
-73.570729 -14.321956 40.116583 7.00000000
-73.283151 -15.952890 14.996942 7.00000000
-73.838331 -12.804309 50.028352 7.00000000
-74.293739 -10.221562 48.181948 7.00000000
-73.450229 -15.005343 21.076861 7.00000000
-73.439583 -15.065723 34.249372 7.00000000
-74.129324 -11.154004 40.543796 7.00000000
-73.797992 -13.033082 11.717420 7.00000000
-73.918500 -12.349644 45.739366 7.00000000
-74.320637 -10.069014 31.196504 7.00000000
-73.892807 -12.495361 65.628038 7.00000000
-74.134262 -11.125999 24.224627 7.00000000
-73.527870 -14.565019 55.480440 7.00000000
-73.858562 -12.689572 5.063081 7.00000000
-74.063684 -11.526265 41.741909 7.00000000
-73.877771 -12.580632 35.905330 7.00000000
-73.989126 -11.949104 12.804817 7.00000000
-73.359034 -15.522539 17.034658 7.00000000
-73.938275 -12.237499 10.005159 7.00000000
-74.126293 -11.171193 34.853043 7.00000000
-73.439235 -15.067693 59.159485 7.00000000
-73.397294 -15.305554 21.007868 7.00000000
-73.900589 -12.451227 41.257307 7.00000000
-73.813107 -12.947360 17.812755 7.00000000
-73.309672 -15.802481 10.994427 7.00000000
-73.343172 -15.612494 63.293634 7.00000000
-73.706884 -13.549779 43.891637 7.00000000
-74.228922 -10.589155 11.551743 7.00000000
-73.636808 -13.947200 36.149007 7.00000000
-74.292356 -10.229405 32.694697 7.00000000
-74.030666 -11.713524 40.114732 7.00000000
-74.046782 -11.622123 64.473257 7.00000000
-73.936655 -12.246687 26.616451 7.00000000
-73.440818 -15.058716 11.524036 7.00000000
-73.919215 -12.345591 9.266071 7.00000000
-73.850539 -12.735075 66.123316 7.00000000
-73.698134 -13.599402 25.296826 7.00000000
-73.955740 -12.138450 16.892865 7.00000000
-74.068552 -11.498659 8.362745 7.00000000
-73.331812 -15.676921 44.446949 7.00000000
-73.510854 -14.661524 36.473788 7.00000000
-73.337667 -15.643717 43.764730 7.00000000
-73.367432 -15.474913 42.096439 7.00000000
-74.068653 -11.498088 32.868978 7.00000000
-73.466263 -14.914412 14.300430 7.00000000
-74.223526 -10.619760 45.001983 7.00000000
-73.468105 -14.903963 61.822812 7.00000000
-74.272197 -10.343730 59.736618 7.00000000
-74.065875 -11.513842 31.161266 7.00000000
-73.647041 -13.889167 3.285188 7.00000000
-73.855954 -12.704362 40.465126 7.00000000
-73.432476 -15.106028 4.338797 7.00000000
-73.573900 -14.303969 31.616077 7.00000000
-74.288300 -10.252408 34.522865 7.00000000
-73.287949 -15.925678 46.595628 7.00000000
-74.304507 -10.160490 51.306400 7.00000000
-74.031738 -11.707441 9.872757 7.00000000
-74.315584 -10.097671 52.946631 7.00000000
-73.965808 -12.081350 6.438233 7.00000000
-74.214711 -10.669750 56.438387 7.00000000
-73.810256 -12.963529 58.302454 7.00000000
-73.902060 -12.442881 44.943040 7.00000000
-73.749012 -13.310864 53.025891 7.00000000
-73.825258 -12.878450 52.346803 7.00000000
-73.408159 -15.243937 56.878117 7.00000000
-74.131566 -11.141287 21.421148 7.00000000
-74.165908 -10.946528 63.063221 7.00000000
-73.492572 -14.765206 8.129465 7.00000000
-73.532136 -14.540826 61.632572 7.00000000
-74.278918 -10.305616 27.966937 7.00000000
-73.895530 -12.479916 12.629299 7.00000000
-74.080620 -11.430215 63.481629 7.00000000
-73.318262 -15.753769 43.273973 7.00000000
-73.283036 -15.953542 3.752673 7.00000000
-73.357130 -15.533338 10.421159 7.00000000
-74.257477 -10.427213 49.962389 7.00000000
-74.304275 -10.161805 6.685244 7.00000000
-73.835794 -12.818696 44.526680 7.00000000
-73.452739 -14.991111 31.389192 7.00000000
-74.274903 -10.328383 12.458056 7.00000000
-73.798194 -13.031937 49.101681 7.00000000
-74.244495 -10.500837 65.967198 7.00000000
-74.265623 -10.381014 10.685875 7.00000000
-74.036313 -11.681495 59.432280 7.00000000
-73.569938 -14.326441 48.030893 7.00000000
-73.830865 -12.846647 32.922891 7.00000000
-73.585144 -14.240204 53.381700 7.00000000
-73.685982 -13.668322 60.780363 7.00000000
-73.406907 -15.251037 54.568954 7.00000000
-73.553210 -14.421312 53.070840 7.00000000
-73.441593 -15.054320 12.928033 7.00000000
-74.041380 -11.652757 13.423089 7.00000000
-74.151035 -11.030873 46.575211 7.00000000
-73.822561 -12.893743 49.916254 7.00000000
-74.294279 -10.218496 56.869901 7.00000000
-73.870814 -12.620086 62.048162 7.00000000
-73.981565 -11.991987 66.193016 7.00000000
-73.508802 -14.673159 21.348962 7.00000000
-73.886801 -12.529420 30.636721 7.00000000
-73.866147 -12.646556 49.616092 7.00000000
-73.630506 -13.982945 61.917068 7.00000000
-74.077242 -11.449377 47.250242 7.00000000
-73.351156 -15.567213 25.776759 7.00000000
-74.100053 -11.320006 29.772577 7.00000000
-74.247247 -10.485229 66.833607 7.00000000
-74.319867 -10.073378 38.443631 7.00000000
-74.271316 -10.348726 53.086437 7.00000000
-74.231206 -10.576204 62.593812 7.00000000
-73.424114 -15.153448 30.285565 7.00000000
-73.289966 -15.914241 8.028514 7.00000000
-74.262396 -10.399313 48.321702 7.00000000
-73.836277 -12.815954 43.525198 7.00000000
-73.430564 -15.116872 54.970841 7.00000000
-73.986022 -11.966713 53.754092 7.00000000
-73.994149 -11.920618 58.436837 7.00000000
-73.317722 -15.756832 40.532766 7.00000000
-73.433363 -15.100998 20.326314 7.00000000
-73.655339 -13.842105 19.307279 7.00000000
-73.490014 -14.779711 62.560236 7.00000000
-73.511402 -14.658417 55.710062 7.00000000
-73.532403 -14.539312 67.847999 7.00000000
-73.809242 -12.969282 18.136326 7.00000000
-73.905353 -12.424207 21.178087 7.00000000
-73.580107 -14.268771 32.271860 7.00000000
-73.749051 -13.310643 6.297398 7.00000000
-74.177277 -10.882048 63.950567 7.00000000
-73.291673 -15.904563 16.165406 7.00000000
-73.605653 -14.123889 35.833873 7.00000000
-74.033197 -11.699170 32.252656 7.00000000
-74.019900 -11.774577 29.854272 7.00000000
-73.897571 -12.468339 35.440992 7.00000000
-74.214918 -10.668575 56.571531 7.00000000
-74.133953 -11.127749 7.975406 7.00000000
-73.341259 -15.623344 5.066020 7.00000000
-73.377249 -15.419234 49.847281 7.00000000
-74.116703 -11.225581 38.082796 7.00000000
-73.625382 -14.012001 13.688679 7.00000000
-73.289472 -15.917042 44.128852 7.00000000
-73.942008 -12.216326 16.188361 7.00000000
-74.111320 -11.256112 59.279864 7.00000000
-73.917498 -12.355331 29.620823 7.00000000
-74.119954 -11.207146 45.700313 7.00000000
-73.581607 -14.260264 11.405783 7.00000000
-73.719583 -13.477759 16.896095 7.00000000
-74.024218 -11.750090 64.690131 7.00000000
-73.724930 -13.447440 65.382928 7.00000000
-73.380662 -15.399876 15.834823 7.00000000
-74.209318 -10.700333 66.212650 7.00000000
-73.925184 -12.311742 36.620751 7.00000000
-73.641871 -13.918486 30.722617 7.00000000
-73.843231 -12.776518 30.833310 7.00000000
-74.165788 -10.947208 35.474693 7.00000000
-73.727788 -13.431230 28.225984 7.00000000
-74.055372 -11.573407 26.778674 7.00000000
-73.430918 -15.114864 61.358070 7.00000000
-73.928163 -12.294845 25.253087 7.00000000
-74.127515 -11.164261 28.094596 7.00000000
-74.281817 -10.289171 11.999997 7.00000000
-73.891507 -12.502730 23.352048 7.00000000
-73.958214 -12.124417 15.407176 7.00000000
-73.498781 -14.729993 64.258612 7.00000000
-73.603790 -14.134455 58.843281 7.00000000
-73.479893 -14.837111 64.525871 7.00000000
-73.951268 -12.163812 27.827481 7.00000000
-74.128479 -11.158799 27.006965 7.00000000
-73.697636 -13.602231 15.123591 7.00000000
-74.218277 -10.649527 25.501807 7.00000000
-73.312724 -15.785174 9.463343 7.00000000
-73.491255 -14.772672 14.529101 7.00000000
-73.774030 -13.168977 6.337438 7.00000000
-73.575655 -14.294017 28.209560 7.00000000
-73.812476 -12.950940 57.925202 7.00000000
-74.032796 -11.701439 15.282066 7.00000000
-73.403386 -15.271004 31.632978 7.00000000
-74.322268 -10.059762 24.676270 7.00000000
-74.279583 -10.301844 7.935153 7.00000000
-74.264647 -10.386549 59.430263 7.00000000
-73.844314 -12.770377 37.874838 7.00000000
-74.297308 -10.201319 32.329306 7.00000000
-73.777860 -13.147257 26.453277 7.00000000
-73.540939 -14.490905 5.776220 7.00000000
-73.979470 -12.003871 42.133185 7.00000000
-74.265546 -10.381453 41.096315 7.00000000
-74.030793 -11.712803 63.870451 7.00000000
-73.620553 -14.039387 47.623644 7.00000000
-73.441513 -15.054776 40.351053 7.00000000
-73.865109 -12.652443 67.445110 7.00000000
-73.458744 -14.957056 64.053504 7.00000000
-74.321037 -10.066747 16.300807 7.00000000
-73.820191 -12.907187 3.559311 7.00000000
-74.055082 -11.575051 65.834339 7.00000000
-73.697196 -13.604724 57.322066 7.00000000
-73.523700 -14.588673 61.028523 7.00000000
-74.072200 -11.477971 63.783096 7.00000000
-73.367004 -15.477335 34.877482 7.00000000
-73.285023 -15.942277 34.584648 7.00000000
-73.789105 -13.083485 57.028440 7.00000000
-74.026616 -11.736488 67.993287 7.00000000
-73.970937 -12.052261 65.051383 7.00000000
-73.591458 -14.204398 49.916366 7.00000000
-73.771485 -13.183408 5.369843 7.00000000
-74.190634 -10.806298 11.655765 7.00000000
-74.116852 -11.224737 29.834615 7.00000000
-73.789062 -13.083724 13.032288 7.00000000
-73.875041 -12.596117 13.518418 7.00000000
-73.884909 -12.540149 21.721973 7.00000000
-73.953646 -12.150321 5.594278 7.00000000
-73.718158 -13.485843 47.067776 7.00000000
-73.872462 -12.610740 32.228782 7.00000000
-74.168634 -10.931065 34.614103 7.00000000
-73.767301 -13.207141 30.756461 7.00000000
-73.283037 -15.953539 33.521551 7.00000000
-73.976343 -12.021601 60.017957 7.00000000
-74.116262 -11.228080 4.308269 7.00000000
-73.997999 -11.898783 15.416911 7.00000000
-74.307179 -10.145337 39.681847 7.00000000
-73.493525 -14.759799 13.696366 7.00000000
-73.561275 -14.375569 22.533687 7.00000000
-74.136455 -11.113560 12.319513 7.00000000
