48.250260 -57.340457 64.239560
47.007328 -58.383401 36.389032
46.387483 -58.903513 32.307545
49.384425 -56.388779 66.984383
49.105187 -56.623087 6.146423
48.617828 -57.032030 17.546913
49.263722 -56.490061 20.836620
47.435872 -58.023810 24.343168
48.348508 -57.258017 27.317951
47.035027 -58.360159 40.731219
49.042201 -56.675939 51.353947
49.214343 -56.531494 24.065302
48.828703 -56.855085 25.190020
49.724687 -56.103265 66.618530
50.430105 -55.511348 40.301104
48.528945 -57.106612 50.243798
48.308337 -57.291724 21.268792
46.786910 -58.568354 15.317288
50.009801 -55.864025 47.185835
47.042139 -58.354191 12.268869
49.408392 -56.368668 46.564327
48.637237 -57.015745 8.236867
46.831023 -58.531338 38.797887
47.289626 -58.146525 61.385965
48.069815 -57.491868 59.352940
48.851302 -56.836123 47.455890
47.758619 -57.752993 26.132037
49.800219 -56.039886 14.795826
46.002338 -59.226688 64.670548
49.720206 -56.107025 59.001345
47.099496 -58.306063 21.841068
46.327216 -58.954083 28.153707
49.366603 -56.403733 51.748014
46.126149 -59.122798 56.881317
47.543499 -57.933500 27.204316
47.510154 -57.961479 12.447730
46.522882 -58.789899 38.364520
49.052149 -56.667592 28.694400
48.318811 -57.282935 18.966857
45.884483 -59.113484 15.201330
46.487276 -58.819777 44.124652
47.879283 -57.651744 27.514726
48.936692 -56.764471 7.870973
47.214224 -58.209794 53.411206
48.273713 -57.320777 17.165269
48.020626 -57.533142 42.533222
49.117923 -56.612401 61.632537
47.421595 -58.035789 50.166584
46.175418 -59.081456 60.367294
45.877388 -59.250368 60.625201
48.337082 -57.267604 23.907367
47.670703 -57.826763 39.356572
49.554445 -56.246114 66.058684
48.249666 -57.340955 32.719934
47.029401 -58.364880 58.518853
45.882112 -59.159237 38.559553
49.222344 -56.524781 30.457436
46.732819 -58.613742 57.882420
46.545045 -58.771303 4.295196
50.453041 -55.492103 26.445555
45.897981 -58.853067 60.954958
48.611488 -57.037350 24.511442
47.389090 -58.063065 55.707137
48.096110 -57.469804 30.941791
49.351610 -56.416314 31.628420
45.904565 -58.726043 40.782171
45.933452 -58.168733 61.411217
45.894255 -58.924957 57.810413
47.624267 -57.865728 39.117969
49.408292 -56.368752 14.878931
47.580883 -57.902130 39.738757
46.774291 -58.578942 4.639529
47.089806 -58.314193 42.683739
49.522896 -56.272588 12.834142
49.721659 -56.105806 33.169895
47.825192 -57.697131 60.308193
49.268744 -56.485847 27.366612
46.959962 -58.423146 52.251040
47.873511 -57.656587 48.495240
45.901712 -58.781090 56.185128
49.506157 -56.286633 34.766879
48.385583 -57.226907 4.110593
47.737735 -57.770517 20.993794
45.889585 -59.015054 41.553093
48.856713 -56.831582 5.631560
47.511055 -57.960723 42.739089
46.939105 -58.440647 62.749191
45.913325 -58.557048 40.703477
48.327514 -57.275633 22.219397
47.279903 -58.154683 58.439187
47.558045 -57.921294 28.044193
48.550682 -57.088372 18.901542
45.882134 -59.158812 59.725313
48.554361 -57.085285 14.741521
46.464473 -58.838910 20.205456
47.505647 -57.965261 25.972945
47.178418 -58.239840 50.876302
46.688615 -58.650833 39.860842
48.620637 -57.029674 36.506289
49.981683 -55.887619 55.401665
47.175251 -58.242496 62.165866
46.936660 -58.442699 28.999741
46.558559 -58.759963 61.448379
46.965580 -58.418431 65.158070
46.421494 -58.874974 66.824511
46.769882 -58.582642 64.676555
47.595961 -57.889479 32.469946
46.501021 -58.808243 56.170352
49.784048 -56.053455 34.592414
50.453460 -55.491751 7.018672
46.282608 -58.991513 67.996859
45.888995 -59.026437 18.012152
50.320703 -55.603148 7.046079
50.419843 -55.519960 29.627644
45.888034 -59.044972 65.528171
49.120153 -56.610529 4.995992
49.475356 -56.312478 47.246306
48.201064 -57.381737 11.728180
45.877108 -59.255773 35.883268
47.546623 -57.930878 34.441256
49.200958 -56.542726 23.094833
49.420554 -56.358463 55.581620
47.788752 -57.727708 55.001899
46.141239 -59.110136 8.102882
47.359656 -58.087763 60.295307
45.893502 -58.939491 63.858525
47.858023 -57.669582 50.425626
49.954728 -55.910237 22.822469
48.323506 -57.278996 8.611998
47.010003 -58.381156 33.624013
47.711364 -57.792644 47.554581
48.372150 -57.238178 3.190969
45.873519 -59.334780 60.357383
46.271402 -59.000917 39.247474
47.274103 -58.159550 17.926210
47.664721 -57.831782 27.548560
47.570089 -57.911188 21.479335
47.988170 -57.560376 62.730431
45.873383 -59.327638 55.270036
50.036033 -55.842015 67.402903
48.854890 -56.833111 20.266991
47.885223 -57.646759 34.567447
47.852781 -57.673981 12.590309
45.883492 -59.132612 62.157651
46.474222 -58.830730 7.969910
46.347881 -58.936742 67.778623
45.882615 -59.149527 12.505399
49.913065 -55.945197 44.567028
50.163338 -55.735193 47.368327
49.347909 -56.419419 52.262712
46.480336 -58.825600 42.307224
49.740449 -56.090039 13.103892
49.548958 -56.250719 59.831944
47.335678 -58.107882 49.314931
50.443209 -55.500353 43.213909
50.018107 -55.857056 57.915825
48.485896 -57.142734 34.452603
50.299373 -55.621046 56.610518
50.016871 -55.858093 11.135751
48.162731 -57.413902 29.786736
48.317677 -57.283887 59.459458
45.974077 -59.250402 4.546436
47.343530 -58.101294 7.370220
48.857419 -56.830990 29.335593
49.340583 -56.425567 60.606029
48.243084 -57.346478 48.621522
46.402359 -58.891031 21.489694
48.423349 -57.195218 32.703462
50.129603 -55.763500 36.947531
46.898474 -58.474740 3.403586
46.165241 -59.089996 6.788471
46.475843 -58.829369 64.979023
46.820166 -58.540449 22.521131
45.882325 -59.155111 33.916574
45.888983 -59.321805 10.867018
48.139439 -57.433447 47.763273
47.342864 -58.101853 3.772945
48.722544 -56.944163 27.587488
46.652512 -58.681127 54.987211
46.277611 -58.995707 46.234677
49.784526 -56.053054 43.826638
49.229316 -56.518931 65.099356
47.459568 -58.003927 8.204179
47.573504 -57.908323 8.207911
46.441402 -58.858269 61.846383
45.958335 -59.263611 33.168337
49.365430 -56.404718 44.701596
45.899527 -58.823252 28.781047
48.598525 -57.048227 19.636609
48.708458 -56.955982 49.318910
49.659708 -56.157789 52.365282
46.000301 -59.228397 56.482757
47.631063 -57.860025 21.376901
47.402065 -58.052177 57.338430
46.891813 -58.480329 15.297035
48.063003 -57.497584 11.442012
49.577470 -56.226795 46.040478
47.172246 -58.245018 22.896794
47.084872 -58.318334 38.827867
50.358892 -55.571103 32.033775
50.351733 -55.577110 10.883888
49.733681 -56.095718 62.064697
48.543692 -57.094237 62.498393
45.879248 -59.214487 16.941564
49.041957 -56.676144 19.063626
48.524233 -57.110565 55.495046
45.965618 -59.257499 38.548548
49.672000 -56.147474 6.572493
47.114208 -58.293718 10.021678
47.366595 -58.081940 23.703379
49.787811 -56.050298 62.600945
48.475244 -57.151673 61.434669
48.130634 -57.440835 20.554963
49.593627 -56.213237 9.324265
45.906349 -58.691623 40.918081
50.423378 -55.516994 3.080590
50.164620 -55.734117 32.148210
50.210376 -55.695724 24.718380
45.891485 -58.978404 39.268256
47.995124 -57.554541 37.131520
47.270694 -58.162411 31.731835
49.178068 -56.561933 63.330118
46.176837 -59.080266 33.142746
49.076045 -56.647540 56.884600
48.228941 -57.358345 31.954382
45.911747 -58.587488 39.194398
48.883559 -56.809055 28.492797
49.957551 -55.907869 11.843166
49.283881 -56.473145 42.813553
47.396536 -58.056817 32.757472
45.881894 -59.163433 17.651298
48.577887 -57.065545 16.170506
45.880521 -59.189933 46.053777
49.174298 -56.565096 3.106168
46.246697 -59.021646 42.849468
45.903716 -58.742436 65.835515
47.733218 -57.774307 55.624763
47.542461 -57.934371 24.762144
46.510658 -58.800157 32.885353
47.760828 -57.751139 47.717898
46.300741 -58.976298 32.538667
46.633328 -58.697224 45.473716
47.259591 -58.171727 39.342983
48.370892 -57.239235 66.334967
48.417175 -57.200398 58.359086
48.452717 -57.170575 29.460298
47.882272 -57.649235 11.385110
45.897027 -58.871484 42.933182
47.041857 -58.354427 11.656565
49.812867 -56.029273 31.860933
49.653085 -56.163346 57.648100
47.319126 -58.121771 6.235381
45.901164 -58.791672 61.524847
47.497526 -57.972076 30.048903
47.766294 -57.746552 36.148846
46.652757 -58.680921 55.103569
48.617155 -57.032595 13.469350
46.035703 -59.198691 15.182974
46.924708 -58.452727 46.653962
46.062528 -59.176182 23.039970
46.414660 -58.880708 25.140286
50.350605 -55.578057 51.193495
48.109632 -57.458458 47.645733
45.879935 -59.201226 48.526235
49.361763 -56.407794 46.318881
47.355968 -58.090857 54.405978
45.967645 -59.255799 30.604343
45.878021 -59.238159 25.249639
47.447945 -58.013679 65.046488
48.290232 -57.306916 12.082753
46.768102 -58.584135 47.360951
49.398628 -56.376861 4.471440
46.721209 -58.623484 55.715388
49.090623 -56.635308 54.333344
48.387082 -57.225650 45.359520
45.931723 -58.202091 57.917809
48.160792 -57.415529 36.619300
46.578784 -58.742992 24.910567
46.856213 -58.510201 6.580543
47.654029 -57.840754 38.907652
47.644025 -57.849148 33.659740
50.018029 -55.857121 61.805866
46.355229 -58.930577 36.436195
48.674299 -56.984645 19.391990
45.873808 -59.319445 12.675887
46.870317 -58.498367 44.958314
48.205146 -57.378311 43.062441
48.221240 -57.364807 10.529344
47.682707 -57.816691 40.741281
45.935396 -58.131240 61.238630
49.129973 -56.602289 53.122139
49.259952 -56.493224 36.015259
49.313034 -56.448683 48.610243
45.874445 -59.307152 21.206457
48.223609 -57.362819 8.912124
46.512501 -58.798611 10.812566
46.146689 -59.105563 7.136866
45.881508 -59.170890 19.463584
45.913030 -58.562736 44.251555
49.690998 -56.131533 61.357330
50.038193 -55.840202 15.488560
50.300260 -55.620302 59.899440
46.237255 -59.029569 24.202920
46.167058 -59.088471 47.756789
49.087038 -56.638316 11.241398
49.077477 -56.646338 40.303780
45.882487 -59.151999 32.150677
46.820270 -58.540361 65.860525
46.722735 -58.622203 52.574172
48.521375 -57.112964 53.836961
48.567101 -57.074595 8.324268
47.233568 -58.193563 37.873896
48.712230 -56.952817 56.630012
48.482091 -57.145927 67.055246
45.885478 -59.324745 64.505818
48.628551 -57.023033 41.067863
49.997565 -55.874293 16.772486
49.398030 -56.377363 19.224031
45.890177 -59.003641 22.042821
49.350461 -56.417278 36.911464
50.462910 -55.483822 64.151431
47.930927 -57.608409 5.579829
45.901485 -58.785468 55.910023
47.491690 -57.976973 20.438449
48.986829 -56.722401 19.902846
50.466186 -55.481073 30.262558
49.428170 -56.352072 6.080690
49.477565 -56.310625 52.799149
45.875653 -59.283850 8.455810
48.101999 -57.464863 19.130562
48.372550 -57.237843 59.152849
47.528795 -57.945838 41.661197
49.248677 -56.502685 18.567642
48.979522 -56.728533 34.370360
48.887134 -56.806055 62.082770
50.320829 -55.603042 67.462335
46.668754 -58.667498 35.748043
49.694827 -56.128320 26.969419
48.131486 -57.440120 27.908194
47.117200 -58.291207 43.530692
45.907564 -58.668195 49.399629
49.085260 -56.639808 15.614256
47.062993 -58.336692 64.520699
49.391682 -56.382690 61.045063
45.908659 -58.647058 43.733901
45.877148 -59.331735 31.640121
49.443885 -56.338886 5.371265
46.786027 -58.569094 26.134128
45.891838 -58.971585 30.323904
47.273509 -58.160049 15.977278
47.406094 -58.048796 17.375041
46.209336 -59.052996 22.765314
48.947959 -56.755017 45.927631
49.812130 -56.029892 48.119759
48.939976 -56.761716 59.289669
46.357873 -58.928359 35.625365
50.068078 -55.815125 26.812641
48.116008 -57.453107 34.496527
48.094152 -57.471447 21.591874
49.807109 -56.034104 19.716964
48.639875 -57.013531 37.752002
49.141017 -56.593022 8.527194
47.681460 -57.817736 62.080711
46.953307 -58.428730 31.283348
50.341002 -55.586115 51.733465
47.512791 -57.959267 38.654340
49.861488 -55.988475 16.424713
46.304987 -58.972735 26.741126
46.867208 -58.500976 15.466989
49.638863 -56.175280 60.261584
49.813531 -56.028716 4.801586
47.459963 -58.003594 42.002106
49.683655 -56.137695 61.007734
48.825744 -56.857568 60.612144
47.218100 -58.206542 23.274854
46.836554 -58.526698 9.295020
48.383188 -57.228916 3.503053
48.350517 -57.256331 12.543945
47.548943 -57.928931 44.695625
45.893161 -58.946068 22.232712
48.719368 -56.946828 47.537330
48.974109 -56.733074 67.112955
46.778554 -58.575366 44.960340
48.713748 -56.951544 27.320100
47.504488 -57.966234 34.683910
46.708696 -58.633983 42.136885
46.719131 -58.625227 6.308919
45.888128 -59.043173 46.846950
46.171012 -59.085154 64.976250
47.691585 -57.809241 48.553810
46.963446 -58.420222 5.871617
48.674060 -56.984846 26.415755
48.235901 -57.352505 61.163795
45.916616 -58.493552 45.473845
45.881959 -59.162180 24.052671
50.073053 -55.810951 62.314635
46.665337 -58.670365 50.361461
49.892849 -55.962160 46.853248
49.324779 -56.438828 37.966804
47.058950 -58.340085 37.407193
46.208059 -59.054067 63.086049
48.421407 -57.196847 34.993184
45.881032 -59.328476 28.855527
48.429814 -57.189793 45.671358
46.426861 -58.870471 21.630105
46.551478 -58.765905 67.648357
48.868058 -56.822063 48.657732
48.599728 -57.047218 50.101882
48.446634 -57.175679 18.763739
50.098252 -55.789806 56.709818
50.121997 -55.769882 56.458217
49.760037 -56.073602 4.492434
49.065302 -56.656555 28.810381
49.763781 -56.070461 5.455373
48.607242 -57.040913 34.520934
46.674290 -58.662853 25.499816
45.905932 -58.699667 56.346614
48.831022 -56.853139 42.828320
47.031670 -58.362976 9.616375
48.139726 -57.433206 18.749176
46.562043 -58.757040 48.250791
46.322628 -58.957933 14.786799
47.587911 -57.896233 31.452742
47.222161 -58.203135 62.817993
46.016395 -59.214893 34.204496
49.052645 -56.667175 9.208160
45.890595 -58.995559 26.571541
49.477679 -56.310529 3.707703
50.454895 -55.490547 63.704538
49.400536 -56.375260 3.003286
46.378253 -58.911257 48.156047
46.103835 -59.141522 61.848516
47.387826 -58.064125 8.384807
46.099314 -59.145315 17.423842
47.259891 -58.171476 25.068867
47.053945 -58.344285 54.401043
47.978150 -57.568784 12.143972
48.962657 -56.742684 8.382590
45.886467 -59.075206 62.857304
47.786648 -57.729474 33.677741
47.017625 -58.374761 66.289253
49.660752 -56.156912 48.959070
45.885488 -59.094101 31.781476
49.024876 -56.690476 62.263968
49.291442 -56.466801 53.977092
48.463205 -57.161775 5.072579
46.437760 -58.861326 8.682239
45.988924 -59.237944 31.423560
47.669411 -57.827847 54.610901
50.276869 -55.639929 51.840150
47.977822 -57.569060 7.129214
47.513859 -57.958371 23.095407
45.889745 -59.011965 43.756667
46.819608 -58.540917 29.282192
47.253679 -58.176688 64.975320
49.561846 -56.239905 30.127446
47.588932 -57.895377 29.804489
46.635590 -58.695326 57.732681
47.571559 -57.909955 62.958933
47.002817 -58.387186 63.805234
48.925860 -56.773561 4.882803
49.118010 -56.612327 14.787480
50.168758 -55.730644 33.067951
48.790592 -56.887064 4.934155
48.713552 -56.951708 59.458527
45.886500 -59.074572 35.595397
46.080204 -59.161350 52.730206
46.706828 -58.635550 16.757276
47.395803 -58.057431 25.524072
50.458418 -55.487591 38.352128
49.595176 -56.211937 16.904125
48.390906 -57.222440 49.610340
47.839098 -57.685463 60.084606
46.961264 -58.422053 51.743827
47.197969 -58.223434 41.207896
47.793878 -57.723407 25.128582
45.914151 -58.541112 43.650611
46.445326 -58.854977 46.087703
48.280507 -57.315077 60.524329
50.091072 -55.795831 66.316551
50.432203 -55.509588 26.865693
46.425017 -58.872018 4.408414
45.950706 -59.270013 39.546441
47.108424 -58.298572 67.004425
48.649240 -57.005672 10.811850
49.974991 -55.893234 51.819199
46.103165 -59.142084 60.461256
46.302946 -58.974448 63.812192
49.148421 -56.586810 12.945905
48.708550 -56.955905 63.429787
48.603239 -57.044271 13.022005
47.038781 -58.357009 57.131523
46.339180 -58.944044 44.712110
48.633104 -57.019212 60.546812
47.024811 -58.368731 25.293760
46.247066 -59.021337 12.074739
50.395686 -55.540229 16.246270
49.381271 -56.391425 56.141204
47.198932 -58.222626 28.552034
50.212477 -55.693960 55.512110
47.876298 -57.654248 43.810362
47.904897 -57.630250 17.743805
50.234987 -55.675072 43.710356
46.924324 -58.453050 22.540895
47.490430 -57.978030 65.817670
48.234431 -57.353739 31.202365
49.977985 -55.890723 37.396742
49.335405 -56.429912 63.660527
45.939682 -58.048544 64.999759
45.897359 -58.865065 31.978227
49.439672 -56.342421 40.313975
50.282394 -55.635293 54.878672
46.193717 -59.066102 46.859167
45.879467 -59.210250 53.444056
50.448907 -55.495572 45.559517
50.404899 -55.532499 21.571010
45.886187 -59.080611 43.280039
45.926160 -58.309426 55.357556
46.557921 -58.760498 36.471539
45.884475 -59.113638 29.304004
47.861720 -57.666480 53.865061
47.170240 -58.246701 46.844105
45.891481 -58.978470 51.230294
46.090098 -59.153049 26.742986
49.777687 -56.058792 18.681617
48.247118 -57.343093 18.708673
45.908458 -58.650940 36.859021
49.704889 -56.119877 39.967877
46.910776 -58.464418 15.740062
47.245827 -58.183277 12.282041
45.888498 -59.036032 29.393550
48.102607 -57.464352 3.649676
49.851197 -55.997110 24.529025
49.034630 -56.682291 19.207544
46.084037 -59.158134 50.874454
48.394209 -57.219669 30.133101
45.926174 -58.309143 65.698409
49.842073 -56.004766 66.286889
48.588736 -57.056441 52.148196
48.268369 -57.325262 63.257737
47.021469 -58.371535 8.407239
47.370719 -58.078480 17.878141
50.361668 -55.568774 9.626527
49.260775 -56.492534 34.927528
49.851155 -55.997146 27.976202
46.372053 -58.916460 53.311252
49.079011 -56.645051 7.854559
48.077539 -57.485387 59.942625
46.569708 -58.750608 19.121719
47.908305 -57.627391 55.411907
46.127622 -59.121562 58.551898
45.912779 -58.567573 65.010943
47.593337 -57.891681 42.945409
48.843144 -56.842967 59.632403
48.557403 -57.082733 29.118067
46.758032 -58.592585 7.377861
47.848460 -57.677607 62.508522
46.350286 -58.934725 10.153136
47.459709 -58.003808 52.840216
46.869682 -58.498900 46.909516
45.917794 -58.470829 53.440924
47.885775 -57.646296 67.281107
45.908298 -58.654030 56.455940
46.635212 -58.695644 63.896096
50.075186 -55.809161 51.258376
47.182990 -58.236003 67.749410
47.210833 -58.212639 45.152604
46.802081 -58.555624 38.993275
49.299787 -56.459799 55.533439
49.774917 -56.061117 60.717227
47.718157 -57.786944 8.109165
47.924534 -57.613774 24.437455
49.912116 -55.945993 47.097562
50.208321 -55.697448 31.031623
49.388961 -56.384973 11.536833
46.181721 -59.076168 61.778993
48.335107 -57.269261 17.911415
46.962330 -58.421158 45.131836
50.077920 -55.806867 28.590240
48.971462 -56.735296 30.300947
48.365302 -57.243925 29.325228
46.095916 -59.148166 40.174477
50.059191 -55.822583 50.178196
45.912939 -58.564484 45.053670
46.737757 -58.609598 52.867346
46.911398 -58.463896 57.354049
45.894543 -58.919403 63.251021
48.203744 -57.379488 54.119861
46.685257 -58.653651 8.939107
46.779081 -58.574923 22.866733
45.907459 -58.670221 60.752306
48.880107 -56.811952 38.010974
48.490226 -57.139101 66.674078
47.342607 -58.102069 30.639650
49.221678 -56.525339 61.996787
50.081776 -55.803631 44.039148
49.442691 -56.339887 21.781818
50.311881 -55.610550 37.632879
46.600170 -58.725047 24.261423
47.898602 -57.635533 53.029377
50.400368 -55.536301 45.002432
46.616682 -58.711192 26.085834
50.097225 -55.790668 60.578981
50.225533 -55.683005 35.308957
49.958377 -55.907176 8.258535
46.497599 -58.811114 21.062866
47.064520 -58.335411 14.981072
45.911081 -58.600344 39.900265
49.247654 -56.503543 59.451721
46.857419 -58.509189 22.694522
48.059896 -57.500191 32.071216
47.148119 -58.265263 41.600926
49.043771 -56.674621 23.401930
46.085398 -59.156993 53.773515
50.372166 -55.559965 35.336300
46.190577 -59.068736 8.574258
48.666280 -56.991374 35.051823
49.350319 -56.417397 41.531684
50.111714 -55.778511 65.455603
48.414128 -57.202955 15.956666
48.943689 -56.758600 35.725105
50.187492 -55.714925 18.062320
49.077869 -56.646010 60.278296
45.906857 -58.681832 59.035124
45.874872 -59.333644 67.288143
45.990516 -59.236608 51.953363
46.100440 -59.144370 12.410019
46.937223 -58.442226 35.570241
45.886193 -59.080492 26.897513
47.497482 -57.972113 33.361706
47.984449 -57.563499 13.605137
49.729396 -56.099314 45.922638
48.545824 -57.092449 28.894249
47.060987 -58.338375 21.971902
45.887531 -59.054691 23.417346
50.270250 -55.645483 17.595284
45.884894 -59.105548 20.411407
45.880432 -59.191632 35.510478
48.430351 -57.189342 32.103382
47.312178 -58.127601 23.976729
46.362093 -58.924818 5.287910
48.406778 -57.209122 61.535502
49.776160 -56.060074 58.089130
48.710586 -56.954197 13.299048
45.916706 -58.491823 44.648062
49.295683 -56.463242 9.013131
47.808933 -57.710774 30.375813
48.421879 -57.196451 25.848251
45.886670 -59.071294 34.932098
47.961146 -57.583052 60.930272
46.046740 -59.189430 49.213253
49.754110 -56.078576 53.211413
48.664383 -56.992966 34.218125
48.545810 -57.092461 35.972264
47.005015 -58.385342 17.996347
50.076402 -55.808141 67.854665
50.396915 -55.539198 21.207606
46.493608 -58.814463 51.218499
48.543329 -57.094543 37.026166
48.711297 -56.953601 49.167199
46.536297 -58.778643 19.910369
48.586890 -57.057990 55.276103
46.629718 -58.700254 67.194349
50.160391 -55.737665 39.847857
49.471286 -56.315893 30.988507
48.625580 -57.025526 14.616386
49.482948 -56.306108 27.390161
47.549380 -57.928565 57.439766
45.904885 -58.719880 42.172119
45.903390 -58.748715 40.386954
47.243140 -58.185531 41.691592
47.864081 -57.664499 20.258807
47.335281 -58.108216 16.322792
46.407934 -58.886353 58.649472
49.467612 -56.318976 24.501941
46.833310 -58.529420 45.897541
48.487433 -57.141444 28.449779
49.933900 -55.927714 35.455230
46.536635 -58.778359 46.124713
49.430703 -56.349947 3.497283
48.321273 -57.280869 58.307563
48.185369 -57.394907 40.618313
49.461031 -56.324499 66.066295
48.975180 -56.732176 25.353593
46.713379 -58.630054 28.326048
50.044785 -55.834670 39.831112
45.886062 -59.083016 40.415294
47.899746 -57.634573 61.712153
49.753109 -56.079416 53.998356
49.945411 -55.918056 62.496553
49.115154 -56.614724 19.324814
48.714980 -56.950510 58.226029
47.535564 -57.940158 26.890977
47.445845 -58.015441 54.222835
46.274734 -58.998121 38.167753
48.422232 -57.196155 36.029641
49.389554 -56.384475 65.661404
46.246122 -59.022129 4.305603
47.324285 -58.117442 45.665123
50.431840 -55.509893 41.340925
48.008723 -57.543131 60.697167
48.588939 -57.056271 66.994430
46.820979 -58.539766 65.035768
45.897378 -58.864701 34.180330
49.358273 -56.410723 17.789381
47.099183 -58.306326 53.165920
48.807132 -56.873185 28.010910
47.570402 -57.910925 39.603143
49.322649 -56.440615 32.124295
48.421169 -57.197047 32.575060
45.883193 -59.138377 21.578353
46.339378 -58.943877 48.587311
48.691798 -56.969962 59.794676
47.045809 -58.351112 7.627025
48.701465 -56.961851 14.685473
47.608986 -57.878550 16.621280
48.629462 -57.022268 50.240526
49.299338 -56.460175 56.226724
46.564388 -58.755072 31.867658
49.198130 -56.545099 42.304940
49.179263 -56.560930 13.701435
46.305818 -58.972038 5.152462
49.046607 -56.672242 54.229679
48.356085 -57.251658 30.022251
49.737803 -56.092260 63.293086
49.261770 -56.491699 33.437896
46.017642 -59.213847 65.904269
49.033063 -56.683606 61.919920
48.531218 -57.104704 35.811111
47.587388 -57.896673 47.753513
47.817610 -57.703493 9.171033
49.154238 -56.581928 19.809912
47.279939 -58.154653 52.128793
45.873016 -59.334707 25.871263
50.449541 -55.495040 49.681303
50.391134 -55.544049 52.325943
49.980088 -55.888958 56.233660
48.929166 -56.770787 16.810835
45.878000 -59.331020 43.915497
48.440736 -57.180628 17.657260
49.524295 -56.271414 40.121077
49.402234 -56.373835 45.076158
49.319421 -56.443324 12.957252
49.365866 -56.404351 41.860833
48.357394 -57.250560 33.007706
48.843362 -56.842785 60.370250
48.769534 -56.904734 10.489277
50.100569 -55.787862 3.354665
48.334924 -57.269415 50.029513
47.764010 -57.748469 15.233883
50.145400 -55.750245 63.959410
48.859395 -56.829331 18.826920
47.060526 -58.338763 38.080645
49.158200 -56.578604 53.245054
47.407397 -58.047703 31.276032
48.031836 -57.523736 58.541297
48.517147 -57.116511 48.816657
46.798120 -58.558947 32.421741
49.913356 -55.944952 45.805688
47.230420 -58.196204 15.238243
46.889163 -58.482553 26.526769
45.884229 -59.325793 32.116939
49.215346 -56.530653 13.515876
46.593347 -58.730772 64.206246
45.881005 -59.180589 11.733544
48.077358 -57.485539 55.390185
49.955424 -55.909653 57.372533
50.312032 -55.610423 39.212949
46.061367 -59.177157 65.138980
50.176528 -55.724125 39.148441
47.884865 -57.647059 18.379528
49.120909 -56.609895 45.074055
48.343878 -57.261901 19.242848
46.103137 -59.142108 29.839912
47.673137 -57.824721 19.801365
48.781404 -56.894774 7.161978
47.239399 -58.188670 19.261102
49.698431 -56.125296 55.063790
48.172097 -57.406043 57.175355
50.241055 -55.669980 61.977031
48.624544 -57.026395 28.843048
47.984706 -57.563283 24.314703
45.880013 -59.199732 23.314568
49.226592 -56.521217 54.764341
50.291023 -55.628052 38.770948
50.418170 -55.521363 27.462257
47.197233 -58.224051 56.963788
45.971922 -59.252210 48.907242
49.146625 -56.588316 7.386617
50.396876 -55.539231 23.995972
47.081793 -58.320918 53.939923
49.919363 -55.939912 23.470521
45.962849 -59.259823 45.487281
50.094158 -55.793242 50.447813
48.906619 -56.789706 31.366682
47.229159 -58.197262 34.018982
46.637039 -58.694110 61.078913
47.766899 -57.746045 59.717398
49.040186 -56.677629 9.428855
49.372306 -56.398948 31.278684
45.935360 -59.282889 21.759988
49.279903 -56.476483 30.953197
47.974628 -57.571739 66.990235
48.449860 -57.172972 60.752370
49.025378 -56.690055 47.132390
47.655317 -57.839674 47.299907
47.605658 -57.881342 31.803408
46.692836 -58.647291 31.219625
47.587434 -57.896634 31.307734
47.917173 -57.619950 11.017946
50.224534 -55.683843 10.375298
45.890155 -59.004063 55.198071
49.162907 -56.574655 27.371924
45.882708 -59.327069 58.170166
47.303262 -58.135083 47.608466
46.793017 -58.563229 28.208106
48.679995 -56.979866 43.086609
50.188918 -55.713729 36.056544
47.874972 -57.655360 40.913472
48.860478 -56.828423 3.635545
46.541848 -58.773985 43.590871
48.784582 -56.892107 3.582384
49.518880 -56.275958 11.246837
50.311823 -55.610599 9.346799
45.970026 -59.253801 24.522197
45.890111 -59.004904 41.251048
45.891411 -58.979834 45.755457
45.893438 -58.940715 41.811266
48.552950 -57.086469 8.619898
46.073831 -59.166698 4.182183
46.156680 -59.097179 66.324399
47.525382 -57.948701 25.048423
47.316070 -58.124336 48.927373
50.042105 -55.836919 32.960001
45.943167 -59.276338 34.569797
49.527349 -56.268851 20.905762
50.446234 -55.497814 33.560916
46.824082 -58.537163 30.046323
45.930511 -58.225472 58.049661
47.222279 -58.203036 4.030624
47.897598 -57.636376 59.866495
47.657312 -57.838000 12.174276
48.324635 -57.278048 5.894092
47.302230 -58.135949 25.945655
49.657256 -56.159846 4.060700
46.198970 -59.061694 40.159046
50.432506 -55.509334 31.196744
45.888745 -59.031252 53.594324
47.029859 -58.364495 43.333927
50.006965 -55.866405 19.629382
48.328495 -57.274809 15.084112
45.905325 -58.711378 35.650325
48.771943 -56.902713 29.130423
46.535323 -58.779460 63.520065
48.224050 -57.362449 5.655439
46.784855 -58.570078 44.050685
48.280803 -57.314828 50.672890
47.136061 -58.275381 59.679911
48.485096 -57.143406 32.499435
46.187580 -59.071252 14.459969
46.267119 -59.004511 23.889298
45.907875 -58.662198 49.760516
47.144521 -58.268282 10.687925
49.988725 -55.881710 23.938555
46.397676 -58.894960 51.161018
50.330734 -55.594731 4.629283
46.647807 -58.685075 48.179002
49.718383 -56.108554 64.722933
48.468043 -57.157715 66.328741
47.265748 -58.166561 49.040685
46.757697 -58.592866 6.544109
48.786961 -56.890111 65.666816
46.851319 -58.514308 18.094387
49.004466 -56.707602 44.368953
46.903383 -58.470621 48.141444
50.463326 -55.483473 15.121278
46.896118 -58.476717 8.958763
47.131414 -58.279280 11.695636
46.797271 -58.559660 59.749286
46.648510 -58.684485 56.209054
48.464148 -57.160983 39.917144
46.464797 -58.838638 25.026408
45.885242 -59.098838 37.740479
46.602109 -58.723420 27.048233
47.449674 -58.012228 57.900117
45.882393 -59.153809 21.222426
48.038082 -57.518495 44.188746
49.318072 -56.444455 11.824098
45.878730 -59.224483 64.079837
49.549517 -56.250250 50.877788
47.481661 -57.985388 44.299422
50.094572 -55.792895 17.646952
47.159348 -58.255841 34.446769
46.294615 -58.981438 11.576847
45.908240 -58.655145 37.163363
46.484745 -58.821900 49.947602
45.926969 -58.293823 66.634853
45.921519 -58.398967 66.192889
47.023326 -58.369977 33.283513
46.390243 -58.901197 15.604614
50.223846 -55.684421 21.225052
49.352450 -56.415609 66.729730
47.091000 -58.313192 53.483577
50.269491 -55.646120 17.108078
47.295392 -58.141686 63.390876
49.720356 -56.106899 14.033878
48.683178 -56.977195 55.207753
46.988870 -58.398889 53.847953
48.652665 -57.002798 62.106158
49.834575 -56.011058 3.034131
50.036960 -55.841237 17.067222
46.396154 -58.896237 45.068721
50.217011 -55.690156 33.999034
47.159807 -58.255456 39.737380
46.839340 -58.524359 20.384000
48.988899 -56.720665 50.514176
45.931015 -58.215760 64.324680
50.431552 -55.510134 53.227076
45.884178 -59.119363 18.642396
50.385480 -55.548794 59.983765
46.510520 -58.800272 46.737019
50.434567 -55.507605 5.232802
48.608881 -57.039537 13.684198
47.223992 -58.201598 64.368844
47.948292 -57.593838 39.135755
50.317655 -55.605705 37.771494
47.091280 -58.312956 46.060108
45.884772 -59.107918 49.174823
47.593386 -57.891640 67.437058
47.487076 -57.980845 14.558258
49.751425 -56.080829 56.287082
48.037791 -57.518740 5.833039
49.796597 -56.042925 47.600894
49.411039 -56.366446 30.517900
50.336782 -55.589656 41.744110
47.643163 -57.849872 62.773421
48.344309 -57.261540 56.787691
47.706115 -57.797048 63.116984
50.281547 -55.636004 25.710413
48.181106 -57.398484 25.821542
49.107824 -56.620874 3.684676
49.723342 -56.104393 37.207549
45.888414 -59.037653 57.940542
47.502665 -57.967763 18.909957
48.173554 -57.404821 62.870573
45.942122 -59.277215 14.425161
45.998821 -59.229639 25.927301
50.388846 -55.545969 16.687171
48.945896 -56.756749 21.173697
48.266591 -57.326753 28.490647
46.855579 -58.510733 34.055829
50.103394 -55.785492 19.265295
46.325661 -58.955387 21.559351
48.404073 -57.211392 8.572459
50.182478 -55.719132 39.983877
48.841082 -56.844698 52.058328
48.478259 -57.149143 45.931793
49.945105 -55.918312 49.893727
46.737818 -58.609547 14.781037
46.009118 -59.220999 66.840993
45.898858 -58.836160 57.691070
46.491013 -58.816641 16.306026
47.927982 -57.610880 25.468307
45.908617 -58.647869 64.186392
47.626341 -57.863987 56.959742
48.398173 -57.216342 31.875249
46.407307 -58.886878 66.540981
49.992813 -55.878280 32.142473
50.090958 -55.795927 54.993425
48.717107 -56.948725 45.636729
49.778655 -56.057980 28.070556
45.882923 -59.326889 65.653706
49.419596 -56.359267 17.676171
48.804088 -56.875740 6.559710
46.762907 -58.588495 60.473188
49.675103 -56.144871 22.323214
49.310462 -56.450841 41.745936
49.280623 -56.475879 67.576149
49.812624 -56.029477 42.830939
47.802504 -57.716168 50.701767
49.095516 -56.631203 13.373251
50.333664 -55.592273 6.179099
48.462048 -57.162746 61.931989
48.663607 -56.993617 32.779319
49.249084 -56.502344 17.536209
49.889921 -55.964617 27.697085
48.370953 -57.239183 38.149203
49.812521 -56.029563 25.784386
47.931371 -57.608036 61.828059
49.235085 -56.514090 43.358008
47.255438 -58.175212 10.963954
45.993161 -59.234388 63.861599
50.302619 -55.618322 64.868059
48.950992 -56.752473 58.053176
50.258435 -55.655396 57.263000
46.660505 -58.674420 22.473696
49.403711 -56.372595 41.062021
46.042455 -59.193025 33.681958
46.741093 -58.606799 10.731615
49.057170 -56.663378 65.545573
47.971579 -57.574298 19.179566
45.894585 -58.918586 57.501925
46.568711 -58.751444 56.728162
50.439878 -55.503148 16.968920
48.250569 -57.340197 15.795951
46.787180 -58.568127 42.356554
49.700604 -56.123473 3.649658
47.871906 -57.657934 12.439119
46.428575 -58.869033 67.408309
46.895854 -58.476939 42.246824
45.880368 -59.192884 26.500542
50.468028 -55.479527 16.600285
46.229883 -59.035755 56.541969
45.918191 -58.463174 51.439374
47.024551 -58.368949 12.108333
45.889385 -59.018921 29.691320
45.916925 -58.487597 53.068737
49.847768 -55.999988 47.500083
46.492096 -58.815732 60.576649
49.609458 -56.199953 7.414320
48.626336 -57.024892 44.799656
48.770403 -56.904005 9.473726
47.324281 -58.117446 55.221685
47.894251 -57.639184 21.686842
48.654347 -57.001387 23.329378
48.925103 -56.774196 53.473951
50.005936 -55.867269 4.427782
50.076335 -55.808197 37.619611
48.289581 -57.307462 17.342961
48.166403 -57.410821 56.713804
49.184676 -56.556388 55.877754
48.277846 -57.317309 61.837431
47.191295 -58.229034 44.276728
46.821042 -58.539714 57.627730
45.873909 -59.334453 63.057781
48.497324 -57.133145 21.813525
47.578076 -57.904486 9.685121
47.827992 -57.694781 30.805640
50.246005 -55.665827 25.256080
45.982085 -59.243682 44.855347
48.114713 -57.454194 5.906664
46.677005 -58.660575 8.612093
49.544548 -56.254419 54.532468
49.208015 -56.536804 64.964488
48.648421 -57.006360 33.713977
46.369577 -58.918537 57.284779
50.129540 -55.763553 59.538169
48.484825 -57.143633 47.457949
48.890013 -56.803639 22.548689
47.060032 -58.339177 58.901275
47.424148 -58.033647 4.657495
46.959471 -58.423558 57.865874
49.903235 -55.953445 39.340138
45.973937 -59.250519 50.779745
47.707440 -57.795937 16.604176
45.991356 -59.235903 34.934637
47.744142 -57.765140 45.899054
48.894549 -56.799834 11.312949
48.635108 -57.017531 62.927014
48.184013 -57.396044 56.414238
45.977414 -59.247602 61.132860
50.148867 -55.747335 7.009586
49.678930 -56.141660 44.959670
48.189987 -57.391032 55.407867
45.912359 -58.575688 54.629669
49.539791 -56.258411 17.190394
47.301909 -58.136218 43.156504
49.208712 -56.536219 39.975454
46.460072 -58.842603 57.224851
45.873019 -59.334655 66.626299
48.443442 -57.178358 46.953603
49.272053 -56.483070 56.098640
45.881186 -59.177088 65.372162
46.166188 -59.089201 25.993013
47.049063 -58.348381 53.592795
49.576068 -56.227971 14.841197
47.209596 -58.213677 51.843297
47.730295 -57.776759 19.694627
50.059748 -55.822115 12.648609
49.347583 -56.419693 12.437366
46.498008 -58.810772 20.590420
46.582108 -58.740203 65.719116
45.892099 -58.966548 43.498280
49.754189 -56.078510 60.212786
49.074289 -56.649014 43.130863
45.888435 -59.037251 30.082982
47.415387 -58.040999 51.093712
50.465852 -55.481354 18.666023
47.254007 -58.176412 34.356284
49.416596 -56.361784 34.913370
48.166984 -57.410333 32.536817
47.026883 -58.366992 39.387132
45.894879 -58.912918 44.754004
45.992655 -59.234813 25.018792
47.881396 -57.649971 67.114720
47.714216 -57.790251 23.350563
46.948377 -58.432866 13.482816
47.742629 -57.766410 43.095947
48.692880 -56.969054 26.046266
47.305537 -58.133173 38.637641
46.205707 -59.056041 10.431293
45.923389 -58.362891 64.821281
49.948068 -55.915826 35.646574
50.344919 -55.582828 32.709203
49.312062 -56.449499 15.870465
47.588605 -57.895651 24.124145
45.888652 -59.033056 17.842217
47.447092 -58.014395 39.904613
49.069699 -56.652866 13.798297
46.366288 -58.921297 65.550673
50.089235 -55.797373 30.477438
46.150302 -59.102531 8.887985
49.223058 -56.524182 52.717893
48.435691 -57.184862 26.521285
50.306286 -55.615245 21.112944
48.726602 -56.940758 45.202034
46.094949 -59.148978 67.557629
48.270216 -57.323712 18.192632
46.085002 -59.157324 32.994931
46.331493 -58.950494 11.676635
50.249919 -55.662543 44.017823
46.923713 -58.453562 24.055796
46.069891 -59.170004 30.995662
48.752022 -56.919428 36.973682
48.496730 -57.133643 4.151849
50.094377 -55.793058 6.591151
46.096415 -59.147748 16.496791
48.065538 -57.495457 22.392614
45.874277 -59.310379 12.350016
46.238818 -59.028258 58.157633
46.199546 -59.061211 64.523623
48.539966 -57.097364 9.851028
49.040410 -56.677442 43.431392
45.891692 -58.974412 42.857494
48.472922 -57.153621 54.512850
50.423989 -55.516481 10.060893
48.526520 -57.108647 27.369196
46.386515 -58.904325 30.588490
47.346844 -58.098513 20.899731
45.889204 -59.321618 58.484806
46.196936 -59.063400 19.429124
46.614995 -58.712608 9.700833
48.139602 -57.433310 59.095686
47.456359 -58.006619 8.041889
50.461431 -55.485063 29.526789
47.044878 -58.351893 36.786088
46.897914 -58.475211 11.527700
46.788842 -58.566733 4.780052
48.646041 -57.008356 62.433146
46.431536 -58.866548 33.082637
48.550291 -57.088701 33.038806
46.649727 -58.683464 54.047762
46.869380 -58.499153 49.838706
47.730581 -57.776519 36.954501
50.222700 -55.685382 44.425148
47.608619 -57.878857 54.188799
47.773355 -57.740628 56.474249
47.726761 -57.779724 25.427189
48.332433 -57.271505 14.546154
49.300313 -56.459357 25.894754
48.733342 -56.935102 20.350607
46.013403 -59.217404 43.157672
47.337938 -58.105986 30.483430
48.368794 -57.240995 56.526592
48.471816 -57.154549 57.271761
49.315227 -56.446843 63.802660
46.267023 -59.004591 10.885323
49.638959 -56.175199 9.440123
46.884391 -58.486557 14.613648
47.223638 -58.201895 22.389852
47.797797 -57.720118 13.871721
49.600127 -56.207783 52.569464
49.576752 -56.227397 66.285571
48.492532 -57.137166 34.764173
46.894432 -58.478132 66.576796
49.841313 -56.005404 67.549722
47.390612 -58.061787 53.894886
50.100303 -55.788086 53.834601
45.887194 -59.061185 33.100694
48.833853 -56.850763 41.247654
47.316246 -58.124187 45.359635
50.416768 -55.522540 42.276924
50.441799 -55.501536 41.721438
46.870766 -58.497990 37.666803
48.255729 -57.335868 13.682262
47.635944 -57.855929 17.498443
46.834718 -58.528238 5.314080
48.107505 -57.460243 42.812662
45.912003 -58.582551 57.275815
49.828304 -56.016320 49.704969
48.000063 -57.550396 37.283119
49.904298 -55.952553 29.144174
46.881142 -58.489284 9.976616
50.105021 -55.784126 43.214757
47.832326 -57.691145 15.133375
49.991905 -55.879043 47.758916
46.936628 -58.442725 20.328094
47.647179 -57.846502 56.306469
48.599521 -57.047391 43.766758
45.876376 -59.269902 28.718759
49.332752 -56.432137 34.354311
49.939452 -55.923055 16.532060
48.195293 -57.386579 39.983066
48.013441 -57.539172 67.645031
48.565648 -57.075815 36.416330
47.915625 -57.621249 8.382570
48.935849 -56.765178 44.453721
45.924067 -58.349796 59.401505
47.059313 -58.339780 44.682621
49.264734 -56.489211 16.685039
48.509558 -57.122879 14.869702
46.830030 -58.532171 56.393222
49.012236 -56.701082 27.975761
48.520689 -57.113540 6.491471
47.765872 -57.746906 15.671218
49.696311 -56.127075 45.522502
45.931475 -58.206882 58.680939
48.089322 -57.475500 44.931968
47.497927 -57.971739 8.390351
48.483480 -57.144762 42.593508
46.813250 -58.546251 38.308438
45.890246 -59.002308 51.932589
46.388199 -58.902912 54.593669
50.023153 -55.852822 15.331422
46.672470 -58.664381 36.850707
47.081590 -58.321088 15.093774
50.439445 -55.503511 34.923268
45.888410 -59.037732 52.706642
45.891688 -58.974473 21.069396
45.895178 -58.907146 67.833402
49.096172 -56.630652 67.993017
50.233237 -55.676540 26.679341
50.040873 -55.837953 60.696500
45.879452 -59.210548 63.446991
49.168179 -56.570230 11.198927
48.433095 -57.187039 15.829169
47.339881 -58.104356 46.504840
46.570629 -58.749835 8.432920
47.762993 -57.749322 67.753119
49.358684 -56.410378 19.344436
50.154675 -55.742462 29.690653
46.824726 -58.536622 49.696920
49.000632 -56.710819 63.884760
48.853539 -56.834245 7.386757
49.310980 -56.450406 42.919994
46.228519 -59.036899 59.468628
48.669824 -56.988400 5.387277
46.018451 -59.213168 29.145715
49.987776 -55.882507 49.685974
47.974378 -57.571949 49.725854
47.422754 -58.034817 5.419290
48.310811 -57.289648 43.279569
48.709975 -56.954709 34.447931
49.950095 -55.914125 40.774571
50.233069 -55.676681 51.669886
45.933710 -58.163757 67.522409
49.994649 -55.876740 31.683125
47.162444 -58.253243 57.148661
49.199230 -56.544176 63.803795
48.520024 -57.114097 39.517755
47.438271 -58.021796 40.289161
45.922889 -59.293353 17.028723
48.737573 -56.931552 22.123579
47.333189 -58.109971 29.213319
48.474150 -57.152590 10.847010
50.152467 -55.744314 59.653322
46.513930 -58.797411 30.949849
45.917512 -58.476261 64.891594
46.653468 -58.680325 6.067354
46.707638 -58.634870 53.938036
47.081492 -58.321169 15.640843
46.488729 -58.818557 18.514744
46.637760 -58.693505 53.662247
46.361223 -58.925548 18.287872
46.803066 -58.554797 8.575554
50.196534 -55.707338 24.072282
48.486092 -57.142570 21.110955
48.537302 -57.099600 39.997694
46.810524 -58.548539 48.809440
49.496551 -56.294693 8.679434
48.327918 -57.275294 33.290159
45.910271 -58.615957 39.360187
48.917880 -56.780257 56.600585
48.023927 -57.530372 51.927458
47.752537 -57.758096 27.013642
47.640928 -57.851747 40.969140
47.479190 -57.987461 10.963001
48.618132 -57.031775 21.653415
49.403901 -56.372437 39.856551
46.294411 -58.981610 51.935329
47.807764 -57.711755 10.156318
47.847137 -57.678717 24.552316
49.933421 -55.928116 59.275257
48.847423 -56.839377 66.271348
46.303595 -58.973903 42.732065
50.420282 -55.519591 28.854089
48.490104 -57.139204 39.635715
48.747028 -56.923619 7.637649
49.552594 -56.247668 39.280375
45.881100 -59.178748 28.165806
47.056872 -58.341829 20.287703
49.740399 -56.090081 61.808667
49.765061 -56.069387 44.936167
48.794188 -56.884046 63.855386
47.112068 -58.295514 42.029476
48.591031 -57.054515 3.474970
47.538268 -57.937889 10.561664
47.988901 -57.559762 23.465642
48.175518 -57.403173 66.169421
49.151559 -56.584176 36.275116
46.893770 -58.478687 18.242260
46.323396 -58.957289 52.506353
48.951390 -56.752139 36.396982
47.237715 -58.190083 56.473409
47.999534 -57.550840 38.090449
50.096747 -55.791070 9.233303
48.346950 -57.259324 20.492506
48.409142 -57.207139 41.320451
49.066241 -56.655767 9.560867
48.256599 -57.335138 57.640286
49.490629 -56.299663 32.535128
47.680665 -57.818404 37.764549
45.873408 -59.327159 35.791916
45.916466 -58.496449 49.380117
47.965834 -57.579119 42.429974
45.908073 -58.658363 45.564928
47.604086 -57.882661 27.802562
46.063369 -59.175477 11.664551
45.873103 -59.333043 42.031687
49.999760 -55.872451 31.856971
45.926344 -58.305871 52.565935
50.223022 -55.685112 5.746572
49.419419 -56.359415 19.781276
46.974721 -58.410762 23.954145
49.649110 -56.166681 17.019240
45.892199 -58.964631 38.237970
47.954590 -57.588553 42.724228
47.585884 -57.897934 26.224961
48.538796 -57.098346 41.332388
50.052375 -55.828302 24.176557
49.120252 -56.610446 59.182629
47.246465 -58.182741 36.768333
50.343066 -55.584383 38.139308
48.788803 -56.888565 8.207905
46.956190 -58.426311 55.793089
46.364042 -58.923182 44.260063
46.950229 -58.431312 15.530121
47.580480 -57.902469 49.922012
47.478880 -57.987721 18.500750
50.344741 -55.582977 17.181372
48.333949 -57.270233 63.910426
47.777373 -57.737256 25.914162
47.061199 -58.338198 24.061140
48.890845 -56.802942 28.809206
49.164023 -56.573718 13.266828
48.924857 -56.774402 19.028735
48.814593 -56.866925 41.837834
47.281887 -58.153018 56.952510
50.286650 -55.631721 18.036905
49.269249 -56.485423 51.815452
46.988415 -58.399271 46.286255
48.257124 -57.334697 4.015221
50.276396 -55.640326 13.652750
46.852387 -58.513411 32.937292
48.127947 -57.443089 21.951855
46.019634 -59.212175 22.078543
50.429683 -55.511703 6.746461
45.917177 -58.482727 65.556381
48.492049 -57.137571 65.103466
47.097878 -58.307420 11.416982
46.050768 -59.186050 53.431626
48.458224 -57.165954 51.317258
49.752338 -56.080063 42.153037
47.424500 -58.033352 42.938766
48.133714 -57.438250 11.520088
46.101640 -59.143364 12.548360
46.112803 -59.133996 7.831550
45.883461 -59.133208 25.084785
46.932656 -58.446058 55.409502
49.564001 -56.238097 8.575600
45.903388 -59.309717 56.161478
48.569303 -57.072747 63.892337
48.714059 -56.951282 16.689342
48.966176 -56.739731 43.833337
47.207946 -58.215063 19.802577
49.085187 -56.639870 31.710805
47.835206 -57.688729 46.955003
50.397556 -55.538660 51.510503
46.552470 -58.765072 51.827854
46.768728 -58.583610 66.628979
46.290511 -58.984882 47.440468
46.905332 -58.468986 67.721176
45.913684 -58.550116 41.133210
47.346352 -58.098926 54.679955
50.263061 -55.651515 16.988433
46.003350 -59.225839 43.819322
46.011401 -59.219083 14.842577
50.294497 -55.625137 46.334595
47.288473 -58.147492 35.468732
48.223879 -57.362593 67.337854
45.883938 -59.123995 63.825719
48.535387 -57.101207 58.519226
49.135315 -56.597807 20.663146
48.617099 -57.032642 25.551347
50.199608 -55.704759 23.057526
48.076250 -57.486468 30.373767
49.155235 -56.581092 6.288874
47.384496 -58.066919 13.801660
47.811914 -57.708273 13.717560
47.523792 -57.950036 28.512130
50.465478 -55.481667 57.612714
47.394231 -58.058750 41.050555
48.812143 -56.868980 52.813877
50.444023 -55.499670 13.109272
49.744440 -56.086690 26.084753
49.144150 -56.590393 23.446969
49.031364 -56.685032 25.612486
48.042394 -57.514877 48.648049
49.642367 -56.172340 33.608599
50.252299 -55.660545 20.613785
45.883669 -59.129198 42.842118
46.084512 -59.157736 27.663008
49.146020 -56.588825 17.298535
50.398972 -55.537473 63.841772
47.797207 -57.720613 14.898187
46.227570 -59.037696 3.159682
47.202364 -58.219746 57.741631
46.494470 -58.813740 21.426826
46.336196 -58.946548 28.456208
45.898448 -59.313862 8.631733
49.526474 -56.269586 38.117622
47.280739 -58.153981 14.216863
49.431037 -56.349667 59.405495
49.413837 -56.364099 62.385153
47.761436 -57.750629 64.613898
46.370090 -58.918107 38.452414
49.247689 -56.503514 39.166751
49.034733 -56.682205 39.747435
45.931008 -58.215888 59.193276
49.432213 -56.348680 4.074423
49.018835 -56.695545 49.131560
47.267841 -58.164804 7.727495
47.353587 -58.092855 32.873932
50.097263 -55.790636 63.629414
49.404243 -56.372150 55.967484
45.902114 -58.773340 62.466778
49.863179 -55.987056 63.541093
49.167435 -56.570855 27.004556
46.997682 -58.391495 43.653793
50.355946 -55.573575 49.286321
45.885949 -59.085195 22.158570
46.462118 -58.840887 57.351039
50.158842 -55.738965 43.910383
47.763590 -57.748821 9.716956
48.351190 -57.255766 41.046881
46.069918 -59.169982 39.637073
46.339851 -58.943481 50.516919
46.308064 -58.970153 45.073799
49.157069 -56.579553 6.462208
46.898237 -58.474939 10.562271
47.101286 -58.304561 67.411034
47.177568 -58.240553 27.267291
45.905854 -58.701179 53.846991
45.882292 -59.155764 59.230189
48.810683 -56.870206 25.941303
48.185486 -57.394808 9.030340
48.519523 -57.114518 21.638846
45.873538 -59.324641 54.709736
46.008448 -59.221561 41.538385
46.886065 -58.485152 16.621800
46.772900 -58.580109 54.842836
47.120326 -58.288585 40.821706
47.529884 -57.944924 6.082832
47.767709 -57.745366 32.198183
49.223457 -56.523847 54.927921
48.943300 -56.758926 25.699996
48.273587 -57.320883 34.043696
47.613295 -57.874934 28.140598
49.482154 -56.306775 29.131323
46.558162 -58.760296 21.218771
45.883477 -59.132886 21.448580
46.318796 -58.961148 14.100497
47.414401 -58.041826 51.725299
45.895463 -58.901646 38.905901
48.476964 -57.150229 13.895374
50.076333 -55.808199 29.526528
46.927776 -58.450153 9.267399
48.881987 -56.810374 66.953988
49.906440 -55.950756 22.255445
46.190970 -59.068406 38.702980
46.714727 -58.628923 40.729117
49.589240 -56.216918 41.156937
49.641546 -56.173028 3.005310
45.880662 -59.187202 64.322131
47.480437 -57.986415 63.377349
46.834931 -58.528059 45.073786
45.905514 -58.707736 54.976141
47.524720 -57.949257 40.834216
45.894920 -58.912132 53.316657
47.452656 -58.009726 44.946316
46.082971 -59.159029 6.107227
49.965824 -55.900927 22.533880
49.042040 -56.676074 17.243890
47.179793 -58.238685 48.946272
47.417535 -58.039196 25.906640
49.648020 -56.167596 19.037469
49.578492 -56.225937 40.733486
49.261286 -56.492105 5.167501
49.525705 -56.270230 52.657214
46.159636 -59.094699 21.788378
45.986496 -59.239981 7.851533
49.873824 -55.978124 7.278464
48.127932 -57.443102 9.876968
47.226703 -58.199323 19.032250
46.831505 -58.530934 50.374101
46.087068 -59.155591 60.046331
45.928533 -58.263638 55.644555
48.218282 -57.367289 63.388809
49.393156 -56.381452 23.533939
46.751351 -58.598191 8.853435
47.698900 -57.803103 27.314926
48.444970 -57.177076 25.213860
46.585639 -58.737240 43.746388
49.493400 -56.297337 6.955884
46.440729 -58.858834 5.557415
45.894114 -58.927687 65.369354
45.873774 -59.320099 67.956305
45.916284 -58.499962 63.695802
49.766214 -56.068419 12.498431
46.575212 -58.745989 23.334550
50.183574 -55.718213 28.393636
47.864601 -57.664063 66.030940
47.347554 -58.097917 48.648990
49.823137 -56.020656 56.965450
47.022737 -58.370471 21.474321
50.092998 -55.794215 22.814697
45.926825 -58.296593 59.076413
50.463944 -55.482954 21.881787
48.582009 -57.062086 4.617446
47.647661 -57.846097 40.054003
49.739755 -56.090621 47.170626
46.260130 -59.010375 38.637617
45.931904 -58.198601 58.427490
47.720275 -57.785167 33.591441
48.026097 -57.528552 47.295958
45.879684 -59.206068 27.087557
46.704300 -58.637671 13.436708
50.154516 -55.742595 27.842911
48.678055 -56.981494 36.749580
46.748539 -58.600550 52.088323
47.282475 -58.152525 24.642440
49.678568 -56.141963 24.958378
47.978259 -57.568693 67.490665
