13.191896 7.133398 56.050257
13.415051 -6.704924 26.791253
10.251357 -10.946356 37.531880
-14.862022 -2.009121 16.627791
-7.722168 -12.858309 47.467891
7.635539 -12.910289 6.724078
-13.945401 5.516984 60.709665
-3.925185 -14.475685 44.152325
-12.282132 8.606180 30.291798
-13.801976 5.871081 30.561042
12.693178 -7.990218 22.023284
-14.990569 0.474278 53.691781
-1.966146 -14.868714 35.953476
-3.388511 -14.610093 55.781832
-10.690404 -10.517940 1.032498
-2.246122 14.828458 32.719217
12.947423 -7.568959 30.127664
-1.306561 14.940458 22.057977
14.582518 -3.511521 42.251949
1.462437 14.928034 7.314769
-12.880654 7.681144 10.726166
-4.693311 -14.243732 46.795745
-14.989328 0.536666 47.973984
6.640529 -13.449613 14.284558
-0.663405 14.982506 10.154681
-4.232046 -14.387988 65.289321
-3.856666 -14.495267 6.541306
-14.596792 -3.447303 10.091236
-14.989401 0.532999 0.219887
-0.950420 14.968843 28.454267
-11.783575 9.278194 45.184076
5.779670 13.838620 14.540734
5.936592 -13.772705 53.716061
5.479499 13.962246 20.199878
-13.168459 -7.176598 37.863578
-6.435453 13.546375 24.124960
8.740949 -12.188178 55.221380
6.729720 13.403496 66.855652
-14.525377 3.733000 27.285025
14.037601 5.284652 36.619534
13.821193 5.827766 40.618348
14.879152 1.886846 3.499416
0.061526 14.997035 6.014274
3.058435 14.682188 16.767470
11.080420 -10.106362 59.225334
-2.914044 14.711282 25.277213
-6.811330 13.361299 2.552750
3.444881 -14.596382 57.610695
7.992482 -12.690061 39.934041
5.918146 -13.780454 63.493530
14.456485 -3.993556 20.635561
-3.994304 14.455932 13.961005
-11.691476 9.396855 9.385322
14.748376 2.720132 59.758213
-13.989267 -5.406447 45.032937
-2.294770 -14.820654 27.234754
-14.608448 -3.394863 47.902255
2.105531 14.851012 44.246506
2.699530 14.754506 64.431555
-14.445953 -4.033392 4.264944
-2.170453 14.840597 26.905311
-6.102973 13.701860 9.938153
-14.680396 3.071176 48.257032
14.990875 0.458852 23.860483
-14.920737 -1.511020 29.524632
-1.491455 -14.925615 62.525383
-14.975642 0.805633 40.583996
1.501885 -14.924364 45.531596
13.871269 -5.703784 14.732004
1.547614 14.918883 10.448001
-1.459311 -14.928283 25.751209
13.577250 -6.375329 8.805863
-0.798515 -14.977130 63.855960
-8.325813 -12.474220 2.868908
-13.175749 -7.163160 36.845945
-12.772161 -7.863437 2.873012
9.678879 11.457608 52.787567
12.591844 8.146031 27.910620
-11.866818 -9.170081 48.522684
9.628519 -11.501405 26.823101
-6.062845 -13.719673 33.391780
14.540348 -3.676377 53.240241
2.103769 -14.851295 37.590312
13.515538 6.500730 5.468207
14.899521 -1.723714 42.575488
13.679361 -6.147463 3.110156
1.310094 -14.940176 67.964941
14.755272 -2.682007 20.938704
-6.444820 -13.541995 15.864163
-12.866555 7.704834 47.921361
-11.148649 -10.030988 33.182795
10.548326 10.662872 55.000303
-8.364900 12.447679 13.426314
10.593756 -10.616529 6.261466
14.248393 -4.688402 23.776264
-13.495140 -6.542181 51.476692
-7.973222 -12.702049 30.181947
-10.416309 10.790961 21.148034
9.004984 11.993119 65.302504
10.963756 -10.235242 35.669575
-10.746931 10.460278 57.672921
-2.931563 -14.707752 31.758377
-5.086871 -14.109092 29.198998
-11.057231 -10.131978 23.622702
-6.433253 -13.547404 61.301805
13.925695 5.566639 56.345043
7.428597 13.027945 11.757368
2.768330 -14.740643 16.395838
-11.304602 -9.858706 48.522541
-9.856334 11.303280 51.289172
-6.984833 13.271587 35.936335
-0.684287 14.981675 16.561314
-6.043456 13.727817 32.059984
12.155076 8.785519 4.824211
13.690401 -6.122579 34.934396
-14.272028 4.611520 9.983019
1.527307 14.921317 13.950401
-11.160053 -10.018390 27.184972
10.747928 -10.459261 41.471641
5.139931 14.089247 23.139611
-6.990705 -13.268551 49.892891
-12.861798 7.712827 55.400820
-7.305163 -13.098123 53.255791
12.357570 8.499700 40.236262
6.460170 -13.534816 17.440450
0.308746 14.996617 52.133476
-13.191465 -7.134192 25.974217
-9.034927 11.970998 65.843913
9.595485 -11.528720 41.497518
-14.863499 1.998580 53.705130
-2.297270 -14.820253 40.846970
8.732337 -12.194541 2.448691
-14.813010 2.358978 22.036929
8.006822 -12.681136 32.995587
5.878988 -13.796902 22.083296
14.205046 4.812161 6.181218
-14.994828 0.260096 12.060301
9.695125 -11.443479 46.751730
-1.091150 14.957626 21.116487
-14.976315 -0.794374 49.645758
-14.781924 2.534668 0.718722
3.281101 -14.636219 67.842614
-14.850817 -2.089104 47.434219
1.041237 14.961605 51.458774
8.158389 12.586799 34.798854
8.823628 -12.127098 25.219320
11.604492 9.500985 16.926421
14.997450 -0.128251 22.564038
3.671951 -14.541150 49.549987
-11.470331 9.661591 67.039098
-14.114486 -5.069794 56.065787
2.893272 -14.715468 50.924075
-14.127616 5.032439 28.331904
-14.757168 -2.671525 65.391667
1.124498 -14.954969 6.349430
8.228484 12.540308 64.347947
-14.996103 -0.195980 9.690810
7.284300 -13.109984 16.028874
12.317670 -8.556018 61.247182
7.340246 -13.078177 32.400933
14.468379 3.948573 55.753425
9.500792 -11.604676 29.213832
10.744564 10.462693 9.594632
-8.543706 -12.326266 1.245335
-13.986753 -5.412783 18.416235
14.878396 1.892239 18.222147
-14.167576 -4.918760 30.569025
-14.975066 -0.815282 11.004700
7.650009 -12.902062 22.564652
13.293554 6.946019 67.967072
-4.881730 -14.181681 54.651919
9.299031 -11.766515 15.234364
14.251978 4.676738 40.377170
13.271988 -6.985769 29.911753
14.996000 -0.201165 54.486775
-13.253912 7.019088 48.327898
1.862434 14.881146 65.571800
6.430986 -13.548464 3.329381
-7.965469 -12.706874 15.624609
14.981829 0.702031 9.879711
-6.740991 13.397668 44.178077
14.974154 0.830550 2.892342
14.689686 -3.029377 8.806479
13.575681 6.378518 42.955083
7.938106 -12.723905 34.326651
-13.507860 -6.516333 6.081978
13.236900 -7.050445 9.657370
-13.643517 6.228259 56.047390
13.028908 -7.432045 38.605060
-14.979954 -0.733436 26.240875
13.862448 5.726014 11.797610
14.581460 3.516282 48.826080
-4.024599 14.447274 20.051560
-9.680952 -11.455805 19.919098
-4.749563 14.225207 22.005375
14.137185 -5.005217 33.003334
-3.388282 14.610149 52.729593
14.929077 1.427400 29.695360
10.583205 -10.627292 60.076769
8.554720 12.318788 50.049840
13.435479 6.663414 31.301412
6.366367 13.578683 39.234975
-14.535421 -3.695011 36.480893
6.372129 -13.575989 29.298104
12.070022 -8.905572 16.502185
-4.011226 -14.451096 0.128119
-14.743817 2.745335 59.396410
10.834680 10.370767 29.459349
5.844760 -13.811279 11.538235
10.437306 10.771181 49.690163
-13.653164 -6.206513 0.748329
14.998804 0.060154 28.575888
14.886259 -1.836114 37.817982
-7.527821 12.971531 18.272584
10.234334 -10.962392 20.305332
5.676219 13.882075 19.042478
-12.955879 7.554750 33.861866
-14.307381 4.496520 1.012576
11.706883 9.377798 33.320733
-1.263124 -14.943920 4.135470
-7.436038 -13.023714 9.638940
-0.783933 14.977710 51.235879
-5.495400 13.956299 56.343793
12.931991 7.594888 55.940776
-12.976349 7.520357 50.605828
4.914366 -14.170933 10.405862
5.459194 -13.969840 24.046402
12.324877 -8.545846 54.784673
6.556301 -13.489860 50.796323
-14.813169 2.357846 42.968333
13.482135 -6.568607 18.266966
3.467700 -14.590832 51.912103
13.277653 6.975327 44.054372
-8.061173 -12.647307 4.027391
1.023660 -14.963006 35.187182
14.246300 -4.694800 38.108521
-8.857206 -12.102292 27.652509
-1.362609 14.935990 3.414659
-12.248377 8.653825 40.960791
-3.040403 -14.685821 46.038501
-0.291715 14.997035 35.929706
14.816498 -2.334083 39.698830
11.251818 -9.917016 49.403191
-4.812830 14.204372 62.295158
14.431749 4.087111 5.950086
3.970647 -14.462693 43.479429
-1.569655 -14.916241 18.549124
-14.592926 -3.464699 36.981830
2.776073 -14.739083 27.680782
2.393714 -14.804781 38.044475
10.003369 11.175406 8.483240
-14.973812 0.836283 54.932455
12.437998 -8.382589 30.272114
-5.773006 -13.841420 65.494157
2.585257 14.774053 3.895124
14.963716 1.005328 15.543881
0.875406 -14.974071 32.051098
4.148487 14.411868 66.588071
-5.053958 -14.121402 44.305645
-8.080367 12.635360 25.831228
-9.332469 11.739694 64.114276
13.809079 5.855071 64.919983
-10.679801 10.528756 47.245362
-14.958030 -1.100528 25.559253
-11.310535 9.852151 42.317259
-13.890288 -5.655859 10.698149
-11.600322 -9.505977 48.541646
1.176129 -14.950853 44.477351
-4.352613 14.353531 33.898507
8.554204 -12.319138 5.991336
11.306345 -9.856780 14.920471
-8.327653 -12.472970 63.084082
4.727641 -14.232426 26.203761
-14.238837 4.716031 34.432664
1.343199 -14.937537 52.654247
14.067813 -5.202572 30.680544
-12.616869 -8.107552 34.184237
10.130992 -11.059746 1.814231
13.590525 -6.347707 38.976235
-12.264870 8.630546 18.619635
-1.734756 14.896450 7.455475
-13.425170 6.684363 31.823174
11.668654 9.424175 55.606758
-5.759345 13.847158 45.696959
13.372553 -6.791282 56.142367
-2.942429 -14.705563 35.176748
14.698506 -2.989699 32.312829
-3.945912 14.469762 50.476914
12.234343 8.673634 19.230372
14.346483 -4.369328 18.909216
-6.757326 13.389222 40.762035
4.497313 14.308279 54.170771
14.994520 -0.275557 4.143370
10.912415 -10.291470 34.637112
-14.221364 -4.765740 32.209734
-7.266667 -13.120010 46.817244
10.384615 10.820819 57.963780
-5.731448 -13.858876 13.955543
-10.443144 10.765681 47.658133
-6.507290 13.512780 43.160287
9.250556 -11.805398 47.868615
6.554601 -13.490655 31.670458
-13.950572 5.503952 4.761045
14.996635 -0.169229 37.323910
-14.031378 -5.300332 7.929595
-7.095404 13.214415 11.639997
14.943559 1.282220 25.393628
10.261438 10.936858 2.673409
2.048428 -14.858851 50.579833
14.617388 -3.354642 54.871441
13.309038 6.917478 3.649572
-8.664946 -12.243942 37.377901
-7.098836 -13.212640 32.356197
-9.128245 -11.902058 34.959397
12.630209 -8.087040 36.305245
-4.975015 -14.150928 33.736308
-13.702060 6.096299 55.198962
-6.301768 -13.608893 34.168716
-13.934769 -5.543775 53.050746
-3.832429 -14.502116 60.184585
-7.054016 13.235815 16.420255
3.458652 -14.593032 40.050126
-8.158476 -12.586744 44.264700
14.721066 -2.871110 53.366083
5.660332 13.888748 9.961187
14.529330 -3.718048 26.901251
-14.865748 -1.982525 33.207048
14.857401 2.042104 67.137491
12.021176 8.969607 29.454557
14.988955 -0.555427 56.622914
14.678751 3.078574 10.899519
-10.619508 -10.590260 37.955378
13.054001 7.387570 61.543042
-12.313877 -8.561372 31.017445
6.584123 -13.476849 2.684106
-9.401366 -11.684429 41.794478
8.418120 -12.411542 0.344359
-0.736919 -14.979581 39.966464
-0.018944 14.997035 24.589146
-5.845594 -13.810929 41.629989
-1.626409 -14.909438 51.620196
-14.934036 -1.377685 38.037979
11.020741 10.172290 6.937297
2.133801 -14.846477 62.750012
1.124647 14.954957 59.461221
-1.964526 14.868908 0.231929
-11.034862 10.156690 59.222944
-6.334687 13.593498 62.176440
11.990685 -9.009207 67.405067
-14.544204 3.661794 1.824249
0.809900 14.976677 30.962970
0.331157 -14.995725 14.927095
14.575134 3.544742 3.840657
-5.241034 14.051434 3.866452
-3.251651 -14.643256 35.810585
-14.251452 4.678451 35.882372
-13.938068 5.535462 57.164424
14.998405 0.080209 13.039762
10.797632 10.408559 15.648778
13.273633 6.982737 59.156205
-9.002971 -11.994606 32.774436
-1.099393 -14.956970 46.789889
-12.324343 8.546599 44.887039
-14.789366 -2.493524 34.025008
14.988595 -0.573529 40.707860
-5.824644 -13.819729 27.491882
9.978210 -11.197287 21.757475
5.463472 13.968240 8.614152
-13.959267 -5.482044 21.360182
-14.979492 0.741165 44.585436
-11.507725 9.616826 6.424618
-7.765421 12.831387 9.582965
-10.002099 11.176511 9.612447
9.708104 -11.432191 20.382687
-9.089406 -11.930751 57.505886
-1.959602 14.869498 60.767372
-0.264041 14.997035 51.445505
7.550815 -12.958458 39.819629
4.537461 14.295057 1.744711
6.009075 -13.742259 54.180570
1.697390 -14.900929 20.099470
-9.456411 -11.640276 10.430817
6.152367 13.678761 63.018560
10.485732 10.725560 54.456801
-12.879359 -7.683322 4.826367
0.663204 -14.982514 45.771829
9.728923 -11.414086 52.633421
-13.622980 -6.274550 6.858633
9.669269 -11.465965 23.946062
14.973841 -0.835784 9.605919
13.743911 6.001963 15.671960
4.795468 14.210089 46.598033
0.846747 -14.975211 60.331302
-2.211542 -14.834006 13.982895
-14.909378 1.624898 59.668994
14.953939 1.169039 65.591322
14.423786 -4.117230 40.501111
1.644332 14.907289 45.977468
-8.064645 -12.645146 42.917528
-13.572070 6.385856 7.797360
-10.543071 -10.668232 39.911867
5.049172 -14.123192 31.082280
-12.023252 -8.966909 45.009627
14.825390 -2.270609 19.282646
-14.671989 -3.108998 35.050185
-7.457102 13.011739 7.740536
-1.173679 14.951049 26.775667
12.327773 8.541758 7.527416
14.955074 1.150031 11.096935
10.037161 -11.146019 17.563492
10.745611 -10.461624 42.439699
-12.788739 7.835582 41.561123
-5.708932 13.868334 58.749559
9.772288 11.376372 22.515674
-6.442935 -13.542876 46.224220
14.159338 4.942193 53.957325
-5.033182 -14.129173 57.968418
-14.973571 -0.840318 1.588168
7.466999 -13.006112 61.625632
14.953809 -1.171217 5.421159
14.984727 0.653518 14.316929
11.563271 9.550331 40.587341
-14.313334 4.477156 48.097983
11.700329 9.386257 3.513815
10.731120 -10.476407 52.301473
10.955055 10.244853 17.776489
-6.313545 -13.603386 50.517333
-13.161821 7.188833 25.096791
3.811750 -14.507146 37.511249
3.598655 14.558979 27.572239
14.803536 2.415189 64.623079
0.848670 -14.975135 59.555115
7.917001 -12.737041 24.770142
-3.956236 -14.466811 37.819554
-8.968060 -12.020397 13.946621
-7.263072 -13.122054 38.942597
13.440682 -6.652842 14.001426
-0.681998 14.981766 34.705272
0.796608 -14.977206 56.187343
-13.616685 6.288739 65.441176
-14.881352 1.871143 41.034386
-14.092274 5.132982 45.722048
8.249095 12.526313 48.900652
14.220976 -4.766843 44.472528
13.802334 -5.870274 58.823185
7.497119 -12.988987 19.131183
-13.582975 -6.363697 63.046129
-9.457883 11.639095 21.318647
2.388521 -14.805614 31.745430
8.468778 12.377144 19.636306
4.302110 -14.367964 43.164145
-2.924475 14.709181 16.000363
14.954469 1.160162 8.371741
14.420827 4.127497 53.674085
14.162979 -4.931836 6.975397
-10.288420 -10.911440 5.388241
9.367847 -11.711316 3.613261
-9.689445 -11.448419 49.719242
-7.783417 -12.820186 21.899481
-8.688857 -12.226662 16.447234
4.205953 14.395445 63.856320
-4.708197 14.238829 14.768653
8.162606 12.584173 59.166339
-6.249616 13.633283 33.522359
14.057257 -5.232602 4.636147
6.288235 -13.615222 6.880802
5.934053 -13.773772 18.376473
-11.539265 9.579069 34.643895
6.181940 -13.664931 32.210078
1.842490 14.883536 7.621534
-0.591758 14.985356 23.011754
0.804355 14.976898 6.734765
7.010000 13.258574 32.625666
14.940922 -1.308650 57.499386
11.831215 -9.216320 54.050041
1.741797 -14.895606 56.575827
-9.843359 11.314563 7.764945
11.931524 -9.086043 13.491380
14.515050 -3.772056 48.282738
5.235726 14.053419 37.378452
0.887803 -14.973578 22.175481
-12.516675 -8.261613 25.085430
13.616968 -6.288102 57.166224
-14.799853 2.435547 15.646988
-12.641001 8.070446 40.755285
13.155194 7.201049 48.585862
4.689769 -14.244898 51.758324
14.624724 3.321641 12.990372
14.279202 -4.588182 48.879028
-1.505711 14.923906 57.695048
13.880177 5.681339 8.363915
-14.759720 -2.657418 41.737124
9.909204 11.257299 11.842986
-14.980918 0.717285 24.971764
14.961122 1.048769 62.216501
-12.929491 7.599089 32.521447
-14.645465 3.228326 28.838009
-12.504302 8.280638 33.440991
-5.829930 13.817509 31.536935
-14.248340 4.688572 47.480899
-1.117029 -14.955564 41.409332
14.674478 -3.097799 0.602348
-14.140200 -4.996639 26.724342
-8.690889 -12.225161 58.124263
-9.577596 -11.543070 30.248193
-14.914956 1.568977 22.894093
-3.798324 -14.510412 20.131964
-13.230406 7.062414 7.045351
14.796276 2.455324 14.082872
-2.990088 14.695960 6.188200
13.891322 -5.653254 60.507050
-14.988730 0.566708 35.640405
1.376711 -14.934866 34.855962
2.751356 -14.744063 64.744276
9.980495 11.195299 24.402409
11.874867 9.159627 27.708839
-14.781219 2.538561 45.113710
-11.539302 9.579024 63.900130
5.742293 13.854321 25.919545
-8.428650 -12.404392 45.378980
-12.463646 8.343153 29.729124
-10.485124 10.726133 18.920168
-12.084723 8.884821 6.711513
7.774317 -12.825850 52.007625
-3.278205 14.636923 8.967177
9.284646 11.778054 12.955679
14.789014 -2.495467 21.654336
6.813638 13.360105 43.756031
-10.744800 10.462452 63.619497
-5.322587 -14.020932 56.069231
-8.051848 12.653111 66.090207
6.615473 -13.462188 27.163019
-13.608645 -6.306864 0.214028
12.722386 -7.945306 30.452253
-14.617169 -3.355631 54.232282
-0.324076 -14.996007 46.951501
5.185960 14.072032 28.596237
8.795869 12.147606 30.427531
6.440517 13.544007 27.172972
7.012555 13.257253 45.830038
0.218255 14.997035 19.679344
14.006325 5.363462 52.197349
5.448873 -13.973700 3.867958
-9.007518 11.991247 60.554795
11.660065 -9.434457 16.386252
-5.399133 -13.992304 12.482597
7.618757 -12.919830 62.821322
-14.954145 1.165581 20.941307
-10.122255 11.067977 23.382042
-5.993765 13.748690 48.809912
-8.160860 12.585261 1.018268
12.308192 -8.569396 19.573550
7.017540 13.254675 8.720683
-13.884989 5.669213 10.398781
13.836768 5.790722 49.003695
3.286387 14.634933 49.895603
1.798281 14.888836 33.992458
5.750020 -13.851075 29.249098
10.712916 10.494976 55.562519
-4.653198 14.256942 36.512315
-12.013053 8.980156 1.522377
-14.084008 5.156499 43.811967
9.011555 11.988265 44.828238
4.827994 14.199378 47.024324
12.230092 -8.679634 12.666007
-14.907600 1.642725 3.525875
13.244793 7.035895 35.495504
-14.959996 -1.067620 50.206090
-5.932734 -13.774326 39.273749
6.112091 -13.697596 2.581103
-14.923872 -1.479583 67.439731
4.161294 -14.408208 13.005887
6.277605 -13.620193 59.334971
-3.759425 14.519874 53.166547
-12.762732 7.879280 21.641823
7.434572 13.024548 22.656858
-0.368257 14.994249 40.216952
-5.957372 13.763977 2.394992
12.847535 -7.736792 7.167154
-8.724954 -12.199995 55.833086
-5.375914 14.000988 21.430965
7.973287 12.702008 1.132330
5.283353 14.035606 3.633871
14.913572 -1.582846 32.455183
-4.509112 14.304393 18.293450
12.640749 -8.070834 64.145227
-12.607723 -8.121615 40.756841
10.913165 10.290705 66.177666
-14.113591 -5.072340 1.163805
-14.356737 -4.335971 54.177533
8.280131 -12.505239 59.506226
14.034545 5.292352 16.112281
13.739350 6.012243 36.076204
14.971073 -0.882146 51.832886
8.969369 -12.019430 44.606579
-8.786260 12.154704 53.493593
10.510832 -10.701118 12.060427
-3.008747 -14.692200 38.073920
9.105581 11.918802 51.772084
-12.704067 -7.973474 2.016442
12.197051 8.726271 14.369568
14.144290 4.985006 37.808850
8.466785 -12.378497 10.891272
0.762564 -14.978560 49.272923
2.580833 14.774762 61.133738
8.262387 -12.517287 1.403348
-5.024666 -14.132358 28.377307
12.936581 7.587175 31.053386
1.968557 14.868425 28.547203
12.816383 -7.789134 40.063893
11.371169 9.780299 65.447663
11.083443 10.103022 1.104341
14.081415 5.163876 10.416741
-14.253064 -4.673206 65.184088
-14.352578 4.349502 29.030897
-11.060833 -10.128000 39.236596
-0.169303 -14.997035 10.614315
10.523047 -10.688659 13.248412
4.342198 14.356507 52.755024
-14.846624 -2.119038 51.681605
3.713469 14.531052 42.552378
-6.608275 -13.465554 50.205404
3.080082 14.677826 26.092380
-3.155349 -14.662660 50.926760
-14.821995 -2.294841 45.613295
14.326649 4.433843 8.108255
-14.750767 2.706914 64.032187
1.509925 14.923401 0.859020
-10.939166 10.262406 25.476558
-9.151280 11.885031 10.509260
-14.978216 -0.762540 53.918612
-10.871140 -10.333574 29.013338
-11.475717 9.655143 47.925976
-14.338833 4.394211 2.830859
14.989023 -0.551996 41.881003
14.890265 -1.807514 11.629967
-7.989505 -12.691914 49.302228
11.840338 -9.204472 4.321271
-12.152994 8.788457 38.311667
14.424187 4.115714 44.146009
-13.130213 -7.247095 13.891690
14.773826 2.579433 41.531207
-8.660801 -12.246757 18.042045
13.324947 6.888020 12.761350
3.985569 14.458428 14.367393
-14.432905 4.082738 38.760530
-9.168289 -11.871387 8.282300
14.125821 -5.037546 2.425805
-8.116411 -12.612926 33.208404
0.747812 14.979147 59.110542
9.602630 11.522989 62.073110
-14.994948 0.254055 24.817129
-13.486440 6.559859 57.996507
-2.620708 14.768365 20.688781
3.546654 -14.571627 57.035039
-8.467597 -12.377946 53.094127
-6.866670 -13.332685 16.550068
-13.804269 5.865913 6.140820
-14.920478 1.513618 4.856767
-9.268138 11.791296 32.474223
14.820034 -2.308844 51.364624
6.132332 13.688130 51.211807
4.720212 -14.234873 45.796729
-14.847956 -2.109528 61.200825
14.993345 0.334679 35.444766
-14.999453 0.027503 46.735521
12.369621 -8.482691 5.087068
13.614445 6.293788 64.982004
14.444826 4.037653 6.716723
-14.376747 4.270882 44.841933
-4.696020 -14.242840 27.791463
12.384211 -8.462097 53.015452
2.443452 14.796801 56.554326
14.942769 1.290132 3.681886
-2.906387 -14.712825 26.663051
12.861949 -7.712574 31.744447
-1.931855 -14.872824 50.239858
14.554560 3.622626 14.936849
-12.500077 -8.287135 23.744122
-14.931145 -1.406672 16.194746
9.462421 -11.635455 13.359758
-14.463137 -3.968400 25.437792
-14.523496 -3.740113 17.832728
-14.957145 1.115347 0.011733
-9.056991 -11.954698 42.054796
1.756301 -14.893868 40.099586
-6.438034 13.545168 58.219457
-14.939487 -1.323035 4.425769
11.132734 -10.048570 45.887579
13.662955 -6.184444 18.182798
-5.970507 -13.758459 19.879991
-7.136058 13.193394 31.296005
12.844422 7.742023 19.157926
-5.502074 -13.953803 17.733283
2.387070 14.805846 20.538424
-7.605084 12.927604 28.403777
14.705049 2.959655 30.854233
2.097357 14.852324 58.403183
-9.825138 11.330410 4.649031
7.273325 -13.116224 9.932588
-12.067581 8.909017 8.191418
9.898290 11.266791 59.164341
4.545723 14.292336 48.936589
4.688586 14.245288 38.812145
-2.239626 -14.829500 5.755621
-14.210614 -4.796321 58.631548
-2.783452 -14.737596 51.767642
11.203483 9.970413 67.221382
-10.599011 10.611169 42.390588
8.967307 -12.020953 17.035894
-7.671722 12.889706 52.852469
2.834109 14.727389 28.565661
9.627725 11.502095 28.822102
14.811070 2.372829 61.387039
-5.417669 13.985371 37.763632
-7.487730 -12.994325 3.087175
-14.995490 -0.226773 40.653589
9.235042 11.817843 16.164279
5.521530 13.946526 15.046300
-12.812717 -7.795294 6.174283
-14.636182 -3.270090 45.461905
14.688309 3.035573 29.072188
14.826737 2.260997 4.278826
3.979261 14.460231 28.476107
14.050073 5.253039 26.870540
9.584374 11.537633 31.110012
1.521470 -14.922017 1.681554
2.428647 14.799177 66.915119
8.025326 12.669619 33.665282
-14.053315 -5.243816 48.011329
-2.374013 -14.807941 52.614826
10.020824 -11.160227 63.522655
-14.807611 -2.392662 3.479688
10.328330 -10.873842 58.015018
-6.157047 -13.676572 37.041399
9.707067 -11.433093 32.110462
-14.265688 -4.632141 59.520857
10.348395 -10.854939 50.408447
7.172272 13.173678 63.755498
-7.519528 12.976246 55.781022
-10.683225 -10.525263 65.995750
-14.387453 4.236059 43.234388
13.968616 -5.458485 59.029214
10.041494 -11.142251 32.727052
-9.683983 11.453168 32.654762
14.893619 -1.782893 6.186119
-5.706764 13.869244 53.946643
4.045420 -14.441323 53.882298
-14.447657 4.026946 7.034487
-4.815761 -14.203406 5.858321
-8.007424 -12.680761 34.336329
-11.438606 -9.699569 5.537388
13.888528 5.660295 65.836938
-1.684589 -14.902464 34.905947
-12.919924 -7.615163 67.983652
14.305537 -4.502518 28.549009
0.469760 -14.990210 44.212920
-13.174945 7.164642 32.472811
-0.100227 -14.997035 27.746169
-2.156857 -14.842778 22.143911
-9.755159 11.391268 65.979341
9.173386 11.867299 23.972861
-7.208723 -13.152953 43.868191
-4.056069 14.438280 44.600955
6.738188 13.399118 25.333238
-1.039368 -14.961754 21.926913
4.816909 14.203028 40.764460
14.570058 3.564008 31.188354
9.428697 -11.662506 47.490658
8.814160 -12.134093 14.182636
-13.514864 6.502101 28.740166
-9.841536 11.316149 3.218190
13.030922 7.428662 23.990325
2.975674 14.698864 42.744968
-12.466554 8.338682 27.035696
-13.093524 7.314720 45.175643
-13.998755 -5.382539 39.621483
6.594777 13.471867 53.488443
12.825470 7.773865 35.017474
14.252687 4.674431 50.121406
9.145168 -11.889556 29.303819
7.584066 12.939554 56.049696
-11.124624 -10.057529 32.678635
-6.579130 -13.479184 6.178651
-11.620597 -9.481705 35.839791
-8.410337 -12.416827 27.563459
-14.977273 -0.778330 44.352640
-3.644525 -14.547821 3.768896
-9.126786 11.903136 59.198337
-10.574052 -10.636629 64.417392
-11.114409 10.068814 58.667038
11.310689 -9.851981 5.272786
12.334165 -8.532736 7.615377
7.922844 -12.733405 7.620148
-11.021642 10.171294 24.431489
11.094267 10.091065 5.015607
-4.732238 -14.230912 66.725820
-11.977935 -9.025766 47.629429
-0.299873 14.996970 60.856639
14.575144 -3.544698 43.271102
11.546981 -9.569832 9.795649
-10.942712 10.258490 0.069601
-13.580209 -6.369316 24.632239
11.240115 -9.929945 27.707492
-4.611012 14.270835 5.247274
11.958515 9.050988 12.851942
-4.618834 -14.268259 52.694974
14.829233 -2.243177 6.297027
-10.043759 11.140281 47.690014
-14.749140 2.715904 58.671269
4.250677 14.382663 12.815886
-12.403903 -8.434301 63.208091
-3.071552 14.679545 49.069640
7.953234 -12.714490 18.013816
14.421547 -4.125156 6.267248
4.062238 -14.436517 26.039730
-4.529010 14.297840 26.085108
14.998388 -0.081053 0.013246
14.601304 3.427005 28.101716
-11.754089 -9.316489 66.627532
-10.744814 10.462438 13.686249
11.067535 10.120596 30.645087
-9.738983 11.405337 30.647118
-14.626822 -3.312202 8.603455
-12.832721 -7.761683 46.280908
14.579822 -3.523652 65.680481
-8.571258 -12.307558 24.049908
12.063220 8.915001 52.065775
13.407927 6.719401 64.016168
-6.578694 -13.479388 62.100906
10.905188 10.298842 63.856853
14.996458 0.178130 44.901127
-14.423528 -4.118206 60.468205
-5.960373 -13.762716 2.759313
9.971467 11.203151 50.501274
-12.009401 8.984899 40.802097
-11.663609 -9.430215 34.172905
-14.099185 -5.113323 56.543461
6.560178 13.488047 33.141086
-4.169389 -14.405895 33.279622
7.104379 13.209774 25.106914
13.923965 5.571000 25.527927
14.672736 -3.105634 13.438238
8.680916 -12.232529 67.904629
-14.890209 1.807918 44.752953
10.961670 10.237547 52.686081
14.909416 1.624512 2.225882
-12.082301 8.888240 64.977301
-3.808945 14.507829 44.168300
12.297116 8.585031 54.648558
6.670958 13.433880 51.938587
-7.876408 12.762307 7.498806
13.123976 7.258591 51.591555
4.461964 14.319920 30.978792
14.491316 -3.861820 50.480288
-0.495353 -14.989192 13.821727
4.601421 -14.273993 33.021123
14.996979 0.151925 19.369443
13.716320 -6.064155 43.215329
10.218457 -10.977349 23.986685
-12.878871 -7.684142 36.706247
-4.782041 -14.214511 42.972454
-14.839497 -2.169909 63.171668
4.084410 -14.430181 35.444991
12.898540 -7.651093 25.811317
14.942219 -1.295650 26.243070
-13.955861 5.490626 32.151249
14.732316 2.808912 8.910935
-12.734380 7.926863 45.459518
-5.806322 -13.827425 49.014406
10.782310 -10.424188 21.413586
-13.835743 -5.793305 37.173127
3.736565 14.525434 44.160753
10.431096 -10.777031 56.691147
12.948623 7.566942 0.811131
-12.312169 8.563783 63.494324
-13.126562 -7.253824 41.587596
-13.689309 6.125040 31.763780
-13.049230 -7.396364 6.282355
14.049182 -5.255469 44.172984
12.447859 -8.367428 24.135402
11.830331 9.217469 24.152715
11.409325 9.734622 55.077756
12.801714 7.813782 3.379852
2.256704 14.826760 66.189499
8.062985 12.646179 60.947893
13.614496 -6.293675 34.428764
-2.916579 -14.710772 13.656621
8.687798 12.227444 19.241491
7.849944 -12.778779 31.005677
14.202480 4.819460 20.188687
-13.143186 7.223181 2.867992
-0.923301 14.971005 47.437836
-13.056374 7.383196 12.456201
8.605200 12.284511 22.063983
-13.448376 -6.637207 36.939918
14.562727 -3.591734 24.491787
-10.178586 11.014910 52.882534
13.180128 7.155089 42.057290
14.679159 -3.076740 50.115826
10.368229 10.836255 48.805010
8.803627 -12.141874 2.963060
-12.414182 -8.419210 41.231751
-1.016934 14.963542 8.175786
12.888188 -7.668486 65.254488
9.254820 11.801978 3.677617
-0.147298 -14.997035 36.864681
-12.516197 -8.262348 61.373146
-9.401864 -11.684029 45.017997
-14.245586 4.696831 58.118828
-12.665863 -8.032218 25.729419
1.270220 -14.943354 59.905701
-8.449672 -12.390118 57.674301
-7.321540 13.088812 7.274430
7.197360 13.159414 52.863471
-14.999743 0.012933 42.494640
14.861676 -2.011593 38.917782
10.677784 -10.530814 15.458559
-5.806804 13.827223 5.796865
-6.818959 13.357354 27.676883
-12.097952 8.866149 37.815243
13.220242 7.081149 30.617385
11.454429 9.680627 39.146828
-11.442867 9.694468 49.850098
-11.023578 10.169156 50.155495
3.564078 -14.567389 43.575649
8.519730 12.342547 56.373729
14.985321 -0.643562 63.638698
-10.756083 -10.450942 67.829262
5.564238 -13.929113 47.521823
13.489981 -6.552664 3.307947
-13.539490 -6.452059 43.758587
-2.011455 -14.863283 15.461010
-11.237461 9.932878 65.024456
8.350734 12.457298 30.303901
-5.141167 14.088785 3.040333
4.217132 14.392250 61.956308
14.819596 2.311971 19.650580
0.035396 -14.997035 42.518033
4.937052 14.163462 24.201950
-1.102562 14.956717 36.576157
13.328914 6.879960 49.110780
-13.809893 5.853236 45.298955
11.602303 9.503605 53.333352
-1.540494 14.919736 18.399256
14.011173 -5.351246 6.820933
-8.547792 12.323492 37.052541
10.565109 10.645752 57.425554
-9.287777 11.775543 58.760930
3.862973 14.493465 66.148817
14.597297 3.445032 45.861534
6.573877 -13.481641 43.527518
2.668804 -14.760650 22.102095
9.052790 11.957801 18.246798
8.623178 -12.272303 24.752741
-14.722122 -2.865269 8.846335
13.525722 -6.480037 20.384054
-11.414440 9.728498 67.950982
-14.446477 4.031407 14.853553
-6.046042 -13.726731 15.367727
2.055998 14.857943 10.810081
-14.787721 2.502617 16.995078
-14.998436 -0.078665 5.666357
14.075803 -5.179840 19.904099
-6.513946 13.509667 2.118203
-11.932743 9.084460 45.846215
12.768997 7.868753 55.560048
4.692631 -14.243956 33.559826
-1.999002 -14.864775 14.485070
-4.334611 14.358676 9.505750
14.990595 0.472932 17.987064
-13.493275 -6.545970 43.303865
1.898114 14.876869 29.045908
-12.890198 7.665110 16.867910
-14.713535 -2.912740 53.994162
7.751475 12.840067 25.514886
-10.228121 10.968245 22.152952
12.969677 -7.531567 16.895229
3.056348 -14.682608 46.977066
5.670952 13.884287 30.707984
14.728298 2.831127 55.558968
0.025991 14.997035 67.984744
-5.481679 -13.961431 42.507396
-4.542490 -14.293401 60.436696
-5.610889 -13.909517 30.527188
-3.918666 14.477548 40.738614
7.560879 12.952736 9.462819
14.487313 3.876963 35.162277
-14.681090 -3.068053 22.157798
-4.293906 -14.370309 54.778404
14.997553 -0.123045 26.139818
-3.253498 14.642883 30.394167
-10.264984 -10.933518 8.943518
2.487588 14.789721 39.606809
-14.578828 3.528122 13.288697
-11.560821 9.553263 11.214538
-11.981444 -9.021209 1.825083
5.890213 -13.792187 10.970595
-14.594132 3.459272 54.190079
14.862589 2.005071 48.818715
-5.133752 14.091559 41.530606
8.502760 12.354070 22.527297
-1.403043 -14.932768 28.275661
-4.680566 14.247929 60.031251
-12.999866 7.480842 22.848320
7.934745 -12.725998 14.668418
-5.258196 14.045015 45.898918
10.097772 -11.091041 14.668249
-14.871765 -1.939571 20.063007
11.094473 -10.090838 60.494349
-8.512491 -12.347462 46.185067
-10.144681 -11.046850 58.765762
-14.865879 1.981592 63.090245
11.673789 9.418028 31.466562
-5.062412 -14.118241 17.008365
14.510762 3.788275 58.272122
-0.023062 14.997035 22.911127
5.096454 14.105508 15.180814
-14.784990 -2.517718 11.349342
-8.377527 12.439105 48.458298
12.563950 8.188922 22.294806
12.788449 7.836070 66.058073
-14.971070 -0.882195 36.246680
-4.036202 14.443958 41.414334
-13.018301 -7.449868 51.558360
10.128737 11.061871 64.279578
12.942785 -7.576751 1.413286
14.834963 2.202276 67.981813
10.248481 10.949065 35.683651
2.642422 -14.764882 37.053813
-14.081547 -5.163499 9.744132
-2.191933 -14.837151 4.459826
5.315448 -14.023603 38.119470
-14.975786 0.803225 61.792983
14.440690 -4.053297 41.620750
14.785068 -2.517286 62.553658
4.592891 -14.276802 44.651164
-12.303734 -8.575689 58.629150
14.994568 -0.273177 26.753992
3.555887 -14.569381 62.921811
12.114199 8.843217 61.060436
-14.731366 2.814167 51.318081
-13.635556 6.246204 23.317097
8.356683 -12.453258 53.527407
-14.053045 -5.244586 10.852198
7.719852 -12.859750 8.069622
-12.797837 7.820296 2.953838
-14.370728 4.290462 0.074988
-2.525117 -14.783700 20.171433
-13.095566 -7.310956 28.747960
-4.019339 14.448777 61.648891
14.792719 -2.474986 49.439835
14.995594 -0.221585 7.736937
10.592847 10.617457 3.067985
12.607360 8.122174 16.497102
14.164428 -4.927715 16.815828
4.609012 -14.271493 22.683197
-10.566228 10.644610 38.253036
-7.421531 -13.031962 31.497866
9.524424 11.585721 64.457354
-13.946102 5.515216 12.967596
13.886559 5.665257 51.691768
-11.938731 -9.076683 42.995701
2.796956 -14.734875 49.489443
-13.683594 6.137923 65.929897
7.374157 -13.058896 44.879578
4.667811 -14.252129 48.665926
-2.629890 14.766892 13.448359
12.321204 -8.551031 42.233666
-3.918137 -14.477700 13.709741
-9.512554 11.595242 63.190603
12.100460 8.862609 38.534825
-0.992103 14.965521 9.783886
-14.842514 2.148377 3.574583
-4.532133 14.296812 12.327914
-14.606897 -3.401844 63.489092
13.316774 -6.903219 46.078001
14.992762 -0.363951 45.586416
12.713434 -7.959072 46.411913
-8.619696 -12.274668 60.050115
2.033373 14.860655 18.482669
1.597910 14.912854 47.193022
11.785534 -9.275650 40.624932
14.927498 -1.443232 52.883958
7.832749 12.789481 36.908331
4.260317 -14.379908 32.600675
-11.482636 9.646861 37.350352
14.385809 4.241405 27.392255
14.908260 1.636108 5.511413
-13.816080 5.839290 60.128713
-14.186052 -4.866196 4.858897
13.362007 6.812712 48.065502
11.530047 -9.590104 61.970034
14.996870 0.157399 6.097729
-1.238036 14.945919 6.804670
-8.410682 12.416592 46.654288
-7.276829 -13.114232 20.388111
14.965015 0.983581 32.755794
14.774715 2.574520 42.688524
-14.611908 3.379298 3.633525
-14.999041 0.048208 16.322487
-11.937136 9.078754 6.156328
-9.352888 -11.723315 63.024507
13.899089 -5.633682 25.898401
12.422366 8.406626 20.208730
-14.188220 4.860029 18.342888
-14.931715 -1.400958 45.785073
-2.412333 -14.801794 24.283963
9.665302 11.469415 49.817630
14.993884 0.307565 16.349485
-13.517856 6.496020 47.342175
-14.580739 3.519529 1.379420
1.718851 14.898357 23.724461
-4.339544 -14.357266 56.351836
-0.818124 14.976350 30.290582
-6.891963 13.319607 49.012880
1.078256 14.958654 39.334916
-7.953503 -12.714322 60.941829
-5.256810 14.045534 19.502011
8.612354 12.279653 65.251467
-14.106117 -5.093601 20.787004
6.764273 -13.385630 46.662312
-7.379072 13.056102 51.688780
13.753298 5.980805 50.520815
-14.958634 1.090430 22.201912
-12.685668 -8.001765 47.219818
-13.784264 5.911005 43.776279
12.136348 -8.811954 19.209045
6.000608 -13.745815 47.603212
-4.447614 -14.324646 44.846320
-14.926126 1.456988 54.962873
-3.447844 -14.595661 31.778681
14.890133 1.808462 2.941972
9.228634 -11.822983 53.197773
-14.748150 2.721378 5.217659
14.842936 -2.145363 58.141393
-14.423459 4.118467 60.036149
6.052467 -13.724032 61.796624
3.454937 14.593936 8.583582
14.149682 -4.969666 14.915830
-14.817887 2.324170 1.432565
5.840263 -13.813168 61.244405
-14.803816 2.413639 9.477967
3.686170 14.537692 9.879270
3.808528 14.507930 60.399602
-14.962509 -1.025546 30.603222
-10.772579 10.434115 55.337496
-11.247224 -9.922091 46.480915
-12.712899 7.959894 54.067407
-13.089441 -7.322246 37.313085
-14.013587 5.345164 7.867604
14.587667 -3.488358 14.130315
5.245569 14.049738 29.862496
-14.529875 -3.715986 22.815929
6.935110 -13.297297 39.138073
3.982652 -14.459262 44.543617
1.058624 -14.960219 1.762153
14.607906 -3.397303 42.751244
-3.957250 14.466522 23.586087
-13.193840 -7.129815 10.034169
-14.870045 -1.951850 6.575462
-12.494944 -8.295028 48.498228
-3.245038 -14.644588 56.865230
-14.758003 -2.666908 60.893588
-14.153622 -4.958457 41.186018
-8.936478 12.043729 19.337872
-13.760470 -5.964639 43.719748
8.895698 12.073855 23.618370
10.877362 10.327227 54.418944
8.251956 -12.524371 55.331734
-13.195743 -7.126307 39.635145
13.691071 6.121070 58.717274
14.839065 -2.172996 16.813009
14.165990 -4.923269 45.415588
7.994981 12.688506 47.313681
14.093024 -5.130848 55.135463
-6.485757 13.522850 8.209076
6.752717 -13.391605 8.971794
-9.423444 -11.666720 59.910688
-1.011007 14.964014 31.942148
2.531852 -14.782620 52.781398
-13.792753 5.891871 58.611519
13.175786 7.163092 21.468533
-6.826529 -13.353440 24.249115
-14.846710 2.118425 24.835167
-6.870143 -13.330889 7.773173
-14.993870 -0.308234 11.049075
-5.925351 -13.777427 50.853117
8.560286 12.315008 21.298263
5.544802 13.937277 46.965338
-8.356182 -12.453599 28.836494
-0.344660 -14.995188 65.033619
13.213881 -7.092875 49.921720
-14.733285 2.803558 59.991412
14.672820 -3.105260 24.665389
12.571109 8.177913 11.445394
3.046764 -14.684540 20.541119
-4.984451 14.147399 48.410940
-12.496985 8.291890 37.553970
13.066473 -7.364581 46.462500
-4.207921 14.394883 5.747200
-10.726763 -10.480851 25.984471
-6.289610 -13.614579 43.948261
-3.852047 -14.496588 28.271537
7.506426 12.983696 6.338487
6.371808 13.576139 66.513913
12.380072 -8.467939 26.089594
11.390407 -9.757269 20.424979
-4.874124 14.184186 60.878112
-13.398629 6.738295 3.748834
12.893743 -7.659152 19.052770
-7.684085 12.882012 15.405885
-13.200026 7.118413 34.190465
-13.927820 -5.561285 25.513123
-14.993362 -0.333806 59.183916
-14.810307 2.377755 13.354113
10.362217 -10.841919 30.785310
-1.904353 -14.876121 24.505789
9.085385 11.933722 54.330386
11.787459 -9.273149 61.595189
-5.017084 14.135194 59.034072
11.991536 -9.008101 64.031791
-14.894830 -1.770744 65.906069
14.733057 -2.804819 46.051762
-5.303747 -14.027979 51.584915
11.889254 9.140942 59.521022
-6.761550 -13.387038 45.033973
10.518762 10.693029 1.556221
13.550354 6.429984 2.149226
2.901339 14.713842 39.397330
11.820739 -9.229926 32.188528
13.749192 -5.990059 59.970972
-13.917600 5.587038 25.068805
14.324906 4.439516 54.097750
-14.634823 3.276203 11.098605
-14.702809 2.970338 32.435146
-1.383398 -14.934333 47.550478
-9.079975 11.937718 46.487333
8.016565 12.675072 57.010629
-7.419534 -13.033097 23.631853
-13.080761 7.338246 16.402486
3.154889 -14.662753 10.702382
5.105348 14.102182 19.402605
-4.230962 14.388298 11.876971
14.074696 5.182991 57.409175
-12.316422 8.557780 33.128037
14.992695 0.367327 0.012153
11.742433 -9.331628 66.442820
-13.977976 -5.434899 62.872473
-1.740299 14.895786 19.459121
-14.393056 4.217833 6.374538
-8.017947 -12.674212 61.467960
14.922574 -1.492605 28.203699
-1.301303 -14.940877 43.615655
0.526674 14.987946 60.345958
13.174399 -7.165648 55.131096
10.940456 -10.260981 29.516111
1.634163 14.908508 42.523303
-7.650909 -12.901550 65.598548
-2.571534 14.776254 26.540803
-6.538431 13.498217 5.755461
12.684466 -8.003613 17.418967
-14.956515 1.125904 55.380808
14.587046 3.491154 21.372934
-12.013918 -8.979032 41.681510
13.947740 5.511089 3.509489
-4.957962 14.156576 11.121752
-13.877435 -5.688249 66.165271
-13.502495 6.527236 54.403348
-3.953333 14.467641 1.722921
-6.247386 -13.634325 48.631390
5.589933 -13.918319 48.102449
-12.600952 8.132027 17.092572
-12.135135 8.813665 10.607412
2.650649 14.763562 24.737215
-3.521396 -14.577771 38.887936
7.948763 -12.717273 3.121728
14.917295 -1.545523 48.222073
12.212165 8.704938 27.175080
-14.944819 -1.269579 3.345727
9.172875 -11.867709 9.947370
-1.595455 -14.913148 32.411210
14.633525 -3.282047 16.765394
14.228762 -4.744692 1.830156
-3.424173 -14.601419 62.113707
-13.606413 6.311894 53.627289
8.749258 -12.182040 3.529920
-13.505097 -6.521948 11.406947
-8.570810 12.307862 2.205714
-0.715269 -14.980442 23.219408
2.290430 14.821350 63.765041
14.937226 -1.345707 9.645264
-4.867373 -14.186409 55.804648
-2.751094 14.744116 12.172872
0.376312 -14.993928 63.083807
9.376860 -11.704086 58.930218
-14.708754 2.939175 54.476180
6.772956 13.381140 9.128679
-7.894879 12.750810 58.946725
13.586702 6.356124 46.391648
-11.109526 -10.074208 37.221883
-14.920524 -1.513149 60.132869
8.606151 12.283865 67.381766
-14.330111 4.422582 6.777214
3.744546 14.523493 44.988592
-12.806471 -7.805789 55.187561
14.421818 4.124274 21.521731
0.423477 14.992052 27.352641
-11.659124 -9.435583 16.938570
-12.274978 -8.616278 47.660158
14.057823 5.230992 46.361850
-14.727212 -2.837133 15.673128
-2.546800 14.780222 67.112411
2.624873 14.767697 20.997520
-2.862600 -14.721648 48.380396
-11.803721 -9.252029 41.170372
-10.276360 10.922801 50.315535
1.780725 14.890940 53.334556
-11.714134 9.368382 60.215196
-4.541600 14.293694 33.007895
-4.051101 -14.439700 10.900638
14.656479 3.178774 0.274288
-14.321582 -4.450326 39.435851
14.670454 -3.115903 48.519896
-7.191639 -13.162667 8.058951
13.289392 -6.953691 8.154874
14.067893 -5.202343 15.385164
-11.800930 9.255654 18.890519
12.080795 8.890366 11.658897
-4.666238 -14.252648 30.258803
-0.360773 14.994547 61.298970
8.814155 -12.134096 41.239809
-14.916173 -1.556774 33.110412
-6.657997 13.440582 50.504970
13.244617 -7.036220 64.538985
12.172462 8.760979 45.944308
10.958974 10.240524 19.810747
-1.992139 14.865598 50.453428
11.845924 9.197217 46.526070
10.415864 10.791380 51.596218
-13.044366 7.405330 10.207844
13.257015 7.013368 64.466464
-14.992897 0.357176 55.077646
-5.764433 -13.845020 62.341039
5.682945 -13.879249 27.815418
11.084735 -10.101595 41.784334
-1.548830 14.918737 54.847887
2.663203 -14.761548 47.540037
8.673592 -12.237940 4.608933
10.159832 -11.032577 16.279748
-1.234867 -14.946172 34.240055
12.686141 -8.001038 26.684939
-12.598928 -8.135139 31.113485
4.494951 -14.309056 13.265184
14.528274 -3.722043 63.407809
12.682271 -8.006988 30.030378
-11.135852 -10.045126 52.909593
-14.981924 -0.700444 17.382338
12.287195 8.599034 29.281618
-9.322246 11.747893 0.686305
-14.799642 2.436716 14.623172
6.371750 -13.576166 16.628990
5.339527 -14.014597 9.921453
13.016690 7.452575 45.115878
-4.904278 14.174255 41.008307
12.488135 -8.305498 65.850895
5.149134 14.085805 38.710945
8.648616 12.255030 7.330087
13.734279 -6.023675 0.714566
7.589828 12.936278 31.072437
-14.812768 -2.360708 21.600617
-0.036763 14.997035 56.567229
-5.270356 14.040467 11.432216
14.849188 2.100730 13.192523
-12.080459 8.890841 58.854048
-8.450363 12.389648 50.747095
-14.367074 -4.302346 63.327623
-3.723962 -14.528499 2.572018
-14.991589 0.422972 26.932698
6.781835 -13.376550 42.060897
13.583522 6.362585 21.567115
4.781454 14.214704 2.660555
4.728740 14.232064 44.280728
14.206294 4.808610 14.653146
-13.660461 6.190066 44.267864
3.245176 -14.644560 22.175231
-11.622786 9.479085 21.490145
-8.562393 -12.313578 20.388790
5.382408 13.998559 0.823192
-12.624503 8.095814 43.676381
11.970967 9.034816 64.441574
-14.976717 -0.787628 41.618748
8.083798 12.633225 55.463804
14.686060 -3.045694 22.252268
10.068085 -11.119008 41.655229
-9.401389 11.684411 36.060527
-14.373312 -4.282057 61.804077
0.366365 14.994324 2.601659
-9.271903 11.788275 36.715181
-14.384289 -4.246351 48.408190
-6.367186 13.578300 36.698953
9.525461 11.584888 48.692692
-12.302105 8.577988 7.355221
14.979274 -0.744820 54.142756
14.100032 5.110912 3.618899
6.016628 13.739086 34.526793
-12.936781 7.586840 25.419841
2.061752 -14.857253 11.112324
-14.995351 -0.233803 60.567377
-14.972233 0.862724 58.705364
-14.308469 4.492983 64.015040
-11.191910 -9.983198 55.451071
-6.514548 -13.509386 63.347506
11.025838 10.166659 48.240707
7.479197 12.999177 60.231783
-3.671675 -14.541218 24.724559
2.943080 -14.705432 60.602067
14.277612 4.593355 48.173511
-10.862199 -10.342695 17.421459
13.612412 6.298372 36.559818
3.376632 -14.612982 6.851967
14.975939 0.800663 60.142295
14.941736 1.300490 24.456151
13.099483 7.303736 57.051338
-5.509806 -13.950910 47.215438
-14.026341 5.313025 26.866143
1.432967 14.930383 10.887949
13.692830 6.117105 52.131248
3.546952 14.571555 18.925564
7.145173 -13.188681 1.970411
-1.384296 14.934262 18.817480
12.133472 8.816013 1.514825
14.386607 -4.238810 15.587038
-14.840442 2.163164 20.771216
-8.415938 12.413023 40.738048
-5.510228 13.950753 57.950163
-14.799073 -2.439860 40.224957
2.310771 14.818087 46.499779
0.051529 14.997035 50.562703
-14.443330 4.043310 40.618758
-12.155523 8.784888 49.299834
-3.094752 -14.674870 53.864237
9.593048 11.530675 54.614663
14.744817 2.739807 26.671453
-0.076358 -14.997035 14.700439
14.977413 -0.775987 64.975483
14.990284 0.488572 52.718963
-7.624470 -12.916582 34.227787
14.783192 -2.527654 22.440748
13.999511 -5.380632 60.829893
-2.972303 14.699543 62.996451
-7.152910 13.184681 30.724241
0.728490 14.979916 29.378880
8.097519 12.624685 33.101594
-11.893822 -9.135009 40.007940
8.652717 12.252246 47.456734
-0.048573 -14.997035 7.104639
0.882071 14.973806 48.107163
8.940223 -12.040962 28.733591
-0.306351 14.996712 49.085677
-0.927332 -14.970683 30.352570
14.910098 1.617679 63.105774
-12.308172 -8.569425 4.789620
8.126233 12.606813 45.358311
-5.970198 -13.758589 37.430444
13.198466 7.121288 31.235561
-11.966771 -9.040265 6.312515
13.428025 6.678561 39.146030
-14.205672 -4.810380 59.105720
-11.762765 9.305221 36.635161
-7.054647 13.235489 6.726084
5.624608 -13.903754 29.806945
14.606575 3.403293 34.268320
14.254975 -4.666991 67.116190
-3.035303 -14.686849 40.155742
9.930742 11.238569 48.775821
-13.663544 -6.183116 31.918213
-10.445376 10.763578 41.872413
-14.384954 -4.244186 17.194441
14.389156 4.230519 58.645128
12.518154 -8.259339 60.469153
6.921336 13.304419 33.687511
13.799007 5.877774 33.229083
-11.725947 9.353040 46.160419
0.566293 -14.986370 34.011384
-9.744042 11.400937 60.563554
0.278840 -14.997035 53.124528
-13.921832 -5.576374 1.509961
-12.648146 -8.059460 60.207687
6.027150 13.734666 50.503329
12.286321 8.600267 30.780485
-3.466540 14.591114 37.102123
10.982854 -10.214144 50.711459
10.696387 -10.511837 44.610863
10.315756 -10.885688 58.529628
2.040915 -14.859751 3.001047
-11.360273 9.793342 21.011003
13.675162 6.156929 39.953282
-8.189530 -12.566759 0.511935
13.941517 5.526770 63.608146
-14.000065 5.379237 41.454062
6.671423 13.433640 41.157945
-14.993174 -0.343257 35.581436
-14.712700 -2.917360 46.704124
-12.539426 -8.226630 10.865087
12.782018 7.846875 45.988819
-5.804667 13.828120 15.573058
14.671997 3.108960 20.071264
-14.998675 -0.066637 27.406236
-7.850225 12.778604 49.285030
5.659689 13.889018 17.520290
-13.665225 6.179327 21.104199
-9.144449 11.890087 63.723834
-13.813783 -5.844467 20.996660
13.310342 -6.915074 43.212864
13.103592 -7.296163 50.432257
-8.865835 12.095917 14.464900
14.981592 0.706011 17.338145
-11.461257 9.672453 25.583599
-12.972630 -7.526605 22.727474
-6.537476 -13.498664 30.380475
14.692303 -3.017607 22.756866
10.240182 10.956883 5.100736
-14.352698 4.349110 4.304742
12.550877 8.209023 43.092538
-2.877572 14.718631 35.066937
-9.733033 11.410511 59.532147
10.947173 -10.253561 50.051507
-14.924802 -1.470265 46.342159
-7.417444 13.034286 33.303279
8.979626 12.011852 31.028533
-9.536081 -11.576370 20.547544
14.688385 3.035234 2.396940
-11.136975 10.043885 3.320591
-8.389667 12.430862 11.690189
-5.483726 -13.960665 2.949028
13.259920 -7.008014 60.802062
11.777135 -9.286558 42.667820
-10.401364 -10.805040 24.625489
3.760032 14.519726 63.727859
-10.515734 -10.696118 43.168691
-3.992511 14.456444 34.702254
-8.790491 -12.151579 36.426448
-7.463842 13.007907 54.574723
12.341913 8.521800 8.816346
14.982248 -0.695029 54.626672
6.343101 13.589564 59.041992
-7.069377 13.227872 17.547501
-12.372173 -8.479088 22.863291
-9.743886 -11.401072 31.047600
5.600110 13.914044 12.158433
14.918537 1.533074 27.368279
-12.703347 7.974581 12.997023
-8.717689 -12.205362 35.792261
13.081197 -7.337442 2.937923
-10.969685 -10.228691 5.015728
3.253607 -14.642862 31.203978
-14.908903 -1.629656 56.293400
9.039649 -11.967509 61.798409
-2.221182 14.832459 43.818392
6.291009 -13.613925 44.426509
-7.425631 13.029631 24.837267
-10.422768 -10.784875 29.298333
-7.557097 -12.954886 51.256531
14.999023 0.049142 32.346063
-5.140592 14.089000 63.783877
4.808127 14.205920 8.085475
12.219167 -8.695054 6.709232
-1.419024 -14.931494 17.556960
-9.764972 11.382735 43.298593
12.895204 7.656699 18.112720
-2.153457 -14.843324 28.316578
-1.362241 14.936020 22.514855
14.387691 -4.235282 23.406606
-4.044875 -14.441479 43.574101
13.960314 5.479404 25.068911
-3.861166 -14.493981 63.866808
12.090902 -8.876100 4.923471
-0.228688 -14.997035 47.667591
12.830374 -7.765626 66.897073
-9.590525 11.532699 7.395688
10.465338 -10.744772 20.779068
12.959258 7.549073 21.561587
-7.051797 -13.236962 33.178049
5.746883 -13.852392 66.044388
8.539109 -12.329388 13.734502
5.336353 -14.015784 6.285368
-11.593267 9.514422 10.483541
13.370493 -6.795469 28.699262
-7.646941 12.903806 37.942373
1.776955 -14.891392 17.362178
-3.118865 -14.670012 27.628357
-14.775694 -2.569107 51.034821
10.246599 -10.950838 10.825289
9.558710 -11.558218 66.753095
1.370975 14.935324 12.886394
-13.237781 -7.048820 38.361463
-13.955190 -5.492316 22.538750
-10.171057 11.022003 35.960720
-4.108075 -14.423417 20.416473
-14.583300 3.508003 41.574701
-9.732987 -11.410552 49.093149
2.636211 -14.765878 63.975155
-11.753835 9.316819 50.063538
