9.434996 55.109126 11.562564
2.249290 45.004753 58.976726
-2.309986 33.328732 20.436599
2.414808 45.309878 58.959844
4.258697 48.370498 62.645813
24.552388 67.292960 50.224503
6.902623 52.083982 27.758160
12.606817 58.379067 51.160594
16.993197 62.172240 42.373377
17.691572 62.713382 47.498790
3.663428 47.432356 41.667538
1.721710 44.014647 62.327217
-0.359478 39.453673 47.247797
26.946588 68.620668 40.839851
-0.404446 39.342430 38.541279
21.537619 65.436715 39.224248
4.210552 48.297862 4.054711
-1.541380 36.106740 58.489646
12.937419 58.688040 41.183472
-3.131706 29.077681 67.942692
3.530456 47.217259 24.356525
-3.242926 28.233560 57.086072
6.627422 51.722288 3.076640
1.608507 43.794352 30.838182
-3.504903 25.273777 34.486714
23.617057 66.741117 60.794463
15.101918 60.624419 48.539187
-1.469776 36.333153 60.565330
1.305507 43.196571 13.248112
-3.108075 29.233829 12.152740
-2.393285 32.986514 53.063637
22.645010 66.145365 67.802210
3.160270 46.601668 26.496869
22.439109 66.014007 29.216706
11.912162 57.703430 64.040773
-3.452424 26.105424 51.526840
8.775310 54.360032 46.124790
1.213399 43.006967 24.051447
-3.186621 28.677268 15.454785
3.683340 47.463874 43.828055
8.156671 53.633917 30.193965
5.265163 49.859739 41.353483
-2.631701 31.914323 20.866948
11.135491 56.923468 15.828292
22.009125 65.738656 36.080617
10.483388 56.245618 46.600425
2.245565 44.997886 12.599072
1.879725 44.322147 9.921239
-2.189482 33.810587 39.919977
21.516380 65.422895 35.243234
0.819554 42.187715 61.631325
19.426738 63.995855 13.814442
11.926003 57.716915 38.358802
6.683271 51.795689 36.500529
3.654531 47.418271 3.888314
6.420079 51.449780 24.285276
21.090382 65.138030 29.839731
1.106841 42.787616 59.659969
1.149995 42.876450 38.736292
20.827113 64.961982 17.237344
7.852159 53.267398 29.256627
-1.163074 37.270584 48.567867
16.063342 61.426971 44.970509
25.199255 67.664239 28.388128
4.021701 47.999472 32.049713
-1.267780 36.952861 23.307707
-3.356537 27.212284 64.115326
26.150547 68.194861 20.716290
18.761005 63.512455 54.674362
-1.375424 36.622619 28.953363
1.179656 42.937506 35.781747
-2.698937 31.578907 50.149934
-1.323229 36.782748 21.968826
-2.586536 32.128357 44.090182
13.839777 59.517849 57.410189
-0.347362 39.483647 58.060541
25.569507 67.871655 47.801311
-3.127908 29.102772 34.274001
7.216411 52.478977 11.422600
5.484412 50.175350 47.346174
-3.226528 28.362782 17.706876
18.025783 62.967180 53.974281
7.260591 52.534527 64.858536
27.117942 68.712326 6.388665
8.772602 54.356910 38.316349
15.119952 60.639934 67.811880
22.491740 66.047710 37.940878
-3.504840 25.274944 3.539024
-0.984604 37.777979 54.607486
6.742275 51.873238 20.029047
4.452982 48.663610 20.417216
-0.479292 39.148460 65.564059
4.911258 49.350288 60.480110
17.221320 62.352863 36.723545
4.223201 48.316945 24.822706
11.156176 56.944477 29.923096
18.767845 63.517435 29.120091
0.356270 41.167263 8.902562
18.127623 63.044518 28.517612
20.967571 65.055906 47.509674
1.657166 43.889042 36.464052
2.122017 44.770131 66.490158
24.788047 67.431098 49.668112
0.444954 41.370136 40.949814
23.419150 66.619823 54.341806
26.568721 68.418544 55.272375
7.462267 52.788100 42.109019
0.414094 41.301422 51.085152
-1.937451 34.754586 43.057795
-3.010850 29.876277 16.791545
3.238656 46.732019 58.676874
2.820015 46.020455 28.847319
22.148867 65.828143 13.108183
3.346408 46.911201 12.074357
-2.484745 32.580371 6.146236
-2.493283 32.542456 45.841157
20.845615 64.974354 64.326524
3.125702 46.544183 47.592156
21.850850 65.637301 16.092242
-3.205647 28.527336 24.926533
-2.679312 31.676808 24.567596
-2.942351 30.276408 52.682675
13.395045 59.115728 22.241328
9.150871 54.793002 35.914283
2.826573 46.031929 7.560390
-3.282277 27.923463 63.878027
4.259345 48.371475 61.056842
19.343828 63.936833 13.440861
0.105536 40.585525 21.938598
23.863622 66.889218 49.307720
22.436722 66.012478 56.117060
25.902298 68.058085 28.135900
-0.068041 40.174633 42.684478
3.530830 47.217881 66.515727
18.740236 63.497332 28.008638
6.268472 51.250524 34.509497
0.015247 40.376042 29.509360
26.609395 68.440301 40.904606
25.519583 67.843687 34.805495
3.596772 47.326844 7.032331
5.567228 50.290723 44.391059
5.633859 50.382334 65.942765
5.933815 50.794738 33.137866
4.076680 48.086499 46.718134
-0.927922 37.939128 22.231817
-2.928820 30.353356 19.954170
9.205847 54.855968 12.795668
14.745436 60.317734 28.914098
7.607242 52.970381 46.650766
0.164232 40.721708 3.000457
2.650331 45.723601 22.694347
0.025525 40.399890 50.295675
15.516315 60.975465 55.267414
26.301129 68.275408 52.545309
19.059085 63.729499 23.562098
5.907979 50.759217 29.088637
13.916769 59.586885 10.147124
6.600799 51.687297 37.294817
26.776067 68.529455 62.950233
7.288495 52.569611 65.918532
-2.872793 30.671973 7.880385
6.231480 51.201906 51.213906
-3.442548 26.231809 39.993549
18.347897 63.211653 10.469295
4.882681 49.309152 44.067830
2.022163 44.586055 13.438323
19.651469 64.152703 10.611230
-3.238955 28.264854 49.714726
27.643559 68.983647 51.731901
27.118473 68.712610 53.171348
-1.054190 37.580147 58.438061
-0.701622 38.560007 8.991108
-0.729867 38.485248 32.983405
7.705658 53.091066 47.124858
-0.823716 38.235390 42.333413
-0.132310 40.015646 50.976057
-2.975463 30.088108 35.946572
20.119275 64.479203 28.572143
19.727680 64.205894 44.407168
11.483538 57.276957 67.593957
21.157042 65.182606 30.457267
13.339965 59.064251 3.936650
8.133640 53.606197 12.238800
9.648201 55.344669 43.972737
11.226507 57.015907 21.624115
19.996314 64.393383 29.455028
-3.011613 29.871235 64.426315
15.330728 60.821266 39.417392
14.377841 60.000313 18.305365
-3.419781 26.523171 35.058480
10.686473 56.460704 8.149858
19.520789 64.061497 17.735593
-1.241007 37.035001 9.334758
0.046263 40.448005 17.649688
8.707864 54.282277 21.860900
-1.745727 35.426571 65.104495
-3.023314 29.793917 14.059826
17.286615 62.404562 30.983271
9.073318 54.703594 18.120029
-1.992479 34.554598 14.158333
24.938428 67.518124 38.947921
-3.497075 25.419357 41.291021
3.074614 46.459229 8.948054
-3.057981 29.564844 20.991042
3.851940 47.730754 59.908088
6.864448 52.033809 66.111088
21.778467 65.590948 50.681763
18.829506 63.562334 46.185268
26.404411 68.330654 28.209878
-3.216683 28.440362 35.615012
-3.289957 27.861788 66.529666
24.261902 67.122682 56.882524
13.879467 59.553438 55.377866
22.026778 65.749960 30.651080
10.053336 55.790150 25.529814
0.909350 42.381080 22.610042
-3.493531 25.485262 48.711370
0.939947 42.444065 64.119001
8.385804 53.909707 49.253394
4.657312 48.971877 24.558137
2.863615 46.096733 7.922007
1.614377 43.805775 36.860539
11.011176 56.797209 36.274053
25.197368 67.663182 55.771117
-3.417113 26.557309 43.882424
-0.623861 38.765821 65.788655
9.166858 54.811433 5.324606
-2.703380 31.556744 17.420455
23.414104 66.616730 9.673550
6.661798 51.767468 30.558546
25.269345 67.703504 20.748470
21.755784 65.576422 27.267228
-3.247154 28.200245 4.937058
13.958189 59.624025 31.506909
0.444755 41.369702 16.957259
10.224775 55.971721 26.523761
1.574118 43.727429 35.175518
10.346880 56.101042 50.427196
26.177210 68.209123 52.977861
7.855534 53.271461 11.479359
20.503903 64.745850 51.133388
19.649828 64.151558 42.915789
5.827194 50.648146 65.675726
2.363563 45.215410 32.211110
17.987797 62.938334 61.509173
-0.097728 40.101195 60.727183
-3.334684 27.425464 5.237574
1.671886 43.917688 66.458895
-3.027624 29.765439 37.417152
9.479175 55.157933 23.128686
0.856339 42.268000 30.078814
-3.361808 27.160863 32.791421
0.960651 42.486683 66.216687
6.628375 51.723541 32.934988
25.446615 67.802810 37.185038
5.742076 50.531120 57.599016
16.224771 61.560212 37.766070
0.510258 41.512664 26.195698
12.062324 57.849717 44.528277
15.473730 60.940316 31.384148
13.959141 59.624879 59.753252
11.779458 57.574153 9.011304
-1.128520 37.368822 46.008524
2.212445 44.936832 22.213536
0.890194 42.341649 51.395761
28.435603 69.387785 35.045737
16.395937 61.699344 67.555967
20.675669 64.860711 45.206484
23.607197 66.735074 6.917618
0.777047 42.094943 5.941929
25.231891 67.682522 65.570369
-2.258976 33.532702 64.310365
-3.173130 28.783579 52.272968
8.400230 53.927072 44.547975
-2.793000 31.109661 6.094350
-1.451432 36.389431 34.279872
12.289469 58.070999 38.076761
21.189059 65.204015 57.761504
-2.620550 31.969950 22.865899
-2.025087 34.436091 54.308212
0.534798 41.566225 45.033922
19.059441 63.729759 51.270323
18.712401 63.477064 15.867372
-1.150191 37.307212 32.676271
1.335903 43.259142 13.673026
4.865686 49.284688 38.854025
5.908930 50.760525 46.221753
7.999474 53.444711 26.892848
3.933398 47.859694 48.018512
5.692794 50.463362 9.769214
2.161636 44.843167 31.006624
14.959298 60.501722 13.802868
26.839115 68.563180 57.037655
10.515530 56.279659 32.939901
25.969095 68.095505 49.412738
3.801667 47.651175 14.772071
6.235588 51.207305 57.830130
3.695537 47.483181 13.682221
28.425019 69.382385 21.366047
3.700641 47.491260 17.722425
-1.401673 36.542087 11.210492
19.045777 63.719809 10.698016
12.341629 58.121812 27.826651
23.108335 66.429329 45.410869
15.168819 60.681975 16.288852
10.401111 56.158479 34.459288
1.414274 43.416370 48.613538
17.673400 62.699583 36.634112
-2.682248 31.662163 16.513736
-2.764228 31.253197 39.575982
4.236928 48.337655 9.486000
28.020201 69.175827 17.087824
0.361245 41.178807 30.718681
0.060199 40.480338 22.293693
4.561466 48.827277 44.809762
24.356364 67.178054 53.001360
20.160842 64.508214 36.480553
4.636690 48.940765 43.775252
3.164097 46.608033 14.981938
10.538923 56.304435 41.358357
6.753989 51.888634 64.767194
-1.322150 36.786058 10.910357
8.142621 53.617007 36.078822
26.431064 68.344911 43.084615
1.952045 44.456796 17.478528
7.100834 52.333659 22.964031
9.813040 55.526778 67.190851
6.889783 52.067106 35.408605
5.406668 50.063437 59.017165
-3.441384 26.246714 43.586950
11.371763 57.163434 49.375485
1.141116 42.858173 56.846357
11.895525 57.687224 41.338920
12.607732 58.379923 32.787830
15.625762 61.065800 15.358714
10.622904 56.393379 36.256176
-1.359386 36.671822 22.313253
13.356255 59.079476 37.027293
19.200687 63.832606 55.946851
-1.014764 37.692236 46.223283
5.474172 50.160610 67.898348
14.173605 59.817181 6.013149
12.484297 58.260798 57.499015
17.628605 62.665566 56.085642
5.186132 49.745973 42.399178
18.152702 63.063562 5.439622
0.200342 40.805488 36.259539
0.716360 41.962491 23.725569
19.278732 63.889434 35.438470
16.200930 61.540534 19.541796
-0.798266 38.304213 38.198029
9.015694 54.637162 33.338400
0.181913 40.762730 65.682674
9.692560 55.393675 27.092470
23.115695 66.433840 25.418014
9.051196 54.678091 21.204511
1.964304 44.479395 31.625990
1.974912 44.498951 22.240324
-3.254129 28.145277 37.238200
-0.428155 39.283779 22.309195
3.432662 47.054635 61.264310
17.508103 62.574057 26.038784
21.167113 65.189340 10.534392
-2.446093 32.752010 28.008637
7.046983 52.265951 11.213156
17.701990 62.721294 25.627742
20.629579 64.829890 33.016586
15.996082 61.371456 3.185980
-2.910934 30.455069 28.825776
2.365236 45.218494 11.399627
7.053619 52.274295 55.148432
-1.164126 37.267594 22.755813
-2.690232 31.622336 46.980235
18.766425 63.516402 47.870667
10.311253 56.063310 21.221011
25.878533 68.044771 32.105274
-3.506319 25.247448 12.949168
-3.095472 29.317111 53.633984
-0.890186 38.046414 44.699424
26.192101 68.217088 47.382359
12.472810 58.249607 54.010763
-1.862838 35.025755 26.848453
13.414230 59.133657 4.276315
15.017712 60.551976 41.394652
15.643177 61.080175 39.491421
-2.484784 32.580198 30.287697
-3.267795 28.037582 29.299002
19.043001 63.717788 57.235704
20.449029 64.709156 60.915561
-0.552772 38.953976 13.704253
9.319579 54.981616 26.180500
5.905084 50.755236 15.686915
-2.656873 31.788749 20.147909
-0.461435 39.195722 67.971765
-1.849710 35.073466 10.051564
-0.851274 38.157041 66.159525
-2.398549 32.963139 3.587558
4.643276 48.950702 31.683333
0.482633 41.452373 55.339409
-1.149978 37.307816 19.849326
8.453308 53.988809 51.360469
6.845650 52.009102 41.504677
3.875877 47.768645 52.489848
-2.572153 32.192224 13.808745
5.479592 50.168411 52.997829
23.565129 66.709291 51.465879
3.626754 47.374302 8.359775
0.373674 41.207643 18.309588
10.451567 56.211916 35.712892
14.207531 59.847602 61.741402
5.432541 50.100680 31.406574
6.105456 51.030724 12.935468
5.884626 50.727110 29.665709
-2.218323 33.695262 45.420581
9.523735 55.207162 6.405414
5.309428 49.923458 27.513803
24.628412 67.337523 47.471981
28.379474 69.359145 32.456952
0.841433 42.235469 41.601262
-3.516948 25.049785 18.619644
-3.286721 27.888440 62.382381
-3.477993 25.774233 41.430027
-2.891963 30.562954 49.621725
-1.986824 34.575150 25.594052
-1.969738 34.637245 5.305352
-1.865555 35.015880 37.533815
5.304592 49.916497 51.032154
20.191387 64.529533 4.547360
16.254364 61.584637 33.320828
26.613246 68.442361 25.652909
5.436547 50.106448 32.082583
7.319505 52.608601 9.658203
10.693053 56.467673 22.501156
22.381721 65.977257 20.588702
0.448010 41.376808 62.515406
-3.021449 29.806240 46.493270
-2.938751 30.296882 18.238638
25.417352 67.786417 47.418249
20.372268 64.655776 40.388005
-3.460293 26.004722 46.867146
21.480214 65.398711 27.082766
12.342580 58.122739 19.902249
-0.189369 39.874493 34.176084
-0.364542 39.441146 56.686303
3.858542 47.741204 44.190686
-3.070887 29.479561 65.429714
8.592136 54.148858 26.885272
5.411855 50.070904 8.494716
20.233027 64.558594 30.104066
3.575542 47.292234 35.513769
-1.928465 34.787244 44.835085
28.328679 69.333227 14.418664
12.374443 58.153779 62.929182
14.476188 60.086098 4.671544
-2.718917 31.479236 34.679321
2.006745 44.557633 56.855063
22.628041 66.134965 48.501579
-2.337595 33.218333 37.290549
18.784782 63.529768 51.309077
9.770172 55.479419 65.728366
16.086401 61.446004 8.693874
-1.079204 37.509031 13.660538
13.338002 59.062417 14.416088
6.531683 51.596459 61.194864
26.129557 68.183633 50.396732
11.711208 57.507664 42.558959
-2.582424 32.146616 52.082217
9.813418 55.527196 65.162928
11.231782 57.021264 36.054283
14.097329 59.748787 32.911026
3.973721 47.923524 11.242122
-1.754536 35.397249 27.143012
-3.024613 29.785334 57.812087
10.365886 56.121171 27.646033
7.373695 52.676736 35.761511
18.196234 63.096620 46.222314
-0.834247 38.205450 10.703560
8.760544 54.343009 17.765365
14.823501 60.384895 59.739343
3.144985 46.576249 39.511620
21.773814 65.587968 28.929049
-3.119267 29.159873 16.453777
22.565360 66.094855 3.826036
12.895209 58.648592 12.708987
-3.078280 29.430711 55.682438
28.397855 69.368524 26.685567
15.361837 60.847962 11.342183
13.945115 59.612302 29.739114
24.079732 67.015897 19.879235
12.864735 58.620112 31.662647
0.859530 42.274966 19.499386
21.658913 65.514388 18.189586
2.906488 46.171736 31.354481
14.305621 59.935556 43.129897
-1.786325 35.291442 46.749794
3.279029 46.799155 33.348781
23.202740 66.487189 18.569326
0.385235 41.234468 5.840106
21.744260 65.569043 65.254315
-2.132809 34.037202 6.566608
-3.192672 28.629580 51.115248
3.611802 47.350635 48.965346
14.582697 60.177728 32.244802
3.037521 46.397545 12.960261
-2.133817 34.033170 44.667432
-1.937003 34.756215 24.957901
-3.430605 26.384651 52.708583
23.766042 66.832018 15.545272
14.417270 60.035410 25.813801
23.003802 66.365263 44.388222
-3.104271 29.258966 9.395612
17.462155 62.539165 16.020862
-0.368658 39.430964 61.572735
-3.505324 25.265942 34.001331
9.323325 54.985753 45.193163
-0.589481 38.856816 33.978734
23.781832 66.841274 59.303007
-2.683542 31.655708 7.508608
-2.535952 32.352980 12.286466
16.017351 61.389011 26.661671
25.892028 68.052332 37.646530
-1.426279 36.466597 39.060995
3.657039 47.422242 30.677374
-1.409955 36.516679 41.991012
5.280603 49.881965 5.001246
9.685573 55.385955 29.855122
4.198244 48.278924 30.376033
12.795695 58.555588 31.340230
3.120585 46.535674 35.291223
-1.685459 35.627175 62.832713
3.763812 47.591255 32.374652
1.889619 44.341401 47.473570
-1.131046 37.361641 28.445893
14.391651 60.012696 40.126869
4.943463 49.396648 62.904805
24.048962 66.997861 67.752675
-3.221182 28.404908 32.272943
11.663887 57.460126 26.370109
20.025419 64.413697 12.880126
22.881026 66.290015 53.693711
6.670724 51.779199 10.810427
16.831561 62.044261 28.990959
13.489744 59.203986 34.682081
-0.128394 40.025332 47.029982
0.415809 41.305403 22.701735
3.390759 46.984954 17.220934
-3.330356 27.467687 67.020191
-2.725263 31.447579 65.056586
-1.921518 34.812492 3.882325
25.680392 67.933773 22.489120
-2.164990 33.908522 58.499846
-2.741267 31.367742 26.217380
8.192919 53.677546 24.436937
-3.212942 28.469849 20.065306
8.181180 53.663418 42.513047
11.863289 57.655819 46.793422
18.154438 63.064880 28.018776
21.781662 65.592994 35.001828
5.722694 50.504471 38.299350
-2.229982 33.648640 61.246438
19.442541 64.006885 18.562932
8.708578 54.283100 55.304591
22.040151 65.758524 43.655902
1.394664 43.378208 28.085307
20.534723 64.766460 14.800544
6.532026 51.596910 9.949177
0.695461 41.916878 10.837370
14.938336 60.483687 32.031947
17.995659 62.944305 45.564078
17.812985 62.805583 47.810154
-3.336851 27.404324 46.128228
-1.446632 36.404156 25.104678
11.504464 57.298210 18.707162
17.499905 62.567832 18.849758
-1.418617 36.490104 50.858686
26.865252 68.577160 64.148033
-3.505792 25.257255 17.230858
20.406883 64.679935 18.536192
3.458133 47.096991 37.237504
-2.836158 30.880308 4.933739
0.022970 40.393960 63.644444
25.230158 67.681551 11.667104
14.759611 60.329929 40.488425
17.720308 62.735205 26.763149
25.603389 67.890636 11.166977
18.073688 63.003559 47.968574
13.826650 59.506079 39.951470
13.445563 59.162940 52.688818
19.666456 64.163163 47.031103
-1.128681 37.368364 59.753001
7.648836 53.022674 11.711123
-2.983242 30.043866 7.336346
-3.055619 29.580453 40.459478
-1.626041 35.824946 47.317874
27.121120 68.714026 3.568108
6.136088 51.072840 6.525699
10.048569 55.785102 65.353111
10.202843 55.948493 40.163643
-2.838929 30.864552 38.984877
15.876128 61.272448 27.285336
-0.578698 38.885356 18.594358
-2.571221 32.196363 51.281021
10.222760 55.969587 32.962510
23.826592 66.867511 3.250955
-0.257381 39.706243 19.217406
8.320038 53.830550 9.892609
-3.020440 29.812911 46.085831
-2.789879 31.125232 45.807151
18.978103 63.670533 64.964971
-1.561213 36.040728 51.659574
0.990733 42.548607 37.465552
3.863641 47.749276 59.500579
25.709118 67.949865 35.756645
9.829287 55.544727 30.697364
-0.115591 40.057004 49.286460
25.397880 67.775509 36.705181
6.146265 51.086833 66.612053
22.853600 66.273206 5.503432
19.865445 64.302045 21.485550
-3.427524 26.424078 66.592473
-1.120870 37.390572 66.959488
-1.742439 35.437516 57.356676
10.018210 55.752948 62.618467
0.309152 41.057942 59.328540
13.335139 59.059741 46.742154
0.363287 41.183545 3.861224
1.677168 43.927968 38.070752
16.968744 62.152879 3.388783
-3.338306 27.390130 26.613375
-0.438138 39.257383 21.534577
11.633277 57.429037 37.619934
-0.377223 39.409776 27.149646
2.722517 45.849888 31.496801
18.858041 63.583111 55.001175
-1.681615 35.639968 4.915787
12.133734 57.919283 65.830571
0.939148 42.442419 60.321977
18.931883 63.636879 55.744535
-2.690389 31.621550 22.897811
-2.382205 33.035717 26.904160
-1.421731 36.480551 59.965093
-2.136149 34.023847 60.088269
16.415603 61.714916 6.111096
27.212041 68.762660 22.929744
15.466372 60.934243 31.888599
4.754224 49.118086 23.338435
-2.849852 30.802433 56.889241
-0.451561 39.221857 34.623994
17.125341 62.276869 17.822099
18.174135 63.079838 49.625712
-1.473178 36.322715 9.754991
-0.772595 38.372158 31.462382
13.505409 59.218033 40.983073
-1.841731 35.102462 39.203354
-3.421868 26.496458 50.365838
12.368391 58.147883 39.212080
25.051481 67.581456 37.249448
16.682681 61.926382 22.772201
-2.920711 30.399469 63.540981
0.059600 40.478946 15.344280
3.008666 46.349562 10.250812
16.142405 61.492229 12.439252
2.127737 44.780675 11.515078
8.308168 53.816263 60.891283
2.233919 44.976418 7.776581
10.128133 55.869367 45.048459
-3.102669 29.269548 23.637612
25.674489 67.930466 8.558585
8.242543 53.737275 19.963282
-3.414689 26.588326 6.785048
17.887260 62.861987 14.965250
23.958659 66.944927 46.231990
7.165247 52.414648 49.757667
3.009374 46.350739 43.278716
-3.414081 26.596119 24.093729
-2.571774 32.193906 35.336214
16.724669 61.959627 36.425281
-2.629641 31.924598 10.542731
17.463907 62.540495 34.074608
-0.949693 37.877233 48.252534
17.719821 62.734835 34.859962
-2.484105 32.583214 4.800521
9.887316 55.608836 24.354456
11.042698 56.829224 26.833631
-2.213237 33.715599 49.488999
14.159530 59.804561 46.422990
-1.770422 35.344376 28.666143
-0.194642 39.861448 44.924604
9.667461 55.365946 18.187705
5.234001 49.814880 26.517453
-2.380391 33.043772 28.161007
17.269995 62.391402 28.065310
6.903611 52.085280 37.057116
-1.846622 35.084686 67.150621
-3.154318 28.928259 31.036675
-3.233898 28.304706 10.092010
23.496389 66.667161 42.284579
-3.307450 27.691141 25.902986
25.548139 67.859684 38.953417
3.784911 47.624652 62.976025
20.317619 64.617634 65.766086
0.862008 42.280374 48.576398
19.117939 63.772354 7.824888
23.504611 66.672200 38.058527
5.554329 50.272989 34.566619
-2.716419 31.491698 48.487081
-0.067213 40.176682 32.012276
10.339069 56.092769 11.797413
-2.810701 31.021359 33.848286
2.559008 45.563836 3.953270
2.002742 44.550255 46.659138
-0.108067 40.075618 7.914908
-2.908154 30.470878 53.807776
-2.946413 30.253310 6.538902
27.742955 69.034363 12.541881
5.051436 49.552076 58.674645
0.799306 42.143524 56.748641
-1.126900 37.373428 67.806998
28.078810 69.205732 13.242810
22.024508 65.748507 64.956169
21.578219 65.462714 25.355382
-3.325834 27.511800 44.823612
5.176505 49.732115 3.599756
-2.173969 33.872617 12.675680
-0.219310 39.800423 3.312871
25.398465 67.775837 23.592800
-3.093055 29.333079 13.817907
11.104417 56.891908 42.785329
-0.868617 38.107734 34.994015
18.613879 63.405326 31.505882
-3.182605 28.708910 31.717108
19.263641 63.878445 19.136797
22.720518 66.191642 12.018625
24.307155 67.149208 61.802476
14.915625 60.464149 18.315976
8.094160 53.558677 65.253690
-1.913941 34.840029 60.582451
7.869687 53.288496 39.034013
28.400446 69.369846 57.269436
0.349574 41.151729 57.970687
28.422357 69.381026 6.882715
11.770570 57.565494 23.885035
-3.127686 29.104241 3.013341
-2.878550 30.639231 66.895744
-3.184171 28.696574 23.702130
11.485627 57.279079 9.489931
3.573382 47.288641 20.348647
14.251859 59.887349 54.257447
10.248774 55.997139 17.745800
11.381242 57.173062 27.100916
0.507327 41.506268 42.010754
19.674786 64.168977 27.755523
14.148537 59.794703 45.301722
-1.649221 35.747792 50.817368
-2.584588 32.137004 21.192717
0.883176 42.326573 34.024247
15.493508 60.956640 10.002360
16.794672 62.015053 43.037710
1.082987 42.738513 47.953552
21.086233 65.135256 40.643577
27.881734 69.105175 41.034893
-2.952161 30.220619 29.257834
1.838173 44.241287 63.047777
11.175941 56.964550 62.948980
13.118476 58.857252 31.778563
-3.478471 25.765332 40.649743
18.136118 63.050968 42.642442
-1.406994 36.525764 22.925360
16.750910 61.980404 59.283003
1.733544 44.037676 23.819274
-3.314180 27.625491 4.334581
16.355772 61.667543 8.617420
24.675400 67.365067 15.239984
3.919017 47.836931 51.227835
3.131234 46.553384 19.215226
4.332299 48.481539 54.226918
-2.199149 33.771929 6.106168
-3.229339 28.340628 21.579728
16.910270 62.106581 50.356273
-1.910513 34.852486 46.379041
6.202743 51.164137 55.829987
23.908499 66.915524 66.070035
11.944429 57.734865 49.200305
1.626365 43.829103 55.179504
3.710363 47.506648 42.027215
15.171605 60.684372 51.998405
21.281407 65.265769 42.905949
7.318404 52.607216 63.111972
21.824090 65.620164 25.173467
-2.798170 31.083874 40.598635
-2.853045 30.784278 6.265824
6.227490 51.196663 61.943805
24.359408 67.179838 44.366023
-3.482832 25.684232 58.428070
1.542390 43.665686 51.992417
-0.027052 40.276033 53.036074
18.630458 63.417398 42.693897
26.573835 68.421280 54.500702
25.782153 67.990779 36.219058
12.309936 58.090937 24.055613
-2.681776 31.664516 7.147138
19.664588 64.161860 43.370338
23.520846 66.682151 18.333616
22.437570 66.013022 7.269342
18.422495 63.265972 67.215368
-3.518786 25.015595 13.552096
12.020648 57.809116 11.116666
20.736821 64.901603 62.571467
-2.032840 34.407912 57.611032
-1.885408 34.943728 27.242360
11.701608 57.498312 7.563968
23.434894 66.629472 35.632989
22.795029 66.237309 43.613241
-3.170860 28.801470 32.240319
19.998572 64.394959 20.777158
21.643683 65.504636 52.259291
15.842664 61.244827 29.118822
-2.148817 33.973189 65.647088
-0.315619 39.562173 18.826078
20.738819 64.902939 63.953136
13.461833 59.178147 9.147967
-0.507165 39.074688 57.912908
-2.711321 31.517128 33.985188
12.571343 58.345596 16.087155
26.035984 68.132976 19.651283
9.842101 55.558884 38.860530
-3.275106 27.979974 49.499288
21.567807 65.456047 30.126840
22.200259 65.861053 54.736560
3.885653 47.784119 26.532434
-0.151747 39.967560 51.824748
-3.020160 29.814762 24.544385
-2.675734 31.694660 40.744198
14.204982 59.845316 36.299690
-2.924237 30.379420 4.668293
-1.797199 35.255246 61.311103
10.894542 56.678752 37.287333
-0.201640 39.844135 49.639340
26.904816 68.598324 52.909465
13.565580 59.271986 27.230995
11.338787 57.129943 49.807619
17.536445 62.595580 58.392182
19.498690 64.046073 54.357077
-0.378283 39.407152 13.198721
26.840056 68.563683 14.560772
5.896227 50.743060 16.779458
6.333323 51.335757 54.942704
-3.308130 27.684510 16.921909
16.213467 61.550881 64.680189
21.241681 65.239204 57.409267
-0.846543 38.170491 16.206345
10.087000 55.825804 63.714659
23.183783 66.475570 58.320392
-0.352068 39.472004 49.551360
16.265662 61.593963 39.134582
3.026873 46.379839 66.414946
0.375743 41.212444 23.402041
8.599745 54.157630 54.264651
5.784134 50.588945 49.607162
25.415823 67.785561 64.068106
6.768920 51.908257 59.034132
-3.087749 29.368138 64.107505
17.626370 62.663868 44.303943
8.062139 53.520136 18.196839
-3.207586 28.512055 49.394377
12.795868 58.555750 61.853108
4.057163 48.055605 65.958504
-2.788749 31.130872 57.423973
14.828885 60.389526 4.135993
6.944216 52.136739 56.409470
9.088061 54.720590 45.367193
11.906058 57.697484 6.113195
19.256220 63.873042 47.757955
-1.391419 36.573547 59.128555
-1.899513 34.892464 29.620768
10.097793 55.837235 41.553047
1.032009 42.633576 16.479464
-1.866979 35.010703 57.071749
15.262610 60.762664 27.775432
18.267509 63.150746 55.555964
11.551296 57.345774 43.360839
7.648605 53.022387 65.963099
3.426512 47.044408 26.273599
9.312345 54.973624 55.808373
21.917074 65.679709 33.321343
-2.130507 34.046405 16.145818
6.130141 51.064664 45.371861
24.659710 67.355869 54.252198
21.666168 65.519035 58.776600
-0.701751 38.559665 25.753493
26.993896 68.645973 45.777804
0.752794 42.042009 67.909465
24.258481 67.120677 7.319134
-2.445314 32.755472 25.113152
1.720434 44.012163 28.471082
3.177839 46.630885 61.804088
-1.900259 34.889752 63.881017
20.512847 64.751832 31.730698
-2.801042 31.069544 11.546770
7.539700 52.885458 13.617064
-2.655283 31.796679 13.364355
3.907551 47.818781 13.101178
19.337684 63.932359 41.187381
12.648779 58.418284 20.146250
-0.602170 38.823233 60.956664
-0.787968 38.331470 63.219192
-2.888492 30.582697 66.489929
-2.495259 32.533683 41.965857
22.287378 65.916842 11.403244
11.000517 56.786384 38.901195
-1.473933 36.320398 4.545437
28.095803 69.214403 15.454231
-1.382657 36.600427 58.216901
5.351715 49.984332 64.490437
-1.739169 35.448401 35.617888
26.836039 68.561535 3.758026
15.057642 60.586328 18.653803
13.167161 58.902752 41.590360
16.016854 61.388601 35.637766
18.543878 63.354356 44.703979
12.225832 58.009004 58.192896
22.193858 65.856954 15.436486
-3.069823 29.486593 27.057139
-3.185796 28.683763 3.736352
5.551654 50.269312 58.597498
8.495480 54.037428 3.574607
22.206781 65.865230 65.425438
26.483461 68.372938 9.424808
19.997629 64.394301 27.276879
4.407025 48.594276 7.630709
5.675970 50.440232 66.363984
13.890664 59.563478 58.800849
-3.429862 26.394156 13.980375
11.233426 57.022934 65.832994
24.449401 67.232590 19.863088
-2.556594 32.261315 10.662446
25.676371 67.931520 49.362347
24.074089 67.012589 29.272093
1.753774 44.077044 28.055200
-2.298481 33.374735 5.308784
13.397178 59.117721 15.181509
12.037040 57.825085 19.928374
7.321453 52.611050 39.103776
20.712503 64.885341 27.418091
14.978118 60.517913 42.875514
5.200055 49.766015 57.419685
1.012477 42.593369 37.108071
3.466465 47.110847 3.593012
27.304382 68.810582 42.872717
-0.549842 38.961731 48.252420
-3.217864 28.431061 61.565533
9.939342 55.666312 61.552501
-3.339817 27.375393 34.460168
-0.030693 40.267025 64.655123
-1.909024 34.857899 46.759150
2.255246 45.015734 40.153416
23.220370 66.497993 11.395597
-3.099670 29.289365 47.316943
11.466209 57.259357 37.959401
-0.548477 38.965343 17.179539
8.025980 53.476615 20.807706
16.131247 61.483018 9.021756
-2.657362 31.786310 12.953248
13.842817 59.520575 39.036669
-1.810296 35.211655 54.931557
25.634804 67.908235 65.336283
6.472910 51.519215 30.713464
14.952934 60.496247 46.686795
4.640702 48.946819 67.209396
21.692654 65.535996 21.861598
8.438580 53.971829 38.944029
-0.460897 39.197147 24.309342
6.127377 51.060864 42.031271
-0.971373 37.815596 21.855249
1.468063 43.521045 37.479861
-1.682200 35.638022 41.523746
-2.220273 33.687463 40.769467
16.659250 61.907830 40.258653
-0.517845 39.046420 10.124215
-2.115412 34.106768 41.093750
7.871845 53.291093 59.486842
20.224670 64.552762 20.499486
14.108879 59.759143 20.773206
2.987709 46.313830 15.312816
-2.056668 34.321314 15.968310
10.970978 56.756382 64.992194
22.338435 65.949538 29.563434
14.068068 59.722550 60.774931
6.028623 50.925088 56.491982
-2.659757 31.774362 58.617251
22.585262 66.107600 39.493402
-3.336781 27.405013 26.973308
-0.188267 39.877217 61.973460
25.253153 67.694433 8.579240
-3.171013 28.800264 22.488551
7.909835 53.336819 58.375752
15.238427 60.741859 52.332550
14.965583 60.507129 23.660526
13.529570 59.239697 56.559089
20.777230 64.928625 4.036391
27.418824 68.868976 49.619863
-3.410244 26.645222 25.579769
25.582168 67.878748 3.846699
19.924997 64.343609 66.284979
16.013951 61.386205 13.771858
9.145460 54.786764 46.737471
24.783573 67.428476 4.279912
16.047396 61.413810 40.019466
10.788849 56.569130 67.041759
1.939926 44.434456 34.944332
17.577905 62.627065 52.137980
24.621066 67.333217 61.719836
5.455781 50.134135 40.742540
-1.068487 37.539498 54.110820
17.232614 62.361805 18.967870
11.433974 57.226618 31.928922
1.825895 44.217393 23.067655
-0.732250 38.478941 51.573132
19.793973 64.252162 13.900935
-0.755078 38.418522 19.267256
22.320474 65.938036 17.824999
2.704833 45.818950 30.090774
-3.068402 29.495982 48.723275
14.348230 59.973761 24.145807
-2.822370 30.958721 48.046641
8.488709 54.029622 33.265936
25.876944 68.043881 57.310584
18.596830 63.392912 26.881940
1.654588 43.884027 8.646164
21.040037 65.104364 36.662089
27.199342 68.755867 25.700824
-3.347313 27.302267 67.972401
11.916510 57.707666 62.796619
-2.216637 33.702002 11.959373
6.982532 52.184915 60.789717
-1.569370 36.013576 6.787402
0.811213 42.169510 36.422318
23.977535 66.955991 22.906259
8.945964 54.556773 39.916198
5.958390 50.828526 39.745283
-2.409323 32.915295 23.285376
16.991494 62.170892 26.316939
19.400706 63.977686 45.830223
-2.603638 32.052412 46.872537
-3.498276 25.397024 41.781361
24.266976 67.125656 50.430544
1.942588 44.439363 50.973611
18.364839 63.223989 36.408731
-2.775322 31.197853 54.535475
0.228317 40.870395 60.021442
-1.527530 36.152841 66.841764
17.914670 62.882802 31.642979
7.284664 52.564794 67.059179
8.778980 54.364263 45.709369
-2.602673 32.056698 61.769818
-2.394677 32.980331 34.474233
-1.352176 36.693940 39.981849
19.211328 63.840354 37.418125
14.352510 59.977599 61.374533
13.944907 59.612115 52.014559
18.300710 63.175959 7.279463
0.975815 42.517899 55.926318
-3.205948 28.524965 67.562202
11.813428 57.607246 51.390247
-3.270509 28.016200 21.749661
22.177553 65.846513 47.368199
15.119973 60.639952 35.457731
-3.500452 25.356560 40.576638
3.574493 47.290490 44.962439
23.804623 66.854634 51.125393
9.534901 55.219497 57.088787
21.008605 65.083346 54.121702
16.025752 61.395945 39.296713
-1.162801 37.271361 4.104304
25.502929 67.834358 24.721604
7.485086 52.816791 62.106615
-2.385288 33.022024 39.604373
10.844192 56.627614 48.982419
2.195502 44.905597 32.147520
-0.797344 38.306653 50.744207
8.769931 54.353831 12.047433
13.453233 59.170109 63.525735
-2.373124 33.076043 40.022757
12.492815 58.269095 21.983422
21.693621 65.536615 42.971372
-2.921500 30.394984 60.588531
19.195726 63.828994 9.702768
7.149092 52.394336 43.040229
7.999341 53.444551 16.110251
15.103018 60.625365 66.108406
5.137953 49.676618 7.031933
16.610157 61.868959 24.318628
2.588496 45.615423 47.413423
1.250882 43.084126 9.943753
6.287148 51.275070 50.726534
22.915875 66.311373 7.231836
24.539212 67.285236 32.727133
11.127698 56.915553 16.826882
-3.073163 29.464520 28.857545
25.740521 67.967457 45.787521
2.855838 46.083126 38.187395
11.489593 57.283106 55.020231
18.572321 63.375066 9.692088
6.364668 51.376953 42.274479
-1.418491 36.490490 53.899179
24.744416 67.405522 17.020527
-2.816821 30.990276 26.392287
7.143655 52.387500 8.878548
14.052286 59.708398 47.993314
-3.309555 27.670606 24.287440
-1.324144 36.779942 54.230877
-2.460350 32.688702 40.332179
5.735110 50.521542 40.540872
2.606311 45.646591 26.171732
8.461972 53.998798 61.369746
15.342134 60.831079 56.958545
-2.942138 30.277619 51.969139
27.157749 68.733619 4.024549
25.056827 67.584451 59.865965
-1.053363 37.582498 41.466524
26.042530 68.136643 9.195928
0.260985 40.946190 62.415401
11.663271 57.459500 28.887229
5.045523 49.543565 10.651368
-3.313252 27.634537 38.598000
23.380382 66.596062 37.699833
15.975545 61.354505 55.492814
16.719376 61.955436 31.441935
-1.416825 36.495604 35.409367
-3.422643 26.486544 11.171459
21.008551 65.083309 15.345354
5.467747 50.151360 54.994138
3.754846 47.577062 23.002520
13.171201 58.906528 64.830519
10.893535 56.677729 23.751699
23.196507 66.483368 20.395350
16.968146 62.152406 31.721251
-3.493153 25.492288 37.753530
1.917244 44.392642 28.010817
-2.364370 33.111270 44.801270
-3.427192 26.428330 45.087055
8.085120 53.547797 54.880794
10.374574 56.130372 10.860917
26.043411 68.137137 22.780013
26.888984 68.589855 55.391264
24.317586 67.155323 23.271363
14.173258 59.816870 35.171353
17.429536 62.514394 38.832832
0.895737 42.353058 28.347102
2.558114 45.562272 41.458449
-0.245898 39.734650 22.973503
21.606768 65.480996 13.085303
4.537658 48.791359 38.437444
-0.858699 38.135931 25.400949
3.480657 47.134448 21.412827
-3.202595 28.551383 56.358101
25.663688 67.924415 41.151400
9.465075 55.142355 16.401019
-1.836447 35.121666 15.414176
20.774758 64.926971 5.456765
8.002966 53.448914 44.112265
26.680783 68.478487 44.864734
15.269902 60.768937 62.755998
-3.180504 28.725470 63.999510
25.003969 67.554840 12.614355
-1.378181 36.614160 57.360581
16.823432 62.037825 37.837839
-3.399561 26.781926 5.587591
25.653529 67.918724 28.815143
-2.435349 32.799721 14.319936
-3.354586 27.231322 34.850130
8.923526 54.530905 59.084824
-0.749267 38.433902 56.391932
19.521118 64.061726 10.923929
-1.459580 36.364432 26.470321
7.570232 52.923847 56.518341
19.732294 64.209114 27.033238
16.111779 61.466950 15.202619
-1.395050 36.562405 66.488926
4.442842 48.648312 16.422935
0.598090 41.704362 67.311659
2.009930 44.563504 31.982086
5.578039 50.305588 22.604024
15.058542 60.587103 11.462362
1.015306 42.599191 13.710610
9.147909 54.789588 61.786429
15.928034 61.315291 34.127571
24.098741 67.027040 6.609356
8.188725 53.672499 62.103981
1.300166 43.185577 51.355545
-0.932279 37.926741 34.336867
7.510253 52.848433 41.095142
14.314322 59.943357 57.114436
5.209026 49.778929 67.677587
0.863533 42.283702 14.477189
7.366853 52.668133 55.864769
3.526746 47.211091 54.123185
7.970943 53.410371 48.953618
2.186841 44.889631 26.264514
15.086172 60.610873 5.781541
2.520784 45.496965 47.747198
-2.832946 30.898576 56.125617
5.147799 49.690792 15.856090
8.199525 53.685498 50.603451
-3.228213 28.349503 39.364677
18.404480 63.252854 5.696195
19.725416 64.204313 26.428128
27.347811 68.832742 63.668967
-0.917167 37.969707 11.082106
0.486795 41.461456 34.675168
26.219855 68.231934 65.018072
28.409515 69.374474 10.010725
-0.557710 38.940906 17.530965
-3.115826 29.182610 54.947734
-2.311984 33.320742 31.024993
16.532580 61.807535 13.662782
15.755252 61.172679 46.279617
21.672130 65.522853 6.005040
-1.580950 35.975031 56.449332
-1.312352 36.816119 27.021115
4.077876 48.088393 13.912934
12.217520 58.000907 48.083402
5.873512 50.711828 5.771846
16.715627 61.952468 53.823762
20.749785 64.910272 58.001011
17.576600 62.626074 22.944690
8.450647 53.985741 41.107578
27.400734 68.859746 45.637606
10.819786 56.601896 62.037046
24.627326 67.336887 16.254004
1.341933 43.271555 49.443928
24.307652 67.149500 33.248761
-1.630563 35.809896 30.640467
28.311152 69.324284 4.333208
25.872091 68.041163 66.853538
-3.114611 29.190637 38.407548
17.835745 62.822867 31.055856
27.624890 68.974121 27.656894
4.644320 48.952277 61.476688
25.574701 67.874564 50.159125
19.623419 64.133126 31.824942
-3.221724 28.400644 65.769130
1.068848 42.709409 4.524954
12.737831 58.501510 41.810182
-3.079773 29.420846 46.389741
6.883270 52.058546 31.151043
2.484268 45.433082 20.942387
1.622427 43.821441 21.905214
-1.662063 35.705048 56.185432
-3.373383 27.047946 33.817647
8.524990 54.071448 8.980766
1.042275 42.654707 10.804237
27.454364 68.887110 7.752601
1.298601 43.182355 37.475149
-2.239343 33.611208 12.371442
8.468713 54.006569 14.974913
8.053166 53.509336 64.812917
6.041523 50.942825 10.420100
5.879478 50.720032 51.983937
-1.439008 36.427546 19.712734
15.456227 60.925869 35.658897
11.839696 57.632836 53.558694
1.260309 43.103532 30.741774
4.491055 48.721051 41.022231
9.517377 55.200138 26.370247
11.194101 56.982994 40.393244
-0.990619 37.760879 55.913270
17.043325 62.211931 56.090438
8.936644 54.546028 43.887771
-1.244654 37.023810 26.225464
16.294401 61.617684 29.646283
-1.206238 37.141667 55.669795
-2.449055 32.738860 38.458256
0.976518 42.519346 33.008042
18.159778 63.068936 42.220482
4.535049 48.787422 25.129736
3.308061 46.847434 50.563757
-0.500165 39.093215 13.353802
-1.597803 35.918936 34.156456
24.567525 67.301833 21.300833
-2.748659 31.330865 3.057174
12.221559 58.004842 26.067198
19.528808 64.067093 53.637845
-3.418166 26.543841 36.078667
-0.799242 38.301632 5.495918
-1.840344 35.107501 9.640141
10.144913 55.887139 56.575976
8.056730 53.513625 16.634948
2.280094 45.061540 42.972179
22.928404 66.319052 64.996902
-2.127033 34.060299 45.500564
8.578112 54.132690 33.621986
16.523034 61.799977 43.212557
10.886750 56.670838 32.174182
-2.058508 34.314625 8.299495
12.132686 57.918262 21.466787
-1.670909 35.675605 37.530954
-1.894560 34.910466 14.893685
-0.490670 39.118345 49.181575
19.322246 63.921118 43.518762
13.082674 58.823793 36.416433
-0.596238 38.838933 15.236052
4.248083 48.354485 40.592565
-1.621836 35.838943 37.238353
-2.663411 31.756134 46.570392
19.881369 64.313159 49.215441
1.859911 44.283589 19.723373
4.496036 48.728565 46.155981
-2.697213 31.587511 53.593658
0.012080 40.368695 8.150291
10.286007 56.036571 28.037795
2.539939 45.530476 42.648703
13.411783 59.131370 48.021757
19.421945 63.992510 12.766434
-3.189975 28.650838 4.645140
7.044810 52.263219 52.504028
7.380357 52.685112 49.732682
16.668489 61.915145 54.252597
-0.527489 39.020893 5.111020
24.557945 67.296217 20.581556
7.391898 52.699622 61.755906
2.861424 46.092899 14.866739
25.586735 67.881306 21.549771
-1.631155 35.807926 19.329073
-1.979479 34.601844 65.792228
20.365207 64.650847 44.255168
-2.859225 30.749130 28.234910
-1.650826 35.742449 48.240149
16.551462 61.822485 21.131595
5.064583 49.571002 29.415951
18.896206 63.610901 49.077961
-2.897294 30.532641 65.041867
25.215928 67.673579 14.974225
11.736151 57.531963 64.378880
22.719021 66.190725 21.731702
-2.502030 32.503613 58.612266
6.525419 51.588226 38.545831
-3.279469 27.945590 5.234157
4.003407 47.970513 24.421268
-0.766654 38.387883 44.845097
26.446198 68.353006 51.884546
19.049528 63.722541 54.220217
20.038174 64.422599 26.463494
-2.621442 31.965499 18.332655
-3.200740 28.566006 55.005104
5.784077 50.588865 8.917922
8.435814 53.968640 53.174049
13.265382 58.994548 55.455953
9.089960 54.722780 27.764831
27.484219 68.902344 13.991879
4.844971 49.254869 27.314329
26.976193 68.636504 32.469880
17.929418 62.894002 9.275231
-3.172736 28.786685 24.168507
-3.374089 27.041061 18.707841
7.613872 52.978716 4.167508
26.783937 68.533665 6.622902
-0.569378 38.910024 41.597935
8.001966 53.447710 7.209879
1.978516 44.505595 9.183727
-2.421267 32.862255 24.592671
17.366781 62.466739 32.777718
-1.696933 35.588983 6.297420
-1.092599 37.470949 55.647273
-3.238857 28.265626 26.145273
21.391854 65.339625 64.159703
11.183775 56.972507 64.581966
-1.804375 35.231361 12.859063
-3.196369 28.600447 27.125030
2.814304 46.010465 18.019120
12.273709 58.055645 28.357914
25.996803 68.111027 16.950639
2.391356 45.266646 5.296935
0.972624 42.511329 45.993831
16.184134 61.526671 18.456657
-2.095373 34.180646 38.830846
-3.338874 27.384589 24.979055
-0.172022 39.917405 60.437072
2.744240 45.887891 40.990349
8.865425 54.463922 24.251775
-1.140169 37.335706 64.077071
16.343469 61.657802 54.484450
14.939850 60.484991 60.852017
-2.319013 33.292635 4.704641
-1.441355 36.420345 33.799076
-2.405709 32.931343 41.292129
-3.046521 29.640568 44.405786
7.568452 52.921608 53.775321
22.713926 66.187602 35.939424
-0.909525 37.991433 62.548985
6.501169 51.556356 21.960869
16.153892 61.501710 36.830327
2.148929 44.819742 38.859015
5.910431 50.762588 37.568221
12.729545 58.493766 47.340260
7.779295 53.179698 66.972826
26.384491 68.319999 29.473207
-0.753613 38.422399 24.938521
10.834754 56.617749 66.611511
-3.163966 28.855798 25.105887
26.345192 68.298978 39.923199
22.752995 66.211547 54.096297
28.049236 69.190642 54.931153
1.191182 42.961233 67.931001
27.541765 68.931706 18.279759
1.394745 43.378366 32.339881
-2.120758 34.085388 5.007418
26.990092 68.643939 47.872721
0.046499 40.448551 8.959286
18.279094 63.159543 61.181711
25.574375 67.874382 53.556862
10.978672 56.764197 44.653871
27.277668 68.796952 29.532020
-3.261892 28.084101 40.560432
26.359675 68.306725 53.496779
0.048191 40.452477 3.834123
-3.508482 25.207216 26.347318
1.023298 42.615643 5.870098
1.744870 44.059717 18.927757
11.712549 57.508970 21.658986
0.296462 41.028500 48.884768
3.577399 47.295322 31.147463
-3.409571 26.653826 53.544545
21.900362 65.669006 44.353026
-0.298183 39.605307 51.617349
11.535075 57.329300 56.162410
5.773755 50.574675 34.557845
8.509616 54.053724 11.190210
6.297587 51.288789 5.744035
-0.211096 39.820743 38.799344
5.114441 49.642773 25.978523
-0.713776 38.527839 45.890895
0.145611 40.678505 28.531743
21.750331 65.572930 3.088513
4.521145 48.766445 58.965246
21.381549 65.332734 42.140678
-2.860959 30.739270 31.822120
-1.597060 35.921410 51.973282
-2.865340 30.714356 45.732433
14.613862 60.204540 18.156505
1.671410 43.916763 30.066179
6.894122 52.072809 34.769228
25.471144 67.816552 58.358530
7.094376 52.325540 65.635171
26.809198 68.547177 37.861458
16.701456 61.941247 19.529467
16.201984 61.541403 16.485189
5.764203 50.561542 66.851727
2.835583 46.047692 34.984561
27.624018 68.973676 55.862092
11.581383 57.376332 48.344439
7.300310 52.584466 21.778889
22.913462 66.309895 13.865417
2.867701 46.103880 57.392797
-3.104824 29.255313 62.137716
-1.471004 36.329384 3.710419
12.997225 58.743934 10.714803
27.580816 68.951632 23.766638
-0.345555 39.488117 52.934096
-3.194116 28.618199 67.908338
13.528986 59.239174 35.110142
15.173042 60.685608 37.875337
16.885146 62.086688 44.180142
25.396189 67.774562 3.280047
1.540085 43.661200 57.609001
23.087321 66.416450 12.247192
-3.411715 26.626395 59.050730
9.439800 55.114432 47.000982
-3.371994 27.061498 53.119513
6.046762 50.950028 53.641560
7.712160 53.098892 6.853883
13.320804 59.046344 18.538731
23.886754 66.902778 34.092076
20.135461 64.490500 57.082595
16.496365 61.778861 26.003000
21.586552 65.468050 44.472778
27.741149 69.033442 63.808736
23.196734 66.483507 51.495801
10.616600 56.386702 26.095548
-2.182746 33.837521 34.971505
5.442927 50.115632 43.018140
-1.386704 36.588011 5.976795
-0.737489 38.465074 21.431074
16.712842 61.950262 8.373306
13.236450 58.967509 12.028088
8.324541 53.835971 42.817680
16.924756 62.118051 39.144824
-0.563743 38.924939 62.482646
2.798114 45.982141 18.774236
21.832308 65.625426 37.899198
2.655048 45.731854 10.971262
10.676948 56.450617 21.858775
3.995941 47.958695 7.102917
19.707607 64.191884 53.932639
24.865550 67.476529 7.184138
21.401348 65.345974 10.233369
-3.477507 25.783268 64.057288
20.520652 64.757051 27.841621
-3.315515 27.612462 62.124497
23.526611 66.685684 36.409593
26.327211 68.289359 66.225762
1.728763 44.028373 42.661282
-1.207470 37.137888 26.695757
-2.963436 30.156500 23.796676
20.182112 64.523059 48.084957
21.875198 65.652892 54.699516
7.758909 53.155160 5.470510
14.895752 60.447052 60.437607
-3.410058 26.647590 41.013909
-2.488618 32.563172 50.828226
-3.309162 27.674440 23.933626
4.901764 49.336622 60.857852
16.755775 61.984255 48.131551
2.450974 45.374835 63.930147
7.894258 53.318070 45.675337
4.624920 48.923009 59.274351
4.738077 49.093726 54.140116
-3.400457 26.770464 15.955283
18.864748 63.587995 32.891218
28.405518 69.372434 29.634473
12.329903 58.110389 13.597477
24.598979 67.320270 20.953500
0.261399 40.947149 12.101191
13.774899 59.459675 44.297012
-1.344755 36.716708 42.443095
23.298758 66.546037 47.924522
18.337530 63.203920 17.557411
0.461982 41.407300 17.638827
6.432880 51.466603 26.808135
20.140371 64.493926 14.111373
-2.386149 33.018202 30.707308
26.496625 68.379980 64.114989
1.882133 44.326833 62.708602
3.105336 46.510317 41.876482
-2.985750 30.029606 3.956717
1.981729 44.511517 23.398543
13.394555 59.115270 62.819494
27.137164 68.722608 63.375847
-2.899863 30.518031 37.890470
28.290684 69.313840 36.138125
25.203483 67.666608 6.472827
16.687867 61.930488 44.525749
26.683492 68.479936 12.523289
26.860755 68.574755 18.296495
17.866640 62.846328 22.196948
26.143150 68.190904 41.999276
15.604489 61.048242 33.815342
23.205542 66.488906 34.511960
28.013213 69.172261 55.852782
10.919244 56.703839 49.371359
-3.459792 26.011136 20.048388
17.100985 62.257585 20.090452
-1.795018 35.262505 25.283992
25.604161 67.891068 13.090768
4.901587 49.336367 67.611687
27.198388 68.755357 65.233526
-0.851001 38.157817 49.914208
7.507456 52.844917 37.792136
-0.139186 39.998636 29.068118
16.364059 61.674104 10.690268
-1.413047 36.507192 18.888129
21.930744 65.688462 4.446358
6.643951 51.744012 46.636606
23.207756 66.490263 42.040481
20.446507 64.707470 50.642699
27.965565 69.147949 32.956028
14.212572 59.852121 28.887845
-3.069411 29.489313 19.109541
-2.548653 32.296580 16.692352
27.186126 68.748798 17.125861
24.966311 67.533744 5.024605
24.556758 67.295521 52.484536
18.569498 63.373010 45.081849
16.316888 61.636244 66.071876
1.317989 43.222265 53.120396
-0.012879 40.310786 34.856307
-1.370094 36.638971 64.797405
-0.431963 39.273728 14.192316
-3.374732 27.034788 40.846382
-2.577790 32.167190 64.396015
-3.358588 27.192281 61.158204
-1.005625 37.718218 30.553244
21.840454 65.630643 24.830477
24.449789 67.232818 67.912313
1.500237 43.583656 53.792996
17.047140 62.214951 54.946400
25.654640 67.919347 15.556185
-2.186146 33.823924 15.649922
-3.419465 26.527217 56.949731
18.279041 63.159503 17.203697
5.740297 50.528674 47.745473
-0.814526 38.261178 14.715807
-2.715909 31.494241 21.589155
21.418006 65.357113 46.739639
-3.400570 26.769019 42.171175
12.082617 57.869486 15.444170
19.449577 64.011795 6.634912
27.246934 68.781269 60.992942
-2.745136 31.348441 31.203989
3.417468 47.029370 53.700918
-3.158434 28.899389 41.469593
13.583365 59.287933 62.476041
13.996841 59.658683 28.375804
20.862349 64.985544 34.399956
-1.652358 35.737352 29.345027
17.512087 62.577083 5.592423
9.820594 55.535123 7.955557
-2.707995 31.533723 8.481296
2.631729 45.691059 58.343860
6.606350 51.694594 35.526075
8.199284 53.685208 30.525470
24.381658 67.192881 35.203572
-3.328918 27.481715 54.486911
28.142391 69.238175 19.510758
1.939253 44.433214 27.511732
25.968715 68.095292 59.684591
-3.391517 26.871043 35.211520
3.632946 47.384104 31.520562
1.713078 43.997848 24.535289
-3.432608 26.359022 63.153817
27.564243 68.943176 12.214775
