26.859891 69.973287 66.468226
25.964433 70.299208 57.151032
26.839693 69.980639 53.779278
23.136430 71.328517 38.233642
26.735430 70.018587 13.600929
25.360386 70.519063 41.045428
28.433267 69.400625 58.475832
25.082396 70.620243 43.711226
24.150668 70.959364 53.496567
24.899845 70.686686 65.795616
27.611557 69.699703 17.863585
24.110399 70.974021 32.751753
28.186795 69.490334 61.660724
26.548127 70.086760 10.284353
24.604198 70.794293 20.052994
26.507837 70.101425 18.239190
26.034863 70.273573 28.832823
28.163609 69.498773 29.316009
28.199229 69.485808 32.717087
27.368468 69.788180 47.993153
27.058718 69.900920 12.171495
23.296061 71.270416 28.814346
27.143275 69.870144 53.003558
24.155975 70.957433 64.789892
27.690933 69.670813 4.111774
26.724494 70.022568 15.004656
24.889556 70.690431 52.532551
25.608598 70.428721 23.573116
24.833945 70.710672 46.631697
24.742856 70.743826 15.354765
28.026388 69.548717 32.071570
24.029505 71.003464 56.850210
23.285946 71.274098 4.948485
26.083902 70.255724 67.345278
25.225558 70.568137 29.666779
23.886691 71.055444 52.311705
22.960265 71.392636 40.233142
27.604246 69.702364 67.643163
27.633851 69.691589 15.397595
26.574997 70.076980 15.020086
28.395941 69.414211 14.879151
24.194795 70.943303 6.994520
27.742227 69.652143 17.282908
25.799337 70.359298 45.488628
26.665626 70.043994 20.064725
23.720136 71.116065 62.510130
26.828749 69.984622 20.326034
26.740066 70.016900 30.157267
24.344471 70.888826 35.818768
25.712908 70.390755 60.167662
24.218119 70.934814 25.061903
25.000284 70.650129 50.429598
27.969255 69.569512 66.525078
24.186065 70.946481 38.066369
25.072831 70.623724 24.238331
24.453109 70.849285 46.592067
24.269007 70.916293 64.555885
24.971721 70.660526 46.734092
25.730893 70.384209 57.802030
28.440283 69.398072 17.160393
25.751077 70.376863 27.478034
26.295679 70.178644 34.961385
25.223464 70.568899 17.107543
25.454101 70.484954 15.606725
26.472531 70.114275 36.530215
24.051767 70.995361 32.103329
24.544373 70.816068 65.249063
26.109094 70.246555 31.805191
24.710208 70.755708 35.987707
27.870154 69.605582 17.548863
25.040110 70.635634 53.690990
24.057359 70.993326 30.226777
25.562560 70.445478 39.301783
27.424966 69.767617 46.242347
23.439852 71.218081 52.976043
27.156374 69.865376 27.990179
26.689350 70.035359 27.940884
27.841038 69.616179 6.398080
26.619020 70.060958 33.508133
26.477559 70.112445 43.428694
24.165042 70.954133 29.000782
25.280300 70.548212 36.979008
25.228589 70.567033 55.331967
25.317391 70.534712 59.916131
27.537932 69.726501 18.008194
27.770292 69.641928 33.787097
27.468079 69.751925 48.648263
24.538275 70.818287 12.682650
25.439083 70.490419 49.454974
23.961016 71.028392 20.085102
27.765496 69.643674 17.640249
23.065694 71.354263 7.492441
23.347880 71.251556 55.443385
25.236967 70.563984 9.142680
27.038204 69.908387 7.508880
26.045187 70.269816 43.511318
23.035298 71.365326 39.314686
28.406055 69.410529 22.783253
26.358084 70.155930 53.685152
25.197011 70.578527 60.274801
28.127841 69.511791 16.799058
27.248564 69.831822 58.291509
27.543257 69.724562 61.540369
23.453472 71.213123 17.132020
23.651752 71.140955 27.734671
26.608717 70.064707 29.617974
22.884680 71.420147 67.999302
24.664960 70.772177 30.240150
22.987513 71.382719 27.780410
26.742005 70.016195 20.240654
24.870970 70.697196 14.796911
22.812841 71.446294 3.199808
27.938332 69.580767 67.350560
26.648168 70.050348 39.662865
23.084388 71.347459 15.011206
22.830658 71.439809 50.412683
26.646165 70.051077 23.432034
26.087851 70.254287 3.000068
23.032310 71.366414 40.733969
26.761704 70.009025 61.443725
26.823929 69.986376 63.540222
27.381997 69.783256 5.476144
24.936782 70.673242 31.546267
24.082398 70.984213 54.322796
28.150427 69.503571 51.020774
26.305674 70.175006 25.385498
24.756735 70.738774 36.305387
23.230661 71.294220 39.729804
28.408335 69.409700 25.161680
26.530436 70.093199 34.714631
22.854958 71.430965 54.541171
25.997693 70.287102 42.206685
25.276390 70.549635 7.341144
22.861892 71.428441 43.188191
25.182001 70.583990 62.334077
25.769775 70.370057 15.743424
24.306042 70.902813 51.064426
26.940827 69.943829 15.704622
24.886877 70.691406 18.400990
26.914468 69.953423 4.143457
24.816117 70.717161 46.211989
24.433318 70.856488 47.445535
24.201585 70.940832 48.519098
23.329398 71.258282 23.164749
28.131486 69.510464 28.333278
25.831852 70.347463 21.383252
27.133215 69.873806 13.941525
26.672679 70.041427 57.394594
25.304106 70.539547 16.724074
26.253806 70.193885 58.150478
25.681848 70.402060 34.648945
23.898776 71.051046 7.823566
22.951039 71.395994 48.131563
24.708908 70.756182 49.198260
26.195301 70.215179 20.477692
23.907390 71.047910 51.169098
23.307308 71.266323 15.391749
28.210970 69.481535 51.889906
27.420830 69.769122 60.401317
24.012280 71.009734 34.071933
24.533531 70.820014 63.174015
23.502991 71.195100 6.662697
23.532752 71.184268 38.158026
25.991743 70.289268 34.156555
25.798270 70.359686 19.226024
27.619966 69.696642 37.430752
23.536527 71.182894 48.921484
22.813673 71.445991 35.836200
26.178935 70.221135 28.134903
23.964732 71.027040 15.514790
25.006348 70.647922 26.040704
28.240944 69.470625 56.767367
24.051170 70.995579 14.653451
26.648973 70.050056 52.644292
23.863637 71.063835 7.498493
27.435943 69.763622 17.348064
27.487806 69.744745 26.718235
27.206308 69.847202 15.654377
25.915581 70.316988 67.232274
28.125372 69.512690 17.359654
24.839647 70.708596 45.295591
24.638331 70.781870 58.953361
23.073570 71.351396 58.878349
24.906111 70.684406 35.211060
24.253732 70.921852 10.883618
23.116818 71.335655 29.291048
26.915963 69.952879 39.625563
23.469852 71.207162 40.661320
26.373128 70.150455 61.805025
23.764583 71.099888 59.014603
27.923683 69.586098 43.443162
25.513341 70.463392 33.278384
28.190595 69.488950 47.022408
23.712105 71.118989 55.457460
26.411102 70.136634 43.788730
23.367759 71.244320 21.068479
25.047431 70.632969 20.800999
26.765057 70.007804 17.487815
27.003247 69.921110 29.371912
25.626224 70.422306 21.372473
24.320009 70.897729 33.855026
26.964022 69.935387 54.848815
25.761838 70.372946 34.932726
25.569095 70.443099 39.057648
25.346711 70.524040 42.672156
26.652139 70.048903 17.240285
27.237386 69.835891 47.840908
24.682925 70.765639 8.840131
26.798175 69.995750 11.021866
26.464103 70.117343 58.770616
23.155123 71.321714 55.879885
25.148998 70.596002 54.263140
23.950306 71.032290 25.822650
24.365152 70.881299 25.771729
23.501641 71.195591 44.363609
27.472303 69.750388 57.825880
27.332901 69.801126 36.665166
26.669538 70.042570 26.451282
26.875504 69.967605 3.453880
26.829917 69.984197 35.906731
22.884293 71.420288 13.199630
25.055357 70.630084 53.344070
26.084868 70.255373 47.823868
24.719613 70.752285 56.083893
28.306861 69.446633 17.579559
26.091471 70.252970 39.233302
27.964940 69.571082 60.357724
25.307201 70.538421 43.327426
25.960451 70.300657 49.531294
22.847058 71.433840 59.848960
25.190458 70.580912 13.728475
24.190483 70.944873 33.830379
22.885115 71.419988 17.109702
26.239507 70.199089 4.932929
28.236678 69.472178 40.779189
26.023739 70.277622 60.972892
26.742739 70.015927 50.108831
27.078416 69.893751 47.011582
26.915170 69.953168 3.211564
23.710194 71.119684 37.462770
23.310301 71.265233 65.445472
27.613106 69.699140 37.306755
26.422403 70.132520 39.302645
23.301104 71.268581 41.860397
27.519738 69.733123 39.718711
28.186147 69.490569 65.917709
25.162239 70.591183 39.329015
23.671122 71.133905 3.392299
27.533088 69.728264 33.256498
23.316137 71.263109 46.198560
23.255485 71.285185 14.729521
27.717008 69.661322 12.840040
22.812863 71.446286 59.569682
28.343782 69.433195 58.387467
23.382885 71.238815 59.892835
27.646368 69.687033 8.779942
27.828182 69.620858 23.478748
27.896729 69.595909 13.608817
23.599398 71.160011 33.259111
23.955765 71.030303 17.064807
26.485446 70.109574 48.394939
26.018328 70.279591 14.170865
24.401657 70.868012 34.529558
25.519327 70.461213 45.144137
23.370408 71.243356 25.976042
26.665900 70.043894 12.439576
25.828297 70.348757 16.717202
25.405366 70.502692 30.921971
25.922547 70.314453 54.055927
26.488534 70.108450 53.569368
24.778312 70.730921 8.451658
25.327241 70.531127 48.490055
28.431231 69.401366 29.708061
25.787163 70.363729 18.074270
27.806017 69.628925 57.826789
25.438026 70.490804 24.853270
28.067894 69.533610 56.308107
27.408533 69.773598 36.910907
23.197344 71.306346 23.502028
26.743659 70.015592 62.158549
26.560828 70.082137 54.125353
24.233368 70.929264 15.233390
27.914685 69.589374 45.423890
26.309859 70.173483 45.264256
26.342987 70.161425 57.167590
23.555664 71.175928 18.007445
26.557922 70.083195 23.328318
25.759238 70.373893 27.618294
28.146403 69.505035 41.799504
26.865432 69.971271 58.197175
27.118204 69.879269 39.892542
23.560425 71.174196 52.997845
28.169127 69.496764 53.472457
23.451009 71.214020 15.700243
24.343628 70.889133 43.196891
25.859642 70.337349 59.536926
25.274352 70.550377 24.965165
24.736416 70.746170 40.406967
24.295797 70.906542 45.743864
23.734570 71.110812 33.038643
24.682925 70.765639 17.212630
23.070101 71.352659 28.975889
25.807447 70.356346 45.867504
27.336618 69.799773 42.122726
27.812293 69.626641 13.903188
22.984775 71.383715 28.185189
28.445283 69.396252 45.537074
24.834574 70.710443 25.831682
25.180445 70.584556 18.534722
22.970967 71.388741 6.061577
22.932427 71.402768 37.838256
26.921768 69.950766 63.606503
26.867216 69.970621 57.836989
28.140587 69.507152 14.456288
26.862931 69.972181 50.032083
25.314333 70.535825 37.814048
26.535968 70.091186 8.007376
25.564988 70.444594 6.826638
25.300331 70.540921 19.835770
23.280597 71.276045 29.771975
22.856587 71.430372 55.831314
25.943234 70.306924 54.905158
23.257075 71.284606 43.775127
28.080602 69.528985 42.232004
26.235447 70.200567 40.764148
26.037992 70.272434 67.106793
27.315424 69.807487 22.277831
25.379125 70.512242 58.082828
26.030688 70.275093 28.613393
22.982017 71.384719 52.324734
23.211059 71.301354 35.683036
27.562631 69.717511 28.853226
26.469774 70.115279 54.205344
26.540795 70.089429 22.922470
25.344165 70.524967 39.483529
26.259576 70.191785 18.747497
27.925486 69.585442 12.663732
23.596378 71.161110 38.249200
24.559518 70.810555 15.631730
28.057688 69.537325 11.588189
23.453741 71.213025 42.692890
26.060173 70.264361 37.635363
26.363650 70.153904 65.400080
27.464648 69.753174 16.894390
24.988943 70.654257 14.133153
25.043887 70.634259 11.671936
25.675261 70.404458 58.417851
24.234195 70.928963 38.865929
25.377484 70.512840 34.798333
23.442682 71.217050 64.013597
28.428391 69.402400 60.447566
23.561063 71.173963 42.945367
27.493689 69.742604 41.045780
25.032125 70.638540 25.184571
23.511275 71.192085 14.845086
23.160978 71.319582 50.858473
24.867140 70.698590 66.892616
25.074536 70.623104 45.813029
23.485100 71.201611 52.377999
26.924270 69.949855 37.583869
23.075926 71.350539 45.856185
28.127726 69.511833 26.189713
27.614359 69.698683 52.383316
26.509206 70.100926 17.467035
25.458481 70.483359 51.253198
25.259162 70.555905 34.271678
22.956839 71.393883 63.092703
26.733621 70.019246 61.043759
26.502228 70.103466 35.619509
26.135050 70.237108 40.314433
25.027158 70.640348 20.303628
24.963664 70.663458 47.665863
24.547319 70.814995 43.901127
24.222923 70.933066 54.568709
26.423018 70.132296 35.365588
26.068761 70.261235 9.287679
28.419586 69.405605 15.363103
23.142802 71.326198 46.870866
25.332624 70.529168 41.689944
23.722729 71.115122 52.524502
23.786369 71.091959 54.149529
27.877233 69.603005 52.722766
26.251585 70.194693 3.117859
27.663449 69.680816 65.033810
24.077966 70.985826 64.298401
23.587810 71.164228 31.544299
23.970328 71.025003 31.866925
25.463361 70.481583 27.617091
24.208778 70.938214 11.973710
27.402420 69.775823 44.281730
25.574967 70.440962 26.414054
27.712268 69.663047 4.897103
26.112690 70.245246 38.885514
28.065660 69.534423 11.795024
23.824711 71.078003 51.239765
24.325083 70.895883 10.372795
23.445616 71.215983 47.829651
23.424928 71.223513 40.255307
25.961609 70.300236 33.536627
28.186457 69.490457 14.147601
23.546199 71.179373 33.387972
25.625010 70.422748 47.449255
26.420947 70.133050 66.817493
25.510846 70.464300 65.811017
26.096010 70.251317 24.502109
24.330698 70.893839 20.793967
26.753246 70.012103 61.731001
25.361597 70.518622 21.108066
27.797554 69.632006 67.068749
27.563164 69.717317 38.740372
28.413749 69.407729 21.281305
27.859851 69.609331 38.653373
27.319290 69.806080 63.059856
27.564652 69.716775 9.852810
28.375018 69.421826 49.488408
23.906893 71.048091 13.182604
23.874594 71.059847 28.949740
27.059540 69.900621 22.429611
27.608516 69.700810 41.532119
25.367509 70.516470 20.574228
27.956971 69.573983 39.304614
25.045590 70.633639 18.773582
23.938882 71.036448 19.748379
22.985339 71.383510 12.729516
26.851386 69.976383 43.709541
27.000074 69.922265 43.641099
24.940495 70.671891 42.460590
23.028703 71.367727 62.927448
27.522247 69.732209 38.337574
25.130187 70.602849 43.988240
24.361741 70.882540 29.078036
27.085320 69.891238 66.209133
24.362751 70.882173 61.192161
22.867635 71.426351 34.661036
27.389797 69.780417 39.184996
23.828574 71.076597 30.022930
27.733840 69.655196 11.184850
24.396807 70.869777 18.529808
25.937136 70.309143 7.404911
23.713887 71.118340 66.115728
25.256507 70.556872 9.268721
26.691617 70.034534 20.972205
27.271275 69.823556 28.877289
27.536733 69.726937 33.738034
25.187740 70.581901 20.546177
23.980833 71.021180 61.668722
24.752483 70.740321 9.704332
28.139970 69.507377 21.317558
26.631257 70.056504 15.349560
27.686766 69.672329 46.576338
24.626108 70.786318 64.165854
25.492605 70.470939 60.162242
23.602378 71.158926 4.671970
24.830764 70.711830 63.366411
25.704550 70.393798 64.242176
27.224224 69.840681 62.233788
24.028897 71.003686 65.854369
24.521240 70.824487 4.869046
26.208827 70.210255 44.384821
23.868852 71.061937 50.479371
24.256214 70.920949 56.838690
27.085901 69.891027 41.518351
27.605571 69.701882 17.253352
24.651117 70.777216 13.228794
24.451207 70.849977 40.504462
25.181496 70.584174 64.423042
26.382366 70.147092 33.462481
23.682286 71.129842 51.642355
26.835313 69.982233 23.016729
26.766661 70.007220 67.930645
24.479841 70.839555 27.209920
28.296263 69.450491 16.163219
28.215669 69.479824 66.144397
22.815407 71.445360 26.597557
25.688718 70.399560 16.437149
23.193156 71.307871 20.586818
27.274194 69.822493 66.688030
24.982332 70.656663 7.238234
26.802086 69.994327 26.058434
27.466257 69.752588 14.185078
23.244279 71.289263 44.770301
23.851742 71.068165 25.274236
25.440909 70.489755 41.346574
27.791434 69.634233 26.550027
26.796735 69.996274 52.362914
23.992221 71.017035 54.895760
26.842000 69.979799 38.239146
28.025863 69.548908 44.015754
23.298743 71.269440 14.033143
24.947056 70.669503 13.103942
23.207851 71.302522 16.910317
25.197300 70.578421 4.004936
24.603081 70.794699 66.123926
27.040225 69.907651 5.637027
27.057299 69.901437 9.301712
24.809097 70.719716 35.763918
22.939088 71.400344 60.281071
25.224045 70.568687 67.511158
27.680821 69.674493 22.158215
27.036035 69.909176 20.008425
28.295606 69.450730 66.240413
23.496524 71.197454 67.272176
24.169605 70.952472 20.461243
26.195938 70.214947 59.484443
26.426236 70.131125 63.495709
24.427558 70.858585 64.905982
27.092279 69.888705 33.378369
24.293790 70.907272 30.538492
26.123346 70.241368 56.358263
25.995091 70.288049 64.449281
22.973057 71.387980 24.651165
26.936822 69.945287 17.948166
26.495864 70.105783 48.522121
24.418345 70.861938 51.199350
23.821601 71.079135 14.603174
24.096196 70.979191 55.653990
26.292626 70.179755 27.228836
26.693849 70.033722 42.075198
26.794123 69.997225 37.794675
23.768821 71.098346 49.726301
26.529356 70.093593 13.778937
26.863263 69.972060 65.779739
27.245639 69.832887 37.398116
24.008978 71.010936 59.298469
23.421283 71.224839 23.403024
27.539247 69.726022 20.800318
25.353260 70.521657 44.998500
24.179563 70.948848 59.856840
23.816891 71.080849 24.469346
25.506284 70.465960 52.245955
25.902880 70.321611 62.045291
27.418580 69.769941 67.166751
26.609371 70.064469 3.304336
27.652750 69.684710 67.810095
28.008999 69.555046 59.218005
26.638587 70.053835 50.362075
23.374747 71.241777 67.225408
26.499623 70.104414 50.624887
28.095870 69.523428 5.418343
26.597579 70.068761 21.431699
25.406034 70.502448 55.171996
25.961523 70.300267 60.182963
25.083924 70.619687 19.480286
24.248837 70.923634 32.815906
23.968165 71.025790 55.007322
23.316197 71.263087 55.774441
28.054142 69.538615 36.058365
25.922943 70.314309 20.099292
23.473424 71.205861 22.446391
25.072561 70.623823 25.318038
24.519176 70.825238 53.731927
24.402994 70.867525 36.606647
22.975505 71.387089 18.451029
24.428516 70.858236 67.282373
23.291596 71.272041 37.974834
25.888555 70.326825 42.651073
26.318534 70.170325 48.349009
23.268629 71.280400 49.052993
26.318426 70.170365 42.751375
27.391513 69.779793 43.698449
24.769892 70.733985 20.431091
26.315788 70.171325 10.005171
23.793037 71.089532 67.988051
26.030169 70.275282 55.153097
25.622110 70.423803 43.426888
24.240676 70.926604 31.930594
26.757000 70.010737 3.246089
24.641411 70.780748 61.957957
26.598300 70.068499 39.174479
27.897604 69.595591 9.572644
25.611993 70.427485 66.873376
23.945508 71.034037 35.492936
25.670705 70.406116 52.109920
27.791331 69.634271 18.115230
28.183134 69.491666 21.138883
26.937163 69.945163 5.632584
24.183267 70.947500 4.069728
25.462679 70.481831 63.893131
28.305165 69.447250 36.223687
25.992527 70.288982 41.854844
25.053828 70.630641 35.622049
25.947723 70.305290 50.018208
28.194880 69.487391 31.438253
23.148628 71.324078 9.486035
24.596511 70.797091 49.244683
23.825290 71.077792 38.581575
27.220577 69.842008 54.249624
23.436123 71.219438 52.253541
24.138665 70.963733 46.699114
23.797642 71.087856 20.908782
27.150602 69.867477 48.348815
25.158907 70.592395 41.514388
28.404422 69.411124 53.008846
22.920435 71.407133 55.746341
27.061047 69.900072 14.846220
23.073306 71.351492 58.492679
28.152446 69.502836 35.786831
26.870973 69.969254 60.874592
28.058037 69.537198 23.991055
24.891870 70.689589 49.537826
25.639800 70.417364 20.433485
27.078536 69.893707 60.053788
25.036472 70.636958 36.218139
27.054030 69.902627 50.142499
27.274825 69.822264 67.155672
25.240833 70.562577 56.936209
23.897653 71.051454 13.053522
26.035057 70.273503 12.785042
28.247261 69.468326 6.721182
26.613681 70.062901 18.610813
26.447360 70.123436 4.751901
26.035154 70.273467 27.238018
25.697342 70.396421 65.341132
27.744205 69.651423 55.359589
25.116732 70.607746 16.598685
25.329243 70.530398 31.989878
25.499271 70.468513 51.357431
25.007751 70.647412 16.306350
23.287636 71.273483 39.476810
27.666624 69.679660 15.094727
24.753249 70.740043 55.530865
23.433093 71.220541 5.802854
26.200484 70.213292 60.953667
26.167613 70.225256 10.361120
23.231111 71.294056 14.190227
25.290330 70.544561 59.382635
25.919709 70.315486 18.711013
25.063194 70.627232 50.331524
24.714890 70.754004 24.260395
28.290865 69.452455 30.006801
23.601294 71.159320 8.365949
24.836299 70.709815 8.597834
28.013610 69.553368 7.968081
23.402017 71.231851 33.754832
26.271185 70.187559 28.679546
26.320998 70.169429 18.840585
23.167778 71.317107 8.743795
28.403073 69.411615 49.909162
23.031986 71.366532 66.777327
26.879683 69.966084 40.617568
28.282605 69.455462 43.971901
27.745889 69.650810 57.170694
23.744201 71.107306 42.868069
28.403125 69.411596 16.138212
25.674423 70.404763 34.296612
22.828251 71.440685 6.754860
24.567477 70.807658 29.190537
24.380554 70.875693 66.445048
25.652213 70.412847 12.263041
24.153254 70.958423 67.138073
23.213263 71.300552 28.252918
27.453977 69.757058 36.150693
23.384560 71.238205 48.934676
24.139324 70.963493 20.904752
27.873947 69.604201 65.230007
26.475810 70.113082 50.187477
23.841389 71.071933 17.880311
27.282378 69.819514 24.459536
28.099650 69.522052 60.620901
24.704381 70.757829 4.051856
24.142881 70.962199 30.953376
25.358901 70.519603 47.751631
25.671780 70.405725 25.622091
24.926165 70.677106 19.096692
23.747407 71.106140 4.629297
26.315790 70.171324 14.399699
27.981572 69.565029 54.670424
24.022946 71.005852 27.093716
22.819932 71.443713 43.812185
24.584985 70.801286 34.992874
26.420657 70.133156 58.599663
28.171944 69.495739 15.941460
23.212769 71.300732 58.341561
25.594601 70.433815 29.409028
23.554595 71.176318 34.105804
24.193836 70.943653 49.401235
23.357919 71.247902 17.536092
23.196777 71.306553 63.271586
25.498218 70.468896 8.045303
23.225059 71.296259 27.756635
25.959252 70.301093 11.960021
25.825241 70.349869 49.549696
27.148879 69.868104 26.547864
23.560424 71.174196 56.903082
26.205321 70.211532 58.511365
22.856380 71.430447 36.062338
25.679448 70.402934 13.602885
24.985840 70.655387 10.504464
27.079443 69.893377 35.437814
28.407840 69.409880 22.895796
23.696591 71.124635 14.080204
24.978813 70.657944 28.021437
27.510137 69.736617 55.176740
24.604286 70.794261 63.448541
26.154183 70.230144 29.039598
28.256678 69.464898 35.440788
24.578668 70.803585 54.175666
24.316234 70.899103 3.433632
25.696000 70.396909 51.120296
27.390385 69.780203 59.138949
26.260797 70.191340 37.032888
24.193336 70.943835 17.900371
23.351160 71.250362 19.491017
24.834035 70.710639 66.679859
26.967967 69.933951 67.251981
26.255419 70.193298 65.416531
24.741148 70.744447 52.573234
28.206860 69.483030 8.385482
24.646663 70.778837 25.439265
27.319520 69.805996 53.749981
23.170655 71.316060 54.303669
24.053410 70.994764 38.343492
25.532490 70.456422 55.270966
27.951858 69.575844 44.929557
24.060053 70.992346 22.195036
23.165895 71.317793 46.413803
22.881864 71.421172 54.682485
24.302518 70.904096 60.272835
23.095614 71.343373 48.039609
26.185039 70.218914 54.295635
27.879070 69.602336 46.014194
27.120852 69.878305 30.562098
28.082542 69.528279 40.408365
25.395677 70.506218 11.854069
27.438632 69.762643 58.266895
23.596853 71.160937 5.145322
25.939670 70.308221 62.807242
28.179698 69.492917 14.585063
26.163302 70.226825 40.051187
25.121906 70.605863 6.684260
28.448639 69.395030 21.982768
26.967189 69.934234 18.266750
27.986771 69.563137 15.358254
23.736487 71.110114 53.988347
26.775184 70.004118 26.482308
24.121059 70.970141 52.566391
27.056351 69.901782 13.385837
25.686721 70.400287 23.372692
27.588105 69.708239 38.904041
27.193943 69.851702 64.156633
26.031858 70.274667 11.740148
25.581219 70.438686 13.806670
25.294855 70.542914 25.943442
26.393100 70.143186 59.812197
26.167109 70.225440 64.669943
25.497895 70.469014 8.190529
27.902550 69.593790 19.561458
25.682811 70.401710 45.913979
24.640614 70.781039 59.497902
24.483923 70.838070 22.706051
25.412206 70.500202 19.855114
25.216961 70.571265 56.537517
24.147716 70.960439 47.844370
23.000218 71.378094 35.623456
24.803181 70.721869 38.415008
26.498791 70.104717 19.293694
26.603347 70.066662 11.983145
25.738009 70.381620 34.389257
27.646650 69.686930 54.457713
25.986910 70.291027 22.663754
27.053896 69.902675 66.458723
27.023682 69.913672 63.675745
25.863590 70.335911 50.462642
23.267035 71.280981 40.947609
24.955833 70.666308 60.375863
25.047048 70.633109 66.103966
23.767294 71.098901 38.321423
27.238052 69.835648 42.586366
24.939394 70.672292 16.001006
27.181723 69.856150 47.164737
25.848413 70.341435 17.623346
24.593477 70.798195 24.237726
23.748180 71.105858 20.573717
22.889838 71.418269 39.245899
23.057519 71.357239 57.570449
27.857772 69.610088 26.838877
26.120152 70.242531 66.105720
23.152332 71.322729 37.789557
27.155036 69.865863 51.917107
27.609094 69.700600 32.143499
27.772458 69.641140 65.541974
24.112177 70.973374 33.934855
25.069717 70.624858 8.591406
23.030915 71.366921 22.197539
28.281555 69.455844 62.887517
26.963261 69.935664 21.638723
24.813622 70.718069 52.063111
26.747503 70.014193 34.395633
23.040352 71.363487 52.787802
24.794914 70.724878 6.840621
27.340132 69.798494 13.432388
27.550295 69.722001 54.609624
26.157691 70.228867 46.260747
26.133032 70.237843 28.716009
25.089434 70.617681 57.523257
27.528945 69.729772 45.679442
23.447290 71.215373 5.507633
25.507581 70.465488 19.311687
22.928207 71.404304 50.864824
25.778789 70.366777 43.651955
26.645702 70.051246 8.569675
23.693050 71.125924 8.438317
25.703469 70.394191 10.672769
27.987666 69.562811 55.359977
22.918238 71.407933 24.233393
27.915856 69.588948 58.530091
26.650185 70.049614 7.664271
24.573893 70.805323 33.771443
26.619475 70.060792 21.657721
23.934010 71.038222 42.968491
27.293688 69.815398 31.075038
23.763325 71.100346 16.484250
27.797807 69.631914 14.182347
28.234060 69.473131 51.555742
24.320650 70.897496 34.229217
27.659261 69.682340 42.396599
24.627219 70.785914 20.733765
25.092535 70.616553 61.247030
23.900823 71.050301 39.041390
24.685826 70.764583 20.625939
27.847546 69.613810 33.693568
26.857290 69.974234 43.425793
26.442704 70.125131 4.503200
26.420223 70.133313 7.552005
25.188862 70.581493 45.087392
24.042746 70.998645 43.237514
26.351759 70.158233 60.754557
28.332629 69.437254 48.470694
23.705225 71.121493 27.057398
25.270716 70.551700 31.078156
27.498207 69.740959 54.460293
23.982073 71.020728 40.851932
24.018152 71.007596 41.061974
28.427758 69.402630 6.746687
27.898100 69.595410 38.333086
26.421764 70.132753 9.575105
27.013839 69.917255 23.557118
27.715261 69.661958 31.279565
28.337467 69.435494 54.598703
24.643437 70.780011 26.103462
27.940212 69.580082 48.468547
23.466918 71.208229 36.274359
27.927007 69.584889 49.664847
28.239329 69.471213 17.328710
24.424649 70.859644 4.360034
24.295472 70.906660 11.537652
23.762399 71.100683 29.304029
25.305059 70.539200 65.302728
24.707908 70.756546 12.845773
27.572410 69.713951 55.447836
24.077918 70.985843 49.070267
28.435886 69.399672 37.035534
28.205159 69.483650 6.488141
27.059817 69.900520 17.749269
26.578220 70.075807 14.162174
25.220515 70.569972 9.879172
24.273110 70.914799 28.986852
28.126513 69.512274 16.467840
25.382238 70.511110 30.734176
25.902480 70.321757 33.763316
27.724633 69.658547 53.502675
27.866670 69.606850 41.524673
26.815702 69.989371 50.638357
24.438447 70.854621 47.041597
25.257895 70.556367 28.654564
23.984362 71.019895 5.537769
28.170023 69.496438 51.226101
26.371212 70.151152 53.296512
25.682782 70.401720 34.512874
25.978915 70.293937 37.267446
24.545743 70.815569 38.616055
22.938348 71.400613 35.113146
25.532119 70.456557 58.659116
24.051946 70.995296 41.233636
24.042109 70.998877 11.931894
27.713097 69.662746 30.995602
24.440479 70.853882 40.887249
24.613834 70.790786 10.681998
26.788958 69.999105 67.459377
25.473532 70.477881 25.468765
24.313644 70.900046 54.389079
26.653455 70.048424 30.699577
23.888339 71.054845 13.683412
23.374273 71.241949 16.504283
23.650351 71.141465 58.399712
24.327283 70.895082 49.162798
27.780667 69.638152 7.437901
28.293362 69.451546 49.595727
25.356508 70.520474 59.154598
27.002310 69.921451 62.858149
27.944332 69.578583 52.347361
26.527723 70.094187 65.625323
27.526690 69.730592 31.905169
25.581115 70.438724 10.882900
25.116080 70.607983 34.694977
25.607284 70.429199 53.307128
24.566899 70.807869 8.883439
23.593647 71.162104 63.539029
22.855037 71.430936 62.418715
24.368906 70.879932 31.217917
25.090973 70.617121 36.076566
23.808209 71.084009 44.205790
23.714163 71.118240 30.028100
25.486135 70.473294 34.709795
27.301777 69.812454 36.349623
23.699191 71.123689 57.228789
23.240431 71.290664 7.091691
23.317387 71.262654 45.349648
27.695964 69.668982 57.880902
23.938042 71.036754 66.580620
22.918887 71.407696 13.033438
26.402859 70.139634 44.234933
24.336716 70.891648 20.054118
23.449559 71.214547 44.988488
22.916223 71.408666 17.434699
24.439923 70.854084 20.155010
26.916613 69.952642 50.425932
23.786713 71.091833 16.371951
28.119977 69.514653 25.079953
24.468940 70.843523 64.304254
24.371534 70.878976 48.234636
23.971173 71.024695 48.082623
27.037028 69.908815 41.796120
25.999572 70.286418 52.981972
27.383358 69.782761 4.753295
23.920764 71.043043 24.890894
25.244677 70.561177 33.581207
23.549011 71.178350 9.485812
25.778035 70.367051 42.697893
27.182000 69.856049 49.673905
28.223147 69.477103 42.668280
23.065225 71.354434 25.623755
25.609514 70.428388 17.197647
27.910519 69.590890 23.313667
27.936588 69.581401 52.937493
26.789842 69.998783 48.737755
28.243299 69.469768 8.888554
27.362228 69.790452 61.400371
27.373179 69.786466 40.504738
24.857017 70.702274 33.861141
28.139004 69.507728 48.141344
23.374709 71.241791 40.481919
28.203196 69.484364 36.241839
27.190073 69.853111 53.395988
23.097533 71.342674 25.027088
24.114599 70.972492 41.091789
28.400766 69.412455 11.090245
23.613218 71.154981 32.717628
27.976162 69.566998 23.755589
27.748228 69.649959 34.862717
23.674321 71.132741 13.425704
26.014180 70.281101 25.157321
24.384706 70.874182 48.865408
26.030999 70.274980 26.092287
27.955676 69.574454 19.820547
23.398423 71.233160 10.359383
23.408628 71.229445 27.006353
26.575322 70.076862 43.733269
22.837905 71.437171 13.632404
23.249008 71.287542 46.880351
24.223477 70.932864 17.222598
26.557397 70.083386 31.006669
24.534278 70.819742 67.621227
25.826927 70.349256 57.571716
25.225859 70.568027 31.395423
26.809200 69.991737 40.755069
24.547770 70.814831 11.622945
27.082507 69.892262 22.645797
27.604414 69.702303 20.645306
27.163792 69.862676 50.365644
25.504427 70.466636 34.865546
27.601819 69.703247 5.544222
24.096821 70.978963 34.169170
25.592057 70.434742 47.302588
26.813501 69.990172 22.780633
26.743910 70.015501 67.594518
23.418259 71.225940 30.145841
25.731823 70.383871 7.285521
28.205480 69.483533 67.570889
26.184326 70.219173 42.927486
27.636991 69.690446 61.686921
23.927071 71.040747 12.594428
26.304977 70.175260 22.686666
25.603171 70.430696 61.529907
27.950055 69.576500 56.976346
27.519668 69.733148 15.219596
23.935230 71.037778 42.476257
24.766008 70.735399 38.224906
25.210603 70.573580 66.229419
25.680514 70.402546 44.867229
23.004906 71.376388 67.745737
25.208121 70.574483 47.843580
28.243456 69.469711 11.874309
27.869990 69.605641 59.790571
22.854399 71.431168 17.865389
26.027053 70.276416 57.558377
23.230769 71.294181 11.227177
26.777871 70.003140 7.213256
27.186303 69.854483 55.073549
26.797733 69.995911 65.953492
26.927325 69.948743 26.252468
23.849702 71.068907 63.084031
27.450746 69.758234 47.798572
28.445345 69.396229 37.817614
23.200183 71.305313 57.700531
27.352313 69.794060 31.279274
28.399766 69.412818 56.273200
24.127336 70.967857 37.438514
24.939796 70.672145 55.633531
23.199766 71.305465 13.946325
26.521997 70.096271 64.924083
26.126487 70.240225 64.233229
22.941026 71.399639 6.374966
26.716699 70.025405 5.870854
25.479488 70.475713 13.730483
26.876838 69.967119 44.001639
24.832216 70.711301 10.786865
24.203820 70.940019 11.086257
25.248440 70.559808 15.709903
24.679203 70.766994 8.056639
25.290300 70.544572 8.596715
27.905490 69.592720 32.349332
26.768808 70.006439 51.678874
24.247053 70.924283 32.971333
25.542013 70.452956 14.372534
28.319789 69.441928 54.738692
24.368622 70.880036 32.197683
24.241836 70.926182 22.603676
28.384887 69.418234 14.525429
24.947979 70.669167 53.346169
27.057057 69.901525 46.856266
23.940099 71.036005 20.498720
25.213777 70.572424 50.978846
25.451674 70.485837 32.002370
27.752179 69.648521 59.632324
27.134789 69.873233 65.411944
25.611015 70.427841 19.850735
27.808061 69.628182 45.553671
28.046118 69.541536 13.181471
25.232477 70.565618 24.326157
24.301543 70.904450 47.082642
26.121247 70.242132 7.425600
23.087592 71.346293 35.343669
22.946464 71.397659 19.293129
25.145589 70.597243 29.821275
23.048302 71.360593 32.380723
23.072789 71.351681 6.586241
25.543437 70.452438 21.260785
27.467995 69.751956 65.289195
23.393138 71.235083 63.833969
27.154759 69.865964 29.922468
23.653512 71.140315 7.094603
27.750699 69.649060 44.640027
27.539489 69.725934 54.761521
23.861646 71.064560 35.354575
26.145036 70.233473 46.649059
25.833528 70.346853 55.311393
26.863154 69.972100 34.144725
24.514791 70.826835 60.072414
27.673061 69.677317 45.739973
27.805277 69.629195 26.962102
24.226060 70.931924 18.172155
26.900482 69.958513 35.800466
23.415546 71.226927 29.213165
25.449850 70.486501 48.759072
27.753757 69.647947 59.020068
23.550201 71.177917 63.223324
27.857563 69.610164 29.744177
25.722277 70.387345 45.415673
28.419871 69.405501 50.019198
24.900259 70.686535 3.946100
27.049100 69.904421 46.558151
24.101204 70.977368 27.354443
28.272392 69.459179 55.768315
24.671312 70.769866 21.586425
26.930727 69.947505 22.368156
23.489270 71.200094 41.003792
24.381525 70.875339 54.829928
27.394648 69.778652 31.602412
25.689991 70.399096 47.366379
24.900164 70.686570 54.023262
24.361133 70.882761 41.435423
26.864635 69.971561 29.503655
22.971496 71.388548 13.141782
25.745883 70.378754 66.858109
27.140530 69.871143 37.482898
26.612194 70.063442 47.107264
27.508834 69.737092 38.128328
26.612884 70.063191 63.968361
26.941916 69.943433 13.704826
27.689933 69.671177 14.972353
27.645031 69.687520 66.471545
27.946201 69.577903 58.642513
23.248123 71.287864 65.361469
24.551235 70.813570 24.866929
27.054921 69.902302 15.723283
23.672742 71.133315 63.619620
27.922564 69.586506 40.788962
27.265025 69.825831 21.864917
28.070492 69.532664 19.758233
22.844948 71.434608 18.192839
24.431104 70.857294 27.892127
22.820509 71.443503 10.141389
27.030078 69.911345 31.886766
24.307371 70.902329 8.646464
25.864152 70.335707 3.239175
23.315973 71.263169 33.457629
27.309755 69.809550 22.604526
24.792209 70.725863 3.972557
24.494233 70.834317 50.929237
28.015141 69.552811 47.667520
22.949923 71.396400 10.367982
27.182728 69.855784 26.334244
25.166956 70.589466 47.069226
23.120629 71.334268 11.799023
28.026127 69.548812 13.781155
28.310475 69.445318 10.856068
26.527845 70.094142 61.653529
26.784642 70.000676 41.517170
24.426256 70.859059 3.940049
26.016100 70.280402 20.333478
23.204147 71.303870 59.047577
24.907244 70.683993 39.408218
23.357066 71.248212 51.560245
25.023558 70.641658 28.577223
25.011827 70.645928 64.580625
25.347059 70.523914 18.223698
23.161392 71.319432 65.931149
23.096005 71.343231 4.940277
25.537672 70.454536 27.952784
23.488749 71.200284 65.530399
23.097613 71.342646 60.832274
27.195139 69.851267 21.415852
23.579248 71.167345 45.360064
24.135974 70.964713 57.201622
22.833638 71.438724 34.505851
23.972251 71.024303 64.049720
25.541007 70.453322 37.359762
27.437937 69.762896 55.457763
23.201893 71.304690 23.819408
24.153080 70.958487 28.362140
24.688366 70.763658 64.547451
26.859451 69.973448 43.873650
23.981213 71.021041 39.739305
24.710807 70.755491 59.625000
23.124074 71.333014 28.338751
25.712063 70.391063 26.480857
25.611166 70.427787 39.418724
25.136817 70.600435 12.742710
23.845545 71.070420 25.727956
23.655367 71.139639 54.979134
28.107148 69.519323 29.671989
27.803202 69.629950 55.961713
25.316584 70.535006 3.783694
24.372406 70.878658 40.581211
22.945866 71.397877 29.440818
26.918536 69.951942 11.510907
27.594220 69.706013 50.661288
26.377623 70.148819 30.869346
28.224522 69.476602 21.943901
27.212838 69.844825 17.934127
27.909123 69.591398 31.378676
27.614051 69.698795 3.198033
26.233845 70.201150 48.255267
26.088155 70.254177 49.935505
25.606765 70.429388 49.417842
26.500186 70.104209 58.388866
27.432987 69.764697 15.711065
26.563955 70.080999 52.956428
26.310640 70.173199 9.605237
26.574784 70.077058 46.146423
27.785283 69.636472 12.214782
27.739611 69.653095 56.050752
28.336196 69.435956 13.903706
25.045858 70.633542 59.492301
27.891616 69.597770 37.789055
25.325692 70.531690 17.671175
23.930856 71.039370 33.832620
26.308067 70.174135 36.652413
26.162839 70.226994 35.514903
24.048151 70.996678 27.217226
26.731787 70.019914 33.164035
26.089416 70.253717 8.210779
25.005935 70.648073 34.260097
22.908597 71.411442 38.314933
25.332785 70.529109 3.012932
25.369852 70.515617 11.485973
24.006572 71.011811 26.948007
27.854143 69.611409 20.759300
23.742169 71.108046 36.664448
27.089594 69.889682 61.521039
23.761331 71.101072 31.230281
24.246843 70.924360 7.299896
24.036696 71.000847 11.685959
24.886033 70.691713 30.947818
27.549941 69.722130 58.507566
28.157724 69.500915 20.904549
26.047062 70.269133 63.081470
27.162795 69.863039 18.205778
23.440889 71.217703 67.990081
26.812145 69.990665 14.760220
26.381345 70.147464 58.367938
22.823479 71.442422 9.148578
24.699644 70.759553 60.410621
27.949610 69.576662 11.468648
23.154025 71.322113 7.697833
24.450187 70.850348 22.023435
27.020050 69.914994 55.583713
23.471367 71.206610 56.997933
27.692295 69.670317 27.644273
24.395854 70.870124 10.887588
25.516158 70.462366 9.732731
25.509275 70.464872 44.177542
24.462420 70.845896 25.388834
23.949726 71.032501 57.075249
23.596704 71.160991 41.946543
26.962825 69.935823 13.249045
25.885072 70.328093 9.223246
23.125052 71.332658 66.312322
24.068851 70.989144 20.631555
25.543435 70.452439 13.238640
23.237358 71.291782 29.523921
23.503855 71.194785 42.154735
25.986875 70.291039 37.523629
24.550491 70.813841 60.386057
27.995458 69.559975 67.090234
25.156558 70.593250 48.604890
27.030457 69.911206 43.277126
24.114379 70.972573 8.139354
24.770235 70.733861 35.009851
26.948251 69.941127 14.225088
27.896426 69.596019 36.250318
23.536412 71.182936 16.262451
25.451991 70.485721 3.026512
23.704198 71.121867 5.084918
27.800333 69.630994 65.732407
26.345416 70.160541 20.745250
24.210519 70.937581 62.007739
27.185492 69.854778 4.082474
26.911449 69.954522 60.272204
25.583451 70.437874 48.012072
22.902179 71.413778 42.212530
27.173018 69.859319 33.137372
25.801095 70.358658 67.999684
25.438253 70.490722 58.386485
26.726456 70.021854 22.063753
23.956894 71.029893 62.444026
24.686777 70.764237 23.415603
26.443250 70.124933 49.034730
27.414669 69.771364 24.791949
24.095621 70.979400 46.889304
22.928376 71.404243 60.596232
28.260502 69.463506 9.785761
26.608379 70.064830 32.765771
26.352002 70.158144 51.207264
28.034617 69.545722 4.807807
27.449652 69.758632 46.021985
24.311640 70.900776 58.394452
23.376100 71.241284 59.134553
25.914423 70.317410 67.089079
26.352718 70.157883 36.063664
25.666375 70.407692 58.960513
24.168868 70.952740 7.622237
24.751664 70.740620 4.932834
28.332697 69.437230 40.582757
24.206242 70.939137 41.654414
24.734936 70.746708 5.128499
23.564365 71.172761 31.730731
27.524210 69.731495 36.565112
26.207064 70.210897 49.969520
26.335131 70.164285 17.680577
25.127039 70.603994 67.689638
28.446214 69.395913 27.030042
25.940695 70.307848 50.320870
28.008233 69.555325 61.912690
24.685746 70.764612 31.894118
24.435791 70.855588 34.362712
27.375168 69.785742 67.779050
27.576998 69.712282 27.787433
27.039818 69.907799 36.416031
27.201127 69.849087 36.334703
27.985531 69.563588 63.637407
25.121484 70.606016 39.468722
25.493016 70.470790 11.266484
25.559460 70.446606 6.681889
24.259982 70.919577 67.896017
26.698959 70.031862 14.405742
27.453820 69.757115 59.561438
24.005492 71.012204 31.599211
27.541987 69.725024 53.569413
25.889049 70.326645 15.415505
24.848714 70.705296 40.354527
23.429357 71.221900 15.989360
23.244066 71.289341 39.352618
26.541522 70.089164 5.179158
25.647645 70.414509 26.890772
27.648977 69.686083 18.574999
27.896442 69.596013 67.015671
24.779680 70.730423 10.544062
28.007136 69.555724 57.526036
23.658575 71.138472 11.342121
28.030604 69.547183 63.229199
23.155296 71.321650 19.940375
26.142068 70.234554 40.176394
25.234806 70.564770 61.289526
24.365838 70.881049 48.684836
24.778998 70.730671 14.896280
23.514826 71.190792 36.386064
26.990903 69.925603 60.203593
27.138891 69.871740 62.113404
24.917819 70.680144 53.710390
23.837343 71.073405 32.498754
23.575629 71.168662 17.174254
27.442031 69.761406 48.079207
25.964973 70.299011 59.259401
25.682077 70.401977 16.847008
22.937878 71.400784 49.334363
27.659741 69.682166 25.596448
25.685759 70.400637 13.490438
27.779885 69.638437 21.898619
25.741075 70.380504 26.968235
28.443372 69.396947 33.436996
27.988732 69.562423 12.812944
24.107196 70.975187 11.597886
27.814600 69.625802 16.701657
23.155563 71.321553 25.254891
26.097863 70.250643 11.124529
26.126772 70.240121 29.689340
24.794128 70.725164 30.185024
27.876074 69.603427 46.503912
23.730704 71.112219 67.593748
22.815795 71.445219 47.586189
27.558894 69.718871 55.687118
27.906553 69.592333 7.105045
24.362257 70.882352 55.882786
27.086233 69.890906 44.323717
23.023126 71.369756 55.595095
23.188706 71.309490 23.092800
24.465865 70.844642 51.087849
23.813241 71.082178 35.246365
24.171763 70.951687 25.226157
27.325343 69.803877 51.501721
27.028629 69.911872 57.564627
27.530794 69.729099 36.969071
27.840420 69.616404 30.139475
23.702100 71.122630 11.635420
24.544231 70.816119 22.404039
27.114925 69.880463 20.629016
23.073873 71.351286 59.539001
25.768244 70.370615 35.071392
27.673485 69.677163 19.649027
25.064449 70.626775 35.499412
25.763411 70.372374 59.268909
27.981043 69.565221 44.724799
25.004415 70.648626 4.332932
22.958953 71.393114 10.620389
26.910900 69.954722 31.516266
23.577188 71.168094 3.011035
27.174758 69.858685 8.023222
26.908490 69.955599 12.767220
24.936056 70.673507 10.369877
23.156060 71.321372 60.047432
26.610049 70.064223 45.977228
23.497403 71.197134 45.700262
25.861269 70.336756 33.474705
27.144217 69.869801 40.264771
27.414301 69.771499 41.157492
23.362465 71.246247 34.562035
27.856503 69.610550 40.527954
27.492874 69.742900 14.828039
25.570189 70.442701 46.448403
25.245795 70.560771 57.282332
23.941224 71.035596 54.332189
27.842132 69.615781 44.492868
23.881590 71.057301 30.617428
25.881350 70.329447 15.593150
27.471303 69.750752 59.986718
27.879360 69.602231 3.955137
23.572658 71.169743 40.543542
28.225446 69.476266 26.793305
27.893025 69.597257 24.926898
23.709040 71.120104 32.044236
24.497198 70.833238 48.157622
27.855977 69.610742 52.196196
28.057818 69.537277 30.755436
27.154124 69.866195 44.412487
28.307383 69.446443 56.581590
27.612886 69.699219 23.918407
27.197653 69.850352 27.463126
28.076833 69.530357 8.673315
27.503234 69.739130 49.782093
23.589973 71.163441 13.716225
27.211635 69.845263 53.122909
24.225453 70.932145 37.556924
26.738726 70.017388 35.488946
25.223151 70.569012 30.512239
28.091859 69.524888 35.127187
23.057898 71.357100 14.322110
23.302146 71.268202 59.804260
23.233544 71.293171 20.764184
28.411021 69.408722 56.126049
25.296830 70.542195 31.200928
26.377537 70.148850 15.945187
24.096765 70.978984 66.817045
25.349165 70.523147 12.844858
27.738479 69.653507 41.087352
27.811757 69.626836 28.741895
26.240123 70.198865 17.541002
24.127331 70.967859 8.948626
23.650604 71.141373 16.735384
28.041725 69.543135 16.681375
25.448314 70.487060 6.545944
24.182851 70.947651 17.013522
23.645037 71.143399 39.560174
24.022199 71.006124 53.011235
26.855801 69.974776 27.891806
25.765147 70.371742 49.134989
27.303188 69.811940 17.603245
22.895296 71.416283 52.938708
23.088177 71.346080 34.149115
23.684634 71.128987 55.779399
22.833260 71.438862 53.795082
26.993196 69.924768 51.478196
24.694695 70.761355 37.968621
27.650492 69.685532 46.121035
26.964324 69.935277 3.034253
26.603946 70.066444 6.722732
25.766723 70.371168 33.211144
28.386367 69.417695 16.404233
25.269914 70.551992 36.296285
23.582924 71.166007 22.269630
26.771446 70.005479 28.008251
23.051416 71.359460 35.873190
23.540064 71.181607 42.052245
23.870782 71.061235 16.806704
23.787147 71.091676 10.044096
28.070040 69.532829 59.844181
25.390949 70.507939 45.191257
24.036293 71.000994 14.215132
26.134055 70.237470 31.051447
25.446926 70.487565 64.001473
24.630823 70.784602 6.063948
27.644361 69.687763 34.159509
24.280207 70.912216 60.141126
27.208522 69.846396 44.242633
24.827741 70.712930 26.628389
25.794427 70.361085 50.741820
24.110064 70.974143 7.391231
23.017997 71.371623 44.886692
24.340445 70.890291 60.491466
27.948917 69.576914 32.637919
22.948230 71.397016 57.025091
24.996806 70.651395 5.683191
23.117844 71.335282 11.922252
23.865821 71.063040 49.858720
25.835228 70.346234 30.704685
27.550667 69.721865 24.520123
27.851467 69.612383 49.931087
23.638909 71.145630 14.515661
25.620404 70.424424 46.294081
23.160871 71.319621 26.868574
27.603106 69.702779 36.489099
23.186134 71.310427 20.931184
23.406329 71.230282 66.848321
28.218014 69.478971 5.413796
23.515454 71.190564 36.732671
24.669533 70.770513 18.945673
24.069323 70.988972 11.068213
22.908655 71.411421 62.315798
26.135779 70.236843 55.094779
24.464138 70.845271 13.622524
28.135059 69.509164 34.220664
26.663572 70.044742 55.976293
28.276203 69.457792 15.605324
24.558575 70.810899 3.639618
26.994222 69.924395 57.737469
25.558131 70.447090 41.185433
25.160705 70.591741 35.379735
26.459904 70.118871 9.681553
25.965752 70.298727 8.947615
24.405232 70.866711 55.213259
24.491927 70.835156 9.711920
27.419552 69.769587 7.142447
24.552041 70.813277 11.791066
24.940841 70.671765 12.533534
26.180026 70.220738 33.236685
25.026474 70.640597 37.032584
26.718813 70.024636 31.614051
24.169711 70.952434 55.813042
22.978975 71.385826 27.059485
23.620851 71.152202 33.088717
24.903335 70.685416 40.248495
25.322369 70.532900 65.522882
25.383082 70.510802 49.358981
27.196285 69.850850 51.273925
23.842863 71.071396 35.506870
25.351454 70.522314 12.715999
27.400806 69.776411 28.492756
25.277504 70.549230 47.637997
25.346438 70.524140 62.873493
26.609158 70.064547 36.983116
27.662837 69.681039 21.700523
23.933823 71.038290 38.422522
28.439383 69.398399 20.958502
28.403264 69.411545 35.132834
25.461942 70.482099 46.492998
24.664243 70.772438 61.396192
24.735762 70.746408 29.219476
23.493943 71.198393 20.588845
26.949571 69.940647 33.460849
24.130856 70.966575 4.659951
24.704588 70.757754 35.361928
27.157068 69.865124 56.970809
23.942932 71.034974 62.122693
23.792751 71.089636 56.692691
23.519409 71.189124 7.041757
23.253786 71.285803 62.261132
24.974349 70.659569 61.265081
28.053671 69.538787 12.913886
24.885847 70.691781 47.016377
25.123702 70.605209 61.487063
24.586999 70.800553 54.310324
26.245408 70.196941 27.504505
24.197085 70.942470 28.675674
26.367331 70.152565 60.933724
28.241373 69.470469 60.676025
27.139025 69.871691 6.846795
25.087085 70.618537 10.550949
25.015205 70.644699 41.147432
22.966212 71.390471 29.657617
27.998208 69.558974 56.700819
25.959311 70.301072 46.148434
27.994454 69.560340 46.725732
24.089138 70.981760 59.177148
24.730638 70.748273 63.104571
26.926960 69.948876 14.383868
23.621874 71.151830 4.170087
24.463661 70.845444 59.151076
24.319099 70.898061 19.569864
26.296488 70.178350 42.136949
27.931614 69.583212 9.751961
26.360434 70.155075 5.723380
22.828908 71.440446 4.328145
26.184523 70.219101 63.884112
27.217457 69.843144 22.784821
26.734376 70.018971 62.427692
24.673249 70.769161 66.967784
25.267395 70.552909 39.392869
24.890224 70.690188 32.609649
25.762741 70.372618 33.868141
26.247135 70.196313 51.679617
23.716683 71.117322 54.261573
24.733458 70.747246 15.756344
23.675043 71.132478 31.316615
25.153878 70.594226 26.499697
26.381319 70.147474 49.383137
26.887290 69.963315 27.372725
26.098045 70.250577 7.817376
24.009426 71.010772 28.381235
24.539699 70.817769 21.406323
27.385883 69.781842 13.237582
26.668329 70.043010 24.224310
24.745736 70.742777 44.271811
24.642287 70.780430 50.331274
23.593207 71.162264 44.190306
27.328523 69.802719 53.624954
23.703795 71.122013 21.300131
25.411420 70.500488 38.384002
23.837835 71.073226 16.171922
26.450639 70.122243 39.598343
27.287863 69.817518 29.404337
24.252749 70.922210 6.088875
23.525744 71.186819 52.808398
24.481866 70.838818 55.914874
25.661566 70.409442 12.842263
27.777287 69.639383 57.977206
27.495227 69.742044 8.383804
25.740942 70.380552 51.291433
25.828895 70.348539 52.764492
24.213001 70.936677 25.967807
25.944104 70.306607 39.602905
23.060753 71.356061 4.318303
26.658443 70.046608 33.809936
23.666099 71.135733 10.866708
26.277896 70.185116 40.295464
26.384908 70.146167 11.707313
26.341227 70.162066 66.518129
25.506508 70.465879 53.031406
27.951371 69.576021 16.316561
26.477241 70.112561 41.708541
26.011651 70.282022 64.178989
27.243403 69.833701 54.380907
27.760143 69.645622 18.284199
24.654478 70.775992 24.453850
26.249412 70.195484 18.241244
27.738954 69.653335 19.811512
25.607988 70.428943 55.790126
24.044485 70.998012 13.251202
23.206318 71.303080 32.749332
27.209665 69.845980 56.582054
27.581383 69.710686 43.246903
26.527858 70.094138 30.478928
26.339580 70.162665 45.891302
28.396817 69.413892 44.221537
