45.048063 -43.924769 27.755865
45.986013 -56.657993 17.012150
34.128814 -19.141568 15.077923
44.066270 -39.363687 25.008318
30.900704 -15.530787 15.027208
40.204928 -28.765783 23.095705
32.197541 -16.890618 31.496290
45.062948 -44.013377 11.166154
33.456493 -18.324845 57.373496
28.566350 -13.336654 10.276917
45.920053 -51.783520 66.282928
38.175384 -24.990277 11.747622
36.828906 -22.835763 47.645388
45.358333 -45.885504 23.536101
42.255680 -33.571457 39.438566
45.996429 -54.183743 63.267108
43.493702 -37.286193 21.319299
46.000714 -55.547847 46.468129
39.104011 -26.626177 50.221873
42.413177 -33.997694 11.778626
44.965597 -43.466319 28.943294
34.949671 -20.188625 57.045326
39.261428 -26.918332 63.915538
44.464922 -41.014888 16.651897
45.958250 -57.514166 65.277746
40.994433 -30.472793 67.331217
45.045438 -43.909141 66.176852
43.190031 -36.289530 33.717538
23.234538 -9.337339 46.447279
43.198823 -36.316831 31.826847
45.693114 -48.665145 49.189186
45.684306 -48.582177 7.569512
39.378288 -27.140751 35.079259
45.898836 -51.332072 12.137546
44.083249 -39.430536 35.617153
33.152174 -17.970057 50.183220
42.655317 -34.680684 5.847292
45.627515 -48.047237 14.061986
43.862101 -38.585576 14.534493
36.795760 -22.786788 43.267484
27.264564 -12.239262 32.629521
38.472622 -25.500010 21.878773
43.059211 -35.883280 6.822889
35.645947 -21.127904 43.818672
37.960631 -24.629693 67.999395
44.073368 -39.391632 66.997624
45.655710 -48.312823 41.626349
37.635403 -24.099427 47.539313
45.891528 -51.221195 17.542331
34.568037 -19.697740 12.140479
45.999591 -54.663090 55.309470
43.662113 -37.861717 18.572307
34.529790 -19.648768 13.587207
36.105383 -21.774787 5.990286
45.706637 -48.798349 67.596651
45.556838 -47.398998 35.119215
41.400990 -31.414229 52.061667
31.477985 -16.121591 10.262946
45.202753 -44.845651 25.172744
45.666347 -48.413016 33.578201
29.990616 -14.636874 43.323864
35.343556 -20.717380 45.369555
45.789165 -49.758539 66.503503
32.925846 -17.706193 25.541503
30.792291 -15.420909 45.780270
36.081757 -21.741522 18.096227
45.992322 -56.195510 41.144155
45.289414 -45.417169 47.506154
37.208361 -23.422987 5.150839
45.308259 -45.545232 30.384567
33.167703 -17.988161 63.787483
39.415368 -27.211325 35.788518
28.925802 -13.652830 39.106804
44.574522 -41.508963 44.081429
37.407961 -23.732673 9.228127
37.799002 -24.366166 33.796969
43.254177 -36.488729 19.442372
42.142016 -33.263842 62.421108
29.773715 -14.429757 22.636480
35.047737 -20.320270 25.677394
39.374836 -27.134182 38.933561
31.034900 -15.666796 32.815882
27.701706 -12.598764 41.857314
27.812943 -12.692015 58.623747
42.951672 -35.549331 3.603207
44.590223 -41.583590 27.557890
23.786013 -9.696538 47.198241
39.787504 -27.927171 34.882452
40.895668 -30.250653 6.730523
46.001337 -54.927715 37.490416
24.197068 -9.968707 66.800453
24.121755 -9.917008 15.883605
41.739554 -32.234327 13.009801
44.178504 -39.805580 61.258619
25.074243 -10.576048 28.223849
45.337422 -45.743403 58.997402
44.652565 -41.879900 29.202084
36.032111 -21.671621 67.958416
41.132000 -30.782205 67.083674
26.128109 -11.350625 7.804686
34.165759 -19.186702 7.411764
25.792821 -11.095832 36.757411
26.492952 -11.627877 13.321076
43.424738 -37.055507 51.800510
43.276710 -36.560348 25.727679
29.020426 -13.736061 55.584575
43.099776 -36.009251 24.118895
45.989285 -53.759213 43.518822
38.810150 -26.095587 54.550019
41.519214 -31.696386 27.747046
34.752881 -19.934416 31.851495
36.188052 -21.891185 18.757431
44.454954 -40.971928 47.308818
32.728710 -17.481651 9.418451
44.679100 -42.006016 9.452682
44.178455 -39.805388 28.271451
40.035618 -28.425637 6.080904
38.024501 -24.733829 46.162882
43.426833 -37.062514 41.512506
34.670443 -19.828861 41.710844
23.772162 -9.687516 13.946340
45.940787 -58.027225 52.135638
30.482865 -15.112909 31.646544
44.876168 -42.993289 5.925379
43.929726 -38.830348 35.325921
41.714575 -32.170924 6.623336
31.709963 -16.367950 53.916013
45.209770 -44.887420 39.914337
44.750150 -42.343710 41.863950
29.439322 -14.121286 58.612665
36.351500 -22.130372 29.134798
42.941623 -35.518123 49.300906
32.327553 -17.035283 60.598966
39.191041 -26.784365 54.982072
42.578636 -34.458760 3.568408
25.610766 -10.963754 48.440095
42.383938 -33.918564 24.595396
45.739894 -49.185289 35.387395
45.882194 -59.157638 4.533107
37.351432 -23.644966 47.873333
36.664490 -22.592831 47.918557
40.902793 -30.266677 62.041051
43.454290 -37.154359 6.717586
25.056645 -10.563332 3.981514
42.509069 -34.257425 23.301115
29.854902 -14.505630 4.627577
45.963412 -52.773509 35.561481
44.262386 -40.142004 10.179014
45.289752 -45.419468 59.512637
35.992542 -21.615907 50.609584
41.756722 -32.277901 43.638465
38.333853 -25.262036 6.567140
45.558183 -47.409627 43.139473
36.144849 -21.830355 5.303051
40.741866 -29.904726 38.722025
37.674149 -24.162601 23.562623
38.331159 -25.257415 54.234867
44.783130 -42.501163 65.629448
41.902813 -32.648711 35.526564
45.989786 -56.391264 64.133925
45.909392 -51.551827 67.591008
46.001082 -54.889014 61.784518
39.797193 -27.946638 9.046998
45.053007 -43.954198 17.742396
42.011125 -32.923631 32.628989
44.005695 -39.125188 14.687263
43.076999 -35.938521 43.529673
34.058862 -19.056110 42.274629
42.042294 -33.002743 21.008169
45.078883 -44.108241 41.641279
45.978123 -53.333985 30.749883
32.574033 -17.309542 42.869270
38.230182 -25.084250 59.360750
45.997145 -54.292178 38.472487
23.595494 -9.572444 50.402177
44.901597 -43.127794 66.262592
34.486093 -19.592818 26.545094
45.997337 -54.321329 10.366246
29.569108 -14.241012 27.447966
36.040540 -21.683489 32.757215
43.130041 -36.103238 8.983240
25.088727 -10.586515 10.195128
45.999782 -55.619782 22.037756
29.710194 -14.371160 33.810769
39.318873 -27.027668 17.166110
45.829414 -50.278766 50.296160
44.441897 -40.915657 4.833995
45.617316 -47.951165 44.006965
23.533501 -9.532066 44.318158
43.374047 -36.885946 19.098949
45.772409 -49.563587 24.814431
39.005350 -26.448037 38.951836
45.931690 -58.202738 21.629557
26.892910 -11.942515 43.920058
45.973485 -57.044337 7.697227
28.720219 -13.471997 35.894041
42.213023 -33.456013 40.901618
45.941706 -52.254144 28.384488
26.487526 -11.623754 26.366854
43.454978 -37.156660 42.406077
42.052507 -33.028667 33.252650
30.657325 -15.284118 55.584427
44.452806 -40.962669 51.781654
26.369660 -11.534185 38.483413
42.026132 -32.961721 11.298462
40.690542 -29.794031 65.878625
45.493094 -46.895310 58.635421
45.998491 -55.719426 30.481224
41.658899 -32.029762 11.743430
29.283761 -13.977785 64.601634
45.134607 -44.439970 31.338142
27.112800 -12.118086 14.700125
40.235832 -28.828297 26.343318
27.758804 -12.646630 14.494372
37.474054 -23.836357 38.442196
42.012049 -32.925975 48.026684
36.169520 -21.865091 52.051751
43.586536 -37.596724 24.515988
45.709892 -48.836225 27.828923
45.935758 -52.124872 11.863992
27.586582 -12.502255 45.415802
45.916527 -58.495261 21.778040
23.638314 -9.600335 63.287255
45.414879 -46.277274 35.596191
40.651745 -29.711632 11.907289
28.820289 -13.560020 29.317952
31.104467 -15.737304 3.343373
42.677510 -34.744913 16.066866
32.153607 -16.841733 12.091235
33.701015 -18.618945 45.142106
45.668120 -48.429711 6.713211
36.116700 -21.790722 30.795455
39.265900 -26.926843 7.571275
45.042673 -43.892679 57.830771
23.232802 -9.336208 41.237736
31.618074 -16.270365 41.128934
44.745544 -42.321820 58.594533
43.787393 -38.315170 18.536282
41.016785 -30.523066 64.460247
24.366861 -10.085264 16.103690
41.640366 -31.985530 16.834861
45.650216 -48.261068 12.060655
36.057646 -21.707574 58.647630
45.217397 -44.932824 14.153699
33.772320 -18.706055 5.153940
34.036081 -19.028280 23.872706
45.610236 -47.884473 28.053446
31.817669 -16.482334 20.820791
45.443166 -46.500793 54.397061
45.827657 -50.252101 52.938156
45.989394 -53.763377 4.686861
45.997467 -55.798466 5.855970
32.956757 -17.742230 33.444029
45.898359 -58.845774 22.197232
45.906827 -51.496067 51.807563
31.632457 -16.285640 43.735485
33.996852 -18.980355 67.005613
42.441287 -34.073771 51.811790
45.947533 -52.380790 26.910799
42.641381 -34.640351 62.407478
45.997464 -55.798700 34.424656
44.772555 -42.450203 62.302169
44.824637 -42.720713 34.716863
45.988555 -56.486323 53.391925
38.673734 -25.849277 63.594254
45.317471 -45.607828 60.009704
25.254506 -10.706311 14.287487
39.723115 -27.797814 11.034269
45.219472 -44.945181 12.730091
33.470633 -18.341330 25.682132
24.824698 -10.399552 29.670240
34.671070 -19.829664 60.615919
45.599206 -47.780584 22.952964
42.747228 -34.946685 66.068366
45.524804 -47.145872 56.928947
43.296345 -36.626028 4.557502
27.543024 -12.465741 57.855935
45.851044 -50.606951 13.535800
45.988425 -56.496318 53.913023
39.960082 -28.273885 3.497390
45.871066 -50.910727 55.802135
44.528876 -41.292014 43.699510
45.984663 -56.699609 50.064378
24.745001 -10.344843 62.982425
28.629177 -13.391917 3.059506
37.483362 -23.851534 33.536976
45.777478 -49.622566 62.710490
24.405282 -10.111639 14.912771
40.681077 -29.773927 9.724337
33.178472 -18.000716 52.178422
45.951345 -57.727102 6.909995
43.735776 -38.128340 29.138523
45.475804 -46.758686 23.578198
36.277407 -22.020897 47.849822
36.742475 -22.708057 64.706812
38.865075 -26.194759 64.987954
36.211430 -21.924101 31.150106
26.228671 -11.427045 17.570522
40.209055 -28.774075 22.577621
36.401044 -22.203577 67.384796
34.398936 -19.481222 35.016313
27.946577 -12.804042 56.477208
42.436418 -34.060593 52.227788
41.870166 -32.565846 10.351653
35.487907 -20.911159 32.214699
32.902541 -17.679023 11.470297
44.153917 -39.708776 18.816950
45.447066 -46.531610 13.278074
34.167744 -19.189128 18.462180
36.805487 -22.801160 3.993062
32.752997 -17.508675 53.094515
45.393369 -46.123587 51.727009
45.002647 -43.662297 46.475808
39.260202 -26.915998 12.011637
45.966936 -52.907776 26.997855
29.293201 -13.986493 39.124363
26.869996 -11.924220 41.502812
25.470863 -10.862657 58.241339
41.649540 -32.007425 44.851275
45.965189 -52.841203 32.863582
30.594650 -15.221012 43.107305
39.390324 -27.163659 20.976429
42.556183 -34.393777 28.713359
46.000964 -55.528485 64.579297
36.687454 -22.626761 18.990640
45.777242 -49.619819 44.141544
45.900750 -58.799659 28.582329
45.962639 -57.378824 36.337172
45.793130 -49.804665 16.325632
39.094805 -26.609554 59.838254
43.844781 -38.522886 46.866617
36.158350 -21.849365 3.106243
32.081894 -16.762939 36.553847
23.955604 -9.806999 50.053207
33.076893 -17.882291 28.690021
44.480289 -41.081117 55.172961
45.949843 -57.773423 22.430682
35.082139 -20.366451 63.387201
42.844650 -35.228636 11.117751
23.311961 -9.387768 22.706571
41.227810 -31.000911 6.812417
34.747470 -19.927487 15.984531
44.702302 -42.116295 58.214804
42.924210 -35.464050 13.159036
36.148947 -21.836125 62.976620
45.945692 -57.901447 52.997668
31.163004 -15.796632 54.511633
25.700813 -11.028825 12.922914
45.240645 -45.085767 6.396911
45.233376 -45.036366 48.802236
44.435798 -40.889369 24.780044
42.661091 -34.697395 22.723598
32.778284 -17.536812 37.362036
44.787638 -42.525011 56.567315
45.997176 -54.297002 61.030143
39.922522 -28.198425 15.634920
38.073062 -24.814804 12.105066
45.112540 -44.308604 53.795590
41.783655 -32.346263 24.346702
29.523678 -14.199103 7.416161
36.639714 -22.556223 41.022557
45.974590 -53.199352 40.224718
45.893821 -51.255974 9.775887
31.259588 -15.894521 20.354896
43.629158 -37.742433 41.274804
45.992660 -56.169419 38.948938
42.240345 -33.529954 52.618899
27.759624 -12.647317 25.121555
45.895165 -51.276377 19.458125
34.856141 -20.066631 60.329977
35.658440 -21.145493 66.728360
40.745721 -29.913396 63.917578
44.502768 -41.177995 14.484799
45.995855 -55.922826 66.208709
29.328731 -14.019269 15.993011
45.446974 -46.530881 32.345979
23.872878 -9.753117 61.222373
34.206298 -19.236228 43.411543
39.653000 -27.663610 6.440963
42.523267 -34.298516 8.585491
33.646544 -18.552400 22.805430
37.982446 -24.665261 44.325692
37.512732 -23.899419 13.474028
40.176979 -28.709633 22.213493
46.003422 -55.243784 13.893583
24.614800 -10.255465 26.358607
28.982355 -13.702573 34.482199
39.301611 -26.994813 65.099068
41.201903 -30.939429 16.798952
45.975583 -53.237190 6.188656
44.864733 -42.932804 39.763297
33.637408 -18.541239 8.391824
39.400855 -27.183703 51.299283
32.589501 -17.326752 16.349452
28.676417 -13.433470 12.857170
45.711224 -48.851720 8.359707
45.265630 -45.255546 20.694123
45.995283 -54.010050 57.235038
33.554178 -18.439561 16.514667
45.670820 -48.455151 58.908564
26.732014 -11.814048 39.601995
31.565041 -16.214045 15.590130
44.818525 -42.688388 38.797815
45.963143 -57.363283 26.190558
28.306715 -13.108277 44.648765
43.665999 -37.875780 13.275040
43.118329 -36.066866 23.626684
46.001403 -54.937653 27.127566
30.502884 -15.132269 49.671558
27.512328 -12.440008 32.286450
26.069199 -11.305858 67.224132
45.507676 -47.010532 30.599454
43.829356 -38.467054 59.466511
45.984780 -53.587568 40.014950
42.437887 -34.064570 15.792555
45.278087 -45.340196 50.818989
44.424807 -40.842002 9.094591
45.983553 -56.733859 52.195659
43.728653 -38.102558 67.970076
45.259458 -45.213603 16.678619
45.951539 -57.721134 11.662594
28.722842 -13.474305 41.281708
33.682736 -18.596615 62.159115
24.906628 -10.455794 65.149022
44.317385 -40.379036 8.897213
34.321386 -19.381926 19.822043
40.611269 -29.625667 10.922373
30.440433 -15.071874 54.968257
43.873214 -38.625800 7.323630
39.360697 -27.107270 16.797300
40.801048 -30.037835 19.337965
39.494140 -27.361253 49.913315
45.673577 -48.481118 56.896510
27.474931 -12.408658 65.700318
43.443866 -37.119490 37.136642
33.391336 -18.248882 31.959948
30.325779 -14.960997 15.842434
25.092361 -10.589141 37.406146
44.990646 -43.598817 61.668844
41.102442 -30.715723 41.400834
40.298910 -28.962264 56.287617
45.845283 -50.519533 32.802600
33.590534 -18.483975 47.576494
33.475673 -18.347206 27.290860
31.148231 -15.781659 55.667734
43.440412 -37.107937 29.052817
25.164153 -10.641019 17.430057
42.530563 -34.319632 24.513946
44.769832 -42.437261 16.504027
39.616805 -27.594720 25.189136
33.177510 -17.999595 45.795179
28.015215 -12.861581 37.382161
45.663731 -48.388377 63.350286
25.016529 -10.534343 51.535226
46.003462 -55.249759 65.914502
44.698420 -42.097845 55.470903
45.336110 -45.734485 40.935780
44.709911 -42.152460 23.724817
25.469936 -10.861986 26.653839
33.230299 -18.061138 47.087476
37.571625 -23.995441 30.235163
37.125184 -23.293935 64.934428
43.330980 -36.741886 5.965027
41.170897 -30.869690 49.983879
33.603808 -18.500191 26.438047
45.905364 -51.464268 42.994216
31.215421 -15.849757 47.059092
42.427899 -34.037539 28.081311
37.980819 -24.662608 40.361077
23.239380 -9.340493 10.094087
45.092091 -44.186870 29.031206
41.960775 -32.795832 21.363660
45.771824 -49.556777 34.509651
40.690184 -29.793271 50.306435
34.575087 -19.706767 63.512403
40.832320 -30.108172 30.564183
43.790628 -38.326879 51.370330
43.512319 -37.348467 12.182903
35.854608 -21.421697 37.370202
38.800181 -26.077587 59.000115
38.782164 -26.045055 60.658035
27.150193 -12.147942 17.377726
31.028316 -15.660124 44.622627
45.981181 -53.450466 9.514335
24.863575 -10.426239 60.033811
25.813478 -11.111530 39.030139
45.962469 -57.384052 46.435091
27.029587 -12.051645 44.315680
45.961984 -57.399015 14.489340
34.779343 -19.968298 18.115934
45.751870 -49.324626 12.733684
44.583890 -41.553493 16.666703
43.149007 -36.162132 40.435985
40.218623 -28.793296 36.933548
37.986476 -24.671832 65.442396
41.489735 -31.626031 58.529079
44.113122 -39.548152 6.641382
43.933988 -38.845772 17.908283
43.925858 -38.816346 65.178533
39.899804 -28.152785 61.990319
44.563207 -41.455187 66.329123
41.701507 -32.137754 7.036854
42.350665 -33.828518 25.201852
42.128414 -33.227031 32.937407
45.889524 -51.190791 47.395229
36.626429 -22.536594 35.692829
27.323334 -12.286187 59.596020
45.970528 -57.135525 20.000476
27.664865 -12.567880 67.311321
45.247857 -45.134772 59.319516
45.861189 -50.760873 52.239571
40.351404 -29.073754 46.440629
36.044268 -21.688737 43.821492
44.097086 -39.485018 4.513946
24.622770 -10.260936 58.496139
32.904554 -17.681370 11.969554
34.273159 -19.320176 58.755905
27.507433 -12.435904 59.929053
35.077220 -20.359848 55.291750
31.292603 -15.927982 52.616671
46.000457 -54.794239 9.145131
45.988708 -56.474488 47.483316
34.246696 -19.286292 21.958520
43.713421 -38.047426 32.640576
29.740833 -14.399425 23.329085
45.990220 -56.357778 60.347261
25.817357 -11.114477 25.696684
24.219961 -9.984423 55.792973
28.278569 -13.083520 33.035239
36.641232 -22.558465 49.643808
39.948114 -28.249839 60.132967
28.046603 -12.887894 56.809484
45.971818 -53.093764 45.825032
38.445238 -25.453050 12.312019
31.292050 -15.927421 15.913305
41.090811 -30.689564 66.646897
38.666485 -25.836188 35.163022
45.931287 -52.027695 43.662127
26.046952 -11.288952 59.679305
38.843186 -26.155236 45.040632
40.701600 -29.817516 46.080616
43.810603 -38.399178 58.795392
43.579633 -37.573633 4.137283
39.709819 -27.771753 48.236783
28.825973 -13.565019 3.449136
34.654488 -19.808432 41.044732
43.453953 -37.153231 56.315475
42.679930 -34.751917 57.597181
30.117760 -14.759830 35.281342
45.997593 -54.360146 4.162852
44.045331 -39.281243 54.070272
44.135653 -39.636863 62.801767
45.993228 -53.909440 16.581521
45.969570 -57.165065 35.752552
45.108708 -44.285793 30.008877
38.445655 -25.453765 45.182887
45.991895 -56.228536 50.283081
35.972218 -21.587292 14.291502
32.861668 -17.631371 44.600939
29.456311 -14.136958 7.045705
44.029638 -39.219455 43.387415
40.646424 -29.700331 42.677342
45.253619 -45.173930 19.805999
44.215053 -39.949481 62.397403
45.247856 -45.134766 8.028882
37.886773 -24.509272 63.862569
30.343016 -14.977666 5.048435
37.717368 -24.233067 57.692386
45.953105 -57.672844 26.004448
40.351896 -29.074798 29.870155
45.966732 -52.899998 38.375177
41.943480 -32.751933 31.474231
44.735532 -42.274232 36.533587
44.022501 -39.191355 64.900747
41.910734 -32.668818 3.052603
24.624980 -10.262453 62.332125
45.287808 -45.406254 37.652695
45.486802 -46.845595 52.763074
27.746656 -12.636447 53.763569
44.585808 -41.562605 6.484517
45.941790 -52.255956 8.694140
39.888780 -28.130637 44.228899
45.750583 -49.309654 22.629392
45.919730 -51.776513 8.350622
23.804990 -9.708898 51.057152
33.420544 -18.282935 36.095963
33.037165 -17.835974 56.743264
30.995866 -15.627235 44.243372
45.575320 -47.555585 8.684244
36.175467 -21.873466 15.570458
34.193098 -19.220102 31.006697
38.395673 -25.368051 52.832301
43.689679 -37.961492 21.623082
45.079745 -44.113374 7.257149
35.530694 -20.968596 51.822672
27.867630 -12.737860 47.726519
43.521275 -37.378424 55.628154
45.940021 -52.217512 56.400912
25.230379 -10.688876 60.670142
26.610628 -11.717302 23.543585
28.441128 -13.226508 46.626516
45.312961 -45.577181 44.573832
45.989338 -56.425847 59.784445
29.924810 -14.573235 60.608100
28.077765 -12.914017 59.325132
43.734470 -38.123613 53.728149
37.486126 -23.856039 40.216906
33.094555 -17.902882 25.738145
34.386860 -19.465760 49.494084
39.519871 -27.410226 42.904762
33.104641 -17.914640 55.489784
24.234899 -9.994677 47.852843
45.937681 -52.166669 31.424586
45.939885 -52.214573 62.537807
43.328908 -36.734953 28.259312
45.303137 -45.510420 16.460607
45.928614 -51.969588 54.792835
44.735632 -42.274708 29.119005
45.979777 -56.850288 49.618684
43.427275 -37.063994 28.455967
40.064851 -28.484366 58.004734
38.617915 -25.749175 34.585178
32.834974 -17.600250 38.625742
45.997444 -54.337635 65.089809
45.359481 -45.893302 30.936644
42.986487 -35.657443 18.659805
25.048867 -10.557711 45.721667
34.518577 -19.634411 67.984676
45.671713 -48.463555 7.119825
45.150801 -44.536374 39.194303
45.979273 -53.377793 50.330274
38.975827 -26.394729 29.433316
29.607235 -14.276183 40.057652
43.988877 -39.058971 24.847224
34.652126 -19.805409 67.369649
25.324846 -10.757141 40.879322
36.227421 -21.947039 22.260068
45.994201 -53.946511 62.921080
42.729165 -34.894408 10.960096
45.966846 -57.249089 8.656690
43.805588 -38.381026 6.325699
25.744917 -11.060695 4.087198
27.380753 -12.332032 62.943946
31.313970 -15.949637 59.031312
42.619725 -34.577678 47.682560
33.787341 -18.724406 24.163835
45.527996 -47.171097 37.554509
45.629333 -48.064363 11.546013
29.486285 -14.164609 57.858164
43.397110 -36.963091 9.694284
45.942046 -52.261524 21.007304
45.278269 -45.341432 11.155590
45.912459 -58.573759 34.587996
24.597059 -10.243286 50.095864
45.229678 -45.011236 40.858507
28.095555 -12.928930 7.046046
40.217115 -28.790268 65.494837
25.033026 -10.546264 11.111286
35.839113 -21.399880 21.767497
41.421553 -31.463306 45.278997
44.810659 -42.646777 19.213176
41.265133 -31.089988 43.334412
45.955195 -52.547321 50.226908
44.318308 -40.383013 60.409503
42.748569 -34.950568 12.538754
31.557808 -16.206363 60.898647
36.284133 -22.030835 6.283358
45.921776 -58.394011 44.524331
39.618331 -27.597624 58.507262
45.393365 -46.123558 49.960184
28.978671 -13.699333 28.454481
45.416013 -46.286240 44.769722
40.531998 -29.457308 23.345806
31.252297 -15.887131 62.618055
46.002276 -55.070088 61.068789
35.861066 -21.430790 8.084750
27.805170 -12.685499 46.717701
44.645529 -41.846456 31.731478
27.554572 -12.475421 18.963647
44.326917 -40.420119 44.698476
29.505886 -14.182690 40.806935
42.596512 -34.510495 58.324217
42.449836 -34.096906 53.930236
45.903831 -51.430954 32.251758
45.943809 -57.959495 67.532255
24.682706 -10.302080 18.028494
44.528967 -41.292444 18.578336
42.179451 -33.365156 5.430053
44.960628 -43.440037 41.264512
34.229139 -19.264130 64.155265
33.516640 -18.394968 62.467465
42.166656 -33.330527 57.078292
28.548799 -13.321216 55.472501
45.772560 -49.565341 33.800033
32.326115 -17.033683 62.007981
44.251775 -40.096275 26.001676
45.065558 -44.028916 62.687995
33.413633 -18.274877 53.511601
28.643416 -13.404442 10.660640
30.277492 -14.914300 49.286577
26.090726 -11.322217 44.924711
32.463634 -17.186701 42.521145
45.998762 -54.537348 6.309893
42.945433 -35.529955 59.692638
28.145521 -12.970817 26.616666
43.816800 -38.421607 28.472329
32.074119 -16.754682 39.024119
46.000850 -54.853844 40.031189
44.473649 -41.052502 53.325322
25.887363 -11.167677 23.726244
31.667179 -16.322514 45.201544
42.944057 -35.525681 54.136238
37.439808 -23.782084 50.824731
24.279110 -10.025026 33.539186
45.974686 -53.203025 53.586398
34.879447 -20.096472 4.343715
32.265556 -16.966299 43.146653
43.718782 -38.066830 59.276477
43.048399 -35.849706 58.610909
27.809477 -12.689109 42.334598
43.412973 -37.016152 19.439979
45.978413 -56.892371 19.076061
45.486929 -46.846599 55.817580
26.266608 -11.455873 10.442909
36.482487 -22.323912 34.009704
43.352475 -36.813786 67.230790
45.957287 -52.592774 6.366668
45.409049 -46.231212 64.274404
42.807315 -35.120583 31.123355
30.485392 -15.115353 13.813496
23.226418 -9.332050 35.078627
25.266085 -10.714678 30.093155
45.983467 -53.537573 31.100613
40.755969 -29.936446 46.798763
45.542549 -47.286087 34.351729
32.894543 -17.669699 35.059512
45.940165 -52.220654 21.978503
24.800334 -10.382827 63.866350
45.785838 -49.719826 56.393851
32.752076 -17.507650 33.146736
42.767778 -35.006159 25.862741
33.809828 -18.751877 8.735236
45.252075 -45.163436 13.128346
42.274732 -33.623016 15.251191
26.299972 -11.481228 63.288833
45.998297 -55.734362 35.224128
29.681866 -14.345029 43.672580
23.977052 -9.820970 39.237646
27.765968 -12.652635 21.010962
26.346989 -11.516957 7.105080
42.942342 -35.520357 67.290745
42.403021 -33.970209 67.007422
44.712548 -42.164994 45.057807
32.047256 -16.726153 3.610382
36.421425 -22.233690 15.443444
45.444113 -46.508276 66.960857
25.133300 -10.618724 36.742180
38.653754 -25.813202 4.277491
42.497148 -34.224950 21.525547
44.238519 -40.041874 61.540552
31.954787 -16.627952 4.375642
30.060254 -14.704218 18.109049
31.098201 -15.730953 50.554870
36.027839 -21.665606 43.282185
44.072687 -39.388953 20.415876
41.695598 -32.122757 19.133177
33.610003 -18.507760 22.482333
42.346030 -33.815972 14.840424
45.849663 -50.585993 27.140031
28.687347 -13.443083 38.453012
38.379573 -25.340441 40.862177
45.908310 -58.653806 15.127876
26.500945 -11.633951 36.405476
37.830998 -24.418334 65.950370
43.792834 -38.334864 12.215201
25.710325 -11.035698 29.134303
41.366097 -31.330951 13.331430
37.677133 -24.167465 66.739333
42.279928 -33.637079 56.450427
43.087195 -35.970183 33.586094
27.205817 -12.192355 27.419898
38.757160 -25.999909 17.783600
34.945978 -20.183667 13.642483
23.694800 -9.637127 12.140989
36.705998 -22.654160 21.641930
45.743095 -49.222527 50.348415
34.647692 -19.799731 66.142330
37.738162 -24.266970 22.041646
38.471661 -25.498364 50.047758
45.237335 -45.063270 31.745100
38.921511 -26.296658 66.702123
26.535610 -11.660294 54.632459
45.500217 -46.951594 56.545355
40.579956 -29.559164 29.799963
41.694923 -32.121045 16.039262
42.643601 -34.646776 37.786581
38.817007 -26.107967 36.542502
24.284767 -10.028910 49.857417
41.423490 -31.467927 8.701876
26.604931 -11.712973 14.361974
45.979856 -53.399991 62.431022
35.263764 -20.610267 31.307685
29.921211 -14.569755 27.042120
44.640614 -41.823095 12.499164
35.140634 -20.444976 66.721173
38.259573 -25.134653 39.969961
33.704192 -18.622826 27.068967
45.838800 -50.421166 58.827267
45.950464 -52.444493 20.329042
32.833855 -17.598946 5.060256
45.985545 -53.616734 31.447910
45.068412 -44.045906 53.335586
42.784603 -35.054855 43.629705
45.963679 -52.783673 12.363460
24.502309 -10.178244 59.174724
30.614129 -15.240338 9.269482
40.012767 -28.379729 13.645033
36.162675 -21.855454 13.093409
37.931391 -24.582020 39.176094
30.892120 -15.522087 47.037026
44.618174 -41.716441 53.887296
45.836236 -50.382272 32.075603
45.558158 -47.409427 3.444578
38.031208 -24.744766 53.373579
45.791438 -49.784983 17.301849
32.038718 -16.717086 23.467635
45.509429 -47.024388 38.391543
45.967858 -52.942889 52.961713
44.382422 -40.659330 12.761658
45.996643 -54.216135 22.691737
27.661097 -12.564722 23.866236
29.894285 -14.543716 46.908141
28.033033 -12.876518 56.018975
27.629480 -12.538217 55.038654
30.950652 -15.581409 61.039013
35.265001 -20.611927 5.670277
38.039164 -24.757737 9.738548
43.840901 -38.508844 34.360320
23.581182 -9.563123 10.694239
36.227692 -21.947440 45.774764
45.798771 -49.870301 15.523470
43.860839 -38.581009 4.245314
41.894797 -32.628366 23.155442
44.703285 -42.120964 38.093373
27.220554 -12.204122 66.748280
42.865158 -35.287988 46.547198
32.925788 -17.706126 48.604483
34.716766 -19.888173 53.655681
44.707642 -42.141676 20.049855
45.132768 -44.429022 54.305804
34.839386 -20.045177 66.528797
42.464651 -34.137000 17.458022
35.700239 -21.204346 35.204073
39.642055 -27.642778 8.687439
32.825294 -17.589120 51.111420
45.111348 -44.301510 40.864510
36.570589 -22.454087 5.401206
40.411363 -29.201098 65.023816
45.953396 -52.508208 3.639074
43.671218 -37.894670 11.213722
42.817155 -35.149064 45.793927
43.816488 -38.420480 50.862727
32.297705 -17.002071 37.064273
45.434769 -46.434443 46.615644
41.925193 -32.705517 5.502171
45.979268 -56.865988 54.225922
45.299205 -45.483706 52.083917
45.995030 -55.986563 63.092738
45.995046 -55.985319 44.291986
41.777624 -32.330955 31.291801
45.098024 -44.222187 48.106059
33.382433 -18.238503 61.272639
28.259881 -13.067082 36.077258
39.988680 -28.331337 45.303024
44.632177 -41.782994 65.766134
41.675293 -32.071218 59.024791
35.974732 -21.590831 23.609958
33.065037 -17.868468 43.301665
45.701235 -48.741639 11.265392
42.470596 -34.153089 27.398791
45.199089 -44.823838 27.113361
30.125437 -14.767254 3.146600
45.522204 -47.125326 40.751981
44.991664 -43.604199 8.090891
45.552321 -47.363310 64.471116
32.362045 -17.073663 25.736878
45.822715 -50.177124 58.529866
34.870548 -20.085077 40.821926
42.249999 -33.556082 61.380359
39.815472 -27.983359 58.464751
45.775173 -49.595749 52.851657
30.981239 -15.612410 39.501307
37.304423 -23.572030 45.658833
40.947916 -30.368167 25.452979
43.882675 -38.660046 62.892852
30.249276 -14.887014 25.371440
44.197938 -39.882096 49.711663
25.443420 -10.842826 21.637054
36.240476 -21.966329 64.837553
37.590326 -24.025931 17.816832
30.470312 -15.100769 36.119461
45.953871 -52.518530 41.623348
28.131991 -12.959475 11.243986
31.583640 -16.233796 37.139405
45.269994 -45.285201 35.955786
45.878135 -51.017983 64.648986
45.967172 -57.239024 66.652009
45.721297 -48.968918 31.537114
45.884700 -51.117585 43.662434
42.659992 -34.694213 13.700415
44.745441 -42.321330 22.464054
45.462802 -46.655949 37.044675
45.895605 -51.283047 62.916398
45.074298 -44.080946 17.198269
42.887180 -35.351723 38.814818
38.899214 -26.256400 10.420345
45.157593 -44.576806 21.090000
30.290317 -14.926704 30.367286
44.705802 -42.132930 16.755153
27.694393 -12.592634 13.610187
26.614133 -11.719965 33.010032
40.509893 -29.410361 36.385204
45.941437 -52.248283 35.740753
45.996273 -54.160076 46.935190
28.002527 -12.850944 13.806257
45.968081 -52.951374 44.648113
44.563081 -41.454588 12.299243
38.276754 -25.164116 53.844910
25.235653 -10.692687 56.072486
26.568037 -11.684936 6.645175
45.990556 -56.331887 3.393315
23.430740 -9.465134 5.612386
43.853360 -38.553937 51.643664
36.512365 -22.368059 64.248839
45.318301 -45.613467 14.482538
40.288839 -28.940876 6.690779
24.028446 -9.854445 52.188786
38.115644 -24.887827 63.215752
44.803355 -42.608143 5.877055
42.904577 -35.403081 55.549136
39.490122 -27.353605 7.430774
40.191441 -28.738687 10.427291
40.651781 -29.711708 43.079021
38.821486 -26.116055 9.241200
45.630194 -48.072476 22.412996
23.212233 -9.322811 38.127106
45.878946 -59.220312 3.132284
45.964640 -52.820312 26.366015
38.566229 -25.660538 65.475400
36.394769 -22.194305 42.738742
25.659709 -10.999122 55.397714
35.117063 -20.413334 61.453477
43.315664 -36.690653 49.154314
26.443080 -11.589978 42.139246
45.742208 -49.212206 14.300979
36.482072 -22.323298 16.396910
43.124200 -36.085097 6.144042
34.331848 -19.395321 15.227647
45.963634 -52.781984 25.981343
39.760449 -27.872817 6.793953
43.980582 -39.026312 52.956679
42.400060 -33.962197 60.724899
30.616513 -15.242755 28.090962
24.314443 -10.049281 65.089045
41.059330 -30.618758 13.073329
34.092942 -19.097745 9.872248
24.028494 -9.854476 58.414324
45.995365 -54.022478 43.932997
26.011976 -11.262373 61.114030
27.267707 -12.241771 9.312902
41.492112 -31.631702 21.184823
45.894739 -58.915611 3.881226
45.914150 -51.655233 26.111606
29.138031 -13.843352 65.132135
40.294510 -28.952920 25.961156
28.140277 -12.966421 38.085153
45.206322 -44.866895 16.892056
31.278079 -15.913262 54.991540
42.830632 -35.188066 17.472570
35.649569 -21.133004 23.618898
44.560533 -41.442475 19.327830
42.764203 -34.995813 20.939892
31.527023 -16.173669 34.189939
36.166835 -21.861311 38.791272
45.362806 -45.915901 45.718972
45.337626 -45.744788 49.750955
45.081148 -44.121727 18.941563
38.591763 -25.704326 38.240282
34.698197 -19.864398 35.587536
31.812993 -16.477368 60.870901
42.045206 -33.010133 58.005086
45.598962 -47.778285 56.908102
41.117171 -30.748852 51.192198
35.636756 -21.114962 64.702376
45.959211 -57.484528 34.204954
44.665569 -41.941706 41.588553
44.440052 -40.907703 56.762681
41.431402 -31.486811 10.873379
36.523170 -22.384024 25.711862
32.241225 -16.939226 32.212479
41.959565 -32.792760 37.555964
44.217784 -39.960236 5.795834
31.200558 -15.834693 28.871321
45.605114 -47.836228 67.577686
25.982465 -11.239947 65.456265
33.493350 -18.367814 10.049272
24.391882 -10.102440 19.382551
42.593402 -34.501496 9.880592
34.634095 -19.782321 30.130226
39.583683 -27.531679 46.822465
38.106594 -24.872308 57.544196
33.510348 -18.387632 43.609203
33.860933 -18.814309 49.197709
35.729661 -21.245772 44.167654
38.706544 -25.908518 49.254437
40.325520 -29.018780 36.042995
39.157825 -26.723343 53.029139
44.838111 -42.791986 59.076232
41.212013 -30.963210 44.944822
45.703604 -48.763959 64.577359
45.699903 -48.729098 35.005018
44.639634 -41.818440 44.473832
45.665021 -48.400529 18.200323
44.317458 -40.379352 18.400859
43.292522 -36.613242 39.765286
40.885482 -30.227742 58.033627
25.509854 -10.890832 55.839851
45.457494 -46.614008 20.735080
35.306689 -20.667889 50.298587
32.088867 -16.770344 66.500043
43.076507 -35.936993 63.418762
31.971366 -16.645559 35.560117
44.199041 -39.886440 52.488554
28.440154 -13.225651 3.318594
35.804042 -21.350500 36.517995
38.689803 -25.878290 11.645479
45.903373 -51.421008 9.478852
45.976598 -56.948351 6.514507
32.296695 -17.000948 7.674357
45.782895 -49.685589 65.316243
45.995940 -54.109532 13.118779
45.698900 -48.719653 22.805162
29.794061 -14.448526 49.896670
30.179288 -14.819331 16.192359
33.090059 -17.897640 9.118015
45.822707 -50.177000 38.066984
44.377447 -40.637893 50.938726
45.954930 -57.616560 4.371986
38.479569 -25.511924 7.826302
32.643971 -17.387362 46.206816
41.603447 -31.897419 64.179071
36.975148 -23.061150 31.202046
36.888564 -22.926813 29.260691
39.930880 -28.215216 62.357397
43.830434 -38.470955 37.307152
29.044008 -13.756805 30.801012
45.240843 -45.087107 13.471276
31.733459 -16.392903 21.147356
40.327312 -29.022585 51.991892
31.869976 -16.537883 26.867922
44.660142 -41.915908 62.786483
42.820696 -35.159309 32.495850
45.228909 -45.006012 58.877747
42.725225 -34.883008 62.652274
41.348768 -31.289594 36.792941
40.575780 -29.550293 28.850804
32.489451 -17.215427 54.468844
45.826148 -50.229201 43.507229
42.813668 -35.138969 9.755382
45.905314 -58.711601 7.320655
45.472853 -46.735371 39.751626
36.138303 -21.821138 4.690245
25.876878 -11.159709 41.565743
33.682642 -18.596499 20.677585
40.375861 -29.125696 50.593038
44.646428 -41.850729 26.960190
33.287511 -18.127838 42.892035
40.970649 -30.419297 64.995702
25.635713 -10.981781 9.239534
45.946222 -57.885091 43.711144
43.455850 -37.159578 63.683431
43.578808 -37.570874 45.607422
44.695372 -42.083356 31.393674
30.459841 -15.090643 57.073214
45.314834 -45.589911 29.391947
35.494630 -20.920183 26.785004
38.448390 -25.458456 20.128454
44.897700 -43.107182 3.152750
45.954355 -57.634286 67.233214
45.837737 -50.405037 37.337059
31.756320 -16.417181 32.727159
26.437549 -11.585776 22.290714
39.743144 -27.838052 36.782495
42.973600 -35.617426 28.092711
25.200090 -10.666989 33.978806
45.944683 -52.318841 4.974651
28.220413 -13.033600 27.268846
45.572512 -47.529132 27.080061
34.386908 -19.465821 54.497882
43.900537 -38.724697 13.343261
25.303608 -10.741793 28.831006
26.959423 -11.995622 52.809881
41.618570 -31.933511 66.711963
34.450386 -19.547098 3.211519
46.001375 -54.933441 12.279604
36.994894 -23.091787 3.885550
36.806451 -22.802586 36.807245
26.493203 -11.628068 28.543921
34.059068 -19.056363 56.839331
37.268378 -23.516105 11.330286
42.525640 -34.305385 22.950826
44.238499 -40.041796 9.365085
38.048940 -24.773677 45.353171
45.911432 -51.596158 28.936936
37.503193 -23.883866 53.914340
41.498627 -31.647252 54.108021
41.631116 -31.963453 31.475458
44.356057 -40.545706 17.901169
45.359809 -45.895530 65.240241
45.976349 -53.266363 7.888163
32.625349 -17.366641 23.613662
39.699626 -27.752352 16.726468
44.886395 -43.047386 49.886891
44.327112 -40.420957 3.068995
26.960014 -11.996094 53.494371
45.949848 -52.431102 62.024420
45.666428 -48.413775 11.153562
43.766059 -38.237949 67.431791
45.166526 -44.629985 47.153811
23.227516 -9.332765 9.457670
45.983399 -53.534951 17.763406
45.481504 -46.803730 32.780391
38.612656 -25.740156 58.415389
43.639562 -37.780092 11.743937
34.975486 -20.223280 9.978242
27.805799 -12.686026 43.181235
32.252584 -16.951865 42.764578
25.894787 -11.173319 41.195947
41.983859 -32.854423 49.183130
41.863273 -32.548352 66.462830
41.850458 -32.515824 54.174831
32.596210 -17.334218 9.080046
39.846624 -28.045945 21.653126
42.110562 -33.178717 8.080793
44.879288 -43.009791 55.444252
44.013344 -39.155302 38.163427
45.956745 -57.560580 8.878706
45.330025 -45.693136 9.434967
44.329250 -40.430172 41.971026
42.569361 -34.431919 15.967757
44.967959 -43.478817 66.432266
45.998464 -55.721496 18.410874
42.119984 -33.204217 37.471960
40.671354 -29.753279 15.709839
44.926919 -43.261735 67.482075
36.407150 -22.212598 17.690751
45.932286 -52.049407 61.337679
44.734488 -42.269273 56.322346
24.422623 -10.123543 35.819043
41.100487 -30.711327 9.576371
46.001656 -54.976093 65.226784
34.431960 -19.523506 60.736100
33.094978 -17.903374 8.111559
45.502390 -46.968766 45.206864
45.787236 -49.736086 19.061190
38.092980 -24.848961 35.043261
34.148209 -19.165262 32.370579
45.881917 -59.162991 8.262323
32.670681 -17.417082 35.586641
41.564578 -31.804652 34.693796
23.229137 -9.333821 66.918592
35.987303 -21.608531 36.686778
43.140536 -36.135828 61.085982
39.727255 -27.806129 38.471279
38.540442 -25.616315 33.536781
40.888398 -30.234301 37.257244
44.449783 -40.949645 62.912696
43.054720 -35.869336 45.961538
45.560532 -47.428185 57.173769
45.982748 -56.758689 44.488603
30.033809 -14.678644 59.730596
41.951802 -32.773055 22.765947
42.791225 -35.074018 5.656603
38.487916 -25.526239 18.795108
34.715861 -19.887015 5.737042
43.367641 -36.864516 52.628375
43.519805 -37.373506 23.841558
24.970005 -10.500723 5.540417
31.338201 -15.974196 41.398477
44.732302 -42.258884 61.821540
43.474863 -37.223177 22.607141
30.543086 -15.171147 32.494067
45.633601 -48.104563 56.884050
42.578626 -34.458732 63.013856
35.110523 -20.404555 65.930515
32.084755 -16.765977 37.278328
39.553765 -27.474737 37.055921
45.959830 -52.648041 46.579825
36.079875 -21.738873 4.353897
40.598743 -29.599063 12.977762
44.844467 -42.825604 30.278285
44.941302 -43.337810 43.140584
27.640764 -12.547676 35.078935
45.848722 -50.571718 5.298318
31.559181 -16.207821 49.070355
36.748483 -22.716934 59.766737
46.001427 -54.941274 5.668700
26.505527 -11.637433 4.036223
42.331348 -33.776240 6.670927
39.931376 -28.216213 56.799957
24.265064 -10.015385 51.718071
29.513240 -14.189474 8.802760
34.571822 -19.702586 58.371247
44.691668 -42.065752 27.434803
29.306634 -13.998884 60.617605
45.996746 -54.231834 39.720049
41.761030 -32.288838 40.829435
38.832026 -26.135086 45.489965
29.855546 -14.506253 63.846324
24.811972 -10.390816 28.061559
34.044209 -19.038209 35.227863
45.786434 -49.726757 58.940467
32.007716 -16.684162 9.658263
45.852672 -50.631642 9.788020
44.693674 -42.075286 63.279861
29.468439 -14.148147 30.163470
38.462061 -25.481900 13.750913
25.037609 -10.549576 35.616427
35.454548 -20.866377 66.776145
24.749104 -10.347660 60.901531
30.285745 -14.922282 38.621383
24.668727 -10.292484 17.306088
45.999587 -54.662384 64.044950
25.843664 -11.134469 46.980020
31.455400 -16.097606 47.922131
40.772607 -29.973867 21.847059
45.987936 -56.534072 48.372538
41.066716 -30.635368 41.992487
34.977260 -20.225661 50.889411
45.525509 -47.151444 38.000489
42.331919 -33.777783 20.024050
45.856695 -50.692685 17.614738
24.034383 -9.858312 43.563880
45.964346 -57.326164 29.979555
45.984364 -53.571720 29.914040
45.979208 -56.867833 24.174021
41.634541 -31.971628 63.633232
44.696165 -42.087126 36.867147
45.731974 -49.093144 24.267215
42.226193 -33.491654 57.421818
35.732791 -21.250179 16.970091
32.427498 -17.146492 47.639270
40.826735 -30.095611 22.195199
45.974480 -53.195158 13.425037
41.866215 -32.555819 37.190148
45.834631 -50.357915 4.108581
44.731846 -42.256716 25.205335
45.999819 -54.697523 19.946455
45.832592 -50.326983 12.257466
45.968496 -52.967183 43.323612
31.469283 -16.112350 33.789820
36.052874 -21.700855 21.053939
37.445417 -23.790787 28.372759
33.984934 -18.965796 52.687187
39.460967 -27.298114 30.788181
46.001822 -55.462274 29.634672
44.048384 -39.293266 40.194146
24.423532 -10.124167 6.038071
38.996583 -26.432207 16.747531
40.697175 -29.808118 64.593074
45.882098 -59.159503 11.312872
45.549040 -47.337382 16.668735
45.996386 -54.177180 9.124067
23.298163 -9.378781 10.491989
34.061186 -19.058950 30.289027
28.572631 -13.342179 60.904533
28.391479 -13.182836 9.930688
35.397007 -20.789133 38.531173
45.965441 -57.292405 20.932233
45.997682 -54.373704 5.248223
36.242220 -21.968906 52.426448
42.359607 -33.852717 52.580537
32.706430 -17.456860 36.369923
40.696531 -29.806751 35.187504
45.886041 -59.083420 12.219542
23.513926 -9.519316 40.659633
45.927084 -58.291596 52.888208
44.150888 -39.696849 17.439430
40.436418 -29.254310 48.753885
45.428507 -46.384959 35.194322
44.992683 -43.609590 14.021896
31.353321 -15.989521 60.126045
45.917570 -51.729554 31.886789
44.545099 -41.369121 42.315510
45.983002 -53.519853 35.549998
33.389293 -18.246501 4.009725
43.480278 -37.241289 52.964206
35.890139 -21.471725 18.247204
33.857174 -18.809718 62.416202
38.252027 -25.121712 48.761199
44.507036 -41.196390 64.426406
32.482693 -17.207908 63.553515
24.721130 -10.328456 44.564052
35.918118 -21.511120 16.639364
45.547995 -47.329125 11.986073
39.517324 -27.405377 16.912893
46.002805 -55.386429 39.017563
45.950022 -52.434877 36.394157
33.585144 -18.477391 35.786025
41.218398 -30.978450 18.168898
44.056401 -39.324831 51.788573
34.137929 -19.152703 48.357063
24.458112 -10.147904 37.948026
45.005586 -43.677842 59.332999
41.476689 -31.594894 55.218799
44.947998 -43.373230 50.612376
39.249173 -26.895007 63.435955
35.711309 -21.219933 39.572413
29.293874 -13.987113 21.866868
44.209691 -39.928369 12.176289
45.913545 -51.642090 35.299748
42.985882 -35.655565 25.202246
43.620784 -37.712126 17.714012
33.490040 -18.363956 60.143843
45.920339 -51.789744 58.878740
33.206652 -18.033569 65.522277
23.675220 -9.624374 7.506181
41.497847 -31.645390 28.183390
45.784212 -49.700908 27.975401
45.403300 -46.191073 56.554540
45.878904 -51.029651 65.880853
27.536085 -12.459923 18.613391
45.976841 -56.940841 18.325388
40.690619 -29.794194 35.549184
40.351575 -29.074118 30.365611
45.722822 -48.986658 32.979871
28.525449 -13.300677 58.164420
24.872348 -10.432262 64.456224
35.185570 -20.505298 31.736946
37.221321 -23.443095 9.015202
34.334825 -19.399133 5.364338
41.678202 -32.078602 31.926618
44.402020 -40.743795 3.330375
41.609497 -31.911858 48.534826
41.559305 -31.792067 52.013669
44.045584 -39.282240 44.219564
33.006903 -17.800693 5.308807
27.024171 -12.047321 28.400102
32.492939 -17.219309 8.330631
42.586226 -34.480725 32.381698
43.057454 -35.877824 56.339261
37.475175 -23.838185 3.272789
43.662613 -37.863526 9.040598
42.221126 -33.477940 9.833544
31.804260 -16.468093 41.387860
34.754370 -19.936321 9.919911
34.246085 -19.285511 10.379917
28.083124 -12.918509 14.403268
36.303532 -22.059498 23.027245
44.509202 -41.205727 9.365904
41.334711 -31.256046 49.855015
27.014644 -12.039713 34.907613
27.152619 -12.149879 48.512416
31.850552 -16.517255 63.268350
35.637258 -21.115669 49.130182
41.306072 -31.187694 61.009767
44.810656 -42.646764 33.320366
38.112330 -24.882145 47.029344
36.816651 -22.817657 32.540526
45.723047 -48.989273 48.592843
37.569554 -23.992065 53.598809
30.404515 -15.037140 10.302379
26.582335 -11.695802 41.442781
39.158467 -26.724502 10.804212
44.230907 -40.011901 63.839585
43.687042 -37.951947 56.889633
42.060201 -33.048195 26.977330
45.913147 -58.560476 17.452789
26.531001 -11.656792 45.702790
38.892504 -26.244283 19.684803
25.678914 -11.013000 17.267718
38.987123 -26.415126 15.098013
45.997250 -54.308168 49.854689
45.639960 -48.164459 59.842756
29.230242 -13.928414 11.931674
45.177599 -44.695904 62.713201
45.403323 -46.191227 45.178834
33.436911 -18.302016 33.787729
29.042954 -13.755877 20.535756
45.979029 -53.368474 65.014709
45.992616 -56.172822 10.737905
38.657044 -25.819141 12.986445
32.620008 -17.360698 45.639433
40.801891 -30.039732 53.802971
35.013418 -20.274199 15.344676
44.176124 -39.796208 45.144333
43.525266 -37.391775 23.074807
35.114894 -20.410422 9.371092
33.431954 -18.296236 5.306993
36.529379 -22.393197 30.402520
41.015411 -30.519975 18.370374
24.571923 -10.226031 41.305623
45.298490 -45.478848 40.394850
45.989237 -56.433661 22.834899
44.975805 -43.520315 51.944475
34.417958 -19.505577 27.396384
44.731605 -42.255571 25.595146
43.020572 -35.763292 66.647813
44.926725 -43.260710 16.239814
45.920305 -51.789005 62.378454
29.589636 -14.259948 20.875896
45.987486 -56.568812 11.715057
42.222251 -33.480985 55.972159
45.716206 -48.909685 24.973074
45.975841 -56.971688 17.991641
45.755053 -49.361651 20.916982
26.124366 -11.347781 19.143781
44.588555 -41.575664 36.192155
42.849781 -35.243485 67.128309
41.215273 -30.970991 16.016566
40.629141 -29.663623 20.137292
37.382382 -23.692985 28.815963
34.422324 -19.511167 64.914049
45.359793 -45.895421 47.118737
46.003517 -55.258058 43.046214
45.904682 -51.449444 3.045065
44.592850 -41.596077 64.128972
34.320306 -19.380544 23.542516
35.430883 -20.834608 8.611422
41.670732 -32.059641 31.009253
37.481251 -23.848092 33.873467
34.272746 -19.319647 40.591055
45.849019 -50.576219 39.831768
26.135630 -11.356340 41.406659
45.802470 -49.913332 64.890054
35.809356 -21.357982 48.085062
43.229854 -36.413195 59.657766
39.544008 -27.456166 37.700662
45.943784 -57.960279 12.039046
29.564511 -14.236771 15.029366
40.912527 -30.288571 60.713846
34.560212 -19.687721 23.613966
42.716360 -34.857349 40.569838
46.001715 -54.984963 25.403550
45.510855 -47.035652 62.635011
42.690864 -34.783561 7.257962
46.000679 -55.550490 34.693111
42.402058 -33.967604 27.114183
32.849480 -17.617163 39.601102
43.790294 -38.325669 9.446891
25.340949 -10.768777 64.126475
29.810616 -14.463798 40.444733
32.042076 -16.720653 44.608980
45.957801 -57.528018 49.781264
30.911613 -15.541843 19.877428
42.960693 -35.577343 26.943263
42.673806 -34.734194 52.880660
45.568925 -47.495352 30.429683
36.316691 -22.078940 3.872057
26.260253 -11.451044 66.382782
42.483669 -34.188470 43.379052
43.554668 -37.490127 27.305391
43.914796 -38.776308 26.132404
43.413411 -37.017617 43.139620
42.168863 -33.336500 34.361612
31.909267 -16.579611 47.110762
45.205644 -44.862857 37.511932
45.990015 -53.787033 12.082188
45.826148 -50.229204 7.789494
43.678600 -37.921391 37.805984
45.978198 -56.899009 53.864880
44.792868 -42.552672 12.078944
30.461843 -15.092579 23.291060
42.245189 -33.543063 38.205436
45.915525 -58.514603 16.647205
45.423320 -46.343971 28.583160
38.890743 -26.241104 67.198554
34.121974 -19.133212 63.856434
46.003446 -55.247320 29.996601
39.649513 -27.656973 28.934624
34.145988 -19.162549 49.310423
27.288635 -12.258481 21.216170
45.875645 -50.980208 41.370455
36.564284 -22.444772 14.774601
45.648553 -48.245400 6.169143
35.238197 -20.575945 23.200235
45.953401 -52.508328 11.552476
45.734547 -49.123076 63.169129
38.406879 -25.387267 64.916835
44.439634 -40.905904 16.230386
42.291888 -33.669448 26.238788
44.262638 -40.143089 32.407765
45.602252 -47.809275 50.520481
45.231869 -45.026129 4.415214
28.625824 -13.388967 27.582539
45.994584 -56.020918 59.541230
45.201979 -44.841038 41.903633
38.201019 -25.034238 9.546121
32.066793 -16.746902 64.727503
45.824785 -50.208525 21.724861
44.770578 -42.440804 41.440291
45.990470 -53.804345 11.194617
45.469045 -46.705285 26.357832
29.716406 -14.376891 66.144821
44.682303 -42.021240 14.361093
32.236149 -16.933578 64.447959
24.539402 -10.203707 55.104489
27.883446 -12.751118 61.154338
27.808726 -12.688480 25.947354
45.089391 -44.170798 31.742057
43.550791 -37.477158 47.929059
30.644014 -15.270628 67.488583
44.714988 -42.176591 21.744556
34.007836 -18.993774 6.660649
30.667152 -15.294078 29.558403
44.666701 -41.947083 19.767494
44.815776 -42.673846 45.943947
45.947364 -57.849869 7.266418
37.353767 -23.648589 20.543650
27.473398 -12.407373 3.706095
42.779878 -35.041179 38.296691
45.861703 -50.768661 63.885715
44.997599 -43.635592 65.051348
23.213910 -9.323903 66.143450
43.741716 -38.149841 31.685749
43.636744 -37.769892 51.297722
28.096565 -12.929777 50.213922
32.176294 -16.866977 66.813745
31.232710 -15.867280 54.137114
33.158664 -17.977623 22.277037
27.687262 -12.586656 55.853544
37.344773 -23.634634 54.969259
44.361113 -40.567494 8.058032
40.176003 -28.707673 55.551301
45.673621 -48.481529 37.008646
35.691647 -21.192249 5.585760
32.537258 -17.268622 49.265522
29.937016 -14.585039 38.259861
41.247059 -31.046852 19.477029
45.982504 -53.500885 58.172326
29.475577 -14.154731 66.538992
44.862298 -42.919924 48.167584
45.066073 -44.031980 12.397052
41.124280 -30.764841 8.817073
45.496171 -46.919627 63.903835
44.200743 -39.893141 41.838641
43.545818 -37.460523 22.205691
43.206925 -36.341991 47.218829
29.862608 -14.513082 67.201469
30.873508 -15.503223 10.062563
45.883197 -51.094792 65.154482
39.486579 -27.346862 15.893499
45.783724 -49.695228 38.143612
43.469295 -37.204549 43.737773
35.014642 -20.275843 20.859479
