-38.922060 -20.513507 62.409449 8.00000000
-61.797102 -16.584580 39.262090 8.00000000
-51.389190 -19.594991 20.035752 8.00000000
-65.050760 -15.212650 15.265710 8.00000000
-73.295343 -10.725644 12.633122 8.00000000
-24.281666 -17.511712 38.370486 8.00000000
-34.665745 -20.133262 49.210837 8.00000000
-69.354677 -13.055127 14.634832 8.00000000
-73.295683 -10.725423 8.540427 8.00000000
-54.575109 -18.893366 50.605521 8.00000000
-50.266138 -19.797704 59.691338 8.00000000
-35.115930 -20.191414 42.325798 8.00000000
-26.028706 -18.136950 13.424907 8.00000000
-50.073237 -19.830748 58.361742 8.00000000
-61.872963 -16.554501 40.680454 8.00000000
-27.872681 -18.711813 33.229890 8.00000000
-66.112426 -14.716470 44.246251 8.00000000
-73.134199 -10.828707 56.683983 8.00000000
-67.252440 -14.158341 21.246716 8.00000000
-42.609068 -20.552012 51.855210 8.00000000
-58.782124 -17.669188 34.712694 8.00000000
-60.297738 -17.147973 25.904112 8.00000000
-23.800331 -17.323133 56.539412 8.00000000
-63.343712 -15.956974 64.982373 8.00000000
-62.634497 -16.252548 40.946279 8.00000000
-57.496335 -18.078284 42.721906 8.00000000
-64.799271 -15.324306 54.241982 8.00000000
-34.387873 -20.094260 31.312518 8.00000000
-60.352230 -17.128896 14.053899 8.00000000
-28.754919 -18.957462 51.699022 8.00000000
-65.836061 -14.845854 47.915267 8.00000000
-23.135315 -17.053580 18.322010 8.00000000
-55.970678 -18.523648 55.151745 8.00000000
-34.569933 -20.119814 55.404179 8.00000000
-23.161761 -17.064680 46.238655 8.00000000
-48.915870 -20.010878 39.263378 8.00000000
-72.362634 -11.308167 61.156345 8.00000000
-25.589998 -17.988754 14.820224 8.00000000
-65.285958 -15.103393 66.146027 8.00000000
-36.625071 -20.353915 40.582137 8.00000000
-32.338447 -19.763071 3.523996 8.00000000
-43.901957 -20.503994 61.488832 8.00000000
-54.281125 -18.965746 27.859654 8.00000000
-60.234359 -17.170161 28.339606 8.00000000
-51.224544 -19.626812 36.353492 8.00000000
-57.153739 -18.182613 37.581880 8.00000000
-42.492329 -20.554092 4.253659 8.00000000
-27.979583 -18.742385 39.883316 8.00000000
-38.935373 -20.514159 3.763006 8.00000000
-27.064819 -18.470635 46.879713 8.00000000
-65.733740 -14.893757 49.726361 8.00000000
-42.455341 -20.554751 26.591470 8.00000000
-21.110373 -16.151803 11.931915 8.00000000
-35.623190 -20.250855 20.428509 8.00000000
-24.815424 -17.710580 5.586641 8.00000000
-52.166947 -19.443136 64.464943 8.00000000
-36.912149 -20.380969 57.403756 8.00000000
-62.569624 -16.278270 62.734013 8.00000000
-40.470687 -20.564286 28.352001 8.00000000
-25.340521 -17.901978 55.470301 8.00000000
-41.020032 -20.566966 18.486451 8.00000000
-26.189598 -18.191299 42.537396 8.00000000
-28.619599 -18.922175 67.991357 8.00000000
-49.897300 -19.860887 27.790042 8.00000000
-56.913352 -18.255817 32.392051 8.00000000
-61.394778 -16.740354 11.366993 8.00000000
-28.246275 -18.818652 53.403972 8.00000000
-41.616215 -20.569542 35.509144 8.00000000
-71.588866 -11.776798 23.635264 8.00000000
-56.857537 -18.272814 27.366416 8.00000000
-68.965410 -13.266451 50.750718 8.00000000
-23.532546 -17.218219 6.886068 8.00000000
-64.790787 -15.328072 62.077520 8.00000000
-64.961785 -15.252153 41.862821 8.00000000
-48.067778 -20.126568 5.068238 8.00000000
-25.428737 -17.934133 54.939054 8.00000000
-52.637572 -19.341811 13.896713 8.00000000
-34.103906 -20.054402 58.527428 8.00000000
-52.369071 -19.399619 7.484411 8.00000000
-37.392363 -20.419795 14.313000 8.00000000
-38.108439 -20.470998 35.739023 8.00000000
-49.363107 -19.944065 56.687538 8.00000000
-35.524095 -20.239243 64.238410 8.00000000
-56.975466 -18.236902 50.904119 8.00000000
-45.213682 -20.420241 19.965621 8.00000000
-24.927693 -17.751502 27.660162 8.00000000
-26.443859 -18.277120 9.232257 8.00000000
-72.847745 -11.006713 46.720202 8.00000000
-69.029969 -13.231403 20.760179 8.00000000
-72.874531 -10.990067 41.953993 8.00000000
-51.083415 -19.654088 56.281775 8.00000000
-30.113994 -19.297469 49.323627 8.00000000
-64.257617 -15.564788 23.494504 8.00000000
-64.022321 -15.669254 34.001572 8.00000000
-48.144015 -20.116848 47.224338 8.00000000
-63.059846 -16.076226 61.668177 8.00000000
-57.249967 -18.153309 24.046655 8.00000000
-20.738941 -15.974385 67.789598 8.00000000
-63.583032 -15.856437 11.631439 8.00000000
-59.776201 -17.330554 12.857695 8.00000000
-22.425041 -16.753632 63.592360 8.00000000
-40.111938 -20.554754 4.434769 8.00000000
-56.708450 -18.315586 4.307375 8.00000000
-24.788130 -17.700631 41.593747 8.00000000
-51.970941 -19.482558 29.117201 8.00000000
-47.042180 -20.249478 59.675893 8.00000000
-70.117187 -12.631628 36.067313 8.00000000
-55.067723 -18.765457 35.707915 8.00000000
-47.937543 -20.143174 42.383000 8.00000000
-65.599893 -14.956420 54.924963 8.00000000
-42.254880 -20.558322 58.269891 8.00000000
-39.711157 -20.544105 30.559117 8.00000000
-63.907624 -15.720076 55.204708 8.00000000
-26.752752 -18.373383 21.149883 8.00000000
-58.756201 -17.677670 44.378283 8.00000000
-28.194401 -18.803818 14.381673 8.00000000
-66.143896 -14.701737 60.238646 8.00000000
-55.223979 -18.724885 37.675327 8.00000000
-52.458315 -19.380405 61.742645 8.00000000
-34.251724 -20.075150 19.703895 8.00000000
-27.314539 -18.548457 58.391607 8.00000000
-50.465696 -19.763519 6.846797 8.00000000
-70.111472 -12.634878 40.598730 8.00000000
-54.593377 -18.888622 35.062275 8.00000000
-67.964645 -13.793992 24.003162 8.00000000
-71.830602 -11.633024 48.212017 8.00000000
-72.148903 -11.440981 25.615040 8.00000000
-39.683425 -20.543368 12.971411 8.00000000
-67.846951 -13.854910 48.296788 8.00000000
-70.056317 -12.666239 50.660523 8.00000000
-30.071941 -19.287545 50.225925 8.00000000
-44.092532 -20.492591 67.461775 8.00000000
-60.817836 -16.955655 33.308975 8.00000000
-54.849118 -18.822218 8.308645 8.00000000
-71.674830 -11.725670 44.224139 8.00000000
-36.043679 -20.299125 39.053937 8.00000000
-61.445773 -16.721324 63.675895 8.00000000
-36.684195 -20.359487 15.248036 8.00000000
-62.173990 -16.435142 41.245214 8.00000000
-61.310479 -16.771812 24.258194 8.00000000
-58.064176 -17.904105 16.149293 8.00000000
-43.133453 -20.534624 57.884501 8.00000000
-29.274647 -19.092991 15.883114 8.00000000
-47.805872 -20.159962 34.743346 8.00000000
-68.057867 -13.745742 22.720047 8.00000000
-53.998071 -19.032949 25.383061 8.00000000
-22.678168 -16.861714 63.231892 8.00000000
-26.839351 -18.400370 35.799799 8.00000000
-25.194543 -17.848769 32.242860 8.00000000
-20.526553 -15.870916 59.986044 8.00000000
-63.499792 -15.891405 58.741156 8.00000000
-65.186128 -15.150130 33.777783 8.00000000
-43.905401 -20.503857 55.635848 8.00000000
-28.289509 -18.831016 51.582146 8.00000000
-29.043945 -19.032831 67.513713 8.00000000
-22.303903 -16.699324 40.279451 8.00000000
-24.104240 -17.442200 14.205060 8.00000000
-30.627879 -19.417717 6.560698 8.00000000
-43.369044 -20.525234 10.882741 8.00000000
-53.126137 -19.236623 19.947656 8.00000000
-43.133080 -20.534639 11.744350 8.00000000
-28.988476 -19.018366 56.807936 8.00000000
-56.385677 -18.406612 48.818551 8.00000000
-56.175030 -18.466018 32.844427 8.00000000
-22.589941 -16.824685 66.958185 8.00000000
-26.711379 -18.360489 22.956160 8.00000000
-57.988049 -17.928545 8.782998 8.00000000
-60.782725 -16.968758 31.126577 8.00000000
-27.431634 -18.584948 53.389424 8.00000000
-30.262627 -19.332544 32.217692 8.00000000
-50.099420 -19.826263 11.227460 8.00000000
-65.468784 -15.017801 22.218127 8.00000000
-31.668901 -19.637512 43.401595 8.00000000
-42.309143 -20.557355 4.602734 8.00000000
-40.227102 -20.557814 39.250585 8.00000000
-71.944020 -11.565569 36.171551 8.00000000
-42.963787 -20.541386 24.235553 8.00000000
-56.329859 -18.422354 7.866436 8.00000000
-67.996201 -13.777660 54.471252 8.00000000
-23.984301 -17.395209 19.813332 8.00000000
-21.030993 -16.113887 38.572064 8.00000000
-62.088660 -16.468976 60.984106 8.00000000
-51.208881 -19.629839 38.876683 8.00000000
-42.753175 -20.549445 52.867553 8.00000000
-55.256815 -18.716359 55.193022 8.00000000
-49.215108 -19.966174 59.971859 8.00000000
-63.736054 -15.792152 24.294458 8.00000000
-36.964402 -20.385893 67.164943 8.00000000
-66.672751 -14.443950 64.957835 8.00000000
-51.107277 -19.649476 21.651529 8.00000000
-60.520181 -17.066733 15.624362 8.00000000
-63.648487 -15.828939 3.911929 8.00000000
-29.819843 -19.228055 28.403240 8.00000000
-39.682289 -20.543338 53.135877 8.00000000
-58.827760 -17.654255 54.904667 8.00000000
-61.000545 -16.887472 31.767712 8.00000000
-23.092104 -17.035444 45.681503 8.00000000
-69.739360 -12.846291 67.255454 8.00000000
-39.375089 -20.535176 47.713875 8.00000000
-67.353270 -14.108663 38.523701 8.00000000
-34.083747 -20.051573 7.249600 8.00000000
-26.553166 -18.311184 38.047778 8.00000000
-31.081191 -19.513629 63.040542 8.00000000
-29.503309 -19.152619 5.679912 8.00000000
-35.696562 -20.259453 62.793365 8.00000000
-30.011703 -19.273330 45.600083 8.00000000
-23.099787 -17.038669 42.266368 8.00000000
-49.494049 -19.924504 43.283915 8.00000000
-45.826976 -20.368883 38.535024 8.00000000
-59.799980 -17.322230 26.924326 8.00000000
-56.294746 -18.432256 17.444234 8.00000000
-41.683555 -20.568500 25.188995 8.00000000
-63.175846 -16.027495 35.698542 8.00000000
-34.163609 -20.062782 23.403412 8.00000000
-27.529773 -18.613750 65.394874 8.00000000
-73.025481 -10.896265 53.757847 8.00000000
-70.648519 -12.329520 27.098414 8.00000000
-49.823979 -19.873447 12.893622 8.00000000
-33.381517 -19.943052 45.114937 8.00000000
-47.896665 -20.148386 39.926407 8.00000000
-25.394022 -17.921479 54.125897 8.00000000
-34.217497 -20.070346 13.249149 8.00000000
-53.671029 -19.110596 66.374840 8.00000000
-39.045883 -20.519569 26.093742 8.00000000
-22.534139 -16.801265 35.935159 8.00000000
-23.113863 -17.044577 54.632371 8.00000000
-28.184624 -18.801022 57.239181 8.00000000
-26.947754 -18.434153 27.542124 8.00000000
-47.971959 -20.138786 50.094006 8.00000000
-30.060535 -19.284854 51.134170 8.00000000
-36.501493 -20.342269 67.411655 8.00000000
-44.263195 -20.482039 5.336569 8.00000000
-35.027136 -20.181009 16.100885 8.00000000
-68.831274 -13.339270 30.607209 8.00000000
-43.874309 -20.505096 23.848847 8.00000000
-56.611213 -18.343008 26.549722 8.00000000
-59.504831 -17.425556 38.936535 8.00000000
-56.006650 -18.513503 17.099622 8.00000000
-65.013721 -15.229095 28.690233 8.00000000
-60.107486 -17.214577 59.071766 8.00000000
-37.304100 -20.413484 46.474430 8.00000000
-73.869564 -10.353206 47.872433 8.00000000
-25.418985 -17.930578 56.329233 8.00000000
-38.300491 -20.483077 7.613138 8.00000000
-60.575099 -17.046239 32.908997 8.00000000
-45.028507 -20.434723 14.412161 8.00000000
-43.339849 -20.526398 15.558829 8.00000000
-46.629661 -20.293052 26.998645 8.00000000
-53.001167 -19.263529 22.548175 8.00000000
-68.584837 -13.472988 10.509447 8.00000000
-69.017000 -13.238444 21.900097 8.00000000
-40.905095 -20.566470 44.561837 8.00000000
-32.939488 -19.870648 26.428608 8.00000000
-71.283144 -11.958627 35.492215 8.00000000
-56.729457 -18.309662 27.789732 8.00000000
-63.473598 -15.902410 55.438292 8.00000000
-44.008402 -20.497792 50.853001 8.00000000
-25.031694 -17.789410 49.544291 8.00000000
-43.555460 -20.517805 50.421790 8.00000000
-21.742034 -16.447433 14.318455 8.00000000
-22.894803 -16.952637 12.099117 8.00000000
-46.198587 -20.337764 40.700413 8.00000000
-66.470701 -14.543499 10.755123 8.00000000
-25.981529 -18.121013 12.408009 8.00000000
-53.287561 -19.201639 63.326612 8.00000000
-45.696598 -20.379801 18.097630 8.00000000
-68.424883 -13.555779 15.271982 8.00000000
-46.510243 -20.305666 63.183745 8.00000000
-55.344558 -18.693576 43.234098 8.00000000
-29.207978 -19.075606 6.327788 8.00000000
-40.325714 -20.560434 36.042769 8.00000000
-34.769178 -20.147780 43.495208 8.00000000
-71.096789 -12.069462 66.720305 8.00000000
-63.281354 -15.983171 32.353463 8.00000000
-42.536824 -20.553299 21.911239 8.00000000
-39.800618 -20.546482 26.746691 8.00000000
-58.125327 -17.884097 7.723844 8.00000000
-73.482879 -10.604008 26.470327 8.00000000
-62.828438 -16.173441 12.522586 8.00000000
-46.901623 -20.264325 15.470954 8.00000000
-33.985344 -20.037761 27.327878 8.00000000
-38.894495 -20.512158 17.356698 8.00000000
-62.173223 -16.435446 63.743235 8.00000000
-22.264755 -16.681774 7.746873 8.00000000
-31.803886 -19.662826 64.255792 8.00000000
-20.865498 -16.034836 8.886479 8.00000000
-59.826932 -17.312794 67.550352 8.00000000
-52.983738 -19.267281 10.756664 8.00000000
-21.503834 -16.339743 65.474755 8.00000000
-43.003389 -20.539808 32.417070 8.00000000
-65.614874 -14.949406 13.133768 8.00000000
-55.674213 -18.607255 62.992268 8.00000000
-39.829295 -20.547244 9.336619 8.00000000
-64.645429 -15.392608 11.282292 8.00000000
-32.274484 -19.751076 34.404241 8.00000000
-70.911479 -12.179676 3.562452 8.00000000
-47.507009 -20.198069 50.250743 8.00000000
-23.166566 -17.066697 53.152617 8.00000000
-69.497267 -12.977717 37.452729 8.00000000
-31.452363 -19.592162 28.205041 8.00000000
-71.723684 -11.696614 20.815311 8.00000000
-58.621015 -17.721904 7.549934 8.00000000
-32.088631 -19.716224 60.151474 8.00000000
-19.857621 -15.531223 13.029733 8.00000000
-62.998864 -16.101845 37.354930 8.00000000
-49.695491 -19.894410 59.238953 8.00000000
-63.356655 -15.951537 42.836744 8.00000000
-26.974270 -18.442416 42.005376 8.00000000
-68.332586 -13.603551 14.387011 8.00000000
-27.491656 -18.602849 53.067732 8.00000000
-22.284656 -16.690696 31.611410 8.00000000
-35.369863 -20.221170 3.006975 8.00000000
-29.203889 -19.074539 64.081965 8.00000000
-70.268874 -12.545381 19.085735 8.00000000
-45.403965 -20.404306 35.623124 8.00000000
-22.841468 -16.930252 33.548769 8.00000000
-46.315207 -20.326268 14.148165 8.00000000
-20.724634 -15.967552 29.576322 8.00000000
-62.559142 -16.282427 57.290969 8.00000000
-66.934568 -14.314954 10.860804 8.00000000
-71.872395 -11.608168 46.104193 8.00000000
-49.995790 -19.844015 60.010118 8.00000000
-52.798772 -19.307105 15.885746 8.00000000
-31.745658 -19.651906 67.453716 8.00000000
-68.972904 -13.262382 7.615140 8.00000000
-48.440208 -20.079082 16.727235 8.00000000
-27.233472 -18.523193 37.324898 8.00000000
-58.571424 -17.738130 11.752051 8.00000000
-62.387377 -16.350533 60.727580 8.00000000
-25.321691 -17.895114 49.941938 8.00000000
-30.926675 -19.480937 23.653522 8.00000000
-44.225221 -20.484387 21.133118 8.00000000
-22.234551 -16.668233 36.600942 8.00000000
-42.858596 -20.545579 5.090463 8.00000000
-28.295920 -18.832850 4.316372 8.00000000
-62.567294 -16.279194 41.952006 8.00000000
-57.501614 -18.076676 61.853244 8.00000000
-55.665136 -18.609815 61.771834 8.00000000
-58.590310 -17.731951 43.179229 8.00000000
-31.713550 -19.645885 59.072234 8.00000000
-50.658098 -19.730559 27.252337 8.00000000
-53.192359 -19.222366 58.002955 8.00000000
-50.333296 -19.786199 25.360622 8.00000000
-28.548532 -18.903643 23.928615 8.00000000
-73.589698 -10.534726 50.218793 8.00000000
-41.770701 -20.566948 16.389141 8.00000000
-39.987365 -20.551444 8.509718 8.00000000
-63.385403 -15.939460 11.281675 8.00000000
-43.212513 -20.531473 5.071004 8.00000000
-68.080333 -13.734114 56.837347 8.00000000
-63.087147 -16.064757 44.023988 8.00000000
-36.277351 -20.321146 45.936719 8.00000000
-64.083994 -15.641872 18.364092 8.00000000
-27.399948 -18.575073 48.562833 8.00000000
-72.816932 -11.025860 29.528805 8.00000000
-62.789084 -16.189973 15.011879 8.00000000
-56.036515 -18.505081 14.957131 8.00000000
-25.951678 -18.110930 44.307015 8.00000000
-52.755467 -19.316428 56.497849 8.00000000
-45.473671 -20.398469 37.466454 8.00000000
-64.677038 -15.378574 30.583740 8.00000000
-69.651136 -12.894186 40.115997 8.00000000
-30.775944 -19.449045 38.672843 8.00000000
-40.671575 -20.565461 26.528659 8.00000000
-34.657522 -20.132108 62.223754 8.00000000
-51.640340 -19.546452 66.195183 8.00000000
-21.271364 -16.228702 13.930961 8.00000000
-72.934113 -10.953043 8.607993 8.00000000
-53.187799 -19.223347 59.663614 8.00000000
-29.705681 -19.201114 49.340362 8.00000000
-43.637826 -20.514522 32.638525 8.00000000
-59.304636 -17.495641 56.691434 8.00000000
-72.344742 -11.319285 11.813652 8.00000000
-25.265042 -17.874466 59.873669 8.00000000
-43.481514 -20.520752 25.352928 8.00000000
-49.323323 -19.950008 47.670050 8.00000000
-30.115387 -19.297798 16.141272 8.00000000
-72.353333 -11.313946 31.991283 8.00000000
-61.827327 -16.572596 53.869334 8.00000000
-22.014678 -16.569662 57.167556 8.00000000
-54.971816 -18.790360 35.015482 8.00000000
-66.068729 -14.736927 17.519551 8.00000000
-60.545383 -17.057328 4.639150 8.00000000
-28.885368 -18.991479 53.549759 8.00000000
-73.111950 -10.842533 19.268947 8.00000000
-20.858224 -16.031362 32.123769 8.00000000
-72.017269 -11.522003 9.822841 8.00000000
-31.157343 -19.529742 56.940891 8.00000000
-41.158274 -20.567564 64.201075 8.00000000
-41.955419 -20.563657 42.392321 8.00000000
-36.215160 -20.315285 15.114802 8.00000000
-46.369489 -20.320534 39.260966 8.00000000
-22.085033 -16.601203 7.016531 8.00000000
-40.980107 -20.566794 55.946626 8.00000000
-53.719423 -19.099106 47.648115 8.00000000
-70.777349 -12.256268 34.275532 8.00000000
-54.961917 -18.792930 56.346900 8.00000000
-47.838929 -20.155748 43.834399 8.00000000
-23.439379 -17.181197 48.656647 8.00000000
-52.210129 -19.433839 43.788723 8.00000000
-69.397815 -13.031708 40.363724 8.00000000
-38.018852 -20.464592 48.417931 8.00000000
-30.648224 -19.422022 10.839543 8.00000000
-20.060503 -15.634249 18.927206 8.00000000
-67.701176 -13.930361 21.305377 8.00000000
-59.107873 -17.562600 40.903304 8.00000000
-54.262583 -18.970149 48.158190 8.00000000
-26.262347 -18.215873 9.521948 8.00000000
-66.924569 -14.319881 3.833325 8.00000000
-45.385934 -20.405816 62.973403 8.00000000
-20.957494 -16.078779 37.612061 8.00000000
-52.900274 -19.285251 35.470146 8.00000000
-54.681014 -18.865867 52.208319 8.00000000
-23.536841 -17.219902 13.091819 8.00000000
-41.683819 -20.568496 52.308107 8.00000000
-55.922760 -18.537161 36.671675 8.00000000
-70.038276 -12.676496 22.260712 8.00000000
-56.956383 -18.242713 57.398553 8.00000000
-39.752336 -20.545199 57.273832 8.00000000
-58.654440 -17.710967 12.801390 8.00000000
-52.098480 -19.457877 38.982147 8.00000000
-74.246417 -10.108780 9.025814 8.00000000
-28.226542 -18.813009 7.563382 8.00000000
-43.856523 -20.505805 26.292912 8.00000000
-67.575156 -13.995588 4.743884 8.00000000
-54.546901 -18.900690 60.123407 8.00000000
-30.213849 -19.321033 59.419884 8.00000000
-46.470442 -20.309870 45.535702 8.00000000
-48.116425 -20.120366 50.932852 8.00000000
-59.726363 -17.348002 39.521649 8.00000000
-53.419177 -19.170391 38.353568 8.00000000
-51.726562 -19.529788 48.826610 8.00000000
-68.938320 -13.281157 21.240854 8.00000000
-22.550475 -16.808121 52.578375 8.00000000
-61.546447 -16.683755 26.398165 8.00000000
-65.074595 -15.202068 56.900844 8.00000000
-64.061969 -15.651651 21.909385 8.00000000
-31.589053 -19.621084 12.738546 8.00000000
-73.639355 -10.502519 11.760499 8.00000000
-54.218254 -18.980673 7.227171 8.00000000
-35.053282 -20.184073 66.197712 8.00000000
-59.563833 -17.404901 46.802388 8.00000000
-33.451257 -19.954476 57.172295 8.00000000
-66.914260 -14.324960 43.200732 8.00000000
-22.303375 -16.699088 39.294398 8.00000000
-55.306098 -18.703562 63.033782 8.00000000
-31.584317 -19.620081 50.371752 8.00000000
-72.454305 -11.251201 59.118980 8.00000000
-20.983734 -16.091313 61.544920 8.00000000
-48.398435 -20.084408 38.660573 8.00000000
-43.239186 -20.530410 54.734373 8.00000000
-51.646268 -19.545307 15.798939 8.00000000
-56.194313 -18.460580 6.788617 8.00000000
-51.274921 -19.617076 27.563936 8.00000000
-51.053512 -19.659867 52.008557 8.00000000
-32.595911 -19.811353 57.945526 8.00000000
-73.222068 -10.773170 4.031741 8.00000000
-64.139218 -15.617354 67.536608 8.00000000
-41.365588 -20.568459 67.419067 8.00000000
-30.276642 -19.335851 11.985428 8.00000000
-62.278151 -16.393842 11.432589 8.00000000
-42.574353 -20.552631 35.164678 8.00000000
-26.948282 -18.434317 24.756977 8.00000000
-55.748068 -18.586427 49.893924 8.00000000
-33.857656 -20.019839 17.521589 8.00000000
-57.273196 -18.146235 66.534340 8.00000000
-68.396871 -13.570278 23.933479 8.00000000
-71.128958 -12.050329 42.045817 8.00000000
-26.101991 -18.161705 29.717027 8.00000000
-52.260591 -19.422975 46.610185 8.00000000
-59.005449 -17.596114 56.144979 8.00000000
-51.797040 -19.516167 40.009396 8.00000000
-41.371875 -20.568486 66.926080 8.00000000
-36.427940 -20.335337 39.546087 8.00000000
-58.633089 -17.717953 14.584280 8.00000000
-36.057190 -20.300398 45.380645 8.00000000
-52.416747 -19.389354 14.971987 8.00000000
-34.789033 -20.150567 61.252360 8.00000000
-54.403075 -18.936793 28.199466 8.00000000
-40.983378 -20.566808 53.931604 8.00000000
-63.944853 -15.703648 32.428282 8.00000000
-54.931636 -18.800793 61.394244 8.00000000
-39.590645 -20.540903 4.654121 8.00000000
-22.993880 -16.994220 15.205419 8.00000000
-65.768284 -14.877585 39.187548 8.00000000
-53.875290 -19.062100 35.946164 8.00000000
-24.404902 -17.559994 62.572219 8.00000000
-27.810818 -18.694122 10.647777 8.00000000
-67.199772 -14.184290 49.256299 8.00000000
-39.081065 -20.521291 30.482237 8.00000000
-21.279621 -16.232646 67.049310 8.00000000
-65.871207 -14.829400 5.738254 8.00000000
-40.022720 -20.552383 61.210010 8.00000000
-22.918851 -16.962730 35.582865 8.00000000
-56.121224 -18.481192 7.539949 8.00000000
-34.489624 -20.108542 39.031272 8.00000000
-53.387745 -19.177854 22.484163 8.00000000
-32.879270 -19.860784 59.237440 8.00000000
-20.153720 -15.681586 22.788554 8.00000000
-37.827125 -20.450882 38.255928 8.00000000
-70.317578 -12.517689 47.571995 8.00000000
-71.593171 -11.774237 22.300734 8.00000000
-39.227584 -20.528465 55.577928 8.00000000
-67.159843 -14.203963 40.188129 8.00000000
-59.042603 -17.583957 63.858012 8.00000000
-53.495257 -19.152328 28.776761 8.00000000
-55.496024 -18.654248 30.143589 8.00000000
-66.184714 -14.682627 36.228470 8.00000000
-34.642697 -20.130027 12.634022 8.00000000
-26.894812 -18.417654 10.054120 8.00000000
-41.647824 -20.569137 62.518675 8.00000000
-48.022056 -20.132398 43.146963 8.00000000
-30.397487 -19.364368 52.576858 8.00000000
-29.822746 -19.228740 7.683643 8.00000000
-48.129829 -20.118657 60.953725 8.00000000
-61.234053 -16.800333 15.138085 8.00000000
-39.006293 -20.517631 44.113135 8.00000000
-53.599947 -19.127473 10.963741 8.00000000
-67.032995 -14.266460 29.937782 8.00000000
-47.448862 -20.205483 31.580488 8.00000000
-38.742442 -20.504714 28.163566 8.00000000
-36.440505 -20.336521 46.930121 8.00000000
-29.882259 -19.242784 10.280066 8.00000000
-71.071129 -12.084723 12.425960 8.00000000
-38.171873 -20.475534 23.369166 8.00000000
-49.027056 -19.994268 51.305709 8.00000000
-44.671179 -20.456815 61.779440 8.00000000
-37.132868 -20.401240 11.673554 8.00000000
-54.110197 -19.006328 21.524279 8.00000000
-64.288817 -15.550935 17.421631 8.00000000
-60.606728 -17.034435 21.943624 8.00000000
-31.050550 -19.507146 27.824361 8.00000000
-53.409380 -19.172717 8.799288 8.00000000
-26.771899 -18.379350 31.537921 8.00000000
-36.497771 -20.341918 7.606416 8.00000000
-64.943177 -15.260415 16.748623 8.00000000
-33.158473 -19.906518 66.410822 8.00000000
-43.837757 -20.506553 37.265114 8.00000000
-24.628558 -17.642467 52.395295 8.00000000
-23.632459 -17.257363 52.746902 8.00000000
-26.301211 -18.229002 60.313242 8.00000000
-23.131293 -17.051892 8.767794 8.00000000
-51.690852 -19.536690 10.346484 8.00000000
-26.995666 -18.449084 38.716990 8.00000000
-37.543034 -20.430569 33.164402 8.00000000
-46.485945 -20.308233 29.778907 8.00000000
-27.171709 -18.503945 24.006201 8.00000000
-27.953641 -18.734966 58.694150 8.00000000
-22.763533 -16.897542 61.612508 8.00000000
-23.093601 -17.036073 29.833808 8.00000000
-46.702490 -20.285359 10.430799 8.00000000
-33.483715 -19.959792 54.574479 8.00000000
-68.794715 -13.359117 12.256482 8.00000000
-49.903129 -19.859888 10.224608 8.00000000
-58.477539 -17.768850 60.784764 8.00000000
-72.043399 -11.506463 45.301462 8.00000000
-43.189445 -20.532393 20.478005 8.00000000
-47.788735 -20.162148 7.351801 8.00000000
-40.142592 -20.555568 34.172055 8.00000000
-45.109695 -20.428949 35.888955 8.00000000
-54.988161 -18.786116 57.994314 8.00000000
-38.303798 -20.483239 40.279863 8.00000000
-61.515623 -16.695257 58.312013 8.00000000
-44.498126 -20.467514 37.559791 8.00000000
-48.753221 -20.035176 36.637318 8.00000000
-54.944673 -18.797407 48.095929 8.00000000
-44.105207 -20.491807 32.974759 8.00000000
-59.476088 -17.435619 24.098817 8.00000000
-23.359205 -17.147548 24.501815 8.00000000
-52.826270 -19.301184 66.571462 8.00000000
-58.716747 -17.690580 39.860684 8.00000000
-40.593060 -20.565122 42.808927 8.00000000
-26.004665 -18.128828 52.576426 8.00000000
-23.310202 -17.126981 12.528875 8.00000000
-40.044475 -20.552961 18.283548 8.00000000
-35.839483 -20.276201 67.740993 8.00000000
-61.735623 -16.608957 23.939045 8.00000000
-40.496468 -20.564705 15.026615 8.00000000
-23.226273 -17.091756 36.725269 8.00000000
-46.240139 -20.334197 52.124417 8.00000000
-40.480724 -20.564553 53.421589 8.00000000
-28.000940 -18.748492 19.275479 8.00000000
-59.308628 -17.494244 63.483940 8.00000000
-28.277955 -18.827712 33.516253 8.00000000
-56.290306 -18.433508 45.932523 8.00000000
-30.476832 -19.383092 45.258013 8.00000000
-20.839525 -16.022430 14.476449 8.00000000
-67.759130 -13.900365 41.463436 8.00000000
-47.297353 -20.222524 33.297632 8.00000000
-46.394166 -20.317928 52.691248 8.00000000
-54.976289 -18.789198 54.362897 8.00000000
-46.458680 -20.311113 19.396385 8.00000000
-27.155683 -18.498951 13.376562 8.00000000
-32.526732 -19.798380 60.924045 8.00000000
-65.849369 -14.839624 9.091978 8.00000000
-44.632012 -20.459237 5.415266 8.00000000
-30.394501 -19.363664 34.153610 8.00000000
-32.777134 -19.844055 64.970100 8.00000000
-39.906029 -20.549283 23.838775 8.00000000
-45.064055 -20.432525 40.900215 8.00000000
-67.351744 -14.109414 41.708107 8.00000000
-44.105779 -20.491772 31.509689 8.00000000
-20.902186 -16.052361 55.704884 8.00000000
-50.127283 -19.821490 56.713866 8.00000000
-68.092208 -13.727968 58.453492 8.00000000
-23.551419 -17.225613 30.062952 8.00000000
-36.611848 -20.352669 55.428488 8.00000000
-40.401495 -20.562447 16.103737 8.00000000
-72.865772 -10.995510 38.769542 8.00000000
-65.749128 -14.886554 21.967702 8.00000000
-47.399034 -20.211783 43.737349 8.00000000
-42.562266 -20.552846 33.114914 8.00000000
-71.032630 -12.107621 12.001174 8.00000000
-48.395113 -20.084832 10.189853 8.00000000
-57.771547 -17.994475 25.677771 8.00000000
-37.699818 -20.441779 8.343107 8.00000000
-38.498351 -20.492764 4.078799 8.00000000
-64.792052 -15.327510 13.428561 8.00000000
-57.349570 -18.122977 60.892209 8.00000000
-59.052409 -17.580749 13.678658 8.00000000
-25.787734 -18.055549 33.778301 8.00000000
-36.306123 -20.323857 58.310209 8.00000000
-71.843459 -11.625378 29.978208 8.00000000
-44.184308 -20.486916 26.055601 8.00000000
-63.254443 -15.994477 16.297137 8.00000000
-45.689470 -20.380398 47.800057 8.00000000
-47.944359 -20.142305 7.762965 8.00000000
-37.741673 -20.444772 16.651595 8.00000000
-48.333984 -20.092626 23.557546 8.00000000
-26.194145 -18.192835 61.322464 8.00000000
-61.561738 -16.677904 37.903535 8.00000000
-54.674006 -18.867687 8.835121 8.00000000
-47.218232 -20.230881 40.758122 8.00000000
-68.071703 -13.738581 8.309446 8.00000000
-44.848450 -20.445855 54.741757 8.00000000
-50.179784 -19.812496 43.963877 8.00000000
-72.973777 -10.928395 31.923049 8.00000000
-43.047836 -20.538037 3.639617 8.00000000
-45.377087 -20.406557 60.431555 8.00000000
-37.984398 -20.462128 25.769903 8.00000000
-63.499406 -15.891568 53.888190 8.00000000
-20.468427 -15.841399 19.091207 8.00000000
-22.593202 -16.826054 56.216338 8.00000000
-20.392485 -15.802834 52.900946 8.00000000
-21.871492 -16.505470 24.870928 8.00000000
-70.383178 -12.480389 9.561726 8.00000000
-66.812203 -14.375243 45.312620 8.00000000
-58.988471 -17.601669 28.103560 8.00000000
-65.475981 -15.014431 11.193504 8.00000000
-36.796278 -20.370049 53.604833 8.00000000
-21.586076 -16.377516 43.452597 8.00000000
-74.296999 -10.075973 54.768682 8.00000000
-24.425617 -17.568110 21.166286 8.00000000
-33.854901 -20.019452 23.161349 8.00000000
-67.533320 -14.017242 28.428917 8.00000000
-51.296924 -19.612824 62.584721 8.00000000
-57.519206 -18.071319 33.266220 8.00000000
-25.476501 -17.950415 27.367533 8.00000000
-37.044254 -20.393418 48.980940 8.00000000
-63.527178 -15.879901 31.841872 8.00000000
-48.755616 -20.034818 15.974726 8.00000000
-66.742665 -14.409504 65.347647 8.00000000
-44.143192 -20.489459 22.259217 8.00000000
-48.432199 -20.080103 5.070366 8.00000000
-62.716890 -16.219879 66.740009 8.00000000
-65.504314 -15.001167 7.198527 8.00000000
-57.598611 -18.047138 67.926470 8.00000000
-22.428494 -16.755180 66.362241 8.00000000
-65.862950 -14.833266 15.691069 8.00000000
-62.370651 -16.357165 20.159816 8.00000000
-29.936694 -19.255629 23.853778 8.00000000
-25.630463 -18.002423 7.468909 8.00000000
-34.866503 -20.161440 22.351356 8.00000000
-53.597733 -19.127998 33.037568 8.00000000
-55.551225 -18.639915 11.069026 8.00000000
-30.189577 -19.315305 10.917943 8.00000000
-63.254145 -15.994601 40.033931 8.00000000
-59.023672 -17.590151 41.828375 8.00000000
-60.445302 -17.094676 8.355397 8.00000000
-56.363315 -18.412919 35.842678 8.00000000
-69.724950 -12.854114 17.550716 8.00000000
-22.095325 -16.605817 55.820014 8.00000000
-23.676392 -17.274575 7.303224 8.00000000
-69.473847 -12.990432 13.513821 8.00000000
-42.112078 -20.560866 14.942813 8.00000000
-22.003169 -16.564502 27.536140 8.00000000
-65.445714 -15.028601 13.480742 8.00000000
-54.889152 -18.811824 17.498419 8.00000000
-72.222001 -11.395557 17.068217 8.00000000
-37.281207 -20.411847 37.762353 8.00000000
-28.010646 -18.751268 49.549626 8.00000000
-51.819929 -19.511744 5.657840 8.00000000
-49.671088 -19.898056 29.316444 8.00000000
-45.813746 -20.369991 58.609949 8.00000000
-69.730137 -12.851298 18.575516 8.00000000
-47.445667 -20.205890 44.106085 8.00000000
-39.150029 -20.524668 66.649951 8.00000000
-23.046493 -17.016302 56.146566 8.00000000
-63.093187 -16.062220 25.916589 8.00000000
-49.027408 -19.994215 20.311242 8.00000000
-64.440575 -15.483558 48.285391 8.00000000
-43.546756 -20.518151 50.067612 8.00000000
-54.061578 -19.017871 3.024444 8.00000000
-67.099033 -14.233924 52.532905 8.00000000
-47.168093 -20.236177 39.256734 8.00000000
-26.500320 -18.294715 56.092809 8.00000000
-62.584065 -16.272545 13.751618 8.00000000
-23.459614 -17.189645 39.449943 8.00000000
-25.864444 -18.081462 25.128763 8.00000000
-32.812695 -19.849880 35.552356 8.00000000
-23.457463 -17.188787 59.531215 8.00000000
-46.921314 -20.262245 42.372389 8.00000000
-25.011036 -17.781881 15.814038 8.00000000
-37.327827 -20.415180 51.517497 8.00000000
-41.431854 -20.568745 63.663514 8.00000000
-74.255330 -10.103000 37.968214 8.00000000
-47.005277 -20.253376 16.539990 8.00000000
-20.286129 -15.748825 23.595238 8.00000000
-68.210425 -13.666780 4.034978 8.00000000
-60.354725 -17.128022 50.198975 8.00000000
-53.509024 -19.149060 67.514212 8.00000000
-35.340966 -20.217784 38.543260 8.00000000
-54.687028 -18.864306 13.730782 8.00000000
-26.627630 -18.334390 7.349980 8.00000000
-65.968617 -14.783796 50.814271 8.00000000
-53.984239 -19.036233 29.962269 8.00000000
-68.387126 -13.575321 21.307860 8.00000000
-60.561358 -17.051366 13.668942 8.00000000
-36.690883 -20.360117 39.942878 8.00000000
-49.327623 -19.949366 46.780532 8.00000000
-51.993407 -19.478216 21.332073 8.00000000
-65.892856 -14.819265 26.297340 8.00000000
-66.791274 -14.385555 16.046374 8.00000000
-26.640296 -18.338337 15.168933 8.00000000
-68.326369 -13.606768 53.182367 8.00000000
-52.687105 -19.331146 34.457096 8.00000000
-55.724411 -18.593098 32.666646 8.00000000
-23.880517 -17.354549 55.567923 8.00000000
-56.953003 -18.243742 46.368153 8.00000000
-26.251967 -18.212367 24.486008 8.00000000
-35.865404 -20.279238 16.061998 8.00000000
-27.548736 -18.619173 56.751988 8.00000000
-60.112751 -17.212734 64.854568 8.00000000
-41.139013 -20.567480 39.270400 8.00000000
-28.786829 -18.965783 64.100540 8.00000000
-22.018368 -16.571316 10.623521 8.00000000
-21.593191 -16.380705 62.848067 8.00000000
-39.448076 -20.537115 5.681365 8.00000000
-45.342441 -20.409458 28.865802 8.00000000
-51.914044 -19.493554 9.932850 8.00000000
-50.641639 -19.733379 51.524503 8.00000000
-53.496108 -19.152126 3.975547 8.00000000
-40.128948 -20.555206 33.551231 8.00000000
-47.351073 -20.216849 11.026370 8.00000000
-37.986731 -20.462295 58.014127 8.00000000
-73.045253 -10.883979 50.501842 8.00000000
-34.373240 -20.092206 38.539424 8.00000000
-48.267935 -20.101048 17.727084 8.00000000
-61.896976 -16.544980 8.589805 8.00000000
-65.838935 -14.844509 60.145213 8.00000000
-20.755494 -15.982292 45.070065 8.00000000
-37.166334 -20.403633 33.253055 8.00000000
-27.881547 -18.714349 67.160672 8.00000000
-63.283531 -15.982256 49.794992 8.00000000
-53.003410 -19.263046 19.477552 8.00000000
-31.465618 -19.594967 40.988944 8.00000000
-40.262302 -20.558749 14.323021 8.00000000
-46.679789 -20.287757 58.175202 8.00000000
-67.844629 -13.856112 4.239051 8.00000000
-33.792615 -20.010390 37.395208 8.00000000
-68.484974 -13.524677 65.925405 8.00000000
-37.214764 -20.407096 64.373087 8.00000000
-46.543486 -20.302155 62.574402 8.00000000
-46.656952 -20.290169 27.776566 8.00000000
-34.972881 -20.174652 29.209262 8.00000000
-21.074686 -16.134757 63.931438 8.00000000
-58.266863 -17.837785 23.603884 8.00000000
-73.548120 -10.561694 65.923424 8.00000000
-64.677908 -15.378188 7.084152 8.00000000
-61.192801 -16.815727 34.658539 8.00000000
-45.889864 -20.363617 46.865558 8.00000000
-46.766864 -20.278559 19.263645 8.00000000
-25.199551 -17.850594 4.489475 8.00000000
-25.030765 -17.789072 54.288017 8.00000000
-43.887152 -20.504585 23.097321 8.00000000
-62.642497 -16.249376 16.442224 8.00000000
-44.098574 -20.492217 60.383126 8.00000000
-26.877745 -18.412335 59.011730 8.00000000
-46.140979 -20.342588 63.646759 8.00000000
-25.471803 -17.948828 41.339346 8.00000000
-73.898009 -10.334757 63.315293 8.00000000
-55.290863 -18.707518 40.262508 8.00000000
-72.924083 -10.959275 4.136608 8.00000000
-61.544925 -16.684323 15.738042 8.00000000
-45.124776 -20.427686 9.626519 8.00000000
-20.545062 -15.880315 57.099021 8.00000000
-20.694096 -15.952965 62.150337 8.00000000
-72.258940 -11.372603 50.003249 8.00000000
-19.916932 -15.561342 9.122058 8.00000000
-73.877079 -10.348332 8.357809 8.00000000
-47.743203 -20.167953 22.609288 8.00000000
-56.112098 -18.483765 45.112766 8.00000000
-21.152882 -16.172108 36.107733 8.00000000
-22.776955 -16.903175 30.309219 8.00000000
-46.217773 -20.336157 66.222464 8.00000000
-37.639441 -20.437462 14.633260 8.00000000
-68.350846 -13.594100 5.457157 8.00000000
-35.386327 -20.223100 56.197804 8.00000000
-34.404088 -20.096536 47.448634 8.00000000
-68.412888 -13.561987 34.250873 8.00000000
-51.454071 -19.582452 25.510768 8.00000000
-33.365429 -19.940417 32.124991 8.00000000
-41.452140 -20.568833 8.951487 8.00000000
-65.594660 -14.958870 38.903402 8.00000000
-41.758296 -20.567169 57.026374 8.00000000
-21.425199 -16.302182 56.123642 8.00000000
-62.552686 -16.284987 19.629149 8.00000000
-38.390097 -20.487464 9.779242 8.00000000
-48.177163 -20.112621 62.301892 8.00000000
-57.078459 -18.205538 20.208121 8.00000000
-52.492105 -19.373130 48.523219 8.00000000
-53.382036 -19.179209 26.846998 8.00000000
-38.723056 -20.503765 25.312674 8.00000000
-74.169583 -10.158615 62.588022 8.00000000
-47.504081 -20.198442 9.170204 8.00000000
-47.942312 -20.142566 13.960779 8.00000000
-73.820173 -10.385241 28.667483 8.00000000
-36.787252 -20.369199 11.689831 8.00000000
-21.132129 -16.162195 58.912061 8.00000000
-43.693327 -20.512310 6.169028 8.00000000
-36.134059 -20.307642 7.344460 8.00000000
-59.541881 -17.412586 29.937271 8.00000000
-72.600415 -11.160407 4.375571 8.00000000
-62.820400 -16.176817 23.709598 8.00000000
-53.306296 -19.197191 60.015819 8.00000000
-59.619311 -17.385479 58.772700 8.00000000
-55.613347 -18.623785 12.172807 8.00000000
-49.845361 -19.869784 59.706222 8.00000000
-46.237615 -20.334464 57.386268 8.00000000
-24.702235 -17.669323 35.062304 8.00000000
-54.287191 -18.964306 47.002719 8.00000000
-22.281634 -16.689341 39.663037 8.00000000
-45.808132 -20.370461 63.516027 8.00000000
-38.353549 -20.485675 58.397748 8.00000000
-30.815710 -19.457459 3.074669 8.00000000
-36.058511 -20.300523 66.410998 8.00000000
-26.836332 -18.399429 13.289007 8.00000000
-46.785947 -20.276544 55.313180 8.00000000
-53.332221 -19.191036 23.672179 8.00000000
-53.824476 -19.074165 42.917685 8.00000000
-65.925779 -14.803851 54.896623 8.00000000
-72.018830 -11.521075 38.481666 8.00000000
-63.116648 -16.052364 11.598976 8.00000000
-61.075465 -16.859514 45.897034 8.00000000
-67.743556 -13.908426 50.426287 8.00000000
-50.292543 -19.793180 35.094119 8.00000000
-61.218921 -16.805980 51.433595 8.00000000
-64.199447 -15.590614 8.423806 8.00000000
-20.574226 -15.895125 55.262237 8.00000000
-46.137344 -20.342892 16.060446 8.00000000
-47.776776 -20.163672 18.950971 8.00000000
-61.448480 -16.720314 58.898726 8.00000000
-36.055920 -20.300278 65.413228 8.00000000
-26.157754 -18.180542 33.505605 8.00000000
-24.297976 -17.518102 22.345503 8.00000000
-74.008853 -10.262863 22.827331 8.00000000
-47.661390 -20.178385 11.318273 8.00000000
-45.388010 -20.405642 51.585270 8.00000000
-49.832458 -19.871994 4.103302 8.00000000
-23.698810 -17.283359 37.412542 8.00000000
-73.266275 -10.744497 57.766796 8.00000000
-55.464232 -18.662503 61.386975 8.00000000
-72.897763 -10.975631 32.999906 8.00000000
-37.140764 -20.401804 56.354192 8.00000000
-30.789142 -19.451838 23.090408 8.00000000
-69.630600 -12.905334 32.761546 8.00000000
-49.654464 -19.900539 21.622125 8.00000000
-68.820872 -13.344917 47.903132 8.00000000
-67.059288 -14.253506 39.814937 8.00000000
-25.585728 -17.987312 9.989889 8.00000000
-58.315710 -17.821802 18.389159 8.00000000
-55.568179 -18.635512 67.941017 8.00000000
-30.911246 -19.477672 48.226908 8.00000000
-63.085958 -16.065257 20.605294 8.00000000
-25.764252 -18.047617 26.175856 8.00000000
-22.417027 -16.750039 36.334709 8.00000000
-64.691614 -15.372103 58.534240 8.00000000
-50.374775 -19.779094 16.774466 8.00000000
-73.598200 -10.529212 31.708958 8.00000000
-53.994120 -19.033887 54.122747 8.00000000
-21.034762 -16.115687 14.222162 8.00000000
-37.067102 -20.395571 55.963665 8.00000000
-25.339634 -17.901655 48.593153 8.00000000
-71.009861 -12.121163 53.348736 8.00000000
-46.922851 -20.262082 40.595995 8.00000000
-69.430790 -13.013807 44.165478 8.00000000
-33.210845 -19.915096 59.027623 8.00000000
-29.950243 -19.258827 20.561316 8.00000000
-40.818102 -20.566094 6.531992 8.00000000
-34.236203 -20.072971 65.662043 8.00000000
-47.721318 -20.170744 5.909046 8.00000000
-65.164819 -15.160107 8.711921 8.00000000
-51.604075 -19.553461 54.283349 8.00000000
-24.144581 -17.458005 19.511669 8.00000000
-26.833273 -18.398476 43.389935 8.00000000
-43.489849 -20.520420 41.418471 8.00000000
-39.936528 -20.550093 6.252895 8.00000000
-48.127436 -20.118962 11.318462 8.00000000
-25.121060 -17.821984 21.249255 8.00000000
-47.597235 -20.186565 64.238819 8.00000000
-50.353453 -19.782746 30.999018 8.00000000
-28.385254 -18.858397 37.385291 8.00000000
-56.358128 -18.414382 30.259072 8.00000000
-33.359590 -19.939461 64.324698 8.00000000
-52.999862 -19.263810 46.684820 8.00000000
-35.351659 -20.219037 42.953848 8.00000000
-49.026978 -19.994279 34.940147 8.00000000
-59.991791 -17.255080 15.088075 8.00000000
-66.357019 -14.599510 9.672184 8.00000000
-22.889688 -16.950490 45.323159 8.00000000
-52.925712 -19.279775 52.272138 8.00000000
-58.080738 -17.898686 8.070423 8.00000000
-58.433449 -17.783277 37.146193 8.00000000
-57.212412 -18.164746 22.662904 8.00000000
-24.318819 -17.526268 9.506117 8.00000000
-31.924711 -19.685484 12.733099 8.00000000
-50.490831 -19.759213 29.018769 8.00000000
-48.792730 -20.029274 67.198357 8.00000000
-27.875888 -18.712730 7.289370 8.00000000
-66.653467 -14.453451 27.840702 8.00000000
-43.820128 -20.507256 66.092701 8.00000000
-71.900120 -11.591678 53.680400 8.00000000
-59.565148 -17.404440 16.859941 8.00000000
-27.103378 -18.482651 49.931219 8.00000000
-30.403087 -19.365690 25.639353 8.00000000
-62.145376 -16.446488 46.314316 8.00000000
-31.895441 -19.679995 10.553961 8.00000000
-62.777478 -16.194849 67.871586 8.00000000
-52.846276 -19.296877 30.227488 8.00000000
-38.159776 -20.474669 32.262015 8.00000000
-25.459175 -17.944562 3.694872 8.00000000
-53.610860 -19.124882 39.279545 8.00000000
-43.845396 -20.506249 10.215849 8.00000000
-67.556028 -14.005488 43.720924 8.00000000
-68.573652 -13.478778 62.054077 8.00000000
-71.554871 -11.797016 13.019342 8.00000000
-73.162645 -10.811030 21.691935 8.00000000
-51.290956 -19.613977 58.838151 8.00000000
-37.195985 -20.405753 17.296133 8.00000000
-65.980912 -14.778040 3.494201 8.00000000
-63.394558 -15.935614 28.034732 8.00000000
-26.649711 -18.341271 16.914437 8.00000000
-57.038934 -18.217574 18.250407 8.00000000
-56.970915 -18.238287 60.897862 8.00000000
-40.590927 -20.565113 64.649758 8.00000000
-73.687095 -10.471555 20.735102 8.00000000
-31.187191 -19.536057 26.105715 8.00000000
-38.607166 -20.498091 35.151259 8.00000000
-31.694180 -19.642253 13.337010 8.00000000
-40.334174 -20.560659 33.141449 8.00000000
-35.598239 -20.247931 61.411384 8.00000000
-27.746061 -18.675603 62.304960 8.00000000
-48.259799 -20.102085 40.073759 8.00000000
-45.135696 -20.426771 18.687961 8.00000000
-38.562048 -20.495882 52.642726 8.00000000
-52.107621 -19.455909 32.213784 8.00000000
-48.074479 -20.125714 64.376717 8.00000000
-30.697855 -19.432523 7.328353 8.00000000
-33.163189 -19.907290 34.999770 8.00000000
-60.475501 -17.083406 54.793037 8.00000000
-66.543243 -14.507758 15.319988 8.00000000
-65.855625 -14.836695 42.139214 8.00000000
-25.694926 -18.024199 9.416707 8.00000000
-23.097278 -17.037616 26.078092 8.00000000
-60.246760 -17.165819 8.003790 8.00000000
-36.761068 -20.366731 17.299036 8.00000000
-62.584630 -16.272321 55.871915 8.00000000
-24.853227 -17.724359 59.223975 8.00000000
-58.239271 -17.846813 39.299947 8.00000000
-58.207723 -17.857136 38.019355 8.00000000
-29.860053 -19.237544 56.680130 8.00000000
-52.213237 -19.433170 62.651580 8.00000000
-62.411885 -16.340815 36.493465 8.00000000
-66.540408 -14.509155 29.035977 8.00000000
-25.120924 -17.821935 19.248110 8.00000000
-51.767214 -19.521932 12.176478 8.00000000
-39.655495 -20.542626 18.814336 8.00000000
-20.661571 -15.937429 34.477066 8.00000000
-21.865052 -16.502583 40.945040 8.00000000
-38.912241 -20.513026 59.471302 8.00000000
-70.261797 -12.549405 67.809847 8.00000000
-63.782848 -15.772494 9.636531 8.00000000
-44.166732 -20.488003 22.866218 8.00000000
-68.207692 -13.668195 42.366224 8.00000000
-24.951505 -17.760181 22.529783 8.00000000
-52.877728 -19.290105 8.471774 8.00000000
-73.717345 -10.451935 23.827278 8.00000000
-44.800044 -20.448848 20.880886 8.00000000
-38.860940 -20.510515 34.433056 8.00000000
-67.843891 -13.856494 61.981932 8.00000000
-36.610510 -20.352542 54.942944 8.00000000
-44.689656 -20.455673 35.842700 8.00000000
-31.967710 -19.693547 63.737521 8.00000000
-69.912345 -12.748099 20.405313 8.00000000
-58.337519 -17.814666 45.608483 8.00000000
-33.028034 -19.885152 54.566878 8.00000000
-70.061819 -12.663110 24.701321 8.00000000
-51.599328 -19.554379 39.037702 8.00000000
-37.284313 -20.412069 9.499364 8.00000000
-36.267981 -20.320263 60.119371 8.00000000
-50.785986 -19.708652 36.358932 8.00000000
-43.170586 -20.533144 50.991177 8.00000000
-69.196855 -13.140804 8.598730 8.00000000
-32.014461 -19.702315 51.506390 8.00000000
-50.295480 -19.792677 37.575646 8.00000000
-38.227071 -20.479481 47.821521 8.00000000
-45.085518 -20.430973 14.871431 8.00000000
-43.219824 -20.531182 59.451140 8.00000000
-22.339068 -16.715089 10.509321 8.00000000
-41.326823 -20.568292 39.546932 8.00000000
-54.599054 -18.887148 61.271151 8.00000000
-38.617097 -20.498577 20.883714 8.00000000
-72.299770 -11.347231 63.436398 8.00000000
-31.684861 -19.640505 49.768115 8.00000000
-73.061132 -10.874112 39.031067 8.00000000
-40.589585 -20.565107 53.746863 8.00000000
-22.810016 -16.917051 28.354644 8.00000000
-71.072617 -12.083839 12.750406 8.00000000
-31.554852 -19.613847 18.171781 8.00000000
-49.891357 -19.861905 25.249986 8.00000000
-39.216797 -20.527936 20.557894 8.00000000
-71.228536 -11.991105 35.940646 8.00000000
-40.991357 -20.566843 12.327211 8.00000000
-59.053855 -17.580275 4.273624 8.00000000
-23.340000 -17.139488 23.430315 8.00000000
-21.089195 -16.141687 55.260697 8.00000000
-20.671726 -15.942279 28.890452 8.00000000
-41.603968 -20.569489 29.781433 8.00000000
-42.846537 -20.546060 7.844463 8.00000000
-20.133382 -15.671259 25.217327 8.00000000
-34.923577 -20.168874 47.433717 8.00000000
-36.322811 -20.325430 49.965100 8.00000000
-68.145110 -13.700586 36.284365 8.00000000
-57.350435 -18.122714 26.765718 8.00000000
-33.082184 -19.894022 27.043398 8.00000000
-32.385139 -19.771827 21.715959 8.00000000
-63.595342 -15.851265 43.855386 8.00000000
-24.490315 -17.592077 40.898431 8.00000000
-68.662069 -13.431128 15.510262 8.00000000
-45.490116 -20.397092 29.890426 8.00000000
-55.647283 -18.614849 67.565500 8.00000000
-66.821195 -14.370813 43.583087 8.00000000
-22.104431 -16.609899 22.570922 8.00000000
-72.612003 -11.153206 24.940243 8.00000000
-21.076421 -16.135586 31.668361 8.00000000
-31.116706 -19.521144 61.705829 8.00000000
-41.793211 -20.566547 51.431158 8.00000000
-36.120624 -20.306376 14.310395 8.00000000
-56.992853 -18.231607 61.384109 8.00000000
-56.572523 -18.353919 21.580892 8.00000000
-24.718610 -17.675291 64.480785 8.00000000
-50.562626 -19.746914 58.954328 8.00000000
-20.524868 -15.870060 54.777109 8.00000000
-46.972791 -20.256807 31.500976 8.00000000
-20.891829 -16.047413 45.412499 8.00000000
-26.414839 -18.267385 22.508559 8.00000000
-22.607952 -16.832245 34.200214 8.00000000
-21.472194 -16.324630 4.204185 8.00000000
-44.235829 -20.483731 29.889208 8.00000000
-53.525500 -19.145148 66.793905 8.00000000
-49.419720 -19.935608 60.991798 8.00000000
-20.588696 -15.902473 67.424184 8.00000000
-28.054754 -18.763882 5.239195 8.00000000
-45.775412 -20.373201 32.377608 8.00000000
-25.567924 -17.981298 24.050036 8.00000000
-61.567446 -16.675640 56.998504 8.00000000
-24.031231 -17.413596 36.218019 8.00000000
-66.150084 -14.698840 39.035052 8.00000000
-50.442911 -19.767422 63.144223 8.00000000
-33.774678 -20.007452 33.384284 8.00000000
-63.072269 -16.071008 63.912870 8.00000000
-27.922892 -18.726172 37.824836 8.00000000
-40.097638 -20.554374 41.512689 8.00000000
-31.347611 -19.569999 28.935454 8.00000000
-39.803338 -20.546554 66.136540 8.00000000
-20.340919 -15.776648 4.212400 8.00000000
-24.507722 -17.598422 31.351572 8.00000000
-38.145988 -20.473683 54.508673 8.00000000
-24.094423 -17.438354 11.194107 8.00000000
-69.038765 -13.226628 53.113896 8.00000000
-67.268531 -14.150413 22.723438 8.00000000
-29.742802 -19.209874 49.757264 8.00000000
-47.257255 -20.226759 52.672361 8.00000000
-62.980311 -16.109639 48.104555 8.00000000
-54.124641 -19.002899 17.309382 8.00000000
-45.327140 -20.410740 49.843589 8.00000000
-55.514585 -18.649428 33.972927 8.00000000
-36.446775 -20.337112 65.490086 8.00000000
-56.950524 -18.244497 7.696046 8.00000000
-71.570467 -11.787740 19.553048 8.00000000
-47.672193 -20.177007 61.609239 8.00000000
-49.554260 -19.915509 24.726020 8.00000000
-50.530973 -19.752336 13.911726 8.00000000
-61.878666 -16.552240 13.688504 8.00000000
-51.838633 -19.508129 38.729028 8.00000000
-61.569097 -16.674985 48.288654 8.00000000
-72.447882 -11.255192 11.134576 8.00000000
-26.008660 -18.130178 51.947238 8.00000000
-39.938179 -20.550137 6.942758 8.00000000
-27.021489 -18.457131 38.178895 8.00000000
-50.290311 -19.793563 63.474625 8.00000000
-45.219110 -20.419786 44.401142 8.00000000
-41.004862 -20.566901 42.873079 8.00000000
-47.444870 -20.205992 18.625229 8.00000000
-37.268669 -20.410950 26.837949 8.00000000
-30.152742 -19.306613 42.727645 8.00000000
-59.583474 -17.398025 49.521284 8.00000000
-68.259512 -13.641373 51.705215 8.00000000
-23.460029 -17.189808 3.770866 8.00000000
