-6.512639 38.434174 10.070958 16.00000000
-1.130431 49.505111 14.303023 16.00000000
-8.801033 29.226745 48.718181 16.00000000
-8.003054 33.366329 67.675001 16.00000000
4.921304 57.467387 10.824442 16.00000000
7.264254 59.926339 23.490639 16.00000000
9.752448 62.275419 56.621998 16.00000000
-6.784755 37.645993 21.547053 16.00000000
-7.775692 34.287237 6.297128 16.00000000
-7.979558 33.461496 63.686984 16.00000000
1.961948 53.915682 33.432046 16.00000000
13.543423 65.424218 36.496399 16.00000000
0.472588 51.897236 11.724827 16.00000000
6.920498 59.581777 40.794929 16.00000000
-6.085691 39.607227 6.229895 16.00000000
-5.128063 41.970725 23.929671 16.00000000
20.254955 69.984299 63.263006 16.00000000
-6.141120 39.457829 55.666902 16.00000000
19.079387 69.265493 43.162882 16.00000000
-5.651068 40.719110 24.646800 16.00000000
2.996525 55.219832 51.541287 16.00000000
-7.602497 34.930229 67.004273 16.00000000
-2.705984 46.853855 66.874319 16.00000000
10.923736 63.298011 33.105081 16.00000000
-1.176728 49.431510 3.028340 16.00000000
18.778438 69.074078 36.578079 16.00000000
-0.682166 50.197524 42.666819 16.00000000
-6.164383 39.395130 14.126877 16.00000000
1.309021 53.052479 51.503403 16.00000000
1.050796 52.704526 4.331152 16.00000000
22.363446 71.196090 43.094622 16.00000000
-0.879294 49.893030 19.970991 16.00000000
-7.152073 36.495777 57.450311 16.00000000
-6.182428 39.346494 38.587448 16.00000000
-7.007439 36.951469 65.857125 16.00000000
18.826396 69.104582 48.276577 16.00000000
-2.432816 47.342470 62.429940 16.00000000
9.318642 61.884722 54.295460 16.00000000
3.724479 56.093920 60.113360 16.00000000
-7.401011 35.654287 11.975252 16.00000000
-5.358282 41.426061 65.725113 16.00000000
6.812673 59.473700 12.834557 16.00000000
7.250065 59.912117 6.925028 16.00000000
-7.592757 34.966137 37.087593 16.00000000
9.549651 62.095575 53.996281 16.00000000
-5.273742 41.626071 3.772376 16.00000000
6.864428 59.525576 24.909892 16.00000000
-7.548914 35.127764 67.940773 16.00000000
22.811278 71.445585 58.626398 16.00000000
15.371736 66.779276 55.280363 16.00000000
-8.828086 29.047465 5.900039 16.00000000
3.716951 56.085009 18.073326 16.00000000
-8.291681 32.082465 7.944111 16.00000000
5.687513 58.301416 19.537255 16.00000000
-7.676936 34.655811 23.566007 16.00000000
10.824241 63.213303 13.776312 16.00000000
-8.962392 28.043831 47.088017 16.00000000
1.814804 53.725914 30.900391 16.00000000
3.345571 55.645419 66.241281 16.00000000
-6.714107 37.851365 11.409554 16.00000000
-4.161198 44.071147 41.523773 16.00000000
5.716644 58.333126 25.849035 16.00000000
20.596391 70.186385 31.396614 16.00000000
1.930162 53.874688 21.141531 16.00000000
6.668333 59.329021 7.743935 16.00000000
11.530820 63.813119 11.655966 16.00000000
-5.827004 40.275587 20.618408 16.00000000
14.977938 66.494879 3.253645 16.00000000
-8.736189 29.656464 67.449596 16.00000000
-2.672142 46.914388 16.017601 16.00000000
-6.605468 38.165638 22.821253 16.00000000
7.180356 59.842245 15.342182 16.00000000
19.662014 69.623194 35.547297 16.00000000
-9.129844 26.509239 33.788515 16.00000000
22.798933 71.438707 66.999054 16.00000000
-9.196676 25.671160 25.788018 16.00000000
2.438298 54.530018 26.226288 16.00000000
-0.208725 50.909713 19.572632 16.00000000
-6.584302 38.226867 65.963418 16.00000000
20.149485 69.920067 56.125186 16.00000000
-7.405546 35.638955 20.721601 16.00000000
7.820050 60.473666 47.171483 16.00000000
6.141028 58.778631 17.213149 16.00000000
10.024586 62.516756 29.033499 16.00000000
-6.860618 37.409386 58.294024 16.00000000
22.746573 71.409536 40.084480 16.00000000
-3.536354 45.317314 17.909206 16.00000000
7.126899 59.788662 28.088894 16.00000000
-3.723646 44.947739 24.239655 16.00000000
16.283754 67.422124 39.937297 16.00000000
-6.322460 38.969072 6.789398 16.00000000
6.857219 59.518350 61.630818 16.00000000
-4.459575 43.444108 47.928910 16.00000000
1.181300 52.880378 8.506738 16.00000000
-1.835776 48.360274 32.043751 16.00000000
7.765399 60.421082 13.974329 16.00000000
-7.457469 35.463440 63.403605 16.00000000
4.683949 57.198999 34.563644 16.00000000
-6.682586 37.942551 8.640459 16.00000000
-4.324590 43.727778 61.383341 16.00000000
-8.318022 31.949866 40.664516 16.00000000
8.784637 61.391463 66.153060 16.00000000
-8.039907 33.216173 16.422398 16.00000000
9.464456 62.019409 19.264330 16.00000000
-5.828709 40.271290 50.191165 16.00000000
7.591518 60.253780 42.759937 16.00000000
-0.374477 50.665310 8.209862 16.00000000
8.738332 61.348692 61.170388 16.00000000
-0.691512 50.183089 17.890052 16.00000000
-1.688360 48.602700 17.162958 16.00000000
3.785357 56.165979 51.816343 16.00000000
16.209720 67.370850 8.415394 16.00000000
20.043000 69.855217 20.707361 16.00000000
-7.586891 34.987759 43.291054 16.00000000
-9.133212 26.467001 64.206566 16.00000000
-7.805236 34.167571 56.682834 16.00000000
-9.184315 25.826169 51.112161 16.00000000
-7.981542 33.453462 48.884635 16.00000000
0.302130 51.657069 48.796921 16.00000000
19.421614 69.476789 25.153703 16.00000000
8.786091 61.392806 50.064670 16.00000000
-2.709175 46.848146 26.381504 16.00000000
-6.338186 38.926686 5.053170 16.00000000
16.591633 67.635354 4.635972 16.00000000
21.578526 70.758684 32.841088 16.00000000
1.878605 53.808197 18.691552 16.00000000
-8.089979 32.991328 38.745254 16.00000000
12.930627 64.943493 3.069300 16.00000000
20.811007 70.311443 42.860485 16.00000000
-8.528437 30.876118 37.648401 16.00000000
7.786196 60.441092 45.329444 16.00000000
3.513169 55.843799 17.820066 16.00000000
-6.876313 37.360436 48.208084 16.00000000
-5.523217 41.035849 18.095108 16.00000000
-8.425480 31.408916 19.360084 16.00000000
4.943051 57.491058 31.929001 16.00000000
3.011818 55.238722 30.809631 16.00000000
16.817980 67.792116 45.136191 16.00000000
11.419018 63.719689 48.442090 16.00000000
5.972460 58.602577 3.853543 16.00000000
15.297946 66.725985 15.468071 16.00000000
-6.630036 38.094566 28.185595 16.00000000
-8.677230 30.024536 21.398201 16.00000000
-2.370035 47.451488 7.367429 16.00000000
5.229149 57.802481 64.570220 16.00000000
19.768073 69.687784 6.592629 16.00000000
5.353668 57.938021 67.135656 16.00000000
-5.493310 41.106605 63.672635 16.00000000
12.696889 64.760130 55.389094 16.00000000
-7.642174 34.783959 26.865852 16.00000000
11.365672 63.674271 51.507161 16.00000000
-1.601419 48.743540 58.906573 16.00000000
21.197209 70.536487 4.609658 16.00000000
5.820267 58.443625 27.892311 16.00000000
-3.368495 45.633542 25.975124 16.00000000
15.642718 66.974977 33.112379 16.00000000
-5.631153 40.769316 41.203031 16.00000000
-0.467650 50.527926 39.597810 16.00000000
-7.952373 33.571609 4.837606 16.00000000
-7.496653 35.320425 6.967454 16.00000000
0.790306 52.344886 42.714884 16.00000000
9.107668 61.689846 23.944529 16.00000000
-7.314841 35.945568 35.669786 16.00000000
12.348908 64.481757 35.744223 16.00000000
1.484325 53.288698 46.987156 16.00000000
-4.774736 42.761541 10.425615 16.00000000
-5.027144 42.199459 27.660014 16.00000000
11.422107 63.722319 61.555610 16.00000000
-7.941786 33.614488 38.856857 16.00000000
-9.226811 25.238988 28.137908 16.00000000
0.806842 52.368186 30.193379 16.00000000
-4.082383 44.234672 18.415923 16.00000000
-4.673217 42.987612 30.648472 16.00000000
-4.465652 43.431336 33.338175 16.00000000
14.796723 66.364008 53.748558 16.00000000
9.920720 62.424645 51.424795 16.00000000
-8.421902 31.426926 16.355151 16.00000000
-2.704174 46.857093 59.194752 16.00000000
-5.480282 41.137425 55.368435 16.00000000
-8.935842 28.252653 58.251575 16.00000000
3.907826 56.310942 46.442113 16.00000000
10.452122 62.895903 42.631501 16.00000000
12.720518 64.778666 20.131586 16.00000000
-9.282323 24.203724 39.928014 16.00000000
-2.425386 47.355762 44.033408 16.00000000
-7.967642 33.509762 47.263428 16.00000000
18.988906 69.207944 42.213448 16.00000000
15.796340 67.084554 38.196279 16.00000000
-3.201395 45.948342 14.901475 16.00000000
-7.345441 35.842130 51.828361 16.00000000
-1.585916 48.768654 29.685121 16.00000000
18.433118 68.854442 62.799642 16.00000000
-8.323345 31.923070 3.608470 16.00000000
21.743249 70.850567 45.466943 16.00000000
15.111091 66.591041 46.920588 16.00000000
6.408390 59.057865 55.464051 16.00000000
-7.461201 35.450822 10.254683 16.00000000
10.563705 62.991485 25.193979 16.00000000
5.363860 57.949115 16.098193 16.00000000
-8.601010 30.460764 56.720538 16.00000000
11.729978 63.975895 49.746575 16.00000000
-4.965513 42.336705 6.410527 16.00000000
-8.845265 28.933621 34.598085 16.00000000
-9.194908 25.693339 32.618885 16.00000000
-0.196151 50.928253 64.360277 16.00000000
13.579411 65.452139 15.896712 16.00000000
4.626706 57.134037 62.699561 16.00000000
0.175390 51.476094 67.043063 16.00000000
-9.095834 26.843993 27.575440 16.00000000
19.524045 69.539170 41.809169 16.00000000
16.436234 67.527728 45.365486 16.00000000
-1.240800 49.327718 24.228942 16.00000000
0.164060 51.459388 30.858331 16.00000000
19.140469 69.304344 35.897804 16.00000000
20.848595 70.333346 22.308900 16.00000000
0.184851 51.490044 62.255242 16.00000000
2.511200 54.620366 63.053511 16.00000000
-9.148478 26.275573 32.335368 16.00000000
-2.644660 46.963545 31.191172 16.00000000
5.468062 58.062541 44.678737 16.00000000
-3.273346 45.812794 30.294652 16.00000000
-5.067918 42.108660 8.568353 16.00000000
-8.018943 33.301973 46.525547 16.00000000
-4.169567 44.053560 18.835965 16.00000000
-2.782184 46.717555 15.660234 16.00000000
-4.544123 43.266428 65.373828 16.00000000
-9.282486 24.198690 51.391722 16.00000000
3.488696 55.814831 24.128444 16.00000000
12.800709 64.841575 9.470355 16.00000000
3.158856 55.420341 42.655524 16.00000000
-8.734623 29.666847 25.074051 16.00000000
-7.689364 34.609993 49.143683 16.00000000
-1.165170 49.450233 29.265439 16.00000000
4.707201 57.225386 36.734262 16.00000000
-6.326687 38.957679 33.987817 16.00000000
17.058097 67.953123 57.374896 16.00000000
20.413710 70.079934 48.977752 16.00000000
17.053348 67.949970 59.177684 16.00000000
-3.700462 44.993821 51.751893 16.00000000
-8.728901 29.704769 60.214850 16.00000000
12.989628 64.989778 57.314513 16.00000000
-7.944690 33.602728 11.120492 16.00000000
10.102885 62.586193 64.817267 16.00000000
9.042974 61.630089 21.883409 16.00000000
-8.882845 28.669481 29.646286 16.00000000
-3.036526 46.258938 44.813913 16.00000000
7.782970 60.437989 18.077852 16.00000000
-5.536818 41.003671 12.060208 16.00000000
-6.637615 38.072642 49.172063 16.00000000
10.861672 63.245171 38.304807 16.00000000
-9.282403 24.201280 33.685726 16.00000000
18.125772 68.658958 19.575124 16.00000000
14.097463 65.842131 16.976122 16.00000000
-7.747555 34.395473 23.808791 16.00000000
-4.677665 42.977707 14.696173 16.00000000
-8.478587 31.141571 37.002026 16.00000000
-8.899327 28.539847 60.238805 16.00000000
10.949579 63.320014 29.506031 16.00000000
-9.119938 26.610953 9.810331 16.00000000
-3.257780 45.842119 40.834882 16.00000000
19.184283 69.332211 64.233718 16.00000000
-0.407149 50.617135 66.509115 16.00000000
4.211345 56.662660 52.288761 16.00000000
17.637897 68.338040 3.712962 16.00000000
-4.543112 43.268553 25.090540 16.00000000
16.026363 67.243862 22.296187 16.00000000
-9.267292 24.516772 65.618449 16.00000000
5.904776 58.531887 23.529640 16.00000000
-5.885276 40.128689 28.974163 16.00000000
-9.293640 23.853646 38.808732 16.00000000
-2.080902 47.943309 31.316768 16.00000000
-6.452621 38.607796 28.842199 16.00000000
0.162784 51.457507 28.315069 16.00000000
-7.581183 35.008805 14.219791 16.00000000
-0.522860 50.443597 35.911641 16.00000000
-3.404151 45.566371 67.400359 16.00000000
21.326798 70.612000 47.053365 16.00000000
19.471847 69.507381 34.802774 16.00000000
-8.810058 29.166938 31.755979 16.00000000
-5.328718 41.496004 47.102270 16.00000000
-2.057177 47.983665 34.061586 16.00000000
-4.084059 44.231341 30.082065 16.00000000
-9.164016 26.080721 29.188720 16.00000000
-2.016286 48.053222 32.117044 16.00000000
1.321324 53.069058 47.897115 16.00000000
-0.424133 50.592092 10.515196 16.00000000
11.721608 63.969053 41.777231 16.00000000
-9.206581 25.546955 29.543545 16.00000000
6.424250 59.074429 49.010657 16.00000000
-9.160765 26.121485 9.006874 16.00000000
2.857868 55.048565 17.519752 16.00000000
22.348507 71.187767 23.231545 16.00000000
1.645844 53.506341 15.563929 16.00000000
-5.473979 41.152338 66.054019 16.00000000
17.791061 68.439723 23.699300 16.00000000
-4.692877 42.943832 18.523630 16.00000000
4.357900 56.828979 42.828796 16.00000000
-1.476934 48.945197 15.289225 16.00000000
12.899142 64.918794 5.500748 16.00000000
-6.403728 38.749235 54.732956 16.00000000
-8.292186 32.079926 36.008664 16.00000000
-9.013086 27.644010 57.920955 16.00000000
20.594609 70.185346 3.088938 16.00000000
0.775831 52.324492 38.913080 16.00000000
-4.853608 42.585902 29.917033 16.00000000
-8.481168 31.128579 36.018269 16.00000000
-5.229902 41.729790 52.443633 16.00000000
22.037794 71.014663 40.492605 16.00000000
4.955159 57.504238 5.019562 16.00000000
13.787251 65.608603 65.050335 16.00000000
-5.832301 40.262234 7.143536 16.00000000
21.380026 70.643016 31.772263 16.00000000
0.202116 51.515502 30.337998 16.00000000
-1.258929 49.298350 17.661201 16.00000000
-7.386798 35.702328 50.389667 16.00000000
3.807036 56.191640 18.903815 16.00000000
-5.058200 42.130302 25.118006 16.00000000
19.511586 69.531582 30.394319 16.00000000
19.410332 69.469918 14.620493 16.00000000
-2.452957 47.306444 6.494286 16.00000000
14.402632 66.071865 42.677348 16.00000000
-9.223055 25.306013 29.874343 16.00000000
-3.762267 44.870971 45.443995 16.00000000
21.952007 70.966870 41.941074 16.00000000
15.981704 67.212932 52.343900 16.00000000
8.299405 60.934883 52.114501 16.00000000
-9.043787 27.347195 19.554007 16.00000000
-0.036284 51.163979 16.298034 16.00000000
-7.394221 35.677237 16.916041 16.00000000
-7.931701 33.655336 64.498129 16.00000000
-4.318457 43.740667 23.968472 16.00000000
12.098753 64.277301 67.853137 16.00000000
6.914049 59.575313 15.890666 16.00000000
-4.984437 42.294563 28.408656 16.00000000
-3.616378 45.160956 31.011404 16.00000000
-4.599784 43.149457 67.702429 16.00000000
18.686411 69.015546 62.616270 16.00000000
12.272494 64.419302 26.044227 16.00000000
1.197018 52.901557 34.655080 16.00000000
15.962323 67.199509 37.126589 16.00000000
10.740601 63.142092 13.168338 16.00000000
16.967802 67.893178 45.520831 16.00000000
-0.208924 50.909419 11.818313 16.00000000
9.280806 61.849773 45.038858 16.00000000
-8.272324 32.172517 58.252131 16.00000000
21.179556 70.526200 45.205065 16.00000000
2.486189 54.589472 64.109871 16.00000000
20.946720 70.390524 9.433186 16.00000000
-1.942232 48.179190 55.074114 16.00000000
1.666071 53.533597 34.115095 16.00000000
8.871326 61.471538 34.950819 16.00000000
-2.936578 46.441389 5.284698 16.00000000
1.189835 52.891878 11.533391 16.00000000
12.825462 64.860993 53.085011 16.00000000
-7.668690 34.686208 29.175161 16.00000000
8.186035 60.825802 6.454199 16.00000000
6.182142 58.821570 50.656649 16.00000000
2.799037 54.975897 59.252552 16.00000000
5.630823 58.239709 24.590583 16.00000000
5.410910 58.000330 60.984048 16.00000000
1.164437 52.857655 3.106569 16.00000000
4.958952 57.508367 8.654645 16.00000000
-8.125824 32.830366 24.663770 16.00000000
-4.318574 43.740420 50.142261 16.00000000
1.221319 52.934302 17.926771 16.00000000
-4.347466 43.679704 29.030820 16.00000000
5.284131 57.862329 24.762276 16.00000000
14.298354 65.993363 6.826132 16.00000000
1.335018 53.087510 67.474124 16.00000000
-3.168702 46.009932 49.943471 16.00000000
-7.497735 35.316437 25.405758 16.00000000
21.537524 70.734792 6.240381 16.00000000
2.259920 54.299970 14.721715 16.00000000
14.352130 66.033847 58.984533 16.00000000
-1.096702 49.557211 11.174281 16.00000000
-1.877181 48.289844 7.946841 16.00000000
-9.031573 27.465274 48.877793 16.00000000
-9.110922 26.698119 47.009961 16.00000000
-3.355412 45.658190 51.281833 16.00000000
-5.027481 42.198709 65.780238 16.00000000
7.693254 60.351667 46.472734 16.00000000
0.922084 52.530557 66.490259 16.00000000
7.548843 60.211596 52.046480 16.00000000
-5.334504 41.482315 45.876389 16.00000000
6.434477 59.085111 11.005334 16.00000000
-7.478491 35.387377 54.751719 16.00000000
18.724171 69.039563 48.634262 16.00000000
-4.279667 43.822185 34.748756 16.00000000
1.196198 52.900453 8.933202 16.00000000
-8.591397 30.515779 13.843006 16.00000000
-9.131096 26.493547 27.016811 16.00000000
-8.575808 30.605001 18.519944 16.00000000
-1.489371 48.925049 13.228445 16.00000000
-9.167454 26.037604 6.998112 16.00000000
0.296720 51.649447 13.458546 16.00000000
-4.725162 42.871936 56.909547 16.00000000
-8.070589 33.078396 44.405356 16.00000000
-9.007125 27.691991 36.316954 16.00000000
-6.692043 37.915192 40.739553 16.00000000
-6.312195 38.996738 39.113263 16.00000000
-8.912454 28.436600 62.417322 16.00000000
-0.889381 49.877450 5.281609 16.00000000
20.385779 70.063659 33.326525 16.00000000
-0.740998 50.106649 60.501116 16.00000000
22.647124 71.354131 62.834884 16.00000000
13.252386 65.195906 20.850981 16.00000000
3.109807 55.359756 43.151754 16.00000000
7.811583 60.465519 63.531113 16.00000000
5.798794 58.421198 17.238466 16.00000000
13.266227 65.206764 12.045700 16.00000000
4.113100 56.551166 52.835227 16.00000000
5.245143 57.819890 57.988067 16.00000000
13.542819 65.423744 35.958747 16.00000000
2.121526 54.121485 8.290561 16.00000000
15.362953 66.772933 38.649822 16.00000000
17.723688 68.394995 44.475333 16.00000000
14.341588 66.025910 54.634936 16.00000000
13.807618 65.623935 44.886334 16.00000000
4.748475 57.272227 53.109185 16.00000000
-0.165150 50.973964 28.996033 16.00000000
16.482647 67.559873 10.807093 16.00000000
4.795599 57.325706 61.960105 16.00000000
2.182918 54.200662 64.982758 16.00000000
-9.289266 23.988950 25.952803 16.00000000
-7.221924 36.259659 25.666225 16.00000000
13.421968 65.328939 38.373240 16.00000000
-9.018470 27.591956 21.944625 16.00000000
-3.281377 45.797664 62.565107 16.00000000
-9.142460 26.351034 14.144187 16.00000000
-3.625618 45.142589 7.070488 16.00000000
4.614794 57.120518 50.884058 16.00000000
-4.451316 43.461463 47.179124 16.00000000
0.716406 52.240766 21.107185 16.00000000
-4.488375 43.383584 15.558992 16.00000000
-5.363672 41.413309 30.846855 16.00000000
-3.313562 45.737031 32.470534 16.00000000
3.808878 56.193821 41.170022 16.00000000
1.073812 52.735539 60.583597 16.00000000
-6.645127 38.050913 52.586498 16.00000000
0.136121 51.418191 24.697681 16.00000000
-8.545690 30.777375 37.058740 16.00000000
-5.757201 40.451556 52.918098 16.00000000
2.552996 54.671991 41.853223 16.00000000
0.379393 51.765929 66.841454 16.00000000
-0.343267 50.711329 12.406819 16.00000000
-9.234015 25.110463 38.164466 16.00000000
3.333364 55.630970 65.853851 16.00000000
10.740244 63.141788 19.008866 16.00000000
-7.025417 36.895397 11.936818 16.00000000
2.011418 53.979482 4.757563 16.00000000
-9.299055 23.686133 42.640845 16.00000000
-0.529501 50.433339 64.060426 16.00000000
-1.238493 49.331456 52.015201 16.00000000
21.064433 70.459117 8.715373 16.00000000
-8.936240 28.249522 65.741288 16.00000000
-6.493529 38.489457 62.740173 16.00000000
-9.094671 26.855243 37.606972 16.00000000
17.206926 68.051927 26.559001 16.00000000
10.850836 63.235945 24.300670 16.00000000
-7.972530 33.489963 62.867124 16.00000000
15.156039 66.623502 43.096320 16.00000000
9.895227 62.402038 67.741435 16.00000000
2.293735 54.343579 11.583862 16.00000000
4.314691 56.779943 13.694221 16.00000000
-2.095623 47.918268 39.265514 16.00000000
11.376673 63.683637 27.615859 16.00000000
18.775702 69.072338 58.380562 16.00000000
11.243033 63.569857 19.027960 16.00000000
-1.271621 49.277790 54.883911 16.00000000
-8.838521 28.978308 28.953272 16.00000000
-8.902118 28.517898 46.899885 16.00000000
21.960273 70.971475 36.874096 16.00000000
20.233712 69.971362 5.329345 16.00000000
-4.958919 42.351388 37.673077 16.00000000
14.966000 66.486258 49.674740 16.00000000
17.004440 67.917501 13.163282 16.00000000
-4.548358 43.257530 53.267123 16.00000000
5.023187 57.578288 48.731300 16.00000000
-8.987063 27.849786 59.532149 16.00000000
-5.315683 41.526844 65.367245 16.00000000
-6.846071 37.454756 24.462721 16.00000000
-1.047332 49.633471 41.701006 16.00000000
-8.962943 28.039495 27.320532 16.00000000
0.394715 51.787517 7.710355 16.00000000
-8.199925 32.497620 46.661529 16.00000000
-8.404225 31.515914 61.229519 16.00000000
13.380026 65.296037 62.500663 16.00000000
11.642227 63.904174 22.063495 16.00000000
-9.251083 24.805957 52.545018 16.00000000
21.328247 70.612844 16.071902 16.00000000
-4.228240 43.930258 26.305410 16.00000000
4.964738 57.514665 52.785285 16.00000000
-9.216455 25.423128 21.685627 16.00000000
13.841033 65.649090 26.841861 16.00000000
1.382606 53.151634 37.359726 16.00000000
-5.852172 40.212141 14.473695 16.00000000
-2.552463 47.128458 34.078575 16.00000000
3.381590 55.688053 41.423477 16.00000000
15.245107 66.687826 31.508761 16.00000000
11.895654 64.111304 55.796559 16.00000000
-0.142787 51.006939 37.258274 16.00000000
8.548468 61.173315 13.287735 16.00000000
-9.037892 27.404190 29.617936 16.00000000
-9.192498 25.723559 11.332222 16.00000000
-6.518905 38.416049 21.013572 16.00000000
-8.035766 33.233833 37.687417 16.00000000
19.695266 69.643445 26.853635 16.00000000
4.074335 56.507173 21.148358 16.00000000
1.463102 53.260101 14.772321 16.00000000
-6.595235 38.195241 52.182489 16.00000000
-8.389614 31.589470 3.401138 16.00000000
10.913583 63.289367 44.943598 16.00000000
-8.733507 29.674244 9.747379 16.00000000
4.481281 56.969000 36.897009 16.00000000
-8.703570 29.872636 14.273535 16.00000000
-9.281968 24.214736 57.259877 16.00000000
1.208075 52.916457 16.163166 16.00000000
-8.621777 30.341907 5.819274 16.00000000
5.865657 58.491031 43.236237 16.00000000
0.377722 51.763576 66.438908 16.00000000
-7.885689 33.841703 47.822966 16.00000000
3.821244 56.208458 41.908100 16.00000000
-0.652784 50.242910 19.873586 16.00000000
12.713248 64.772963 58.902645 16.00000000
-8.364255 31.717125 33.292194 16.00000000
-3.391448 45.590302 6.387992 16.00000000
-7.908542 33.749141 23.034533 16.00000000
-4.620273 43.105511 16.139353 16.00000000
5.397202 57.985409 66.752456 16.00000000
3.284528 55.573164 17.960597 16.00000000
10.547479 62.977670 62.513233 16.00000000
8.672265 61.287666 11.327620 16.00000000
-6.697433 37.899599 50.420469 16.00000000
1.407580 53.185285 61.415782 16.00000000
-9.050749 27.279884 18.217716 16.00000000
-6.201004 39.296427 44.126846 16.00000000
16.688676 67.702563 45.638130 16.00000000
18.027793 68.596640 38.549340 16.00000000
-6.724658 37.820844 49.517599 16.00000000
16.724822 67.727597 30.485545 16.00000000
-5.034344 42.183426 61.461300 16.00000000
-6.789299 37.631822 38.847175 16.00000000
3.095387 55.341945 8.735066 16.00000000
0.716917 52.241485 18.618072 16.00000000
-8.302623 32.027384 65.199974 16.00000000
-4.361918 43.649333 27.134255 16.00000000
15.490389 66.864966 42.051138 16.00000000
-9.157261 26.165434 48.390989 16.00000000
-8.926312 28.327609 43.624946 16.00000000
18.719617 69.036666 19.645122 16.00000000
7.308414 59.970602 49.029021 16.00000000
5.254812 57.830415 12.306745 16.00000000
17.403437 68.182387 64.521717 16.00000000
11.756345 63.997445 47.815062 16.00000000
-7.386044 35.704880 25.446468 16.00000000
21.779438 70.870729 43.842505 16.00000000
17.222214 68.062077 66.164428 16.00000000
-5.419365 41.281548 55.041631 16.00000000
13.523720 65.408762 13.564006 16.00000000
14.762050 66.338967 26.558851 16.00000000
0.556676 52.015713 9.022299 16.00000000
-1.333290 49.177890 26.957557 16.00000000
0.844014 52.420559 62.426159 16.00000000
19.826253 69.723217 11.727868 16.00000000
1.787278 53.690414 63.872087 16.00000000
-8.898859 28.543532 58.752638 16.00000000
-5.889555 40.117900 67.300220 16.00000000
4.428039 56.908577 23.885565 16.00000000
-9.094363 26.858216 15.215934 16.00000000
-8.919875 28.378236 6.369715 16.00000000
17.993110 68.573859 12.688429 16.00000000
7.778258 60.433455 19.323624 16.00000000
0.332266 51.699529 6.571370 16.00000000
-9.054999 27.238789 49.155267 16.00000000
-7.985459 33.437596 12.467798 16.00000000
-8.327058 31.904377 65.955972 16.00000000
3.629835 55.981893 63.601486 16.00000000
5.176106 57.744743 21.293532 16.00000000
15.257445 66.696736 17.133455 16.00000000
-9.067971 27.113380 4.266472 16.00000000
-3.570205 45.252734 67.443586 16.00000000
17.008972 67.920510 38.284711 16.00000000
1.220348 52.932994 40.986041 16.00000000
17.841368 68.473121 65.158710 16.00000000
-7.017036 36.921538 58.654147 16.00000000
6.794608 59.455592 45.362220 16.00000000
10.030727 62.522202 20.854004 16.00000000
-1.411062 49.051905 56.068108 16.00000000
20.714340 70.255115 18.671409 16.00000000
-8.535343 30.836597 39.460836 16.00000000
11.351628 63.662314 15.644246 16.00000000
-4.323493 43.730084 11.463550 16.00000000
6.911329 59.572587 30.777568 16.00000000
-7.407419 35.632622 57.316533 16.00000000
-2.550803 47.131427 32.167739 16.00000000
-9.216794 25.417710 22.132698 16.00000000
18.163345 68.682856 46.613480 16.00000000
-8.953616 28.112856 44.967485 16.00000000
-8.409217 31.490785 57.290477 16.00000000
-1.698257 48.586668 61.720044 16.00000000
14.699404 66.293725 59.380550 16.00000000
7.734100 60.390968 24.086336 16.00000000
9.401455 61.961216 58.210673 16.00000000
-8.015925 33.314198 54.895016 16.00000000
-8.592409 30.509990 12.844508 16.00000000
-9.299984 23.657387 64.205305 16.00000000
3.043903 55.278353 31.554590 16.00000000
-2.750790 46.773709 28.445259 16.00000000
16.449315 67.536788 25.119500 16.00000000
13.406889 65.317111 19.442707 16.00000000
-5.165372 41.882458 32.936389 16.00000000
-1.791918 48.434878 54.828182 16.00000000
5.091204 57.652325 21.674137 16.00000000
-9.029557 27.484770 46.290441 16.00000000
19.204904 69.344811 11.676208 16.00000000
-8.283506 32.122308 50.949775 16.00000000
21.164765 70.517582 6.261487 16.00000000
-8.468726 31.191212 34.807924 16.00000000
10.832514 63.220346 23.550291 16.00000000
-7.135873 36.550539 23.717229 16.00000000
7.046741 59.708316 50.404995 16.00000000
9.028114 61.616362 10.632666 16.00000000
-5.990567 39.863256 53.937444 16.00000000
-8.849641 28.904618 67.169225 16.00000000
16.713525 67.719773 67.211575 16.00000000
9.990849 62.486837 32.890972 16.00000000
-7.645184 34.772863 4.694633 16.00000000
18.891085 69.145726 58.002733 16.00000000
2.976786 55.195451 7.814095 16.00000000
-7.862124 33.937153 22.086932 16.00000000
11.619181 63.885338 62.749544 16.00000000
0.566810 52.029991 8.602059 16.00000000
19.491792 69.519528 19.337696 16.00000000
-9.243180 24.946953 4.461849 16.00000000
-8.901174 28.525324 13.726414 16.00000000
-1.315300 49.207033 58.239880 16.00000000
-5.724133 40.534920 13.474150 16.00000000
5.949318 58.578407 56.383685 16.00000000
-8.611339 30.401647 8.623750 16.00000000
2.049410 54.028480 43.028095 16.00000000
-8.748073 29.577715 51.228606 16.00000000
6.918277 59.579551 52.622780 16.00000000
-8.703623 29.872283 15.529292 16.00000000
-8.894151 28.580558 63.430867 16.00000000
19.347934 69.431917 46.787964 16.00000000
12.948792 64.957743 33.351525 16.00000000
7.190802 59.852715 45.693325 16.00000000
-9.278044 24.324950 63.505654 16.00000000
-9.146177 26.304419 4.394225 16.00000000
-8.541546 30.801096 22.550273 16.00000000
-4.092003 44.215552 56.149046 16.00000000
20.619852 70.200055 9.381820 16.00000000
-8.680779 30.004219 66.531556 16.00000000
6.795155 59.456140 24.238446 16.00000000
21.873265 70.923001 67.228788 16.00000000
20.098471 69.888999 30.800077 16.00000000
4.089701 56.524611 25.835128 16.00000000
15.601549 66.945245 6.283065 16.00000000
10.645117 63.060798 37.767723 16.00000000
8.492118 61.120304 20.407844 16.00000000
-7.689214 34.610548 22.484290 16.00000000
0.692090 52.206505 35.777746 16.00000000
8.893105 61.491655 67.596305 16.00000000
-0.646520 50.252585 25.478028 16.00000000
7.738346 60.395053 30.986925 16.00000000
-3.838919 44.718610 33.219206 16.00000000
3.542167 55.878123 30.980418 16.00000000
8.294417 60.930084 41.492228 16.00000000
6.294058 58.938456 7.157197 16.00000000
18.324557 68.785393 13.795305 16.00000000
10.736667 63.138743 67.451365 16.00000000
-5.094725 42.048965 48.053316 16.00000000
-5.925407 40.027520 63.756404 16.00000000
-4.020315 44.358046 54.607598 16.00000000
7.467686 60.130248 62.845135 16.00000000
2.485307 54.588383 67.327503 16.00000000
-9.279024 24.305782 19.094413 16.00000000
9.277716 61.846918 6.266171 16.00000000
-6.010245 39.810573 34.627186 16.00000000
16.768836 67.758079 64.120954 16.00000000
-7.869387 33.907733 38.630734 16.00000000
-3.182097 45.984697 39.667955 16.00000000
-3.001135 46.325610 63.871393 16.00000000
4.414755 56.893502 27.346570 16.00000000
2.269548 54.312386 36.909199 16.00000000
15.611273 66.952267 24.934541 16.00000000
20.447422 70.099579 57.818905 16.00000000
-6.460623 38.584648 64.711615 16.00000000
-2.393470 47.411625 51.222386 16.00000000
1.063808 52.722060 44.309842 16.00000000
20.643540 70.213859 12.506481 16.00000000
7.204879 59.866825 30.569670 16.00000000
-7.380289 35.724333 50.953990 16.00000000
11.329656 63.643607 9.003921 16.00000000
-8.659172 30.127885 25.953682 16.00000000
10.405359 62.854432 18.229543 16.00000000
-7.356747 35.803913 31.989675 16.00000000
17.607721 68.318007 49.155858 16.00000000
7.872190 60.523833 60.250075 16.00000000
-6.705163 37.877238 56.725846 16.00000000
3.925276 56.331597 39.656151 16.00000000
18.971693 69.196996 12.031671 16.00000000
-4.882448 42.521679 41.199659 16.00000000
6.317608 58.963051 47.227872 16.00000000
-1.380971 49.100651 36.307699 16.00000000
13.822421 65.635079 66.675741 16.00000000
5.594599 58.200279 17.765793 16.00000000
4.375611 56.849078 29.058263 16.00000000
8.541198 61.166600 55.673292 16.00000000
-9.043679 27.348234 41.096624 16.00000000
-4.778882 42.752308 23.637432 16.00000000
-5.781803 40.389537 6.268519 16.00000000
-6.767697 37.696339 44.472459 16.00000000
-4.538803 43.277609 5.088777 16.00000000
9.322206 61.888014 18.841649 16.00000000
-7.887057 33.836163 43.587117 16.00000000
-5.743369 40.486427 39.393951 16.00000000
4.018079 56.441444 56.554695 16.00000000
-8.457521 31.247621 43.896803 16.00000000
-0.776432 50.051916 33.272477 16.00000000
-8.877183 28.714021 67.954645 16.00000000
-3.049931 46.233683 49.275399 16.00000000
-1.539198 48.844334 32.361140 16.00000000
17.966263 68.556036 35.719048 16.00000000
-5.589623 40.874009 19.955816 16.00000000
-1.256744 49.301889 19.543305 16.00000000
-8.058698 33.131791 22.255878 16.00000000
8.984752 61.576309 6.131652 16.00000000
15.966662 67.202514 49.849390 16.00000000
-9.312088 23.282929 64.463897 16.00000000
0.892027 52.488207 24.658999 16.00000000
-7.688499 34.613184 66.466859 16.00000000
14.663814 66.268022 24.621172 16.00000000
12.775790 64.822026 48.951114 16.00000000
-8.856140 28.861546 62.361117 16.00000000
-4.538209 43.278858 18.723578 16.00000000
4.870854 57.411110 26.483855 16.00000000
-5.572671 40.916744 52.310114 16.00000000
1.411761 53.190919 51.904933 16.00000000
9.815677 62.331492 66.876459 16.00000000
7.054820 59.716414 41.852128 16.00000000
8.064138 60.708518 32.160374 16.00000000
3.679743 56.040967 19.889236 16.00000000
-9.213468 25.460592 53.625263 16.00000000
17.605073 68.316249 31.995881 16.00000000
22.790724 71.434134 37.686319 16.00000000
12.145831 64.315778 15.639319 16.00000000
0.962601 52.585685 36.469287 16.00000000
-8.035012 33.236888 46.163533 16.00000000
20.557506 70.163726 48.634888 16.00000000
-6.378863 38.817052 14.014650 16.00000000
-8.598702 30.473973 44.281014 16.00000000
20.040916 69.853947 9.945868 16.00000000
-2.805948 46.675048 45.945132 16.00000000
13.709967 65.550422 9.002360 16.00000000
-3.416910 45.542335 5.937780 16.00000000
-7.178300 36.407121 28.052146 16.00000000
21.709883 70.831978 33.346618 16.00000000
10.358346 62.812740 46.099070 16.00000000
16.579888 67.627219 56.813620 16.00000000
14.895871 66.435611 6.352196 16.00000000
16.373068 67.483981 67.314400 16.00000000
-3.302440 45.757984 24.569418 16.00000000
15.685044 67.005544 66.731364 16.00000000
19.589428 69.578989 49.829072 16.00000000
-4.200948 43.987612 21.498257 16.00000000
-4.742679 42.832928 60.604235 16.00000000
5.459733 58.053475 46.379355 16.00000000
-8.363927 31.718775 50.148230 16.00000000
8.257096 60.894175 58.065490 16.00000000
9.307963 61.874858 29.580777 16.00000000
1.071469 52.732383 37.555996 16.00000000
14.208558 65.925764 4.684079 16.00000000
-8.740272 29.629409 26.064247 16.00000000
9.275207 61.844601 48.886250 16.00000000
-9.277233 24.339418 3.219819 16.00000000
13.897542 65.691630 5.941763 16.00000000
6.060555 58.694584 47.404061 16.00000000
-6.158887 39.409944 29.137772 16.00000000
-7.991015 33.415093 50.609801 16.00000000
0.317038 51.678074 56.979293 16.00000000
20.373565 70.056533 64.245972 16.00000000
1.685270 53.558858 41.579152 16.00000000
-5.799262 40.345524 16.000258 16.00000000
18.209936 68.712490 29.878322 16.00000000
14.537377 66.173302 39.733030 16.00000000
-8.380875 31.633462 48.371879 16.00000000
-6.822090 37.529548 66.201788 16.00000000
-0.273115 50.814769 37.617019 16.00000000
2.055625 54.036495 52.444026 16.00000000
9.227879 61.800884 32.985447 16.00000000
1.260941 52.987692 7.681263 16.00000000
-8.256282 32.244553 60.443592 16.00000000
15.987413 67.216886 37.872439 16.00000000
16.554907 67.609918 52.372390 16.00000000
9.963841 62.462886 31.664249 16.00000000
11.008873 63.370496 25.525647 16.00000000
3.038573 55.271770 18.201818 16.00000000
15.795598 67.084039 21.549570 16.00000000
4.598448 57.101967 35.193308 16.00000000
9.646629 62.181577 47.061500 16.00000000
-5.795031 40.356189 62.302966 16.00000000
20.154736 69.923265 49.325367 16.00000000
21.379856 70.642917 19.308203 16.00000000
-8.400368 31.535332 66.238709 16.00000000
5.465414 58.059658 34.215575 16.00000000
-9.119023 26.619797 48.631267 16.00000000
-7.969296 33.503064 9.206818 16.00000000
21.418573 70.665478 28.481249 16.00000000
18.686115 69.015357 10.114862 16.00000000
-6.277952 39.089032 7.647634 16.00000000
-3.947431 44.502917 58.682941 16.00000000
-4.583005 43.184719 10.445217 16.00000000
10.326712 62.784687 66.583108 16.00000000
12.849476 64.879831 5.907624 16.00000000
-9.247554 24.868926 22.428776 16.00000000
-6.044452 39.718375 39.362214 16.00000000
-8.113116 32.887434 62.556958 16.00000000
1.895357 53.829801 53.854831 16.00000000
1.153756 52.843263 66.603183 16.00000000
-9.049594 27.291049 52.968322 16.00000000
-5.098818 42.039850 60.596769 16.00000000
-0.236903 50.868164 15.174042 16.00000000
4.767299 57.293590 53.824642 16.00000000
-8.054718 33.149662 41.280210 16.00000000
13.383332 65.298630 40.713955 16.00000000
15.316974 66.739728 58.300725 16.00000000
6.234255 58.875997 34.651732 16.00000000
-4.760829 42.792511 50.211438 16.00000000
-7.441126 35.518685 4.689880 16.00000000
19.887436 69.760477 7.012527 16.00000000
12.552496 64.646857 5.619988 16.00000000
6.700500 59.361263 17.369694 16.00000000
-8.128508 32.818317 31.236360 16.00000000
21.134309 70.499834 60.803907 16.00000000
-7.832791 34.055964 38.228012 16.00000000
7.801054 60.455388 45.686489 16.00000000
8.047244 60.692263 22.370620 16.00000000
11.533806 63.815560 28.695794 16.00000000
13.362125 65.281994 5.043939 16.00000000
11.141047 63.483027 38.256000 16.00000000
15.665788 66.991637 58.248780 16.00000000
-8.340001 31.839222 57.342688 16.00000000
9.736440 62.261223 4.373457 16.00000000
-7.286180 36.042453 16.359007 16.00000000
7.725794 60.382976 65.139599 16.00000000
22.653380 71.357617 34.577578 16.00000000
-6.566717 38.277738 9.511175 16.00000000
-2.403480 47.394598 56.440496 16.00000000
9.138999 61.718786 8.635030 16.00000000
3.788816 56.170073 37.634995 16.00000000
6.597588 59.255465 46.013133 16.00000000
2.695569 54.848096 40.194798 16.00000000
-8.469100 31.189334 42.668971 16.00000000
-1.011350 49.689051 59.225231 16.00000000
-2.940934 46.433599 48.590548 16.00000000
-1.199546 49.394546 45.699678 16.00000000
-9.214633 25.445975 38.379694 16.00000000
4.504675 56.995549 6.708835 16.00000000
14.761289 66.338417 21.988745 16.00000000
-4.717431 42.889152 34.143068 16.00000000
22.162911 71.084368 49.002954 16.00000000
-7.590887 34.973029 57.759061 16.00000000
-8.442445 31.323512 39.163767 16.00000000
-2.870659 46.559299 34.826094 16.00000000
-4.637269 43.067664 19.766784 16.00000000
-4.029329 44.340128 42.484836 16.00000000
9.108539 61.690650 22.961437 16.00000000
19.595893 69.582926 26.008489 16.00000000
-5.683579 40.637153 13.066507 16.00000000
-3.654534 45.085114 56.908285 16.00000000
8.548304 61.173164 32.465304 16.00000000
-9.040136 27.382495 5.378697 16.00000000
-3.407368 45.560310 55.422799 16.00000000
-5.767842 40.424731 41.579344 16.00000000
17.494198 68.242642 55.202603 16.00000000
9.344884 61.908961 22.748953 16.00000000
-8.356922 31.754041 26.304020 16.00000000
-9.260171 24.643816 5.503029 16.00000000
8.820209 61.424322 6.653981 16.00000000
-9.266464 24.531553 29.733607 16.00000000
14.961466 66.482983 35.237249 16.00000000
-9.094486 26.857031 26.472504 16.00000000
4.540745 57.036482 40.836944 16.00000000
11.177913 63.514415 32.496282 16.00000000
-8.562895 30.678904 20.689974 16.00000000
-1.290862 49.246622 64.960503 16.00000000
12.104569 64.282054 6.171540 16.00000000
19.557255 69.559395 3.334256 16.00000000
8.449136 61.078948 44.331873 16.00000000
21.941186 70.960841 9.866904 16.00000000
22.409156 71.221555 48.631030 16.00000000
-2.945628 46.425203 38.858477 16.00000000
-4.538134 43.279016 6.105839 16.00000000
11.683626 63.938010 25.495546 16.00000000
-2.891701 46.521661 54.082515 16.00000000
-1.379664 49.102768 66.078044 16.00000000
-1.272569 49.276254 42.045126 16.00000000
1.084003 52.749272 23.950552 16.00000000
20.103553 69.892094 51.981401 16.00000000
-7.697280 34.580810 60.624490 16.00000000
-9.102038 26.784011 10.890746 16.00000000
17.906972 68.516674 19.851165 16.00000000
-6.299881 39.029928 15.096337 16.00000000
20.205436 69.954141 61.020193 16.00000000
-4.460788 43.441558 37.345287 16.00000000
2.971260 55.188625 13.103568 16.00000000
9.041206 61.628455 17.020595 16.00000000
-7.841073 34.022418 65.052410 16.00000000
-8.518802 30.931264 38.080864 16.00000000
15.434512 66.824613 58.628141 16.00000000
15.766778 67.064080 35.115559 16.00000000
-9.190940 25.743093 24.452472 16.00000000
-4.605783 43.136850 41.742881 16.00000000
-9.244471 24.923928 25.361456 16.00000000
6.187128 58.826777 25.433994 16.00000000
13.390416 65.304187 34.491270 16.00000000
1.142582 52.828205 50.123045 16.00000000
-7.484722 35.364408 16.381963 16.00000000
5.587754 58.192828 8.293853 16.00000000
-8.327572 31.901790 20.545259 16.00000000
-6.589518 38.211778 51.774613 16.00000000
18.200912 68.706750 56.039271 16.00000000
4.057177 56.487701 42.209025 16.00000000
-9.096421 26.838321 42.686548 16.00000000
19.353869 69.435531 9.176080 16.00000000
0.697605 52.214276 42.074374 16.00000000
-9.294034 23.841442 39.332043 16.00000000
-9.272564 24.422716 54.389048 16.00000000
2.526480 54.639239 50.254196 16.00000000
3.891730 56.291890 54.187670 16.00000000
-8.302602 32.027488 44.735577 16.00000000
16.812050 67.788009 59.959430 16.00000000
-2.240147 47.672431 8.118456 16.00000000
15.971252 67.205693 8.745826 16.00000000
12.254402 64.404515 49.631753 16.00000000
20.965301 70.401352 42.386230 16.00000000
3.711567 56.078636 14.662165 16.00000000
21.391033 70.649430 4.083060 16.00000000
3.968719 56.383019 39.238309 16.00000000
-7.238280 36.204369 52.601172 16.00000000
5.577172 58.181308 9.862257 16.00000000
-7.925010 33.682440 58.508903 16.00000000
13.563998 65.440359 65.952805 16.00000000
10.134672 62.614383 5.771063 16.00000000
9.786571 62.305680 20.001527 16.00000000
8.783888 61.390772 42.684673 16.00000000
22.058567 71.026236 61.556582 16.00000000
0.368958 51.751226 21.429806 16.00000000
-9.271027 24.450141 45.501353 16.00000000
-8.809699 29.169316 57.204660 16.00000000
9.285312 61.853935 26.510740 16.00000000
-2.254521 47.647979 48.037513 16.00000000
18.948259 69.182091 44.512647 16.00000000
-9.270360 24.462050 51.071817 16.00000000
0.584395 52.054768 5.451131 16.00000000
-0.267872 50.822500 6.354515 16.00000000
-6.883723 37.337322 37.904328 16.00000000
-5.679836 40.646587 21.379132 16.00000000
-0.667631 50.219976 10.268877 16.00000000
-0.972955 49.748357 17.826656 16.00000000
20.385241 70.063345 13.874548 16.00000000
-9.148115 26.280127 36.351815 16.00000000
22.383777 71.207417 28.111967 16.00000000
-0.675169 50.208332 44.009865 16.00000000
9.107230 61.689441 44.729920 16.00000000
21.981171 70.983118 42.324879 16.00000000
14.287250 65.985004 48.029132 16.00000000
-7.066854 36.766160 18.492189 16.00000000
2.068109 54.052595 55.695668 16.00000000
11.035582 63.393235 52.116630 16.00000000
2.731952 54.893035 36.811872 16.00000000
-0.427399 50.587276 55.641799 16.00000000
-2.189086 47.759286 4.208149 16.00000000
-5.854933 40.205181 45.324733 16.00000000
-9.200368 25.624861 63.623362 16.00000000
-1.315620 49.206515 58.885239 16.00000000
-7.089369 36.695937 15.344572 16.00000000
6.654979 59.315405 38.485067 16.00000000
-6.362033 38.862413 24.350339 16.00000000
-3.260770 45.836485 67.831074 16.00000000
-6.145202 39.446827 66.847189 16.00000000
16.327029 67.452095 38.838290 16.00000000
15.248968 66.690614 7.080045 16.00000000
9.370444 61.932571 43.647321 16.00000000
-3.845506 44.705516 34.750810 16.00000000
-7.610092 34.902231 21.836725 16.00000000
9.505777 62.056667 40.399085 16.00000000
-2.357695 47.472478 9.589163 16.00000000
-0.574636 50.363621 59.463850 16.00000000
-8.539208 30.814476 19.720539 16.00000000
3.135687 55.391723 5.439483 16.00000000
9.591473 62.132663 21.715978 16.00000000
1.796293 53.702041 41.912203 16.00000000
-8.854563 28.871999 58.965634 16.00000000
-7.456207 35.467706 42.082591 16.00000000
18.905734 69.155043 60.322694 16.00000000
9.859719 62.370549 61.296393 16.00000000
0.756282 52.296949 55.681667 16.00000000
-7.584706 34.995815 52.223834 16.00000000
11.637832 63.900582 10.664024 16.00000000
-8.581023 30.575157 49.321444 16.00000000
-3.593480 45.206469 55.330972 16.00000000
4.691302 57.207343 15.250671 16.00000000
-5.541668 40.992195 47.426167 16.00000000
20.182207 69.939995 33.986984 16.00000000
-8.261182 32.222550 42.129104 16.00000000
-2.691974 46.878914 35.217383 16.00000000
-6.568770 38.271798 34.420186 16.00000000
-7.078208 36.730748 67.953223 16.00000000
0.062227 51.309234 51.825684 16.00000000
4.771821 57.298722 29.431026 16.00000000
0.902698 52.503242 37.297685 16.00000000
9.661017 62.194336 58.148784 16.00000000
-9.107820 26.728112 42.123286 16.00000000
-8.440730 31.332147 50.249306 16.00000000
0.649207 52.146085 26.643592 16.00000000
-9.306904 23.443309 59.438086 16.00000000
-8.245397 32.293433 61.763566 16.00000000
5.542093 58.143125 38.026080 16.00000000
0.661281 52.163097 49.144890 16.00000000
-8.446821 31.301483 46.857509 16.00000000
13.797936 65.616646 65.726591 16.00000000
12.337766 64.472650 39.176355 16.00000000
-9.108841 26.718246 16.515928 16.00000000
0.872674 52.460939 39.660523 16.00000000
6.301885 58.946630 21.663780 16.00000000
-5.488417 41.118181 37.452104 16.00000000
7.099144 59.760842 15.019818 16.00000000
4.748451 57.272200 38.454011 16.00000000
20.530562 70.148026 8.339556 16.00000000
-9.212764 25.469413 51.244827 16.00000000
2.526348 54.639076 47.484853 16.00000000
13.903863 65.696388 17.288569 16.00000000
-8.452775 31.271510 30.198229 16.00000000
3.538895 55.874251 50.789185 16.00000000
18.374710 68.817292 9.835835 16.00000000
2.812790 54.992885 21.887013 16.00000000
-8.772216 29.417714 40.451845 16.00000000
5.021703 57.576673 32.501368 16.00000000
16.301377 67.434330 63.481197 16.00000000
21.708663 70.831298 40.499770 16.00000000
-9.300329 23.646727 43.310057 16.00000000
-8.771233 29.424230 54.115527 16.00000000
-3.126569 46.089306 12.197359 16.00000000
10.192331 62.665515 10.269865 16.00000000
-7.216904 36.276627 18.027324 16.00000000
4.175177 56.621614 46.158446 16.00000000
-8.640203 30.236449 18.400301 16.00000000
-4.077174 44.245026 40.815886 16.00000000
-4.702047 42.923412 21.174434 16.00000000
12.136896 64.308476 21.488775 16.00000000
-6.026917 39.765638 34.011932 16.00000000
0.567192 52.030529 36.922100 16.00000000
-7.559001 35.090577 54.568314 16.00000000
16.780169 67.765929 25.825711 16.00000000
22.687640 71.376704 59.547441 16.00000000
-5.096755 42.044444 56.610437 16.00000000
22.342549 71.184447 27.619888 16.00000000
3.822413 56.209841 67.993701 16.00000000
-4.261739 43.859861 41.868597 16.00000000
-2.650878 46.952422 3.895123 16.00000000
-1.360637 49.133590 34.474593 16.00000000
18.025284 68.595044 16.850417 16.00000000
-4.336547 43.702650 41.179698 16.00000000
16.502636 67.573716 13.983395 16.00000000
0.647884 52.144221 56.439228 16.00000000
22.156830 71.080980 50.809847 16.00000000
-4.601667 43.145500 7.467413 16.00000000
-4.803698 42.697047 4.493736 16.00000000
5.903328 58.530375 5.717260 16.00000000
-8.585884 30.547331 42.283283 16.00000000
14.772566 66.346562 31.346171 16.00000000
19.065105 69.256409 13.103006 16.00000000
-4.286749 43.807302 62.901682 16.00000000
3.996309 56.415676 17.841564 16.00000000
-8.621902 30.341193 6.397589 16.00000000
-8.286251 32.109803 12.007671 16.00000000
-7.776946 34.282157 15.480386 16.00000000
-3.344190 45.679332 3.576065 16.00000000
-4.727317 42.867137 62.976913 16.00000000
18.650707 68.992837 20.609985 16.00000000
14.959948 66.481887 39.902047 16.00000000
-6.348121 38.899909 39.973026 16.00000000
13.554985 65.433289 66.768166 16.00000000
-6.981982 37.030866 7.920608 16.00000000
15.995910 67.222771 5.719160 16.00000000
-7.921273 33.697576 52.565691 16.00000000
-6.269735 39.111179 55.894806 16.00000000
19.812825 69.715039 65.148275 16.00000000
18.070194 68.623608 38.911325 16.00000000
15.879974 67.142476 24.985462 16.00000000
12.454052 64.567693 64.864169 16.00000000
-9.074652 27.048786 11.708243 16.00000000
-8.976810 27.930428 64.358396 16.00000000
-2.480354 47.257439 8.733599 16.00000000
-8.896128 28.565011 57.797927 16.00000000
-1.321632 49.196776 39.026986 16.00000000
-6.775742 37.673067 56.059837 16.00000000
2.148380 54.156119 44.137580 16.00000000
0.346916 51.720171 30.042431 16.00000000
-5.677950 40.651344 50.016869 16.00000000
15.917207 67.168263 23.622130 16.00000000
8.382906 61.015224 24.092194 16.00000000
-7.512237 35.262972 36.874912 16.00000000
-8.061026 33.121337 51.412002 16.00000000
-7.924865 33.683027 8.174371 16.00000000
-1.275859 49.270925 55.512491 16.00000000
12.569699 64.660352 65.687993 16.00000000
-8.741331 29.622393 61.396366 16.00000000
11.348275 63.659459 38.642090 16.00000000
-7.127545 36.576873 9.060176 16.00000000
6.327429 58.973308 48.117648 16.00000000
9.707276 62.235359 12.111185 16.00000000
21.462551 70.691104 58.130124 16.00000000
-8.004844 33.359080 5.145761 16.00000000
-6.472840 38.549305 13.748948 16.00000000
-6.309671 39.003543 47.163928 16.00000000
4.058888 56.489643 50.707117 16.00000000
-2.573757 47.090369 47.927458 16.00000000
-8.844725 28.937194 45.436458 16.00000000
16.286447 67.423989 60.280195 16.00000000
-8.739302 29.635838 51.743666 16.00000000
3.135458 55.391440 61.190184 16.00000000
-4.952507 42.365667 46.604381 16.00000000
8.884257 61.483483 56.518210 16.00000000
-3.408861 45.557498 53.174122 16.00000000
17.689623 68.372381 66.058990 16.00000000
0.792559 52.348062 23.249436 16.00000000
-9.221382 25.335849 55.327445 16.00000000
6.087962 58.723207 13.993092 16.00000000
20.862625 70.341521 47.830812 16.00000000
12.936132 64.947811 50.053739 16.00000000
6.064905 58.699127 13.521202 16.00000000
-9.081448 26.983079 10.307961 16.00000000
19.238398 69.365209 27.297635 16.00000000
-6.288226 39.061342 46.574101 16.00000000
20.153744 69.922660 13.376765 16.00000000
-6.761219 37.715079 25.966140 16.00000000
18.274725 68.753698 40.385207 16.00000000
-8.623030 30.334736 46.649975 16.00000000
15.931829 67.178390 11.654174 16.00000000
-5.481825 41.133775 61.238169 16.00000000
-1.627463 48.701351 38.296565 16.00000000
0.123614 51.399749 26.876100 16.00000000
-8.933815 28.268596 34.603213 16.00000000
-7.784652 34.250944 9.766877 16.00000000
14.009088 65.775603 53.142620 16.00000000
9.252192 61.823342 11.341002 16.00000000
-5.898068 40.096440 19.163056 16.00000000
-6.272856 39.102768 55.496238 16.00000000
18.042353 68.605900 18.420613 16.00000000
-5.141152 41.939760 37.721505 16.00000000
