24.964028 1.296365 67.196707 4.00000000
-24.996688 -0.371674 9.770328 4.00000000
9.760028 23.012936 18.993320 4.00000000
-1.325046 -24.963046 39.042403 4.00000000
-17.137834 -17.963252 22.251630 4.00000000
24.757892 3.464086 27.091898 4.00000000
-13.824155 -20.826577 65.782368 4.00000000
9.462654 23.138336 9.542216 4.00000000
20.441593 -14.387219 14.100270 4.00000000
17.523570 17.827078 31.346633 4.00000000
19.042920 -16.193196 26.823381 4.00000000
-24.997241 0.238287 16.684502 4.00000000
-24.931783 1.831189 3.979319 4.00000000
-3.877219 -24.694493 59.907261 4.00000000
-10.350997 -22.753799 44.648090 4.00000000
-24.432172 5.284263 61.078058 4.00000000
-1.842791 -24.930530 62.711674 4.00000000
-12.493825 21.650843 46.818315 4.00000000
-22.784665 10.283389 5.101893 4.00000000
0.689374 -24.987581 27.767418 4.00000000
24.539970 -4.313534 62.265001 4.00000000
12.304725 -21.760177 63.893921 4.00000000
-19.340973 -15.760114 52.746285 4.00000000
6.531860 24.130112 48.676804 4.00000000
4.495772 24.589450 37.168537 4.00000000
-4.701277 24.436075 31.660570 4.00000000
3.664765 -24.727446 55.767338 4.00000000
-22.795722 -10.260446 11.434929 4.00000000
2.432353 -24.878793 12.617489 4.00000000
-0.638453 -24.989352 43.473812 4.00000000
-6.981824 23.825004 46.263120 4.00000000
20.348847 -14.518906 26.930637 4.00000000
18.455100 16.860041 21.866360 4.00000000
4.067608 -24.665067 43.276762 4.00000000
-2.693189 24.853475 62.224332 4.00000000
24.930828 1.857519 27.516433 4.00000000
-24.995063 0.440007 34.947530 4.00000000
-24.797850 -3.149503 54.772034 4.00000000
-24.996952 -0.080083 65.526779 4.00000000
4.358667 24.614784 58.905092 4.00000000
23.378441 8.850075 61.212815 4.00000000
-1.550170 -24.948908 47.040449 4.00000000
24.970908 -1.196418 44.781432 4.00000000
22.748091 10.362387 38.076223 4.00000000
5.933255 24.282961 36.139411 4.00000000
8.422724 -23.535541 3.468485 4.00000000
23.808926 7.615267 5.126839 4.00000000
2.996572 -24.816837 17.060474 4.00000000
-10.177591 -22.834083 16.139034 4.00000000
-12.247390 21.792230 11.523541 4.00000000
1.533319 -24.949947 35.779764 4.00000000
23.583824 -7.881921 29.825417 4.00000000
-2.795560 -24.842157 33.774598 4.00000000
-6.145484 -24.229813 67.445548 4.00000000
22.945860 -9.920247 20.924273 4.00000000
9.259566 23.220481 26.112955 4.00000000
8.456903 23.523821 21.073613 4.00000000
21.333561 -13.028346 32.283431 4.00000000
-6.938459 -24.014820 44.133778 4.00000000
-11.008436 -22.443487 35.499405 4.00000000
-9.293559 23.856150 23.701213 4.00000000
-24.320023 5.786938 37.619419 4.00000000
14.598910 -20.291586 20.324500 4.00000000
-21.035682 -13.508019 29.062018 4.00000000
-20.042114 -14.940521 41.569647 4.00000000
22.411912 -11.070547 23.313649 4.00000000
20.166793 14.774119 17.076303 4.00000000
-10.758086 22.566356 25.328488 4.00000000
14.741592 -20.190321 35.375497 4.00000000
-6.206232 -24.214420 11.414236 4.00000000
-23.754689 -7.784184 33.733602 4.00000000
-3.432346 24.761883 7.051116 4.00000000
-20.367076 -14.492521 55.850339 4.00000000
-17.753321 17.598981 49.845194 4.00000000
9.545266 23.103499 51.552988 4.00000000
-9.478386 -23.132884 44.761020 4.00000000
13.941144 -20.748802 55.799712 4.00000000
-19.774871 15.292794 36.355971 4.00000000
-22.251595 11.392371 61.228992 4.00000000
-19.226661 -15.874426 12.417929 4.00000000
24.516999 4.887864 9.076094 4.00000000
-3.600275 24.731088 37.279222 4.00000000
-17.238186 18.103263 59.614248 4.00000000
22.111559 -11.659489 14.264967 4.00000000
13.877507 20.791243 45.641058 4.00000000
-20.194582 14.735588 10.964681 4.00000000
16.681760 18.617572 45.275693 4.00000000
-13.140639 -21.264593 60.384984 4.00000000
2.297655 24.891247 23.890557 4.00000000
-0.229939 -24.996817 51.801744 4.00000000
-4.240623 24.559507 11.055527 4.00000000
-14.327078 -20.484947 10.664472 4.00000000
6.071196 24.248541 61.616698 4.00000000
11.636236 22.124304 51.634694 4.00000000
19.372257 15.798616 47.387882 4.00000000
-1.376847 -24.959793 45.704238 4.00000000
-17.330558 -17.770529 36.602994 4.00000000
-19.457935 15.692025 11.589128 4.00000000
-21.341822 -13.016694 52.519029 4.00000000
-13.599294 20.974861 27.558468 4.00000000
8.882759 23.365833 31.507464 4.00000000
-23.174505 -9.375116 17.993898 4.00000000
-20.001847 14.993060 34.944103 4.00000000
-9.307990 -23.200679 20.247711 4.00000000
4.066729 -24.665203 12.295406 4.00000000
6.612486 -24.107732 24.200176 4.00000000
16.329729 18.926160 13.068061 4.00000000
-18.909741 -16.191346 51.735974 4.00000000
24.967455 -1.264271 21.106197 4.00000000
-20.543660 14.243742 12.257735 4.00000000
-4.414968 24.512791 65.949673 4.00000000
-6.896515 -24.026838 29.884905 4.00000000
7.423344 23.869632 53.261303 4.00000000
21.562806 -12.647273 28.322796 4.00000000
17.955593 17.391020 3.406007 4.00000000
-21.119445 -13.373588 6.276460 4.00000000
13.117627 -21.278725 16.154311 4.00000000
-11.981226 -21.938854 39.107549 4.00000000
16.515336 -18.766472 36.515455 4.00000000
16.293403 -18.957209 26.140370 4.00000000
12.281130 21.773301 26.741225 4.00000000
-22.341602 11.211925 43.619219 4.00000000
-11.946206 -21.957778 31.814125 4.00000000
24.623672 4.310567 32.188161 4.00000000
-19.943201 -15.070649 57.689875 4.00000000
-14.956960 -20.029618 7.298113 4.00000000
18.706717 -16.583077 66.648325 4.00000000
-3.829630 24.669632 57.362663 4.00000000
-13.345634 -21.136863 44.655029 4.00000000
-19.378212 -15.722875 20.342609 4.00000000
20.222625 14.697028 33.267821 4.00000000
23.932954 -6.578951 54.562964 4.00000000
22.360533 11.174138 57.281918 4.00000000
-23.798611 7.647326 31.624061 4.00000000
-13.671852 20.927044 34.866411 4.00000000
21.865089 12.120129 20.214265 4.00000000
-22.592402 -10.699599 11.885149 4.00000000
-22.344706 -11.205576 64.942450 4.00000000
23.753194 7.791462 44.424418 4.00000000
24.877497 -2.442248 47.334332 4.00000000
-8.333686 -23.566948 12.796343 4.00000000
-8.573349 23.398556 21.429976 4.00000000
15.971186 -19.232631 65.734837 4.00000000
11.858738 22.005113 36.661709 4.00000000
-18.554037 16.751850 65.680967 4.00000000
-21.553899 -12.660746 50.231216 4.00000000
-14.353683 20.465211 56.374650 4.00000000
-24.951485 -1.509122 53.369229 4.00000000
12.332593 -21.744054 19.685402 4.00000000
-10.467090 22.700225 8.810500 4.00000000
-18.611614 -16.489473 35.005054 4.00000000
-24.996983 -0.046448 18.202581 4.00000000
-8.290789 23.474268 40.383305 4.00000000
-19.615804 15.496417 63.721358 4.00000000
-10.473185 22.697443 12.537993 4.00000000
24.954591 1.455877 18.399262 4.00000000
-22.428645 -11.038058 62.259023 4.00000000
23.658931 -7.601615 23.315026 4.00000000
-12.202753 -21.819150 23.867709 4.00000000
5.211947 24.447790 46.807634 4.00000000
-7.154254 23.778801 66.295497 4.00000000
11.562319 22.163901 37.197178 4.00000000
1.498436 -24.952074 30.039246 4.00000000
-5.691478 -24.342441 5.144431 4.00000000
-3.094713 24.804770 66.220653 4.00000000
24.819741 -2.976853 52.348025 4.00000000
-10.596488 -22.640141 46.497820 4.00000000
-21.345115 -13.011409 18.717475 4.00000000
-16.317349 18.936999 59.093311 4.00000000
-18.833910 16.436868 12.183166 4.00000000
-13.784158 -20.853249 25.191276 4.00000000
-23.676552 -8.024705 13.027564 4.00000000
-24.499810 -4.973034 47.150240 4.00000000
-12.521438 21.635001 17.244249 4.00000000
12.700398 21.531744 35.130837 4.00000000
-11.808391 22.032141 10.458309 4.00000000
19.869866 -15.168201 15.827802 4.00000000
-4.784204 24.413855 18.734408 4.00000000
-24.428285 -5.302578 44.362020 4.00000000
-12.545648 21.621111 24.852305 4.00000000
15.523390 19.593561 50.125496 4.00000000
24.409212 5.389776 55.760885 4.00000000
-24.947415 1.574851 59.406881 4.00000000
-10.608843 -22.634420 13.489558 4.00000000
-6.533910 -24.130740 16.157611 4.00000000
3.877283 24.694677 29.778759 4.00000000
-18.390733 16.930393 22.255895 4.00000000
15.514888 -19.600897 50.622958 4.00000000
-21.334576 13.027629 18.947795 4.00000000
-24.704176 -3.815425 31.630620 4.00000000
19.457594 15.692486 66.882324 4.00000000
11.629514 -22.128359 30.484904 4.00000000
21.466968 12.812828 9.159916 4.00000000
12.178045 -21.833238 62.415881 4.00000000
21.520475 12.719956 36.387905 4.00000000
24.091093 -5.988767 19.338198 4.00000000
17.047640 18.284135 17.977731 4.00000000
19.790546 15.272847 33.424011 4.00000000
24.584767 4.521111 55.966691 4.00000000
23.300541 -8.939146 40.002631 4.00000000
23.891094 7.355491 58.198972 4.00000000
-23.247778 -9.187196 14.217208 4.00000000
-3.525574 24.750041 7.688635 4.00000000
-14.788869 20.154961 50.536366 4.00000000
24.993386 -0.528214 43.271547 4.00000000
-24.940048 1.695646 54.505401 4.00000000
22.495618 10.902088 51.444523 4.00000000
8.553172 23.490065 15.114090 4.00000000
-24.106411 6.617130 63.344236 4.00000000
-4.664616 24.445898 7.472283 4.00000000
-0.487176 -24.994166 9.477010 4.00000000
13.864784 20.799661 13.578954 4.00000000
-7.546627 23.673665 65.261305 4.00000000
19.110934 -16.113475 18.163947 4.00000000
-8.516859 -23.501972 15.204222 4.00000000
24.283625 -5.270227 21.029407 4.00000000
19.640301 15.465262 20.092697 4.00000000
-24.727769 3.662677 3.027984 4.00000000
22.610830 -10.662961 7.353003 4.00000000
24.726304 -3.618126 67.195114 4.00000000
-7.405407 -23.876009 42.218701 4.00000000
-10.905825 22.493331 64.229601 4.00000000
-21.605878 12.571419 4.846164 4.00000000
7.593366 -23.815786 66.569889 4.00000000
-19.058267 -16.042820 41.104196 4.00000000
-22.791447 10.268669 12.338315 4.00000000
21.288274 13.101998 21.534881 4.00000000
24.980654 0.932610 63.723405 4.00000000
-4.924832 -24.508898 42.732328 4.00000000
23.632917 -7.698702 41.184697 4.00000000
-16.833720 -18.267367 40.491446 4.00000000
23.078369 9.604858 58.240957 4.00000000
-23.938854 7.205910 23.178482 4.00000000
-19.541441 15.588557 34.828873 4.00000000
24.996524 -0.214680 28.362242 4.00000000
0.981668 -24.978810 43.932017 4.00000000
-22.152653 -11.585567 28.249037 4.00000000
23.459776 -8.344872 50.772337 4.00000000
-6.726269 -24.075621 56.180405 4.00000000
-17.117996 18.219373 19.438085 4.00000000
17.722665 17.631262 66.808199 4.00000000
20.573466 14.200792 15.973830 4.00000000
19.679064 15.417054 22.996463 4.00000000
-24.705870 -3.804620 52.617443 4.00000000
3.973268 24.679992 51.770878 4.00000000
24.388461 -4.878976 13.263308 4.00000000
-23.514469 -8.481628 8.933623 4.00000000
22.906250 -10.014654 34.010798 4.00000000
-11.460044 22.217933 56.410630 4.00000000
-17.007790 18.321071 63.866693 4.00000000
-24.976144 -1.053475 52.586908 4.00000000
-22.254583 -11.385437 14.743757 4.00000000
17.461918 -17.886695 20.790368 4.00000000
22.691107 -10.487067 40.650527 4.00000000
1.718500 -24.938655 66.514874 4.00000000
24.995930 -0.433023 31.464030 4.00000000
-22.769829 -10.316373 54.475908 4.00000000
20.304686 -14.581609 37.128945 4.00000000
20.179299 -14.756485 27.603049 4.00000000
-18.996310 16.247907 7.394313 4.00000000
-1.645060 24.942848 50.950843 4.00000000
-18.679180 16.615030 10.451183 4.00000000
-8.609923 -23.468960 24.039536 4.00000000
-24.002757 6.981360 36.448215 4.00000000
18.523960 -16.784348 42.348357 4.00000000
2.728956 24.849277 37.243549 4.00000000
-11.483593 22.205373 5.927831 4.00000000
7.469956 23.854888 51.714601 4.00000000
-15.078624 19.937189 3.089104 4.00000000
-16.974882 -18.126204 49.496991 4.00000000
-24.974923 1.111186 17.878213 4.00000000
-14.385401 20.442873 31.638739 4.00000000
-22.625729 -10.627615 36.862898 4.00000000
-9.657522 -23.056578 66.168097 4.00000000
-19.953025 15.057532 47.203955 4.00000000
-24.996809 -0.238514 24.223698 4.00000000
2.356831 -24.885747 18.096295 4.00000000
-20.240435 14.670982 30.083814 4.00000000
-19.708365 -15.379597 54.337552 4.00000000
24.358621 5.622982 19.499096 4.00000000
23.605045 8.225264 31.388809 4.00000000
2.282742 -24.892568 17.030194 4.00000000
12.717824 -21.521175 45.327713 4.00000000
24.911871 -2.083180 31.081606 4.00000000
24.997607 0.183706 24.289430 4.00000000
-24.610109 4.385779 27.954413 4.00000000
-0.957205 24.978955 18.389430 4.00000000
-21.072281 13.450291 6.049167 4.00000000
10.137167 -22.852041 4.662761 4.00000000
22.012218 11.845474 65.233178 4.00000000
-16.500973 18.780340 54.343235 4.00000000
15.309762 19.762697 56.768300 4.00000000
-24.747309 3.536490 4.214242 4.00000000
24.116556 6.579824 36.239353 4.00000000
0.833588 -24.983253 8.463664 4.00000000
-9.623913 23.070190 24.195542 4.00000000
13.818604 20.830216 24.289033 4.00000000
-23.560512 8.351921 14.553247 4.00000000
-24.490270 5.018781 34.806631 4.00000000
24.079652 6.710403 7.102634 4.00000000
18.923334 16.333029 23.530402 4.00000000
24.778104 -3.304642 45.249004 4.00000000
17.588191 -17.763821 39.186349 4.00000000
6.141969 -24.230750 12.878773 4.00000000
21.961092 11.940915 42.081106 4.00000000
8.663980 -23.450453 17.779958 4.00000000
24.976533 1.078771 60.798280 4.00000000
-16.241773 -18.859313 7.445461 4.00000000
16.629201 -18.666218 54.555079 4.00000000
-22.268066 -11.358528 4.042814 4.00000000
8.980900 23.327975 38.104984 4.00000000
15.090380 -19.928151 46.821148 4.00000000
22.570382 10.749902 3.234901 4.00000000
-24.549426 -4.709865 10.988625 4.00000000
2.349565 -24.886416 33.372860 4.00000000
-6.418239 23.976016 44.178025 4.00000000
-21.060546 13.469202 61.025280 4.00000000
8.123921 -23.640925 66.145640 4.00000000
-24.131179 6.530096 15.200907 4.00000000
19.137129 16.083351 10.392442 4.00000000
-24.997319 0.324670 21.314132 4.00000000
-23.265761 -9.141076 56.297786 4.00000000
0.831906 24.983493 56.034403 4.00000000
-3.241056 -24.786390 16.805964 4.00000000
12.186577 -21.828532 43.525102 4.00000000
24.148445 -5.774725 63.092039 4.00000000
0.099739 24.997378 52.833310 4.00000000
-2.828908 -24.837983 16.334364 4.00000000
-24.994553 -0.475001 55.359736 4.00000000
-11.491784 -22.201295 63.131536 4.00000000
9.969064 22.924787 47.040504 4.00000000
-24.987374 0.696245 30.048850 4.00000000
24.412720 -4.788439 16.901404 4.00000000
12.626725 -21.573880 16.033882 4.00000000
20.796296 13.869870 15.498839 4.00000000
-24.630436 -4.280186 49.727632 4.00000000
5.961448 -24.276142 59.231613 4.00000000
-14.308278 20.497190 48.588152 4.00000000
-5.149428 24.315993 13.318620 4.00000000
23.965851 -6.456177 5.477906 4.00000000
24.377219 -4.920932 47.605484 4.00000000
9.673726 23.049328 30.840790 4.00000000
16.201532 19.035933 67.422119 4.00000000
-19.444310 15.708907 36.010749 4.00000000
-24.739905 -3.587420 28.161768 4.00000000
18.275425 17.057197 58.249653 4.00000000
-20.473856 -14.342645 49.420882 4.00000000
-3.282403 -24.781214 14.012257 4.00000000
-16.128456 -18.972631 17.551252 4.00000000
-4.266137 24.552670 45.738151 4.00000000
-14.232736 -20.552162 16.884918 4.00000000
13.499056 21.041637 9.890437 4.00000000
-17.154698 -17.946388 7.644741 4.00000000
-15.066341 -19.946475 56.442480 4.00000000
-20.414096 14.426296 64.999433 4.00000000
-22.067655 -11.742866 39.527002 4.00000000
22.338286 -11.219501 42.432402 4.00000000
3.528574 -24.748535 16.315146 4.00000000
19.534309 -15.596896 25.743261 4.00000000
-23.828020 -7.555236 52.401815 4.00000000
7.181740 -23.945732 67.170559 4.00000000
24.885270 2.363881 40.490705 4.00000000
24.322403 5.775188 16.051969 4.00000000
24.780394 -3.286617 66.714543 4.00000000
11.166707 22.364224 15.117465 4.00000000
23.407775 8.774031 66.863307 4.00000000
6.053215 24.253027 39.064991 4.00000000
-17.833675 17.516404 26.897493 4.00000000
-0.785916 -24.984659 50.036847 4.00000000
-24.275247 -5.966175 31.541937 4.00000000
19.053783 16.180686 5.202716 4.00000000
-20.555639 -14.227855 17.055670 4.00000000
-1.048443 -24.976304 38.387683 4.00000000
5.030549 -24.487695 31.580182 4.00000000
23.139657 -9.458340 42.377911 4.00000000
-23.140787 -9.459833 44.003670 4.00000000
-6.361081 23.991332 23.909609 4.00000000
-7.335198 23.730318 33.718581 4.00000000
24.149753 -5.769844 43.886356 4.00000000
13.523922 -21.025936 46.714323 4.00000000
-15.031945 -19.972620 51.997197 4.00000000
-24.975166 1.103075 4.035716 4.00000000
-18.207262 -16.893825 17.185137 4.00000000
-23.517277 -8.473712 65.211267 4.00000000
7.911425 23.715092 36.559169 4.00000000
5.431188 24.400228 58.232492 4.00000000
16.404955 -18.861337 46.422297 4.00000000
-1.502380 -24.951909 37.519637 4.00000000
-16.436285 18.835529 58.272348 4.00000000
24.944559 1.625435 26.661976 4.00000000
17.816584 17.534393 8.205137 4.00000000
-21.621581 -12.544249 35.598305 4.00000000
21.689347 12.426847 66.873198 4.00000000
13.822652 -20.827509 53.260614 4.00000000
-19.890173 -15.140413 42.132720 4.00000000
4.521675 -24.584743 31.153432 4.00000000
-17.447404 -17.653682 53.802007 4.00000000
4.571606 24.575437 39.640076 4.00000000
2.441220 24.878291 36.712683 4.00000000
-10.078858 22.877412 59.776157 4.00000000
17.928341 -17.419257 41.155337 4.00000000
-19.530012 -15.571074 14.450858 4.00000000
17.805014 17.546327 49.770752 4.00000000
1.719807 -24.938575 46.534449 4.00000000
15.200953 19.844784 11.483981 4.00000000
14.513459 20.352409 9.611950 4.00000000
-4.861439 -24.520849 11.805165 4.00000000
-11.097182 -22.399019 13.743817 4.00000000
-18.892889 -16.208198 9.970009 4.00000000
13.180880 21.239520 15.956907 4.00000000
-22.307845 -11.279140 46.091941 4.00000000
24.643156 4.205120 43.374059 4.00000000
-10.956457 22.468305 8.473996 4.00000000
-22.854539 10.131746 64.218972 4.00000000
16.300096 -18.951456 14.002466 4.00000000
20.790461 -13.879103 62.822432 4.00000000
-24.954759 -1.456992 24.681491 4.00000000
-23.476963 -8.587362 55.722013 4.00000000
5.949073 -24.279254 67.715385 4.00000000
-10.284984 -22.784362 58.882623 4.00000000
-24.590864 4.488884 47.304739 4.00000000
-22.897712 10.031760 37.645071 4.00000000
14.392937 20.437619 13.184837 4.00000000
-21.677097 -12.448694 7.069749 4.00000000
20.637584 -14.108936 23.526314 4.00000000
-24.997151 0.139054 11.071780 4.00000000
2.739464 24.848000 47.980115 4.00000000
-24.673166 4.015304 11.411426 4.00000000
-23.769572 -7.737716 22.995927 4.00000000
19.230060 -15.973843 61.927233 4.00000000
-24.203680 6.249622 46.353429 4.00000000
-24.215824 6.201329 8.273134 4.00000000
23.442793 -8.408256 20.333223 4.00000000
17.854650 17.495133 67.344428 4.00000000
8.621071 -23.465587 66.438483 4.00000000
23.508293 -8.163803 64.170861 4.00000000
21.672130 12.456731 58.277630 4.00000000
-12.786664 21.482332 39.351260 4.00000000
9.494344 -23.125485 21.810454 4.00000000
11.965110 -21.947801 56.672389 4.00000000
21.176005 13.283643 23.279465 4.00000000
19.101140 -16.124954 20.227312 4.00000000
19.238456 15.965019 34.032375 4.00000000
-3.856443 -24.697749 10.605974 4.00000000
23.405959 -8.545720 41.637940 4.00000000
-24.202728 -6.252378 31.032350 4.00000000
-24.831595 -2.879936 53.607222 4.00000000
-17.660047 17.694835 9.536313 4.00000000
1.466430 24.953966 14.509822 4.00000000
22.349390 -11.197037 57.225037 4.00000000
18.947212 -16.305378 40.495530 4.00000000
24.978732 -0.963848 5.543393 4.00000000
24.672505 -3.818908 30.769664 4.00000000
24.862087 -2.603230 25.645834 4.00000000
23.860873 7.451036 57.162824 4.00000000
24.359866 -4.985691 57.403355 4.00000000
13.511628 -21.034102 41.642758 4.00000000
-22.870868 10.095096 10.877005 4.00000000
-16.212877 -18.888209 16.073744 4.00000000
21.654849 -12.486844 13.471111 4.00000000
19.941897 -15.072360 43.595228 4.00000000
21.572697 12.629316 60.405235 4.00000000
24.283687 5.930343 10.708351 4.00000000
12.630766 21.571862 47.240937 4.00000000
12.569384 21.607226 21.589262 4.00000000
-11.301669 -22.296557 26.872123 4.00000000
24.293127 5.892514 26.781671 4.00000000
-15.487277 19.622125 64.591166 4.00000000
-16.404285 18.862829 29.208736 4.00000000
-5.250742 24.288846 4.763160 4.00000000
-3.337227 24.773965 62.220117 4.00000000
23.336337 -8.805552 26.470594 4.00000000
-20.168015 -14.771922 42.963154 4.00000000
-24.997046 0.023490 18.811306 4.00000000
24.070075 6.744287 62.367837 4.00000000
-12.600189 21.589820 19.012845 4.00000000
21.482130 12.786512 29.054644 4.00000000
10.340538 -22.758331 12.693732 4.00000000
7.365907 -23.888186 23.020145 4.00000000
-24.858779 -2.643193 3.945175 4.00000000
-19.377637 15.791517 14.654527 4.00000000
-22.803519 10.242471 18.323250 4.00000000
18.806040 16.470009 12.723743 4.00000000
2.634755 -24.860157 25.105516 4.00000000
-24.721982 3.700049 48.127302 4.00000000
24.628230 4.285899 32.958252 4.00000000
13.064309 21.311569 3.094107 4.00000000
15.179302 19.861118 41.764888 4.00000000
-15.839544 -19.261543 67.852181 4.00000000
-8.757317 23.349262 8.529805 4.00000000
19.360562 -15.813781 39.005692 4.00000000
24.767481 3.401405 56.975933 4.00000000
18.131154 -17.209315 50.945024 4.00000000
-18.767419 16.514234 59.944078 4.00000000
-6.830315 -24.045807 37.152602 4.00000000
23.725602 7.878695 30.755715 4.00000000
-16.628219 18.665727 24.936882 4.00000000
23.140054 -9.457395 53.926287 4.00000000
-16.603503 -18.497584 63.687574 4.00000000
-17.266808 -17.834279 61.800425 4.00000000
-11.190793 22.352476 53.537849 4.00000000
24.141978 6.489876 47.692686 4.00000000
-23.585384 -8.281716 67.460714 4.00000000
5.087656 24.474753 62.702214 4.00000000
24.653417 4.146973 51.383339 4.00000000
23.639702 8.126428 13.329207 4.00000000
-19.468316 15.679161 54.398590 4.00000000
-6.069640 -24.249030 38.578166 4.00000000
-22.572867 -10.741793 59.093183 4.00000000
22.318382 -11.259770 53.913761 4.00000000
-15.239551 19.816241 19.129575 4.00000000
23.686110 -7.500182 38.135442 4.00000000
-23.000691 -9.788720 67.197191 4.00000000
-24.797538 -3.152000 54.121798 4.00000000
10.014520 22.905618 26.844896 4.00000000
-3.846921 -24.699241 37.063919 4.00000000
6.402185 -24.165318 15.476085 4.00000000
-15.902002 -19.917010 36.530385 4.00000000
18.642015 -16.654334 8.062259 4.00000000
-9.116213 23.253096 55.135884 4.00000000
-24.624733 4.307429 24.441896 4.00000000
18.099973 -17.241592 15.514305 4.00000000
24.464853 -4.593877 22.801945 4.00000000
-2.207432 -24.899697 22.887224 4.00000000
-24.883439 2.381891 63.374302 4.00000000
24.632729 4.261552 9.673947 4.00000000
22.353511 -11.188700 18.170261 4.00000000
-13.590655 20.980555 21.069349 4.00000000
21.819972 12.200125 3.106320 4.00000000
-23.304443 -9.041873 28.513939 4.00000000
24.813490 -3.026068 32.704952 4.00000000
23.785839 -7.127991 42.213003 4.00000000
11.519197 22.187000 7.065435 4.00000000
-24.587545 -4.507680 12.664430 4.00000000
-7.861591 -23.729895 4.744101 4.00000000
23.332875 -8.818475 46.030457 4.00000000
10.280008 -22.786222 21.070362 4.00000000
8.596021 -23.474421 28.153345 4.00000000
-24.942660 -1.649646 63.459648 4.00000000
-20.332019 14.541941 43.124358 4.00000000
12.783178 21.484051 41.535912 4.00000000
-1.373169 -24.960024 9.492457 4.00000000
22.663446 -10.547675 66.101190 4.00000000
-22.927324 9.961891 66.279724 4.00000000
-24.590481 -4.492110 56.335440 4.00000000
-12.951978 21.380570 55.024750 4.00000000
4.741893 -24.543638 39.324090 4.00000000
-4.494433 -24.590043 17.165803 4.00000000
9.109593 -23.278141 54.470806 4.00000000
-13.144807 21.261871 44.780210 4.00000000
24.997641 0.330083 56.400227 4.00000000
-5.166956 -24.458221 35.047317 4.00000000
-23.885281 7.375034 31.159032 4.00000000
11.269509 -22.312879 18.524832 4.00000000
-12.346742 -21.736330 67.662366 4.00000000
-24.152655 6.452542 35.589130 4.00000000
-24.613304 -4.371057 24.035929 4.00000000
-5.129625 24.321299 4.171518 4.00000000
14.532102 20.339228 33.861139 4.00000000
7.284765 -23.914014 11.957796 4.00000000
21.841963 -12.160706 24.955376 4.00000000
-22.130354 11.625805 58.693880 4.00000000
-8.162913 -23.627526 66.371454 4.00000000
4.347509 24.616846 26.272842 4.00000000
23.137216 9.465309 40.890218 4.00000000
11.944553 -21.958861 22.367001 4.00000000
22.528689 10.835485 15.214355 4.00000000
17.145213 -18.194248 25.247381 4.00000000
2.187973 24.901145 30.258924 4.00000000
-6.115814 -24.237331 36.212595 4.00000000
16.265426 -18.981253 62.897226 4.00000000
23.585337 8.281469 33.370687 4.00000000
1.756060 -24.936364 48.893859 4.00000000
19.965030 15.041562 6.887957 4.00000000
-24.046449 -6.828075 27.310067 4.00000000
-2.216979 24.899062 31.434208 4.00000000
-23.585285 -8.281993 5.288804 4.00000000
-23.409707 -8.771908 67.804225 4.00000000
7.631736 -23.803573 17.759211 4.00000000
5.395466 -24.407837 57.859175 4.00000000
11.850371 22.009595 65.519284 4.00000000
6.542252 -24.127720 24.768978 4.00000000
-4.811681 -24.530231 67.781561 4.00000000
24.616578 4.348954 12.537560 4.00000000
-22.023288 -11.824971 58.448072 4.00000000
-18.019924 -17.081163 30.423479 4.00000000
-3.402638 -24.766163 49.689975 4.00000000
21.401863 -12.917387 31.477112 4.00000000
-24.983297 0.832137 54.524178 4.00000000
-3.526071 24.880122 64.035576 4.00000000
-24.770655 -3.366752 24.912516 4.00000000
-22.293785 -11.307200 8.235282 4.00000000
24.956726 -1.430300 52.070074 4.00000000
-20.852376 -13.785468 10.841376 4.00000000
21.222785 13.207956 25.295822 4.00000000
24.139200 -5.809227 33.359742 4.00000000
3.872191 -24.695327 50.796283 4.00000000
12.922677 -21.399707 24.717754 4.00000000
20.341653 14.528672 60.238639 4.00000000
14.846859 20.111917 43.718043 4.00000000
-20.061045 -14.915615 39.103632 4.00000000
8.839718 23.382436 9.500940 4.00000000
-16.911116 -18.189971 15.786646 4.00000000
-11.801644 22.035740 46.678374 4.00000000
-24.132861 -6.526509 67.332394 4.00000000
21.651469 -12.492735 3.223792 4.00000000
24.991906 0.533501 33.082880 4.00000000
-16.580997 -18.520090 32.162837 4.00000000
-24.007004 6.966437 67.803139 4.00000000
-0.483648 24.994885 32.989454 4.00000000
-23.336106 -8.960669 59.463874 4.00000000
19.139172 16.080966 26.371031 4.00000000
-12.378901 -21.717646 50.749364 4.00000000
20.845816 13.795025 43.931114 4.00000000
24.919262 1.987212 20.925814 4.00000000
23.531642 -8.076667 66.845670 4.00000000
-24.510422 4.919848 66.918026 4.00000000
-18.278847 -16.822239 27.308279 4.00000000
23.402177 -8.559836 52.034236 4.00000000
18.787573 -16.492496 16.987194 4.00000000
-9.383170 -23.171365 3.924984 4.00000000
-24.888645 -2.325133 35.598844 4.00000000
22.224854 11.447387 60.988650 4.00000000
4.654520 24.560116 47.398631 4.00000000
-24.840281 -2.810554 26.586996 4.00000000
22.625332 -10.631187 51.861668 4.00000000
24.990706 -0.607874 64.744669 4.00000000
-22.628846 10.621550 19.197155 4.00000000
-20.528957 14.264458 53.896573 4.00000000
15.591551 -19.539024 14.872253 4.00000000
20.029370 14.956277 25.549573 4.00000000
23.756786 -7.236416 19.333552 4.00000000
3.615844 -24.735021 49.396176 4.00000000
-24.493737 -5.005244 4.814235 4.00000000
-19.927016 -15.566463 67.643465 4.00000000
21.988916 11.888974 39.530647 4.00000000
2.168685 24.902885 47.203882 4.00000000
24.035726 -6.195398 31.007881 4.00000000
-13.136202 -21.267358 9.655524 4.00000000
-21.456607 -12.828207 38.691464 4.00000000
-2.189223 -24.901407 13.178414 4.00000000
-19.381626 -15.719461 27.064349 4.00000000
10.809499 22.541592 40.769470 4.00000000
-10.517417 22.677256 30.780340 4.00000000
-10.263552 -22.794284 42.803399 4.00000000
-0.180636 -24.996861 58.121825 4.00000000
9.527869 23.110835 40.553205 4.00000000
0.510340 -24.992953 60.243129 4.00000000
23.697451 -7.457856 64.311377 4.00000000
22.266420 11.363677 44.034621 4.00000000
-5.237962 -24.442548 55.711762 4.00000000
-17.677209 -17.423877 8.005998 4.00000000
17.806342 17.544957 60.573022 4.00000000
-24.982341 -0.858731 37.190113 4.00000000
22.659262 -10.556843 48.453995 4.00000000
-17.110619 18.226499 24.083848 4.00000000
-10.073581 22.879820 55.099453 4.00000000
21.322326 -13.046596 58.576059 4.00000000
-5.699805 24.168520 7.735719 4.00000000
22.884869 -10.062518 34.662833 4.00000000
-21.679819 -12.444008 51.502957 4.00000000
-24.307271 -5.839790 21.007845 4.00000000
-19.072497 -16.028589 20.813290 4.00000000
10.701970 22.592363 11.405181 4.00000000
16.435302 -18.835256 30.164544 4.00000000
-10.115371 22.860747 31.860580 4.00000000
18.864356 16.401906 22.187823 4.00000000
-22.222379 -11.449707 60.153666 4.00000000
-13.416477 -21.092721 54.845242 4.00000000
-17.068598 18.265857 39.144349 4.00000000
17.035278 -18.294800 28.656754 4.00000000
11.965857 21.947730 7.634847 4.00000000
-16.904255 18.415083 54.961819 4.00000000
21.351785 12.999241 40.674368 4.00000000
19.664199 -15.434756 38.737751 4.00000000
20.863575 -13.768159 36.364852 4.00000000
-4.117983 24.592368 25.156489 4.00000000
-7.690454 -23.784710 28.484176 4.00000000
-24.973140 1.152992 21.994364 4.00000000
24.945539 1.608877 39.719247 4.00000000
-14.609005 -20.284087 60.713006 4.00000000
22.439217 -11.015305 34.503715 4.00000000
-12.073300 -21.889101 53.531299 4.00000000
13.209544 21.221804 48.645990 4.00000000
9.322992 -23.195379 42.825027 4.00000000
22.255586 -11.386815 62.769785 4.00000000
-18.667308 -16.433778 63.905677 4.00000000
10.393559 -22.733900 33.913399 4.00000000
6.755011 24.067044 11.131396 4.00000000
-24.587319 -4.508880 3.756208 4.00000000
-22.797468 10.255604 46.920953 4.00000000
-2.013685 -24.917890 51.288358 4.00000000
2.012211 -24.917477 44.942445 4.00000000
-16.085762 -19.015325 53.951846 4.00000000
4.238005 24.637080 10.962968 4.00000000
19.979295 15.022654 56.016519 4.00000000
-14.180216 20.587383 15.043387 4.00000000
-23.853438 7.475076 65.447008 4.00000000
8.727365 23.425776 63.696163 4.00000000
10.119354 22.859543 36.584081 4.00000000
8.840273 23.382222 33.556776 4.00000000
18.888252 16.373999 20.362787 4.00000000
-19.851373 15.191769 5.293308 4.00000000
24.898391 -2.223993 26.195848 4.00000000
-12.170447 21.836374 19.379333 4.00000000
-18.530486 16.777598 50.569016 4.00000000
-22.385303 -11.124556 61.019801 4.00000000
-16.120334 -20.033826 5.241997 4.00000000
18.333548 -16.994049 39.213880 4.00000000
-16.143333 -18.957754 14.690754 4.00000000
24.320715 -5.131807 32.225002 4.00000000
-5.162489 24.312493 67.951793 4.00000000
-24.662290 4.085540 42.187012 4.00000000
-24.745928 3.545408 25.597201 4.00000000
24.495646 -4.478953 46.468543 4.00000000
24.997022 -0.031413 6.345783 4.00000000
-7.965006 23.561561 64.867929 4.00000000
1.528896 -24.950217 45.959057 4.00000000
11.505283 -22.195198 51.148022 4.00000000
-13.136513 21.266977 3.354925 4.00000000
12.144070 21.852264 33.452917 4.00000000
-0.082981 -24.996950 60.428280 4.00000000
3.436731 -24.762548 34.417404 4.00000000
-17.849995 17.499633 45.348401 4.00000000
-24.921349 -1.976847 42.166612 4.00000000
-0.442942 -24.995574 57.349319 4.00000000
15.810009 19.363096 56.605349 4.00000000
22.784004 10.284075 24.847882 4.00000000
-24.872427 -2.497849 22.743284 4.00000000
3.835918 24.701005 23.827037 4.00000000
22.930700 9.955041 61.134583 4.00000000
20.463258 -14.356457 51.141197 4.00000000
-20.587887 -14.182090 49.978834 4.00000000
13.512202 -21.033721 19.408275 4.00000000
14.379904 20.446833 46.243394 4.00000000
-8.200586 23.498438 57.890039 4.00000000
-14.800287 20.146379 29.643803 4.00000000
0.868118 -24.982217 9.591687 4.00000000
24.839247 -2.823297 5.254638 4.00000000
5.790229 24.318650 57.647106 4.00000000
-7.354883 -23.892192 24.682041 4.00000000
-23.032125 9.714622 53.539732 4.00000000
5.008480 24.491929 34.088264 4.00000000
13.873167 20.794115 14.158950 4.00000000
-9.753952 23.015631 44.062511 4.00000000
22.245600 -11.407018 14.785933 4.00000000
13.340101 -21.140662 17.905517 4.00000000
-14.561028 20.319181 30.678220 4.00000000
-24.887332 -2.339110 39.719211 4.00000000
24.635528 4.246400 37.981859 4.00000000
19.403176 -15.760587 50.510419 4.00000000
6.032111 -24.258374 43.427514 4.00000000
-19.270772 15.923927 62.069147 4.00000000
12.100934 -21.874725 63.141449 4.00000000
-17.335164 18.009578 3.768940 4.00000000
-10.110902 22.862787 56.442688 4.00000000
22.563337 10.765263 3.898507 4.00000000
-24.985096 0.772175 66.933208 4.00000000
-18.253146 17.080818 53.726990 4.00000000
21.291586 -13.096534 5.080152 4.00000000
-13.618307 -20.963847 4.213274 4.00000000
13.249322 21.197218 20.974264 4.00000000
24.992935 0.497025 3.811529 4.00000000
-17.555616 -17.545471 9.457668 4.00000000
-22.148850 11.591427 5.663014 4.00000000
-14.685179 20.231743 57.369596 4.00000000
12.470400 21.664255 67.286360 4.00000000
-12.182077 21.829702 52.694466 4.00000000
12.780808 21.485416 43.154729 4.00000000
1.083525 24.976399 64.755536 4.00000000
-12.800121 21.474048 62.261799 4.00000000
-9.831524 -22.982457 38.219854 4.00000000
12.268502 -21.781134 40.835841 4.00000000
-6.867121 -24.035261 63.822277 4.00000000
16.132934 19.094673 24.057536 4.00000000
23.358835 8.900900 43.886287 4.00000000
7.302613 23.907819 54.456765 4.00000000
-14.044149 -20.679874 43.087187 4.00000000
-22.471757 10.950993 42.132965 4.00000000
-1.577707 -24.947178 28.929635 4.00000000
19.841207 15.205694 34.886919 4.00000000
-16.022503 19.188546 29.807939 4.00000000
24.666821 4.059360 20.204300 4.00000000
-3.683760 24.708718 60.913875 4.00000000
-11.152244 22.371531 42.837546 4.00000000
2.024670 24.915882 58.038403 4.00000000
-3.122220 24.801276 51.022209 4.00000000
-7.700550 23.632422 3.681519 4.00000000
-9.298236 23.711463 37.953572 4.00000000
-2.760068 -24.846600 26.257041 4.00000000
13.583959 -20.986058 16.422998 4.00000000
-23.161346 -9.408866 34.035458 4.00000000
-11.940770 21.961536 49.812166 4.00000000
22.951741 9.905145 25.582640 4.00000000
6.313358 -24.187653 51.848184 4.00000000
-23.465623 -8.619329 50.020212 4.00000000
20.794650 13.872359 11.903641 4.00000000
23.945049 7.184912 50.486128 4.00000000
4.393721 -24.608626 52.208841 4.00000000
-22.320920 11.253389 23.603072 4.00000000
-14.625455 20.273805 44.010918 4.00000000
24.776872 3.324882 17.188862 4.00000000
-20.187008 -15.698490 40.785230 4.00000000
-14.003229 -20.707161 47.165742 4.00000000
23.297323 9.060362 56.288661 4.00000000
-14.562895 -20.316938 23.366480 4.00000000
19.424141 -15.734417 54.085841 4.00000000
2.687694 -24.854934 42.635767 4.00000000
19.805056 -15.254433 22.385354 4.00000000
-20.652983 14.085399 20.296884 4.00000000
-22.352155 -11.190710 6.391486 4.00000000
-12.620352 -21.577367 42.138944 4.00000000
-8.931223 -23.347587 43.514298 4.00000000
-24.505789 4.944669 30.404474 4.00000000
-20.807139 -13.853304 4.686444 4.00000000
-11.076044 22.409195 25.963344 4.00000000
-9.081020 23.262526 19.443378 4.00000000
-20.192933 14.737912 56.063768 4.00000000
24.868980 -2.531220 28.158642 4.00000000
23.835516 7.531200 6.544633 4.00000000
11.838679 22.015858 64.655647 4.00000000
21.126222 -13.365171 40.048472 4.00000000
-19.069652 -16.031435 64.321989 4.00000000
14.112982 -20.634661 61.629806 4.00000000
-21.091421 13.419448 64.742615 4.00000000
22.713818 10.437124 19.579217 4.00000000
24.839045 2.813170 15.887459 4.00000000
-12.128718 -21.859155 15.439185 4.00000000
-21.794658 -12.246345 25.328004 4.00000000
11.052091 22.421135 34.858297 4.00000000
13.070977 -21.307675 22.403304 4.00000000
-24.604404 4.416344 61.112473 4.00000000
7.604322 -23.812299 65.705660 4.00000000
-13.913306 -20.767126 7.823047 4.00000000
24.989003 -0.658526 47.515655 4.00000000
13.793324 20.846941 7.991286 4.00000000
24.796239 -3.161878 7.603956 4.00000000
-24.009521 6.957591 37.511363 4.00000000
-23.264257 9.145392 51.595996 4.00000000
-14.115340 -20.632399 30.565684 4.00000000
-13.073702 21.305641 10.214864 4.00000000
-17.051361 -18.049726 62.408539 4.00000000
10.993762 -22.450423 19.608050 4.00000000
-17.605477 -17.495610 51.767044 4.00000000
7.818494 23.744644 62.019539 4.00000000
-17.935079 17.412196 54.298026 4.00000000
-17.158016 18.180711 26.298208 4.00000000
-15.555114 -19.731412 12.263105 4.00000000
-14.001294 -20.708451 15.395252 4.00000000
-16.385902 -18.715185 44.890442 4.00000000
4.972491 -24.500400 30.804250 4.00000000
-22.032667 -11.807615 43.564869 4.00000000
21.821227 12.197946 19.027704 4.00000000
-24.645637 -4.188996 32.878275 4.00000000
20.957806 13.625760 58.537142 4.00000000
-24.548179 -4.716479 20.097759 4.00000000
-24.280670 5.943440 23.166720 4.00000000
-6.284040 -24.194705 32.835907 4.00000000
-12.526131 -21.632108 18.831623 4.00000000
1.784189 -24.934649 14.993624 4.00000000
6.760610 24.065462 53.786176 4.00000000
-23.549822 8.382232 19.206885 4.00000000
18.183579 -17.155048 35.020093 4.00000000
24.930881 -1.830232 17.721011 4.00000000
-22.519967 -10.855804 33.479825 4.00000000
-2.704907 24.852353 12.631384 4.00000000
8.977842 23.329155 42.198740 4.00000000
-24.929775 -1.854822 62.739535 4.00000000
23.827082 -6.974068 66.317528 4.00000000
-11.154516 -22.370291 59.941566 4.00000000
4.173186 24.649057 42.637967 4.00000000
-21.930309 11.997622 41.877534 4.00000000
-15.288732 -19.777433 65.838527 4.00000000
-24.931349 1.838293 43.461563 4.00000000
-23.747923 7.806572 38.369069 4.00000000
21.911400 -12.034772 23.746068 4.00000000
-18.007681 17.337586 25.648306 4.00000000
-10.100442 22.867561 4.225443 4.00000000
-13.978663 20.724848 21.683787 4.00000000
-11.259497 -22.317688 59.304348 4.00000000
-18.788817 16.489336 63.540020 4.00000000
-16.384907 18.879362 50.400192 4.00000000
-6.643214 -24.099420 25.120590 4.00000000
6.113280 24.238040 16.748959 4.00000000
-9.666673 23.052249 48.917561 4.00000000
-11.713954 -22.083277 61.655918 4.00000000
-18.523379 16.785369 20.781149 4.00000000
-24.969417 1.214054 48.140947 4.00000000
-6.754824 23.885828 62.677932 4.00000000
-19.891258 15.139098 54.392743 4.00000000
23.854535 -6.871613 38.756603 4.00000000
22.528762 -10.834145 29.840209 4.00000000
-24.996813 -0.234265 61.746212 4.00000000
20.245597 14.664537 30.626423 4.00000000
-14.268260 -20.526853 17.556087 4.00000000
-1.963865 -24.922568 9.277056 4.00000000
21.281528 13.112912 35.721966 4.00000000
12.573328 21.604954 24.042329 4.00000000
-19.064094 16.169036 30.436259 4.00000000
9.470336 23.135096 36.334166 4.00000000
-14.451675 20.396197 25.327827 4.00000000
24.156816 -5.743484 4.451899 4.00000000
-21.969287 -11.924908 53.857146 4.00000000
-24.866115 2.570046 31.333025 4.00000000
-4.829412 -24.526888 21.635958 4.00000000
-24.996844 -0.200280 34.762269 4.00000000
11.125211 -22.384856 8.823249 4.00000000
-20.196287 14.733185 45.093606 4.00000000
19.420227 15.738958 11.389726 4.00000000
-8.140628 23.514503 37.697122 4.00000000
23.587147 -7.869517 20.987566 4.00000000
20.186228 14.748357 45.432988 4.00000000
-12.201370 21.818633 15.108646 4.00000000
11.677963 -22.102292 50.356499 4.00000000
-12.393143 21.708608 39.011972 4.00000000
24.763963 3.424406 52.272446 4.00000000
-18.207112 17.131149 6.660248 4.00000000
21.853116 -12.141266 19.296326 4.00000000
6.611564 -24.107995 14.654813 4.00000000
-9.282178 24.208225 3.681651 4.00000000
-13.914328 20.767246 54.595838 4.00000000
-17.551930 -17.549157 10.360276 4.00000000
-22.373871 11.147233 10.429908 4.00000000
-15.739465 19.420097 25.052653 4.00000000
20.100386 -14.861483 62.728388 4.00000000
-18.995275 16.249111 3.281326 4.00000000
-24.630037 4.279013 3.795720 4.00000000
-24.944491 1.622790 6.752172 4.00000000
10.980218 -22.457179 14.574789 4.00000000
-20.053523 -15.630705 31.099343 4.00000000
18.882259 16.380998 28.635013 4.00000000
-22.813607 10.220578 11.477234 4.00000000
-8.934579 -23.346279 11.087928 4.00000000
22.713769 10.437230 55.605108 4.00000000
-24.842708 -2.791161 11.789963 4.00000000
11.074868 -22.409967 26.916420 4.00000000
-7.145162 -23.955590 6.884194 4.00000000
24.935863 1.772426 11.076791 4.00000000
-24.960622 -1.363644 46.873047 4.00000000
-5.371469 -24.413078 43.736267 4.00000000
14.556411 -20.321749 39.365059 4.00000000
-24.864812 -2.578945 48.535367 4.00000000
-19.924077 15.095759 58.227920 4.00000000
0.443200 -24.994968 17.713601 4.00000000
21.200932 -13.243803 44.027287 4.00000000
17.669930 -17.684281 30.965760 4.00000000
17.044936 18.286599 43.128441 4.00000000
-21.043277 13.497028 49.662856 4.00000000
23.461651 8.634204 23.360631 4.00000000
3.264617 24.784195 55.592984 4.00000000
-9.293079 23.871007 15.298667 4.00000000
23.537515 8.417851 66.405895 4.00000000
-17.443193 -17.657894 16.056848 4.00000000
-21.715767 12.381485 36.353253 4.00000000
5.133329 24.464845 17.254240 4.00000000
23.974980 -6.422104 14.270810 4.00000000
23.690309 7.982102 27.784659 4.00000000
-13.679661 20.921898 52.776187 4.00000000
23.500083 -8.194445 14.256033 4.00000000
12.445860 -21.678522 61.499531 4.00000000
18.597850 -16.702973 7.285134 4.00000000
24.866715 2.569499 4.471342 4.00000000
9.236508 23.229375 18.652782 4.00000000
-14.961991 -20.025794 4.124829 4.00000000
4.541320 -24.581076 67.299138 4.00000000
14.159802 20.602447 67.899846 4.00000000
19.372920 15.797792 8.060230 4.00000000
17.885014 -17.464106 67.653193 4.00000000
3.148214 24.798337 19.014571 4.00000000
11.903842 21.980951 17.706541 4.00000000
-24.422086 5.330353 3.510707 4.00000000
-21.815694 12.208767 19.895909 4.00000000
17.407808 17.939317 6.355073 4.00000000
-8.546986 23.405620 48.744457 4.00000000
20.780306 13.894038 3.376582 4.00000000
-17.797808 -17.303278 22.739107 4.00000000
-20.951101 -13.637421 8.390887 4.00000000
24.972255 -1.156382 58.369427 4.00000000
-24.652013 4.151914 8.723634 4.00000000
12.795240 -21.476385 50.796814 4.00000000
12.456910 21.672027 14.788492 4.00000000
24.878514 -2.431623 24.199655 4.00000000
-10.258912 -22.796432 34.336854 4.00000000
-3.505440 -24.752752 34.134264 4.00000000
22.613176 10.656585 35.243859 4.00000000
-23.402215 -8.791121 65.719369 4.00000000
24.776618 -3.316343 51.276821 4.00000000
-21.588706 -12.600835 34.282442 4.00000000
-21.280146 -13.115677 43.518760 4.00000000
-23.256529 -9.164754 9.886555 4.00000000
1.404725 24.957617 4.449005 4.00000000
7.252325 23.923726 58.825040 4.00000000
8.570979 23.483821 37.478535 4.00000000
24.819524 -2.978563 15.711911 4.00000000
-20.010873 -15.609047 40.228007 4.00000000
24.291359 5.899599 54.759666 4.00000000
-5.767827 24.150294 13.203222 4.00000000
2.236334 -24.896841 60.480978 4.00000000
-24.937135 -1.737631 6.012576 4.00000000
10.517535 22.676942 27.044963 4.00000000
10.012293 -22.905963 63.551238 4.00000000
-15.752910 -19.348177 10.396842 4.00000000
-24.984424 0.794577 11.151957 4.00000000
-19.247936 15.952222 56.799504 4.00000000
24.667730 4.053419 57.511601 4.00000000
-21.887182 12.077779 38.178637 4.00000000
24.927265 1.898535 15.037459 4.00000000
-19.677431 15.420058 5.825517 4.00000000
24.855336 2.679084 37.739603 4.00000000
-7.699041 23.632826 48.505429 4.00000000
-22.113489 -11.658045 10.692748 4.00000000
-3.552830 -24.745325 17.907764 4.00000000
17.421709 -17.925822 26.358789 4.00000000
-9.260495 -23.219198 39.985239 4.00000000
14.448554 -20.398298 14.731634 4.00000000
-13.986732 -20.718162 14.776955 4.00000000
-13.505502 -21.037250 33.980739 4.00000000
-18.375628 -16.725459 46.763903 4.00000000
-17.034416 18.296895 30.286761 4.00000000
20.749433 -13.941357 25.637919 4.00000000
-19.273663 15.920345 32.587647 4.00000000
15.667205 -19.477966 17.725812 4.00000000
-24.578524 4.554993 35.716088 4.00000000
6.446094 24.154351 22.463261 4.00000000
24.221682 -5.501403 14.510874 4.00000000
16.856423 -18.458389 50.839947 4.00000000
-12.424986 21.690338 41.504740 4.00000000
-9.308825 23.383883 53.900700 4.00000000
-22.428901 -11.037547 28.383223 4.00000000
-5.385920 24.252625 26.658966 4.00000000
24.997560 0.166594 59.460848 4.00000000
-19.992159 15.005854 55.123623 4.00000000
-24.493343 5.004738 17.307304 4.00000000
17.647683 17.706743 44.124198 4.00000000
-8.258368 23.482955 15.072072 4.00000000
-11.050958 22.421594 52.841843 4.00000000
17.251611 -18.091341 41.756797 4.00000000
24.997443 0.337115 12.801682 4.00000000
-6.187805 24.037761 20.680032 4.00000000
14.190478 -20.581463 53.966249 4.00000000
22.808556 -10.229728 22.620167 4.00000000
21.066994 -13.459494 55.745212 4.00000000
-24.831861 -2.877816 60.208440 4.00000000
-11.474706 -22.209852 24.479685 4.00000000
24.974300 1.122748 56.313076 4.00000000
-3.065599 24.808468 60.360984 4.00000000
5.048641 24.483217 31.147182 4.00000000
23.383116 8.837956 44.709632 4.00000000
10.432549 -22.715934 67.688660 4.00000000
-24.695072 3.873833 26.837909 4.00000000
-24.991258 -0.578544 17.667853 4.00000000
5.679086 -24.345770 37.338362 4.00000000
-18.290587 17.039884 45.657666 4.00000000
-16.127393 -18.973693 18.908612 4.00000000
-19.937406 -15.571739 46.241740 4.00000000
21.994273 11.878973 31.367190 4.00000000
-21.544632 12.677279 9.221941 4.00000000
24.997798 0.254250 60.116496 4.00000000
-5.632549 24.186541 51.460208 4.00000000
-17.023842 18.306496 13.570688 4.00000000
16.186247 19.049022 55.177955 4.00000000
20.227390 -14.691359 42.810256 4.00000000
5.562992 24.371635 29.306185 4.00000000
10.871298 22.510906 28.303588 4.00000000
20.585865 14.183254 18.713711 4.00000000
-21.280467 13.114819 31.832187 4.00000000
22.025355 -11.821114 33.791421 4.00000000
24.853261 -2.695427 37.740593 4.00000000
-3.279689 -24.781554 54.065899 4.00000000
13.919616 20.763383 10.343785 4.00000000
-24.996678 0.386211 39.358255 4.00000000
-19.904795 15.121223 49.727662 4.00000000
24.086561 -6.005679 7.226692 4.00000000
0.609498 -24.989977 7.951456 4.00000000
20.481039 14.331523 26.215583 4.00000000
-13.579415 20.987963 19.895307 4.00000000
-16.996988 -18.104099 3.591308 4.00000000
-24.827031 2.913924 40.574274 4.00000000
21.666633 -12.466304 26.665808 4.00000000
-24.454952 -5.181767 52.590076 4.00000000
6.257769 24.201986 27.953059 4.00000000
-24.963405 -1.319333 16.478047 4.00000000
-15.293607 -19.773727 36.765595 4.00000000
-21.231577 13.193601 65.605320 4.00000000
22.918326 -9.985872 57.119251 4.00000000
-8.419882 -23.536372 43.725061 4.00000000
24.927047 -1.889576 31.744023 4.00000000
7.940473 23.704907 52.168659 4.00000000
19.582792 -15.536376 15.201186 4.00000000
18.645097 16.651557 63.120728 4.00000000
-22.336712 11.221729 46.190431 4.00000000
16.435854 18.835287 37.176601 4.00000000
-20.934874 -13.661755 48.311497 4.00000000
-10.047834 22.891571 11.041099 4.00000000
-18.045990 -17.055096 20.467971 4.00000000
24.988699 0.647274 27.948316 4.00000000
22.543165 -10.805006 13.290420 4.00000000
-24.150014 -6.460418 9.931477 4.00000000
-10.675664 22.605033 57.234401 4.00000000
16.749061 18.556239 55.840245 4.00000000
23.089882 -9.576977 33.447042 4.00000000
-24.845690 -2.767337 28.370993 4.00000000
-24.744508 3.554579 65.170036 4.00000000
21.636503 12.518568 42.956776 4.00000000
24.997353 0.090315 34.974932 4.00000000
9.583049 23.087566 62.157701 4.00000000
23.942252 -6.544248 37.170127 4.00000000
15.460471 -19.644815 42.131329 4.00000000
-13.960723 20.736671 18.847907 4.00000000
13.201248 21.226931 31.273047 4.00000000
-13.670241 20.928106 6.992500 4.00000000
22.890617 10.050094 37.425998 4.00000000
10.267156 22.791763 43.819742 4.00000000
-24.994404 -0.479707 7.794483 4.00000000
-24.860109 -2.629025 59.102767 4.00000000
13.627876 20.956406 59.195241 4.00000000
-9.311210 23.310116 26.917219 4.00000000
22.353834 11.187631 25.844672 4.00000000
-24.997236 0.232420 64.369652 4.00000000
22.527521 10.837838 7.707799 4.00000000
-5.840652 -24.307052 58.196884 4.00000000
1.572614 24.947684 19.224643 4.00000000
-24.948203 -1.561393 37.746946 4.00000000
-9.650565 23.059007 16.451715 4.00000000
23.669880 -7.560754 14.191982 4.00000000
16.331379 18.924747 27.423914 4.00000000
23.783396 -7.137108 4.479936 4.00000000
19.256119 15.943053 41.039772 4.00000000
-21.632628 12.525184 18.230400 4.00000000
4.769089 24.538946 4.355812 4.00000000
10.442196 -22.711489 10.547610 4.00000000
-3.311001 24.777297 52.137337 4.00000000
-24.856841 2.670775 19.400069 4.00000000
23.066075 -9.633719 60.465780 4.00000000
1.568263 24.947942 48.432697 4.00000000
-19.822559 15.229819 28.977233 4.00000000
3.774063 -24.710522 5.866132 4.00000000
22.840663 10.160525 26.880680 4.00000000
-0.495094 -24.993914 19.553930 4.00000000
-7.645527 -23.799100 51.931702 4.00000000
24.060142 6.779433 5.391404 4.00000000
11.071048 -22.411873 32.225901 4.00000000
-5.543089 24.210512 45.852560 4.00000000
18.753907 -16.531107 48.981769 4.00000000
-0.928360 -24.980126 8.883943 4.00000000
12.651485 -21.559556 47.457885 4.00000000
23.206960 -9.288396 9.835413 4.00000000
-21.938383 -11.982099 44.183810 4.00000000
-10.138977 22.849974 9.284715 4.00000000
-12.719792 -21.519594 56.775657 4.00000000
19.658219 15.442978 47.822857 4.00000000
-18.451943 -16.649144 45.399657 4.00000000
-19.924132 15.095686 17.704037 4.00000000
24.976954 1.063841 5.513269 4.00000000
24.092463 6.665073 45.968628 4.00000000
14.828456 20.125800 36.845193 4.00000000
13.010456 -21.345233 9.066453 4.00000000
6.922702 -24.019450 27.246883 4.00000000
-24.886729 2.346167 22.602270 4.00000000
