47.231467 58.256289 2.738853 18.00000000
-57.827365 -47.755768 2.899994 18.00000000
-52.815465 -53.246510 2.971046 18.00000000
44.783073 -60.160198 0.041706 18.00000000
48.337837 57.342474 2.269029 18.00000000
70.163263 -26.492383 0.542533 18.00000000
-58.588088 -46.820175 0.963723 18.00000000
-0.982551 -74.991217 1.802363 18.00000000
69.241647 28.817240 0.864730 18.00000000
71.773556 21.751888 0.366059 18.00000000
-74.727969 -6.360366 2.823423 18.00000000
-1.111035 -74.990239 0.519542 18.00000000
73.195232 16.341818 2.574581 18.00000000
24.850959 70.761533 2.962242 18.00000000
-74.007800 12.144662 2.714831 18.00000000
-57.187393 -48.519772 2.448117 18.00000000
-20.445489 -72.156570 1.010423 18.00000000
31.234180 68.185480 1.082477 18.00000000
-74.717075 -6.497054 0.468647 18.00000000
-13.805866 -73.715693 0.628003 18.00000000
-69.063755 -29.236285 2.760521 18.00000000
-60.650325 -44.115907 2.471257 18.00000000
-71.186788 23.602258 2.506658 18.00000000
69.961887 27.019311 1.051812 18.00000000
0.117347 -74.998870 0.860474 18.00000000
70.921022 -24.389068 0.829662 18.00000000
66.082011 35.466102 0.816929 18.00000000
72.899877 -17.615034 0.794060 18.00000000
-74.946183 -2.813574 1.054587 18.00000000
41.392100 -62.542154 2.461094 18.00000000
-22.515274 71.538929 1.567500 18.00000000
-66.379084 34.908884 1.726903 18.00000000
29.073561 -69.132597 2.635268 18.00000000
-74.997215 0.148038 2.954015 18.00000000
58.458380 46.983598 1.244133 18.00000000
-42.850482 61.551083 1.987255 18.00000000
-46.318023 58.986363 0.855167 18.00000000
-74.424391 9.254049 2.496630 18.00000000
73.566017 -14.594904 1.639252 18.00000000
-71.918528 -21.273217 0.269264 18.00000000
-20.520839 72.135271 0.353896 18.00000000
-12.088013 74.017354 2.085399 18.00000000
38.778013 64.194589 2.940298 18.00000000
74.554528 8.150639 1.424789 18.00000000
6.911168 -74.678775 2.456957 18.00000000
50.028094 -55.874285 2.076281 18.00000000
71.407234 -22.927048 1.062816 18.00000000
67.380250 -32.931633 0.392516 18.00000000
-66.398215 -34.872986 1.211014 18.00000000
48.910814 -56.855566 0.748122 18.00000000
-72.954706 17.390638 1.525638 18.00000000
74.317465 10.077630 1.976429 18.00000000
39.614731 -63.682361 0.740536 18.00000000
-58.123067 -47.395421 0.931826 18.00000000
51.520946 -54.499511 0.318793 18.00000000
-37.042029 -65.213058 2.153901 18.00000000
74.992739 0.822620 1.728676 18.00000000
-57.286368 -48.403492 1.501453 18.00000000
-74.052808 11.865205 2.692872 18.00000000
-72.552199 19.002078 2.740168 18.00000000
10.929296 74.199010 1.862772 18.00000000
72.299405 19.938605 2.004968 18.00000000
27.364755 -69.829326 2.640706 18.00000000
-51.571286 -54.451491 2.630202 18.00000000
-22.514787 71.538818 1.842980 18.00000000
-29.755150 -68.843010 2.627225 18.00000000
-35.496999 66.065847 1.107568 18.00000000
72.646513 -18.637027 1.026828 18.00000000
-58.842805 46.498919 0.492809 18.00000000
55.445060 -50.503716 1.596838 18.00000000
66.749668 34.195493 2.340959 18.00000000
-19.571003 72.400138 0.735992 18.00000000
-72.100637 20.644371 0.768272 18.00000000
-1.473240 74.984824 0.419784 18.00000000
37.648013 64.863736 0.977109 18.00000000
-74.081837 -11.688920 0.471621 18.00000000
63.941588 39.196348 1.138184 18.00000000
6.393608 74.724422 2.547257 18.00000000
-17.242957 -72.990679 0.987994 18.00000000
41.668412 62.357457 2.221888 18.00000000
74.987825 -1.344045 2.795099 18.00000000
72.155354 -20.450966 1.331291 18.00000000
-14.305445 -73.620787 0.000699 18.00000000
-74.014744 12.112642 0.912523 18.00000000
-12.680184 73.917390 0.108581 18.00000000
12.890892 73.882471 1.421845 18.00000000
-27.984395 69.581824 2.594782 18.00000000
-2.122362 74.968861 2.011062 18.00000000
-2.119435 74.967181 0.044902 18.00000000
-72.959447 17.369552 1.740828 18.00000000
35.478995 -66.075181 2.251759 18.00000000
53.986020 52.058357 2.997584 18.00000000
-16.168257 -73.235428 2.654349 18.00000000
5.133926 74.821180 2.902094 18.00000000
-50.157545 -55.760152 2.617362 18.00000000
-64.100311 38.935547 2.479573 18.00000000
4.392861 -74.868539 2.759873 18.00000000
-57.079541 48.648810 1.571486 18.00000000
-12.072707 74.019291 2.724397 18.00000000
47.353594 -58.158515 1.621675 18.00000000
-16.449414 73.171171 0.211060 18.00000000
-40.335206 63.228174 0.032434 18.00000000
12.636178 73.926287 1.652249 18.00000000
71.291675 23.283931 0.308650 18.00000000
27.246654 69.874295 0.952180 18.00000000
-74.374856 9.655656 1.157649 18.00000000
29.220427 69.071167 2.299551 18.00000000
18.373422 72.711943 2.594985 18.00000000
-2.653978 74.952557 0.603886 18.00000000
-74.996838 0.370781 0.149661 18.00000000
-69.849068 27.307502 2.760367 18.00000000
-72.775143 -18.121560 0.741984 18.00000000
30.996439 68.293617 0.010759 18.00000000
-20.671907 72.092633 0.626428 18.00000000
-35.895477 -65.851693 0.027044 18.00000000
8.681546 -74.492853 0.043079 18.00000000
-62.778725 41.031360 1.247610 18.00000000
59.772756 -45.298735 1.456512 18.00000000
74.117348 11.456836 1.278978 18.00000000
60.315177 -44.572543 0.321870 18.00000000
73.299418 15.877751 2.206153 18.00000000
-42.728524 -61.637568 0.865281 18.00000000
23.833386 71.111106 0.054926 18.00000000
-27.386275 69.820653 0.743651 18.00000000
18.492852 -72.683930 2.329890 18.00000000
4.926716 -74.835664 0.786975 18.00000000
-53.911856 -52.138243 1.116398 18.00000000
-70.352297 25.987799 1.363429 18.00000000
-44.517823 60.357638 2.195608 18.00000000
-7.797531 74.592612 0.784749 18.00000000
19.637191 72.380891 2.550281 18.00000000
-74.916230 -3.522215 1.780762 18.00000000
-20.185030 72.230969 0.713973 18.00000000
-43.818040 60.866325 2.071101 18.00000000
50.392491 -55.547179 2.966788 18.00000000
73.746137 -13.644654 1.604125 18.00000000
74.827253 -5.060234 1.636556 18.00000000
-73.639181 14.214735 2.201791 18.00000000
-6.655040 74.703004 1.375818 18.00000000
73.335849 15.706127 1.285388 18.00000000
73.308741 15.833322 0.024740 18.00000000
-12.741022 -73.907238 1.415891 18.00000000
-5.272108 74.812217 2.805246 18.00000000
-58.686481 46.696488 0.491960 18.00000000
56.433489 -49.396818 1.149605 18.00000000
-74.113470 -11.481151 0.335163 18.00000000
-71.270133 -23.349905 2.092778 18.00000000
-44.649127 -60.258639 0.275916 18.00000000
-32.365768 -67.656804 0.365720 18.00000000
-72.940382 -17.449523 1.948833 18.00000000
51.035868 54.956016 1.381432 18.00000000
6.844098 -74.685920 0.441701 18.00000000
-9.790501 74.356204 2.353878 18.00000000
24.080216 71.027750 1.837037 18.00000000
18.442110 -72.696922 1.648090 18.00000000
-0.783589 -74.993061 2.548969 18.00000000
-68.063197 31.500258 2.465072 18.00000000
14.177194 73.645627 0.583753 18.00000000
25.994678 70.349502 2.101017 18.00000000
0.330950 74.998618 1.766666 18.00000000
22.788301 71.453045 1.689289 18.00000000
-26.786170 70.052371 2.015777 18.00000000
36.506427 -65.512578 1.025822 18.00000000
31.827604 67.909606 2.987158 18.00000000
39.014879 64.051276 1.053734 18.00000000
33.667743 -67.017556 0.054029 18.00000000
53.490881 52.566902 0.009502 18.00000000
35.179825 -66.234630 1.506605 18.00000000
-72.434054 19.446466 1.624541 18.00000000
-56.197370 49.665600 2.708244 18.00000000
57.237301 -48.462666 1.208137 18.00000000
-12.771242 73.903075 1.498629 18.00000000
1.410164 -74.985676 1.890422 18.00000000
-73.147634 -16.552514 2.556566 18.00000000
-9.547751 74.388663 0.461745 18.00000000
-9.128960 -74.440244 2.738392 18.00000000
-74.898544 -3.878083 1.374041 18.00000000
56.614030 -49.190829 0.570640 18.00000000
-10.455281 -74.266102 0.738863 18.00000000
-13.160232 -73.835119 0.084209 18.00000000
-61.879859 -42.372976 0.030704 18.00000000
15.282075 -73.423522 0.056673 18.00000000
9.590036 -74.382019 2.807746 18.00000000
34.540111 66.571841 0.885642 18.00000000
68.974428 29.446796 0.116509 18.00000000
22.362617 -71.588298 1.542994 18.00000000
-33.962039 66.868038 1.071311 18.00000000
-74.888456 4.049949 2.192901 18.00000000
-26.864557 70.021485 1.155962 18.00000000
49.449573 56.385656 0.006048 18.00000000
3.286859 74.926211 1.393059 18.00000000
-11.527984 -74.106236 0.982105 18.00000000
-60.548097 -44.255154 0.464588 18.00000000
-46.731836 -58.657836 2.459151 18.00000000
-63.827796 -39.382254 0.025032 18.00000000
27.966861 69.587531 0.032010 18.00000000
-71.761655 -21.790563 1.553936 18.00000000
-64.028891 -39.050194 2.689767 18.00000000
54.517584 -51.502349 2.927826 18.00000000
-74.520818 8.441586 0.012085 18.00000000
-69.683034 -27.730464 2.456666 18.00000000
-12.315153 73.979371 2.684847 18.00000000
68.014881 -31.601642 1.568921 18.00000000
2.440030 74.957515 2.776551 18.00000000
-23.439327 -71.240985 2.518991 18.00000000
-23.036173 71.373442 2.556725 18.00000000
7.847261 -74.587600 1.832461 18.00000000
28.208749 -69.490289 1.076566 18.00000000
61.007706 -43.621354 0.650683 18.00000000
-56.863735 48.900854 0.523192 18.00000000
-71.124479 -23.794550 2.153080 18.00000000
-65.369186 36.763313 0.323489 18.00000000
73.239402 16.149160 0.559907 18.00000000
-57.589797 -48.045293 1.722423 18.00000000
52.987145 -53.075791 2.289411 18.00000000
24.644233 70.833341 0.301739 18.00000000
18.041187 72.795770 1.040415 18.00000000
74.791449 5.567895 0.209466 18.00000000
-74.995022 0.679573 1.101916 18.00000000
-64.647855 38.018522 0.402569 18.00000000
74.939044 -2.970906 2.394307 18.00000000
-71.007694 24.138448 1.155385 18.00000000
-67.982310 -31.669701 2.832444 18.00000000
10.957703 74.194474 1.468444 18.00000000
72.038914 -20.860789 1.174691 18.00000000
-74.920506 -3.406852 0.896459 18.00000000
72.927663 17.501437 1.124372 18.00000000
-70.928922 -24.364898 0.926894 18.00000000
-58.809799 46.543366 2.262476 18.00000000
-47.873194 57.732323 2.151504 18.00000000
24.556208 -70.864056 2.744547 18.00000000
-73.306881 -15.842666 0.489872 18.00000000
-64.650783 -38.012732 0.517738 18.00000000
-38.884116 64.130097 0.638054 18.00000000
-70.900701 24.449371 0.752737 18.00000000
-74.182639 11.032815 2.728202 18.00000000
-67.511046 32.666264 1.095018 18.00000000
-0.844260 74.994107 1.843746 18.00000000
5.656567 -74.784186 1.773752 18.00000000
-63.211382 -40.361847 0.846845 18.00000000
-31.738966 -67.950132 1.060589 18.00000000
-71.297677 -23.264816 0.964995 18.00000000
74.946317 -2.807523 1.826217 18.00000000
-68.808388 -29.837461 1.809432 18.00000000
45.868301 59.336089 2.984552 18.00000000
74.923907 -3.313351 1.314190 18.00000000
24.395382 -70.918451 0.053648 18.00000000
-41.091192 -62.738306 1.277666 18.00000000
-74.942280 -2.906219 1.583891 18.00000000
74.749648 -6.087553 0.533446 18.00000000
15.374621 73.405049 2.916834 18.00000000
-30.306243 -68.601485 0.414710 18.00000000
-43.217797 -61.292958 1.956296 18.00000000
-18.298688 -72.731404 1.899193 18.00000000
-11.274694 74.145318 0.670085 18.00000000
-7.352752 74.637496 2.612491 18.00000000
-69.124104 -29.094237 2.448322 18.00000000
34.537280 66.573473 1.097382 18.00000000
50.563447 -55.391400 2.810634 18.00000000
-55.446349 -50.500394 1.355850 18.00000000
-54.860998 -51.138992 1.537682 18.00000000
66.827892 -34.040164 1.639772 18.00000000
-6.265771 74.736843 1.793565 18.00000000
71.991999 21.026379 0.967547 18.00000000
74.980057 -1.637077 2.129894 18.00000000
-25.169979 -70.648889 1.596935 18.00000000
24.514572 -70.877907 0.830599 18.00000000
-65.792097 -36.004328 0.777294 18.00000000
61.181855 -43.375735 1.013962 18.00000000
22.489342 -71.547752 1.236538 18.00000000
-72.092922 -20.668856 0.316977 18.00000000
-74.987641 1.292102 1.222617 18.00000000
55.858975 50.045435 1.650425 18.00000000
57.082547 -48.644261 1.011194 18.00000000
-2.330592 74.962363 0.981221 18.00000000
74.980919 -1.605961 0.968403 18.00000000
-58.921993 46.398534 0.296479 18.00000000
74.944413 -2.851909 0.189455 18.00000000
-47.682163 -57.887596 2.983005 18.00000000
-68.103457 -31.410557 0.693837 18.00000000
-66.509556 -34.660326 1.268673 18.00000000
1.510364 74.983756 0.339661 18.00000000
8.719401 -74.488938 1.928899 18.00000000
-11.602687 -74.094561 1.916678 18.00000000
24.257116 70.965825 0.002215 18.00000000
-41.642644 62.375853 1.093489 18.00000000
63.163994 40.437497 1.270856 18.00000000
34.840148 66.413697 2.967414 18.00000000
-49.459418 56.378622 1.312980 18.00000000
73.930183 12.605751 0.349242 18.00000000
66.080742 -35.467472 0.376213 18.00000000
20.929679 72.018206 2.080741 18.00000000
70.389811 25.888907 2.785147 18.00000000
-27.264416 69.867231 2.466604 18.00000000
49.489526 -56.352875 1.879463 18.00000000
-72.003795 20.978131 2.515897 18.00000000
-53.233794 -52.828890 2.674755 18.00000000
-73.983189 12.299626 0.743263 18.00000000
-61.464347 42.976747 0.947995 18.00000000
-69.761836 27.531550 2.206122 18.00000000
74.775041 -5.771637 0.274453 18.00000000
-53.970599 52.074465 2.972980 18.00000000
73.959679 -12.433041 0.259537 18.00000000
-74.958697 2.449830 1.448280 18.00000000
-40.327311 63.233239 2.975549 18.00000000
26.192061 70.277668 1.561657 18.00000000
73.760905 13.565523 1.870678 18.00000000
72.563182 18.952682 2.302416 18.00000000
-72.751623 -18.216706 2.940055 18.00000000
-74.370720 9.683417 0.757067 18.00000000
7.185260 -74.652426 1.804294 18.00000000
66.107505 -35.419069 2.671993 18.00000000
-39.037668 64.038853 2.214051 18.00000000
-68.532955 30.465016 2.220624 18.00000000
56.232091 49.623993 0.245567 18.00000000
61.683075 -42.662486 1.930784 18.00000000
-43.110403 -61.368830 1.035892 18.00000000
-62.055261 42.117450 1.157324 18.00000000
-46.637539 -58.732686 1.474509 18.00000000
74.649548 7.215530 1.217292 18.00000000
41.380892 62.549988 2.956270 18.00000000
-43.801542 60.877496 2.742090 18.00000000
-27.600293 69.734804 1.801340 18.00000000
-63.633298 -39.692204 2.008055 18.00000000
36.544268 65.491617 0.677982 18.00000000
69.922025 -27.122534 0.943838 18.00000000
74.998324 -0.189133 1.230679 18.00000000
-10.119569 -74.311500 1.014924 18.00000000
-67.488000 32.711889 0.433303 18.00000000
-25.148656 70.654884 2.899782 18.00000000
-37.159536 -65.147060 1.600135 18.00000000
72.208254 20.263402 0.343225 18.00000000
63.511257 -39.887412 1.112738 18.00000000
48.295353 -57.378661 2.121974 18.00000000
-74.530555 8.360341 0.283392 18.00000000
2.907562 74.943083 1.773300 18.00000000
51.544236 54.480101 2.685395 18.00000000
-36.375151 65.587020 1.613181 18.00000000
-30.925104 68.325528 0.106385 18.00000000
-51.156779 54.842598 1.817270 18.00000000
-72.471753 19.299292 0.368536 18.00000000
-1.687899 -74.978924 0.768130 18.00000000
63.403078 -40.060010 1.786946 18.00000000
50.956884 -55.028923 1.292082 18.00000000
-24.930060 70.735171 0.016243 18.00000000
-4.001442 74.891158 2.305662 18.00000000
30.284322 -68.611365 0.438596 18.00000000
73.128636 -16.638163 1.363604 18.00000000
18.192266 -72.758456 2.829201 18.00000000
72.922609 -17.519796 2.488178 18.00000000
42.453693 61.825187 0.285391 18.00000000
-58.756100 46.609990 1.457629 18.00000000
65.263675 -36.953946 2.270908 18.00000000
-41.087431 62.742949 2.144859 18.00000000
-24.513075 -70.878328 1.160560 18.00000000
-32.040007 -67.809179 0.036644 18.00000000
-22.866416 71.427763 1.828983 18.00000000
-74.947395 2.795691 0.688493 18.00000000
36.262789 65.648607 1.621028 18.00000000
66.785779 -34.122168 1.122540 18.00000000
26.448585 70.179984 0.701016 18.00000000
60.625563 44.151580 1.615461 18.00000000
-73.748765 -13.640913 2.755709 18.00000000
51.433761 -54.583061 1.054937 18.00000000
-14.906070 -73.502300 2.018944 18.00000000
-72.838255 17.875324 2.878930 18.00000000
54.362730 -51.667547 2.142990 18.00000000
-73.735292 -13.706659 1.335833 18.00000000
16.986880 -73.049763 2.059163 18.00000000
65.597383 -36.354751 1.794876 18.00000000
26.620879 -70.113763 0.106991 18.00000000
-65.531304 36.473058 0.546637 18.00000000
49.571216 -56.280289 1.488094 18.00000000
-16.319190 73.200551 2.653487 18.00000000
-19.180975 72.503644 0.991921 18.00000000
-65.162180 -37.132954 1.755495 18.00000000
71.609646 22.292402 2.321451 18.00000000
-68.167744 31.272251 1.708420 18.00000000
46.927165 -58.504382 1.125658 18.00000000
57.744468 47.856839 2.888388 18.00000000
62.306129 -41.747457 0.374412 18.00000000
-73.332959 15.715944 2.052960 18.00000000
-71.236295 23.457085 1.146984 18.00000000
-64.306977 38.594294 1.860046 18.00000000
37.679264 -64.844793 0.343827 18.00000000
11.782061 74.066704 1.930238 18.00000000
-63.265684 40.277758 1.179752 18.00000000
70.518268 -25.528983 0.001324 18.00000000
-70.551100 25.441025 0.883941 18.00000000
-45.065317 59.948638 1.802801 18.00000000
28.968789 -69.177431 1.259433 18.00000000
-50.446719 -55.495545 1.536296 18.00000000
-50.520802 55.429843 1.762731 18.00000000
32.543375 -67.569909 1.222614 18.00000000
63.792099 39.435445 2.977287 18.00000000
49.534000 56.312667 1.155635 18.00000000
72.042678 20.849443 1.654138 18.00000000
-73.982304 -12.305723 1.009257 18.00000000
-74.925932 -3.289701 1.093927 18.00000000
62.106716 -42.039607 2.997355 18.00000000
-2.890381 -74.943410 2.952602 18.00000000
-74.537912 -8.302550 0.906422 18.00000000
-72.991325 -17.240526 2.089076 18.00000000
-66.470904 -34.735845 0.710849 18.00000000
-43.359606 61.194442 1.849647 18.00000000
72.025787 -20.907452 1.457448 18.00000000
-47.436094 -58.089867 1.657734 18.00000000
-47.774137 57.814435 2.968179 18.00000000
-72.394754 -19.588420 2.494711 18.00000000
-16.335906 -73.197249 2.096404 18.00000000
-70.479950 25.637375 0.974762 18.00000000
71.117889 -23.810307 2.958669 18.00000000
74.212164 -10.834043 0.457392 18.00000000
72.440613 -19.418755 2.101629 18.00000000
62.288402 41.772357 1.480220 18.00000000
71.559679 -22.449885 2.671659 18.00000000
58.925118 -46.395290 2.197396 18.00000000
-42.307806 -61.924276 2.506485 18.00000000
34.880761 66.393128 1.930353 18.00000000
-3.484059 -74.916233 2.387467 18.00000000
-44.388808 60.452508 2.442388 18.00000000
41.056036 62.762307 1.124534 18.00000000
21.554667 -71.832954 2.701496 18.00000000
-55.864710 50.040065 0.762207 18.00000000
24.118561 -71.013346 0.071514 18.00000000
33.051519 -67.321447 0.327950 18.00000000
74.157078 11.196063 0.911417 18.00000000
-56.771185 -49.008964 1.174732 18.00000000
74.647403 -7.234045 2.830070 18.00000000
-71.904449 -21.320015 2.797983 18.00000000
-73.194563 16.345665 0.048239 18.00000000
74.803264 5.418220 1.414249 18.00000000
-67.511424 -32.663097 1.458818 18.00000000
-16.788411 -73.094154 1.860906 18.00000000
9.637147 -74.376172 1.542410 18.00000000
-69.835895 27.343360 1.916102 18.00000000
-70.792339 -24.763092 2.284268 18.00000000
74.712389 -6.554210 2.993842 18.00000000
-24.409748 70.915824 2.991945 18.00000000
61.501880 -42.921934 1.267160 18.00000000
69.371889 28.504554 1.803006 18.00000000
24.442265 70.903094 2.479685 18.00000000
16.969010 -73.053384 0.855875 18.00000000
74.879936 4.212885 2.102403 18.00000000
64.335808 38.544314 0.621019 18.00000000
70.284281 -26.173210 1.600722 18.00000000
-51.136544 -54.863574 0.774565 18.00000000
-0.583537 -74.995160 2.460084 18.00000000
-29.074929 -69.132293 0.144235 18.00000000
-74.931490 3.194039 2.752027 18.00000000
74.327196 10.005098 1.709474 18.00000000
73.227765 -16.199183 1.321405 18.00000000
16.112495 -73.246734 2.791744 18.00000000
-55.100937 50.879512 1.086501 18.00000000
-23.396115 -71.255246 1.380068 18.00000000
-74.939365 -2.967654 0.138137 18.00000000
-74.992388 -0.947607 0.856530 18.00000000
-56.557100 -49.255269 0.277839 18.00000000
35.102969 -66.275055 2.474465 18.00000000
-22.874428 -71.423813 0.456189 18.00000000
-40.991540 -62.803435 0.291892 18.00000000
42.557235 -61.755081 1.384374 18.00000000
-52.571629 53.488417 1.643031 18.00000000
-10.324204 -74.283417 2.656044 18.00000000
-1.068582 74.991727 1.419411 18.00000000
43.938986 60.779025 1.862351 18.00000000
22.506971 71.542971 0.657504 18.00000000
-30.913441 -68.330673 1.017810 18.00000000
-72.904015 -17.597288 1.189741 18.00000000
-64.877129 -37.623372 0.516195 18.00000000
8.791527 -74.480270 0.758124 18.00000000
-15.468568 73.387083 2.594875 18.00000000
-23.190128 -71.321733 2.587518 18.00000000
61.872789 -42.384143 0.588149 18.00000000
-53.820991 52.232478 1.209680 18.00000000
53.975799 -52.072300 0.713027 18.00000000
-4.680215 -74.850980 2.774846 18.00000000
25.360420 -70.579586 1.807522 18.00000000
24.203830 70.984609 0.740925 18.00000000
-68.867999 -29.697179 0.414667 18.00000000
72.859246 -17.779645 2.492232 18.00000000
-38.115788 -64.590802 1.181220 18.00000000
-71.263870 23.370396 0.328486 18.00000000
-74.967947 2.162287 1.977748 18.00000000
26.192876 -70.277509 0.431300 18.00000000
60.222378 44.700847 1.477187 18.00000000
59.612205 45.512094 2.799372 18.00000000
-71.632350 22.212292 2.910588 18.00000000
-71.802188 21.666148 2.999755 18.00000000
74.402741 -9.439252 1.047091 18.00000000
62.450570 41.529419 2.192122 18.00000000
-70.362149 25.961383 0.746372 18.00000000
59.933708 45.086286 1.237602 18.00000000
3.530587 -74.914392 0.963992 18.00000000
27.690991 -69.698997 1.039535 18.00000000
-73.857864 13.031983 1.501429 18.00000000
62.548051 41.381547 0.226187 18.00000000
47.232162 -58.257602 1.043701 18.00000000
65.407341 -36.696332 1.498135 18.00000000
-30.916907 68.329702 2.575292 18.00000000
-20.203633 -72.225501 2.082991 18.00000000
39.055925 64.028332 2.992707 18.00000000
-32.811202 -67.439184 2.729519 18.00000000
-66.080367 -35.467675 2.575174 18.00000000
-69.205237 28.905172 1.510783 18.00000000
-28.506022 -69.369481 2.498193 18.00000000
69.153147 -29.025834 1.897282 18.00000000
69.364766 28.520108 2.579939 18.00000000
52.951900 53.110889 2.416118 18.00000000
13.543371 -73.765123 1.704551 18.00000000
-45.724700 59.447794 0.993801 18.00000000
-58.654667 -46.736106 1.750727 18.00000000
72.504981 -19.173112 0.472025 18.00000000
37.911855 64.711412 2.068478 18.00000000
70.754543 -24.874075 0.383660 18.00000000
-70.720960 24.963299 2.623066 18.00000000
73.214901 -16.254273 2.704377 18.00000000
-36.456139 -65.540325 2.547082 18.00000000
54.427705 -51.597432 0.905337 18.00000000
8.372239 -74.529139 0.764637 18.00000000
-61.730498 42.592581 1.474190 18.00000000
-70.094581 -26.670856 0.389136 18.00000000
-52.661248 -53.398252 2.003942 18.00000000
-27.362374 -69.829231 2.146988 18.00000000
20.263000 -72.208092 2.345512 18.00000000
-70.385580 -25.894599 2.448989 18.00000000
22.911984 71.413588 2.229836 18.00000000
-70.132158 -26.572846 1.001865 18.00000000
57.204264 -48.500219 0.224960 18.00000000
64.934439 -37.526360 1.614049 18.00000000
-74.445249 9.092262 0.280478 18.00000000
-10.826969 -74.213423 0.989938 18.00000000
-63.982333 -39.127121 2.215194 18.00000000
47.675614 -57.896022 2.592371 18.00000000
-2.588049 -74.954490 0.786199 18.00000000
71.258685 -23.385420 0.006994 18.00000000
-19.917891 72.304633 2.149513 18.00000000
12.409791 73.964749 1.313277 18.00000000
70.852168 -24.590015 0.879384 18.00000000
-0.753819 74.995436 2.428837 18.00000000
-43.536971 61.068959 1.870642 18.00000000
1.736609 74.977593 0.223604 18.00000000
-53.263906 52.798177 0.165365 18.00000000
68.646612 30.205044 0.094265 18.00000000
12.130642 74.011568 1.658782 18.00000000
65.428733 -36.657628 1.249032 18.00000000
-30.391641 68.564850 2.046729 18.00000000
-48.662225 -57.066132 2.937106 18.00000000
17.481732 -72.932400 0.191272 18.00000000
70.971382 24.243294 2.335671 18.00000000
1.492263 -74.983663 1.675294 18.00000000
-11.517196 -74.107588 2.507603 18.00000000
-38.569191 64.320907 0.761607 18.00000000
-53.446570 52.614424 2.584931 18.00000000
-32.229285 67.721228 1.338785 18.00000000
71.827044 21.575710 2.237005 18.00000000
-60.036541 44.949162 1.305957 18.00000000
-56.414956 49.419182 1.959191 18.00000000
20.144012 -72.242138 1.035166 18.00000000
-74.997704 -0.469350 1.917084 18.00000000
-5.727278 -74.778723 0.532806 18.00000000
-38.611138 64.295760 0.989976 18.00000000
69.183517 -28.954257 0.008009 18.00000000
-9.145333 -74.438662 1.445466 18.00000000
-65.462277 36.597562 0.914278 18.00000000
55.623520 -50.306009 2.111442 18.00000000
-57.762331 -47.834990 1.033114 18.00000000
26.140275 70.296494 2.922372 18.00000000
62.219919 41.875168 1.049537 18.00000000
-10.122491 74.312683 2.030588 18.00000000
50.190688 -55.728808 2.008019 18.00000000
-60.305623 -44.585230 1.278249 18.00000000
-18.111911 -72.777574 1.709214 18.00000000
-49.693553 56.171886 1.178655 18.00000000
63.768860 39.473246 2.763739 18.00000000
-31.287000 68.161425 0.820847 18.00000000
-53.939112 52.110578 0.521995 18.00000000
-67.435639 -32.817934 1.623283 18.00000000
-70.622958 -25.240488 0.300044 18.00000000
-9.989549 -74.328809 0.257573 18.00000000
20.749765 -72.070547 1.632959 18.00000000
-42.551829 61.758295 0.233452 18.00000000
-44.873724 60.093586 1.030091 18.00000000
-63.578504 -39.779208 0.549030 18.00000000
-28.536567 -69.357486 0.746801 18.00000000
-72.286523 19.987361 0.102990 18.00000000
74.008951 12.141086 2.472748 18.00000000
-43.526454 61.075390 0.993031 18.00000000
71.907380 -21.310339 0.703139 18.00000000
10.408178 -74.272825 1.398553 18.00000000
-19.541996 72.407483 0.381824 18.00000000
-35.215529 -66.215386 1.309477 18.00000000
54.024665 52.019822 1.896474 18.00000000
24.997927 -70.710737 0.802050 18.00000000
-43.298260 -61.235770 2.997191 18.00000000
63.480422 39.936178 0.764052 18.00000000
-62.601995 41.300781 2.240665 18.00000000
-9.693599 74.369419 1.502059 18.00000000
-54.312125 -51.718311 0.661576 18.00000000
-65.952562 35.706235 2.323986 18.00000000
-44.114221 -60.651697 0.464560 18.00000000
41.779642 -62.284149 0.250476 18.00000000
-51.341489 54.669603 0.298150 18.00000000
-68.407885 -30.740191 2.326774 18.00000000
-74.386950 -9.547712 2.993250 18.00000000
-56.208552 -49.650450 2.017088 18.00000000
0.040143 -74.998868 2.812577 18.00000000
-55.545647 -50.391612 2.458395 18.00000000
-56.211151 -49.647419 0.524966 18.00000000
-33.459190 67.120915 2.324583 18.00000000
-74.841320 4.843782 0.726075 18.00000000
32.855562 67.417663 2.754222 18.00000000
-8.498069 74.514578 2.929870 18.00000000
12.310413 73.982227 1.836117 18.00000000
-71.053529 -24.001522 2.035342 18.00000000
48.904594 56.860455 2.543966 18.00000000
31.146844 68.225224 1.935195 18.00000000
-58.649927 46.743184 2.230984 18.00000000
47.661131 -57.907631 2.352099 18.00000000
40.439629 -63.162379 0.079376 18.00000000
-5.031066 74.828887 0.000482 18.00000000
61.693972 -42.647041 0.871946 18.00000000
-65.428223 -36.656856 1.932687 18.00000000
-67.112245 33.476876 1.609664 18.00000000
49.421493 56.411913 2.075401 18.00000000
13.534707 73.766982 0.027758 18.00000000
43.862082 60.834513 2.090121 18.00000000
-68.500749 -30.531960 0.429660 18.00000000
-61.298238 -43.209986 1.501588 18.00000000
-74.911295 -3.614918 2.951155 18.00000000
55.100653 50.880182 1.285208 18.00000000
61.980234 -42.226591 0.725421 18.00000000
-19.684559 -72.369048 2.160045 18.00000000
10.287726 74.288977 2.150680 18.00000000
-72.713103 -18.373570 1.724955 18.00000000
66.945334 -33.808861 0.033063 18.00000000
-10.760820 74.222483 1.476965 18.00000000
73.930937 -12.601772 0.787239 18.00000000
-74.828575 5.048708 0.802167 18.00000000
-30.617209 68.464892 2.133996 18.00000000
1.016429 -74.990937 0.027860 18.00000000
70.450045 25.717091 0.041210 18.00000000
-64.157299 -38.838097 1.748381 18.00000000
-71.840782 21.535935 1.923561 18.00000000
-72.223277 -20.209775 0.241609 18.00000000
16.796804 -73.092170 0.056060 18.00000000
74.542457 -8.254018 2.453581 18.00000000
-74.506361 -8.581965 1.923942 18.00000000
69.561956 -28.032439 1.752515 18.00000000
-59.556696 -45.580362 0.116347 18.00000000
71.456589 22.773165 0.254216 18.00000000
64.384510 38.463150 0.215857 18.00000000
39.739875 63.604198 0.903378 18.00000000
-39.336517 63.855938 0.686148 18.00000000
45.768405 -59.413747 0.818405 18.00000000
74.352088 -9.815717 2.726001 18.00000000
-60.232356 44.685158 2.248469 18.00000000
-65.768022 -36.047489 1.570054 18.00000000
-1.415728 74.986117 0.143255 18.00000000
59.847223 -45.199435 1.967866 18.00000000
-37.739274 -64.809732 2.967535 18.00000000
73.211154 -16.271570 2.261858 18.00000000
-74.499575 8.627206 0.407389 18.00000000
-74.651297 7.210243 1.571372 18.00000000
-64.223343 -38.728981 2.006896 18.00000000
-52.873432 53.190716 0.714819 18.00000000
-60.532363 44.279490 1.825771 18.00000000
-42.790699 61.593574 1.290685 18.00000000
-38.736972 64.219908 1.296444 18.00000000
-25.959065 70.363466 1.276609 18.00000000
6.448249 -74.721362 2.584826 18.00000000
-72.463676 -19.328572 1.704999 18.00000000
20.239261 -72.215172 0.745341 18.00000000
-42.836293 -61.562734 0.673309 18.00000000
47.691390 57.883660 2.922350 18.00000000
53.734850 52.320565 1.746456 18.00000000
73.699060 -13.894084 2.088349 18.00000000
62.637394 -41.247112 1.690538 18.00000000
69.129568 -29.082693 1.270077 18.00000000
-74.998729 -0.112918 1.195770 18.00000000
-58.513958 46.914752 0.762483 18.00000000
70.081529 26.706026 0.547489 18.00000000
-74.450349 -9.056386 1.201746 18.00000000
-60.887457 -43.790510 1.145687 18.00000000
-54.170884 -51.867505 2.725278 18.00000000
60.141789 44.807022 2.484974 18.00000000
42.666539 -61.680717 1.556383 18.00000000
-65.328108 36.836335 0.003072 18.00000000
37.511397 -64.941902 2.995869 18.00000000
39.848822 -63.535118 0.980389 18.00000000
-19.284863 -72.475430 1.822783 18.00000000
22.672324 71.489739 0.845276 18.00000000
-58.787497 -46.568179 1.239534 18.00000000
74.917067 -3.466117 2.902101 18.00000000
-6.225140 -74.738506 2.222646 18.00000000
-66.724635 34.243089 1.425404 18.00000000
73.331983 -15.725023 2.136705 18.00000000
12.298352 -73.982706 0.112106 18.00000000
69.674546 27.749660 2.791662 18.00000000
15.977010 73.277480 1.265048 18.00000000
-54.877687 -51.121398 1.314679 18.00000000
-72.626551 18.708902 2.853885 18.00000000
-67.735614 32.194450 2.754558 18.00000000
2.530497 74.955683 1.497012 18.00000000
-33.331073 67.184935 0.450016 18.00000000
67.304512 33.086099 0.146800 18.00000000
-27.483922 69.780414 2.307134 18.00000000
-68.601407 -30.306294 1.725941 18.00000000
58.298190 47.182774 0.788956 18.00000000
60.698937 44.050773 1.215130 18.00000000
39.353496 -63.845855 1.376064 18.00000000
19.368998 72.453369 0.496310 18.00000000
-71.269578 23.353553 0.589884 18.00000000
73.641029 14.202321 1.486077 18.00000000
-12.093508 -74.018305 2.163787 18.00000000
-71.889924 -21.367558 0.528056 18.00000000
-70.700752 -25.026083 0.265243 18.00000000
-74.773741 -5.798243 2.840584 18.00000000
3.162668 74.932446 2.170240 18.00000000
-74.645610 -7.268905 1.652663 18.00000000
59.649179 45.461306 1.375865 18.00000000
-74.967819 -2.126002 0.863879 18.00000000
44.958462 -60.030846 0.275722 18.00000000
31.066104 68.263008 1.346984 18.00000000
15.643940 -73.348224 0.182974 18.00000000
-62.529341 -41.409734 0.463741 18.00000000
48.857939 56.901885 1.799727 18.00000000
51.004974 -54.983323 2.173532 18.00000000
57.039333 48.694192 0.296180 18.00000000
74.719260 -6.464177 0.029338 18.00000000
7.067180 74.665416 1.783487 18.00000000
0.842110 -74.992901 2.749618 18.00000000
72.657349 18.594066 1.596073 18.00000000
-48.043900 -57.590533 2.061471 18.00000000
39.550138 -63.722273 1.920674 18.00000000
-52.788214 -53.273473 0.009395 18.00000000
74.211419 10.839248 0.502072 18.00000000
42.517727 61.782566 1.199204 18.00000000
71.033189 -24.059380 2.985011 18.00000000
74.999361 0.072101 0.089529 18.00000000
-74.977652 1.775671 1.320263 18.00000000
16.056885 73.260298 0.290036 18.00000000
74.985992 1.414037 1.432059 18.00000000
46.789278 58.613027 0.466759 18.00000000
7.307122 -74.640399 0.600229 18.00000000
-41.787734 62.277537 1.912260 18.00000000
29.068853 69.135464 1.445133 18.00000000
-0.785428 -74.993297 1.031380 18.00000000
48.512737 57.194004 0.502327 18.00000000
72.495989 19.208577 2.804908 18.00000000
-46.520728 58.825593 0.536720 18.00000000
70.185617 26.433352 0.051725 18.00000000
-72.528386 -19.084140 2.990046 18.00000000
-47.927014 -57.686471 2.696688 18.00000000
50.533999 55.418044 1.906227 18.00000000
-41.743939 62.306346 2.434333 18.00000000
-1.255964 -74.988792 0.004002 18.00000000
52.896122 53.167726 1.685702 18.00000000
65.402766 -36.705696 2.333557 18.00000000
-41.312465 -62.593086 0.108173 18.00000000
35.378803 -66.128173 2.880165 18.00000000
73.972143 12.359990 0.068646 18.00000000
20.664519 -72.094290 0.408942 18.00000000
56.805569 -48.969232 0.620822 18.00000000
-68.939022 29.530557 0.253366 18.00000000
-16.538044 73.152378 2.615232 18.00000000
29.916252 -68.775102 0.360198 18.00000000
61.766506 42.540681 2.393898 18.00000000
38.817313 -64.170472 1.257797 18.00000000
-73.751059 13.618956 0.079584 18.00000000
-32.137324 -67.763779 0.501662 18.00000000
-74.815194 5.219716 2.989211 18.00000000
-11.794519 -74.065017 1.792389 18.00000000
-47.992585 -57.632869 0.889374 18.00000000
71.209153 23.539793 2.750392 18.00000000
74.619077 7.523809 0.808409 18.00000000
40.538484 63.098202 1.971977 18.00000000
-60.181721 44.754313 1.450508 18.00000000
-47.488151 58.048269 2.920870 18.00000000
-74.855602 4.613523 0.601259 18.00000000
-55.912517 49.986261 1.034691 18.00000000
-74.948851 2.714168 2.097118 18.00000000
-74.973092 1.901161 0.105798 18.00000000
-71.186133 -23.609878 1.747477 18.00000000
74.297618 -10.223809 1.904698 18.00000000
-48.149292 57.502837 0.378018 18.00000000
-38.056217 -64.625367 1.865528 18.00000000
-54.067754 51.975553 1.407143 18.00000000
-53.284332 52.778120 1.952170 18.00000000
-73.019497 -17.116995 0.008853 18.00000000
72.762864 18.171922 0.263722 18.00000000
58.290233 -47.189942 2.418155 18.00000000
70.659433 -25.138893 1.817081 18.00000000
-39.196665 63.941718 1.623806 18.00000000
-52.845232 53.217751 0.216218 18.00000000
74.773057 -5.794894 2.970673 18.00000000
-17.080177 -73.027592 1.881723 18.00000000
11.800993 74.064547 0.968560 18.00000000
-63.118827 40.503982 2.992726 18.00000000
-74.867338 -4.433763 1.095605 18.00000000
-44.088950 -60.670429 1.443194 18.00000000
-46.535090 -58.813664 0.506238 18.00000000
-4.955641 -74.833804 0.700893 18.00000000
-49.925659 -55.965504 2.040947 18.00000000
-74.237308 10.657786 1.575867 18.00000000
-0.766650 74.995054 2.128925 18.00000000
-19.677950 -72.371054 1.124086 18.00000000
-55.226952 50.741519 2.747752 18.00000000
63.847601 39.348556 1.519853 18.00000000
-74.418752 9.305877 1.669502 18.00000000
59.365521 45.831979 1.719574 18.00000000
74.712781 6.545062 0.161954 18.00000000
-52.726996 53.333681 0.056508 18.00000000
-67.231749 33.236957 1.755886 18.00000000
73.749823 13.626947 0.852918 18.00000000
59.700504 -45.392355 0.438509 18.00000000
-62.522401 41.419757 2.563709 18.00000000
-74.919204 3.458120 1.901726 18.00000000
47.768222 57.819564 2.661264 18.00000000
27.715832 -69.689083 0.499114 18.00000000
-65.209855 -37.048445 2.907677 18.00000000
-69.365788 28.517328 0.529834 18.00000000
51.285800 54.722564 1.622764 18.00000000
-74.856647 4.590653 0.211239 18.00000000
34.979398 66.341423 1.452891 18.00000000
-57.544207 -48.100208 2.561419 18.00000000
-74.509149 -8.551556 1.164622 18.00000000
-12.696905 73.916642 2.482575 18.00000000
-70.311426 26.100134 0.382652 18.00000000
-60.295809 -44.598535 0.678762 18.00000000
41.673860 -62.355347 1.418598 18.00000000
-24.549231 -70.865824 1.472787 18.00000000
-74.045979 -11.911545 2.580835 18.00000000
23.405620 -71.252443 0.722752 18.00000000
53.855681 52.196125 0.428560 18.00000000
-74.732614 -6.320106 1.772210 18.00000000
5.769120 74.776743 1.734475 18.00000000
-15.919189 73.289152 2.128181 18.00000000
29.409810 68.991267 2.737822 18.00000000
-73.290607 15.919085 0.454767 18.00000000
-43.249389 61.272346 2.448058 18.00000000
17.959497 72.816055 1.275853 18.00000000
-56.751778 49.032089 0.303668 18.00000000
-66.153675 -35.330513 2.976354 18.00000000
49.583369 -56.268016 0.311256 18.00000000
-69.604577 27.925556 0.371065 18.00000000
-54.116759 51.925014 0.482714 18.00000000
-66.987882 -33.725694 2.776697 18.00000000
-52.112569 53.936946 0.522701 18.00000000
-2.227572 74.965687 1.612350 18.00000000
-72.895643 17.632534 0.370280 18.00000000
-67.464258 32.763608 2.793933 18.00000000
31.898656 -67.875865 2.784846 18.00000000
61.193825 43.359826 1.409176 18.00000000
66.246659 -35.156927 0.283146 18.00000000
-11.161987 -74.162427 2.219641 18.00000000
70.519929 25.527274 1.355577 18.00000000
46.432856 -58.895669 1.317190 18.00000000
-5.652193 -74.785304 2.581626 18.00000000
68.204144 31.190061 2.962812 18.00000000
-71.760314 -21.794734 2.997453 18.00000000
-45.159078 -59.878348 2.335693 18.00000000
74.301480 -10.194265 2.779590 18.00000000
42.583550 -61.737859 2.967814 18.00000000
26.272691 70.247215 1.127594 18.00000000
-73.969125 -12.388506 2.126253 18.00000000
-52.492718 53.565202 1.096282 18.00000000
-74.909056 -3.673459 1.995024 18.00000000
59.334512 -45.872686 0.750263 18.00000000
55.290809 -50.670559 0.160730 18.00000000
-56.249105 -49.604432 0.820113 18.00000000
-29.867852 -68.795059 2.452729 18.00000000
74.259767 10.504220 0.988838 18.00000000
52.857086 -53.206077 0.206863 18.00000000
73.090105 16.808671 1.214039 18.00000000
72.373422 19.671721 1.073471 18.00000000
-74.294144 -10.256120 1.309053 18.00000000
48.126251 -57.521723 0.930829 18.00000000
-57.026503 48.710790 1.338197 18.00000000
73.880797 12.896872 1.435542 18.00000000
62.511324 -41.440143 2.779846 18.00000000
60.549850 -44.253335 2.513503 18.00000000
54.506549 51.515590 1.718637 18.00000000
-45.482894 -59.631151 2.303762 18.00000000
-19.991067 72.285835 0.492570 18.00000000
74.961062 -2.346502 0.048030 18.00000000
-62.224184 41.867771 2.479963 18.00000000
57.116265 48.604483 0.748288 18.00000000
-62.050481 42.125455 1.735786 18.00000000
63.888796 -39.282218 0.521547 18.00000000
-66.836366 34.023681 0.914108 18.00000000
-7.193019 -74.651674 0.842390 18.00000000
49.664169 -56.198604 1.732912 18.00000000
-55.087293 -50.893144 2.726602 18.00000000
-71.329806 -23.165244 2.185507 18.00000000
-64.408652 38.422035 2.391667 18.00000000
-74.609674 -7.633250 1.600455 18.00000000
29.477959 68.961721 0.860764 18.00000000
61.806837 -42.480225 0.037527 18.00000000
-10.745595 74.223333 2.990393 18.00000000
-56.087146 49.789375 1.011060 18.00000000
-57.767514 47.830167 1.059317 18.00000000
13.639017 -73.746758 2.842893 18.00000000
-53.167863 52.895554 1.558510 18.00000000
60.774771 43.943381 2.782044 18.00000000
28.169313 69.507131 2.519936 18.00000000
8.965934 74.460275 0.656151 18.00000000
44.308614 -60.508813 0.046199 18.00000000
20.964301 72.008430 1.782346 18.00000000
25.289608 -70.605128 0.013265 18.00000000
-53.660890 52.396846 2.226825 18.00000000
13.438982 73.785711 1.047393 18.00000000
74.968746 2.062487 0.867917 18.00000000
-60.039467 -44.947167 1.615256 18.00000000
-46.529447 58.819935 1.566738 18.00000000
39.334831 -63.856786 0.557954 18.00000000
9.077987 74.446100 2.414613 18.00000000
-33.829983 66.934063 2.501013 18.00000000
-73.968876 -12.378981 0.016030 18.00000000
53.304183 -52.759511 2.038973 18.00000000
56.672364 49.123767 0.673837 18.00000000
14.483744 73.587037 0.072844 18.00000000
-45.661358 59.494985 0.054896 18.00000000
60.924043 -43.739838 0.839700 18.00000000
-59.202747 -46.043107 1.738952 18.00000000
-24.960074 70.724233 0.536917 18.00000000
7.953983 74.576146 0.819955 18.00000000
-8.035069 74.568211 0.029200 18.00000000
21.393456 -71.882050 0.026821 18.00000000
-37.818712 -64.763672 1.872964 18.00000000
-9.828782 -74.350916 2.151923 18.00000000
-2.242619 -74.964034 1.468648 18.00000000
-73.294327 -15.901836 2.758803 18.00000000
-14.220311 73.638167 1.336537 18.00000000
-7.137010 74.657174 2.871680 18.00000000
4.103848 74.887352 0.689077 18.00000000
20.569198 72.122478 1.422172 18.00000000
0.722333 74.994567 1.139796 18.00000000
-10.713384 -74.230676 1.985276 18.00000000
50.586737 55.368564 0.967456 18.00000000
-21.803957 71.758787 1.328909 18.00000000
-58.228151 -47.267281 0.005330 18.00000000
66.717208 -34.255935 0.967103 18.00000000
-74.179279 11.058176 2.465494 18.00000000
-33.069553 67.314771 2.221120 18.00000000
-54.389158 -51.636967 0.089003 18.00000000
73.400121 15.398396 2.435067 18.00000000
24.158616 71.001043 2.074814 18.00000000
15.979232 -73.277161 1.581461 18.00000000
-9.365642 -74.412280 2.985037 18.00000000
-19.037672 72.541256 2.891957 18.00000000
34.591379 66.544975 0.161016 18.00000000
-22.417681 -71.570870 2.017247 18.00000000
-30.520689 -68.505893 0.603603 18.00000000
-28.642809 69.312836 2.502660 18.00000000
74.929046 3.196298 2.726969 18.00000000
74.888586 4.074974 1.177131 18.00000000
-48.195393 -57.463650 1.483479 18.00000000
72.274760 20.029476 0.609827 18.00000000
44.690874 60.229261 1.165315 18.00000000
71.186829 -23.609117 1.860875 18.00000000
26.951015 -69.987764 1.326332 18.00000000
46.035010 -59.208235 2.296156 18.00000000
45.621944 59.528301 2.948345 18.00000000
57.875926 47.700000 2.263530 18.00000000
-25.187405 -70.642628 1.869679 18.00000000
-17.268107 -72.984448 2.997303 18.00000000
18.700216 72.630580 0.656696 18.00000000
-74.572295 7.986874 1.217397 18.00000000
-24.887585 -70.749225 2.524310 18.00000000
-33.187266 -67.254994 1.350736 18.00000000
5.615791 74.788615 1.203939 18.00000000
2.144762 -74.966768 2.964218 18.00000000
-46.580564 -58.777683 2.363532 18.00000000
2.129557 -74.967443 1.999882 18.00000000
-40.056174 -63.404106 0.789777 18.00000000
61.812442 42.474252 2.694336 18.00000000
-54.701133 51.309908 1.634441 18.00000000
-42.845325 -61.556292 0.374706 18.00000000
-74.900149 3.826115 2.296494 18.00000000
53.781064 52.271801 0.228117 18.00000000
23.484194 -71.227867 2.890497 18.00000000
59.056704 -46.227988 0.127393 18.00000000
38.174422 -64.557569 1.620615 18.00000000
-66.091074 35.451379 1.835003 18.00000000
-23.535594 71.209179 2.988701 18.00000000
74.939886 2.951943 2.075072 18.00000000
-52.374404 53.680956 2.329023 18.00000000
-53.456706 -52.601877 1.857480 18.00000000
73.979126 12.319605 1.501898 18.00000000
-74.801318 5.423277 2.488521 18.00000000
-2.697573 -74.950814 2.838731 18.00000000
65.975084 35.665603 0.525153 18.00000000
-46.850709 -58.563739 2.010102 18.00000000
69.378739 -28.484982 0.751754 18.00000000
-44.440918 60.413534 1.673770 18.00000000
47.598533 -57.956314 0.013527 18.00000000
20.055627 72.267846 0.904632 18.00000000
58.590033 -46.820604 2.282231 18.00000000
-22.855224 -71.430234 1.407436 18.00000000
42.889769 61.525254 0.424367 18.00000000
-71.974661 21.080719 1.674962 18.00000000
60.039138 -44.947735 0.003645 18.00000000
-74.783476 5.680814 2.145196 18.00000000
-5.205613 -74.817658 1.820993 18.00000000
-53.919443 52.129421 1.700840 18.00000000
-26.283912 -70.243413 2.597791 18.00000000
-68.395941 30.767806 2.952079 18.00000000
9.015759 -74.454677 2.547497 18.00000000
-16.899873 -73.068849 0.351115 18.00000000
48.270081 -57.399460 2.536665 18.00000000
33.542697 -67.080927 1.157984 18.00000000
-26.743195 -70.066927 0.356189 18.00000000
13.338734 -73.803512 1.885132 18.00000000
-73.956179 12.454600 0.266118 18.00000000
-72.500038 19.193819 0.724666 18.00000000
-74.691229 -6.783790 1.350341 18.00000000
52.636950 -53.423727 1.336515 18.00000000
-72.989131 -17.250338 1.571007 18.00000000
27.816145 -69.648721 0.839908 18.00000000
15.866009 -73.302115 0.542278 18.00000000
-74.604260 -7.672207 0.013449 18.00000000
-69.735497 -27.600536 2.217380 18.00000000
-73.043348 -17.011744 1.576830 18.00000000
34.676753 66.501613 0.542943 18.00000000
-12.575546 -73.935544 1.295639 18.00000000
-46.676003 -58.702185 1.684701 18.00000000
-54.386549 -51.639823 0.915275 18.00000000
69.050588 29.271073 1.918990 18.00000000
-63.317384 -40.193630 0.997653 18.00000000
-31.525150 -68.050249 2.602157 18.00000000
70.844641 24.613846 1.487103 18.00000000
-74.521783 8.440872 0.903445 18.00000000
35.162477 -66.243677 1.892447 18.00000000
43.476405 61.112588 2.608635 18.00000000
-14.259982 -73.629617 0.810542 18.00000000
73.738018 -13.688218 0.567888 18.00000000
-43.651331 -60.985955 0.437987 18.00000000
74.990315 1.096292 2.123686 18.00000000
52.645564 -53.414935 1.071387 18.00000000
16.698252 73.116003 1.678089 18.00000000
58.649615 46.745201 1.813172 18.00000000
-64.476333 -38.311111 0.093523 18.00000000
72.089641 20.685778 2.429514 18.00000000
60.800992 -43.908618 2.121236 18.00000000
74.873120 4.321917 2.666310 18.00000000
-72.273518 20.033840 1.770307 18.00000000
-65.865215 35.866069 2.669794 18.00000000
-33.739017 -66.981334 1.391004 18.00000000
48.807221 -56.945387 2.086504 18.00000000
7.253273 74.645617 0.123294 18.00000000
-72.288165 -19.981775 2.705830 18.00000000
60.263742 -44.644182 1.556037 18.00000000
-74.983905 -1.427300 2.530955 18.00000000
1.340707 -74.987168 2.772737 18.00000000
-25.861938 -70.397422 1.938901 18.00000000
74.241197 -10.639803 2.395973 18.00000000
-74.856210 -4.604529 0.646074 18.00000000
28.549082 69.352879 2.960351 18.00000000
60.307495 44.586144 2.168994 18.00000000
-67.898877 -31.848153 0.837843 18.00000000
49.882258 -56.005346 1.573875 18.00000000
-36.938320 65.271636 2.008191 18.00000000
-74.805013 -5.376216 2.055952 18.00000000
21.810232 71.757119 2.442567 18.00000000
-48.251581 -57.415700 0.597618 18.00000000
61.582736 -42.807883 0.014650 18.00000000
-68.669587 30.153230 2.598460 18.00000000
63.191020 40.394867 1.720325 18.00000000
-36.985557 65.244928 1.701489 18.00000000
72.045115 -20.840229 2.008573 18.00000000
25.893953 70.385849 0.021547 18.00000000
-3.846995 -74.899524 2.374014 18.00000000
55.749023 50.169306 0.623115 18.00000000
-73.482115 -15.005499 2.955960 18.00000000
-73.246723 16.115128 1.920180 18.00000000
50.236820 -55.688394 1.146766 18.00000000
-29.067176 -69.135716 0.753139 18.00000000
74.750426 6.080181 1.167597 18.00000000
-33.672287 67.014506 1.486308 18.00000000
63.625768 -39.705482 0.964668 18.00000000
-74.978044 1.737813 0.690276 18.00000000
66.575214 34.535381 1.762624 18.00000000
-16.667190 73.122434 0.936900 18.00000000
-28.698994 69.289896 2.012169 18.00000000
39.698033 -63.629858 1.273804 18.00000000
-74.704677 -6.616872 2.976695 18.00000000
-0.093208 -74.999350 0.608909 18.00000000
20.993172 71.999236 2.698364 18.00000000
-21.005121 -71.997425 0.595170 18.00000000
-74.336133 -9.939521 0.656498 18.00000000
73.685030 -13.968288 0.981391 18.00000000
62.352110 41.679706 0.018093 18.00000000
64.866363 -37.644025 1.993093 18.00000000
46.130040 59.134093 0.016838 18.00000000
19.584466 72.396509 1.049283 18.00000000
-66.402788 34.865499 0.725873 18.00000000
18.383814 -72.711654 2.750492 18.00000000
-64.759464 37.828523 2.480195 18.00000000
27.356798 -69.832144 1.013505 18.00000000
-6.959462 -74.675047 2.966981 18.00000000
-31.403121 68.106298 2.560751 18.00000000
-59.270492 45.954142 1.481297 18.00000000
-73.952997 -12.478954 1.406095 18.00000000
-59.851317 45.195449 0.904130 18.00000000
-74.577697 7.920844 2.869576 18.00000000
73.160242 16.500033 1.412317 18.00000000
-7.024794 -74.668085 0.268218 18.00000000
-13.706495 -73.734820 1.721537 18.00000000
73.920585 -12.662519 2.384019 18.00000000
67.377073 -32.938878 2.639803 18.00000000
-74.998505 0.362982 1.825721 18.00000000
-30.866643 -68.351494 1.495112 18.00000000
30.243602 68.629343 0.012650 18.00000000
-15.308004 73.419504 1.507983 18.00000000
66.697636 -34.295472 2.700545 18.00000000
-19.003531 72.550712 1.084680 18.00000000
74.524165 8.413600 1.742553 18.00000000
73.349360 15.643976 2.434984 18.00000000
-74.767538 5.890083 2.094067 18.00000000
3.129445 74.934581 2.905177 18.00000000
-66.898506 -33.900333 2.671750 18.00000000
-67.025035 -33.653091 1.419095 18.00000000
-48.620540 -57.101801 1.847967 18.00000000
24.362488 -70.930166 2.449991 18.00000000
-54.611742 51.404964 2.568489 18.00000000
72.174473 20.384631 1.780928 18.00000000
60.626671 -44.148593 0.313748 18.00000000
-73.733767 13.716451 1.281115 18.00000000
-54.683774 -51.326148 1.242546 18.00000000
-5.273687 74.813063 1.729781 18.00000000
12.301701 -73.982316 0.643465 18.00000000
-56.074883 49.802632 2.585363 18.00000000
69.504952 28.174854 2.988335 18.00000000
-61.832809 -42.442143 1.363959 18.00000000
48.997385 56.779263 2.994779 18.00000000
-74.540028 -8.269160 2.993607 18.00000000
31.480771 -68.070155 2.891842 18.00000000
21.530760 -71.840459 0.182851 18.00000000
66.841375 34.014481 1.328338 18.00000000
71.200080 -23.567897 0.673649 18.00000000
-20.462678 72.152900 2.978730 18.00000000
41.248320 62.637515 2.276616 18.00000000
12.860815 73.887400 1.171795 18.00000000
-40.812186 -62.921324 2.529751 18.00000000
70.694884 25.040143 1.610172 18.00000000
