-0.144310 0.478722 -0.968555
0.499787 -0.014591 -0.043661
0.471254 -0.167091 -0.675563
-0.476154 0.152569 0.946723
0.168069 0.470906 0.915882
-0.490108 -0.098963 0.040374
-0.494877 0.071395 -0.765184
0.262606 -0.425485 -0.983568
-0.050448 0.497449 0.371757
-0.213541 0.452106 -0.785907
0.271936 0.419584 0.540374
-0.230474 -0.443714 0.016799
0.409483 -0.286921 -0.643678
0.494436 -0.074388 -0.899998
0.041921 -0.498240 0.971993
-0.271897 0.419610 0.419458
-0.394944 0.306626 -0.505455
-0.001782 -0.499997 0.038654
0.143248 -0.479041 -0.680206
-0.498907 0.033038 0.936885
0.404537 -0.293854 0.668008
-0.376240 -0.329308 -0.655172
-0.498516 0.038488 -0.762256
0.499311 0.026242 -0.859943
-0.434906 -0.246692 0.055646
-0.373710 -0.332176 -0.060494
-0.418399 -0.273756 0.266846
-0.290738 -0.406782 0.616805
-0.489810 0.100428 0.483982
-0.084915 -0.492737 -0.294560
0.056055 0.496848 -0.330084
0.407544 0.289669 -0.662592
-0.403544 -0.295216 -0.300901
0.453773 0.209976 0.516663
-0.432474 0.250932 0.868293
0.486454 0.115597 0.587951
-0.452877 0.211902 0.720607
0.027438 0.499247 0.834713
-0.466739 0.179318 -0.481969
-0.218436 -0.449762 -0.359896
0.467895 0.176279 -0.519928
-0.236220 0.440681 0.929384
0.379500 0.325545 0.405699
0.496414 0.059779 0.001056
-0.201948 -0.457402 -0.006104
-0.208963 0.454241 -0.835206
0.498112 0.043411 0.660972
0.064550 0.495816 0.515874
0.000726 0.499999 0.419605
-0.048752 -0.497618 0.314960
0.409444 0.286977 -0.426201
0.422034 0.268117 0.991002
-0.063007 -0.496014 0.139398
0.384653 0.319441 0.799803
-0.440841 0.235922 -0.711701
-0.470226 -0.169964 -0.679233
-0.343560 -0.363272 -0.639136
-0.495493 0.066985 0.897660
0.465341 -0.182915 -0.358110
-0.499024 -0.031230 -0.793435
0.071238 -0.494899 -0.518157
-0.291441 0.406278 0.713897
0.451676 -0.214450 -0.763170
-0.294217 0.404272 0.382547
0.399618 0.300509 -0.593761
0.499650 0.018715 0.933387
0.210096 -0.453718 -0.358484
0.349434 0.357626 0.977151
-0.494808 -0.071870 -0.392702
0.408880 0.287780 0.184573
-0.003684 -0.499986 0.686801
-0.237346 -0.440076 0.314961
0.132853 -0.482027 -0.923145
0.081205 0.493362 -0.179037
-0.376428 0.329092 -0.645598
-0.375951 0.329638 0.863155
0.499947 0.007270 0.661897
-0.048046 -0.497686 0.449783
0.284584 0.411111 -0.503335
-0.146343 -0.478104 0.072286
0.483328 -0.128037 -0.580595
0.263005 -0.425239 0.185837
-0.022150 0.499509 0.168087
0.208357 -0.454519 0.659993
-0.351838 -0.355261 -0.378722
0.342838 0.363953 0.362376
-0.021836 0.499523 0.589584
0.494584 -0.073396 0.419376
0.066324 0.495582 -0.888858
-0.120634 0.485229 0.728831
-0.045055 0.497966 -0.905483
0.116647 -0.486203 -0.562348
0.283906 0.411579 -0.787952
0.110895 0.487547 -0.573459
0.498009 0.044575 -0.872635
0.294590 0.404001 0.772519
0.052832 -0.497201 -0.642571
0.353078 0.354028 0.609937
-0.449993 -0.217960 -0.200276
-0.050056 -0.497488 -0.930086
0.175379 -0.468233 0.338877
-0.496310 -0.060632 -0.434363
-0.453417 -0.210743 -0.845762
0.481425 -0.135017 0.808627
-0.049275 -0.497566 0.483700
0.330494 -0.375198 -0.672482
0.449991 -0.217964 0.278713
-0.479486 -0.141749 0.815440
-0.474500 0.157638 0.834923
-0.175235 0.468287 0.076495
0.466298 0.180460 0.169620
-0.367637 -0.338885 -0.147517
-0.288648 -0.408268 0.177713
-0.483343 -0.127983 -0.127827
-0.048266 0.497665 0.976950
0.029565 0.499125 0.221056
0.453460 -0.210651 -0.103176
-0.334214 0.371888 -0.753890
-0.480774 -0.137318 -0.570769
0.090831 0.491681 -0.433589
0.432063 -0.251637 -0.621448
-0.465378 -0.182820 -0.704930
-0.496339 -0.060396 0.398682
0.044857 -0.497984 -0.771093
-0.168218 0.470853 -0.301461
-0.368199 0.338275 -0.751011
-0.125588 0.483971 -0.010446
-0.041057 -0.498312 0.272025
0.169021 0.470565 0.866672
-0.444377 0.229191 0.199593
-0.342325 -0.364436 -0.621274
-0.133762 -0.481776 -0.588428
-0.477548 0.148149 -0.958559
-0.400572 -0.299235 -0.387272
-0.438619 -0.240028 -0.574232
-0.487169 -0.112544 0.341284
0.381280 0.323459 -0.393476
0.063330 -0.495973 -0.750612
0.030143 0.499091 -0.832494
0.408277 -0.288634 -0.282847
-0.421212 -0.269407 -0.345533
-0.254026 0.430663 0.045128
-0.385483 0.318439 -0.055723
0.405091 -0.293089 -0.411205
-0.117634 -0.485965 -0.836948
-0.458020 0.200544 0.096647
-0.314352 -0.388822 0.346646
-0.438040 0.241083 -0.742189
0.012403 0.499846 0.621087
0.374390 -0.331409 0.169187
-0.091055 0.491639 0.144663
0.401786 -0.297603 -0.983144
-0.208397 0.454501 0.327063
0.235084 0.441289 -0.510488
-0.007623 -0.499942 -0.019976
0.157084 0.474684 -0.968316
-0.488614 -0.106097 -0.861314
0.487500 0.111103 0.606525
-0.083266 0.493018 0.981299
0.493557 -0.080010 0.159975
0.117820 -0.485920 -0.453004
0.084530 -0.492803 -0.885680
0.250468 -0.432742 -0.780451
-0.432490 0.250903 0.752705
-0.470580 0.168981 0.395742
-0.434980 0.246561 -0.280220
-0.008144 -0.499934 0.891755
0.385282 0.318681 0.107562
0.496733 0.057061 -0.324180
0.182480 0.465512 -0.939417
0.071782 -0.494820 -0.103374
-0.233745 0.441999 -0.724127
-0.196177 0.459907 0.183713
-0.156095 0.475010 0.385910
-0.497653 0.048384 -0.773754
0.398897 0.301466 -0.049351
0.490322 -0.097898 0.393420
-0.491903 -0.089616 -0.291281
-0.099235 0.490053 -0.382896
-0.045348 0.497939 0.155878
-0.046210 0.497860 -0.246611
0.498262 -0.041655 -0.311302
-0.495527 -0.066732 -0.118840
-0.457256 0.202279 0.625986
0.065111 0.495742 -0.289572
0.136585 -0.480983 0.052512
-0.044676 -0.498000 -0.504396
-0.354355 0.352750 -0.004339
0.499997 -0.001660 0.345656
-0.386803 -0.316833 -0.550028
-0.496654 0.057744 0.267813
-0.382593 0.321905 -0.822960
-0.301520 -0.398855 -0.717671
-0.242950 0.437007 0.604779
0.292663 0.405399 -0.167790
-0.002389 0.499994 -0.558078
-0.280590 -0.413847 -0.709525
-0.297614 0.401778 -0.706676
0.001085 0.499999 0.653861
0.499732 0.016370 0.852641
-0.498808 0.034502 -0.321292
0.212200 -0.452737 0.254734
0.009974 0.499901 -0.620776
-0.438012 0.241134 -0.170740
-0.384633 0.319464 0.505987
0.190905 0.462120 -0.066178
0.144996 0.478514 -0.945171
0.229962 0.443979 0.111951
0.003967 -0.499984 0.176705
0.466483 -0.179982 0.916079
-0.259786 -0.427214 -0.925190
-0.096833 0.490534 0.571458
0.219299 -0.449342 0.504496
0.442060 -0.233630 0.187890
-0.169244 -0.470485 0.344600
-0.087368 0.492308 0.253977
-0.428633 0.257437 0.464919
-0.445786 0.226439 -0.403135
-0.241348 0.437894 0.425625
-0.250842 0.432525 0.961109
0.304732 0.396407 -0.524749
-0.468704 -0.174117 0.472845
0.179523 -0.466660 -0.312006
0.291477 -0.406253 -0.352836
-0.375469 -0.330187 0.457368
-0.494702 -0.072598 -0.557280
0.134122 -0.481676 0.248817
0.354950 0.352151 0.163766
0.097607 -0.490380 0.010149
-0.306813 -0.394799 -0.337068
0.249451 -0.433329 0.523698
0.493397 0.080992 -0.865264
-0.454497 0.208405 -0.290053
0.156631 -0.474833 0.377148
0.495011 -0.070455 0.126864
-0.410183 0.285919 0.494868
-0.408081 0.288912 0.352331
0.461865 -0.191523 0.549059
-0.301547 0.398835 -0.035243
-0.497899 0.045793 0.193798
0.077287 -0.493991 0.057946
0.487694 -0.110246 -0.396375
0.367994 -0.338497 0.463642
0.390939 0.311716 -0.178138
0.022185 0.499508 -0.988870
0.472943 -0.162251 -0.739609
-0.434383 -0.247611 -0.716718
0.480612 0.137883 -0.626476
-0.493027 0.083210 -0.581358
0.297616 0.401777 -0.136009
0.284938 0.410865 -0.567988
0.432781 0.250401 0.898884
-0.043175 0.498132 0.133707
0.148362 0.477482 -0.372816
0.499257 0.027245 0.830271
-0.275212 0.417443 0.932594
0.253417 0.431022 -0.280673
0.293158 0.405041 0.415366
0.483922 0.125775 0.328181
0.490569 -0.096654 -0.272610
0.250644 -0.432640 0.702487
-0.303273 -0.397525 -0.201803
0.405456 0.292584 0.289926
-0.338507 0.367985 0.493235
0.295069 0.403651 -0.422744
-0.417387 0.275296 0.001864
-0.346343 -0.360620 0.954614
0.495058 -0.070124 -0.482931
0.499929 -0.008421 -0.341735
0.391829 0.310597 0.095062
-0.356035 -0.351054 -0.619486
0.182053 0.465679 -0.299510
-0.280150 -0.414145 -0.380908
-0.419092 0.272694 -0.818900
0.488342 0.107341 -0.306022
0.407693 0.289458 0.024245
-0.049934 -0.497500 -0.139662
-0.185235 0.464422 0.046079
-0.437045 -0.242882 -0.918186
-0.421972 0.268216 -0.736739
-0.300995 0.399252 -0.155966
-0.448296 0.221428 0.082703
0.485416 -0.119881 -0.723923
-0.416359 0.276848 0.676694
-0.473178 -0.161563 0.426500
-0.494138 -0.076340 -0.182126
-0.013190 -0.499826 0.205308
-0.424275 0.264557 0.659532
-0.151750 -0.476416 -0.338883
-0.470466 0.169299 0.499550
-0.497867 -0.046138 -0.754715
-0.475463 0.154708 0.648823
0.322115 -0.382416 0.768097
-0.181995 -0.465701 -0.412259
-0.202445 -0.457183 0.786413
-0.268797 -0.421602 0.651106
0.432075 -0.251617 -0.223744
-0.470997 0.167815 -0.915238
0.233570 0.442091 0.539629
0.212418 0.452635 0.214568
-0.050952 0.497397 -0.529194
-0.499886 0.010685 0.516241
-0.436442 0.243965 -0.492704
0.469193 0.172794 0.004489
-0.311365 0.391218 0.961825
-0.481720 -0.133961 -0.432424
0.449244 0.219499 -0.289325
-0.487844 -0.109583 -0.945521
-0.307383 -0.394355 0.243153
0.037283 0.498608 0.394163
-0.129055 0.483058 -0.420699
-0.451006 0.215855 -0.967251
0.470073 -0.170387 -0.079066
0.470954 -0.167936 -0.927070
-0.314424 0.388764 -0.845295
0.498917 0.032895 0.544375
0.351859 -0.355240 -0.219299
-0.499950 -0.007056 -0.665618
-0.474312 0.158201 0.865807
0.453728 -0.210073 0.340516
-0.488395 0.107100 0.666991
-0.088789 0.492053 -0.534334
0.081825 -0.493259 0.746658
0.499303 -0.026400 0.768169
0.397731 0.303002 0.371955
0.420270 -0.270875 0.054426
-0.003628 -0.499987 -0.532437
-0.490240 0.098308 0.596713
0.431395 -0.252782 0.972020
0.493127 -0.082616 0.009838
0.206108 -0.455543 -0.182616
0.472449 -0.163684 -0.755857
0.300646 0.399515 0.745830
-0.450581 -0.216742 0.670516
-0.498938 -0.032571 0.648477
-0.492131 0.088355 0.262731
-0.476819 -0.150478 0.241740
0.368506 -0.337940 0.772949
-0.315543 -0.387856 -0.931272
-0.462974 -0.188825 0.531828
-0.039655 0.498425 0.071401
0.469671 -0.171490 -0.219263
0.109511 0.487860 -0.519163
0.104658 -0.488924 0.100278
0.451878 -0.214025 0.311806
0.299337 -0.400496 -0.942727
-0.101294 -0.489632 -0.933956
-0.447791 0.222449 0.395259
-0.063976 0.495890 -0.252354
0.086328 0.492491 -0.028289
0.273068 0.418848 -0.696403
0.386611 -0.317068 0.317802
-0.361698 0.345217 0.417756
-0.024898 0.499380 -0.397394
-0.413129 0.281646 -0.547375
-0.324739 -0.380190 -0.141730
-0.044192 -0.498043 0.478731
0.297629 -0.401768 0.794998
-0.377617 0.327728 -0.915973
-0.188857 0.462961 0.489000
-0.460191 0.195509 -0.194996
-0.495837 0.064390 -0.637831
0.382519 -0.321993 -0.283492
0.387397 0.316107 -0.848841
0.487581 -0.110745 -0.193494
-0.499829 0.013060 0.477564
-0.087193 -0.492339 0.927289
-0.149607 -0.477093 0.759992
0.002202 0.499995 0.760929
0.480687 0.137623 -0.251935
0.119550 -0.485497 0.078181
-0.491796 0.090204 -0.323945
0.174189 0.468677 -0.835719
-0.364617 0.342132 -0.630679
-0.472129 0.164604 0.010652
-0.409587 0.286772 -0.100519
-0.442868 -0.232094 -0.626596
-0.298557 0.401078 -0.626052
0.494241 -0.075668 0.554644
-0.032357 0.498952 0.969905
-0.461913 0.191405 0.928482
-0.486145 -0.116888 -0.124362
-0.052219 -0.497266 -0.194323
-0.321812 0.382671 0.207820
0.417711 -0.274804 -0.115100
0.276582 0.416536 -0.653027
0.432150 -0.251488 -0.375648
0.402327 -0.296872 0.934633
-0.489512 0.101873 -0.510760
-0.398883 0.301483 0.323955
0.138297 0.480493 -0.331457
0.455089 0.207108 0.297732
0.488436 0.106911 -0.050504
0.432367 -0.251115 0.952721
0.483046 -0.129098 -0.990512
0.252085 0.431802 0.248094
0.496247 0.061144 -0.850712
0.104677 -0.488920 0.053430
-0.452962 0.211720 0.948886
-0.117365 -0.486030 0.050813
-0.456618 -0.203715 -0.208365
-0.497677 0.048139 0.552932
0.154031 0.475683 -0.067919
0.210314 0.453617 -0.922492
0.371499 -0.334647 -0.848960
0.106786 0.488464 -0.362684
-0.114422 0.486732 0.192876
-0.448056 0.221915 0.675741
-0.252897 0.431327 0.052725
-0.351601 -0.355495 -0.431222
0.096286 0.490641 -0.861596
-0.169462 0.470407 -0.894574
0.417862 -0.274575 0.725297
-0.474778 0.156799 -0.664065
-0.394957 0.306609 -0.825865
0.037208 -0.498614 0.147433
-0.494379 0.074764 0.818802
-0.221316 0.448352 0.987065
0.495255 0.068720 0.636437
0.110506 0.487635 -0.686464
0.493925 -0.077704 -0.226755
-0.458356 -0.199774 0.511970
0.462559 0.189840 0.606975
0.052772 -0.497207 0.259274
0.054405 -0.497031 0.262146
0.499576 0.020583 -0.874206
-0.464818 0.184240 -0.626890
-0.365335 -0.341365 0.503839
-0.277273 0.416077 -0.886760
0.278937 0.414963 0.578552
0.017960 0.499677 0.584521
0.392151 -0.310190 0.868169
-0.240837 0.438175 -0.506173
0.155424 -0.475230 0.429612
-0.296013 0.402960 -0.963543
-0.078511 -0.493797 0.258326
-0.001758 0.499997 0.843078
-0.319590 -0.384529 -0.848850
0.459677 0.196716 0.958687
-0.494569 0.073498 0.764169
-0.304425 -0.396643 -0.710219
-0.086341 0.492489 -0.926882
-0.147449 0.477764 -0.666571
0.416024 -0.277352 -0.831389
0.252931 0.431307 0.918384
0.180176 -0.466408 -0.301306
0.275885 0.416998 0.110210
-0.219676 -0.449157 -0.500076
0.284858 0.410921 0.619515
-0.499582 0.020445 0.408926
0.100081 0.489881 -0.761675
-0.499817 0.013515 0.653644
0.499941 -0.007664 -0.982859
0.085424 0.492649 0.032651
0.343611 -0.363224 -0.493133
-0.445793 0.226426 -0.772350
0.444065 0.229796 0.580370
-0.052656 -0.497220 0.602774
-0.460905 -0.193821 -0.786435
0.229290 0.444327 -0.337706
-0.098553 0.490191 -0.401138
0.142557 -0.479247 0.134719
-0.490932 -0.094791 0.528478
-0.478765 -0.144166 0.830927
0.026364 -0.499304 0.259302
-0.262921 -0.425291 0.607144
0.410968 -0.284789 -0.061130
-0.386131 -0.317653 0.212331
0.499992 0.002821 -0.468951
-0.409769 -0.286513 -0.817784
-0.034259 0.498825 -0.231709
0.468209 0.175442 0.459906
-0.015280 -0.499766 0.135727
0.494537 0.073707 0.974807
0.279993 0.414251 0.317767
-0.432118 -0.251543 -0.050903
0.212154 -0.452759 -0.611166
0.498893 0.033258 -0.019141
0.187959 -0.463326 0.522290
0.139316 -0.480199 0.865128
-0.423641 0.265572 -0.959735
0.496592 0.058279 -0.210466
0.324460 0.380428 0.110014
-0.084426 -0.492821 0.589410
0.482643 -0.130596 -0.133016
-0.180563 -0.466259 0.982736
0.445755 0.226500 -0.364909
0.227840 -0.445072 0.273722
0.009884 0.499902 0.312327
-0.498510 -0.038568 0.626461
0.066840 0.495512 -0.533463
-0.299739 0.400195 -0.963318
-0.499798 0.014200 0.950618
-0.411164 0.284507 0.286430
-0.258433 0.428033 0.220032
0.367194 -0.339365 0.888574
-0.222617 -0.447707 -0.608357
-0.487257 -0.112163 -0.271909
-0.485361 -0.120102 0.707167
0.182148 -0.465641 0.169987
0.498128 -0.043225 0.914705
0.485357 0.120120 -0.311241
0.074392 0.494435 -0.240432
0.499513 0.022055 -0.781581
0.058192 0.496602 -0.561936
0.022672 -0.499486 0.830009
0.396347 -0.304810 0.501486
0.467591 0.177085 -0.810976
0.104839 -0.488885 0.004258
-0.056736 0.496771 0.767703
0.476425 -0.151720 0.408203
-0.498631 -0.036979 -0.864890
-0.499389 -0.024710 -0.550423
-0.154159 -0.475642 -0.424808
-0.324078 -0.380754 0.260356
0.492503 -0.086263 -0.689071
-0.465092 0.183548 -0.907266
-0.294804 -0.403845 0.043223
0.499683 0.017804 -0.338704
-0.491558 0.091492 0.480561
0.338803 0.367712 0.967692
0.499196 -0.028344 0.639717
0.132185 -0.482211 -0.698405
0.482288 -0.131902 -0.523722
-0.008803 0.499923 -0.726648
0.497092 0.053846 0.733483
-0.207585 0.454872 0.205596
-0.349640 0.357424 -0.566017
-0.456628 -0.203693 -0.158913
-0.059594 0.496436 -0.709361
0.348866 0.358180 0.015729
0.487468 0.111242 -0.143653
-0.471938 -0.165150 -0.003260
-0.496565 0.058505 -0.970804
0.499981 -0.004350 0.906239
-0.498139 -0.043097 -0.186572
-0.165584 -0.471786 0.264681
0.059525 -0.496444 -0.919605
-0.446412 -0.225202 0.161155
0.493707 0.079079 -0.949421
-0.499738 0.016192 0.789940
0.464723 0.184479 0.959435
0.378805 0.326354 0.566306
0.499089 0.030170 0.300249
0.169736 0.470308 0.530020
0.121012 0.485135 -0.144806
0.476845 -0.150397 0.370914
0.185324 -0.464387 -0.945388
0.484878 0.122039 -0.420731
0.089821 -0.491866 -0.552782
0.058239 -0.496597 -0.744804
-0.003918 0.499985 0.665555
0.204466 -0.456283 -0.636669
-0.224735 -0.446648 -0.249677
0.419029 -0.272790 0.472929
-0.117726 -0.485943 0.431630
-0.313913 -0.389177 -0.319243
0.011043 0.499878 -0.396321
0.214542 0.451632 0.513207
-0.029188 0.499147 0.595260
0.497131 -0.053488 0.483564
0.174756 -0.468466 -0.394186
-0.477285 -0.148995 -0.824919
0.215392 -0.451227 -0.539490
0.420110 0.271123 0.655740
-0.461680 -0.191968 -0.508459
-0.492858 0.084208 -0.817588
0.259674 0.427281 0.526146
-0.118336 -0.485795 0.419751
-0.271708 0.419732 -0.902916
0.499753 0.015702 0.144515
0.163252 -0.472598 -0.228726
-0.047770 0.497713 -0.122205
0.291992 0.405883 -0.364004
0.461102 0.193351 -0.111572
-0.215244 0.451298 -0.999440
0.216833 -0.450537 0.142753
-0.437215 -0.242576 0.910683
-0.331882 0.373971 0.462941
-0.497418 0.050744 -0.114458
0.179066 0.466835 -0.598710
-0.142743 0.479191 0.638185
0.484687 0.122796 -0.852667
0.499683 0.017789 0.392195
-0.407639 -0.289535 -0.102000
0.492011 -0.089026 0.673549
-0.453466 -0.210638 -0.983084
-0.344988 0.361916 -0.100062
0.497119 0.053600 0.603021
0.442052 0.233645 -0.125632
-0.495204 -0.069086 -0.151825
0.499978 0.004704 0.298839
-0.482879 -0.129724 -0.144802
0.498130 -0.043204 -0.027482
0.290614 0.406870 0.069569
0.488005 0.108865 -0.640493
0.133357 -0.481888 0.161306
-0.488803 -0.105221 0.536538
0.488348 0.107315 0.127171
-0.035027 -0.498772 -0.796741
0.495792 0.064734 -0.603764
-0.169944 -0.470233 0.025448
0.068696 0.495258 0.000739
0.493050 0.083074 -0.552623
-0.092585 0.491353 -0.879473
-0.184638 -0.464660 -0.759434
-0.445779 0.226454 0.363859
0.490879 -0.095068 0.248413
-0.493379 0.081102 0.180983
0.239150 0.439098 0.219980
-0.499956 -0.006596 0.507522
0.498718 -0.035788 -0.268261
-0.155203 -0.475302 0.584986
0.468247 -0.175341 0.903248
-0.470573 0.169000 0.982704
-0.498181 0.042614 -0.798729
-0.215601 -0.451128 0.497872
-0.298520 0.401106 0.091618
0.490096 0.099024 0.950306
0.303694 0.397202 0.602817
0.042651 0.498178 -0.824007
0.498221 0.042140 -0.893962
-0.240224 -0.438512 0.481557
0.366516 -0.340097 0.934072
0.067235 -0.495459 0.730576
-0.074016 0.494491 -0.207730
0.159869 -0.473753 -0.350813
-0.252210 -0.431729 0.411184
-0.072473 -0.494720 -0.949645
-0.243745 0.436564 0.547725
-0.295778 0.403132 -0.058446
-0.198128 0.459070 -0.490786
0.460063 -0.195812 0.801300
-0.261275 -0.426304 -0.533632
-0.229032 0.444460 -0.964185
0.485984 -0.117558 0.752492
0.499635 0.019106 -0.239254
-0.175563 0.468164 -0.231377
-0.231817 0.443013 -0.586317
0.047413 -0.497747 0.564416
-0.326877 0.378354 0.185828
-0.499957 0.006584 -0.014483
-0.481660 0.134176 0.708651
-0.271242 0.420033 -0.025965
-0.225432 0.446297 -0.975623
-0.278751 -0.415088 0.516991
0.110488 -0.487640 -0.937806
0.499369 -0.025107 -0.470946
-0.322204 0.382341 0.420897
-0.499560 -0.020981 0.903730
-0.472553 -0.163382 0.757803
-0.487468 0.111241 -0.169970
-0.399076 0.301227 -0.629316
-0.186954 0.463733 -0.297348
0.421322 -0.269236 0.570643
-0.444713 0.228540 0.375637
-0.152660 -0.476125 -0.161733
-0.397362 -0.303486 0.419608
0.050486 -0.497445 0.778924
-0.049966 -0.497497 -0.608019
0.386655 -0.317014 0.125669
-0.396420 0.304715 -0.706598
0.385760 0.318103 0.396725
-0.287954 -0.408757 0.312552
-0.483799 -0.126250 -0.750874
0.472285 -0.164155 0.462274
-0.411677 0.283764 -0.041222
-0.397757 -0.302968 0.703589
0.403513 0.295258 0.339054
-0.256125 0.429418 -0.281509
0.345817 0.361124 -0.735882
-0.085562 -0.492625 -0.979395
-0.081021 0.493392 -0.159975
-0.146621 0.478019 0.885998
0.493487 -0.080442 0.593216
0.499195 0.028368 -0.594086
0.329151 -0.376377 0.379615
-0.390177 -0.312669 0.010787
-0.417556 -0.275039 -0.565857
0.058431 -0.496574 -0.300683
0.023705 0.499438 -0.454573
-0.005520 0.499970 0.977206
0.142826 -0.479167 0.500795
-0.497345 0.051461 0.768340
-0.194144 -0.460769 -0.419259
-0.348904 0.358142 0.424424
-0.499863 0.011706 0.091472
0.356708 0.350371 0.162184
-0.385919 -0.317910 -0.650656
0.436991 0.242979 -0.520343
0.374761 0.330989 -0.264652
-0.406468 0.291177 0.168735
0.291448 -0.406274 0.496665
0.058360 0.496582 0.178900
-0.489840 0.100285 0.889436
0.368097 -0.338386 -0.643154
-0.063445 0.495958 -0.055771
-0.494060 -0.076841 -0.438225
0.175676 0.468122 0.889402
0.496913 0.055478 0.011849
0.407724 0.289415 0.837425
0.255808 -0.429607 0.539926
-0.064181 0.495864 0.116964
-0.209787 -0.453860 0.456890
0.435260 0.246066 -0.279907
-0.019784 0.499608 0.348014
-0.476218 -0.152370 -0.511416
-0.401985 0.297335 0.137380
-0.027449 0.499246 0.128121
0.448133 0.221759 -0.613236
-0.200769 0.457921 -0.124930
0.424574 0.264077 -0.929954
0.498574 0.037742 -0.826690
-0.475198 -0.155521 0.135450
0.134114 -0.481678 0.563049
0.305900 -0.395506 -0.908558
0.493254 -0.081855 -0.481504
0.458420 -0.199626 -0.303549
-0.474762 -0.156846 0.174862
-0.472643 -0.163120 -0.628312
-0.050780 -0.497415 -0.855649
0.108244 0.488143 0.051411
0.223763 -0.447136 0.207501
0.452161 -0.213425 -0.365489
0.092287 -0.491409 -0.714222
-0.091973 -0.491468 0.625521
0.379460 -0.325592 0.455871
-0.454196 0.209060 -0.134119
-0.125946 -0.483878 -0.405775
0.189527 0.462687 -0.283391
0.020090 0.499596 0.723777
-0.481317 0.135404 0.179210
0.296415 -0.402664 0.455937
-0.327754 -0.377594 0.220734
0.356215 0.350871 0.626840
0.072627 0.494697 -0.372741
-0.215708 0.451076 -0.105042
0.415145 -0.278666 -0.043036
-0.293702 0.404647 0.992946
-0.494780 -0.072064 -0.197421
0.187298 -0.463594 0.445421
-0.498007 -0.044603 0.837036
0.217821 0.450060 0.325739
0.499651 -0.018678 -0.121286
-0.001580 -0.499998 0.222702
0.013635 -0.499814 -0.456674
0.016608 -0.499724 -0.234624
0.327798 -0.377556 -0.192121
0.271668 0.419757 -0.018576
-0.121708 0.484961 0.740203
0.439065 0.239211 -0.096710
-0.310112 0.392212 0.915978
-0.169764 -0.470298 -0.205088
0.208486 -0.454460 0.690703
0.019268 0.499629 0.249058
0.438141 0.240900 -0.909924
0.486764 -0.114283 -0.333337
-0.474570 0.157427 -0.756615
0.129282 -0.482997 0.443664
-0.265754 0.423526 -0.774098
0.302814 0.397874 -0.848063
0.488191 -0.108025 -0.077102
0.240996 0.438088 0.202961
0.125486 -0.483997 -0.455460
0.381294 0.323443 -0.164169
-0.494098 0.076598 -0.188336
-0.087466 0.492290 -0.214309
0.201756 0.457487 0.894812
0.018210 -0.499668 -0.205050
-0.172845 0.469174 0.405249
-0.210582 -0.453492 0.822577
-0.459222 -0.197777 -0.527198
0.154188 0.475632 -0.961360
-0.483957 0.125640 0.708668
0.357547 0.349514 -0.924118
-0.499894 0.010277 -0.181809
0.455966 -0.205170 -0.435906
-0.420315 0.270805 0.557677
-0.049615 0.497532 0.660743
-0.445553 -0.226898 -0.929925
0.476304 0.152099 0.847814
0.492212 0.087907 0.482329
0.426921 -0.260266 0.782282
0.348213 -0.358814 -0.807448
-0.477722 -0.147586 -0.621066
0.195028 0.460396 0.994292
-0.488649 -0.105933 0.098852
-0.475124 -0.155747 -0.200490
-0.417211 -0.275563 0.378759
-0.275770 0.417074 0.506393
-0.339293 -0.367261 -0.951620
0.010225 -0.499895 0.171058
0.019498 -0.499620 -0.919237
-0.012989 0.499831 0.629729
-0.455343 -0.206550 -0.985324
-0.163539 0.472499 -0.331953
0.258698 0.427873 0.575139
0.498743 0.035437 0.951409
0.327625 0.377706 -0.137817
0.299045 0.400715 0.647698
-0.383128 -0.321268 -0.841894
0.344644 0.362243 -0.735680
-0.014955 -0.499776 -0.555835
-0.445497 -0.227008 -0.027089
-0.244758 0.435997 -0.762274
-0.008295 0.499931 0.091694
-0.232228 0.442798 -0.202516
0.477903 0.146998 0.293735
-0.355849 -0.351242 -0.538989
-0.324664 0.380254 -0.167152
0.450608 0.216684 -0.198870
0.372737 -0.333268 -0.378103
-0.333316 -0.372694 0.728270
-0.207101 0.455092 -0.601498
0.046724 -0.497812 -0.872912
0.328111 0.377284 -0.788193
-0.499011 -0.031434 -0.443969
-0.452059 -0.213642 -0.110226
0.413675 -0.280844 -0.518149
0.497158 -0.053237 0.133237
-0.066547 -0.495552 0.129018
0.498600 -0.037393 -0.316386
0.073283 -0.494601 0.328257
-0.403430 -0.295371 0.689530
-0.004266 0.499982 -0.081349
0.059996 -0.496387 0.895615
-0.483832 -0.126121 -0.820230
0.492881 0.084075 0.135383
-0.182325 -0.465573 -0.326340
-0.280075 -0.414196 0.373244
-0.012032 -0.499855 0.963861
0.403533 0.295230 -0.971212
-0.099054 0.490090 -0.409319
-0.442129 -0.233500 0.899750
-0.472865 -0.162478 -0.307704
-0.449085 0.219825 -0.159334
-0.018900 0.499643 -0.325384
0.247612 -0.434383 0.569806
0.091170 0.491618 -0.806739
-0.046554 0.497828 -0.506761
-0.496449 0.059483 -0.509328
0.016307 0.499734 0.967134
-0.245972 -0.435314 0.317072
-0.485227 0.120642 -0.025807
0.416459 -0.276699 -0.675087
-0.374156 0.331674 -0.086253
-0.167130 0.471240 -0.377688
-0.484798 0.122355 -0.923648
0.204716 -0.456170 -0.030254
-0.319324 -0.384750 0.989943
-0.048200 0.497671 0.486110
-0.466696 -0.179429 -0.956223
-0.377202 0.328205 0.876439
-0.453787 -0.209945 0.184225
0.157098 -0.474679 0.745716
-0.186727 0.463824 0.750423
0.499804 -0.014008 -0.619563
0.057003 -0.496740 -0.783181
0.150335 -0.476864 -0.788754
-0.248256 0.434015 0.249234
-0.499179 -0.028647 0.089303
-0.016383 0.499732 0.413189
0.494194 -0.075974 0.863593
0.078557 0.493790 -0.405058
-0.008261 -0.499932 -0.336563
-0.495200 0.069115 -0.825645
0.003508 0.499988 -0.492608
0.016943 -0.499713 0.392581
-0.454145 -0.209172 -0.899664
0.464558 -0.184894 -0.822974
-0.462338 0.190378 0.010648
0.104099 -0.489043 -0.198836
-0.157834 -0.474435 0.932381
0.127629 -0.483437 0.700465
0.482154 -0.132393 -0.725466
-0.439075 -0.239192 -0.664651
-0.355867 0.351224 -0.212564
0.415094 -0.278742 0.919325
0.194443 -0.460643 -0.596855
0.331120 0.374646 0.882570
-0.455558 0.206075 0.331803
-0.373687 0.332202 -0.441475
0.488660 0.105884 -0.779199
0.455748 0.205655 -0.747534
-0.439294 0.238791 -0.338743
-0.412817 -0.282103 -0.412059
0.496937 -0.055260 0.537115
0.398041 0.302595 0.619546
0.004909 0.499976 -0.953198
-0.406953 -0.290498 -0.403083
-0.360833 -0.346121 -0.133183
-0.414596 -0.279482 0.234847
-0.485113 -0.121102 0.503809
-0.195955 0.460002 -0.602387
-0.345983 -0.360965 0.807453
0.404939 0.293299 -0.530579
0.326858 -0.378370 0.158488
-0.482637 0.130622 -0.933850
-0.453205 0.211199 0.869599
0.184197 0.464835 -0.552960
0.306702 0.394885 0.849807
0.425318 -0.262877 0.024548
0.089009 -0.492014 -0.609243
0.358231 -0.348813 -0.974851
-0.009601 -0.499908 0.287269
0.340315 -0.366314 0.332733
-0.321366 0.383045 0.833834
-0.055391 -0.496922 0.027039
0.495593 0.066235 -0.746928
0.499973 0.005238 -0.031725
0.070492 0.495006 0.987382
-0.413955 0.280430 0.818105
0.468470 -0.174745 -0.437347
-0.431117 0.253255 -0.054933
-0.498547 0.038091 -0.523461
-0.038724 -0.498498 0.326546
-0.125319 -0.484041 0.612089
0.310144 0.392187 0.843665
-0.499912 0.009383 0.959169
-0.495237 0.068853 -0.007570
0.373543 -0.332363 -0.910569
-0.494466 -0.074186 -0.666105
-0.290913 0.406656 0.926907
-0.499870 0.011414 0.880705
-0.045075 0.497964 -0.717008
0.489022 0.104199 0.543617
0.498066 -0.043929 0.568657
0.385599 0.318298 -0.638884
-0.499608 -0.019807 -0.300415
0.431143 0.253211 0.850995
-0.473130 -0.161704 0.503124
-0.457687 0.201302 -0.451854
0.411073 -0.284638 -0.349032
0.166462 0.471477 -0.008119
-0.496332 -0.060456 -0.614503
0.218777 -0.449596 -0.061264
0.088249 0.492151 0.880056
0.461895 -0.191451 0.428480
0.134050 0.481696 -0.344234
-0.315054 0.388254 -0.679742
-0.088630 0.492082 0.128176
0.256612 0.429127 -0.720482
-0.118154 0.485839 0.083683
0.395990 -0.305274 -0.694049
0.315014 -0.388286 -0.399307
0.445306 -0.227382 0.587916
-0.197438 0.459367 0.681278
-0.483309 0.128110 0.555968
-0.360705 0.346255 -0.369052
0.488067 -0.108586 0.945044
0.051076 -0.497384 0.993236
0.460301 0.195251 0.531985
-0.265496 -0.423689 -0.997196
-0.347542 0.359464 -0.325023
0.214694 0.451560 -0.737635
-0.169234 0.470489 -0.608797
-0.189768 0.462588 -0.375020
-0.423982 -0.265027 0.430709
-0.173555 -0.468912 -0.782332
-0.329306 -0.376241 -0.088361
0.461345 0.192772 0.545120
0.408124 -0.288851 0.913440
0.025216 0.499364 -0.026187
0.390351 -0.312452 -0.051721
0.487506 0.111075 -0.684019
0.264695 0.424189 -0.739140
-0.364478 -0.342280 0.511318
0.488610 0.106116 0.158296
0.472153 -0.164533 0.608374
-0.042374 -0.498201 -0.574045
0.471878 -0.165320 -0.816775
-0.234445 -0.441628 -0.483692
0.254076 0.430634 0.355759
0.441468 -0.234747 -0.108816
-0.092207 0.491424 -0.081613
-0.195129 0.460353 0.195709
0.316342 -0.387205 -0.062484
0.073378 0.494586 -0.730923
0.028838 0.499168 0.295130
0.332512 0.373411 0.339656
-0.166961 0.471300 0.689294
-0.459492 0.197147 -0.326778
-0.277602 -0.415857 0.407394
-0.132897 0.482015 -0.427730
-0.229449 -0.444245 0.409052
0.176339 -0.467872 0.511460
0.178658 -0.466992 0.368185
-0.227608 0.445191 -0.453331
0.470624 0.168859 0.062868
0.441755 -0.234206 -0.366097
-0.443428 -0.231023 0.202829
0.464987 -0.183812 0.626860
0.406644 0.290930 -0.782275
0.473959 0.159258 0.347574
0.427242 0.259738 -0.982796
0.494027 -0.077051 -0.226011
-0.424461 -0.264259 -0.205949
0.102845 0.489309 0.545621
0.482383 -0.131554 -0.167633
-0.375337 0.330337 0.277803
-0.107049 -0.488406 0.392810
0.495984 -0.063245 0.517930
0.158856 -0.474094 -0.559587
-0.481286 -0.135512 0.306587
-0.490471 0.097150 0.078822
0.309425 0.392755 0.531174
-0.307301 -0.394419 0.089066
-0.176305 -0.467885 -0.435303
-0.163944 -0.472358 0.102788
-0.424546 -0.264122 -0.296882
-0.449670 0.218625 -0.622108
-0.369696 -0.336638 0.929916
0.487634 0.110515 -0.800873
0.045093 0.497963 -0.554654
-0.133975 0.481717 -0.231522
0.127775 -0.483398 0.408564
-0.444228 -0.229480 0.306779
-0.177842 -0.467303 -0.585535
0.105548 0.488733 -0.787258
0.314606 0.388617 -0.490183
0.312245 0.390517 0.523784
0.034083 -0.498837 0.916484
0.321965 -0.382543 -0.723276
0.212731 -0.452488 -0.844626
0.498805 -0.034541 -0.863566
0.311910 0.390784 -0.584063
-0.498060 0.044002 0.486222
0.480406 0.138600 0.587419
0.423801 0.265316 -0.400053
0.171625 -0.469622 -0.153522
0.496703 -0.057322 -0.374332
0.297085 -0.402170 -0.182372
0.499346 -0.025572 0.937289
-0.475652 -0.154128 -0.963972
0.478565 -0.144831 0.778461
0.472977 -0.162151 -0.873185
-0.154646 -0.475484 0.030222
-0.206516 -0.455358 -0.150006
0.489628 -0.101313 -0.652686
0.052706 -0.497214 0.269767
-0.151537 0.476484 -0.236519
-0.390748 -0.311955 0.943100
0.171901 0.469521 -0.977619
0.097834 -0.490335 0.583303
0.283364 -0.411953 0.234635
0.478687 -0.144426 -0.587267
-0.494447 0.074314 0.390141
-0.499957 -0.006548 0.649967
-0.452589 -0.212515 -0.340395
-0.208539 -0.454435 0.090142
0.369985 -0.336320 0.917196
0.476856 -0.150360 -0.829175
0.357235 0.349833 -0.311313
-0.499998 0.001262 0.298707
0.439802 0.237854 0.124001
0.306801 0.394808 0.660672
-0.085503 -0.492635 -0.894349
0.068842 0.495238 0.163692
-0.121181 0.485093 -0.747508
0.487547 -0.110895 -0.649941
-0.273092 0.418833 -0.451215
-0.490673 0.096127 -0.024051
0.496137 0.062032 -0.622223
0.225848 -0.446086 0.227561
0.492796 0.084572 -0.436427
0.086267 0.492502 -0.463930
-0.489950 0.099743 0.478508
-0.470404 0.169471 -0.207606
0.499967 0.005787 0.206124
0.392175 0.310160 0.392731
-0.488679 -0.105798 -0.151709
0.476876 0.150298 -0.700472
0.383585 0.320722 0.447891
-0.287303 -0.409215 -0.178366
-0.009572 0.499908 -0.430833
-0.435554 0.245546 -0.092561
0.495797 0.064692 0.580011
-0.499959 0.006418 -0.886297
0.495319 0.068261 0.988197
-0.123501 -0.484508 0.835515
0.090124 0.491811 -0.763831
-0.304344 -0.396705 -0.073010
0.474052 -0.158979 0.589303
-0.392272 0.310037 0.484649
0.491280 0.092975 0.104519
0.068227 -0.495323 0.032020
0.269764 0.420984 0.621263
-0.498940 -0.032534 -0.312569
0.342388 0.364377 0.260996
0.410423 0.285575 -0.487314
-0.163171 0.472626 0.949744
0.497617 -0.048762 -0.246524
0.342868 0.363925 -0.805319
0.297135 0.402133 0.313759
0.476521 -0.151419 0.197916
-0.493797 0.078514 -0.926532
-0.183272 0.465201 -0.447573
-0.194393 0.460664 -0.573042
-0.199524 -0.458465 0.170519
-0.020101 -0.499596 -0.979634
0.432700 0.250541 -0.210467
-0.148431 0.477460 -0.431114
0.492201 -0.087968 0.148060
0.448658 -0.220694 -0.937556
-0.482345 0.131695 0.517039
-0.192183 -0.461590 0.786893
0.447008 0.224018 -0.150863
0.401010 0.298649 0.584195
-0.499830 0.013054 -0.588852
0.433231 0.249621 0.568298
0.413123 -0.281655 0.724661
-0.348275 0.358755 -0.155570
-0.284379 -0.411252 -0.211677
0.267418 0.422478 -0.924303
-0.062651 -0.496059 0.404493
0.495722 -0.065268 -0.906906
0.499903 -0.009842 -0.185226
-0.239306 0.439013 0.675684
0.328992 -0.376516 -0.224682
-0.366634 -0.339970 -0.586838
-0.456368 -0.204275 0.883759
0.479805 0.140668 0.146692
-0.437063 0.242849 -0.630788
-0.485449 -0.119745 -0.870925
-0.350444 -0.356636 -0.172154
0.171359 0.469719 0.436756
-0.260257 0.426927 0.924683
-0.074558 0.494410 -0.191483
0.435829 -0.245057 -0.724963
0.021236 0.499549 0.865484
0.012223 -0.499851 0.861695
-0.367649 0.338872 -0.802121
0.397056 -0.303886 0.870456
0.499306 -0.026334 0.219629
-0.180077 0.466446 0.065122
0.422106 0.268005 0.014540
-0.485371 -0.120063 -0.764113
-0.498903 0.033102 0.153289
0.396694 0.304358 -0.327080
-0.148796 0.477347 -0.668151
-0.222540 -0.447746 0.107660
0.214778 0.451520 0.794506
-0.193233 -0.461152 -0.809419
-0.498712 0.035865 -0.938991
0.153085 0.475988 0.578358
0.499962 -0.006193 -0.162760
0.398805 0.301586 -0.184634
0.252135 0.431773 -0.988892
-0.465582 0.182302 0.541455
-0.318638 0.385318 -0.227110
0.132350 -0.482165 0.776233
-0.262400 0.425613 -0.125658
0.495305 0.068362 -0.217055
-0.180632 -0.466232 0.132243
0.380995 -0.323794 0.128601
-0.496991 -0.054775 0.317122
-0.041873 0.498244 -0.815206
-0.032679 0.498931 0.591130
0.457941 0.200725 -0.049370
-0.491118 0.093826 0.828376
-0.226547 0.445732 0.550668
0.439385 0.238623 -0.406509
0.480013 -0.139956 -0.534226
0.036606 -0.498658 -0.557834
-0.301621 0.398779 0.859222
0.341442 -0.365264 -0.991846
0.237997 -0.439724 0.718150
-0.231738 -0.443055 0.959942
0.370445 -0.335813 0.682369
0.331211 0.374566 0.854325
0.451401 -0.215028 -0.262131
-0.419368 -0.272269 -0.074008
0.483872 0.125967 -0.757923
0.399007 0.301320 0.142331
0.498272 -0.041529 0.643275
0.088353 0.492132 -0.369883
0.239514 0.438900 -0.721585
-0.265830 -0.423479 -0.089279
-0.303165 -0.397606 -0.989292
-0.355892 0.351199 -0.726614
-0.320633 0.383659 0.496457
-0.499229 0.027748 0.878364
0.184941 0.464539 -0.076202
-0.010175 -0.499896 -0.341640
0.477491 -0.148331 -0.644744
0.036183 0.498689 0.754751
-0.030277 -0.499082 0.394027
-0.070599 -0.494991 -0.196460
-0.248495 -0.433878 -0.574467
-0.014793 -0.499781 0.217338
0.453404 -0.210771 0.079365
0.249214 -0.433466 0.032603
0.343752 0.363090 -0.267752
-0.419833 -0.271551 0.813411
-0.445774 0.226463 -0.261545
0.498775 -0.034974 0.760209
0.491883 -0.089727 0.246515
0.405798 0.292109 -0.939366
0.289469 0.407686 -0.911052
-0.467372 0.177661 -0.395843
-0.231454 0.443203 -0.948997
0.112740 0.487124 -0.129126
-0.365266 -0.341440 0.702581
0.371444 0.334708 0.401934
-0.348680 -0.358360 -0.289602
0.406430 -0.291229 -0.852253
-0.166294 0.471536 0.933148
-0.472336 0.164008 -0.344985
0.485814 -0.118255 0.839340
0.467590 -0.177087 0.631249
0.406175 -0.291585 -0.421563
-0.433102 0.249846 -0.649615
-0.352345 -0.354758 -0.399917
0.255319 -0.429898 -0.171236
0.311561 0.391062 -0.386806
-0.081586 -0.493299 -0.946949
-0.290163 0.407192 0.483193
-0.071006 -0.494933 -0.296281
0.340524 -0.366119 -0.524859
-0.404983 -0.293238 0.780282
0.373392 0.332533 -0.825958
0.252049 0.431823 0.141667
0.361792 0.345118 -0.106729
0.215121 -0.451357 -0.602342
0.263313 0.425048 -0.623018
0.496141 -0.062002 0.938976
0.169049 0.470555 -0.230456
-0.402286 0.296928 -0.692259
0.021726 0.499528 -0.685653
-0.327424 0.377880 -0.357724
-0.263645 0.424843 0.216580
0.267519 -0.422414 -0.218707
-0.490465 0.097179 -0.771600
-0.184863 -0.464570 0.092315
-0.321633 -0.382821 -0.012514
0.056598 -0.496786 -0.078753
-0.383747 -0.320529 -0.859255
0.406130 -0.291648 -0.939439
0.305110 0.396116 0.247217
0.285723 -0.410320 -0.115900
-0.298121 -0.401402 -0.721168
-0.233334 -0.442216 -0.482600
0.248960 0.433611 -0.238091
0.476452 -0.151638 0.086586
-0.224521 0.446755 -0.918641
-0.430804 -0.253788 -0.411362
0.482415 -0.131439 -0.406540
-0.292114 0.405795 0.044212
-0.173344 -0.468990 0.574580
-0.341242 0.365450 0.729391
0.497867 -0.046138 0.327386
0.499052 -0.030769 -0.157128
0.469983 -0.170635 -0.696051
0.202268 0.457261 -0.515818
0.499477 0.022853 0.844464
0.140396 0.479884 -0.800096
-0.161732 -0.473120 0.118535
0.401038 0.298612 -0.363717
-0.385266 0.318701 0.643297
-0.487718 -0.110143 0.208535
-0.100155 -0.489866 -0.048619
-0.476526 0.151404 0.591474
0.365918 -0.340740 0.321328
-0.317867 -0.385954 0.256140
-0.477838 -0.147211 -0.860313
-0.174716 -0.468481 0.772568
-0.124224 -0.484323 0.384740
-0.040977 -0.498318 -0.416992
0.432211 0.251383 -0.987782
-0.472722 0.162893 0.800335
-0.053868 0.497090 0.785649
0.022036 -0.499514 -0.169636
0.356635 -0.350444 -0.321780
0.189826 -0.462565 0.298497
0.214011 -0.451884 0.013502
0.391212 0.311373 0.167657
-0.105063 -0.488837 -0.684573
-0.331226 -0.374552 -0.937860
-0.453099 -0.211428 -0.577428
0.474890 0.156461 -0.807079
0.033400 -0.498883 -0.187913
0.438084 0.241002 -0.130196
-0.120246 0.485326 -0.195006
0.411652 0.283801 -0.636890
0.311344 0.391235 0.321995
0.337397 0.369003 0.000876
0.312663 -0.390182 0.032432
0.466867 0.178984 -0.219605
-0.473375 0.160986 0.930114
-0.403968 0.294636 -0.279471
-0.448035 -0.221956 -0.123040
-0.015916 0.499747 0.685288
0.073363 -0.494589 0.405920
0.269568 0.421109 0.383455
0.297798 -0.401642 0.607145
0.488537 0.106450 -0.152754
0.287387 -0.409156 0.562344
-0.405553 -0.292450 0.987408
-0.156987 -0.474716 0.419527
-0.450046 0.217851 0.146363
0.042990 0.498148 -0.472077
0.359781 0.347214 -0.905855
0.491298 0.092876 0.118030
-0.166568 -0.471440 0.640588
0.142353 0.479307 0.364218
0.498677 -0.036350 0.245558
0.417267 -0.275478 -0.044528
0.350491 -0.356589 -0.624656
-0.182157 0.465638 -0.233186
-0.442142 -0.233475 0.006025
-0.248109 0.434099 -0.131951
0.062225 -0.496113 0.905623
-0.064263 0.495853 -0.158370
0.188027 -0.463299 -0.317617
0.488706 -0.105671 0.379769
-0.323319 -0.381399 -0.366728
0.275061 0.417542 0.386776
0.279244 -0.414757 -0.364717
-0.158444 0.474232 0.172577
-0.499133 0.029440 -0.515625
-0.416977 -0.275916 0.906561
-0.497441 0.050525 -0.937208
0.343338 -0.363482 -0.979604
0.419381 0.272249 0.520002
0.036071 -0.498697 0.016826
0.499253 0.027330 0.255082
0.406158 -0.291609 0.411069
0.075897 0.494206 -0.369271
0.490448 -0.097265 -0.979835
0.278250 -0.415424 0.627535
0.298543 0.401088 -0.005669
-0.498147 0.043001 -0.379897
0.498610 0.037256 -0.221889
-0.452156 -0.213435 0.774348
-0.477934 0.146899 -0.962693
-0.245661 -0.435489 0.125300
-0.168651 -0.470698 0.949943
0.498169 -0.042750 0.488948
-0.284692 0.411036 0.017530
0.314575 -0.388642 -0.540741
0.300993 0.399253 -0.719800
-0.442434 0.232921 -0.378508
-0.072144 -0.494768 -0.385086
-0.453788 0.209944 0.774330
-0.404863 0.293404 -0.467550
-0.434968 0.246583 -0.635218
-0.457352 -0.202061 -0.537128
0.003170 0.499990 0.317579
0.428284 0.258017 -0.485346
-0.289677 0.407538 0.360614
0.486655 -0.114748 -0.933680
-0.495452 -0.067285 0.138937
0.295242 -0.403525 0.405133
0.383332 0.321024 0.270630
0.054503 -0.497020 -0.881197
-0.498662 -0.036552 0.198447
0.420777 -0.270086 0.638945
0.482622 -0.130674 -0.650467
-0.470378 -0.169541 0.768399
-0.455715 0.205728 -0.297348
0.212603 -0.452548 0.406254
0.098391 -0.490224 0.162231
0.450652 0.216593 -0.843175
-0.422259 -0.267763 0.170992
0.331222 0.374556 -0.936298
0.229045 0.444453 0.504103
0.473873 -0.159513 -0.750407
-0.413480 -0.281130 -0.779441
0.468281 -0.175250 -0.602674
0.090598 0.491723 -0.871370
-0.499199 0.028297 0.778074
-0.320533 0.383743 0.620416
0.314871 -0.388402 -0.587882
-0.137983 0.480584 -0.573987
-0.297703 0.401713 0.302394
0.207235 0.455032 0.868450
-0.454144 0.209174 0.781834
0.499911 -0.009418 0.901495
-0.265621 -0.423610 -0.724197
-0.439602 0.238222 0.704033
-0.180587 0.466249 0.224637
-0.111104 0.487500 -0.329337
-0.179663 -0.466606 0.283761
0.035681 -0.498725 -0.380020
-0.206824 0.455218 -0.261706
0.478060 0.146487 -0.885550
-0.348964 -0.358084 0.846184
0.404773 -0.293528 -0.597570
-0.431429 -0.252724 -0.558698
-0.207747 0.454798 -0.646263
-0.443438 0.231004 0.334757
-0.259018 0.427679 0.730785
-0.499675 0.018038 -0.596964
-0.498577 0.037690 -0.302068
-0.499085 -0.030243 -0.081612
-0.498426 -0.039649 0.146272
-0.353549 0.353557 -0.086750
0.340864 -0.365803 0.768994
0.008223 0.499932 -0.178324
-0.490485 0.097078 0.357398
-0.499324 0.025993 -0.135640
0.045988 -0.497881 -0.121983
0.379188 0.325909 -0.604083
-0.278342 0.415362 0.844243
0.464521 -0.184987 -0.983468
-0.052201 -0.497268 0.541247
0.409488 -0.286914 0.359937
0.354260 0.352846 -0.433781
0.487184 -0.112479 0.692899
-0.473676 -0.160096 0.236371
0.448822 0.220361 -0.673815
-0.112907 -0.487085 0.671685
-0.499834 0.012897 -0.749347
-0.065384 -0.495706 0.934476
0.383091 -0.321312 -0.054841
0.117662 -0.485958 -0.519732
-0.438691 -0.239897 0.693833
-0.484756 -0.122521 0.037851
0.387129 0.316435 -0.753553
-0.203945 -0.456515 0.874304
0.479554 0.141521 0.637431
-0.432520 -0.250852 -0.405777
-0.499116 0.029725 0.390890
0.097825 -0.490337 -0.584147
-0.405173 -0.292975 0.108057
-0.420760 -0.270112 0.455170
0.494367 0.074840 0.710403
0.370428 -0.335832 -0.776605
-0.178204 -0.467165 0.421800
0.499875 0.011179 -0.009645
-0.378208 -0.327045 0.151018
-0.488007 0.108853 -0.466000
-0.412562 0.282476 0.018800
0.377287 0.328108 -0.631337
0.466280 0.180507 -0.312172
-0.491069 -0.094080 -0.048584
-0.278836 0.415031 -0.707941
0.150071 -0.476947 -0.841108
-0.308904 -0.393164 -0.214936
0.367898 0.338602 0.511573
0.499031 -0.031117 -0.594363
-0.214285 0.451754 0.001836
-0.498406 -0.039888 0.853394
-0.484159 0.124859 0.860383
0.398223 0.302355 0.426588
-0.133100 -0.481959 0.595650
0.209246 -0.454110 -0.782949
0.253767 -0.430816 -0.343087
-0.423080 0.266464 -0.911728
-0.418073 0.274253 0.536999
0.440932 -0.235752 0.650032
0.474728 0.156950 -0.248697
-0.489645 0.101234 -0.259319
0.394509 -0.307186 -0.369205
0.462257 -0.190574 0.179068
0.129259 0.483003 0.493608
-0.296442 0.402644 0.885438
-0.021563 -0.499535 0.280087
0.483750 0.126434 -0.560394
-0.338860 0.367660 0.060872
-0.025250 0.499362 0.899570
-0.266235 -0.423224 -0.345837
-0.481293 -0.135489 -0.407742
-0.392723 0.309466 0.044437
0.313653 -0.389387 0.404352
-0.392710 0.309481 0.229686
-0.359497 0.347508 0.311431
-0.331459 0.374346 -0.404954
0.103207 0.489232 0.005446
0.051937 -0.497295 -0.247562
0.129189 -0.483022 -0.631121
0.466954 -0.178756 -0.463623
-0.234200 -0.441758 0.010005
0.109104 0.487951 0.987696
0.123576 0.484488 0.100247
0.481790 0.133711 0.801763
-0.421241 0.269362 0.917364
-0.368432 0.338020 0.340881
0.188728 -0.463014 -0.085986
-0.350773 -0.356312 -0.059333
-0.075203 -0.494312 -0.406242
-0.151699 -0.476432 -0.879685
-0.448025 -0.221976 -0.014760
0.411572 -0.283917 -0.288294
0.326764 0.378451 -0.412223
0.160076 0.473683 0.134998
-0.379828 -0.325163 0.115896
0.248230 0.434030 -0.178418
0.487569 0.110800 0.404176
-0.485477 0.119632 0.430820
-0.196683 0.459691 -0.103678
0.214976 0.451426 -0.831295
0.440397 0.236750 -0.623631
-0.024136 0.499417 0.319143
0.495166 0.069358 0.932013
-0.117196 0.486071 0.588046
0.162502 -0.472856 -0.696657
-0.261959 0.425884 -0.523320
0.439324 -0.238734 0.173817
0.439168 0.239023 -0.059300
0.323921 -0.380887 -0.709100
0.463772 -0.186857 -0.095560
0.494249 0.075616 0.969739
0.327032 0.378219 -0.227472
-0.144739 -0.478592 0.360851
0.304806 -0.396350 -0.633113
-0.497487 0.050070 -0.983142
0.362752 0.344109 -0.588725
0.118170 -0.485835 -0.963984
-0.152535 -0.476165 0.239376
0.300127 -0.399905 0.373345
0.494565 0.073520 0.603284
-0.461530 0.192328 0.234221
-0.466365 0.180287 -0.646048
-0.170261 0.470118 -0.701862
0.413817 0.280634 0.929032
-0.189635 0.462643 0.404655
0.378773 0.326391 -0.283404
-0.499579 -0.020515 0.834154
0.193394 -0.461084 -0.227426
0.371076 0.335116 -0.800130
0.292699 -0.405373 -0.230519
0.082879 0.493083 -0.374971
0.453100 0.211425 0.272788
-0.499995 0.002343 0.081170
-0.082531 -0.493142 0.714122
-0.108434 -0.488100 0.960453
0.105290 0.488788 0.125558
-0.442498 0.232800 0.919035
0.499514 -0.022030 0.321001
-0.012412 -0.499846 -0.175798
-0.308376 -0.393579 -0.595868
0.268257 -0.421946 -0.050830
-0.297187 0.402095 0.757275
-0.193268 0.461137 -0.770869
-0.432609 -0.250698 0.044606
-0.304209 -0.396809 0.156560
0.499988 0.003470 -0.331849
-0.496499 0.059068 0.010401
0.332090 -0.373786 0.401780
-0.472932 -0.162281 -0.476719
-0.005246 0.499972 -0.273581
0.236876 -0.440329 -0.767780
0.012288 0.499849 0.495830
-0.126652 0.483693 -0.991621
0.479624 0.141282 -0.316530
0.496093 0.062386 0.434564
0.290747 -0.406775 -0.282897
0.475096 -0.155833 -0.254008
0.491606 0.091235 -0.120579
0.141765 -0.479482 -0.866526
-0.440740 -0.236110 0.077665
-0.498407 0.039876 -0.753014
0.499342 -0.025637 -0.865343
-0.499487 -0.022647 0.926508
-0.059280 -0.496473 -0.538122
-0.291219 -0.406437 0.896209
-0.323106 0.381579 -0.643342
-0.198186 0.459045 -0.262062
-0.319447 0.384647 0.373991
-0.491119 -0.093822 0.912893
0.457816 -0.201010 -0.092236
0.276877 -0.416340 -0.686182
0.075305 -0.494297 0.723769
0.374981 -0.330741 -0.138927
-0.326880 0.378351 -0.084179
-0.395511 -0.305894 -0.598868
0.420116 0.271113 0.265078
-0.499217 -0.027964 -0.438502
0.390226 0.312608 -0.830179
0.143685 -0.478910 -0.352180
0.205234 -0.455937 -0.465752
-0.281586 -0.413170 0.783094
0.208267 -0.454560 -0.148188
0.462279 -0.190521 -0.827633
0.125558 0.483978 0.222158
0.003932 -0.499985 -0.312522
-0.087644 0.492259 0.073925
0.493279 0.081708 -0.982749
0.355235 -0.351864 -0.164553
-0.408566 0.288226 0.561754
0.384808 0.319254 0.125028
-0.370886 -0.335326 0.730646
-0.333702 -0.372348 0.930031
-0.495985 -0.063235 -0.609655
-0.499625 -0.019362 0.589337
0.061839 -0.496161 0.836780
0.217269 -0.450327 -0.258122
-0.217366 -0.450280 -0.609154
0.023500 -0.499447 -0.718422
0.129245 0.483007 0.259976
-0.414819 -0.279151 -0.109490
0.424656 0.263945 0.747501
-0.136019 -0.481143 -0.422904
0.021592 0.499534 -0.584274
-0.253245 -0.431123 0.081824
0.108764 0.488027 0.158035
0.320260 -0.383971 0.766537
-0.486843 -0.113946 0.965956
0.139685 -0.480092 -0.148960
-0.246259 -0.435151 -0.007402
-0.499991 -0.002919 -0.813099
0.397180 0.303724 -0.970408
-0.434873 0.246750 0.327481
0.489179 0.103459 0.004894
0.452599 -0.212495 0.468116
-0.367447 0.339091 0.614706
-0.485299 -0.120352 0.411248
0.072525 0.494712 0.344092
0.270149 -0.420737 0.448310
-0.076536 0.494107 -0.165195
0.439705 0.238033 0.142427
0.050333 0.497460 -0.060001
-0.498674 -0.036391 -0.636067
0.118778 0.485687 0.100593
0.257129 0.428818 -0.708145
-0.498510 -0.038578 0.100374
-0.245175 -0.435763 -0.736617
0.428135 0.258263 0.259187
-0.092422 -0.491384 0.613486
-0.499922 0.008844 -0.902988
-0.237692 -0.439889 0.758098
0.073451 0.494576 -0.456413
0.485826 -0.118206 -0.938312
-0.490572 0.096640 -0.603262
-0.301353 0.398982 0.976181
-0.471183 -0.167292 0.335835
-0.486021 -0.117405 0.031262
-0.362008 0.344892 0.428640
0.008071 0.499935 0.380884
-0.395567 0.305822 -0.030121
-0.178950 -0.466880 -0.146813
0.490153 -0.098741 -0.965185
-0.366809 -0.339782 -0.542566
0.496599 0.058222 0.813307
-0.148230 -0.477523 -0.122915
0.388491 0.314761 -0.738235
0.396019 -0.305235 0.377125
-0.329852 -0.375763 -0.687556
0.488096 -0.108453 -0.730095
-0.061757 0.496171 -0.609454
0.493492 -0.080408 0.957672
-0.269986 -0.420842 0.269522
0.252096 0.431796 -0.994887
0.073026 0.494639 0.686648
0.483148 0.128718 -0.720600
0.111911 -0.487315 -0.316958
-0.483278 -0.128229 -0.175636
0.211811 -0.452919 -0.895185
0.326117 -0.379008 0.356682
0.480647 0.137764 0.722215
-0.442011 -0.233722 -0.465501
-0.461124 -0.193299 0.806607
-0.103375 0.489197 0.668653
-0.486760 0.114301 0.424639
0.498448 0.039364 0.628172
0.052097 -0.497278 0.491392
0.225857 -0.446082 -0.772309
-0.497721 -0.047680 0.137808
-0.455645 -0.205882 -0.522359
0.062400 0.496091 0.222012
-0.499753 -0.015724 0.416193
0.346722 -0.360255 -0.844130
-0.235521 -0.441056 0.857999
-0.175025 0.468365 -0.465464
0.129091 -0.483048 -0.198048
-0.299768 0.400174 0.011449
0.344029 0.362828 -0.569319
0.108673 -0.488047 -0.816213
-0.123514 0.484504 0.502942
-0.066256 0.495591 0.617041
-0.085372 -0.492658 -0.100031
-0.148717 0.477371 0.747693
0.001766 -0.499997 -0.344080
-0.137035 0.480855 -0.420650
0.482593 0.130783 0.534791
-0.323350 -0.381372 0.356691
-0.482147 0.132418 0.650897
0.496929 0.055331 -0.079441
-0.359662 0.347338 0.797393
0.093080 -0.491260 -0.424186
0.058433 -0.496574 -0.019064
-0.440895 0.235820 0.169723
