11.339171 -20.932055 -193.322500 1.00000000e+00
21.446413 -24.829839 -182.502624 1.00000000e+00
21.020884 -22.424347 -186.229645 1.00000000e+00
12.199859 -22.710386 -190.289972 1.00000000e+00
17.724241 -28.201925 -179.470283 1.00000000e+00
20.671283 -17.150011 -194.105430 1.00000000e+00
20.552979 -21.424488 -187.926543 1.00000000e+00
19.844055 -16.728458 -195.140647 1.00000000e+00
12.771378 -28.732319 -181.210355 1.00000000e+00
26.185499 -25.628003 -178.931933 1.00000000e+00
19.098631 -28.008173 -179.055396 1.00000000e+00
16.724009 -20.159047 -191.717258 1.00000000e+00
22.836098 -26.027158 -180.049593 1.00000000e+00
16.657012 -20.310767 -191.529820 1.00000000e+00
10.075347 -22.524630 -191.639564 1.00000000e+00
17.280046 -21.241118 -189.855627 1.00000000e+00
20.804888 -23.025770 -185.461466 1.00000000e+00
11.244979 -23.006022 -190.343194 1.00000000e+00
19.572529 -22.530707 -186.809633 1.00000000e+00
30.722569 -19.842563 -185.073092 1.00000000e+00
20.216914 -23.256304 -185.423456 1.00000000e+00
14.790386 -24.336698 -186.601207 1.00000000e+00
19.394526 -20.367311 -190.057643 1.00000000e+00
19.865275 -22.546367 -186.638170 1.00000000e+00
10.220053 -22.700544 -191.309347 1.00000000e+00
26.466628 -18.345037 -189.419298 1.00000000e+00
6.696016 -26.526142 -187.514489 1.00000000e+00
13.082042 -19.149810 -195.039094 1.00000000e+00
30.394896 -20.983243 -183.574515 1.00000000e+00
12.951304 -27.039210 -183.590248 1.00000000e+00
12.935601 -30.159681 -179.043641 1.00000000e+00
17.708798 -17.931825 -194.468158 1.00000000e+00
12.684953 -25.810068 -185.519487 1.00000000e+00
8.344449 -21.713980 -193.701431 1.00000000e+00
11.426475 -24.315238 -188.340154 1.00000000e+00
24.907037 -24.987631 -180.515595 1.00000000e+00
29.155230 -20.970704 -184.222109 1.00000000e+00
18.753518 -22.432053 -187.369382 1.00000000e+00
21.595529 -23.607310 -184.211308 1.00000000e+00
24.548820 -22.244212 -184.701678 1.00000000e+00
25.711683 -15.449511 -194.028785 1.00000000e+00
14.540911 -20.310266 -192.604750 1.00000000e+00
27.729159 -21.623250 -183.993583 1.00000000e+00
11.231918 -23.959910 -188.957547 1.00000000e+00
15.599981 -18.330200 -194.957198 1.00000000e+00
18.016267 -27.281336 -180.665715 1.00000000e+00
6.336892 -25.761228 -188.813244 1.00000000e+00
10.565106 -26.560211 -185.500694 1.00000000e+00
24.170813 -18.674823 -190.103375 1.00000000e+00
20.517479 -27.212879 -179.495941 1.00000000e+00
25.169354 -21.831871 -184.988521 1.00000000e+00
17.219353 -21.319594 -189.771895 1.00000000e+00
28.809895 -16.619302 -190.748634 1.00000000e+00
26.910979 -19.692202 -187.227436 1.00000000e+00
19.917586 -22.510657 -186.663736 1.00000000e+00
13.342983 -23.800019 -188.119279 1.00000000e+00
19.364326 -27.208999 -180.086980 1.00000000e+00
25.816016 -22.510199 -183.670181 1.00000000e+00
25.570971 -24.467592 -180.937600 1.00000000e+00
25.301839 -24.577603 -180.913650 1.00000000e+00
19.948229 -20.985714 -188.873958 1.00000000e+00
23.588404 -15.149858 -195.543994 1.00000000e+00
6.405015 -26.339788 -187.934208 1.00000000e+00
22.125743 -16.096668 -194.904541 1.00000000e+00
6.218009 -25.595840 -189.114989 1.00000000e+00
16.725240 -24.930080 -184.752927 1.00000000e+00
27.250827 -21.854191 -183.899322 1.00000000e+00
15.850560 -24.565255 -185.729432 1.00000000e+00
27.388587 -18.943092 -188.078375 1.00000000e+00
16.224108 -19.540572 -192.873737 1.00000000e+00
16.623653 -20.860736 -190.744030 1.00000000e+00
23.925494 -24.823933 -181.252787 1.00000000e+00
10.573692 -19.852654 -195.286553 1.00000000e+00
8.730344 -23.741772 -190.545813 1.00000000e+00
29.346744 -19.208277 -186.697295 1.00000000e+00
13.077623 -29.907953 -179.338964 1.00000000e+00
15.236173 -29.666100 -178.596220 1.00000000e+00
14.512215 -19.421893 -193.915969 1.00000000e+00
17.318457 -18.276451 -194.163298 1.00000000e+00
18.687096 -25.159358 -183.422379 1.00000000e+00
18.825213 -18.961545 -192.398472 1.00000000e+00
26.948083 -21.635354 -184.372414 1.00000000e+00
28.153631 -20.926669 -184.794825 1.00000000e+00
9.856820 -22.028201 -192.475074 1.00000000e+00
16.955752 -22.935821 -187.546692 1.00000000e+00
16.714792 -25.018280 -184.629495 1.00000000e+00
21.828603 -15.674341 -195.671798 1.00000000e+00
16.258130 -23.790574 -186.653247 1.00000000e+00
24.712719 -22.479269 -184.275393 1.00000000e+00
22.165571 -21.383575 -187.167657 1.00000000e+00
26.002888 -15.254134 -194.166128 1.00000000e+00
12.772818 -22.047796 -190.966223 1.00000000e+00
15.458974 -20.958678 -191.192303 1.00000000e+00
18.997098 -17.885836 -193.881302 1.00000000e+00
27.828413 -17.838600 -189.467200 1.00000000e+00
10.055168 -24.107315 -189.339751 1.00000000e+00
18.163193 -28.445203 -178.892373 1.00000000e+00
11.632016 -25.959018 -185.836586 1.00000000e+00
27.796008 -24.477931 -179.793012 1.00000000e+00
22.536784 -21.338397 -187.045158 1.00000000e+00
11.277937 -24.217655 -188.557986 1.00000000e+00
18.313020 -28.766486 -178.347378 1.00000000e+00
16.474109 -20.125559 -191.892994 1.00000000e+00
15.717115 -28.812636 -179.597780 1.00000000e+00
18.279322 -29.078517 -177.909049 1.00000000e+00
9.241815 -23.502249 -190.635777 1.00000000e+00
17.674755 -19.204463 -192.627923 1.00000000e+00
27.031489 -24.881066 -179.592698 1.00000000e+00
22.524313 -23.005094 -184.618811 1.00000000e+00
19.225618 -24.830678 -183.628743 1.00000000e+00
25.573041 -18.438725 -189.736166 1.00000000e+00
24.478139 -15.237016 -194.965124 1.00000000e+00
10.941535 -27.968831 -183.253612 1.00000000e+00
20.769465 -23.876292 -184.238041 1.00000000e+00
13.224594 -24.729723 -186.822400 1.00000000e+00
25.401427 -22.361231 -184.098070 1.00000000e+00
15.495614 -27.656178 -181.398164 1.00000000e+00
25.508719 -15.774077 -193.658086 1.00000000e+00
11.935446 -20.375038 -193.832823 1.00000000e+00
19.065032 -20.652669 -189.808402 1.00000000e+00
25.291524 -22.540726 -183.891872 1.00000000e+00
7.536599 -27.308314 -185.946139 1.00000000e+00
13.541821 -24.555036 -186.916335 1.00000000e+00
13.215354 -27.397276 -182.933582 1.00000000e+00
12.147955 -27.537669 -183.270510 1.00000000e+00
20.289951 -17.118515 -194.344976 1.00000000e+00
29.361744 -22.556839 -181.802185 1.00000000e+00
24.499328 -27.058016 -177.700667 1.00000000e+00
11.536060 -27.484346 -183.658957 1.00000000e+00
21.162079 -25.718229 -181.350284 1.00000000e+00
24.001472 -26.655953 -178.540237 1.00000000e+00
13.536066 -26.099407 -184.665122 1.00000000e+00
19.041845 -16.018914 -196.583511 1.00000000e+00
24.955128 -16.577322 -192.766705 1.00000000e+00
25.095098 -17.364093 -191.547295 1.00000000e+00
23.362443 -16.272800 -194.019675 1.00000000e+00
29.295538 -21.612394 -183.214287 1.00000000e+00
10.163327 -27.902616 -183.745300 1.00000000e+00
23.229692 -17.853403 -191.780046 1.00000000e+00
9.712168 -22.478853 -191.890740 1.00000000e+00
16.963575 -24.623220 -185.079828 1.00000000e+00
27.552677 -20.015764 -186.429426 1.00000000e+00
13.578244 -26.185483 -184.518078 1.00000000e+00
25.335915 -15.411326 -194.275270 1.00000000e+00
19.377288 -26.004579 -181.838348 1.00000000e+00
27.535448 -17.055680 -190.758653 1.00000000e+00
10.308130 -27.329394 -184.508457 1.00000000e+00
15.405009 -21.392961 -190.585826 1.00000000e+00
19.926538 -18.319791 -192.776098 1.00000000e+00
14.730994 -18.895072 -194.573847 1.00000000e+00
13.808235 -20.674925 -192.444429 1.00000000e+00
28.802751 -19.183092 -187.010202 1.00000000e+00
19.589037 -22.185196 -187.305555 1.00000000e+00
19.796482 -21.382360 -188.372052 1.00000000e+00
17.335965 -26.526395 -182.112953 1.00000000e+00
7.730250 -26.232418 -187.418193 1.00000000e+00
12.244693 -23.330503 -189.362101 1.00000000e+00
26.323996 -24.897260 -179.928206 1.00000000e+00
21.133250 -20.401239 -189.125493 1.00000000e+00
18.239397 -21.122989 -189.541050 1.00000000e+00
27.570505 -23.277452 -181.659681 1.00000000e+00
12.062387 -30.213814 -179.407900 1.00000000e+00
16.078494 -29.261394 -178.759333 1.00000000e+00
8.844268 -28.462550 -183.597626 1.00000000e+00
19.378534 -15.976315 -196.474773 1.00000000e+00
8.680874 -22.847033 -191.876869 1.00000000e+00
22.738686 -15.673410 -195.211171 1.00000000e+00
20.199956 -27.466710 -179.286639 1.00000000e+00
14.078461 -26.174646 -184.279969 1.00000000e+00
23.289063 -17.630890 -192.074684 1.00000000e+00
22.122691 -23.190722 -184.551748 1.00000000e+00
28.087323 -15.999446 -192.020162 1.00000000e+00
19.968448 -18.243424 -192.866287 1.00000000e+00
26.329155 -18.125701 -189.809223 1.00000000e+00
10.394285 -23.193959 -190.500723 1.00000000e+00
11.565645 -18.862280 -196.228538 1.00000000e+00
13.565013 -23.779695 -188.036234 1.00000000e+00
10.342021 -20.845809 -193.954567 1.00000000e+00
27.101222 -24.937443 -179.475013 1.00000000e+00
16.822486 -20.376306 -191.350161 1.00000000e+00
22.041875 -22.183882 -186.062336 1.00000000e+00
9.559966 -22.951995 -191.277414 1.00000000e+00
28.893030 -18.981790 -187.258190 1.00000000e+00
14.663182 -30.286611 -177.981403 1.00000000e+00
14.229685 -21.170359 -191.507363 1.00000000e+00
23.143747 -17.757733 -191.963312 1.00000000e+00
11.578376 -27.628939 -183.426431 1.00000000e+00
13.991705 -26.269993 -184.184841 1.00000000e+00
11.442929 -20.266709 -194.240955 1.00000000e+00
14.830530 -24.229966 -186.736613 1.00000000e+00
12.537562 -25.108175 -186.618777 1.00000000e+00
13.937386 -22.638348 -189.513094 1.00000000e+00
16.871964 -21.636982 -189.484986 1.00000000e+00
17.719118 -27.533860 -180.447978 1.00000000e+00
11.087304 -25.100646 -187.365962 1.00000000e+00
9.667480 -23.014707 -191.131304 1.00000000e+00
26.170179 -20.918662 -185.813373 1.00000000e+00
18.542651 -15.460404 -197.652107 1.00000000e+00
12.170180 -25.402628 -186.375494 1.00000000e+00
21.156597 -22.196979 -186.492615 1.00000000e+00
18.802668 -17.895006 -193.966617 1.00000000e+00
15.990974 -23.501650 -187.210571 1.00000000e+00
15.290851 -17.547584 -196.256412 1.00000000e+00
17.107602 -25.889193 -183.158925 1.00000000e+00
24.193188 -20.029791 -188.114333 1.00000000e+00
19.340969 -29.148042 -177.268647 1.00000000e+00
19.546170 -21.744122 -187.971097 1.00000000e+00
10.027719 -25.537702 -187.265921 1.00000000e+00
17.375539 -28.989721 -178.497442 1.00000000e+00
12.235521 -21.911414 -191.438031 1.00000000e+00
27.602147 -20.214228 -186.114640 1.00000000e+00
18.961028 -24.680135 -183.982787 1.00000000e+00
11.220493 -18.533915 -196.883023 1.00000000e+00
8.789549 -26.404599 -186.629148 1.00000000e+00
16.633204 -27.659244 -180.816213 1.00000000e+00
27.429741 -17.432417 -190.262435 1.00000000e+00
13.784511 -27.125587 -183.041211 1.00000000e+00
9.388934 -27.611672 -184.563062 1.00000000e+00
28.827323 -19.910925 -185.935398 1.00000000e+00
15.258980 -22.327545 -189.295854 1.00000000e+00
24.142454 -18.912242 -189.771239 1.00000000e+00
23.433752 -21.359450 -186.559101 1.00000000e+00
22.291436 -15.535490 -195.639514 1.00000000e+00
20.901224 -20.486176 -189.119304 1.00000000e+00
17.304510 -19.324531 -192.640621 1.00000000e+00
26.310744 -23.161799 -182.467978 1.00000000e+00
18.723111 -27.396038 -180.139482 1.00000000e+00
15.283359 -22.597450 -188.889532 1.00000000e+00
9.296197 -20.970484 -194.303486 1.00000000e+00
29.629024 -20.850289 -184.157353 1.00000000e+00
9.867162 -26.191442 -186.393239 1.00000000e+00
14.262271 -28.000799 -181.521245 1.00000000e+00
18.479369 -27.934409 -179.477417 1.00000000e+00
19.982930 -22.978629 -185.947522 1.00000000e+00
18.126282 -25.722750 -182.884749 1.00000000e+00
21.102692 -19.752671 -190.087642 1.00000000e+00
15.783873 -16.603961 -197.383433 1.00000000e+00
30.429801 -20.162902 -184.754150 1.00000000e+00
27.212023 -23.602066 -181.367857 1.00000000e+00
19.998781 -24.129807 -184.259239 1.00000000e+00
26.680900 -20.129098 -186.706547 1.00000000e+00
18.299485 -27.269880 -180.538665 1.00000000e+00
27.036188 -20.051466 -186.639502 1.00000000e+00
26.233334 -15.552761 -193.613278 1.00000000e+00
22.825696 -25.519861 -180.795316 1.00000000e+00
14.818640 -24.864076 -185.817114 1.00000000e+00
21.134754 -22.649233 -185.843602 1.00000000e+00
18.034113 -28.501167 -178.876214 1.00000000e+00
21.388416 -16.632782 -194.496328 1.00000000e+00
16.544777 -18.199557 -194.668275 1.00000000e+00
25.242004 -21.684610 -185.166579 1.00000000e+00
23.281538 -20.345970 -188.115626 1.00000000e+00
12.002667 -25.215452 -186.733726 1.00000000e+00
28.632617 -16.911365 -190.412335 1.00000000e+00
15.201518 -19.522656 -193.418985 1.00000000e+00
16.585412 -25.205231 -184.422303 1.00000000e+00
15.493812 -21.862821 -189.854949 1.00000000e+00
21.911233 -21.562779 -187.035204 1.00000000e+00
11.914008 -22.986758 -190.031691 1.00000000e+00
19.872446 -17.569302 -193.898956 1.00000000e+00
26.284944 -15.628110 -193.477101 1.00000000e+00
10.865360 -24.490700 -188.368893 1.00000000e+00
16.387573 -26.747790 -182.271243 1.00000000e+00
11.223453 -24.373689 -188.357901 1.00000000e+00
21.369777 -17.621731 -193.062340 1.00000000e+00
21.382265 -20.425116 -188.964235 1.00000000e+00
12.713096 -22.907513 -189.741714 1.00000000e+00
10.913046 -28.578343 -182.378443 1.00000000e+00
29.949893 -17.977503 -188.187531 1.00000000e+00
17.250895 -22.158203 -188.531865 1.00000000e+00
24.360331 -23.942507 -182.318561 1.00000000e+00
14.873901 -28.888300 -179.915382 1.00000000e+00
28.734708 -16.468895 -191.006331 1.00000000e+00
23.687298 -19.142035 -189.666890 1.00000000e+00
17.359396 -18.429797 -193.918695 1.00000000e+00
10.345668 -20.741501 -194.104962 1.00000000e+00
17.066286 -22.948545 -187.472011 1.00000000e+00
15.005752 -26.005019 -184.056831 1.00000000e+00
14.098675 -24.644580 -186.502962 1.00000000e+00
18.145059 -28.306348 -179.104248 1.00000000e+00
18.622661 -18.443978 -193.256725 1.00000000e+00
22.230408 -16.444852 -194.343207 1.00000000e+00
13.265401 -22.589497 -189.925517 1.00000000e+00
17.758534 -22.909299 -187.177887 1.00000000e+00
15.821276 -17.592616 -195.921426 1.00000000e+00
23.297620 -21.534542 -186.372646 1.00000000e+00
27.403237 -18.515170 -188.695525 1.00000000e+00
27.815063 -16.683867 -191.159403 1.00000000e+00
17.993459 -23.423570 -186.308012 1.00000000e+00
27.060031 -16.702910 -191.514885 1.00000000e+00
24.128853 -22.012722 -185.252743 1.00000000e+00
10.191717 -24.637019 -188.497291 1.00000000e+00
18.628360 -21.636556 -188.594008 1.00000000e+00
8.576092 -26.431095 -186.698832 1.00000000e+00
12.735543 -21.986048 -191.075271 1.00000000e+00
27.463890 -21.235554 -184.694116 1.00000000e+00
25.724070 -16.367664 -192.682379 1.00000000e+00
15.506692 -21.679549 -190.115910 1.00000000e+00
28.618707 -21.341613 -183.953094 1.00000000e+00
15.818480 -21.474830 -190.256442 1.00000000e+00
10.111438 -24.491028 -188.751127 1.00000000e+00
16.035306 -19.219166 -193.438697 1.00000000e+00
27.174075 -17.373291 -190.478519 1.00000000e+00
22.200703 -20.931477 -187.809696 1.00000000e+00
16.154517 -28.097472 -180.419580 1.00000000e+00
15.720786 -23.555077 -187.269745 1.00000000e+00
18.473299 -18.123776 -193.799907 1.00000000e+00
14.397020 -20.061750 -193.040522 1.00000000e+00
15.185190 -20.932664 -191.369254 1.00000000e+00
17.574979 -25.028599 -184.177776 1.00000000e+00
18.432032 -27.818135 -179.671158 1.00000000e+00
27.734590 -24.411306 -179.921434 1.00000000e+00
11.616568 -21.240454 -192.731552 1.00000000e+00
12.103718 -27.613130 -183.182826 1.00000000e+00
9.036893 -29.405661 -182.123298 1.00000000e+00
21.010872 -17.812934 -192.965456 1.00000000e+00
18.247499 -20.670064 -190.198016 1.00000000e+00
18.447018 -19.256303 -192.160233 1.00000000e+00
27.611937 -15.550798 -192.916321 1.00000000e+00
13.803590 -20.983320 -191.996660 1.00000000e+00
16.931733 -25.142765 -184.337673 1.00000000e+00
9.950515 -26.010339 -186.615261 1.00000000e+00
19.884307 -17.292444 -194.297031 1.00000000e+00
19.965919 -27.041964 -180.025394 1.00000000e+00
16.874570 -16.945954 -196.330596 1.00000000e+00
16.553765 -26.526507 -182.509859 1.00000000e+00
19.197360 -20.234529 -190.351537 1.00000000e+00
6.716775 -27.434435 -186.178224 1.00000000e+00
15.344129 -26.431432 -183.262677 1.00000000e+00
20.994194 -18.359349 -192.176384 1.00000000e+00
19.158256 -20.816847 -189.521447 1.00000000e+00
12.380280 -19.819241 -194.418243 1.00000000e+00
20.823453 -24.015131 -184.007990 1.00000000e+00
8.248391 -22.501591 -192.600611 1.00000000e+00
15.184765 -18.887599 -194.354407 1.00000000e+00
20.079887 -20.057294 -190.162228 1.00000000e+00
26.428544 -25.400516 -179.140592 1.00000000e+00
21.068889 -28.488768 -177.353765 1.00000000e+00
23.286296 -18.607573 -190.650541 1.00000000e+00
29.444153 -22.399219 -181.990410 1.00000000e+00
19.377468 -15.545578 -197.104009 1.00000000e+00
15.433882 -22.823428 -188.483288 1.00000000e+00
15.643576 -23.799400 -186.952331 1.00000000e+00
13.260762 -23.897160 -188.019232 1.00000000e+00
26.828446 -19.111077 -188.117531 1.00000000e+00
12.619309 -25.093026 -186.599390 1.00000000e+00
14.210974 -27.160319 -182.774033 1.00000000e+00
1.394498 -4.674788 -181.910530 2.00000000e+00
10.658312 -29.244754 -179.571134 2.00000000e+00
3.700248 -12.765366 -169.823994 2.00000000e+00
-1.865545 -0.091658 -163.352543 2.00000000e+00
26.014299 -12.494998 -191.647150 2.00000000e+00
18.586560 2.935130 -160.286665 2.00000000e+00
7.716604 -24.670792 -178.172378 2.00000000e+00
2.521298 -5.144730 -162.810417 2.00000000e+00
13.382633 -8.791652 -162.534917 2.00000000e+00
23.061220 -10.488837 -192.548419 2.00000000e+00
26.833293 -8.034135 -182.593203 2.00000000e+00
7.498693 3.080552 -184.398042 2.00000000e+00
13.671797 10.233397 -179.587509 2.00000000e+00
-0.264366 6.492645 -177.352070 2.00000000e+00
3.775347 -16.438037 -186.212244 2.00000000e+00
23.935134 -2.720883 -182.661338 2.00000000e+00
16.120053 14.229546 -174.083701 2.00000000e+00
18.456675 -1.006554 -186.876482 2.00000000e+00
20.714505 5.025958 -178.408821 2.00000000e+00
7.373071 -3.431556 -187.684818 2.00000000e+00
23.756472 -9.905993 -191.401146 2.00000000e+00
15.166259 -14.619359 -166.484519 2.00000000e+00
15.870046 -22.033163 -171.397914 2.00000000e+00
13.349000 -16.290086 -197.293839 2.00000000e+00
21.842723 -0.045178 -182.896803 2.00000000e+00
8.887571 -6.189312 -160.626559 2.00000000e+00
2.022296 -2.332927 -182.447587 2.00000000e+00
24.349603 -9.564799 -190.437943 2.00000000e+00
13.061564 -29.127516 -177.583824 2.00000000e+00
7.084139 -3.425062 -158.871369 2.00000000e+00
0.229590 -8.142424 -178.044974 2.00000000e+00
21.200750 -14.818297 -169.145531 2.00000000e+00
3.423262 -17.681798 -178.366090 2.00000000e+00
20.350734 -19.617786 -170.981520 2.00000000e+00
9.167345 -13.544989 -166.209686 2.00000000e+00
25.740532 -5.005751 -180.775366 2.00000000e+00
17.960699 -17.034922 -168.624827 2.00000000e+00
5.520987 -9.964069 -165.006422 2.00000000e+00
6.638622 -6.193006 -188.406530 2.00000000e+00
4.111172 -1.175816 -184.319052 2.00000000e+00
24.430666 -14.566980 -171.990891 2.00000000e+00
15.701035 1.586106 -158.053078 2.00000000e+00
20.179148 -19.130171 -170.646525 2.00000000e+00
14.142500 -25.561883 -174.191037 2.00000000e+00
1.164738 13.412119 -175.927556 2.00000000e+00
21.320983 -7.314942 -166.372430 2.00000000e+00
-1.180219 5.453862 -176.443578 2.00000000e+00
6.981833 -21.427568 -192.967574 2.00000000e+00
4.618431 -5.151790 -186.220444 2.00000000e+00
12.962607 -21.945264 -171.692272 2.00000000e+00
6.897745 -18.055092 -171.769348 2.00000000e+00
28.583287 -20.018391 -178.932821 2.00000000e+00
-3.386248 8.325059 -172.546301 2.00000000e+00
12.068305 -9.486372 -193.082918 2.00000000e+00
22.947178 3.619970 -172.166255 2.00000000e+00
18.798019 -6.809608 -191.556964 2.00000000e+00
9.977271 -3.882518 -189.190405 2.00000000e+00
23.675049 -10.258854 -191.828226 2.00000000e+00
9.682944 -23.074343 -174.282903 2.00000000e+00
19.354167 -11.814642 -195.288580 2.00000000e+00
25.074031 -4.348699 -172.924654 2.00000000e+00
13.819109 -0.014122 -187.383217 2.00000000e+00
4.478985 -20.468531 -186.293369 2.00000000e+00
2.687966 -11.136433 -184.495579 2.00000000e+00
-1.181268 -4.936287 -171.028552 2.00000000e+00
25.121246 -2.717509 -175.569546 2.00000000e+00
16.739137 -23.829627 -172.633427 2.00000000e+00
4.727327 -20.817091 -179.473976 2.00000000e+00
14.418377 -25.107950 -173.771742 2.00000000e+00
22.510468 -10.039812 -168.499611 2.00000000e+00
30.323917 -17.675731 -187.851734 2.00000000e+00
13.769444 -0.310784 -187.594430 2.00000000e+00
10.932376 -6.627753 -191.071370 2.00000000e+00
11.839343 -26.941565 -176.361907 2.00000000e+00
15.949417 -21.849140 -171.273969 2.00000000e+00
-0.248519 0.001137 -160.391135 2.00000000e+00
17.748670 1.997839 -184.631357 2.00000000e+00
26.688063 -11.097866 -188.749538 2.00000000e+00
23.495022 -3.706819 -184.828954 2.00000000e+00
10.530302 -13.756246 -165.980933 2.00000000e+00
-0.662603 0.824405 -177.891398 2.00000000e+00
29.878514 -17.589202 -182.810127 2.00000000e+00
16.948545 -19.532917 -169.863434 2.00000000e+00
27.370369 -11.041995 -177.394156 2.00000000e+00
12.679386 10.230164 -179.941840 2.00000000e+00
22.371030 -17.725655 -171.250551 2.00000000e+00
5.181136 -14.901521 -189.300841 2.00000000e+00
8.553916 -29.074596 -182.441217 2.00000000e+00
26.166679 -22.801891 -176.434661 2.00000000e+00
27.677980 -12.243765 -188.079061 2.00000000e+00
13.872667 -24.743626 -173.626418 2.00000000e+00
20.768657 3.642565 -180.062051 2.00000000e+00
-0.317947 -7.211116 -171.873482 2.00000000e+00
6.491698 -5.064190 -187.822115 2.00000000e+00
10.994691 3.968698 -184.648035 2.00000000e+00
-2.621876 2.498579 -173.773358 2.00000000e+00
20.074128 11.297500 -164.318243 2.00000000e+00
19.057808 -17.500217 -169.289239 2.00000000e+00
27.366613 -11.163794 -177.312451 2.00000000e+00
2.737560 -2.860347 -183.468258 2.00000000e+00
-0.994401 -5.353721 -174.432877 2.00000000e+00
18.191621 -14.397196 -197.256908 2.00000000e+00
25.213974 -14.919597 -173.040247 2.00000000e+00
9.434261 -4.562138 -189.333418 2.00000000e+00
5.705169 -1.269960 -157.544902 2.00000000e+00
6.683706 -25.010965 -180.726981 2.00000000e+00
14.916490 2.989700 -156.881464 2.00000000e+00
16.887402 11.306273 -176.361361 2.00000000e+00
18.588568 10.210716 -175.399624 2.00000000e+00
9.810221 -0.576152 -156.793466 2.00000000e+00
19.216350 -27.349992 -175.149432 2.00000000e+00
-2.317563 1.231461 -162.425892 2.00000000e+00
14.404386 -12.972423 -195.831648 2.00000000e+00
19.667510 0.167869 -185.005869 2.00000000e+00
18.014069 -16.083794 -168.106123 2.00000000e+00
2.178401 11.335841 -177.531715 2.00000000e+00
24.795518 -25.272131 -176.279053 2.00000000e+00
1.377831 -12.258478 -178.851550 2.00000000e+00
25.730664 -22.253788 -175.824554 2.00000000e+00
4.207100 7.895368 -180.361790 2.00000000e+00
21.895502 -5.236497 -188.416158 2.00000000e+00
23.986756 -9.339948 -190.592281 2.00000000e+00
8.150958 -24.927815 -177.835394 2.00000000e+00
25.790094 -9.886440 -188.819619 2.00000000e+00
5.192066 -18.994546 -189.356889 2.00000000e+00
1.159098 10.977165 -177.014425 2.00000000e+00
-0.155110 -1.526993 -162.044555 2.00000000e+00
-2.595146 -0.887839 -168.331585 2.00000000e+00
13.297301 -17.599087 -168.397989 2.00000000e+00
0.173255 -6.212873 -167.775647 2.00000000e+00
14.890249 -6.303793 -191.703088 2.00000000e+00
3.544856 -3.794208 -184.659006 2.00000000e+00
6.958203 -15.373882 -191.884003 2.00000000e+00
28.895727 -16.066677 -180.085974 2.00000000e+00
24.961904 -6.757673 -171.841803 2.00000000e+00
17.261227 -22.205050 -171.603123 2.00000000e+00
5.220118 -19.463676 -175.838247 2.00000000e+00
-3.921226 3.049318 -168.633043 2.00000000e+00
11.324925 -2.108536 -188.559453 2.00000000e+00
21.726471 -1.382460 -184.573348 2.00000000e+00
20.845933 4.999439 -163.724351 2.00000000e+00
5.858305 -23.221721 -189.971900 2.00000000e+00
13.731465 0.269473 -187.188265 2.00000000e+00
21.554236 6.989407 -172.644687 2.00000000e+00
9.397930 -29.281852 -181.210862 2.00000000e+00
8.678031 -15.931313 -168.430138 2.00000000e+00
20.298493 10.986260 -165.462111 2.00000000e+00
23.946051 -10.727229 -192.052194 2.00000000e+00
5.082590 -3.607937 -186.094803 2.00000000e+00
22.871046 -0.218622 -181.364924 2.00000000e+00
13.923629 -5.814382 -191.309651 2.00000000e+00
25.455661 -9.671215 -172.724320 2.00000000e+00
3.741885 -2.848156 -159.682564 2.00000000e+00
21.329737 5.680534 -165.178542 2.00000000e+00
9.015658 -10.023353 -163.473640 2.00000000e+00
-1.101965 11.366851 -174.927726 2.00000000e+00
-0.759133 7.837158 -176.399892 2.00000000e+00
3.079706 -11.167540 -168.828247 2.00000000e+00
7.520682 -22.856449 -176.291376 2.00000000e+00
8.212225 8.886937 -181.158571 2.00000000e+00
2.813302 -2.789370 -160.244303 2.00000000e+00
2.359339 -6.662227 -183.726800 2.00000000e+00
3.037654 -14.197127 -184.799315 2.00000000e+00
25.053748 -4.389867 -172.825451 2.00000000e+00
-2.581592 0.780868 -173.194055 2.00000000e+00
8.502237 -24.016742 -176.361161 2.00000000e+00
21.333134 7.063367 -166.050653 2.00000000e+00
5.724167 -8.053747 -188.304649 2.00000000e+00
4.254605 -20.704365 -183.472354 2.00000000e+00
20.510715 2.971674 -163.047368 2.00000000e+00
-3.376119 4.242719 -172.164090 2.00000000e+00
12.064603 -10.910505 -193.864272 2.00000000e+00
8.060098 -17.347037 -193.723059 2.00000000e+00
25.557294 -6.764412 -184.913640 2.00000000e+00
25.257920 -13.959497 -172.886665 2.00000000e+00
11.277767 4.754081 -184.133803 2.00000000e+00
-3.001478 8.207822 -173.227569 2.00000000e+00
22.770918 4.051733 -171.001557 2.00000000e+00
14.088087 13.731600 -176.334988 2.00000000e+00
26.684860 -22.108690 -176.743085 2.00000000e+00
11.074647 15.956430 -175.895119 2.00000000e+00
5.100022 -18.614857 -174.908282 2.00000000e+00
7.489939 -24.123020 -177.854404 2.00000000e+00
1.021237 11.798822 -176.557899 2.00000000e+00
18.499140 -28.931238 -176.128268 2.00000000e+00
12.760306 -12.193443 -164.663378 2.00000000e+00
3.765499 1.659245 -182.914163 2.00000000e+00
21.256277 8.464298 -169.398665 2.00000000e+00
11.155012 -22.705541 -173.008084 2.00000000e+00
13.893994 -10.676580 -194.334081 2.00000000e+00
20.102698 -8.474146 -165.646156 2.00000000e+00
9.714636 12.821010 -178.562440 2.00000000e+00
19.236065 12.234627 -171.091706 2.00000000e+00
-2.516498 -0.733772 -171.964225 2.00000000e+00
6.166993 -25.686743 -184.101805 2.00000000e+00
21.668359 -11.291526 -194.107244 2.00000000e+00
-0.987244 -5.396565 -170.968497 2.00000000e+00
23.492700 -1.117645 -181.294321 2.00000000e+00
3.523877 -9.378677 -185.934595 2.00000000e+00
20.487753 -7.911740 -165.763674 2.00000000e+00
14.758444 3.922810 -184.296587 2.00000000e+00
-2.329929 7.590711 -174.382100 2.00000000e+00
24.863785 -7.757031 -187.668138 2.00000000e+00
18.347976 14.375587 -170.048116 2.00000000e+00
13.070570 2.242677 -185.834817 2.00000000e+00
14.590476 9.903203 -179.439606 2.00000000e+00
22.456029 4.511750 -174.091407 2.00000000e+00
19.874439 9.724592 -162.256451 2.00000000e+00
-4.387160 4.934326 -168.716345 2.00000000e+00
9.360248 12.736443 -178.648850 2.00000000e+00
2.582868 -10.892248 -169.305280 2.00000000e+00
-3.136389 2.377945 -162.833847 2.00000000e+00
4.424580 -8.367629 -186.965444 2.00000000e+00
24.130979 -1.404590 -179.932717 2.00000000e+00
12.853322 -13.481402 -195.581856 2.00000000e+00
-2.823860 -0.062179 -170.911160 2.00000000e+00
20.702917 5.466265 -163.449205 2.00000000e+00
11.874033 -26.930552 -176.330090 2.00000000e+00
25.257542 -12.760125 -172.662371 2.00000000e+00
23.786719 -3.940704 -184.634183 2.00000000e+00
23.543592 -13.707354 -170.751396 2.00000000e+00
19.996812 4.332668 -162.044928 2.00000000e+00
22.522219 4.277757 -174.349917 2.00000000e+00
1.806065 -7.284123 -166.050329 2.00000000e+00
20.913508 5.139549 -177.883311 2.00000000e+00
2.429160 -1.311657 -182.675333 2.00000000e+00
16.564400 -0.239264 -187.038857 2.00000000e+00
28.083570 -11.168868 -181.884371 2.00000000e+00
19.527139 -21.073488 -171.446253 2.00000000e+00
12.715683 -13.179670 -165.331729 2.00000000e+00
2.448851 -3.909635 -183.368327 2.00000000e+00
12.486427 14.184285 -176.800382 2.00000000e+00
13.080136 12.839095 -177.665962 2.00000000e+00
4.902444 -21.371559 -187.457451 2.00000000e+00
2.372412 3.732768 -180.928181 2.00000000e+00
20.674249 -9.337669 -192.912847 2.00000000e+00
5.115958 -9.243353 -164.623371 2.00000000e+00
16.715358 13.207149 -174.501343 2.00000000e+00
29.491571 -17.424267 -181.420468 2.00000000e+00
25.943236 -23.493508 -176.472047 2.00000000e+00
12.286639 -20.630642 -170.851947 2.00000000e+00
5.789308 5.255467 -182.501498 2.00000000e+00
3.528626 -11.301683 -186.152957 2.00000000e+00
19.157401 -26.724696 -174.743600 2.00000000e+00
21.792116 -3.405145 -165.943557 2.00000000e+00
30.064351 -19.215238 -182.479969 2.00000000e+00
24.200173 -3.049378 -170.661159 2.00000000e+00
5.682131 -23.576288 -189.027321 2.00000000e+00
16.141913 9.854379 -178.492719 2.00000000e+00
19.938222 -12.597688 -167.292597 2.00000000e+00
22.628456 -2.482206 -167.176902 2.00000000e+00
25.517666 -4.620554 -181.007228 2.00000000e+00
17.027480 -10.127905 -164.469327 2.00000000e+00
22.428634 3.873935 -175.803790 2.00000000e+00
21.381657 7.334678 -166.598212 2.00000000e+00
5.996305 -23.486054 -190.311740 2.00000000e+00
2.390982 -10.062044 -183.926064 2.00000000e+00
18.061433 -21.437612 -171.254881 2.00000000e+00
7.418130 -6.865167 -189.277559 2.00000000e+00
25.568908 -6.068791 -183.733180 2.00000000e+00
23.074916 3.224678 -173.107375 2.00000000e+00
12.492864 1.559124 -156.257433 2.00000000e+00
26.979856 -25.472673 -178.152812 2.00000000e+00
25.775418 -5.156660 -180.984808 2.00000000e+00
26.747313 -7.364299 -180.610499 2.00000000e+00
-2.803710 1.967271 -173.047932 2.00000000e+00
18.968117 -14.126429 -167.473418 2.00000000e+00
-2.541944 9.048604 -173.821391 2.00000000e+00
5.645854 -19.262662 -174.776527 2.00000000e+00
20.317792 0.372058 -163.129026 2.00000000e+00
5.053079 7.780772 -180.836987 2.00000000e+00
0.757634 -2.179637 -180.586460 2.00000000e+00
5.990987 13.869349 -177.658585 2.00000000e+00
-0.339358 -7.488719 -174.524500 2.00000000e+00
3.760690 -12.870930 -169.860632 2.00000000e+00
13.162299 -3.240939 -189.560018 2.00000000e+00
5.995717 -24.351111 -181.737385 2.00000000e+00
14.601361 -8.142971 -192.890211 2.00000000e+00
19.355763 12.642615 -169.890932 2.00000000e+00
21.200800 -10.404366 -167.333958 2.00000000e+00
10.677687 2.014639 -185.878539 2.00000000e+00
25.109904 -3.929435 -181.282938 2.00000000e+00
15.440553 0.562272 -186.725184 2.00000000e+00
-0.632237 4.050816 -177.489254 2.00000000e+00
6.833077 -8.327628 -189.421788 2.00000000e+00
4.249299 -17.394299 -174.973049 2.00000000e+00
22.169543 -12.990530 -169.167341 2.00000000e+00
7.065326 -12.846152 -191.258344 2.00000000e+00
13.873536 -17.893548 -168.570511 2.00000000e+00
28.626501 -18.052291 -178.993215 2.00000000e+00
23.753300 -2.154433 -169.669603 2.00000000e+00
4.559289 -12.178245 -187.947320 2.00000000e+00
7.037799 8.247563 -181.296936 2.00000000e+00
20.218986 -20.794708 -171.552698 2.00000000e+00
9.983355 -28.791954 -179.845261 2.00000000e+00
-0.736634 -3.208516 -165.378230 2.00000000e+00
1.136091 -9.662565 -180.659527 2.00000000e+00
14.582819 9.816812 -179.518285 2.00000000e+00
20.986509 9.257298 -168.487813 2.00000000e+00
2.890962 -16.342081 -182.504274 2.00000000e+00
29.541652 -15.709884 -187.566440 2.00000000e+00
9.883715 4.305935 -184.309147 2.00000000e+00
-0.480494 4.510445 -177.598290 2.00000000e+00
29.466418 -21.539249 -180.627083 2.00000000e+00
0.036271 -8.494356 -173.751164 2.00000000e+00
0.686924 -0.018015 -180.141529 2.00000000e+00
27.285579 -10.042579 -177.784998 2.00000000e+00
-2.498724 -0.999968 -171.544195 2.00000000e+00
17.785700 3.383473 -159.241509 2.00000000e+00
12.559251 -0.995901 -157.695669 2.00000000e+00
-3.786747 3.259296 -169.963844 2.00000000e+00
12.802110 -17.266086 -168.208039 2.00000000e+00
7.498543 -24.996098 -178.949562 2.00000000e+00
20.724870 -0.604045 -184.833353 2.00000000e+00
5.942621 -10.044276 -164.797777 2.00000000e+00
3.209387 -12.299883 -185.544846 2.00000000e+00
1.372005 -12.402877 -177.973868 2.00000000e+00
5.581653 -22.403740 -189.438830 2.00000000e+00
11.707693 -29.964477 -179.306453 2.00000000e+00
-3.530079 2.927430 -170.894259 2.00000000e+00
2.164253 2.552334 -181.164149 2.00000000e+00
14.128487 -16.660860 -197.830112 2.00000000e+00
17.982337 -10.723959 -194.686239 2.00000000e+00
25.794523 -5.178733 -175.541502 2.00000000e+00
4.423645 14.621241 -176.815261 2.00000000e+00
4.198342 -11.079013 -167.277495 2.00000000e+00
6.068913 -7.927347 -188.591124 2.00000000e+00
15.393196 -0.064401 -187.212964 2.00000000e+00
-0.437509 0.603918 -178.300587 2.00000000e+00
13.509818 -9.477951 -193.520986 2.00000000e+00
20.273035 -13.297348 -196.217939 2.00000000e+00
3.609717 -17.891758 -177.911766 2.00000000e+00
11.344150 2.127071 -155.512278 2.00000000e+00
18.723002 -1.306622 -186.994376 2.00000000e+00
23.872096 0.811789 -175.501683 2.00000000e+00
6.641250 -16.217684 -170.141004 2.00000000e+00
22.655369 -9.914341 -168.623502 2.00000000e+00
21.195053 7.874664 -166.235126 2.00000000e+00
21.277287 1.769491 -164.500458 2.00000000e+00
7.855168 -2.557577 -158.112202 2.00000000e+00
27.157548 -14.113856 -176.086137 2.00000000e+00
24.898602 -2.489425 -173.967574 2.00000000e+00
5.140951 3.498708 -183.042536 2.00000000e+00
3.131625 12.799519 -177.316913 2.00000000e+00
3.559347 -12.372508 -169.561284 2.00000000e+00
14.087627 5.466632 -183.276094 2.00000000e+00
20.824768 0.984770 -163.781582 2.00000000e+00
15.080420 -0.472087 -158.588717 2.00000000e+00
0.716328 -4.248363 -164.021748 2.00000000e+00
29.048470 -22.428836 -179.952801 2.00000000e+00
22.472985 -5.735086 -167.356673 2.00000000e+00
1.755886 -11.156518 -171.536746 2.00000000e+00
6.605139 -23.390046 -178.488235 2.00000000e+00
12.834020 -2.518240 -158.653602 2.00000000e+00
9.929601 -17.210431 -195.513725 2.00000000e+00
27.920909 -20.395936 -177.905354 2.00000000e+00
5.059771 -21.560005 -187.991011 2.00000000e+00
22.043391 -20.359826 -172.241577 2.00000000e+00
21.317047 -19.830169 -171.572146 2.00000000e+00
25.058173 -8.333688 -188.073084 2.00000000e+00
18.397049 -5.654924 -190.765660 2.00000000e+00
-0.804205 -3.560359 -177.082067 2.00000000e+00
23.849663 0.152211 -177.778057 2.00000000e+00
6.053492 -7.010409 -188.239543 2.00000000e+00
2.042969 -12.954240 -181.993918 2.00000000e+00
26.292337 -21.184180 -176.032526 2.00000000e+00
7.146685 -5.394750 -188.440181 2.00000000e+00
4.497347 -15.610826 -172.073993 2.00000000e+00
14.216039 -11.560095 -194.943079 2.00000000e+00
-0.720976 -4.676045 -167.794832 2.00000000e+00
26.750676 -21.374814 -176.600098 2.00000000e+00
11.760550 -23.373512 -173.283225 2.00000000e+00
29.458878 -23.101948 -180.705857 2.00000000e+00
4.023932 -3.723958 -185.143319 2.00000000e+00
12.076087 6.588748 -182.812814 2.00000000e+00
29.184025 -15.691038 -189.406137 2.00000000e+00
25.936923 -18.195471 -174.765409 2.00000000e+00
2.860840 -12.401215 -184.748550 2.00000000e+00
18.816483 -5.026386 -190.108002 2.00000000e+00
10.185598 -7.845405 -161.695714 2.00000000e+00
-1.668897 -3.625678 -172.265939 2.00000000e+00
20.364105 11.022393 -167.729640 2.00000000e+00
20.702589 0.642511 -163.640043 2.00000000e+00
20.001730 -25.171956 -173.965592 2.00000000e+00
18.973106 4.585481 -160.411983 2.00000000e+00
26.968144 -11.589470 -188.852236 2.00000000e+00
22.157121 -2.553611 -185.347676 2.00000000e+00
16.943012 8.739732 -178.920101 2.00000000e+00
4.604905 -8.625216 -187.252825 2.00000000e+00
19.184632 9.055733 -160.391099 2.00000000e+00
21.660706 -8.374629 -191.554236 2.00000000e+00
27.406290 -10.963697 -186.653589 2.00000000e+00
9.702093 -28.188555 -179.519373 2.00000000e+00
-1.150030 11.260385 -174.915139 2.00000000e+00
-2.122622 9.571451 -174.285509 2.00000000e+00
12.483439 -20.251238 -170.503220 2.00000000e+00
3.966717 -18.071380 -176.874307 2.00000000e+00
5.116637 13.445891 -177.704026 2.00000000e+00
20.494913 -11.798340 -167.324826 2.00000000e+00
26.050184 -6.125726 -175.747267 2.00000000e+00
6.197435 -23.146218 -191.066601 2.00000000e+00
6.983465 -5.538558 -160.527705 2.00000000e+00
15.809571 -13.803217 -196.654584 2.00000000e+00
22.513778 0.533248 -167.053313 2.00000000e+00
16.823794 5.574864 -157.526256 2.00000000e+00
23.113773 -26.147010 -175.691402 2.00000000e+00
19.197445 -1.420653 -186.817742 2.00000000e+00
0.116549 -8.268436 -177.214034 2.00000000e+00
15.847285 -24.331070 -172.994893 2.00000000e+00
20.778052 -11.242975 -167.309652 2.00000000e+00
18.890477 -0.119684 -161.519197 2.00000000e+00
-1.401632 1.174313 -176.471048 2.00000000e+00
21.829413 6.143046 -167.611656 2.00000000e+00
9.036801 4.130533 -184.258817 2.00000000e+00
11.676092 -7.331347 -161.369584 2.00000000e+00
0.976427 -5.852741 -165.598397 2.00000000e+00
12.353815 -30.111619 -178.935451 2.00000000e+00
9.758231 -26.779400 -177.927138 2.00000000e+00
22.460285 -3.718507 -167.003537 2.00000000e+00
9.599161 -1.017568 -157.054820 2.00000000e+00
6.741512 -21.899802 -192.520842 2.00000000e+00
7.776231 -24.795261 -178.231989 2.00000000e+00
3.248924 8.840857 -179.362479 2.00000000e+00
10.384987 -25.564846 -176.119524 2.00000000e+00
1.896553 -13.787787 -179.735388 2.00000000e+00
-4.020461 3.151547 -165.882394 2.00000000e+00
27.381448 -9.936533 -178.391338 2.00000000e+00
14.406736 -29.749181 -177.464297 2.00000000e+00
8.820881 -12.584675 -192.753651 2.00000000e+00
23.387326 -0.355141 -169.184543 2.00000000e+00
11.113226 1.544190 -155.774753 2.00000000e+00
18.037102 -28.366328 -175.736692 2.00000000e+00
8.840787 11.267659 -179.666638 2.00000000e+00
18.219133 1.088160 -185.163533 2.00000000e+00
5.101914 -17.298955 -173.202508 2.00000000e+00
13.113689 -6.990047 -191.923197 2.00000000e+00
23.505375 -3.578977 -184.651493 2.00000000e+00
26.583764 -7.858987 -183.517079 2.00000000e+00
8.726387 0.645794 -155.890207 2.00000000e+00
20.108017 -11.781653 -195.087517 2.00000000e+00
15.872144 -19.625845 -169.786188 2.00000000e+00
2.612712 -15.954015 -179.218140 2.00000000e+00
21.735913 -13.530957 -169.007603 2.00000000e+00
22.195084 -16.606700 -170.639829 2.00000000e+00
23.942021 -6.920851 -169.809021 2.00000000e+00
16.765908 5.454342 -157.504405 2.00000000e+00
23.849177 1.023681 -173.829689 2.00000000e+00
10.875482 -12.251347 -164.795470 2.00000000e+00
10.472016 -9.186048 -192.231347 2.00000000e+00
17.416196 -25.840947 -174.010791 2.00000000e+00
9.576587 -29.123989 -180.758016 2.00000000e+00
18.210560 6.641153 -179.864041 2.00000000e+00
-4.375304 4.175069 -165.160651 2.00000000e+00
21.668407 -3.066019 -186.433381 2.00000000e+00
2.805342 8.081075 -179.441550 2.00000000e+00
3.401104 -5.229889 -184.898718 2.00000000e+00
13.485732 -12.392987 -195.216954 2.00000000e+00
25.753955 -4.473845 -177.259513 2.00000000e+00
8.585425 -6.584851 -189.914289 2.00000000e+00
16.393913 8.900996 -179.206711 2.00000000e+00
7.113574 -0.597045 -156.775281 2.00000000e+00
2.268346 0.022886 -158.013053 2.00000000e+00
22.583165 -2.770710 -185.050982 2.00000000e+00
14.035663 -20.087148 -170.113931 2.00000000e+00
2.606609 13.573783 -176.662924 2.00000000e+00
7.380090 -14.144851 -167.600002 2.00000000e+00
2.941738 -10.043827 -185.020418 2.00000000e+00
1.813494 -4.225449 -182.529241 2.00000000e+00
15.558059 -20.140685 -170.109512 2.00000000e+00
26.541654 -24.246888 -177.301630 2.00000000e+00
11.734234 -24.615482 -174.360906 2.00000000e+00
7.793845 -19.701743 -172.582776 2.00000000e+00
19.831476 -2.294261 -163.209221 2.00000000e+00
26.946604 -11.284536 -175.973574 2.00000000e+00
5.958422 -13.903191 -190.259910 2.00000000e+00
21.216915 -3.825319 -165.262435 2.00000000e+00
-0.464650 0.922180 -178.224103 2.00000000e+00
19.893273 2.263268 -182.702551 2.00000000e+00
-3.384859 2.427696 -163.664940 2.00000000e+00
-0.722004 0.327249 -160.659930 2.00000000e+00
24.598016 -2.160481 -179.630554 2.00000000e+00
2.213890 -0.409185 -182.168892 2.00000000e+00
22.287676 -11.584045 -168.770916 2.00000000e+00
-2.063170 -2.251159 -172.405135 2.00000000e+00
10.336112 -15.607696 -167.471427 2.00000000e+00
3.685158 -6.556442 -163.169153 2.00000000e+00
17.276040 -25.681298 -173.899361 2.00000000e+00
14.169102 4.944888 -183.660102 2.00000000e+00
-1.016578 8.866412 -175.808864 2.00000000e+00
20.486084 0.648917 -183.776276 2.00000000e+00
17.858535 4.426379 -182.340904 2.00000000e+00
0.674270 -7.088508 -180.237343 2.00000000e+00
17.715392 -2.825132 -188.725154 2.00000000e+00
8.153775 5.705939 -183.099263 2.00000000e+00
-0.299678 -7.322216 -172.121824 2.00000000e+00
0.533657 -5.677767 -166.174744 2.00000000e+00
12.085066 -1.025641 -157.558896 2.00000000e+00
17.267266 -9.278366 -193.714765 2.00000000e+00
-1.432907 11.110826 -174.670063 2.00000000e+00
21.155069 -21.518306 -172.350256 2.00000000e+00
12.129119 -26.338538 -175.652037 2.00000000e+00
10.802144 -19.380872 -170.360090 2.00000000e+00
18.688797 -8.505078 -164.603399 2.00000000e+00
27.910864 -11.341637 -179.593439 2.00000000e+00
-0.598551 -0.990864 -178.057574 2.00000000e+00
6.789247 -18.334335 -192.299352 2.00000000e+00
26.913090 -8.833799 -184.229307 2.00000000e+00
4.629370 13.124014 -177.740608 2.00000000e+00
24.363089 -9.476301 -190.327158 2.00000000e+00
22.792404 -25.261026 -175.077745 2.00000000e+00
14.309073 -14.786988 -196.854054 2.00000000e+00
26.145029 -8.172833 -174.661075 2.00000000e+00
13.568237 12.238111 -177.946028 2.00000000e+00
4.218896 -19.109647 -177.969986 2.00000000e+00
13.821449 -4.734082 -190.595529 2.00000000e+00
19.756716 8.174247 -175.999817 2.00000000e+00
2.032919 -12.822037 -173.659168 2.00000000e+00
27.848413 -13.732733 -177.789738 2.00000000e+00
7.277225 -23.311166 -177.188406 2.00000000e+00
28.497687 -18.175718 -178.720129 2.00000000e+00
1.333858 -9.973704 -170.757017 2.00000000e+00
17.895512 -3.572322 -189.264910 2.00000000e+00
19.258597 5.970181 -179.427399 2.00000000e+00
4.092886 -19.727069 -180.027749 2.00000000e+00
12.779599 -17.058700 -197.401763 2.00000000e+00
16.405329 -9.714273 -194.047901 2.00000000e+00
4.745603 -21.702536 -186.102550 2.00000000e+00
-2.103790 7.638229 -174.711707 2.00000000e+00
4.129641 -8.667723 -186.662508 2.00000000e+00
27.852107 -11.645994 -178.925169 2.00000000e+00
3.387708 -16.860676 -176.616850 2.00000000e+00
-1.949215 -1.918876 -166.985845 2.00000000e+00
26.180861 -7.218594 -183.815386 2.00000000e+00
22.215622 -8.460868 -191.261277 2.00000000e+00
10.662670 -21.256011 -172.008912 2.00000000e+00
0.661073 -3.209371 -180.513555 2.00000000e+00
11.951148 -10.655146 -163.602907 2.00000000e+00
1.911340 -13.420566 -175.630312 2.00000000e+00
2.416374 -14.600091 -175.896624 2.00000000e+00
14.307676 -3.721122 -189.941673 2.00000000e+00
29.905043 -16.741835 -184.117675 2.00000000e+00
6.466219 -20.374660 -191.970902 2.00000000e+00
2.234455 -14.560633 -176.938988 2.00000000e+00
16.626044 4.197021 -183.322389 2.00000000e+00
7.100516 -12.916956 -166.666892 2.00000000e+00
22.674324 4.157968 -170.150545 2.00000000e+00
10.806281 -13.445166 -194.515504 2.00000000e+00
5.262365 -22.089684 -188.430363 2.00000000e+00
12.058017 -21.993183 -172.015107 2.00000000e+00
25.651708 -4.298500 -178.973629 2.00000000e+00
21.555796 -12.617593 -195.269337 2.00000000e+00
19.385117 -27.252741 -175.112026 2.00000000e+00
-0.948057 -3.381785 -166.209917 2.00000000e+00
5.827078 -8.410116 -163.406171 2.00000000e+00
-2.861628 -0.250837 -169.012419 2.00000000e+00
17.411569 -29.760547 -176.740360 2.00000000e+00
7.607901 13.434468 -178.156076 2.00000000e+00
18.627545 -29.297882 -176.379491 2.00000000e+00
17.742849 -13.682567 -196.766158 2.00000000e+00
19.811352 -14.159817 -167.949264 2.00000000e+00
10.833732 -12.036343 -164.643739 2.00000000e+00
25.336164 -3.740757 -174.841892 2.00000000e+00
5.693947 -23.065682 -180.328830 2.00000000e+00
1.036811 0.626032 -158.375248 2.00000000e+00
7.097581 -27.973584 -184.908361 2.00000000e+00
7.741591 -4.809859 -188.561718 2.00000000e+00
5.440385 -3.778855 -159.644575 2.00000000e+00
22.915627 -17.291140 -171.480564 2.00000000e+00
10.651951 -27.259210 -177.552561 2.00000000e+00
1.083321 -11.594485 -176.974671 2.00000000e+00
17.812217 -13.591938 -196.705075 2.00000000e+00
19.515906 -9.804627 -165.752050 2.00000000e+00
10.877881 -14.428547 -166.417065 2.00000000e+00
5.581464 -13.457904 -168.343227 2.00000000e+00
-4.120784 3.690472 -168.414772 2.00000000e+00
21.350278 -15.118225 -169.382881 2.00000000e+00
21.640303 -4.469807 -187.880822 2.00000000e+00
7.948692 -16.298428 -169.192642 2.00000000e+00
18.764314 -8.027748 -192.525946 2.00000000e+00
2.333252 -13.460582 -173.816687 2.00000000e+00
4.379197 -10.258373 -166.236493 2.00000000e+00
13.823747 2.287173 -156.528166 2.00000000e+00
3.266990 14.151198 -176.660066 2.00000000e+00
5.265073 -10.662131 -165.858489 2.00000000e+00
6.811171 14.835088 -177.169298 2.00000000e+00
-3.584937 2.338061 -164.935148 2.00000000e+00
18.941346 -26.353304 -174.476515 2.00000000e+00
4.768868 -16.879477 -173.225655 2.00000000e+00
20.040437 -28.087158 -175.744996 2.00000000e+00
26.783063 -14.700655 -175.376865 2.00000000e+00
-3.142991 1.352802 -171.161852 2.00000000e+00
20.482572 -12.060663 -167.428509 2.00000000e+00
12.569729 15.800490 -175.383407 2.00000000e+00
8.980683 4.021877 -184.311726 2.00000000e+00
19.425632 12.903380 -168.987543 2.00000000e+00
6.794609 -4.128544 -187.633687 2.00000000e+00
22.763059 -8.625795 -168.397307 2.00000000e+00
11.200246 -11.054028 -163.900340 2.00000000e+00
6.226325 -20.277391 -175.103308 2.00000000e+00
17.132066 -10.706711 -194.725567 2.00000000e+00
18.424044 -13.856332 -196.877280 2.00000000e+00
6.176032 -16.478871 -170.869693 2.00000000e+00
15.474487 -29.237161 -176.694579 2.00000000e+00
29.010544 -14.738319 -181.457431 2.00000000e+00
5.911149 -21.904654 -177.849981 2.00000000e+00
5.969960 -3.369559 -186.711895 2.00000000e+00
16.267611 4.885503 -157.207965 2.00000000e+00
1.355899 -7.037971 -166.466110 2.00000000e+00
21.277753 -2.648103 -186.385892 2.00000000e+00
13.586986 7.574940 -181.765719 2.00000000e+00
9.869148 7.559028 -182.195761 2.00000000e+00
8.481215 -17.697206 -170.120569 2.00000000e+00
-0.648433 -5.278653 -176.639942 2.00000000e+00
-3.822311 8.638055 -171.712005 2.00000000e+00
3.370973 -3.211847 -160.244195 2.00000000e+00
19.926307 -6.259962 -164.643781 2.00000000e+00
13.404758 -25.797476 -174.612890 2.00000000e+00
8.938820 -15.743158 -168.135246 2.00000000e+00
16.780616 -14.075022 -196.967534 2.00000000e+00
23.580939 -0.101721 -179.370393 2.00000000e+00
6.864570 -3.160379 -187.240857 2.00000000e+00
15.200987 -1.944764 -188.640989 2.00000000e+00
11.621762 12.329314 -178.595359 2.00000000e+00
27.184220 -10.847372 -187.146169 2.00000000e+00
25.009568 -11.201501 -191.455827 2.00000000e+00
27.796052 -10.666967 -184.044736 2.00000000e+00
11.573831 1.657738 -155.856203 2.00000000e+00
18.730215 -29.013073 -176.191891 2.00000000e+00
8.768286 -22.912429 -174.917640 2.00000000e+00
13.063888 -10.577295 -194.041070 2.00000000e+00
24.031007 0.203875 -176.463204 2.00000000e+00
26.015878 -5.314073 -179.518989 2.00000000e+00
22.253643 5.610731 -170.671136 2.00000000e+00
23.039852 -5.246828 -187.257476 2.00000000e+00
25.453420 -11.395568 -172.797552 2.00000000e+00
6.901463 -26.324944 -182.320007 2.00000000e+00
30.516820 -19.275197 -184.205999 2.00000000e+00
26.244849 -5.915033 -179.584815 2.00000000e+00
1.252509 -12.034520 -176.461912 2.00000000e+00
19.243293 -20.191714 -170.849987 2.00000000e+00
4.192071 -10.720104 -187.158619 2.00000000e+00
8.356133 -18.068195 -194.268229 2.00000000e+00
2.445599 -15.510023 -179.734344 2.00000000e+00
6.376382 -5.046899 -160.329464 2.00000000e+00
22.690579 4.267835 -172.842894 2.00000000e+00
24.890562 -3.175582 -173.048955 2.00000000e+00
20.262524 0.875405 -183.768107 2.00000000e+00
2.973306 -7.006298 -184.721495 2.00000000e+00
29.684771 -19.190281 -181.359050 2.00000000e+00
-1.224162 5.307500 -176.408537 2.00000000e+00
28.757644 -13.233723 -182.462509 2.00000000e+00
-0.352328 1.216872 -159.164413 2.00000000e+00
-0.482440 9.427257 -176.201389 2.00000000e+00
5.302424 -11.241343 -188.783035 2.00000000e+00
24.431263 -1.759003 -179.477160 2.00000000e+00
4.756923 -21.786332 -181.813701 2.00000000e+00
12.472679 -20.159131 -170.434765 2.00000000e+00
25.511129 -18.964148 -174.501692 2.00000000e+00
18.303620 3.341421 -183.033735 2.00000000e+00
23.744636 -4.838451 -169.353502 2.00000000e+00
29.473315 -15.683037 -187.968692 2.00000000e+00
21.091422 4.789786 -164.277609 2.00000000e+00
6.244866 -11.808169 -166.212424 2.00000000e+00
5.081563 13.434279 -177.700891 2.00000000e+00
1.297569 -8.884329 -181.464198 2.00000000e+00
18.843833 -12.537643 -195.903526 2.00000000e+00
6.098827 -7.144691 -188.330324 2.00000000e+00
3.690421 -18.884904 -183.482691 2.00000000e+00
