-4.165395 58.770058 -31.705686
-11.980554 64.452826 -24.193632
1.752026 51.830550 -3.153581
1.091699 52.772143 -17.272236
-10.218556 63.407554 -1.503063
-3.427376 58.050603 -17.235531
-32.259869 69.384612 -17.135773
7.091803 40.066700 -19.631829
-2.780623 57.420118 -18.740796
1.345105 52.431775 2.852321
3.656274 48.653009 -5.288797
-7.954617 61.877214 -1.636296
-15.692706 66.256380 -41.628555
6.906899 40.780720 -47.825024
-13.203840 65.087745 -55.498728
-8.912712 62.553305 -31.054043
-2.655729 57.298365 -19.578457
-0.065443 54.326381 2.190302
-22.421823 68.416920 -31.257271
6.104019 43.199518 -29.284420
-6.426118 60.718987 0.140572
-27.929672 69.272685 -6.284160
-10.478551 63.561791 -11.535560
2.471694 50.684960 -2.272560
-17.417206 66.939743 -43.182936
-33.376418 69.364433 -2.086838
-1.428147 55.938138 -6.300756
8.482366 34.696937 -53.293851
4.119838 47.766570 -32.488047
-13.762071 65.361802 -22.506383
-0.892744 55.326528 -48.789007
7.088076 40.081093 -28.347553
0.201207 53.968225 -15.343442
-21.407563 68.191020 -39.369144
-20.812762 68.039245 -54.507757
-7.147737 61.307829 -54.976712
-28.312666 69.296070 3.093303
-0.957676 55.400702 -22.247921
5.208648 45.442506 -41.238185
-3.865368 58.477578 -0.768542
-21.999850 68.322937 3.760797
-2.629590 57.272884 -53.845727
-30.703426 69.412740 -12.537490
7.825279 37.234328 1.309744
-7.075789 61.257058 -49.815199
-6.252685 60.574796 -57.167325
-24.863329 68.898341 -27.910022
-29.096511 69.343931 -13.543796
-23.053813 68.557678 -0.387995
-29.984970 69.398179 -38.892464
-23.736548 68.709739 -52.465185
-3.998701 58.607557 -12.234575
-31.144351 69.404772 -54.134888
-32.093517 69.387618 -9.909695
4.721310 46.586383 -9.253383
-5.486795 59.938039 -32.833357
-30.619603 69.414255 -17.869338
-4.732906 59.311261 -19.527393
8.007820 36.529433 -19.171757
-9.325749 62.844769 -60.820734
-14.150226 65.552362 -1.851432
-3.159916 57.789870 -46.027835
-14.849555 65.895690 -1.631216
-11.917168 64.415223 -4.856497
-13.819515 65.390003 -11.426073
-0.850097 55.277811 -55.187496
-0.613515 55.007553 -27.177020
-28.633545 69.315663 -51.986860
-3.035538 57.668620 -58.920294
-8.375404 62.174147 -59.664145
6.381394 42.372719 -40.754975
-1.947154 56.531019 -45.928516
6.589797 41.751509 -12.270062
-1.477984 55.995069 -34.468736
-24.604202 68.861807 -34.369904
8.036536 36.418543 1.396324
0.029179 54.199288 -52.971082
-12.323796 64.655698 -29.927751
-3.511547 58.132656 -40.482304
-11.814333 64.354218 -27.872019
-0.812670 55.235056 -17.322696
-5.517111 59.963244 -2.393491
-14.247007 65.599876 -59.515119
-22.274961 68.384210 -15.476979
2.623012 50.444087 -28.415237
1.981771 51.464835 -11.646629
5.250708 45.343782 -37.246038
-4.250262 58.852791 -20.945251
0.264160 53.883669 -43.559737
4.853849 46.275288 -0.348453
-1.631703 56.170668 -16.645984
-5.781056 60.182686 -42.150336
-2.583267 57.227725 -55.704760
-12.686506 64.833766 -37.442001
-32.270187 69.384426 -56.942399
-14.233775 65.593380 -26.326135
-17.349615 66.912959 2.826077
-23.436814 68.642982 2.145621
7.644539 37.932269 -33.315849
-23.360137 68.625904 -47.924118
1.956656 51.504812 -20.853965
8.524420 34.534542 1.440813
4.501099 47.037512 0.387040
-1.929927 56.511341 -15.345209
-29.564667 69.372516 -40.314654
-31.858733 69.391861 -60.936369
-31.121206 69.405190 -9.122579
-13.646446 65.305037 -20.856768
-9.875317 63.203935 -45.617425
-2.041840 56.639183 -55.425186
-32.475875 69.380708 -12.730855
-8.026209 61.927733 -6.104786
7.784080 37.393419 -46.845518
-5.806392 60.203750 -47.430474
-6.450204 60.739012 -12.523527
4.709794 46.613412 -41.394588
6.428917 42.231060 -54.223358
5.410142 44.969560 -32.057890
-23.898453 68.745799 -10.079057
-17.437732 66.947877 -45.647842
-9.758292 63.134511 -39.952210
-14.755338 65.849435 -44.662473
-20.213350 67.854993 -43.808474
1.950986 51.513839 -26.295256
-18.680980 67.383960 -36.816114
-0.301389 54.643297 -39.696865
-14.852678 65.897223 -56.552558
4.825494 46.341841 -1.700057
-20.479892 67.936925 -10.533648
8.448340 34.828332 -10.515768
1.998381 51.438393 -0.800972
-4.563798 59.158440 -57.135598
8.330601 35.282988 -59.493534
-7.258417 61.385931 -15.753089
7.588999 38.146741 -41.669059
-8.691984 62.397545 -12.468499
8.563602 34.383236 -7.925276
-26.249222 69.093739 -25.809677
-8.754807 62.441877 -27.582438
-15.737899 66.274288 -21.701855
-25.074090 68.928056 -19.901037
7.151642 39.835625 -48.123614
-8.206948 62.055274 -0.792491
-9.484644 62.956896 -1.946418
-1.402975 55.909384 -60.256813
-6.251409 60.573735 -56.240717
1.559520 52.136986 -11.210090
-13.965483 65.461665 -58.503127
4.924559 46.109318 -11.840276
-26.875467 69.182033 -35.885699
4.206469 47.600911 -56.916286
-32.016503 69.389010 -20.073870
2.067944 51.327662 -23.931376
-26.264433 69.095883 -38.041872
-15.598578 66.219080 -22.576310
-15.835118 66.312813 -27.099511
2.184894 51.141497 -1.686202
-25.727969 69.020247 -23.536942
-5.327474 59.805581 -43.402534
0.205143 53.962938 -23.095865
5.306165 45.213613 -55.807607
-24.959129 68.911848 -53.652069
4.181306 47.649030 -4.792650
4.930220 46.096029 -19.587643
-26.640572 69.148915 -13.845614
-2.735193 57.375830 -58.002709
-30.451465 69.417294 -36.008050
-0.405235 54.769628 -22.888383
-17.580580 67.004483 -23.861485
-27.826619 69.266393 -8.296414
6.618167 41.666944 1.856513
-9.736117 63.121356 -50.732896
1.704809 51.905710 -38.276236
-25.482390 68.985623 3.479783
-32.769712 69.375398 -1.333616
-2.255630 56.883404 -13.137331
-26.846022 69.177882 -48.504943
6.376499 42.387308 -8.127146
-30.606245 69.414497 -22.440265
-1.444750 55.957105 -33.526654
0.464592 53.614454 -57.172733
6.524746 41.945412 -50.696805
8.535305 34.492507 -52.171097
-31.531841 69.397769 -29.418250
3.849248 48.284000 -56.593079
-11.269397 64.030945 -4.586731
8.149312 35.983048 -39.583792
-28.283717 69.294302 -4.352935
-2.188913 56.807190 0.556523
-4.233274 58.836230 -21.942777
-24.462483 68.841826 -20.568440
-2.484087 57.131040 -45.349762
-31.576042 69.396970 -3.011128
-14.673320 65.809169 -37.897302
3.801556 48.375197 1.987208
7.636892 37.961798 -18.055335
-9.271308 62.806352 3.103214
6.303064 42.606203 -23.451651
-24.536626 68.852279 -18.296255
-19.547530 67.650328 -20.908825
6.534350 41.916785 -27.790924
4.269844 47.479725 -34.131141
-28.222448 69.290561 -32.716402
5.144020 45.594199 -60.074781
-1.679023 56.224724 -52.464096
-0.674293 55.076983 -33.865368
-19.642313 67.679463 -5.730892
-12.969113 64.972508 -28.271012
-2.545863 57.191262 -60.016790
-21.102799 68.123142 -32.047819
2.769377 50.211099 0.512219
-6.647705 60.903213 -52.747143
2.041016 51.370526 -31.976139
-6.032972 60.392128 -41.347505
-29.421294 69.363762 -34.482780
-10.826413 63.768153 -50.357365
3.341133 49.255629 -1.550254
-14.299433 65.625614 -20.016290
6.681987 41.476707 1.037236
-4.845794 59.405115 -46.300267
2.509035 50.625520 -29.174765
3.843367 48.295245 -2.666618
-12.465547 64.725288 -22.239172
4.655600 46.740617 -17.616068
7.268820 39.383134 -2.556979
5.356480 45.095514 -47.541883
-25.845771 69.036856 -31.074978
7.729248 37.605159 -25.024994
-30.856543 69.409973 -0.351817
-24.352198 68.826276 -6.543389
-3.936486 58.546907 2.326235
-0.072668 54.336085 -7.372421
6.448166 42.173684 -9.063093
1.541578 52.165547 -56.753605
3.433618 49.078778 -20.657739
-5.291965 59.776059 -30.728075
-32.207962 69.385550 -55.092208
2.053006 51.351439 -33.665016
-28.043803 69.279654 2.169031
0.383949 53.722771 -31.896294
6.375424 42.390512 -45.363520
2.474192 50.680983 -53.098790
1.865981 51.649152 -24.612436
1.315127 52.472041 -6.486656
-30.761958 69.411683 -32.941989
-4.569624 59.164119 -33.765582
4.769562 46.473126 -35.821630
5.593489 44.539210 -39.897985
2.525947 50.598599 -58.317516
-5.510358 59.957629 -44.217453
5.229317 45.393991 -25.659858
-19.716080 67.702138 -30.921790
-6.939176 61.145540 -30.942836
5.512521 44.729257 -34.760253
8.008865 36.525395 -46.218305
-6.463554 60.750112 -36.520987
3.130714 49.635912 -15.222930
5.685307 44.323694 -11.073819
-2.412898 57.061642 -48.607954
6.237585 42.801385 -18.407104
-26.741426 69.163135 -31.053486
0.451823 53.631605 -60.581317
-0.672644 55.075099 -60.922254
-0.999852 55.448881 -35.127762
-8.977650 62.599129 -23.104025
-20.331903 67.891435 -20.152785
-11.949771 64.434564 -30.671259
4.555793 46.932926 -23.317716
-19.925916 67.766639 -16.417712
-17.000392 66.774573 -24.767998
2.600172 50.480445 -25.951854
8.311186 35.357961 -7.662606
-2.716098 57.357215 -17.443499
7.626826 38.000667 -12.461934
-5.485950 59.937337 -20.110666
6.927744 40.700224 1.136082
-29.773838 69.385288 -30.051166
5.757320 44.154666 -33.247477
4.427900 47.177485 -33.306027
-1.111765 55.576723 -37.915867
-16.188649 66.452906 -4.957466
-19.196670 67.542478 -4.995511
-28.379778 69.300168 -42.280635
-14.175648 65.564843 -45.170260
-16.869853 66.722845 -53.108533
6.107739 43.188431 2.733762
-0.244619 54.567045 -14.500180
4.356779 47.313486 -28.276478
3.006107 49.834265 -26.134594
4.828517 46.334748 -46.678951
-28.591031 69.313067 -56.567223
-4.569033 59.163544 -10.932885
-21.284694 68.163655 -56.321639
7.499438 38.492585 -22.352401
-19.697356 67.696383 -54.052832
-1.504427 56.025276 -1.176671
-3.965655 58.575342 -17.742440
-16.075879 66.408219 1.388378
-30.263510 69.415186 -21.561941
6.257545 42.741887 -57.001119
-30.813254 69.410756 -57.601768
-26.310658 69.102401 -26.682986
-23.019542 68.550045 -26.100389
-2.693089 57.334785 -51.271844
-9.908138 63.223405 -29.040237
-30.648826 69.413727 -14.587633
7.699879 37.718568 -32.296574
6.128016 43.127987 -19.238174
-19.124436 67.520274 -59.267813
3.326345 49.283908 -22.513462
3.916352 48.155681 -53.915665
-8.427128 62.210646 -13.862111
6.827047 41.044311 -7.412021
0.402563 53.697769 -47.454087
5.739201 44.197195 -12.934470
0.570066 53.472784 -5.482316
5.591453 44.543989 -11.953632
-14.963502 65.951631 -42.955344
-2.970872 57.605581 -60.632802
-2.780743 57.420234 -28.424386
-9.941434 63.243157 -19.692732
2.806898 50.151373 -7.543923
1.544178 52.161407 -50.997762
4.378754 47.271464 -8.365989
-30.067429 69.403214 -25.180487
-5.355758 59.829096 -4.126073
4.054804 47.890930 -5.638289
-12.690339 64.835648 -16.078070
-22.698508 68.478544 -38.265397
-21.075310 68.117020 -11.752652
-17.236691 66.868211 -7.949082
-6.955452 61.159073 -48.397918
-27.532045 69.248406 -2.573036
-18.687022 67.385818 -25.180865
-1.054452 55.511253 -56.914181
-12.653047 64.817340 -3.158510
0.635272 53.385202 -13.349545
3.847601 48.287149 -3.914835
-1.226786 55.708116 1.897878
-2.212040 56.833609 -9.634043
-14.696321 65.820462 -4.401264
-29.610350 69.375305 -44.493164
-8.480427 62.248258 -5.416168
-33.326349 69.365338 -34.979195
5.542480 44.658937 -59.747723
-7.471190 61.536077 -27.669794
5.172932 45.526339 -34.178241
-4.665377 59.255117 -22.926269
7.265435 39.396205 -1.288866
8.208988 35.752607 -55.003337
-30.091174 69.404664 -45.212080
-2.498368 57.144962 1.854651
6.791874 41.149157 -55.256286
-2.967664 57.602453 -7.944519
2.454094 50.712976 -36.734962
-5.830731 60.223986 -38.176461
-13.007867 64.991534 -51.331042
-4.536450 59.131780 -38.062962
-14.843813 65.892871 -37.084092
6.790482 41.153304 -8.421159
2.543515 50.570633 -1.011377
-29.877591 69.391623 2.261212
7.875458 37.040556 -47.556334
-5.548683 59.989493 -46.483360
-14.013843 65.485407 -60.885987
0.762746 53.213983 -43.256139
-15.732903 66.272308 -42.919388
-11.733003 64.305971 -44.009996
7.619625 38.028474 -45.773488
-11.606509 64.230931 -26.758401
6.355094 42.451113 -52.099470
-23.913121 68.749066 -13.725412
-31.039491 69.406667 -56.631806
3.776072 48.423928 -17.144973
-22.130884 68.352121 2.307449
8.450386 34.820428 -29.412351
2.291044 50.972524 2.550064
3.167567 49.577249 -52.061956
-28.619485 69.314804 -57.346396
-7.324300 61.432422 -6.684580
7.397916 38.884620 -18.995218
3.007759 49.831636 3.721851
-7.888497 61.830555 -15.995396
7.627796 37.996923 -51.887674
-28.724181 69.321197 -12.111813
-32.340868 69.383148 -40.176067
-7.895877 61.835763 -28.487419
3.269790 49.392052 -41.581170
-1.694127 56.241978 -61.056928
-1.120806 55.587051 -13.535112
-18.223416 67.243310 -59.907215
-18.968994 67.472492 -13.710693
-1.493082 56.012316 -58.828350
3.354823 49.229450 -13.762668
-15.777814 66.290105 -1.808600
-16.091236 66.414304 -39.517127
-19.497431 67.634928 -48.876375
-1.740056 56.294444 -3.541704
2.814873 50.138678 -47.708708
-1.751859 56.307927 -29.488365
-21.102224 68.123015 -43.645023
-13.762646 65.362084 -32.494784
-2.554880 57.200052 -34.363913
-15.068262 66.003061 -9.982752
-21.415474 68.192782 -53.325124
-11.581946 64.216359 -22.235291
-0.796884 55.217023 -60.197204
-18.965056 67.471282 -53.525163
-15.341230 66.117101 -57.438218
8.155252 35.960114 -49.228152
5.381981 45.035659 -8.667307
6.223451 42.843514 -30.496131
-21.338348 68.175605 -49.441200
-28.829253 69.327612 -32.146410
0.590291 53.445618 -8.708963
8.347014 35.219607 -2.574711
-20.577884 67.967046 -22.228269
7.724786 37.622387 -29.853908
6.608393 41.696077 -46.024524
8.390944 35.049972 -22.739193
6.842283 40.998896 -60.743550
-5.483122 59.934986 -57.134606
-15.398854 66.139935 -23.457425
7.800886 37.328522 -7.802338
-22.361039 68.403382 -19.111565
-15.812345 66.303789 -44.752853
-24.433248 68.837704 -15.437816
8.444628 34.842664 -7.036198
-11.244545 64.016202 -5.948698
-14.102002 65.528687 -30.773807
8.518587 34.557066 -30.268693
3.384271 49.173139 -24.132421
-26.308483 69.102094 -17.277377
-24.264749 68.813947 -54.597317
3.469330 49.010487 -9.524076
-21.442111 68.198715 -54.974050
-21.940812 68.309787 -25.069329
-18.041209 67.187016 -41.833348
-4.216589 58.819965 -7.996475
8.084691 36.232587 3.527308
2.694517 50.330264 -3.360647
-12.740306 64.860178 -44.076671
-16.183096 66.450705 -30.982446
-31.750558 69.393816 -16.366881
3.309250 49.316597 -43.796886
7.903326 36.932943 -7.003625
0.346677 53.772834 -6.523488
-2.328801 56.966990 -29.590712
-31.283877 69.402250 -43.418512
-10.577231 63.620331 -40.823031
6.021949 43.444153 -55.153337
-10.152174 63.368174 -2.416392
3.442853 49.061118 -2.337692
2.380238 50.830542 -40.813751
0.663263 53.347605 -3.907659
-2.943422 57.578821 -14.858429
-18.370199 67.288430 -60.808058
-27.784661 69.263831 -55.797655
-27.340290 69.236698 -23.075156
-19.898155 67.758106 -1.987441
-14.844909 65.893409 -27.160156
6.224120 42.841522 -3.776567
-19.771321 67.719118 -3.075538
7.130340 39.917884 -22.635034
-6.675638 60.926436 -49.162353
-30.125370 69.406752 -7.719049
0.086071 54.122872 -11.804014
-30.403694 69.418157 3.609252
7.999359 36.562103 -20.352453
-9.559260 63.009550 -25.822713
7.077728 40.121052 -30.351227
3.212448 49.501703 -28.852696
6.861157 40.942635 -24.033112
-22.988095 68.543042 -3.355026
-24.871856 68.899543 -7.180724
-30.869714 69.409735 -41.204741
-30.018166 69.400206 -35.106296
1.048653 52.829962 -26.057897
8.274641 35.499081 -11.123591
-4.187999 58.792094 -14.680819
-14.000726 65.478967 -55.434386
7.942818 36.780440 -15.811332
5.516214 44.720588 -13.510747
5.024191 45.875462 2.287709
-29.760051 69.384446 -53.846094
-14.727683 65.835858 -60.672029
8.553129 34.423680 -58.700642
-14.225897 65.589512 -57.216489
7.759776 37.487273 -40.230253
-31.064985 69.406206 -7.103484
-12.003582 64.466486 -49.244179
-24.905042 68.904222 -31.649836
-19.735966 67.708251 -34.325504
-11.927951 64.421620 -5.684621
-22.871479 68.517069 -55.001735
-24.990904 68.916328 -11.533910
-21.005485 68.098486 -40.459246
-20.987107 68.092837 -1.106432
-3.044859 57.677707 -11.305209
-25.360316 68.968412 -24.408006
2.877515 50.038963 -35.434484
7.574173 38.203992 -19.758104
-3.397984 58.021950 -12.903648
-13.399543 65.183823 -47.702613
-24.553210 68.854617 -49.043346
-16.983613 66.767925 -38.441323
-2.732278 57.372988 -39.775190
-14.927899 65.934152 2.038865
-9.538834 62.995136 -34.175504
-16.489391 66.572080 0.633125
7.733847 37.587400 -55.071600
-12.106420 64.527493 -45.854091
-15.296561 66.099400 -35.377164
-6.381230 60.681668 -28.633791
8.210645 35.746206 -22.367967
4.625098 46.800398 -18.557524
7.064553 40.171928 -18.301861
6.807906 41.101366 -23.125670
-4.643317 59.235960 -30.531108
-10.422119 63.528314 2.182562
-18.927182 67.459640 -21.560985
-6.624966 60.884308 -53.905839
-25.373812 68.970314 -0.349447
-9.929687 63.236188 -36.805250
4.273424 47.472878 -31.299817
-11.050972 63.901369 -41.737547
-1.398343 55.904092 -47.386008
-21.868169 68.293608 -32.465014
-1.639313 56.179361 -2.011133
-7.549437 61.591293 -12.627758
6.583671 41.769770 2.648864
-4.928759 59.474092 -53.155865
-0.313491 54.659550 -0.826559
-19.337212 67.585679 -15.750366
-33.352185 69.364871 0.992066
8.276512 35.491856 -48.590156
-13.501625 65.233939 -56.765045
6.587891 41.757191 -5.392598
8.361499 35.163673 -16.800285
-5.550947 59.991375 -48.568640
3.209912 49.506552 -5.127664
-20.141313 67.832850 -59.991838
-10.600031 63.633857 -6.633101
-18.917912 67.456790 -48.341278
-9.664727 63.079006 -49.752908
-28.517069 69.308551 -30.948644
3.471225 49.006865 -3.216359
-3.313721 57.939806 -12.075519
-5.586101 60.020602 -40.541886
-22.340565 68.398822 -16.367856
-28.061721 69.280748 -18.227490
-11.729269 64.303755 -9.233128
-27.847911 69.267693 -39.469312
-23.201790 68.590636 -56.082433
7.332498 39.137238 -20.952103
7.348349 39.076027 -7.680094
6.339924 42.496331 -47.155991
-23.745904 68.711823 -26.319136
7.521167 38.408676 -24.116195
-22.067134 68.337922 -38.751747
1.768409 51.804470 -19.288173
-13.682736 65.322854 -40.678090
-22.843686 68.510878 -20.485857
-17.515690 66.978770 -15.648854
-28.873728 69.330328 -16.162729
4.136620 47.734480 -55.321468
8.537302 34.484796 -4.007548
-16.019968 66.386063 -38.514054
1.705449 51.904692 -27.287772
0.971027 52.934226 -22.719647
7.846224 37.153447 -43.565867
-20.059368 67.807661 3.617153
-27.949349 69.273886 -1.031998
4.191423 47.629683 -6.871187
-28.608677 69.314144 -38.683309
1.144374 52.701392 -30.256842
-8.590426 62.325880 -21.193942
-14.531905 65.739743 -11.727819
2.462766 50.699173 -33.833623
-24.838267 68.894808 -17.482616
-31.772762 69.393415 -37.999806
-5.569827 60.007072 -5.048099
1.118990 52.735486 -46.989148
-7.772256 61.748528 -14.628256
-25.066105 68.926931 -22.088834
8.130896 36.054163 -59.072820
6.366696 42.416529 -34.411754
-3.887629 58.499279 -24.177208
-18.659128 67.377243 -40.671401
-17.580898 67.004609 -40.756196
-1.557852 56.086305 -22.255045
-31.989027 69.389507 -48.192877
5.072850 45.761251 -28.710248
-3.159471 57.789436 -20.022469
0.527954 53.529349 -12.441778
4.533541 46.975476 -57.560994
-32.349538 69.382991 -59.781559
-11.191179 63.984544 -32.819170
8.343648 35.232608 -46.713564
6.442992 42.189106 -14.564408
-3.062820 57.695217 -43.912070
-3.706955 58.323150 -14.058068
7.523715 38.398838 -60.515859
-20.212301 67.854671 -35.220626
-22.197108 68.366871 -55.924890
-28.288140 69.294573 -25.680398
-33.416676 69.363706 -38.190230
3.641767 48.680749 -60.822498
-8.392254 62.186038 -57.057724
8.358613 35.174819 3.646863
-31.647475 69.395679 -41.733269
-31.004557 69.407298 -16.444098
-4.136430 58.741822 -40.273869
-16.501231 66.576772 -22.024339
-29.134398 69.346244 -53.130425
0.167564 54.013413 -35.591185
-3.314154 57.940228 -1.455973
1.448524 52.292867 -31.117022
-3.220038 57.848480 -41.277559
1.908040 51.582201 -56.106426
-33.136893 69.368762 -57.714243
-31.140611 69.404840 -15.502245
-3.410667 58.034314 -27.616460
4.111404 47.782698 -40.395590
6.658352 41.547158 -29.712981
-2.193721 56.812683 -51.007555
-25.463673 68.982984 -42.998750
-19.573826 67.658411 -17.337554
-5.399154 59.865175 -21.049347
-11.220310 64.001826 -23.074690
-16.390889 66.533047 -7.427548
-9.947837 63.246956 -10.999956
-20.117857 67.825640 -1.147162
-25.789222 69.028883 -53.703929
0.159791 54.023853 -16.231005
5.479102 44.807699 -30.994118
-29.085136 69.343236 -7.290889
-15.252321 66.081869 -3.438362
-11.642564 64.252319 -42.293745
-13.174748 65.073462 -39.287582
4.477077 47.083448 -15.025846
4.769579 46.473085 -8.079093
0.579996 53.459446 -44.952020
8.062186 36.319492 -25.966409
6.775417 41.198212 -6.177083
3.546479 48.862962 -25.067284
-5.582927 60.017963 -58.074878
-23.025295 68.551327 -11.573095
4.879129 46.215951 -45.588795
-20.469078 67.933601 -28.915599
8.364620 35.151622 -39.473957
3.401192 49.140783 -12.062636
-2.216012 56.838146 -28.767672
-0.832947 55.258219 2.825535
-6.242863 60.566630 -31.252591
4.272322 47.474987 -0.366375
-33.456482 69.362987 3.762054
-15.180352 66.053350 -54.234866
-1.950310 56.534625 -2.738997
-22.508617 68.436251 -48.293681
-9.600379 63.038565 -32.555755
-14.604833 65.775546 -5.403298
-11.205495 63.993037 -16.860477
6.777290 41.192627 -22.316911
-23.882024 68.742140 -28.091595
-3.537564 58.158019 -31.345703
-30.164617 69.409148 -46.159731
7.086659 40.086564 -16.137869
-19.599159 67.666198 -52.118776
7.325986 39.162386 -52.847280
-10.150364 63.367101 -60.408112
-29.970882 69.397319 -36.674438
5.656672 44.390907 -43.211307
-25.003920 68.918163 -52.687665
-26.359749 69.109322 -52.040662
-27.029887 69.203805 -5.084137
-29.428053 69.364174 -46.604190
3.066165 49.738664 -28.033510
0.155698 54.029350 -44.393134
4.159587 47.690561 -26.315591
-8.609601 62.339411 -60.568541
-31.520468 69.397975 -14.642621
-7.237670 61.371291 -23.848895
-10.701577 63.694097 -42.458748
-12.619151 64.800699 -5.789582
-15.376492 66.131074 -47.073707
-31.198572 69.403792 -18.489473
7.054216 40.211843 -61.076648
-13.664111 65.313710 -2.538804
1.947019 51.520154 -20.078974
-1.869997 56.442881 -57.164937
-17.876170 67.121616 -46.477470
-1.675597 56.220811 -35.331925
-4.176603 58.780985 -52.330403
3.834545 48.312115 -30.017942
-12.657188 64.819372 -39.784297
-32.318935 69.383545 -29.725276
-14.485362 65.716893 -41.633716
-16.031035 66.390449 -2.535068
-9.763994 63.137894 -42.872993
-29.186124 69.349402 -14.502393
-4.543541 59.138693 -39.506337
8.095931 36.189183 -26.890067
-11.936083 64.426444 -37.829961
-16.184602 66.451302 -33.480149
-3.926645 58.537313 -29.432383
-2.305354 56.940205 -3.787998
-31.825992 69.392453 -18.013949
0.235922 53.921597 -26.924364
-23.491188 68.655092 -46.144831
-6.597862 60.861774 -1.486305
-14.050744 65.503523 -38.610505
-5.115405 59.629268 -17.000230
4.802242 46.396419 -42.165523
-25.740147 69.021964 -12.211513
7.467159 38.617233 -14.257974
-21.019396 68.102762 1.135037
8.512502 34.580565 -42.120174
5.876400 43.875164 -0.279624
1.623388 52.035319 -30.380394
7.073352 40.137948 -59.140465
6.404972 42.302436 -3.126709
-8.815903 62.484990 -55.351083
-16.207319 66.460304 -18.318731
6.964706 40.557495 -34.347262
-9.526570 62.986481 -47.075770
7.048063 40.235603 -60.321257
-3.560340 58.180223 -28.579247
-0.870989 55.301676 -12.867466
3.226528 49.474780 -37.618332
7.614369 38.048773 -9.616101
-9.312011 62.835075 -16.371800
3.508628 48.935340 3.859839
-27.357861 69.237771 -37.632459
2.003121 51.430849 -39.121908
-24.578929 68.858243 -2.517072
-30.070713 69.403414 -16.115284
-9.573869 63.019858 -29.877716
5.449541 44.877084 -20.796752
6.733060 41.324470 -2.589582
-32.277606 69.384291 -45.532975
-6.690822 60.939060 -14.096918
-17.907705 67.134112 -51.559555
1.975354 51.475048 -42.258953
2.828009 50.117767 -15.774943
-28.971690 69.336309 -8.194634
-29.168161 69.348306 -45.242676
8.098821 36.178025 -21.667620
-31.847860 69.392058 -46.427908
7.320189 39.184771 -42.396262
-11.863835 64.383584 -37.083571
-3.394508 58.018561 -10.246035
7.504223 38.474107 -13.056635
-26.981042 69.196918 -58.662062
-7.725264 61.715367 -60.884267
-21.960703 68.314218 -33.534570
-24.168459 68.800371 1.540403
7.857347 37.110493 -31.380509
8.094602 36.194317 -25.049520
4.620259 46.809653 -37.597962
-27.961922 69.274654 -24.698819
3.922816 48.143320 -25.185337
3.351543 49.235723 -6.063188
-32.121606 69.387111 -52.195975
-19.975827 67.781981 -12.389910
-14.131831 65.543332 0.042437
-17.118948 66.821553 -43.952405
2.623029 50.444060 -19.377498
-24.733030 68.879970 -10.207202
7.443930 38.706934 -38.120392
-25.262048 68.954557 -44.353212
-11.001731 63.872157 -8.717208
-23.053702 68.557654 -50.039650
3.901446 48.184185 -23.947417
-3.865699 58.477900 -39.156659
7.199035 39.652613 -37.776584
-23.366266 68.627269 -59.224393
-26.581787 69.140627 2.000255
-9.249838 62.791202 -26.760864
-17.331050 66.905602 -16.558560
-8.529453 62.282853 -2.549010
2.026341 51.393886 -51.811355
0.865466 53.076012 -60.970799
1.632726 52.020455 -45.817520
-24.187745 68.803090 -21.745547
-25.902854 69.044904 -3.332493
-1.499355 56.019482 -10.803584
-0.660123 55.060796 -50.981581
6.082654 43.263203 -52.056024
-1.342151 55.839902 -26.462601
7.440941 38.718477 -49.629573
-26.267080 69.096257 -18.208688
8.115081 36.115235 -61.031946
-33.112312 69.369206 -4.335729
-7.218568 61.357811 -1.058432
7.226258 39.547490 -52.121372
-10.703746 63.695384 -37.613879
-6.543719 60.816760 -6.216139
-25.100119 68.931726 -58.890291
-14.084950 65.520316 0.987640
5.305955 45.214108 -16.962658
-18.309788 67.269860 -15.348859
-2.986182 57.620506 -9.583942
-19.018024 67.487564 -58.243607
6.009165 43.482261 -21.303629
-25.661399 69.010861 -59.552208
-6.106656 60.453388 -46.199249
7.846051 37.154114 -17.801065
-5.256263 59.746377 -15.799952
-22.786012 68.498033 -7.939872
5.846756 43.944742 -31.505498
-22.734505 68.486561 -13.976799
-9.404165 62.900105 -31.630287
-5.890284 60.273498 -15.187348
8.308758 35.367335 -36.747479
0.830296 53.123252 -7.968321
2.417022 50.771988 -6.424066
-10.720684 63.705432 -13.048670
6.541464 41.895580 -24.014674
-1.694500 56.242404 -17.993098
2.982996 49.871054 -12.291902
-17.093179 66.811342 -47.458753
-25.983170 69.056228 -40.313980
-0.031979 54.281433 -20.039720
-28.439943 69.303841 -2.776300
-13.101621 65.037562 -29.244482
-16.254861 66.479144 -9.104558
-24.816970 68.891805 -27.053772
-8.183480 62.038713 -39.664572
-10.379462 63.503008 -16.789677
4.428644 47.176063 -29.750304
3.519967 48.913658 -39.505087
8.052030 36.358713 -41.888297
-1.972034 56.559441 -20.309409
5.578400 44.574625 -9.415691
-19.145148 67.526640 -43.823004
-21.763943 68.270395 -14.480676
-21.577772 68.228930 -16.197950
-28.854306 69.329142 -29.799134
2.145785 51.203752 -37.641599
1.627417 52.028905 -59.987328
1.177130 52.657395 -18.163249
2.516003 50.614428 3.782205
2.129462 51.229735 -32.776047
1.942623 51.527152 -10.389985
-1.220667 55.701127 -9.931896
6.896702 40.820096 -19.892958
-26.880905 69.182800 -1.710049
-11.444202 64.134645 -14.102980
-8.560523 62.304778 -6.966769
0.451852 53.631565 -17.001492
-1.697418 56.245737 3.238993
6.036070 43.402062 -26.533954
-29.108372 69.344655 -9.323683
-15.813164 66.304113 -58.718855
-26.694145 69.156469 -16.323188
1.490319 52.236729 -47.475054
-30.858866 69.409931 -25.236608
-7.290382 61.408487 -38.516106
-8.033464 61.932852 -46.744074
-7.459478 61.527812 -24.785348
-8.880385 62.530493 -45.085903
-1.294802 55.785814 0.707507
-26.682647 69.154848 -45.739360
3.303853 49.326918 -35.731780
-15.179918 66.053178 -59.284337
3.875891 48.233051 -57.418616
3.718405 48.534201 -18.124094
7.125644 39.936021 -49.151921
1.104956 52.754337 -43.904686
1.804251 51.747416 -34.513945
-22.517156 68.438153 0.210658
-15.678972 66.250937 -14.934378
-27.471209 69.244692 -45.362513
2.023079 51.399079 -31.044959
-3.488524 58.110213 -54.154957
8.465056 34.763781 -55.387799
7.830892 37.212651 -19.701874
-8.209061 62.056765 -57.911178
5.677859 44.341177 -58.299442
8.271397 35.511609 -43.779085
-19.807574 67.730262 -55.134577
-11.636095 64.248482 -48.398232
6.656570 41.552470 -32.364012
-22.444433 68.421955 -52.251578
-0.857980 55.286815 -6.231588
-18.311345 67.270339 -30.896738
-0.588475 54.978950 -33.042436
-8.832469 62.496680 -47.119462
7.069007 40.154726 -24.562973
6.230723 42.821839 -6.550372
3.628572 48.705981 -38.726251
3.519383 48.914775 0.550176
-5.514963 59.961458 -21.940817
-26.449900 69.122032 -7.313756
-17.623917 67.021656 -13.302737
-28.285867 69.294434 -58.400893
8.557184 34.408021 -43.148407
7.346136 39.084572 2.097068
1.352164 52.422295 1.855006
-26.183045 69.084408 -47.666833
3.583371 48.792416 -48.588082
-15.329306 66.112376 -36.255532
-6.662929 60.915870 -51.926799
-2.925381 57.561235 2.463743
-18.742469 67.402862 -2.633544
-12.511456 64.747827 -44.977682
-33.412967 69.363773 -7.229078
6.533429 41.919531 -15.537063
-13.826698 65.393530 -8.715077
-2.494582 57.141271 -7.436066
1.918485 51.565574 -16.094245
4.394972 47.240451 -48.847048
-5.029520 59.557864 -10.166879
-27.669505 69.256799 -42.662478
-23.372648 68.628690 -27.154886
-28.460992 69.305127 -48.903104
4.305302 47.411922 -21.023939
-7.792758 61.762995 -7.991940
-33.169495 69.368173 -2.932024
6.123271 43.142134 3.832053
-6.214380 60.542949 -24.285880
-16.086868 66.412573 -23.846472
-31.754479 69.393746 -57.779766
8.369725 35.131910 -54.263676
-13.464808 65.215864 -41.417143
-13.845171 65.402599 -9.677389
5.239922 45.369100 -49.011537
6.072687 43.292914 -1.129019
6.653872 41.560514 -57.694230
-2.225629 56.849133 -40.162598
-7.990083 61.902241 -16.778312
-17.412459 66.937862 -54.951073
-6.777619 61.011223 -60.763549
8.270375 35.515557 -3.545585
-8.909086 62.550746 -45.994351
-24.624766 68.864706 -32.754318
-1.532160 56.056957 -18.745881
-0.913473 55.350207 -53.402770
-25.614523 69.004252 -41.150315
-30.956734 69.408163 -13.490169
8.075683 36.267373 -36.978154
-7.935433 61.863676 -38.975851
-13.211448 65.091480 -61.051972
-2.996548 57.630612 -6.819780
8.547221 34.446496 -18.415651
-23.750355 68.712815 -3.765119
1.834728 51.698901 2.005989
-9.407599 62.902528 -5.841917
-5.793723 60.193218 -1.638759
-22.935301 68.531283 3.823259
-5.961597 60.332787 -13.379047
-30.027855 69.400798 -13.406224
8.315876 35.339850 -52.283789
-1.809063 56.373273 -23.086080
-5.907839 60.288093 3.628671
0.805388 53.156707 -18.683081
2.387063 50.819678 -31.372830
-1.980942 56.569617 -27.988615
5.870500 43.889011 -8.797732
-15.310171 66.104794 -51.848739
-11.694507 64.283134 -53.376597
7.054935 40.209066 3.659515
-1.029882 55.483185 -19.071809
1.438628 52.306158 -55.940177
-0.101594 54.374938 -49.003514
-26.860471 69.179919 -59.595086
7.253902 39.440741 3.046399
-25.144413 68.937971 -46.861803
-15.635398 66.233670 2.618296
-12.253245 64.614594 -26.612594
7.609883 38.066095 -25.871175
-13.794858 65.377899 -48.667533
-6.229175 60.555250 -10.643847
-2.160797 56.775072 -37.870918
-2.445061 57.092995 -3.022176
-24.849007 68.896322 -45.262118
-10.768484 63.733789 -0.291537
-31.053539 69.406413 2.156973
-18.011946 67.175419 2.377541
-24.606050 68.862067 -26.153168
-5.162872 59.668732 -45.263027
-23.640857 68.688427 -49.451674
-30.123642 69.406646 -41.279519
-17.701885 67.052553 -28.815390
-5.892755 60.275552 -37.060008
3.967438 48.057994 -36.962986
-22.544464 68.444235 -54.100886
-9.369564 62.875688 -48.658088
-27.816534 69.265777 -35.693959
5.646612 44.414521 -18.751661
8.526289 34.527324 -57.865890
-24.956145 68.911427 -50.589457
-8.860072 62.516159 -25.876372
5.247073 45.352314 -27.389465
-12.124769 64.538378 -56.924628
1.364494 52.405733 -29.587584
4.653072 46.746550 -0.982032
-16.295897 66.495405 -28.554290
-30.227151 69.412966 -42.767481
5.430155 44.922586 -6.539961
3.789346 48.398545 2.800658
-3.465013 58.087293 -0.089518
-6.709846 60.954877 -33.340455
3.739648 48.493579 -44.096174
-11.898079 64.403899 -19.421336
-4.390315 58.989321 -9.899125
7.305230 39.242533 -12.250196
-10.024183 63.292246 -26.753099
7.081121 40.107950 -54.464451
7.920258 36.867557 -33.858804
8.126264 36.072051 -40.795042
-2.244026 56.870148 -5.464105
-30.811864 69.410781 -23.554571
-11.416540 64.118235 -40.255022
-4.085212 58.691892 -27.590220
-13.478388 65.222531 -6.889806
-6.297474 60.612033 -16.663395
-4.116332 58.722230 -26.526320
-8.499735 62.261883 -34.966139
6.574236 41.797893 -31.482424
-22.619368 68.460918 -33.927570
-0.211639 54.522746 -50.618513
-9.121077 62.700340 -43.050329
6.542685 41.891941 -60.577133
7.238977 39.498377 -25.147277
3.281419 49.369815 -36.698660
-12.484737 64.734710 -9.634496
-16.735296 66.669524 -18.970055
-10.256045 63.429794 -24.261682
-6.711066 60.955891 -11.633708
-14.578617 65.762676 -28.831328
-29.927327 69.394659 -2.273286
-19.410803 67.608299 -32.680438
-30.033540 69.401145 -52.817496
-3.058079 57.690594 -0.661999
-29.663391 69.378544 -5.867956
0.913391 53.011641 -47.744897
-22.618348 68.460690 -39.405350
-24.511211 68.848696 -22.930062
6.980647 40.495938 -50.034033
-28.257057 69.292675 -59.254857
-18.387695 67.293808 -54.105814
-6.622274 60.882070 -34.907937
8.515939 34.567292 -14.128232
-2.410380 57.059187 -15.024051
-13.267864 65.119177 -36.433731
-0.800278 55.220901 -4.702617
-8.519260 62.275661 -44.387071
-3.543723 58.164023 -7.426505
-3.039438 57.672422 -29.318940
-0.881062 55.313183 -41.373808
-6.484468 60.767499 -37.437457
-16.226761 66.468009 -45.871549
-12.709143 64.844879 -30.552892
5.529124 44.690285 -4.482898
-29.681891 69.379673 -50.042710
4.550267 46.943493 -4.534745
-8.799005 62.473066 -37.086562
5.347270 45.117133 -12.818423
-32.504923 69.380183 -54.308910
-8.418119 62.204289 -36.215107
5.453516 44.867753 -40.754316
-6.219472 60.547183 -60.214132
-32.435162 69.381444 -0.389347
6.926966 40.703230 -39.975307
-3.064561 57.696913 -50.031633
6.423219 42.248045 -20.670742
-31.628691 69.396019 -44.734707
-27.848426 69.267724 -48.175816
6.641842 41.596373 -13.986049
1.264709 52.539761 -23.332864
-9.293373 62.821923 -10.659644
-13.530301 65.248017 -0.412528
-25.236146 68.950905 -54.422833
5.465613 44.839359 -37.850046
-25.159871 68.940151 -19.030734
-4.989840 59.524874 -60.529889
6.654204 41.559524 -20.125445
-8.937562 62.570841 -33.337707
2.928123 49.958402 -43.356637
3.812565 48.354145 -58.786219
-2.439124 57.087208 -23.419215
-5.544441 59.985966 -58.867187
-11.931685 64.423835 -57.830213
-12.622774 64.802477 -57.642625
-27.167419 69.223196 -25.291815
-0.264479 54.593720 -36.002977
-3.618270 58.236695 -42.006187
1.401953 52.355419 -39.360677
-13.781793 65.371485 -4.267493
-29.921795 69.394322 -6.836081
-30.883234 69.409491 -24.336054
3.201996 49.521691 -17.746498
-10.983692 63.861457 -48.159030
5.666417 44.368033 -34.058004
0.187913 53.986081 -8.123599
-23.963181 68.760216 -19.865250
2.601115 50.478944 -41.591903
-0.570864 54.958832 -29.646173
-7.361452 61.458639 2.909441
-31.240515 69.403034 0.572839
6.446286 42.179288 -6.168516
-32.330778 69.383331 -23.607115
3.869078 48.246079 -39.808766
-31.676836 69.395149 -0.522976
6.318708 42.559573 -26.254939
7.769242 37.450719 -54.069641
6.453357 42.158211 -49.761527
-9.312701 62.835562 -11.761649
-23.799453 68.723750 2.866773
-29.054956 69.341393 0.389901
-9.459601 62.939224 -23.881338
-28.338456 69.297645 -13.091971
-31.109151 69.405408 -48.735937
4.712933 46.606045 -3.510200
-4.187346 58.791457 -15.506660
4.091170 47.821390 -21.608672
-31.235881 69.403118 -53.148090
-23.887857 68.743439 -32.102110
8.560797 34.394071 -0.146815
3.014005 49.821693 -58.035221
3.602859 48.755150 -40.421842
-19.025602 67.489893 -54.509230
0.266638 53.880339 -25.187708
-2.290884 56.923676 -36.116864
-1.037951 55.492404 -46.751097
6.425281 42.241899 -25.353732
-9.797125 63.157548 -58.207647
-8.251481 62.086699 -31.660847
-31.915191 69.390841 -47.244342
-6.275835 60.594043 -26.503827
-6.089127 60.438815 -50.694109
7.640339 37.948487 -15.657141
-23.726889 68.707588 -35.070717
-14.070943 65.513439 -7.728551
-21.992690 68.321342 -9.830720
4.957139 46.032845 -15.147824
5.999727 43.510394 0.435793
-21.991056 68.320978 -7.897547
5.871974 43.885550 -30.245996
-6.648486 60.903863 -43.862313
-14.538406 65.742935 -36.198181
-21.562292 68.225482 -11.047434
4.779316 46.450231 -43.557189
-23.063954 68.559937 -34.632313
-32.351398 69.382958 -55.938473
3.739983 48.492938 -1.678761
-21.278994 68.162385 -29.519226
-1.012368 55.463179 -50.097316
-13.391576 65.179912 -30.200174
4.026776 47.944526 -46.997164
7.565627 38.236994 3.028136
6.053775 43.349287 -36.456846
-27.979534 69.275729 -44.545359
4.231777 47.552517 -53.315578
-16.815831 66.701438 3.661804
6.185485 42.956686 -57.770489
-27.762223 69.262461 -52.164755
-25.878068 69.041410 -61.077739
8.474229 34.728359 -1.883142
2.031106 51.386300 -41.347513
-14.800387 65.871551 -34.825395
-8.534356 62.286313 -28.583326
7.837675 37.186460 -0.672308
-12.679248 64.830203 -41.707834
-31.914677 69.390850 -35.443354
-21.025927 68.104770 -2.037699
5.746384 44.180334 -24.701938
-2.875405 57.512516 -32.463977
-1.134045 55.602175 -48.124990
-2.850387 57.488127 -24.275101
-3.804437 58.418179 -51.108455
-27.949422 69.273891 -13.840894
-7.821724 61.783436 -52.817367
4.576578 46.893181 -50.667578
-25.092482 68.930650 -30.882995
5.415189 44.957715 -19.950305
4.403667 47.223824 -40.893139
-4.858938 59.416043 -14.949407
-17.780975 67.083893 3.815135
7.624813 38.008441 2.047351
5.598275 44.527976 0.420099
-7.528711 61.576667 -11.751208
3.728693 48.514527 -35.937086
4.385017 47.259488 -20.158156
-30.624139 69.414173 1.398804
2.495563 50.646965 -23.205216
-17.110923 66.818373 -29.681915
7.970469 36.673664 -23.521716
-28.757507 69.323232 -43.083519
-21.765885 68.270827 -37.185471
-14.904144 65.922490 -38.747510
-7.204674 61.348007 -42.143287
-4.793146 59.361344 -32.355736
-23.126107 68.573780 1.359454
7.881886 37.015735 -26.959601
1.149877 52.693999 -28.293616
-27.395385 69.240062 -7.265367
-8.796146 62.471049 -25.116196
-9.852787 63.190569 -7.181933
0.831275 53.121936 -42.222324
-2.045752 56.643653 1.432834
1.691167 51.927427 -22.822892
-0.675083 55.077885 0.533986
8.377899 35.100346 -32.511551
-11.166063 63.969645 -15.589412
2.907867 49.990646 -36.254828
-19.527770 67.644254 -23.907194
-23.704684 68.702643 -58.148531
6.808268 41.100289 -27.718406
-9.322884 62.842747 -21.101065
-25.737455 69.021585 -52.650813
3.005098 49.835872 -23.641088
8.511280 34.585284 -20.969157
-32.240631 69.384960 -32.598368
-5.229158 59.723841 -18.907703
4.545214 46.953156 -55.162754
-24.356464 68.826878 -58.737100
-19.425565 67.612837 -46.401765
2.996118 49.850165 -29.519264
0.470604 53.606379 -45.789292
-8.410478 62.198897 -53.128938
0.916349 53.007668 -25.187741
7.611646 38.059288 -49.241154
5.650515 44.405359 -16.117482
8.575530 34.337178 -6.315961
-1.713475 56.264079 -24.180657
6.044330 43.377441 -46.654396
-10.335619 63.477000 -25.181911
4.911755 46.139371 -33.241462
0.297195 53.839296 -18.828598
-2.004404 56.596419 -0.792937
7.916874 36.880625 -25.355782
7.355243 39.049408 -15.003003
-29.315610 69.357309 -23.853942
-11.139664 63.953984 -19.006580
-19.507876 67.638139 -50.178100
-15.231409 66.073583 -39.538903
-29.808168 69.387384 0.686813
4.529673 46.982872 -2.173651
-32.849096 69.373963 -12.068004
-4.230680 58.833701 -20.008270
1.991736 51.448972 -29.011130
-33.265860 69.366432 -55.788788
-1.659284 56.202176 -7.723087
-10.521600 63.587329 -20.269630
-17.957996 67.154041 -43.829317
6.169928 43.003058 -41.313246
4.282158 47.456177 -58.890098
-23.828412 68.730200 -34.030360
-4.055539 58.662965 -4.833100
-1.173958 55.647769 -12.180472
-22.608112 68.458410 -10.568101
0.365432 53.747643 -49.267346
-7.517258 61.568585 -29.489742
-13.518344 65.242147 -19.937247
7.695613 37.735042 -22.035788
-20.751354 68.020369 -9.004554
-11.039883 63.894790 -2.768907
-33.168552 69.368190 -17.983778
-23.967640 68.761209 -59.649449
1.811431 51.735986 2.832757
-8.700837 62.403793 3.747800
4.157786 47.694006 -35.996967
5.948992 43.661624 -18.402219
3.803456 48.371563 -54.725053
1.755199 51.825498 -54.558446
3.146679 49.610498 -24.886527
7.140306 39.879402 1.496520
-11.379078 64.096011 -35.340691
-2.314006 56.950089 -53.081026
-1.772721 56.331759 -59.470270
5.147884 45.585130 -17.739421
-4.368129 58.967693 -36.209090
6.421909 42.251951 -42.506548
6.635999 41.613789 -25.835922
-12.680038 64.830591 -11.638957
-30.968465 69.407951 -26.633003
5.798858 44.057169 -29.387944
-17.690704 67.048122 -38.163138
-7.786650 61.758685 -19.237955
-19.042584 67.495113 -51.447235
-14.804535 65.873588 -43.784508
-1.524385 56.048075 -31.853493
2.479915 50.671873 -13.239639
-7.394400 61.481890 -20.144092
-31.631915 69.395961 -40.656541
-4.993627 59.528022 -3.118628
-27.178111 69.224703 -32.945929
-16.281284 66.489614 -1.188639
-10.086402 63.329156 -20.834539
-8.227945 62.070091 -17.765834
-15.897569 66.337560 -51.336879
6.429782 42.228482 3.747580
5.307557 45.210347 -3.018838
4.848701 46.287371 -4.994090
-6.796026 61.026526 -59.074737
-26.506363 69.129993 3.836518
-22.611058 68.459067 -51.014858
-22.951417 68.534873 -41.664353
5.291644 45.247698 3.770461
0.085479 54.123667 -33.744624
2.912597 49.983117 -34.670022
4.797924 46.406553 -22.563057
-16.289934 66.493042 -53.582161
-5.512130 59.959103 -52.849073
-33.130580 69.368876 -52.133857
-9.983006 63.267819 -39.124688
1.759349 51.818892 -52.967865
5.347291 45.117085 -24.746855
-5.841016 60.232537 -51.597449
7.463202 38.632513 -32.444611
-2.714488 57.355646 3.293167
-0.836971 55.262816 -8.648159
-3.871794 58.483842 -1.636337
-22.254636 68.379683 -22.398383
8.526380 34.526974 -16.155122
3.153079 49.600311 -2.807188
-25.451784 68.981308 -58.194369
3.842630 48.296654 -16.227543
7.440852 38.718822 -30.801943
-24.208278 68.805985 -53.249396
0.394081 53.709162 -39.210230
6.045059 43.375269 -17.633505
-11.062354 63.908121 2.483614
-28.817106 69.326871 -16.997049
-27.433303 69.242377 -57.922085
0.187066 53.987218 -0.497134
5.086953 45.728148 -48.312054
-12.396714 64.691496 -42.494350
6.182906 42.964373 -39.613584
8.573366 34.345533 -0.951196
-10.883493 63.802015 -14.564551
-31.396441 69.400216 -3.795065
7.683094 37.783384 -14.279505
5.116771 45.658158 -10.614627
-24.514379 68.849142 -9.394715
-31.969664 69.389857 -20.913666
1.102312 52.757888 -20.943604
-28.034934 69.279112 -23.807852
-3.078337 57.710343 1.304615
-15.799013 66.298506 -49.791974
-31.280822 69.402306 -42.580562
-20.148560 67.835077 -51.466562
-30.119802 69.406412 -24.410046
-9.891398 63.213474 -3.205391
-27.217850 69.229222 -34.946987
-24.154652 68.798424 0.567521
7.057551 40.198965 -43.677766
0.628785 53.393915 -28.452913
3.088176 49.703626 -3.808415
0.822614 53.133570 -58.532131
6.550098 41.869845 -48.214118
2.508625 50.626172 -45.511495
-6.135047 60.476992 -48.224830
-6.673706 60.924830 -10.068087
1.123164 52.729880 -2.975244
6.305899 42.597753 -24.509813
7.803933 37.316754 -15.051006
8.476482 34.719658 -14.979313
-11.405597 64.111744 -38.393803
-18.652805 67.375300 -30.036002
3.592281 48.775378 -7.696841
-7.160116 61.316564 -53.304734
-3.667804 58.284983 -45.699506
1.525121 52.189984 -25.979326
-15.774107 66.288637 0.041913
-23.850912 68.735211 -4.592258
2.169240 51.166415 -39.892758
-25.452755 68.981445 -8.072265
-16.517992 66.583414 -41.187223
-12.256111 64.616295 -2.344199
6.910202 40.767965 -59.685132
-33.061727 69.370121 0.167419
-27.629712 69.254370 -59.832104
-18.142994 67.218590 0.390230
-22.299911 68.389767 -59.923544
2.592589 50.492516 -32.635843
-19.665752 67.686668 -45.348807
-22.087951 68.342559 -6.463083
5.863593 43.905224 -51.475939
-8.996976 62.612766 -53.739482
-33.352794 69.364860 -49.880353
-7.442514 61.515841 -31.567756
-11.644585 64.253518 -50.936068
-28.469633 69.305654 -15.120932
-14.865040 65.903292 -10.860588
-24.063847 68.782636 -1.564724
-25.418908 68.976672 -6.278920
7.367329 39.002737 -18.080449
2.323095 50.921505 -50.561666
-17.420276 66.940960 -57.684001
7.519618 38.414660 -59.657790
6.657616 41.549354 -40.647417
6.932897 40.680325 -29.809812
7.818809 37.259311 -49.134448
2.447273 50.723834 -10.650406
-10.020182 63.289873 -28.176188
-23.154585 68.580123 -56.839741
5.461163 44.849804 -36.077487
-3.848900 58.461524 -44.771061
5.085458 45.731657 -57.914929
1.641896 52.005858 -17.001908
-29.350981 69.359468 -28.900957
-21.218802 68.148979 -44.445415
-33.147184 69.368576 -53.469261
-29.828680 69.388636 -54.943858
-3.157666 57.787676 -6.004515
8.010650 36.518502 -48.560651
-14.098639 65.527037 -43.523484
-4.444064 59.041718 -48.897369
-20.731691 68.014325 -37.160438
-7.835002 61.792806 -55.031493
-3.866008 58.478202 -36.690946
4.271524 47.476513 -3.847832
8.495869 34.644796 -44.159815
1.433847 52.312580 -50.031565
1.639054 52.010381 -23.904430
6.069716 43.301770 -34.065660
-19.721190 67.703709 1.990924
5.535770 44.674687 -42.436502
-33.248102 69.366752 -39.335500
-18.371868 67.288943 -9.287449
-26.275844 69.097492 -0.863284
-31.869302 69.391670 -39.122115
-26.474213 69.125460 -8.897982
6.274701 42.690749 -48.666890
5.337822 45.139308 -58.743190
-16.839906 66.710978 -31.572463
1.202080 52.623882 -3.934294
-0.552701 54.938084 -58.168723
-7.925832 61.856901 -37.922057
7.374306 38.975793 0.314011
-4.144678 58.749862 -50.175989
-5.848590 60.238834 -23.452605
-11.027044 63.887174 -46.651723
-21.148835 68.133396 -15.476226
-33.358908 69.364750 -44.300739
-3.934738 58.545203 3.514075
-1.523407 56.046958 -46.513371
-12.077254 64.510191 -3.646901
-17.625348 67.022223 -1.910629
-14.105919 65.530610 -34.309608
-24.269611 68.814633 -60.852252
-6.005920 60.369637 -18.120219
6.741283 41.299959 -9.279522
7.238492 39.500250 -46.541222
7.888368 36.990705 -50.580015
-11.956947 64.438821 -34.783216
-19.944079 67.772222 -58.458337
3.964415 48.063773 -49.080441
-14.173072 65.563578 -6.303314
5.356964 45.094380 -28.191498
-31.675063 69.395181 -5.023091
5.701315 44.286121 -28.515915
-17.634974 67.026038 -27.946771
4.555078 46.934292 3.664378
1.911743 51.576307 -47.805939
-4.489335 59.085850 -54.520143
-9.031936 62.637437 -38.959903
-7.884103 61.827455 -42.763345
-10.750655 63.723212 -56.721282
3.225507 49.476732 -7.460353
-14.066835 65.511422 -25.445893
3.824329 48.331649 -7.091129
-33.139499 69.368715 -47.961652
7.826793 37.228482 -28.182444
-18.554046 67.344942 -3.962042
2.057016 51.345057 3.526421
5.991854 43.533860 -15.764301
-12.620509 64.801365 -56.393131
8.311128 35.358186 -28.655364
-13.037409 65.006037 -27.052907
-15.042883 65.990602 3.290509
7.479120 38.571044 -1.241245
-0.870544 55.301168 -36.051180
8.366974 35.142533 0.083764
-17.611441 67.016713 -59.161362
-6.996086 61.192855 -50.754488
-10.425601 63.530380 -29.922058
-27.652073 69.255735 -3.653950
-3.056119 57.688684 -30.391826
-14.354552 65.652674 -35.421600
6.479820 42.079328 -35.245816
-32.200168 69.385691 -15.334919
7.172316 39.755790 -34.761729
-25.656456 69.010164 -39.000202
5.762887 44.141600 -38.121888
-15.544315 66.197577 -46.262904
0.921067 53.001331 2.382057
7.535924 38.351693 -21.463432
-11.877667 64.391790 -6.454440
-3.201827 57.830727 -44.953687
7.958865 36.718474 -45.163272
-4.504925 59.101048 0.934772
-6.543394 60.816489 -21.641419
-10.369912 63.497343 -13.799816
0.349919 53.768479 -21.128642
-18.895980 67.450049 -42.759186
-16.352964 66.518019 -52.114761
-17.449491 66.952537 -31.038334
3.633696 48.696183 -28.914761
4.216793 47.581169 -12.675269
2.056212 51.346336 -49.711837
-9.984571 63.268747 -37.673477
8.540866 34.471034 -22.223396
-26.246737 69.093388 2.742511
-26.308447 69.102089 -29.953372
6.893915 40.830860 -35.857635
7.275100 39.358882 3.861055
-12.365526 64.676185 -29.007878
-20.489871 67.939992 -44.766827
-31.648317 69.395664 -36.207614
-24.075902 68.785321 -46.692608
0.522028 53.537307 -52.605790
-12.385694 64.686086 -47.521821
7.561762 38.251918 -29.104879
-26.207593 69.087870 -2.346894
-4.541358 59.136564 -43.430874
-12.348238 64.667697 -8.640908
-28.308493 69.295815 -35.059296
1.333044 52.447976 -19.267862
-8.208731 62.056532 0.449374
5.424459 44.935955 -0.454682
-29.308698 69.356887 -41.086879
3.983122 48.028002 0.297382
-1.401166 55.907318 -53.250203
-29.022734 69.339426 -51.213013
-32.800182 69.374847 -25.264437
6.738453 41.308393 -52.370647
-7.368580 61.463669 -1.927660
-15.152653 66.042374 -28.136194
-16.162336 66.442479 -30.018620
6.418085 42.263349 -17.833635
-2.355626 56.997633 -39.100633
-29.595186 69.374379 -0.565230
-25.147143 68.938356 -60.642107
-13.107128 65.040265 -4.140052
-26.787775 69.169670 -49.472440
-22.207991 68.369294 1.057793
-27.540850 69.248944 -12.503230
-33.446843 69.363161 -30.542926
-30.893040 69.409314 -11.425775
-7.784813 61.757389 -3.648003
2.758858 50.227844 -44.561441
-29.996586 69.398888 -19.217571
-8.219967 62.064461 -10.737297
5.794231 44.068029 -14.080507
-23.662553 68.693259 -45.176836
-31.034681 69.406754 -51.199454
5.354015 45.101300 -15.854890
-21.403429 68.190100 -18.886949
-13.122964 65.048040 2.516752
-20.761216 68.023401 -17.049857
-24.817402 68.891866 -30.051884
-20.927412 68.074487 -33.484079
-1.666861 56.210831 -43.829132
-20.875919 68.058659 -45.534400
8.005242 36.539385 -22.699833
