5.432801 -22.086317 -37.983471
6.269710 -22.033735 -2.710691
5.888736 -22.057671 -46.628092
5.138314 -22.104820 -32.297163
11.986795 -21.674532 -50.148777
7.362908 -21.965049 -18.569377
9.444609 -21.834257 -10.148312
12.042097 -21.671057 -49.175191
9.440140 -21.834537 -6.996539
7.118469 -21.980407 -48.518543
9.321616 -21.841984 -42.657792
5.544243 -22.079316 -6.261958
9.451640 -21.833815 -42.156208
7.461886 -21.958831 -58.435985
7.085797 -21.982460 -38.526059
7.907876 -21.930809 -24.923074
6.838227 -21.998015 -43.712561
9.623680 -21.823006 -29.195526
8.709631 -21.880435 -36.776609
4.798046 -22.126199 1.237233
6.668954 -22.008650 -34.922942
7.224861 -21.973723 -30.686038
5.178856 -22.102273 -55.164207
8.116228 -21.917718 -37.935092
5.294386 -22.095014 1.634195
4.841652 -22.123459 -44.146099
5.600486 -22.075782 -24.497151
11.429798 -21.709528 -32.432070
7.363598 -21.965006 -13.440989
9.970394 -21.801222 -9.580906
7.668502 -21.945849 -54.776166
5.421025 -22.087057 -60.796427
5.475863 -22.083612 -42.601592
10.693343 -21.755799 -42.831528
8.512167 -21.892842 -53.333304
4.824169 -22.124558 -21.431660
6.704469 -22.006419 -55.979820
4.827995 -22.124317 -35.414338
7.604653 -21.949861 -24.587223
10.391826 -21.774743 -26.963715
9.152172 -21.852630 -37.981208
10.420839 -21.772920 -58.376553
5.175758 -22.102467 -7.289164
5.446879 -22.085433 -17.388717
6.840527 -21.997870 -50.549261
7.318370 -21.967848 -2.728231
8.524355 -21.892076 -16.180072
5.455152 -22.084913 -60.002374
5.197002 -22.101133 -36.471254
8.385905 -21.900775 -30.460029
10.664465 -21.757613 -47.489163
7.466274 -21.958555 -15.879238
6.238657 -22.035686 -16.877968
10.885115 -21.743750 0.478162
11.603523 -21.698613 -3.867455
7.081375 -21.982738 -35.169473
8.572104 -21.889076 -58.022121
6.865136 -21.996324 -11.723074
8.354724 -21.902734 -44.231950
9.478701 -21.832115 -51.909168
11.395534 -21.711681 -3.442913
9.405965 -21.836685 -38.802974
5.304067 -22.094406 -44.302615
7.289515 -21.969661 -7.531230
6.047808 -22.047677 -21.298850
9.827542 -21.810197 -3.927784
7.326310 -21.967349 -7.211819
11.600272 -21.698817 -39.512636
6.667540 -22.008739 -59.139527
7.174436 -21.976891 -40.243392
6.223239 -22.036654 -59.083796
4.840225 -22.123549 2.876320
12.044282 -21.670920 -14.144125
7.189599 -21.975938 -21.298949
8.897004 -21.868662 -3.615084
5.054717 -22.110072 -4.838041
4.800174 -22.126065 -10.153915
5.212067 -22.100186 -18.847111
11.637889 -21.696453 -30.025618
7.084056 -21.982569 -39.509838
7.359596 -21.965257 -9.823425
8.930013 -21.866588 -58.355665
9.031557 -21.860209 -8.542925
8.207087 -21.912010 -35.470471
8.857841 -21.871123 -43.834602
10.109174 -21.792502 -60.447797
6.580797 -22.014189 -2.648798
5.805328 -22.062912 -34.742050
7.923141 -21.929850 -55.876182
10.901604 -21.742714 -9.299596
10.343671 -21.777769 -36.713509
6.294934 -22.032150 -40.616021
9.524810 -21.829218 -47.541977
4.838111 -22.123682 -46.367882
6.226217 -22.036467 -45.157407
8.738768 -21.878604 -19.288399
6.024785 -22.049123 3.030447
11.981646 -21.674855 -20.375126
11.052278 -21.733247 -40.585077
10.274045 -21.782143 -23.068642
8.670563 -21.882890 3.850306
8.129548 -21.916881 -50.509394
10.440357 -21.771694 -9.499702
9.202568 -21.849464 -3.701609
10.928730 -21.741010 -57.108018
10.715617 -21.754400 -26.692912
4.806074 -22.125694 -13.770675
4.894097 -22.120164 -14.156003
5.916748 -22.055911 -48.803253
8.938502 -21.866055 -11.250075
7.945169 -21.928466 -20.522759
7.276043 -21.970507 -3.252046
8.101314 -21.918655 -60.492886
5.389790 -22.089020 -55.885634
7.251949 -21.972021 -43.608377
11.283179 -21.718740 -57.496193
11.941102 -21.677403 -45.585613
4.848759 -22.123013 -51.309202
5.188170 -22.101688 -34.276949
7.714685 -21.942947 -0.451245
6.433872 -22.023420 2.631765
12.045687 -21.670832 2.149919
8.469889 -21.895498 -34.706523
9.519177 -21.829571 -19.767619
11.418466 -21.710240 -6.347503
4.805971 -22.125701 -26.007778
7.894054 -21.931678 2.966842
4.852335 -22.122788 -58.846960
8.271318 -21.907974 -11.825981
6.387064 -22.026361 -60.173583
10.134390 -21.790918 -38.474528
5.067645 -22.109260 -33.132919
10.249215 -21.783703 -25.912074
5.948419 -22.053921 0.946477
7.513152 -21.955610 -25.910633
8.914506 -21.867563 -31.002124
9.303467 -21.843125 2.512404
8.024280 -21.923495 3.455931
9.857028 -21.808344 -33.370744
8.757005 -21.877459 -9.623751
10.235299 -21.784578 -43.321440
6.057327 -22.047079 -33.312719
7.745379 -21.941019 -2.722318
6.126306 -22.042745 -27.530419
8.447653 -21.896895 -13.145834
5.379771 -22.089649 -16.208764
9.180529 -21.850849 -24.932269
8.763977 -21.877020 -59.406099
9.404368 -21.836785 -43.951969
5.057131 -22.109921 -45.314985
6.614864 -22.012049 -8.870209
9.271736 -21.845118 -4.755475
9.710967 -21.817521 -53.760502
10.514276 -21.767050 -37.470918
7.381262 -21.963896 -8.524728
8.371929 -21.901653 0.936115
5.840760 -22.060685 -31.441535
5.530940 -22.080151 -3.672593
7.017960 -21.986722 -37.155475
6.525745 -22.017648 -43.400073
10.048422 -21.796319 -22.401147
6.257598 -22.034496 -48.711034
10.401417 -21.774141 -50.838126
5.028738 -22.111705 -16.073974
6.371661 -22.027329 -26.953932
11.498893 -21.705186 -54.769209
6.755907 -22.003187 -49.709613
7.251733 -21.972034 -36.507400
11.003738 -21.736297 -24.065814
8.933950 -21.866341 -4.572924
7.714833 -21.942938 -21.041823
6.616745 -22.011931 -57.677218
5.289495 -22.095321 -53.994952
10.752031 -21.752112 -57.786920
11.191084 -21.724526 -56.280864
7.796433 -21.937811 -40.011680
9.538661 -21.828347 -25.151676
8.613937 -21.886448 -36.383018
9.129241 -21.854071 -9.622644
9.069171 -21.857845 -4.219912
9.463353 -21.833079 -22.242967
5.450130 -22.085229 -25.711075
8.015858 -21.924025 -41.232517
7.021606 -21.986493 2.321195
6.487636 -22.020042 -17.072348
5.507617 -22.081617 -6.791240
11.101496 -21.730155 -51.149047
6.338973 -22.029383 -38.907085
9.469832 -21.832672 -41.074245
9.463567 -21.833065 -12.842792
6.681540 -22.007859 -52.352317
5.444665 -22.085572 -11.120690
10.477107 -21.769385 -16.918392
8.466812 -21.895691 -54.135495
6.607628 -22.012503 -7.416928
5.047761 -22.110509 -25.024584
8.628666 -21.885522 -43.438374
11.119911 -21.728998 -35.754156
8.754699 -21.877603 -60.181311
10.061831 -21.795477 -2.652028
11.530946 -21.703173 -38.859167
4.873990 -22.121427 -32.731886
7.195962 -21.975538 -31.239218
10.119363 -21.791862 -53.627855
9.488691 -21.831487 -53.476592
9.945364 -21.802794 -47.472401
11.916153 -21.678970 -7.826332
8.393695 -21.900285 -52.437692
12.049692 -21.670580 -11.237644
11.501537 -21.705020 2.019945
8.978632 -21.863534 -45.726037
9.085819 -21.856799 -12.943203
6.119635 -22.043164 -10.798597
6.896355 -21.994363 -39.930052
6.347765 -22.028830 -26.132487
4.880832 -22.120997 -60.734014
8.954826 -21.865030 -7.791473
6.629130 -22.011152 -4.572394
8.123010 -21.917292 -48.602872
10.527707 -21.766206 1.295863
7.854697 -21.934150 -47.187159
9.244454 -21.846832 -50.282511
7.134123 -21.979424 -28.707213
4.887328 -22.120589 -49.569012
10.946611 -21.739886 -0.458250
11.171840 -21.725735 -55.600756
10.549071 -21.764864 -59.648053
10.158848 -21.789381 -56.133523
8.668645 -21.883010 -51.532408
8.421353 -21.898547 -6.253026
11.454010 -21.708006 -51.231660
6.921976 -21.992753 -30.514774
11.656879 -21.695260 -5.976424
9.644840 -21.821676 -1.631305
6.935277 -21.991917 -20.176269
11.314460 -21.716774 -21.189466
11.944105 -21.677214 -51.863614
9.224788 -21.848068 -39.157758
8.747820 -21.878036 -12.068652
12.065063 -21.669614 -24.484557
8.622490 -21.885910 -13.922823
9.885909 -21.806530 -20.668261
6.296376 -22.032059 0.934081
11.355657 -21.714186 -15.354099
4.805098 -22.125756 -31.565958
9.713161 -21.817384 -39.595893
9.021600 -21.860834 -22.993486
11.363574 -21.713689 -55.892859
10.179053 -21.788112 -8.546367
9.204036 -21.849372 -16.243622
9.527450 -21.829052 -8.004638
8.750331 -21.877878 -0.621752
10.131431 -21.791104 -29.054692
7.303030 -21.968811 -51.419284
5.689753 -22.070173 -51.404654
7.225540 -21.973680 -22.697458
5.923332 -22.055497 -6.719185
11.582858 -21.699911 -27.578094
8.083377 -21.919782 -14.713942
9.905870 -21.805276 -20.317855
8.397397 -21.900053 -9.680404
9.897897 -21.805777 -45.828374
11.138939 -21.727802 -52.395539
11.626949 -21.697141 -25.947126
10.332068 -21.778498 -55.059830
8.332104 -21.904155 -29.254796
10.719872 -21.754132 -35.295915
4.800907 -22.126019 -7.910214
8.864769 -21.870688 -53.100884
7.824005 -21.936079 -29.654057
5.046720 -22.110575 -11.698816
12.056742 -21.670137 -9.800075
9.324699 -21.841790 -60.202124
11.989820 -21.674342 -30.717657
10.282937 -21.781585 -42.041346
6.105136 -22.044075 -22.872375
7.002546 -21.987691 -27.068765
6.589365 -22.013651 -20.927180
7.997374 -21.925186 -43.071633
5.425605 -22.086770 -14.660329
8.836397 -21.872470 -34.399294
6.245213 -22.035274 -37.147964
11.564587 -21.701059 -16.208959
6.019778 -22.049438 -56.227224
10.416280 -21.773207 -60.772523
9.442876 -21.834366 -28.540438
11.510499 -21.704457 -14.575115
9.350766 -21.840153 -16.925254
9.940331 -21.803110 0.372639
9.468625 -21.832748 -2.762471
8.680723 -21.882251 -52.281749
12.004509 -21.673419 -28.477112
5.515100 -22.081147 -52.032263
10.382846 -21.775307 -40.495303
11.570198 -21.700706 -13.072263
11.667852 -21.694571 -13.846636
6.127042 -22.042698 -43.093938
6.819671 -21.999181 3.844134
6.799285 -22.000462 -8.258241
7.753685 -21.940497 -56.716584
7.470010 -21.958320 -40.944210
5.857705 -22.059621 -43.290068
6.124103 -22.042883 -47.418170
11.267233 -21.719742 -8.368441
11.094947 -21.730566 -50.657346
6.448059 -22.022529 -3.972397
11.768837 -21.688226 -56.885296
11.240766 -21.721405 0.221366
11.381784 -21.712544 2.906486
6.852329 -21.997129 -48.880855
11.468556 -21.707093 -17.422009
10.476044 -21.769452 -45.406905
4.882397 -22.120899 -13.110141
6.473791 -22.020912 -13.606182
9.214638 -21.848706 -20.812357
11.623069 -21.697385 -54.186934
9.963351 -21.801664 -21.117622
4.861201 -22.122231 -16.601625
7.187287 -21.976084 -34.204140
5.148943 -22.104152 -59.036890
7.543388 -21.953710 -36.648704
4.997375 -22.113675 -57.834697
11.491294 -21.705664 -39.855022
8.417280 -21.898803 -38.099233
6.642806 -22.010293 -35.530369
11.551544 -21.701878 0.273112
8.558794 -21.889912 -11.453835
9.229707 -21.847759 -6.367986
6.925698 -21.992519 -31.477779
11.162214 -21.726340 -60.930489
10.283058 -21.781577 -11.140690
11.729600 -21.690691 -53.658526
6.347953 -22.028819 -40.237230
5.980027 -22.051935 -38.944453
4.861019 -22.122242 -41.154540
7.665409 -21.946043 -31.283465
7.660502 -21.946352 -30.363980
10.924910 -21.741250 -33.718038
6.740678 -22.004144 -14.720381
8.885354 -21.869394 -34.762167
7.962714 -21.927364 -17.654369
10.162822 -21.789131 -39.912270
6.309900 -22.031209 -38.171046
9.213725 -21.848763 -24.536316
6.257486 -22.034503 0.533903
9.833512 -21.809822 -49.500008
12.034370 -21.671543 -3.061309
7.809686 -21.936978 -21.907900
8.778375 -21.876116 -57.563356
8.786339 -21.875615 -46.727942
9.716977 -21.817144 -23.151145
8.020697 -21.923721 -45.807181
9.740490 -21.815666 -36.535063
11.361695 -21.713807 -60.663708
4.952910 -22.116469 -41.766885
8.716433 -21.880008 -41.625733
6.803405 -22.000203 -33.499879
11.657694 -21.695209 -6.646912
12.040634 -21.671149 -23.246529
6.438414 -22.023135 -3.452726
4.829022 -22.124253 -12.101786
5.138260 -22.104823 -35.401340
6.882590 -21.995228 -33.138250
6.152936 -22.041071 -16.042246
7.729586 -21.942011 -55.552547
8.206513 -21.912046 -12.257618
5.588450 -22.076538 -41.510163
10.419588 -21.772999 3.050133
10.811300 -21.748388 -54.365026
8.279779 -21.907443 -26.823450
9.871143 -21.807458 -16.198615
9.376942 -21.838508 -26.348739
8.517039 -21.892536 -56.332618
11.896861 -21.680182 -44.801915
9.252634 -21.846318 -11.239595
9.529245 -21.828939 -18.805504
4.975138 -22.115072 -28.325298
6.866863 -21.996216 -16.816967
10.103661 -21.792849 2.571365
10.189314 -21.787467 -21.906161
6.147560 -22.041409 -32.508340
6.007030 -22.050239 -30.227693
8.687552 -21.881822 -15.518694
7.444494 -21.959923 -3.555899
4.984168 -22.114505 -8.584239
7.411989 -21.961966 -54.561449
6.364697 -22.027767 -33.566976
5.187101 -22.101755 -46.966232
7.341665 -21.966384 -46.018931
11.480005 -21.706373 -9.381437
4.914621 -22.118874 2.142622
8.552092 -21.890333 -54.836409
8.076823 -21.920194 -9.720953
7.299879 -21.969009 -60.763231
9.227817 -21.847878 -14.903767
7.345860 -21.966120 -5.213947
11.587664 -21.699609 -33.165582
5.190518 -22.101540 -12.847001
9.158095 -21.852258 -1.059735
9.638740 -21.822059 -48.067113
7.682737 -21.944955 0.740643
7.708048 -21.943364 -51.863974
5.931915 -22.054958 -19.029961
5.046919 -22.110562 -12.357384
10.897439 -21.742976 -13.905130
11.808692 -21.685722 -42.647274
7.002557 -21.987690 -24.571157
6.072566 -22.046121 -57.377457
11.787331 -21.687064 -41.259354
11.629603 -21.696974 -2.450435
9.142468 -21.853240 -59.115784
8.520689 -21.892306 3.080787
11.459815 -21.707642 -24.572437
11.125661 -21.728637 1.734466
8.503260 -21.893401 -33.419985
10.504667 -21.767653 -30.185372
10.499688 -21.767966 -34.790987
10.942733 -21.740130 -32.543565
5.566959 -22.077888 -54.968230
10.552607 -21.764641 -25.830418
5.033737 -22.111390 -23.066646
6.617297 -22.011896 -46.571167
7.975757 -21.926544 -8.849470
7.567879 -21.952171 -14.719679
10.533002 -21.765873 -39.584168
8.990228 -21.862805 -19.036937
5.303815 -22.094422 -8.378078
10.165168 -21.788984 -17.060192
8.669774 -21.882939 -42.558559
6.906771 -21.993708 -35.776193
10.068502 -21.795058 -2.178328
5.936362 -22.054679 -19.642722
9.147079 -21.852950 -7.531101
7.809810 -21.936971 -0.829776
8.891481 -21.869009 -18.461162
10.332745 -21.778455 -11.565477
5.359696 -22.090911 -59.350384
12.058116 -21.670051 -4.288104
8.457177 -21.896297 -28.866183
6.846760 -21.997479 -60.095087
6.209611 -22.037511 -46.396089
4.905856 -22.119425 -39.893332
10.066063 -21.795211 -15.759682
11.680313 -21.693788 -44.543383
9.554009 -21.827383 -4.313717
7.848011 -21.934570 -60.314013
5.676990 -22.070975 1.697538
5.008342 -22.112986 -37.575630
11.114256 -21.729353 -1.097119
8.228501 -21.910664 -27.755711
5.232835 -22.098881 -27.692067
12.051332 -21.670477 -32.606224
10.620486 -21.760377 -42.019558
7.455655 -21.959222 -33.939244
8.201245 -21.912377 -42.419154
11.770695 -21.688109 -35.525524
5.476829 -22.083551 -21.111266
11.408562 -21.710862 -2.948540
9.701545 -21.818113 -55.367515
8.119901 -21.917488 -31.163933
7.013482 -21.987004 -61.037013
8.962996 -21.864516 -22.469828
5.622298 -22.074411 -0.798534
6.102587 -22.044235 -53.200297
7.394202 -21.963083 -34.922184
8.705878 -21.880671 -18.095779
8.185743 -21.913351 3.176107
9.065372 -21.858084 -23.333111
7.538400 -21.954023 3.823291
11.605166 -21.698509 -51.873504
11.977362 -21.675124 -36.766919
9.335982 -21.841082 -48.932276
11.743878 -21.689794 -33.740944
10.132400 -21.791043 -41.243594
7.506793 -21.956009 -10.133172
6.486023 -22.020144 -56.371604
6.768902 -22.002371 -39.046124
8.411821 -21.899146 -59.330398
10.926984 -21.741119 -21.354444
9.430943 -21.835115 -60.569869
11.218702 -21.722791 -39.597553
8.271228 -21.907980 -53.621811
10.112984 -21.792263 -0.439597
6.042155 -22.048032 -30.787806
11.586690 -21.699670 -27.946254
5.976479 -22.052158 -33.873314
10.305744 -21.780152 -9.198518
9.489337 -21.831446 -23.547873
9.398396 -21.837160 -46.441149
9.555778 -21.827272 -33.221105
6.902406 -21.993983 -21.075172
7.205466 -21.974941 -54.833259
9.151365 -21.852681 -30.671305
9.024246 -21.860668 -0.015678
5.685462 -22.070443 -21.383254
5.004291 -22.113241 -53.731906
8.823935 -21.873253 -26.578492
5.307153 -22.094212 -2.887958
6.101798 -22.044284 -22.262083
10.210075 -21.786163 -26.667611
8.766589 -21.876856 -14.363651
10.478704 -21.769285 -13.833045
7.930723 -21.929374 -35.689432
11.719128 -21.691349 -29.069339
9.134947 -21.853713 -33.131775
5.375605 -22.089911 -23.265298
11.458553 -21.707721 -12.273168
10.760317 -21.751591 -37.249623
7.121713 -21.980203 -11.385622
11.279595 -21.718965 0.635256
11.841905 -21.683635 -40.705975
11.111004 -21.729557 3.868388
9.057889 -21.858554 -56.236027
12.039317 -21.671232 -7.412336
11.303070 -21.717490 2.347039
8.852489 -21.871459 -35.602587
11.401395 -21.711312 -48.342515
6.356224 -22.028299 -30.978746
10.149972 -21.789939 -27.955501
7.806233 -21.937195 -18.993089
10.435431 -21.772003 -5.157328
7.481312 -21.957610 -48.116871
6.058218 -22.047023 -4.015599
4.866457 -22.121901 -22.605689
10.002135 -21.799227 -32.340430
12.025863 -21.672077 -20.877510
7.275099 -21.970566 -50.763135
8.860187 -21.870976 -60.984783
6.748458 -22.003655 -23.320050
7.143189 -21.978854 -43.289562
7.584625 -21.951119 -35.906446
8.262226 -21.908545 -19.827729
5.631295 -22.073846 -3.335596
5.684926 -22.070476 -20.231654
12.047486 -21.670719 -22.687784
7.949437 -21.928198 -16.981976
9.672908 -21.819913 -45.612326
5.854901 -22.059797 -7.721398
8.873034 -21.870168 -32.168175
9.337944 -21.840958 -59.794774
5.337707 -22.092292 2.788981
9.401759 -21.836949 -15.603020
9.722652 -21.816787 -13.033467
8.448208 -21.896860 -14.842587
10.891607 -21.743342 -30.225578
9.726490 -21.816546 -18.376587
7.067980 -21.983580 -8.043288
9.267992 -21.845353 -41.316956
11.634907 -21.696641 -17.139077
11.686824 -21.693379 -9.098585
8.001337 -21.924937 2.140745
8.223487 -21.910979 -47.531731
11.340313 -21.715150 -25.680667
8.929498 -21.866621 -47.606019
11.568437 -21.700817 -15.665231
7.279964 -21.970261 -50.013279
7.267506 -21.971043 -45.355717
11.659858 -21.695073 -15.278472
5.459183 -22.084660 -30.836177
9.901418 -21.805555 -59.749418
11.429103 -21.709571 -6.884957
6.613094 -22.012160 -34.216034
9.952518 -21.802345 -28.804868
11.189232 -21.724642 -20.464930
7.786569 -21.938431 -48.759380
10.594423 -21.762014 -56.007394
7.899508 -21.931335 -8.164354
9.615873 -21.823496 -21.437736
10.164249 -21.789042 -38.909485
8.299402 -21.906210 -57.774922
7.007820 -21.987359 -55.564403
12.026826 -21.672017 -57.108873
8.236498 -21.910162 -3.899490
5.738373 -22.067118 -22.679767
8.663263 -21.883348 3.358497
10.014838 -21.798429 -13.914209
5.738874 -22.067087 -38.677514
11.627696 -21.697094 -35.866074
11.783398 -21.687311 -38.177496
10.926026 -21.741180 -6.332336
7.323268 -21.967540 -59.309798
11.267771 -21.719708 -13.282732
7.099581 -21.981594 -32.756345
6.570227 -22.014853 -24.529638
12.043423 -21.670974 -18.910690
7.028378 -21.986068 -30.133523
7.380258 -21.963959 -16.464263
5.478605 -22.083440 -26.483665
10.949661 -21.739695 -8.770342
7.449517 -21.959608 -41.753866
6.634508 -22.010814 -42.105044
10.780729 -21.750309 -1.126137
11.045368 -21.733681 -0.039611
4.892420 -22.120269 -25.303234
11.375718 -21.712926 -24.127015
9.155424 -21.852426 -3.301498
9.031975 -21.860182 -59.835387
11.269503 -21.719599 3.556019
5.585662 -22.076713 -27.948347
8.116375 -21.917709 -43.369487
5.936930 -22.054643 -37.217842
9.912903 -21.804834 -31.534918
6.241732 -22.035492 -42.702691
9.470705 -21.832617 -58.803644
7.637528 -21.947795 2.637759
10.573700 -21.763316 -43.211420
9.108884 -21.855350 -42.321507
8.441481 -21.897283 -51.825781
9.448145 -21.834034 -38.407416
10.897934 -21.742945 -33.188480
6.126505 -22.042732 2.285530
4.916852 -22.118734 -20.132994
9.543458 -21.828046 -22.654977
7.743214 -21.941155 -7.056096
4.830820 -22.124140 -30.045714
6.388737 -22.026256 -44.289550
9.477404 -21.832196 -10.676460
10.268643 -21.782483 -40.927572
9.371092 -21.838876 -45.682919
10.261162 -21.782953 -37.205555
10.808459 -21.748566 -2.869492
6.220948 -22.036798 -30.508126
8.284873 -21.907123 -36.772140
7.361643 -21.965129 2.363850
6.176801 -22.039572 -10.479194
5.159688 -22.103477 -19.411308
8.572561 -21.889047 -57.277629
9.730656 -21.816284 -26.225238
5.345140 -22.091825 -45.569744
7.732320 -21.941839 -24.095135
6.936269 -21.991855 -21.905031
11.162885 -21.726298 -22.602546
12.013331 -21.672865 -10.795789
8.693955 -21.881420 -26.000123
7.300855 -21.968948 0.537239
5.721547 -22.068176 -54.347866
7.671142 -21.945683 -3.842776
6.187591 -22.038894 -19.401514
8.141273 -21.916145 -59.640579
7.112524 -21.980781 -33.861885
11.803005 -21.686079 -53.305187
5.193545 -22.101350 -50.295568
7.901258 -21.931225 -0.167797
5.605542 -22.075464 -12.431620
11.131989 -21.728239 -58.194804
8.589932 -21.887956 -44.852162
7.494033 -21.956811 -43.209692
6.088485 -22.045121 -60.338671
6.597209 -22.013158 -1.719211
7.548451 -21.953392 3.394643
9.474270 -21.832393 -12.158890
9.423138 -21.835606 -52.483079
9.062032 -21.858294 -7.182409
5.230194 -22.099047 -5.487595
10.600621 -21.761625 -18.205297
11.288409 -21.718411 -50.309951
9.192676 -21.850085 -41.740074
5.595593 -22.076089 -60.472237
5.293181 -22.095090 -26.735391
8.984287 -21.863179 -16.807908
5.340250 -22.092132 -25.260266
5.787573 -22.064027 -55.453265
11.007556 -21.736057 -36.962229
7.776030 -21.939093 -19.784968
4.813950 -22.125200 -7.048054
5.991004 -22.051246 -54.115476
5.789695 -22.063894 -30.590169
5.304423 -22.094383 -24.251168
6.897366 -21.994299 -36.584101
10.801627 -21.748995 -19.374813
9.393855 -21.837445 -18.458931
8.610611 -21.886656 -23.483928
11.725423 -21.690954 -28.761535
6.605725 -22.012623 -50.012993
10.973915 -21.738171 -23.257968
8.076337 -21.920225 -56.972161
8.305714 -21.905813 -11.265105
6.325568 -22.030225 -36.836570
10.591149 -21.762220 -48.801628
10.110417 -21.792424 -28.493497
5.228814 -22.099134 -28.070620
9.077870 -21.857299 -30.234492
7.320676 -21.967703 -47.762247
9.944489 -21.802849 -13.250390
10.415852 -21.773234 -42.617138
11.334686 -21.715504 -14.096551
6.702371 -22.006551 -11.407663
5.445319 -22.085531 -48.867189
8.702688 -21.880871 -27.768790
8.839055 -21.872303 -31.396872
5.245178 -22.098106 -1.918287
9.450342 -21.833896 -40.037685
11.481917 -21.706253 -16.654178
6.650028 -22.009839 -3.701638
7.471104 -21.958251 -19.906689
8.619755 -21.886082 -3.864213
6.012241 -22.049911 -12.278965
6.594349 -22.013338 -12.210780
8.540177 -21.891082 -60.667956
8.313145 -21.905346 -56.656439
7.747821 -21.940865 -5.490134
5.291321 -22.095207 -4.596935
8.547075 -21.890648 -18.527530
5.052205 -22.110230 -55.746668
9.187678 -21.850399 -19.722002
7.705695 -21.943512 -38.006690
9.961490 -21.801781 -58.939482
10.068527 -21.795056 -42.263016
8.036503 -21.922727 0.496028
7.680165 -21.945116 -18.552062
6.336342 -22.029548 -11.928861
10.614677 -21.760742 -57.476637
6.538823 -22.016826 -39.925898
5.893957 -22.057343 -6.345843
5.491581 -22.082624 -27.473389
10.619469 -21.760440 -29.848563
6.799985 -22.000418 -43.121588
11.397628 -21.711549 -23.282591
11.840291 -21.683737 -9.508132
6.507183 -22.018814 -18.583981
11.339973 -21.715171 -59.731316
4.801775 -22.125965 2.489844
7.630052 -21.948265 -54.327459
10.462342 -21.770313 -17.487229
5.249642 -22.097825 -6.568399
6.758489 -22.003025 -41.080575
6.995058 -21.988161 -7.688289
7.012374 -21.987073 -16.384182
11.909976 -21.679358 -4.684682
5.010914 -22.112824 -51.583879
10.341231 -21.777922 0.121088
11.253581 -21.720599 -56.699543
9.831251 -21.809964 -37.657454
11.797032 -21.686455 -5.584853
10.799984 -21.749099 -27.707381
5.592133 -22.076307 -31.230930
9.600295 -21.824475 -43.392521
6.764106 -22.002672 -38.714959
5.111331 -22.106515 -36.796103
9.454202 -21.833654 -33.539467
6.777470 -22.001832 -39.586230
9.646443 -21.821575 -11.373440
10.601476 -21.761571 -24.293937
6.673800 -22.008346 -14.087413
9.708751 -21.817661 -32.410941
9.304854 -21.843037 -13.968622
10.654466 -21.758242 -41.129546
8.798948 -21.874823 -17.054747
9.740660 -21.815656 -45.223978
11.818912 -21.685080 -26.323074
11.667050 -21.694621 -10.166148
6.838042 -21.998026 -42.507186
9.849548 -21.808814 -54.569670
12.030552 -21.671782 -13.737006
10.085351 -21.793999 -5.139513
5.466126 -22.084224 -7.717204
6.879535 -21.995420 -22.682918
7.091784 -21.982084 -14.012452
6.031494 -22.048702 -47.855308
10.653871 -21.758279 -44.901644
11.459533 -21.707659 -34.369382
5.536328 -22.079813 -58.737817
9.134807 -21.853721 2.835552
11.664203 -21.694800 -46.919367
5.913009 -22.056146 -40.544576
8.911812 -21.867732 3.585491
12.052728 -21.670389 -39.524302
7.785394 -21.938505 -57.566999
9.318164 -21.842201 -1.661785
4.812382 -22.125298 -31.106649
6.931168 -21.992175 -5.303871
7.373258 -21.964399 -25.519160
5.939020 -22.054512 1.848263
4.806079 -22.125694 -42.527201
8.050453 -21.921851 -5.382776
5.751584 -22.066288 1.203541
11.990233 -21.674316 -55.140866
8.671494 -21.882831 -8.466251
10.713644 -21.754523 -0.080713
9.272205 -21.845089 -33.956153
8.313996 -21.905293 -24.817384
6.014256 -22.049785 -17.159841
6.193436 -22.038527 -44.045568
5.015600 -22.112530 -28.755494
9.077355 -21.857331 -49.487917
10.212446 -21.786014 -46.936677
5.719527 -22.068302 -50.437983
8.270028 -21.908055 -7.466174
12.051634 -21.670458 -46.828311
7.395784 -21.962984 -4.055603
10.750017 -21.752238 -28.766119
6.698482 -22.006795 -10.315211
6.531476 -22.017288 -10.625428
5.400826 -22.088326 -27.147534
10.098259 -21.793188 -42.695097
7.848161 -21.934561 -27.589877
8.251743 -21.909204 -25.596740
10.287556 -21.781294 0.928690
8.210611 -21.911788 -33.716467
6.368070 -22.027555 -44.795129
10.639354 -21.759191 -45.801538
9.917874 -21.804522 -37.216970
11.670263 -21.694419 -49.843814
6.079515 -22.045685 -41.683519
11.376184 -21.712896 -14.991772
5.170502 -22.102798 -52.550004
7.055443 -21.984367 -3.563379
8.462575 -21.895958 -39.858706
11.180017 -21.725221 -24.371721
9.335387 -21.841119 -5.534948
6.330359 -22.029924 -27.277598
11.980875 -21.674904 -48.389811
10.906498 -21.742407 -52.059172
7.107829 -21.981076 -0.562699
6.438371 -22.023138 -23.504271
4.832962 -22.124005 -5.357436
7.479942 -21.957696 -59.821221
9.536630 -21.828475 -44.583042
6.494046 -22.019640 -57.377173
6.579406 -22.014277 -10.931777
7.245518 -21.972425 -28.343616
6.280584 -22.033051 -21.849044
8.251892 -21.909195 -40.270967
6.321776 -22.030463 -40.982745
11.796450 -21.686491 -27.291884
11.346043 -21.714790 -60.056547
7.930501 -21.929388 -46.104396
6.634455 -22.010818 -12.626516
7.776473 -21.939065 -60.622399
12.048662 -21.670645 -15.452768
7.598067 -21.950274 -27.888762
5.474617 -22.083690 -42.146522
6.457607 -22.021929 -50.746155
5.597390 -22.075976 -2.751326
9.380285 -21.838298 -23.025139
9.943511 -21.802911 -40.873776
8.634009 -21.885186 -47.761694
10.396873 -21.774426 -2.864590
9.207701 -21.849141 0.862240
10.424476 -21.772692 2.276323
8.364021 -21.902150 -41.933386
7.247672 -21.972290 -11.880803
12.033441 -21.671601 -59.327400
7.960541 -21.927500 -13.795598
9.767453 -21.813972 -38.713036
9.291063 -21.843904 -50.863001
5.506645 -22.081678 -52.349646
11.979742 -21.674975 -41.906679
9.518655 -21.829604 -3.498525
5.390322 -22.088986 -22.931058
11.157849 -21.726614 -46.259612
5.499391 -22.082134 -35.341219
9.821849 -21.810555 -7.800170
6.476476 -22.020744 -9.674220
5.537033 -22.079769 -19.006584
8.869790 -21.870372 2.285662
10.212880 -21.785986 3.439283
10.858241 -21.745438 -7.289542
9.238927 -21.847180 -14.288643
4.819456 -22.124854 -57.483310
5.954117 -22.053563 -44.772026
11.105574 -21.729899 -28.058132
10.500143 -21.767938 -38.749659
7.093664 -21.981966 -44.938824
6.429234 -22.023712 -6.644916
9.863111 -21.807962 -7.008236
10.300001 -21.780513 -31.510358
10.765392 -21.751272 -30.520638
9.073523 -21.857572 -54.026370
4.910068 -22.119161 -47.298902
4.886526 -22.120640 -59.343398
7.527473 -21.954710 -53.058024
5.429125 -22.086548 -47.597668
5.797147 -22.063426 -5.191822
9.635374 -21.822271 -6.065231
10.642464 -21.758996 -21.212232
8.825345 -21.873165 -53.491503
5.599087 -22.075870 -23.652356
6.020524 -22.049391 -54.446586
10.864403 -21.745051 -17.874052
7.519525 -21.955209 1.632189
9.557390 -21.827171 -39.235748
9.416036 -21.836052 -37.712521
6.832199 -21.998394 -51.896431
8.320033 -21.904913 -7.875579
6.393390 -22.025964 -21.443609
11.770214 -21.688139 -32.912641
4.846754 -22.123139 -2.740596
6.742600 -22.004023 -20.421305
6.512749 -22.018465 -51.077513
11.119241 -21.729040 -37.251713
5.698354 -22.069633 -59.043957
6.090371 -22.045002 -38.567389
8.070307 -21.920604 -57.307267
7.740960 -21.941296 -17.929531
6.387806 -22.026315 2.103231
11.334688 -21.715503 -45.451486
10.057140 -21.795771 -38.091411
10.486172 -21.768815 -16.360856
6.745223 -22.003858 -18.292178
8.742633 -21.878362 -4.910039
7.234219 -21.973135 -6.516144
7.399087 -21.962776 -56.192122
6.044037 -22.047914 -11.588858
9.667657 -21.820243 1.811351
5.656829 -22.072242 -52.676789
8.716803 -21.879984 -38.440857
7.278254 -21.970368 -2.401423
9.725921 -21.816582 -5.347956
9.917349 -21.804554 -29.309702
9.637112 -21.822162 -25.677489
8.101795 -21.918625 -58.627865
10.658964 -21.757959 -23.083974
8.395075 -21.900199 -31.406330
11.014378 -21.735628 -47.505846
5.260510 -22.097142 -43.264903
11.169839 -21.725861 -24.762208
8.170575 -21.914304 -3.396421
10.141831 -21.790450 -22.765846
5.945295 -22.054118 -48.215683
8.690491 -21.881638 -10.548151
7.035706 -21.985607 -29.089956
11.051618 -21.733289 -28.634669
11.221012 -21.722646 -34.718704
10.192559 -21.787263 -34.967593
11.511270 -21.704409 -56.507300
5.185686 -22.101844 -42.848350
7.641473 -21.947547 -7.361335
7.315914 -21.968002 -6.086309
7.660830 -21.946331 -1.402773
12.067620 -21.669454 0.012081
7.777429 -21.939005 -34.420021
9.485872 -21.831664 0.523150
11.968318 -21.675693 -30.371122
10.213541 -21.785945 -16.207119
10.719806 -21.754136 -12.439653
7.745205 -21.941030 -50.487834
8.630588 -21.885401 -4.411604
9.094157 -21.856275 -57.070313
5.715271 -22.068570 -40.832384
10.945891 -21.739931 -43.336150
10.930347 -21.740908 -17.446366
9.383754 -21.838080 -31.949068
5.469102 -22.084037 -30.125707
11.376044 -21.712905 -49.934665
11.397615 -21.711550 -44.774678
10.028578 -21.797566 -41.857488
10.000385 -21.799337 -23.973371
5.549636 -22.078977 -51.000181
7.507275 -21.955979 -7.882203
11.226384 -21.722308 -41.712599
5.843540 -22.060511 -56.877794
6.139557 -22.041912 -10.050791
6.544466 -22.016472 -54.644488
11.849940 -21.683130 -35.185366
9.093598 -21.856311 -39.970566
6.486411 -22.020119 -32.582125
4.794512 -22.126421 -4.999769
5.594673 -22.076147 -53.267049
6.781168 -22.001600 -52.693104
11.084409 -21.731228 -19.593916
5.212016 -22.100189 -47.975785
8.577345 -21.888747 -37.827293
9.942102 -21.802999 -29.660881
7.316137 -21.967988 -42.395539
8.795629 -21.875032 -12.701166
9.929215 -21.803809 -15.216671
7.864135 -21.933557 -12.633799
7.563667 -21.952436 -52.464116
7.983478 -21.926059 -49.945941
9.642947 -21.821795 -32.772266
8.263019 -21.908496 -36.342967
9.530711 -21.828847 -34.298296
8.361282 -21.902322 -10.431274
9.711270 -21.817502 -48.491456
8.000347 -21.924999 -32.449450
9.886904 -21.806467 -22.079792
8.963007 -21.864515 -45.367604
11.365622 -21.713560 -29.048579
8.999170 -21.862243 -47.932394
6.367316 -22.027602 -47.049577
9.592822 -21.824944 -37.343250
5.645374 -22.072961 -35.896713
4.893808 -22.120182 -0.976044
8.962490 -21.864548 -13.995541
5.195648 -22.101218 -4.272457
11.547865 -21.702110 -46.005240
9.166792 -21.851712 -18.697577
11.980372 -21.674935 -40.976708
10.719340 -21.754166 -31.463045
8.910123 -21.867838 -54.853283
8.947203 -21.865508 -50.868879
9.548407 -21.827735 3.114270
9.417315 -21.835972 -17.351959
6.252650 -22.034807 -22.579201
11.923882 -21.678485 3.769544
7.040292 -21.985319 -46.368118
5.484723 -22.083055 -19.765612
7.261933 -21.971394 -30.344638
9.887275 -21.806444 -61.088130
7.082014 -21.982698 -8.816203
11.589499 -21.699494 -20.967247
9.608178 -21.823980 -46.009019
11.249072 -21.720883 -17.127038
10.231476 -21.784818 1.871394
9.982986 -21.800431 -11.337542
11.105162 -21.729925 -45.192836
5.891143 -22.057520 -26.605214
11.114534 -21.729336 -19.953145
10.265077 -21.782707 -42.985776
10.769012 -21.751045 -14.670812
7.777338 -21.939011 -22.256984
11.262169 -21.720060 -33.977488
6.774384 -22.002026 0.791963
11.473512 -21.706781 -57.178135
10.643693 -21.758918 -13.081877
10.279664 -21.781790 -55.800901
6.763304 -22.002722 -9.861333
4.807828 -22.125584 -3.881102
9.794110 -21.812298 -56.632620
5.458281 -22.084717 -52.921720
9.483275 -21.831827 -28.134619
7.972284 -21.926762 -3.667056
8.039771 -21.922522 -21.186492
6.405500 -22.025203 -7.695701
7.241195 -21.972696 -17.793048
9.957635 -21.802023 -6.208031
9.938580 -21.803221 -25.295405
5.528906 -22.080279 -5.577590
11.443381 -21.708674 -20.207454
11.494739 -21.705447 -31.283577
8.105183 -21.918412 -53.133151
8.001698 -21.924914 -14.149288
11.184177 -21.724960 -1.764640
8.651875 -21.884064 -44.446657
9.702765 -21.818037 -17.518530
8.856623 -21.871200 -10.202106
6.283941 -22.032840 1.784522
11.655832 -21.695326 -7.166954
6.203649 -22.037885 -14.982614
7.964332 -21.927262 -53.400518
11.916575 -21.678944 1.800696
7.324671 -21.967452 -11.029707
10.344657 -21.777707 -18.512556
9.729320 -21.816368 -2.581938
10.773862 -21.750740 -45.252770
11.747550 -21.689563 -37.441971
11.245344 -21.721117 -10.560824
12.059738 -21.669949 -43.915846
8.099085 -21.918796 -33.236167
8.006544 -21.924610 -4.830485
10.969203 -21.738467 -48.869257
6.411551 -22.024823 -33.876022
4.959025 -22.116085 -17.106537
8.099690 -21.918757 -6.123192
9.912033 -21.804888 -4.821492
4.946831 -22.116851 -14.529742
7.442198 -21.960068 -13.770349
9.298384 -21.843444 -57.844233
6.196295 -22.038347 -24.514585
7.936198 -21.929030 -7.780769
5.533735 -22.079976 -0.081876
6.600590 -22.012946 -49.225174
6.785205 -22.001346 -4.083335
11.302774 -21.717509 -11.813168
8.285491 -21.907084 -37.585460
6.719142 -22.005497 -19.881124
5.997456 -22.050840 -5.650331
11.260798 -21.720146 -42.801611
8.700959 -21.880980 -53.771406
10.214021 -21.785915 0.583928
9.696834 -21.818409 -33.765140
8.989038 -21.862880 -48.376261
9.718449 -21.817051 -23.791836
9.626713 -21.822815 -3.201661
5.161630 -22.103355 -7.907228
6.741012 -22.004123 -44.670660
7.497918 -21.956567 -0.963386
6.424149 -22.024031 -42.422479
11.602936 -21.698650 -41.633669
11.318882 -21.716497 -48.678141
7.538174 -21.954037 -16.977962
7.647382 -21.947176 -29.358874
6.575615 -22.014515 -30.541871
12.048406 -21.670661 -21.883873
8.487461 -21.894394 -27.542077
9.992099 -21.799858 -19.018719
10.224510 -21.785256 -56.493615
5.142588 -22.104551 -59.653699
7.831814 -21.935588 -59.720507
5.196432 -22.101168 -14.296464
9.427060 -21.835359 -35.455141
6.588851 -22.013683 -13.094576
5.880687 -22.058177 -50.126074
12.006513 -21.673293 -53.944965
11.908334 -21.679461 -41.572812
7.869649 -21.933211 -19.332681
5.253699 -22.097570 -49.223082
8.769423 -21.876678 -39.379462
6.992521 -21.988321 -18.581564
5.926707 -22.055285 -49.458242
8.509525 -21.893008 -35.671347
9.838952 -21.809480 -12.251455
5.300590 -22.094624 -29.863788
7.739490 -21.941389 -16.576238
7.527417 -21.954713 -1.718765
4.931297 -22.117827 -18.481521
7.799198 -21.937637 -12.257461
5.395900 -22.088636 -40.629924
11.684573 -21.693520 -10.543053
8.728853 -21.879227 1.877704
5.652319 -22.072525 -37.452882
11.067087 -21.732317 -59.360612
8.356764 -21.902606 -4.633579
12.029328 -21.671859 -9.219386
10.635144 -21.759456 -11.398688
4.838127 -22.123681 -7.457128
9.412033 -21.836303 -56.427509
5.891527 -22.057496 -9.569117
11.829318 -21.684426 -47.230359
6.911019 -21.993441 -12.992655
4.954139 -22.116392 -8.222234
11.019533 -21.735305 -11.261353
10.436836 -21.771915 -0.246224
10.394863 -21.774552 2.704342
8.031301 -21.923054 -54.312343
10.714936 -21.754442 -58.165859
8.278044 -21.907552 -2.058070
8.459076 -21.896177 -22.954907
6.303812 -22.031592 -39.715368
11.971924 -21.675466 -24.098561
10.050270 -21.796203 -45.158925
11.069424 -21.732170 -53.376048
6.441672 -22.022930 -20.314733
6.895549 -21.994413 -27.501444
5.553136 -22.078757 -1.741731
11.119198 -21.729043 -42.434096
7.562402 -21.952515 -3.010499
11.814314 -21.685369 -19.185474
7.479283 -21.957738 -40.155854
10.602385 -21.761514 -7.001461
12.052730 -21.670389 -1.740041
11.265951 -21.719822 -4.989030
7.151092 -21.978358 -10.505107
4.796438 -22.126300 -19.671829
10.818115 -21.747960 -23.690936
6.310515 -22.031171 -30.129283
9.392790 -21.837512 -14.588757
11.050103 -21.733384 -5.233904
11.369052 -21.713344 1.111777
7.071804 -21.983339 -15.606893
11.596780 -21.699036 -11.529594
11.567899 -21.700851 -29.397966
11.188638 -21.724680 -33.354292
5.896288 -22.057197 -3.024251
8.499981 -21.893607 0.536185
5.133995 -22.105091 -43.989821
11.212013 -21.723211 -27.108216
8.678360 -21.882400 -40.294614
8.548005 -21.890590 1.319898
11.137443 -21.727896 -30.512931
10.342428 -21.777847 -58.972007
6.182856 -22.039192 -24.874084
7.225408 -21.973688 -17.434196
5.240886 -22.098375 -51.834908
11.214684 -21.723043 -11.509914
9.293885 -21.843727 -48.138639
5.940012 -22.054450 -0.246244
6.422440 -22.024139 -53.779403
9.091572 -21.856438 -50.569391
10.833077 -21.747020 -16.743346
9.061637 -21.858319 -52.212330
8.436899 -21.897571 -28.012635
8.928898 -21.866659 -16.488640
6.965314 -21.990030 -6.806205
10.897431 -21.742976 1.098708
11.952816 -21.676667 -11.694604
5.825454 -22.061647 -10.266024
9.238516 -21.847205 -31.168323
10.777792 -21.750493 3.865537
8.702925 -21.880856 -33.030509
10.611524 -21.760940 -20.301869
6.188438 -22.038841 -20.862305
7.224072 -21.973772 -9.166915
5.094991 -22.107542 -58.522074
5.881519 -22.058125 -46.939993
4.794996 -22.126391 -14.838759
5.313108 -22.093838 -10.791195
10.732352 -21.753348 -59.255826
12.020616 -21.672407 -50.646960
10.216017 -21.785789 -45.718676
10.147279 -21.790108 -54.690221
10.289654 -21.781163 -14.133218
9.047284 -21.859220 -17.719194
9.316634 -21.842297 -40.419271
6.504438 -22.018987 -1.391592
5.460404 -22.084583 -47.239753
7.929817 -21.929431 -34.033315
5.201103 -22.100875 -29.188583
6.372466 -22.027278 -12.853660
8.268497 -21.908151 -50.096585
6.390548 -22.026142 -19.050892
6.997723 -21.987994 -59.296298
10.278227 -21.781881 -48.284421
8.500545 -21.893572 -3.177137
6.095746 -22.044665 -3.320743
5.156493 -22.103678 -0.131511
7.438678 -21.960289 -36.236412
4.808534 -22.125540 -53.152896
11.016421 -21.735500 -18.481506
7.800238 -21.937572 -34.766429
9.329180 -21.841509 1.677544
10.616716 -21.760613 -48.004850
5.655687 -22.072314 -45.536804
10.615546 -21.760687 -2.257417
7.066193 -21.983692 -1.391598
11.562766 -21.701173 -31.675805
8.343288 -21.903452 -5.770598
9.666772 -21.820298 -5.726202
8.185172 -21.913387 -37.193488
6.944982 -21.991307 3.317012
6.273465 -22.033499 -46.751438
10.598568 -21.761754 -53.193783
11.112337 -21.729474 1.392786
8.839063 -21.872303 -3.299737
7.138340 -21.979159 -51.049612
10.858694 -21.745410 -11.679826
6.973649 -21.989506 -7.311854
9.888956 -21.806338 0.942013
6.940898 -21.991564 -32.431162
9.671500 -21.820001 -41.394498
8.256851 -21.908883 -45.442970
8.379456 -21.901180 -20.795838
9.468937 -21.832728 -21.077940
6.533487 -22.017162 -14.441922
9.657236 -21.820897 -38.066568
5.809570 -22.062645 -24.841155
6.983061 -21.988915 -2.510787
9.192064 -21.850124 -29.760899
6.517020 -22.018196 -7.065462
8.289953 -21.906803 -54.511687
9.057665 -21.858568 -22.097270
5.111644 -22.106496 -13.365433
6.029225 -22.048844 -49.101749
10.394252 -21.774591 -52.593032
5.858325 -22.059582 -41.949009
7.497237 -21.956609 -43.802371
5.558857 -22.078397 -8.073980
6.521337 -22.017925 -37.344290
7.977258 -21.926450 -22.753832
4.842143 -22.123428 -9.325394
5.752104 -22.066256 -6.994468
7.718892 -21.942683 -26.686549
10.798790 -21.749174 -60.394168
5.430586 -22.086457 -0.471174
6.954377 -21.990717 -2.095281
4.970404 -22.115370 -20.821059
10.003813 -21.799122 -46.564282
8.052710 -21.921709 -27.194671
10.571839 -21.763433 -21.559280
4.901745 -22.119684 -34.443736
9.633400 -21.822395 1.166129
6.665012 -22.008898 -15.526138
7.439051 -21.960265 -32.540335
10.277073 -21.781953 -36.333080
7.951699 -21.928056 -18.688209
8.675429 -21.882584 -35.304918
6.589956 -22.013614 -22.593298
10.051974 -21.796096 -27.628047
10.068915 -21.795032 -51.288846
10.944284 -21.740032 -15.391845
6.196835 -22.038313 -51.325286
9.657265 -21.820896 -24.533180
10.358126 -21.776861 -35.286844
10.625329 -21.760072 -33.371424
9.332059 -21.841328 -16.544506
9.041762 -21.859567 -51.214457
5.725440 -22.067931 -17.505642
7.712838 -21.943063 -10.872440
10.604239 -21.761397 -48.474803
11.903577 -21.679760 -22.271052
7.940560 -21.928756 -42.720089
9.582488 -21.825594 -41.778076
7.186203 -21.976152 2.022960
6.474550 -22.020865 -47.937891
11.553124 -21.701779 -61.069856
11.179515 -21.725253 -36.357328
5.155687 -22.103728 -54.680495
6.674886 -22.008278 -18.841694
10.820025 -21.747840 -25.996465
6.554911 -22.015816 -58.345613
5.647872 -22.072805 -15.993262
6.646969 -22.010032 -26.253948
11.515277 -21.704157 -37.975592
11.940390 -21.677447 -48.086402
10.133967 -21.790944 -13.590664
8.645289 -21.884478 -37.380610
10.809803 -21.748482 -53.722916
6.501831 -22.019151 -59.440126
11.932658 -21.677933 -14.627489
8.224661 -21.910906 -25.209599
6.849883 -21.997283 -17.226063
6.875947 -21.995645 -0.152897
6.198181 -22.038229 -23.244988
7.379886 -21.963983 -12.303123
11.495591 -21.705394 -40.675256
9.860269 -21.808141 -10.918772
10.789761 -21.749741 -22.475299
8.152639 -21.915431 -22.197587
10.441045 -21.771651 -38.264256
6.319673 -22.030595 -29.562423
11.306256 -21.717290 -38.268632
6.095801 -22.044661 -37.766705
8.448160 -21.896863 -60.293314
6.186915 -22.038937 -3.640250
10.329044 -21.778688 -30.486727
4.957713 -22.116167 -26.952134
6.305589 -22.031480 3.148880
8.380868 -21.901091 -15.264654
7.554700 -21.952999 -9.495369
10.149356 -21.789978 -34.628606
6.902690 -21.993965 -34.342731
9.832203 -21.809904 -35.613955
11.848274 -21.683235 -46.080393
7.861283 -21.933737 -40.891571
10.896430 -21.743039 -1.504901
5.198010 -22.101069 -30.431226
11.467979 -21.707129 -59.426912
10.377618 -21.775636 -4.196366
5.726579 -22.067859 -56.041176
10.751593 -21.752139 -4.585125
8.377236 -21.901319 -39.230881
8.744187 -21.878264 -7.303801
5.922658 -22.055540 -55.041887
11.589113 -21.699518 -43.344402
6.921550 -21.992780 -1.732342
10.295730 -21.780781 -48.664721
10.547550 -21.764959 -8.424045
10.162940 -21.789124 -20.870328
8.326033 -21.904536 -8.853385
10.985371 -21.737451 -52.711414
6.679145 -22.008010 -22.978878
11.160200 -21.726467 -32.191877
10.573008 -21.763360 -27.977234
10.135076 -21.790875 -33.506884
5.364012 -22.090639 3.210700
6.438433 -22.023134 -52.652147
6.998249 -21.987961 -51.567738
9.455136 -21.833595 -46.888846
10.867667 -21.744846 -56.304159
9.332464 -21.841303 1.344258
6.209567 -22.037513 -56.499877
10.142206 -21.790427 -24.363587
10.645726 -21.758791 -58.627419
10.236128 -21.784526 -29.917290
5.479954 -22.083355 -28.390156
11.324584 -21.716138 -8.828982
4.815840 -22.125081 -30.503874
11.788884 -21.686966 -16.493712
8.782880 -21.875833 -5.622811
9.029312 -21.860350 1.224204
5.670188 -22.071402 -10.888966
8.101640 -21.918635 -24.023536
11.282305 -21.718795 -51.921903
6.864464 -21.996366 -17.647182
8.990994 -21.862757 -36.104723
7.002402 -21.987700 -56.959935
11.364893 -21.713606 -0.095230
8.883425 -21.869516 -33.981767
4.801521 -22.125981 -32.263924
6.724471 -22.005162 -28.943281
8.961655 -21.864600 -44.182471
11.823488 -21.684792 -17.463263
10.605300 -21.761331 -29.281129
8.726229 -21.879392 -19.692987
6.645054 -22.010152 -48.655093
6.305422 -22.031491 -26.504941
8.496800 -21.893807 -42.264538
8.383596 -21.900920 -45.110970
9.264925 -21.845546 -8.197882
5.043368 -22.110785 -47.588152
7.505952 -21.956062 -12.620043
6.375451 -22.027091 3.876310
11.063720 -21.732528 -4.408632
11.589391 -21.699501 2.537815
5.853428 -22.059890 -36.387755
5.660297 -22.072024 2.279171
9.606043 -21.824114 -50.709672
9.387926 -21.837818 -53.130968
10.990264 -21.737143 -46.879750
7.196935 -21.975477 -21.674593
11.639172 -21.696373 -42.931161
11.211309 -21.723255 -18.173872
5.625032 -22.074240 -13.806560
9.615349 -21.823529 -59.582077
8.734454 -21.878875 -21.869367
7.816446 -21.936554 -58.307966
9.381102 -21.838247 -45.121983
7.046986 -21.984899 -57.630614
11.703355 -21.692340 -25.520687
5.209745 -22.100332 -45.892229
5.263078 -22.096981 -33.497370
11.046806 -21.733591 -14.296251
11.459015 -21.707692 -19.446153
10.250104 -21.783648 -30.866533
11.505912 -21.704745 -44.171240
4.818141 -22.124936 -46.935503
9.155153 -21.852443 -12.328139
7.674572 -21.945468 -10.437136
10.526461 -21.766284 -26.343601
7.110241 -21.980924 -43.967759
10.611363 -21.760950 -55.313818
6.283321 -22.032879 -13.954678
8.501167 -21.893533 -16.563859
8.502284 -21.893463 -37.014499
6.405250 -22.025219 -43.735437
5.953620 -22.053594 -29.689592
4.879217 -22.121099 -52.728364
10.915475 -21.741842 -3.215767
9.398797 -21.837135 -59.294110
11.352866 -21.714361 -53.556314
5.320589 -22.093368 -55.472534
7.727467 -21.942144 -5.121254
6.113870 -22.043526 -50.932139
8.283887 -21.907184 -7.023073
5.337724 -22.092291 -45.188461
6.662838 -22.009034 -27.176830
4.807775 -22.125588 -9.002535
8.587043 -21.888137 -45.419373
11.232553 -21.721921 -16.091271
8.585151 -21.888256 -12.402033
9.492128 -21.831271 -49.292758
10.098397 -21.793179 -20.019922
7.633949 -21.948020 -11.935472
11.260097 -21.720190 -35.055612
9.026511 -21.860526 -31.877593
9.617513 -21.823393 -4.648667
6.242756 -22.035428 1.429026
7.517626 -21.955328 -35.221244
5.927445 -22.055239 -53.489135
10.882524 -21.743913 -37.534440
4.854335 -22.122662 -27.329732
10.392973 -21.774671 -34.349853
7.113605 -21.980713 -59.586905
8.761035 -21.877205 -15.098982
8.456718 -21.896325 -24.222601
11.269622 -21.719591 -10.010900
7.103971 -21.981318 -24.001384
10.479656 -21.769225 -7.679176
6.929530 -21.992278 -12.398414
6.945716 -21.991261 -3.215635
7.783670 -21.938613 -21.408304
8.008303 -21.924499 -7.274935
10.527589 -21.766213 -49.549227
9.637105 -21.822162 -59.100315
8.098162 -21.918854 -54.007871
7.675553 -21.945406 -4.552592
8.756645 -21.877481 -13.307514
10.970522 -21.738384 -39.362457
7.141942 -21.978933 -41.480005
10.984784 -21.737488 -4.790376
5.755062 -22.066070 -20.878414
8.506544 -21.893195 -20.053577
8.321936 -21.904794 -30.116889
7.508972 -21.955872 -55.079550
10.530866 -21.766007 -43.594797
9.801471 -21.811835 -35.998895
12.052187 -21.670423 -34.914724
6.570483 -22.014837 -46.215543
8.945145 -21.865638 -2.043641
5.428495 -22.086588 -53.658281
8.722742 -21.879611 -49.636704
9.473101 -21.832466 -30.499811
5.215969 -22.099941 -46.296717
6.497431 -22.019427 -24.877279
11.901596 -21.679885 -31.490223
6.958764 -21.990442 -47.165531
9.340851 -21.840776 -61.081482
6.346704 -22.028897 -9.359587
5.654700 -22.072376 -57.205614
6.402291 -22.025405 -20.622195
4.885241 -22.120720 0.306236
7.744583 -21.941069 -47.522685
4.988804 -22.114214 -31.827617
6.845348 -21.997567 -8.612473
8.715860 -21.880044 -50.027171
8.759630 -21.877294 -59.029898
11.544266 -21.702336 -34.817625
6.298173 -22.031946 -2.054253
8.353868 -21.902788 -18.998611
7.537120 -21.954104 -25.243815
9.752161 -21.814933 -42.181689
12.004249 -21.673435 -17.811297
7.613192 -21.949324 -20.658800
6.484111 -22.020264 -52.049434
6.778634 -22.001759 -19.213473
9.215200 -21.848670 -36.713525
5.084418 -22.108206 -39.529629
6.072968 -22.046096 -25.225034
8.065415 -21.920911 -31.697678
10.855994 -21.745580 -22.119442
7.700032 -21.943868 -31.908265
5.129290 -22.105387 -19.771369
10.017094 -21.798288 -17.369726
10.348352 -21.777475 -47.253151
8.103213 -21.918536 -20.154933
8.479265 -21.894909 -1.200005
7.290842 -21.969577 -47.306502
11.237408 -21.721616 -20.804561
8.691170 -21.881595 -6.607096
6.282762 -22.032915 -16.483876
4.832495 -22.124034 -12.762299
11.046011 -21.733641 -31.801840
5.988788 -22.051385 -35.900600
11.334702 -21.715503 -46.740983
10.172131 -21.788547 -7.877789
7.890055 -21.931929 -23.156800
5.871435 -22.058758 -58.050920
8.317479 -21.905074 -10.910755
8.351388 -21.902943 -32.315191
6.863390 -21.996434 -38.105901
6.384685 -22.026511 -58.051975
6.655154 -22.009517 -56.680537
5.955545 -22.053474 -41.038580
10.555889 -21.764435 -49.136667
7.715161 -21.942917 -49.160680
9.063141 -21.858224 -21.327379
10.648360 -21.758625 -32.889203
8.076236 -21.920231 -47.913464
6.752492 -22.003402 -4.961579
8.772876 -21.876461 -55.252473
4.924867 -22.118231 -17.814679
8.178103 -21.913831 -10.022300
8.985523 -21.863101 -43.174126
5.719215 -22.068322 -18.286880
10.467812 -21.769969 -28.365200
10.218491 -21.785634 -24.893708
7.511975 -21.955683 -46.984133
11.561612 -21.701246 -1.529687
8.154986 -21.915283 -56.189320
5.015082 -22.112563 -29.702424
5.001267 -22.113431 -11.354217
9.076983 -21.857354 -37.545489
12.046438 -21.670784 -26.727921
9.714520 -21.817298 -11.937133
6.205607 -22.037762 -6.242329
9.939645 -21.803154 -56.995296
