-56.620411 -30.676306 0.793525
-52.502005 -14.194760 -21.162198
-34.806925 3.624816 -58.495346
-40.901846 -0.175471 -58.887788
-30.598185 5.455919 1.574298
-44.245813 -2.970715 -1.146656
-33.754224 4.154978 -5.982767
-54.328933 -18.441424 -54.955469
-50.580802 -10.733573 3.669678
-31.977236 4.912064 -40.006643
-55.548566 -22.630584 -27.611637
-47.990058 -7.079358 -34.072332
-29.719289 5.750755 -16.312844
-38.317568 1.623066 -11.375782
-40.919484 -0.188602 -31.422609
-55.710912 -23.359523 -35.510294
-42.778304 -1.686061 -50.525290
-54.539007 -19.069963 -15.930122
-42.210277 -1.188811 -8.716839
-30.459201 5.502542 3.595724
-22.505776 7.742082 -25.213942
-47.074716 -5.978371 -23.604692
-50.504349 -10.604700 -5.163097
-44.286777 -3.009215 -53.937620
-55.386083 -21.901029 -30.623395
-56.603883 -30.405654 -30.111145
-44.715839 -3.449347 -39.504540
-49.549392 -9.188118 -48.804035
-32.246008 4.797553 -41.379903
-21.820843 7.919464 -46.595956
-29.414606 5.852965 -47.269032
-31.367784 5.171721 -40.738622
-39.932922 0.545886 0.610112
-56.583434 -30.070811 -14.159455
-36.693274 2.638338 -53.626040
-38.509364 1.502577 -12.345396
-46.704575 -5.533161 -31.242857
-56.246785 -26.390761 -43.524450
-43.827927 -2.604898 -7.702859
-55.734735 -23.466485 -54.120669
-23.014632 7.610300 -8.141968
-54.423394 -18.693849 -53.967137
-53.959657 -17.509529 0.684754
-30.583373 5.460888 -27.907087
-35.492457 3.266312 -7.474881
-33.251806 4.369033 -17.507508
-28.086396 6.296830 -60.997104
-32.854141 4.538459 -9.034228
-32.629966 4.633968 -18.373736
-44.386176 -3.111178 -18.950197
-44.379253 -3.104077 -8.642737
-23.591937 7.460791 -11.697797
-27.279559 6.505782 -16.473797
-40.001734 0.494656 -25.998638
-54.587119 -19.226483 -17.950216
-32.382889 4.739235 -60.917070
-49.353568 -8.910615 -12.242557
-41.441348 -0.577126 -56.125400
-56.592950 -33.260957 -5.133511
-56.518515 -29.007760 -7.210400
-27.871096 6.352588 -8.077100
-49.923233 -9.717892 3.609230
-29.832472 5.712787 -40.528879
-39.974738 0.514754 -40.797712
-27.569217 6.430768 -36.335501
-41.614303 -0.705890 -32.781783
-26.343490 6.748202 -58.301934
-30.013795 5.651959 -35.563965
-24.715411 7.169837 -59.437148
-54.139312 -17.962903 -22.625160
-41.565841 -0.669810 -35.954575
-49.840529 -9.600691 -14.842708
-56.548039 -29.491211 -15.237781
-48.365324 -7.530733 -12.754740
-23.654043 7.444707 -13.852685
-56.531233 -29.216020 -28.833408
-24.857833 7.132953 3.284024
-53.018195 -15.246184 -46.551886
-56.589763 -33.436570 -34.824069
-40.160291 0.376612 1.895477
-49.335021 -8.884331 -10.353245
-55.561138 -22.687032 -13.463565
-29.446320 5.842326 -50.018157
-36.248759 2.870800 -59.895904
-56.518792 -29.012296 2.564539
-31.847311 4.967418 -42.355625
-38.614215 1.436709 2.598973
-33.859120 4.110287 -26.830974
-47.397678 -6.366835 -25.420567
-53.432278 -16.178651 -8.594733
-45.041923 -3.783844 2.353534
-22.624177 7.711419 -20.368794
-34.884320 3.584342 -36.409186
-43.530836 -2.344826 -30.067708
-32.759580 4.578746 -21.714998
-32.608925 4.642933 -2.439528
-48.000895 -7.092393 -4.494148
-49.571777 -9.219840 -31.858211
-34.717681 3.671487 -32.632952
-49.300035 -8.834752 -47.691154
-32.760506 4.578352 3.870784
-56.510744 -28.880510 -58.787128
-54.281778 -18.322425 -60.770754
-34.458225 3.807171 -9.305837
-49.211364 -8.709096 -51.628483
-44.112724 -2.854209 -60.008158
-37.870892 1.903673 -47.871641
-54.204700 -18.127914 -58.805051
-56.272636 -26.574118 -21.745353
-56.222346 -26.217423 -52.667513
-53.799187 -17.104571 -32.014747
-43.791616 -2.573113 -19.809524
-43.299342 -2.142176 -31.316111
-41.435522 -0.572788 -1.686367
-54.395239 -18.608753 -18.835833
-46.015189 -4.782223 -60.090918
-46.544672 -5.340828 3.829390
-52.178414 -13.535640 -3.190728
-49.832471 -9.589272 -56.061456
-56.584977 -33.701879 -3.126191
-52.208301 -13.596516 -30.297711
-55.824772 -23.870757 -15.983295
-48.589815 -7.828294 -8.874888
-47.624336 -6.639462 -35.203695
-54.722485 -19.666857 -31.475664
-50.027130 -9.865124 -23.758919
-54.406942 -18.640329 -51.793123
-28.677997 6.100069 -46.032567
-53.568590 -16.522643 -40.178805
-54.837492 -20.040999 -16.744230
-45.521072 -4.275357 -58.983795
-50.379940 -10.394991 -56.038002
-51.757583 -12.717219 -20.502520
-44.405149 -3.130641 -6.672573
-55.845372 -23.963252 -60.962242
-50.123262 -10.001355 -0.491349
-56.318612 -26.900217 -36.375824
-54.513286 -18.986287 -40.434437
-56.187666 -25.971448 -17.934879
-32.621323 4.637650 -16.497688
-50.894863 -11.262972 -12.595797
-51.349047 -12.028569 -24.297922
-51.808709 -12.803398 -44.628928
-53.325438 -15.909031 -17.393427
-25.929294 6.855470 -60.660238
-23.697696 7.433402 -38.944417
-56.603570 -32.673005 -52.395244
-56.219219 -26.195245 -1.798557
-53.352755 -15.977968 -12.684888
-56.584039 -33.752536 -54.045560
-53.725002 -16.917360 -55.428905
-52.336647 -13.857944 -31.541219
-36.371906 2.806399 -10.422783
-41.766644 -0.819306 -37.205345
-46.742376 -5.578628 -58.968539
-56.467630 -28.174508 -32.304564
-41.306762 -0.476928 -57.110726
-32.776491 4.571541 -37.138430
-56.612557 -32.176713 2.661074
-39.977850 0.512438 -38.661106
-43.227986 -2.079711 -58.745672
-49.938555 -9.739604 -39.710119
-24.275221 7.283836 -57.488853
-56.183025 -25.938528 -16.818269
-49.781634 -9.517231 -58.354267
-31.827932 4.975674 -1.011507
-56.630230 -31.199345 2.159759
-53.084014 -15.380251 -44.996176
-45.953832 -4.719283 -12.963489
-54.393787 -18.605087 -35.108358
-28.812083 6.055089 -43.285875
-48.593588 -7.833641 3.373445
-55.067451 -20.789105 -39.458502
-51.394953 -12.105951 -12.184467
-46.634240 -5.448561 -9.767383
-49.783533 -9.519922 -16.079409
-50.412120 -10.449235 0.383832
-40.758150 -0.068490 -51.677095
-47.341991 -6.299854 -10.108218
-21.596369 7.977597 -19.812221
-42.384906 -1.341681 -10.941117
-33.020558 4.467556 -23.222408
-53.192747 -15.601727 -0.096492
-54.995866 -20.556223 -12.581839
-41.364555 -0.519954 -7.873347
-49.978456 -9.796149 -47.875166
-45.715114 -4.474405 -28.605707
-23.776494 7.412995 -25.108106
-24.718159 7.169126 -9.061667
-38.929897 1.238394 -33.197963
-56.606328 -32.521131 -28.040887
-24.922847 7.116116 -7.101379
-44.327896 -3.051394 -3.886156
-27.201659 6.525957 -29.497572
-30.861217 5.367681 -36.293700
-47.033867 -5.929238 -34.962548
-51.077914 -11.571532 -39.359046
-41.073539 -0.303295 -24.329192
-56.616098 -30.605684 -53.935154
-47.362429 -6.324437 -26.726458
-39.390415 0.949091 -45.827853
-56.586136 -33.637722 -6.181160
-32.310347 4.770142 0.935393
-56.579041 -34.029143 -28.876859
-56.448393 -27.859505 -8.658042
-22.610867 7.714866 0.416624
-55.010416 -20.603558 -26.759613
-36.748563 2.608734 -35.523414
-56.592245 -31.827848 -61.120979
-28.382124 6.199324 -9.280882
-49.081002 -8.524360 -11.333690
-56.146228 -25.677536 -36.159875
-22.735967 7.682468 1.351823
-54.425967 -18.702219 -8.450652
-42.810159 -1.713947 -36.566258
-54.288038 -18.338224 -56.080726
-50.573364 -10.721036 -35.448257
-56.581453 -33.896302 -16.715263
-38.793871 1.323847 -31.921358
-22.126862 7.840212 -4.656157
-25.264540 7.027626 -56.892275
-45.819961 -4.581958 -24.922246
-28.738609 6.079736 1.178750
-48.993378 -8.400186 -26.872001
-56.617488 -31.904034 -8.443870
-21.900748 7.898770 -39.324379
-56.150797 -25.709946 -50.945027
-54.561167 -19.142055 -37.138468
-30.961848 5.333923 -52.041159
-23.278285 7.542020 -41.295407
-38.725349 1.366893 -39.184826
-43.946024 -2.708280 -12.832857
-54.800546 -19.920804 -1.702847
-33.909912 4.088647 -20.662099
-53.389230 -16.070015 -27.782468
-46.891099 -5.757514 -32.411746
-48.773057 -8.087968 2.228536
-55.427123 -22.085298 -5.350009
-36.850942 2.544418 -37.255136
-50.810330 -11.120479 1.725850
-55.446998 -22.174537 -3.190358
-39.884302 0.582084 -23.673294
-24.436032 7.242190 -33.931431
-54.266937 -18.284972 -11.227643
-38.619812 1.433193 -44.944720
-56.574082 -29.917671 -42.135194
-30.171714 5.598984 -22.316237
-55.489645 -22.366022 -1.388179
-54.723366 -19.669723 -9.327450
-48.743882 -8.046623 -47.195395
-51.246984 -11.856526 -44.142736
-48.548985 -7.770433 -25.006863
-41.308665 -0.478344 -27.228537
-56.527127 -29.148783 -36.491141
-26.109381 6.808831 -0.281987
-34.111175 3.988663 -10.625924
-42.001852 -1.006357 -0.276260
-24.465915 7.234451 -41.377624
-56.603626 -32.670564 -15.631488
-22.082870 7.851605 -7.756581
-49.038323 -8.463878 -2.881539
-56.324490 -26.941904 -60.204983
-51.016095 -11.467328 -15.160343
-39.945434 0.536571 -52.514458
-46.807078 -5.656453 -48.453704
-30.081199 5.629348 -58.058742
-54.219610 -18.165540 -17.811425
-49.139468 -8.607212 -14.537598
-41.420281 -0.561442 -28.876187
-56.480216 -28.380613 -22.964261
-40.203144 0.344708 -37.602721
-55.729250 -23.441857 -24.925927
-56.413030 -27.569895 -34.477545
-28.342703 6.212548 -39.028110
-49.952444 -9.759287 -37.676514
-33.672476 4.189807 -30.717343
-24.626338 7.192905 2.281768
-37.780009 1.960767 -21.184115
-56.462174 -28.085172 -17.306732
-45.123449 -3.867475 -4.319186
-24.277513 7.283243 -12.730830
-35.119790 3.461201 -3.502762
-26.750914 6.642689 -21.305032
-51.016811 -11.468534 -30.664900
-35.637566 3.190427 -38.147926
-37.343656 2.234889 -14.750856
-45.428061 -4.179946 -39.781129
-56.579743 -33.990568 -27.659282
-50.773337 -11.058121 -7.540624
-56.487732 -28.503693 3.541336
-47.352859 -6.312926 -29.046776
-38.804305 1.317292 -5.516519
-32.335169 4.759566 -24.987011
-25.720435 6.909559 -19.393696
-56.433293 -27.713616 -43.689076
-56.587043 -33.587477 -10.658888
-54.482657 -18.886643 -27.095789
-43.068996 -1.940532 1.143841
-34.667598 3.697678 -8.120433
-56.200521 -26.062622 -7.586588
-51.825600 -12.831872 -58.083832
-38.352362 1.601208 3.633393
-39.249536 1.037592 3.380071
-41.320481 -0.487141 -9.134888
-42.695419 -1.613504 -4.943136
-49.275767 -8.800362 3.611342
-56.306256 -26.812574 -4.230075
-42.642090 -1.566820 -49.401927
-56.158597 -25.765272 -28.848978
-35.482467 3.271537 -19.917049
-54.634586 -19.380903 -45.939180
-31.120725 5.276980 -61.101885
-52.396739 -13.980346 -50.013296
-56.630876 -30.847675 -5.306250
-41.776426 -0.826589 -48.764039
-54.822869 -19.993426 -41.974789
-52.341924 -13.868692 -54.471771
-56.332895 -27.001518 -48.089408
-48.545933 -7.766108 -7.105642
-41.855010 -0.885094 -31.601676
-33.792295 4.138758 -40.335773
-49.134153 -8.599679 -0.662400
-44.927049 -3.666007 -14.728070
-33.002746 4.475145 -34.957478
-29.255383 5.906378 -34.944594
-34.544138 3.762242 -19.801186
-40.469803 0.146182 -7.374912
-35.332496 3.349965 -60.578378
-54.228155 -18.187105 -37.824838
-53.037147 -15.284788 -11.845928
-39.870980 0.592001 -16.050677
-37.345089 2.233989 -12.361236
-54.697201 -19.584601 -14.338856
-52.381161 -13.948614 -4.545272
-47.846698 -6.906922 -44.950511
-27.227081 6.519373 -37.268023
-51.139059 -11.674602 2.995078
-42.566124 -1.500319 -32.365379
-47.136028 -6.052119 -17.916183
-45.936482 -4.701485 -30.922102
-43.205064 -2.059646 -14.534004
-52.897149 -14.999627 -25.837216
-56.312066 -26.853786 -20.454589
-46.874873 -5.737998 -25.950704
-48.045467 -7.146005 -32.102238
-39.533660 0.843134 -11.320058
-46.423867 -5.201445 -23.098469
-33.855480 4.111838 -16.214837
-56.629944 -31.215096 -57.926375
-33.962684 4.066164 -15.065281
-25.066466 7.078922 -22.931405
-55.178193 -21.149370 -11.709690
-48.249352 -7.391240 -59.466500
-32.644696 4.627692 -28.553982
-44.130240 -2.869543 -10.357934
-28.955128 6.007102 -8.514245
-35.361162 3.334974 -13.807845
-56.579098 -34.026038 -24.218582
-31.185590 5.249344 -38.530184
-41.812488 -0.853437 -47.572470
-47.056598 -5.956580 -19.231385
-52.240208 -13.661508 -34.647939
-44.670546 -3.402886 -12.143093
-56.599341 -30.331285 -28.693354
-49.738561 -9.456191 -1.590683
-53.732300 -16.935777 -38.552494
-56.552487 -29.564045 -54.084257
-56.523683 -29.092379 -33.017991
-40.123319 0.404137 -9.342322
-50.613236 -10.788247 -40.814097
-50.809130 -11.118456 -14.084833
-30.395338 5.523966 -32.965395
-39.596374 0.796443 -33.839199
-28.609206 6.123146 -6.701917
-30.489950 5.492227 -10.664074
-52.924605 -15.055551 -51.821070
-38.769353 1.339249 -16.109470
-33.452770 4.283412 -51.765072
-55.174350 -21.136870 -52.818133
-39.077522 1.145654 -43.635999
-53.544673 -16.462288 -5.042068
-32.317984 4.766888 -14.169880
-30.383490 5.527941 -11.785600
-56.368765 -27.255940 -17.883986
-37.846255 1.919151 -23.826204
-24.471928 7.232894 -47.458029
-35.834596 3.087389 -18.167172
-43.722332 -2.512461 -53.192146
-51.484793 -12.257388 3.875678
-47.733942 -6.771299 -39.578941
-53.435717 -16.187328 -28.963997
-26.111845 6.808193 -23.719821
-46.959832 -5.840188 0.423848
-53.066669 -15.344920 -15.828809
-27.365378 6.483557 -22.410552
-56.615770 -30.600319 -39.640347
-55.769788 -23.623877 -58.502968
-53.208468 -15.633750 -14.219002
-30.708463 5.418924 -30.052806
-48.855138 -8.204285 -1.533318
-56.154560 -25.736633 -14.965260
-55.562077 -22.691246 -60.709136
-25.460262 6.976938 -58.093625
-35.399376 3.314990 -34.614713
-31.497829 5.116315 -3.191885
-55.836443 -23.923159 -48.190168
-51.854715 -12.880949 -37.101933
-22.967161 7.622594 -17.934893
-41.611604 -0.703880 -52.056068
-56.607700 -32.445266 -6.633447
-43.389188 -2.220827 -0.126505
-25.056384 7.081533 -55.126784
-49.270920 -8.793493 -20.449565
-48.662603 -7.931443 -41.176297
-40.595068 0.052923 -57.604209
-44.984093 -3.724523 -47.272073
-41.790452 -0.837031 -22.447227
-55.196382 -21.208544 -35.746710
-52.570433 -14.334142 -11.772899
-37.184106 2.335121 -4.787675
-47.308868 -6.260013 -15.542316
-51.647127 -12.531028 -34.681794
-51.734335 -12.678031 -56.377235
-55.022938 -20.644292 -28.686875
-55.938634 -24.382001 -39.992763
-55.155328 -21.074988 -17.264098
-54.521972 -19.014544 -42.616766
-46.685959 -5.510769 -12.861083
-40.897089 -0.171929 3.519599
-31.105109 5.283633 -6.624204
-46.547643 -5.344401 -19.922594
-45.152972 -3.897759 -57.517838
-34.009648 4.041757 -39.203441
-45.247661 -3.994892 -0.939590
-47.794414 -6.844035 -49.211801
-53.306618 -15.861538 -60.254970
-46.903553 -5.772495 -24.648910
-44.190127 -2.921968 -49.408687
-35.877649 3.064874 -46.644691
-42.246333 -1.220374 -27.340171
-53.671909 -16.783377 -59.597034
-52.820766 -14.844042 -48.726129
-30.568796 5.465777 -46.299081
-29.207082 5.922581 -5.673367
-52.535598 -14.263186 -10.635873
-30.966973 5.332204 -58.642770
-24.101098 7.328930 -20.764297
-52.833171 -14.869311 -59.321167
-25.609067 6.938401 0.810262
-26.329228 6.751896 -29.770364
-27.567652 6.431173 -38.457718
-56.518798 -29.012391 -50.902436
-56.462222 -28.085953 -38.250819
-49.376655 -8.943332 -17.618642
-25.975679 6.843457 -27.970129
-47.137494 -6.053882 -49.472786
-47.365949 -6.328671 -12.883899
-26.426019 6.726829 -10.539588
-40.059993 0.451282 -22.376444
-39.860273 0.599973 -4.095651
-43.182939 -2.040277 3.620324
-44.664244 -3.396421 -48.246004
-53.673882 -16.788357 -2.735359
-46.173108 -4.944217 -6.702585
-53.917959 -17.404301 -6.502251
-55.040642 -20.701890 -48.552117
-55.501971 -22.421369 -42.678070
-45.439654 -4.191838 -49.740988
-33.006956 4.473351 -33.011907
-56.308716 -26.830027 -31.541200
-44.538934 -3.267878 -52.938280
-49.539191 -9.173663 -46.299240
-22.864790 7.649105 -49.205460
-56.613248 -32.138484 -18.529790
-55.529808 -22.546359 -52.211989
-51.294345 -11.936360 -35.575530
-56.102040 -25.364122 -25.287786
-26.920840 6.598682 -8.488287
-54.536960 -19.063305 -2.247873
-56.500282 -28.709190 0.387842
-44.300931 -3.023734 -29.592990
-55.460499 -22.235156 -36.024497
-48.823718 -8.159760 -22.373186
-54.228088 -18.186935 1.936733
-48.322591 -7.479333 -43.337751
-54.273383 -18.301240 -16.615256
-56.624231 -31.531015 -52.798566
-28.147689 6.277968 -54.637388
-24.037405 7.345425 -43.465148
-35.644693 3.186700 -10.992100
-50.801320 -11.105291 -2.960186
-36.746019 2.610332 -50.135698
-54.817274 -19.975225 -38.457661
-52.107385 -13.390961 -48.318761
-32.730116 4.591299 2.907904
-34.373710 3.851368 -60.828926
-43.912093 -2.678577 -35.208578
-42.749517 -1.660861 -39.059651
-55.700688 -23.313616 -50.687557
-22.649953 7.704743 -13.148770
-56.018724 -24.773181 -54.717038
-49.238394 -8.747401 1.416855
-54.477164 -18.868773 -21.610985
-56.139981 -25.633229 -59.868825
-46.178425 -4.949671 -35.867647
-41.473433 -0.601013 -40.644162
-25.187268 7.047637 -52.533411
-29.142939 5.944099 -17.526093
-34.218394 3.932592 -7.035644
-53.904664 -17.370750 -43.814700
-33.744780 4.159002 -57.980161
-56.292021 -26.711610 -38.419087
-38.125092 1.743982 -33.782890
-56.498081 -28.673159 -41.586864
-56.525475 -29.121723 -57.774114
-43.706814 -2.498877 -9.171657
-36.208651 2.891775 -4.246327
-55.510860 -22.461279 2.636728
-56.165197 -25.812078 -45.422595
-55.771191 -23.630174 -33.376776
-56.618735 -31.835027 -39.048979
-53.554736 -16.487682 -16.622829
-53.948284 -17.480828 -39.792025
-37.129065 2.369698 -20.594340
-33.752664 4.155643 2.421279
-56.581947 -33.868113 -56.769180
-56.319593 -26.907174 -55.539734
-44.077937 -2.823757 -26.990126
-40.043229 0.463763 -6.347053
-53.378435 -16.042773 2.419531
-55.877050 -24.105485 -38.022266
-52.085516 -13.346416 -57.153711
-56.521365 -29.054436 -53.216502
-39.961930 0.524290 -12.535034
-45.407667 -4.159026 -48.450539
-51.190466 -11.761256 -52.694398
-27.503985 6.447661 -50.030310
-23.650641 7.445588 -33.186003
-56.396881 -27.455356 -5.682437
-26.307532 6.757515 -38.243203
-56.579454 -34.006801 -9.103988
-43.742957 -2.530516 -56.157714
-25.807287 6.887067 -32.119378
-56.286657 -26.673569 3.332679
-54.034338 -17.697992 -24.228173
-40.489460 0.131548 -27.641487
-27.162796 6.536021 -11.311371
-47.494743 -6.483587 1.174687
-25.918067 6.858377 -33.200747
-42.438560 -1.388650 -46.773428
-55.760337 -23.581441 -34.489289
-30.126208 5.614249 -29.259345
-45.221533 -3.968089 -51.136009
-39.056932 1.158589 -6.705609
-56.524320 -29.102813 -0.686603
-41.401084 -0.547149 -30.048639
-56.497239 -28.659362 -43.902636
-25.905197 6.861710 -2.939689
-56.583996 -33.755293 -38.267428
-48.614154 -7.862784 -44.649531
-54.349460 -18.493227 -29.880180
-55.482925 -22.335853 -31.685566
-36.685782 2.642256 -58.797278
-40.381125 0.212202 -54.510912
-54.195330 -18.104267 -15.562898
-39.130643 1.112283 -46.788107
-56.583687 -33.773224 3.591463
-56.433384 -27.714266 -47.271551
-27.001563 6.577777 2.722113
-42.266857 -1.238341 -18.902059
-24.845162 7.136235 -25.667631
-56.286836 -26.674835 0.369684
-37.683702 2.021268 -54.500152
-48.983181 -8.385736 -35.295773
-44.185936 -2.918299 -41.825929
-24.278122 7.283085 -29.265099
-36.559591 2.708248 -55.342869
-56.450352 -27.891592 -57.322450
-40.682807 -0.012398 -39.989159
-56.621588 -31.677256 -15.530482
-50.837126 -11.165648 -6.505761
-27.563353 6.432286 -20.646826
-50.991580 -11.426004 -28.574729
-56.078778 -25.199135 -37.098329
-30.991968 5.323819 -31.627782
-34.147788 3.969515 -41.503740
-52.432052 -14.052274 -51.044042
-50.096487 -9.963412 -36.167489
-24.686426 7.177344 -60.580126
-37.373986 2.215836 -11.153718
-49.018685 -8.436048 -3.983985
-33.195569 4.392993 -26.081247
-33.907684 4.089597 -31.848496
-56.398220 -27.464852 -53.742091
-53.774423 -17.042078 -58.624079
-49.412041 -8.993478 -23.518347
-54.602146 -19.275368 -56.831898
-56.583569 -30.073018 -36.742332
-21.561532 7.986619 -31.439935
-25.364915 7.001631 -4.127674
-34.003075 4.045194 -54.092733
-26.151436 6.797940 1.954570
-49.571548 -9.219516 -24.534729
-53.117048 -15.447538 -19.038350
-38.189277 1.703660 -6.390682
-41.871863 -0.897641 -58.327794
-36.353056 2.816257 -31.116583
-38.954796 1.222751 -7.833173
-42.124495 -1.113718 -34.940051
-52.409783 -14.006915 -35.762472
-56.582569 -33.834578 -19.826734
-41.754180 -0.810027 -21.330496
-56.040020 -24.924229 -22.069971
-32.008405 4.898784 -34.323292
-56.563802 -29.749343 1.293040
-51.093478 -11.597768 -25.255555
-56.105403 -25.387974 -13.935591
-54.630838 -19.368709 -25.950932
-52.107060 -13.390300 -39.881865
-56.634120 -30.900786 -18.268621
-50.855682 -11.196927 -51.623287
-52.764327 -14.729083 -54.502601
-54.809658 -19.950447 -29.714781
-56.581917 -30.045976 -3.530816
-32.303270 4.773157 -26.222305
-35.536645 3.243204 -39.702980
-56.530432 -29.202893 -52.132863
-54.942065 -20.381198 2.812114
-56.594732 -30.255814 -1.204762
-53.320230 -15.895890 -9.929392
-34.894806 3.578858 -51.671375
-32.752851 4.581613 -54.809363
-48.807921 -8.137373 -27.897096
-28.485219 6.164739 -18.288994
-39.894587 0.574427 -43.892704
-56.537690 -29.321744 -23.584167
-56.096986 -25.328279 -2.674018
-53.737345 -16.948510 -60.779325
-43.130415 -1.994298 -27.259829
-53.150722 -15.516128 -33.155321
-27.675062 6.403356 -58.091164
-56.592350 -33.293778 -26.964874
-55.950907 -24.437107 -8.824486
-50.052340 -9.900850 -11.671117
-52.518469 -14.228295 -40.142159
-32.856017 4.537659 -6.348203
-56.098957 -25.342255 -34.571024
-53.156499 -15.527895 -37.159768
-54.146145 -17.980146 -53.098501
-56.488989 -28.524268 -2.274038
-24.724711 7.167429 -40.130200
-35.146317 3.447329 -6.443393
-41.975399 -0.983199 -26.454133
-22.633686 7.708956 -56.906886
-42.838645 -1.738883 -33.410094
-41.407300 -0.551778 -34.483937
-33.695439 4.180024 -55.132531
-56.439401 -27.756944 -42.243910
-42.626537 -1.553205 -21.583198
-36.390671 2.796586 -9.390751
-53.579363 -16.549830 -31.133921
-40.018366 0.482274 -19.665111
-48.566906 -7.795829 -33.364992
-54.149171 -17.987783 -40.873389
-56.597985 -30.309087 -10.446682
-50.461686 -10.532786 -39.637090
-21.655996 7.962155 -1.727132
-56.514951 -28.949399 -4.858945
-47.268189 -6.211083 -21.591182
-35.456576 3.285077 -8.935814
-56.511933 -28.899979 -39.987361
-55.659887 -23.130417 -0.626174
-55.263311 -21.426278 2.114559
-46.756689 -5.595844 -37.210468
-38.531578 1.488622 -53.957368
-25.832912 6.880431 -34.225165
-27.728998 6.389388 -44.302968
-43.340266 -2.178001 -16.624248
-51.056590 -11.535588 -59.809961
-56.371511 -27.275417 -23.612509
-52.927174 -15.060784 -34.845777
-43.300684 -2.143351 -39.862200
-52.130208 -13.437450 -11.471089
-44.627483 -3.358711 -46.225639
-49.434395 -9.025155 -54.361178
-50.927168 -11.317427 0.458128
-34.823842 3.615969 -54.815579
-50.515308 -10.623174 -59.319454
-28.282048 6.232895 -30.583627
-29.513429 5.819813 -11.303425
-28.199969 6.260430 -14.317479
-28.707085 6.090312 -23.687519
-48.830681 -8.169626 -36.381171
-25.830046 6.881173 -25.077506
-28.462098 6.172496 -11.890208
-31.421387 5.148883 -4.757820
-45.587344 -4.343339 -5.611447
-56.588363 -33.514158 -25.624548
-53.756373 -16.996527 -22.356021
-56.600313 -32.853198 -45.528288
-54.828201 -20.010774 -11.536512
-26.790004 6.632566 -33.692149
-21.774976 7.931342 -55.908659
-30.486262 5.493465 -21.250257
-52.259977 -13.701776 -37.715076
-56.413501 -27.573239 1.364635
-56.391072 -27.414157 -13.943659
-53.255885 -15.733509 -48.440436
-30.067954 5.633791 -56.636231
-38.866900 1.277969 -9.118306
-56.143638 -25.659169 -0.696341
-42.023491 -1.025299 1.188669
-44.098712 -2.841943 -15.068871
-37.191121 2.330713 -18.001388
-55.882297 -24.129046 -14.177374
-49.534376 -9.166839 0.146763
-54.711562 -19.631323 -48.149088
-34.849363 3.602623 -1.549049
-21.918233 7.894242 -37.640649
-28.312221 6.222774 -2.355161
-55.460694 -22.236034 -47.336662
-31.552715 5.092931 2.124498
-42.093390 -1.086489 -57.296594
-0.388575 41.529384 -32.013219
-9.422827 54.562097 -9.275099
-2.147762 45.423091 -21.370235
-45.569059 59.440097 -45.265973
-10.636168 55.551871 -53.625484
-22.237287 61.506990 -33.497216
-7.007932 52.207547 -0.252175
-5.228200 50.126925 -12.139647
-0.709171 42.352231 2.380938
-10.738038 55.634971 -6.038519
-0.658203 42.221416 -45.492230
0.364385 37.955280 -55.885512
-15.371305 58.699997 -39.531381
-36.785172 62.258436 -16.505286
-8.347982 53.545898 -4.392633
-41.235915 61.190004 -34.561006
-44.590119 59.890988 3.602597
-0.183851 41.003934 -28.073311
-11.264464 56.064399 -41.373696
-21.674085 61.360133 -55.184294
-7.379964 52.607055 -35.134682
-34.689062 62.556279 3.734608
-16.944720 59.510609 -12.281766
0.903354 33.826356 -32.533185
-18.293745 60.123985 -29.068842
-37.583762 62.117987 -2.587132
0.893104 33.904877 -54.391310
-3.059447 46.966094 -60.837125
-0.228523 41.118591 1.471511
-46.139192 59.177499 -15.158760
0.123958 39.797139 -3.990796
-0.471082 41.741147 -51.901628
0.184526 39.333136 -20.091082
-17.036929 59.552534 -34.687611
-12.292064 56.789374 -8.878473
-34.922591 62.535611 -0.375580
-35.765716 62.437730 -45.744098
-21.891240 61.416757 -30.167253
-15.060751 58.525234 -13.356022
-8.875266 54.057289 -23.368352
-41.764600 60.999538 -14.938014
0.715545 35.265120 -19.637430
-21.521958 61.320465 -13.227036
-0.687166 42.295752 -39.640909
-45.664117 59.396314 -22.251573
-3.186180 47.175996 -18.735510
-3.364604 47.471509 -7.151404
-4.249277 48.781580 -53.988620
-39.388993 61.701263 -49.644252
0.349515 38.069194 -28.132403
-10.372908 55.337119 -40.523927
-29.895853 62.740973 -55.289175
-18.897493 60.391697 -27.711270
-17.887741 59.939382 -18.576507
-27.707507 62.562106 -55.908709
-33.682618 62.645351 -28.167126
-3.689257 48.009215 -54.223067
-18.667382 60.293870 -33.147054
-45.825446 59.322007 -9.535268
-40.034202 61.529656 -5.162352
-32.083244 62.735596 -3.973042
-2.481717 46.009231 -56.130080
0.712557 35.288005 -56.053870
-43.626899 60.328619 -1.906572
0.490619 36.988223 -39.819943
-31.311808 62.737492 -5.769613
-23.668667 61.880227 -12.861134
0.043848 40.410841 -32.195161
-27.934781 62.581106 -10.485719
-10.920720 55.783992 -10.093788
-12.745670 57.098651 -14.358412
-15.219313 58.614464 -58.825007
-31.728990 62.736467 -27.916460
-18.210485 60.086128 -44.067989
-4.554612 49.201205 -42.068109
0.731971 35.139285 -31.798615
-26.661182 62.442671 -57.604758
-23.557015 61.851113 -51.016975
-23.432047 61.818527 -36.202733
-40.582330 61.383870 -21.426446
-4.808385 49.549968 -13.658743
0.147308 39.618258 -45.941386
-42.738847 60.648552 -42.109498
-13.143010 57.369565 -53.049476
-6.621289 51.762121 -17.747233
-0.851095 42.716496 -9.675819
-42.759714 60.641034 -59.810991
-39.399677 61.698421 -56.038812
-25.631920 62.266783 -6.911031
-10.058285 55.080467 -27.402869
-0.980747 43.049263 -29.254230
-9.735797 54.817401 -38.396704
-25.574473 62.256966 -60.550705
-12.870351 57.183661 -3.499386
-0.405554 41.572960 -53.603646
-5.124120 49.983887 -8.016208
0.900368 33.849231 -34.931115
-7.259092 52.489826 -22.537592
-33.806814 62.634359 -38.722906
-41.525864 61.085545 -48.793612
-27.920111 62.579880 -4.105284
-11.479513 56.235362 -45.007107
0.316800 38.319817 -50.611347
-45.951081 59.264141 -35.995282
-8.716241 53.903058 -55.288162
-27.651840 62.557453 -13.455416
-24.314557 62.041661 -58.362140
-44.221152 60.060930 -51.066223
-0.618108 42.118505 -37.530491
-31.646351 62.736670 -38.644315
-18.575958 60.252302 -8.054718
-13.928525 57.888080 -36.828471
0.481159 37.060698 -36.600242
-24.900944 62.141868 -46.812531
-42.694899 60.664385 -50.800023
-9.589539 54.698092 -6.981097
-17.348459 59.694181 -40.912241
-39.056979 61.789569 -26.651662
-8.797873 53.982229 -30.781771
-7.475114 52.699337 2.153489
-32.995300 62.706180 -18.944374
-5.092192 49.940008 -57.335558
-33.239263 62.684589 -19.877635
-29.042016 62.673668 -6.005973
-38.946489 61.818956 -22.910280
-15.123155 58.560352 -1.453584
-1.056670 43.206121 -59.056343
-43.840443 60.236282 -50.060776
-1.554931 44.218529 3.545637
-15.597096 58.827060 -6.011222
0.470997 37.138550 -34.276954
-21.011022 61.141503 1.750272
-44.573696 59.898552 1.905125
-35.342898 62.498413 -53.426584
-10.459886 55.408070 -26.408152
-1.744556 44.603824 -57.184039
-39.875531 61.571858 -52.584123
-39.150933 61.764580 -25.525400
-28.085703 62.593723 3.815739
-18.475774 60.206750 -55.240517
-5.181178 50.062303 -20.748632
-12.924998 57.220921 1.268702
0.571941 36.365237 2.400589
0.025086 40.467674 -40.353651
-28.069481 62.592366 -28.004426
-37.287746 62.170047 -28.137506
-38.152720 62.017923 -48.078377
-12.745268 57.098377 -47.734519
-6.261647 51.347802 -19.915450
-12.480623 56.917937 -34.492480
-40.977584 61.278744 -54.842980
-20.183385 60.847886 -48.547466
-24.439522 62.063016 -0.845296
-7.664213 52.882737 -7.485937
-12.466532 56.908330 3.710352
-14.031401 57.945973 -52.989299
-32.232558 62.735229 -10.089762
-45.570385 59.439486 3.770588
-1.799320 44.715099 -49.098384
-8.097325 53.302796 0.804667
-8.767104 53.952387 -58.466700
-8.841067 54.024121 -59.829124
0.903488 33.825331 -6.815413
-3.104319 47.040413 -8.630874
-26.701047 62.449484 1.393256
0.085385 40.092634 -25.542283
-19.327420 60.544220 -3.451088
-1.478545 44.063322 -13.216013
-24.813243 62.126880 -16.852152
-39.773499 61.598996 -37.824765
-40.989049 61.275695 -39.631085
0.524128 36.731518 -5.080305
-27.649408 62.557249 -54.908648
-4.012966 48.456814 -2.073657
-8.629508 53.818939 -53.963902
-0.788904 42.556873 -17.454321
-20.249175 60.871226 -1.522291
-8.450293 53.645125 -20.111940
-18.171649 60.068470 -15.836492
-21.468899 61.303941 -27.493590
-0.432787 41.642858 -18.086581
-2.308270 45.721961 -36.062498
-25.489265 62.242405 -15.414302
-34.229434 62.596957 -43.495960
-35.958471 62.403829 -58.140632
-4.698785 49.399344 -58.804284
0.786243 34.723515 -48.512877
-3.795743 48.158281 -0.692627
-26.268458 62.375559 -31.055454
-1.416693 43.937645 -34.343527
-30.894818 62.738517 -19.654020
-6.952463 52.143645 -30.875015
-21.447972 61.296517 -1.757235
-8.430702 53.626125 -40.187694
-44.622361 59.876137 -14.402577
-33.434486 62.667311 -13.808516
-5.979255 51.022476 -50.756674
-26.793034 62.465203 -15.962832
-5.839297 50.861241 -26.127348
-6.913355 52.098591 0.917709
-1.527741 44.163281 -6.969635
-30.714366 62.738961 -40.556196
-34.951558 62.533048 -13.780987
-9.674232 54.767179 -43.206773
-16.224100 59.179904 -1.235818
-6.765974 51.928803 -13.173210
-2.933151 46.756917 -29.542488
-12.982080 57.259840 -57.178700
-40.621953 61.373332 -14.186251
0.085958 40.088242 -27.582334
-18.867823 60.381172 -22.618104
-4.293001 48.841669 1.940620
-43.084362 60.524076 -7.593477
-23.595401 61.861122 -37.256340
-38.512873 61.934285 -19.972739
-15.661473 58.863288 -44.282391
-45.569208 59.440028 -11.325439
-9.365976 54.515722 -27.887983
-15.827230 58.956567 -37.694358
-2.122249 45.371252 -27.687513
-6.262657 51.348965 -40.363517
0.873440 34.055517 -36.156665
-33.173753 62.690386 -39.676019
-29.997944 62.740722 -52.806102
-21.469209 61.304051 -36.754271
-21.957992 61.434162 -15.964733
-22.544854 61.587189 3.525582
-13.754381 57.786409 -4.611148
-24.095937 61.991639 -56.116362
-15.518561 58.782864 -22.337725
-21.538533 61.324787 2.705234
-16.807737 59.448325 2.893553
0.389136 37.765665 -38.931866
-32.745058 62.728327 -6.008087
-39.222769 61.745474 -59.428788
-0.571812 41.999682 -34.026497
-9.839685 54.902146 -16.094777
-41.443394 61.115256 -8.849034
-13.601640 57.682267 -21.611363
-18.044275 60.010555 -36.747782
-33.635549 62.649517 -47.735807
-34.511865 62.571961 -26.435928
-42.957740 60.569693 -49.519012
-9.005730 54.183822 -15.815135
-19.951285 60.765546 -59.920037
-29.428619 62.705987 0.994751
-17.624040 59.819483 -8.698210
-5.925374 50.960404 1.967069
-1.943640 45.008339 -3.145095
-7.375356 52.602586 -47.415672
-10.200989 55.196877 -14.002085
-7.124191 52.341481 -5.827726
-5.887912 50.917246 -5.632708
-3.162135 47.136170 -46.756735
-16.137811 59.131345 -24.512818
-3.059800 46.966678 -38.439811
0.393490 37.732308 -7.419732
-26.253001 62.372918 -44.499927
-22.277858 61.517568 -43.033027
-19.489883 60.601856 -38.301934
0.896482 33.878997 -56.211692
-24.968683 62.153443 -33.883449
-12.581062 56.986418 -52.231741
-7.428866 52.654483 -12.515038
-16.840384 59.463169 -28.534246
-7.249991 52.480999 -60.983617
-9.744550 54.824541 -54.269337
0.474250 37.113624 -54.826698
-39.505974 61.670149 -14.683578
-44.227528 60.057994 -47.185438
-7.986412 53.195225 -49.465481
-43.273563 60.455913 -27.921082
-14.157984 58.017207 -5.653398
-29.207535 62.687505 -15.773197
0.318329 38.308101 -11.623404
-8.753044 53.938751 -48.395745
-18.786183 60.347887 -11.895482
-11.000677 55.849216 -14.664504
-2.704395 46.378041 -47.921390
-2.843025 46.607645 -31.860610
0.885539 33.962834 -10.807140
-37.770716 62.085106 -16.733093
-41.806986 60.984268 -51.518419
-36.298218 62.344077 -26.185931
-31.458139 62.737133 -20.650828
-44.736152 59.823726 -55.023093
-0.427630 41.629621 -15.485573
0.547697 36.550961 -28.996645
-8.128566 53.333095 -50.525199
-29.892573 62.740981 -4.035836
-30.309093 62.739957 -15.690820
-11.292800 56.087514 3.188573
-2.500291 46.039994 -32.915854
-2.548002 46.119015 -46.931488
-17.648330 59.830527 -5.477831
-19.612627 60.645402 -54.374034
-39.838697 61.581655 -40.917904
-11.100062 55.930289 -54.449919
-35.350616 62.497730 -7.962208
-25.980988 62.326434 0.439591
-32.777421 62.725462 -38.380863
-9.753356 54.831724 -47.716939
-10.176526 55.176922 -46.528962
-5.992597 51.037847 -28.834941
0.263996 38.724334 -54.793152
-12.144587 56.688821 -29.931940
-46.064144 59.212066 -23.213564
-9.062467 54.238849 -18.059662
-7.992199 53.200838 -13.314498
-6.995983 52.193781 -42.192092
-8.686476 53.874190 -57.321919
-32.454001 62.734685 -29.674653
-40.572901 61.386378 -50.562149
-45.885158 59.294504 -44.239837
-5.246622 50.152243 -47.622743
0.865069 34.119648 -28.051611
-20.849281 61.084123 -35.869679
-20.484518 60.954718 -38.440083
-46.222992 59.138901 -41.425897
0.793435 34.668416 -42.678741
-38.606317 61.909432 -17.795312
-3.264678 47.306007 -48.079826
-2.791025 46.521522 -16.046508
-2.368233 45.821274 -18.229375
-15.001702 58.492005 -8.537070
-13.671119 57.729640 -50.202328
-23.488954 61.833366 -38.954229
0.804487 34.583751 -24.413301
-42.961076 60.568491 -53.453029
-11.880513 56.508771 -18.754729
-20.044093 60.798470 -22.260302
0.131634 39.738334 -52.436385
-25.838552 62.302094 -23.336644
-13.775611 57.800885 -45.014721
-42.748006 60.645252 -36.499898
-34.377110 62.583887 -32.931561
-42.311875 60.802374 -43.674201
-43.241316 60.467531 -31.073774
-4.654608 49.338631 -29.980199
-42.289530 60.810424 -34.999574
-4.202896 48.717836 -37.141875
-6.212212 51.290851 -57.696324
0.713305 35.282277 -41.229162
-4.020302 48.466896 -42.734658
-6.532589 51.659936 -38.129800
-35.017029 62.527253 -29.969298
-42.251621 60.824082 -54.697733
0.115767 39.859885 -41.197138
-9.601856 54.708139 -4.103641
-7.503580 52.726945 -52.774252
-5.326354 50.261820 -26.922731
-23.827340 61.921601 -57.387579
-23.203118 61.758833 -59.172144
-31.085627 62.738048 -3.840516
-39.408633 61.696039 1.579300
0.183838 39.338409 -51.215940
-40.875090 61.306005 -26.606048
-2.228042 45.586211 -15.503367
0.090419 40.054073 -12.528035
-21.198538 61.208027 0.431349
-3.600485 47.862186 -30.054658
-17.236071 59.643080 -26.086051
0.215072 39.099131 -57.848787
-0.590060 42.046517 -43.058912
-8.722762 53.909382 -37.757932
-19.108241 60.466463 -30.793600
-13.783736 57.806424 -14.619572
-9.039079 54.216165 2.759029
-40.383237 61.436823 -58.823815
-2.570043 46.155520 -17.306785
-27.912340 62.579230 -11.884805
-46.241403 59.130422 -1.231477
-6.472830 51.591092 -48.179522
-36.343948 62.336035 -17.662670
0.841651 34.299049 -31.169138
-27.707739 62.562126 -56.961631
-38.858055 61.842477 -53.129823
-34.699595 62.555347 -5.801790
-7.601717 52.822124 -25.892869
-11.897119 56.520094 -33.000035
-46.124450 59.184289 -24.256713
0.155660 39.554274 -29.859860
0.107913 39.920055 -7.549274
-18.199564 60.081162 -45.797999
-41.720946 61.015265 -37.416908
-28.911182 62.662731 -45.298070
-31.952007 62.735919 -24.928779
-18.259314 60.108330 -0.648181
-10.758454 55.651625 -33.058632
-0.950899 42.972653 3.372159
-11.109540 55.938020 -17.849838
-29.818591 62.738588 -31.384753
-13.157088 57.379164 -15.633248
-16.768176 59.430337 -18.507869
-30.667980 62.739075 -24.161898
-1.384370 43.871968 -32.696370
-12.761843 57.109678 -40.304702
0.097620 39.998905 -59.146858
-6.903812 52.087597 -56.867141
-37.030175 62.215347 -4.514163
-33.538585 62.658098 -59.686537
-25.787830 62.293426 -9.977794
0.490005 36.992929 -17.362496
0.127130 39.772837 -26.531699
-9.568066 54.680575 -50.692659
-1.646036 44.403644 0.439964
-10.980954 55.833128 -36.631844
-17.584015 59.801284 3.606757
-11.963668 56.565468 -31.044481
0.448153 37.313547 -46.505703
-44.264254 60.041078 -44.969845
-1.530920 44.169741 -17.137159
-15.003586 58.493065 -2.702553
-2.669674 46.320534 -19.152536
-44.242013 60.051322 0.183437
-18.297699 60.125782 -48.831766
-16.368138 59.248447 -45.022590
-0.717084 42.372539 -27.385786
-14.606698 58.269718 -29.370759
-2.372686 45.828649 -22.241756
-26.838648 62.472998 -37.402401
-24.458051 62.066182 -32.996818
0.741696 35.064779 -50.392863
-1.528899 44.165636 -39.868825
-44.993422 59.705230 -10.480006
-42.617508 60.692266 -9.982055
0.433377 37.426747 -48.860138
-20.485102 60.954925 -39.622148
-12.434891 56.886756 -56.260650
-40.049995 61.525456 -33.152389
-2.806241 46.546723 -23.392956
0.409628 37.608683 -19.429203
-32.143954 62.735447 -40.984260
-44.970722 59.715685 -33.133794
-20.419508 60.931654 -4.291444
-22.713689 61.631213 -55.842317
-37.708058 62.096126 -12.775791
-1.796236 44.708833 -24.822417
-4.175159 48.679717 -57.086315
-25.705880 62.279422 -24.984370
-39.145600 61.765998 -39.526136
-9.960118 55.000389 -21.270667
-4.118745 48.602187 -22.723436
-7.669255 52.887627 -33.580667
-29.473474 62.709737 -41.642567
-2.364978 45.815883 -57.113728
-3.778949 48.135201 2.573834
-21.042913 61.152817 -52.245518
-33.026117 62.703452 -44.067499
-30.951101 62.738379 -43.538090
-1.545473 44.199310 -53.737140
-21.079096 61.165653 -25.585434
-27.882714 62.576753 0.550515
-1.260882 43.621057 -27.168783
0.115744 39.860064 -33.509453
-0.815196 42.624356 -50.519345
-30.488483 62.739516 -47.384484
-14.205299 58.043833 -13.094054
0.394994 37.720785 -8.701473
-1.920909 44.962153 -17.662932
-28.215757 62.604595 -18.650798
-42.726536 60.652987 -15.174929
-18.585323 60.256560 -10.113194
0.733276 35.129283 -0.902408
-45.995081 59.243875 -20.988834
-8.646343 53.835266 -41.572642
-13.144560 57.370622 -6.378847
-1.664063 44.440272 -0.672757
-22.314073 61.527012 -59.899424
-43.527152 60.364554 -54.586760
-16.388650 59.257774 -22.427661
-20.493877 60.958038 -55.652233
0.263410 38.728823 -36.008798
-37.681685 62.100765 2.570232
-0.503418 41.824139 -60.336348
-35.590783 62.468495 -59.318466
-27.852449 62.574223 -25.312263
-22.536178 61.584926 -22.223884
-14.961092 58.469152 -57.807722
-4.330211 48.892808 -35.750154
-40.554092 61.391381 -0.326595
-22.439018 61.559591 -10.331498
-40.153880 61.497826 -48.996824
-45.936778 59.270729 -4.976120
-0.179174 40.991930 -16.949717
0.173271 39.419358 -6.653530
-34.444663 62.577909 -37.812851
-35.157247 62.514844 2.148749
-35.328630 62.499676 -9.360145
-7.575281 52.796486 -14.163243
0.901245 33.842507 -3.430008
-41.391942 61.133793 -15.985115
-34.150336 62.603957 -1.154795
-9.973451 55.011265 -0.908934
-42.610991 60.694614 -25.298247
-8.731868 53.918214 -6.254024
-10.432061 55.385372 -44.745733
-3.058017 46.963726 -40.501801
0.431858 37.438384 -11.083223
-25.204594 62.193758 -36.137813
-37.213327 62.183136 -36.930555
-15.044547 58.516116 -45.147477
-5.102567 49.954266 -3.463588
-42.056851 60.894250 -26.102032
-40.197399 61.486251 3.865271
-15.398833 58.715488 -20.205972
-30.785773 62.738785 -21.683285
-43.308449 60.443345 -43.615757
-38.114270 62.024685 -1.461447
-27.006205 62.501631 -60.775294
-13.680243 57.735861 -19.176087
-2.940507 46.769101 -58.223454
-28.854172 62.657965 -51.626982
-10.831207 55.710973 -11.487484
-0.563740 41.978964 -41.810702
0.529830 36.687840 -7.716026
-10.461744 55.409586 -43.573196
-0.968079 43.016747 -44.718624
-25.520161 62.247684 -58.139819
0.002438 40.525801 2.518131
-38.312998 61.987446 -55.497799
-29.457098 62.708368 -18.171306
-42.065587 60.891103 -3.126739
-43.257495 60.461702 -45.343998
-0.357663 41.450043 -46.635427
-7.866725 53.079145 -30.570414
-12.341325 56.822961 -48.688831
-0.568831 41.992030 -36.304196
-18.136215 60.052359 -60.938775
0.047065 40.386194 -38.878534
-44.483875 59.939923 -26.073486
-44.935673 59.731829 -60.133254
-14.893405 58.431062 -28.410764
-44.764837 59.810514 -42.288734
-33.858888 62.629751 -34.480093
0.835060 34.349543 -39.033633
-35.131131 62.517155 -31.495771
-2.704098 46.377549 -43.248175
-1.998460 45.119728 -51.271282
-2.430092 45.923728 -59.823330
-30.735120 62.738910 -27.058347
-38.869852 61.839339 -58.197858
-0.772945 42.515913 -20.767611
-12.257520 56.765821 -7.477058
-22.944592 61.691422 -17.662034
-6.264467 51.351051 -44.636962
0.879597 34.008353 -21.822808
0.364645 37.953285 -23.907763
-45.563002 59.442887 -31.043356
-7.330745 52.559319 -31.983187
-28.270633 62.609182 -8.844640
-7.301519 52.530974 -46.275063
-16.261080 59.199770 -47.573278
-3.410818 47.548051 -45.026094
0.419662 37.531813 -57.053096
-30.261492 62.740074 -11.969595
-2.864569 46.643328 -39.472505
0.826482 34.415251 -26.839173
-27.764432 62.566865 -16.764532
-28.785547 62.652228 -47.203300
-21.372138 61.269614 -44.812433
-11.470842 56.229450 -2.977925
-8.304394 53.503624 -24.354990
-36.592642 62.292297 -32.083481
-0.197779 41.039682 -5.072594
0.626068 35.950582 -42.303301
-31.967595 62.735881 -19.519624
0.490378 36.990070 -1.863242
-26.944948 62.491163 -6.294287
-0.341401 41.408304 -0.698018
-7.599433 52.819909 -43.492390
0.236662 38.933733 -7.592074
-26.452698 62.407044 -47.513730
-42.635669 60.685723 -24.287964
-11.520358 56.263210 -47.815613
-45.482094 59.480152 -18.416162
-19.780914 60.705104 -35.176455
-32.204783 62.735298 -1.999341
-13.161268 57.382014 -35.166892
-18.359949 60.154086 -56.515174
-32.959358 62.709361 -1.174038
-35.109955 62.519029 -25.605374
-0.186389 41.010449 -44.513954
-10.860232 55.734649 -45.881339
-24.238673 62.028693 -45.741071
-1.486434 44.079351 -3.312012
-31.357557 62.737380 -23.331116
-23.175290 61.751577 -29.800143
-15.822684 58.954008 -41.632247
-41.687226 61.027413 -10.518150
-3.744210 48.087460 -32.804021
-7.008109 52.207751 -58.646488
-28.557923 62.633199 -36.993815
-31.856563 62.736153 -44.362971
0.430186 37.451192 -2.877481
-17.885447 59.938339 -41.758751
-43.600791 60.338025 -13.266044
-37.367495 62.156022 -21.508240
-38.411492 61.961250 -50.701714
-24.196477 62.017855 -21.444904
-27.088213 62.510335 -3.323574
-27.451603 62.540713 -47.680921
-9.580229 54.690497 -31.207350
-21.823554 61.399107 -20.925520
-45.017165 59.694294 -50.207477
-35.949860 62.405344 3.706613
-26.492761 62.413890 -13.807905
-7.780508 52.995527 -27.496333
-18.496523 60.216184 -17.785482
-18.820869 60.363658 -41.059439
-16.245906 59.192175 -51.088397
-31.342343 62.737417 -8.819237
-28.390011 62.619162 -60.589233
-3.686885 48.005286 0.793525
-13.750447 57.783727 -34.024875
-2.390927 45.858861 -7.798181
0.657173 35.712291 -26.212047
-28.114425 62.596124 -32.900700
-30.448666 62.739614 -7.645422
-8.742514 53.928539 -21.523527
-45.415196 59.510965 -43.181904
-3.860546 48.247341 -43.824456
-5.148808 50.017816 2.120556
-1.170344 43.437093 -8.280328
-40.778695 61.331643 -16.851410
-0.324518 41.364974 -8.061358
-9.976379 55.013654 -2.032979
-39.797662 61.592569 -57.493815
-39.343070 61.713477 -19.009300
-3.744303 48.087586 -55.435758
-28.928263 62.664158 -56.730506
-24.609583 62.092077 -47.818203
-39.982611 61.543378 -11.444116
-3.590076 47.844946 -16.313386
-17.033790 59.551107 -43.753649
-9.129917 54.304266 -11.391555
-42.662506 60.676055 2.015274
-40.048798 61.525774 -38.981219
-11.855722 56.491868 0.306352
-19.361697 60.556380 -13.615806
-19.908732 60.750449 -57.744948
0.865438 34.116823 -25.506224
-2.354840 45.799093 -45.787032
-26.932513 62.489038 -51.068269
-40.533594 61.396833 -30.746447
-3.634912 47.919206 -36.259263
-5.496020 50.465774 3.656568
-15.337915 58.681207 -17.315369
-11.878853 56.507639 -37.748741
-35.621180 62.463149 -54.807752
-19.984479 60.777321 -49.522825
0.289953 38.525483 -34.278868
-12.671326 57.047962 -12.074942
-3.388587 47.511231 -34.875903
-27.983563 62.585184 -14.381841
-33.440157 62.666809 -15.180534
0.673098 35.590295 -20.716996
0.538703 36.619867 -3.728973
-20.010860 60.786681 -17.047260
-2.501188 46.041479 -53.171071
-15.969392 59.036567 -15.196294
-8.700648 53.887934 -47.215150
0.567766 36.397217 -57.212908
-27.807973 62.570505 -1.638913
-11.370459 56.150864 -57.920580
-1.688109 44.489132 -23.801680
-2.626033 46.248254 -5.710908
-19.206380 60.501280 -61.077946
-14.232573 58.059181 -42.440264
-26.455047 62.407445 -18.491422
-15.992861 59.049775 -57.869725
-22.213867 61.500883 -46.995864
-2.103640 45.333441 -44.794241
-12.047335 56.622513 -53.474816
-42.526234 60.725149 -47.988632
-10.886596 55.756156 -19.079806
-5.409297 50.365866 -41.609555
-33.228770 62.685517 -22.098494
-30.932904 62.738424 -50.301865
-35.511848 62.482378 -32.763202
-6.941068 52.130517 -23.998283
-17.549532 59.785605 -6.896022
-18.248299 60.103321 -21.745505
-34.138029 62.605046 -40.142520
-1.986807 45.096049 -5.697061
-4.454729 49.063934 -52.800226
-34.681448 62.556953 -35.298861
-8.670803 53.858989 -12.838034
-24.182883 62.014310 -31.580166
-1.407574 43.919117 -28.413984
-37.254167 62.175953 -46.531609
-14.645928 58.291795 -34.450359
0.115293 39.863517 -60.920610
-4.631966 49.307514 -1.968595
-15.610260 58.834468 0.819876
-24.455818 62.065801 -7.443961
-6.043987 51.097051 -20.929745
-39.461759 61.681909 -23.890798
-27.591671 62.552423 -59.807529
-28.711524 62.646040 -12.927162
-2.711617 46.390002 -41.479939
-39.664999 61.627853 -51.279811
-8.083953 53.289826 -5.407368
-16.536093 59.324814 1.896538
-19.231326 60.510130 -39.487672
-30.874465 62.738567 -54.563394
0.648661 35.777503 -6.844001
-38.887441 61.834661 -28.863672
-18.494517 60.215272 -4.579195
-18.288416 60.121562 -26.708449
0.396391 37.710088 -4.099055
-2.461894 45.976400 -9.191397
-22.482200 61.570851 -24.036997
-46.148048 59.173420 -8.425656
-9.073781 54.249821 -3.176133
0.118230 39.841014 -23.098516
-43.505918 60.372204 -16.679391
-6.304700 51.397400 -51.934492
-20.809937 61.070165 -47.285737
-23.228054 61.765335 -49.969103
0.579633 36.306311 -48.458449
-7.710838 52.927957 -57.865647
-15.466912 58.753799 -36.549716
-41.593637 61.061129 -58.913962
-11.445680 56.212225 -61.074372
-40.814757 61.322052 -40.799492
0.261605 38.742651 0.261765
-1.607327 44.324992 -38.694666
-29.093023 62.677932 -33.176207
0.428252 37.466008 -12.887512
-5.390024 50.343663 -29.791491
-15.217553 58.613474 3.806538
-30.957849 62.738362 -49.227442
-20.335762 60.901944 -14.201812
-14.624230 58.279584 -18.639041
-36.410104 62.324400 -29.123099
-20.368246 60.913468 -0.420607
-40.416056 61.428094 -45.097544
0.905139 33.812680 -40.245907
-9.762808 54.839435 -49.373217
-6.423825 51.534636 -6.248025
-3.516645 47.723325 -9.614156
-9.160678 54.334100 -28.954980
0.406790 37.630425 -31.170719
-3.254008 47.288335 -54.833019
-19.828660 60.722043 -10.672058
-38.278147 61.995864 -22.024732
-19.359228 60.555505 1.739484
-28.412613 62.621051 -39.763203
-45.645190 59.405032 -49.010009
-43.723096 60.290330 -30.029263
-1.697555 44.508325 -21.872341
-19.147357 60.480340 -6.328930
-34.255505 62.594649 -42.231802
-22.087491 61.467930 -60.857762
-22.911970 61.682915 -16.555165
0.872825 34.060233 -57.455536
-1.970205 45.062318 -11.737636
-46.192011 59.153171 -58.148141
-43.730886 60.286743 -55.645401
-35.398046 62.493533 -37.292071
-38.750728 61.871023 3.221536
-27.189268 62.518783 -21.504917
-24.241012 62.029093 -30.138813
-6.164786 51.236215 -54.451733
0.105054 39.941954 -14.799134
-6.883072 52.063704 -1.939881
-7.579061 52.800151 -17.756214
-0.125558 40.854319 -41.275967
-12.476199 56.914921 -42.710866
-3.241412 47.267473 -43.654784
-14.187912 58.034049 -60.791096
-1.851583 44.821292 -32.071223
-26.272696 62.376284 -5.463587
-13.891447 57.867214 -23.963809
-13.646795 57.713055 -29.332128
-46.244457 59.129015 -55.812739
-10.040610 55.066049 -10.883314
-18.565080 60.247356 -59.706478
0.469896 37.146983 -51.966165
-46.237037 59.132433 -53.756212
0.613623 36.045923 -10.185868
-31.065453 62.738098 -31.822071
-11.080759 55.914543 -42.794590
-0.060221 40.686623 -51.746037
-5.338175 50.278065 -33.406718
-15.373628 58.701304 -47.550315
-9.943942 54.987193 -52.781480
-22.896643 61.678919 -32.295601
-7.711523 52.928621 3.508637
-28.168989 62.600685 -41.120115
-17.628932 59.821707 -2.115220
-17.049432 59.558219 -37.025417
-31.565272 62.736869 -33.173769
-9.655272 54.751713 -58.487356
-43.029684 60.543774 -19.196410
-8.427340 53.622864 -52.909673
-28.785196 62.652198 -55.732716
-29.953635 62.740830 -20.237387
-4.926605 49.712440 -10.711701
-14.580676 58.255074 -46.943757
-20.511932 60.964443 -56.890887
