30.277664 40.954808 3.879021
1.606179 33.839581 -14.922541
39.018166 73.268168 6.879021
10.819356 -31.726068 -61.120979
-43.135410 62.060639 -51.935136
-35.436230 -4.427742 -38.451066
-34.863535 68.421924 -59.665656
3.124741 33.945075 -56.310615
-31.437870 -2.143448 -60.763416
42.624313 -55.870421 -61.120979
6.453008 39.822224 -61.120979
41.663180 9.843308 -61.120979
-15.905442 18.908179 -61.120979
69.401996 47.064001 -8.436553
-8.817269 54.001041 -57.044835
27.847710 -53.515287 -43.579608
45.484477 -57.189869 -9.175808
-34.619002 68.586693 -28.199139
-22.882141 61.675137 -57.161546
-5.826406 58.153280 -61.120979
-37.992424 66.220796 -21.531351
57.655849 19.470656 -61.120979
7.342508 -31.227360 -17.555584
-56.014465 -34.891201 -28.514418
3.516800 33.972311 -6.720748
5.232361 34.091490 -8.998879
-19.264908 -18.540068 3.879021
29.946014 -52.266589 -61.120979
-55.432323 -35.755169 -30.402146
-23.708312 7.430653 -6.207317
-40.449502 40.275705 6.879021
6.357040 -28.170171 -40.103018
-21.360914 61.265632 -12.870805
-56.424502 -27.651264 -16.826631
50.822307 -54.432786 -23.479140
-46.013484 -4.842511 -61.120979
45.206832 -58.155179 3.964873
-52.989285 -35.613578 -61.120979
-13.516227 57.670708 -61.120979
63.159414 47.288930 -21.331262
34.913692 4.744242 -61.120979
49.809681 -55.163165 -37.318988
35.251316 -56.098939 -14.968287
-28.123583 69.284525 -16.016171
10.519211 27.955166 -61.120979
-21.196742 3.507089 -27.490954
-53.028255 32.286538 6.879021
36.285052 8.513360 3.879021
-44.633995 -3.365391 -32.323468
-35.936270 67.314335 3.879021
62.909936 21.370772 -50.575874
63.146582 55.329914 -58.051811
59.059637 27.751848 -50.951738
-37.244411 66.786728 -1.042209
53.210935 -52.625595 -53.108146
34.316694 10.387897 -61.120979
-45.807233 -15.765094 2.656250
-45.520922 59.819599 -5.447372
61.134249 57.535081 -20.772186
-42.884930 -11.366673 -16.560479
-28.603873 62.637040 -0.044934
-29.178804 1.957625 -61.120979
-21.519255 7.723709 -26.080276
36.340521 11.844681 -4.771604
-53.146716 -38.983511 -13.539681
61.100107 32.024386 -56.956829
8.550236 34.321980 -2.589622
-3.988861 51.435051 -61.120979
67.152138 50.321232 -35.451954
34.909039 4.232156 -53.017385
-14.993310 58.487282 -18.952667
50.309186 17.718028 -24.342860
5.570776 34.114999 -2.007815
61.631802 54.422471 -26.004605
4.194075 -22.087758 -59.907149
-43.289540 61.928805 -16.418056
-21.039144 1.446621 -42.389904
-37.287659 66.723814 4.049658
34.483677 11.002620 -52.423185
37.860400 4.969031 -12.205625
49.664210 9.349849 -4.648406
12.033205 -21.671616 -11.723194
59.395317 -47.146352 -21.452877
-46.537472 -46.634515 -44.034123
-21.210762 3.690397 0.013470
-2.063930 18.273689 -1.744006
3.131657 49.634410 -17.089826
-26.787338 6.633256 -13.175074
24.089287 -51.506657 3.241261
7.882458 34.275590 -18.193132
-7.279688 -20.920700 3.879021
-32.329025 4.093505 -61.120979
8.475333 34.316776 0.160733
48.123443 -56.299359 -44.729957
29.396456 5.713876 -61.120979
-48.502568 -7.704655 0.130054
-31.699024 67.276662 -61.120979
-46.157831 59.217563 2.659652
28.962452 -46.626529 -51.065530
60.913925 57.768172 -15.661229
14.124327 -42.969946 -59.112608
-48.282143 -21.385805 -50.945895
7.870001 -21.933189 -18.809027
-54.854549 -20.096488 -31.291093
-23.979077 68.763756 -29.212105
24.196806 -34.203655 3.879021
-22.583344 -0.243311 -9.249538
-27.780186 6.376132 -17.907124
-53.078496 -39.073113 -8.692119
-8.361118 53.558638 -45.368543
59.827631 29.135551 -35.890556
1.246636 40.900633 -61.120979
-2.242157 48.841421 -61.120979
23.364009 -42.829879 -38.107056
-2.552373 54.243389 -61.120979
64.990868 53.151276 0.620809
-33.514625 69.330833 -59.539043
-21.122841 2.540891 -60.519044
21.581913 -17.955619 -30.798585
30.656549 -47.706997 -61.120979
64.841510 53.327711 -50.812074
53.983792 12.157704 -0.192333
29.659010 -54.294915 -45.311794
15.802821 18.006066 -11.542446
-53.680216 -16.804339 -29.024083
5.156048 -68.793692 5.215445
5.840071 -26.174003 -54.327407
-21.330302 5.253286 -16.005393
5.575460 44.563630 -61.120979
11.413395 -21.710558 -40.367647
-3.537658 47.758128 -20.670069
-34.325620 -56.575923 6.453592
15.225150 -44.107310 -61.120979
-21.406691 6.252018 -8.945079
40.958050 -57.054380 -7.228889
-21.438167 6.663538 -10.449250
-60.632945 -4.405447 3.879021
1.905764 -8.112333 -26.434326
7.577171 -21.951587 -39.969405
11.684666 -21.693514 -56.653008
-21.251605 4.224380 -35.036187
-21.346916 5.470498 -41.265787
-38.093918 -6.440706 -59.426241
10.560648 -21.764136 -40.255051
39.455135 5.382028 -16.612453
-17.242975 21.198277 -56.596352
69.105081 47.504663 -52.205871
36.454579 9.646746 -61.120979
0.875931 34.036434 -26.861414
8.946694 -21.865540 -61.000636
27.921832 -65.747359 5.727511
-33.929999 68.883707 -61.120979
-21.405624 6.238070 -60.354319
-30.543529 71.097999 6.669371
-13.751004 57.784107 -4.099952
-41.656400 63.312639 -24.491011
-9.767997 54.843667 -43.257621
45.401128 14.632329 -14.509569
4.662628 46.724121 -17.164798
-50.844846 -41.869455 -50.265678
24.429176 10.238398 -61.120979
15.233474 18.420414 -23.839181
12.053051 -21.670369 -22.985083
45.990078 -54.786104 -61.120979
60.165616 17.838922 -2.977382
-43.945871 -12.791858 -2.593835
21.479653 8.554558 -1.697751
-52.714272 51.755855 3.891812
-6.001576 54.695221 6.879021
-38.912884 65.524393 -20.663282
12.329379 -26.749425 -61.120979
59.703874 17.305553 -42.322345
-25.939530 62.319349 -5.670551
34.524304 10.355969 -30.409711
-39.897121 64.779738 -18.416631
-40.122631 -39.553734 3.879021
10.522234 -27.365933 -61.120979
7.650964 35.779295 -61.120979
-4.506903 -26.164216 3.879021
49.705914 -35.676762 6.879021
3.248614 -8.498032 -43.160398
66.134950 51.665689 -36.302051
-34.136247 68.911978 -11.280904
34.658958 8.212675 -5.927845
67.614278 49.710403 0.622080
62.085731 34.990571 2.014351
62.779396 55.763667 -51.268625
42.596520 6.281028 2.778172
-23.466003 7.493405 -32.763254
41.690208 11.457290 -61.120979
-10.702616 63.694714 -30.258407
4.776040 20.767464 -61.120979
-42.903828 -1.795944 -47.888033
-10.844591 27.809435 -61.120979
64.518999 53.708690 0.119091
-46.047412 59.321936 -49.443081
-55.567760 -28.641637 -61.120979
8.111641 -22.487919 -61.120979
3.118198 -16.197296 -61.120979
20.248545 12.487854 -17.440019
3.889153 33.998178 -13.505714
-14.181959 25.212628 -36.184907
-51.799642 -13.023989 -61.120979
31.463748 -49.985097 -61.120979
16.594368 -20.404886 -8.440997
7.402159 -21.962583 -55.395839
-37.335274 -5.809555 -37.654875
70.561415 -33.022542 4.120873
15.519363 -44.563548 -56.237390
-20.956837 0.370509 -46.387028
-43.174180 62.027820 -33.836496
22.126518 79.396098 4.264086
-30.094816 69.404886 -40.727559
-38.540941 65.805798 -56.223703
35.814464 -49.534086 -61.120979
6.155594 34.155626 -22.915038
53.000656 -50.690932 -61.120979
0.631067 19.818968 -40.887532
-20.946304 0.232803 -33.814460
21.270300 9.580073 -55.043289
50.144955 -50.062985 -36.077115
44.212869 -57.212850 -34.661876
69.929060 41.853668 -16.701850
-5.330571 55.274629 -61.120979
0.437118 37.398084 -54.066915
33.601132 -55.662782 -22.342803
-50.423361 -36.515321 -61.120979
6.899556 -28.607725 -61.120979
34.646277 8.414522 -43.005313
65.792826 31.224547 -61.120979
2.202205 20.826288 -61.120979
10.314163 20.646008 -46.047950
11.186097 -21.681030 -61.120979
-35.306965 68.123137 -17.435778
-52.666219 -39.597508 -37.007105
20.127137 -0.547967 -47.245902
46.803083 -57.166039 -21.068523
59.484251 -47.062287 -4.428798
-54.231219 -37.528972 -15.739690
-21.071353 1.867721 -58.096374
19.631336 -19.065820 -12.433118
-49.620385 -36.541197 -1.356414
-33.633118 4.206576 -44.682461
9.268222 -35.601843 -13.085767
-31.170121 67.119752 -61.120979
-6.663506 60.916350 -34.425718
11.286072 -18.968073 -61.120979
-14.394355 -10.605233 -61.120979
34.901408 3.872238 6.879021
-26.289209 69.099377 -44.265926
-21.226879 3.901106 -54.277270
-55.539276 -35.596436 -28.308354
34.866971 4.901753 -20.573225
63.323593 44.380143 -32.135610
43.961162 -52.360429 6.879021
36.974156 -49.665766 -36.239123
-12.846592 1.160805 -61.120979
-45.771121 59.347029 -37.290412
-18.152289 60.059667 -2.160603
5.409091 -22.087807 -38.295576
-55.505094 -35.647189 -3.209100
60.286043 30.143730 -12.066187
34.672340 7.999685 0.997193
48.548849 16.444964 -45.981438
-48.120288 -20.929567 -13.288254
-49.654692 -27.225748 -23.612553
34.910186 4.213887 -10.536656
55.527436 -48.660971 -16.860791
6.525981 -23.671134 -61.120979
9.001833 -21.862076 -8.536100
16.158782 -42.451162 -61.120979
-5.949133 14.682971 6.879021
62.131238 56.480320 -52.195123
63.078910 27.684328 -61.120979
-18.247335 76.592677 3.879021
59.406253 -47.136015 -33.406756
68.650291 48.179640 -28.782897
78.353533 11.610844 3.879021
-36.330752 67.433298 -38.446206
42.052078 -55.534150 -61.120979
-28.173508 6.269306 -31.433847
-21.319151 5.107493 -1.898177
42.613519 -50.492996 -51.365288
63.626726 54.762723 -6.660819
-2.760886 17.741795 -9.145394
-47.534643 -44.240968 -44.409895
10.590542 -21.762258 -45.996689
-36.535012 10.545504 3.879021
59.756922 58.992221 -59.797632
-21.336856 5.338977 -53.604948
34.753808 6.702957 -26.204345
-21.160084 3.027813 -7.834226
-21.154725 2.957746 -0.608242
17.976353 -47.001619 -25.652745
30.389712 3.775353 -61.120979
36.780356 -49.615232 -7.447059
45.840566 -50.537254 -41.655070
46.092085 57.603673 6.879021
-13.303095 57.478714 -34.998770
-34.410563 68.721336 4.030637
41.753220 -57.077438 -61.120979
-48.391616 -21.694389 -30.209812
42.278981 1.620028 3.879021
64.801970 24.364149 -37.645812
68.354728 -36.439729 6.019573
-33.906353 -3.479856 -18.338080
-6.629671 26.567588 -61.120979
-38.646395 65.726014 2.679621
-8.079393 3.488496 -17.709712
-9.949594 28.695717 -61.120979
60.145692 58.580922 -37.862375
69.961559 45.587335 3.202438
34.882704 4.651332 -58.036172
-21.138063 2.739910 -10.016190
56.646935 -49.744251 -23.574059
38.004225 -54.707619 -61.120979
2.791700 33.921939 -35.099354
44.293351 6.850292 -50.192490
61.346924 55.213255 3.823164
34.728351 7.108150 -20.512943
61.117051 57.553276 -3.609031
-49.889001 -29.623253 -18.640798
10.055320 -21.795886 -49.971402
-12.351701 27.030835 -38.096162
34.731268 7.061729 -57.370363
10.100213 -21.793065 -20.898188
-22.793727 68.499751 -35.931033
-20.961106 0.426323 3.402582
-19.629385 60.651347 3.834067
18.981778 -38.400659 -27.907276
-21.260691 4.343173 -12.660635
11.912866 -21.679177 -36.668828
0.637341 35.864219 -39.090497
-5.110141 -67.896976 6.571978
-30.586524 5.459830 -20.533954
34.906370 4.274640 -35.996091
-38.573020 65.781528 -18.888999
34.858384 5.038432 -15.699145
8.736486 34.313743 -57.665969
-21.206966 3.640761 -34.140657
0.795860 34.649839 -2.671649
10.707845 -21.754888 -54.764334
-21.506369 7.555233 -43.792521
-41.252713 -9.440989 -12.841570
64.178433 44.213349 -61.120979
-36.659218 -1.020953 -61.120979
50.834525 -53.082018 -61.120979
7.122826 35.592791 -61.120979
-23.385339 67.245163 -61.120979
-33.637486 3.004873 -61.120979
-27.736016 4.433070 -61.120979
63.326439 43.212112 -41.411179
21.863841 14.493740 6.879021
9.625997 -36.286018 -19.943600
-41.024152 63.829375 6.077176
-35.823732 -4.709702 -23.236491
-23.115468 -0.135115 -61.120979
8.181758 -21.913601 -39.710750
-41.919074 -0.933893 -2.519650
-22.021706 64.853691 -61.120979
0.772532 53.200838 -16.546150
0.869430 34.086236 1.117021
3.020301 49.811672 -57.542549
-34.257538 -1.855148 -61.120979
42.181709 6.141864 -31.930902
-50.218617 -26.588839 -61.120979
-20.984011 0.725793 -52.664763
68.432932 32.968701 -3.961498
-13.775176 57.800588 2.322537
36.474421 -62.102869 6.879021
68.942545 34.931408 -4.193649
63.981496 22.981115 -7.830028
-21.899140 65.364467 -61.120979
-50.534089 -42.248483 -23.659346
34.575900 9.534711 -22.224104
-64.690308 -16.588697 4.362210
-49.481004 -26.209296 -51.877712
34.454562 11.466051 -2.466094
-38.197211 66.065858 -15.307980
-15.300346 66.100900 -20.583343
-52.072426 -40.382352 -45.238588
10.422422 -21.772821 -59.048927
66.992732 50.531925 -45.530697
7.346037 -31.237880 -8.718492
-53.010197 -15.985449 -61.120979
-24.792059 -55.304056 6.879021
23.094104 -16.950460 -47.684313
-47.214367 -45.918394 -38.086718
61.486712 57.162194 -15.438446
-9.955455 -8.096580 -61.120979
48.039596 -56.355856 -21.517892
-12.158278 10.766963 -61.120979
-49.431040 -25.916899 -55.850823
34.695774 7.626682 -33.340697
-44.342397 60.933596 -60.707990
32.459342 -55.311809 -32.092221
-51.189442 -41.462378 3.502122
50.687465 -54.534804 3.685935
-50.370843 -21.428467 -61.120979
-35.013562 68.320834 -40.925087
-14.824927 13.608403 -61.120979
33.064221 8.558843 -61.120979
-51.288304 -41.345594 -15.979379
0.962414 33.794860 -22.921686
-39.084503 65.394550 -38.435148
65.770144 52.147866 -35.252501
-40.375822 0.216150 -47.200198
-31.574894 1.521868 -61.120979
-53.154599 -27.242636 -61.120979
20.460994 -9.294338 -61.120979
-32.010261 4.897993 -39.647462
22.458385 -17.405863 -4.556410
-48.983246 -39.726936 -45.284095
40.161470 12.578842 -27.020344
34.562825 9.742831 -8.897202
-45.069281 60.246511 -44.471906
-34.995933 68.244504 -61.120979
11.867034 -28.758142 -61.120979
80.609540 18.252767 6.468950
1.399283 33.825209 -39.663490
45.846293 -57.183330 -34.999161
-4.976992 49.781687 -39.223443
8.509107 34.319123 -26.472743
28.124085 -53.650970 -4.005239
-16.533647 22.282805 -10.115848
-50.069551 -42.785309 -42.913315
58.000836 -48.464480 3.718551
-37.309777 66.737274 -39.552128
60.222941 58.499197 -35.506405
6.595619 34.186194 -44.506316
34.691042 7.702008 -40.321775
-56.566821 -29.798773 -58.257135
-49.926133 -29.736371 -61.120979
-40.496301 0.126454 -29.164694
-49.006117 -44.022833 -0.986670
-49.535440 -37.024135 -13.923727
14.240266 -13.247786 -61.120979
0.591041 36.218913 -42.548359
27.293524 -53.243216 -52.803725
34.527756 10.301018 -12.817796
34.457999 11.411344 -4.429790
11.391939 -39.271818 -43.860551
3.208583 49.509094 -6.202830
-7.456735 18.062622 -61.120979
37.490445 8.096355 -61.120979
49.192879 -55.578769 -53.387890
62.137725 56.473457 -30.319816
31.267239 -51.325141 -61.120979
-15.704647 21.566229 -61.120979
69.941404 46.263440 -10.887611
11.832886 -7.987940 -53.611538
-35.477157 3.274314 -17.645585
-5.674527 47.787274 3.879021
-5.561911 -19.406252 -53.853537
34.479603 11.067464 -1.910204
43.470980 12.908173 -61.120979
63.452999 54.969712 -5.171091
17.570672 -46.606143 -16.861953
8.292697 -21.906631 -5.947609
-45.936797 59.426494 -21.587241
-47.920187 -43.170748 -56.713203
34.713965 7.337134 -56.184637
35.998584 4.486865 -28.737866
-55.721491 -35.326039 0.415548
26.901879 -2.419880 -61.120979
-53.742054 -38.176850 -28.890055
21.237851 2.489716 -50.584749
-55.855957 -35.126474 -2.638752
34.849812 5.174865 -30.236213
63.039399 48.465452 -53.515148
18.334042 21.779245 -61.120979
67.887570 47.727475 -61.120979
-49.005531 -8.927299 -61.120979
1.519750 37.149191 -61.120979
13.019484 -41.569011 -8.286209
81.577828 4.523770 5.469209
3.890611 46.567153 -61.120979
-50.118022 -42.728056 -34.001463
1.337148 33.820892 -6.469501
49.709091 9.373319 -21.254538
13.504760 -28.954290 -61.120979
63.096005 48.005398 3.559701
-54.111194 -37.687615 -38.800894
6.092634 -27.149222 -18.017363
-21.536467 7.948742 -10.376264
8.384162 -51.610206 3.879021
27.930560 -46.045837 -11.314169
-31.741560 -2.292909 -11.041291
31.908182 -48.037310 -54.046765
-35.420196 -2.683401 -61.120979
58.167249 -48.307179 -30.884232
68.186313 48.868248 -48.755863
69.409888 37.114005 -20.176571
-33.382848 -3.163773 -31.339130
-41.117591 61.232631 -40.210470
34.749180 6.776613 -0.703175
65.007730 24.710988 -13.054242
-49.999981 -18.951321 -61.120979
51.322193 -52.736656 -61.120979
-13.843481 65.401769 -10.276821
-44.117965 -13.044261 -42.517335
-29.970402 -1.452723 -52.188386
4.237184 34.022355 -47.784826
23.782684 -51.324771 -17.858094
9.912397 -21.804866 -55.810083
-40.420185 0.183123 -36.242805
5.329680 -22.092796 -28.243430
9.607264 -36.250196 1.893407
-48.062554 -43.160430 -61.120979
3.330205 33.959348 -13.701463
7.525284 38.392780 -43.312759
2.434090 34.592772 -61.120979
6.992380 34.213757 -0.165178
-48.415901 31.945721 6.879021
-21.267408 4.430997 -36.424133
59.950797 58.518467 -58.338959
-25.159209 73.884794 5.817805
59.736452 17.338972 -8.314663
46.070178 7.592952 -39.768743
5.364361 -24.337146 1.243474
-45.486624 59.852019 -18.120105
-43.032897 62.147417 -24.990409
62.230043 35.543996 -4.413518
12.606938 -41.014882 -5.194998
-32.591329 69.873925 6.708645
-21.465936 7.026596 -37.424265
16.477814 -37.623960 -61.120979
74.958724 -17.863809 3.879021
-13.387198 64.908577 -61.120979
7.226072 39.015886 -61.120979
-5.119422 50.932584 -61.120979
-17.941195 -7.841172 -17.902452
-21.406443 6.248771 -11.568806
66.250073 51.513526 -61.108306
-53.299591 -23.249722 -61.120979
-21.873489 -61.088310 3.879021
-10.497033 61.439339 -61.120979
-49.674552 27.800202 6.879021
1.832009 43.381693 -61.120979
51.665831 14.503258 -61.120979
-7.101737 53.014399 -61.120979
61.629894 33.517800 -43.849685
30.310988 -9.471289 -36.790918
-27.287347 6.503765 -14.712166
24.975761 2.950034 -61.120979
4.489620 34.039892 -40.694152
8.183424 -21.913496 -35.984464
43.340438 -57.199845 0.602746
13.843805 -7.074769 -21.513614
6.601322 -22.012900 -15.662835
43.533377 -57.211625 -17.802707
-48.965831 -23.755979 -53.039225
-43.437736 61.788724 -5.479236
34.828483 5.514360 -57.542839
34.636231 8.574433 -10.851152
19.807115 -1.153976 -55.263100
22.178487 -41.794223 -12.822140
21.859772 17.874070 -61.120979
17.506371 -36.427699 -29.864526
28.425176 6.603444 -61.120979
48.099609 -56.315419 -60.122980
46.298537 7.690238 -1.726821
23.857389 -0.332269 -61.120979
4.982825 -22.114589 -44.133659
40.192525 8.942409 -61.120979
-21.386767 5.991520 -28.659288
-47.659000 -43.895768 -59.529193
58.928481 -47.587627 1.142228
-54.753116 -36.763205 -32.098937
-1.806246 44.729172 -43.153342
-43.629524 -9.882881 3.879021
44.918997 7.102521 -9.858466
-45.750062 -7.267128 -61.120979
30.794064 -54.281094 -61.120979
2.445652 33.897899 3.364877
-53.210219 -18.974213 -61.120979
8.239896 34.300421 -35.994260
34.066367 -0.985390 -60.693820
-53.708829 -38.219440 -59.855287
-7.149623 -18.581073 -3.950412
76.346599 -3.720272 3.879021
61.493469 19.436082 -11.159275
-1.766016 44.647429 -49.065377
15.927522 -33.935825 -49.081520
67.409267 29.905390 -13.072963
-9.232634 54.403887 -34.295484
34.582559 9.428723 -21.084727
-14.567933 59.879863 -61.120979
24.737591 4.961745 -61.120979
-55.423638 -22.069650 -28.488764
38.336409 5.092305 -17.856666
31.528742 -47.864786 -40.494233
49.312169 11.674252 -61.120979
64.782754 53.397119 -44.595921
13.154737 -32.898280 3.879021
-51.232105 -41.411981 -1.712190
62.956547 39.018780 -58.862843
21.031705 10.461919 -48.392081
5.784003 34.129812 -32.017022
34.889682 4.540254 -27.159298
6.476171 -22.020763 -31.088222
-26.520283 -43.070719 3.879021
-7.952656 2.825559 -53.318625
-52.905803 -39.280838 -47.085480
-19.576825 -64.054509 6.282134
39.993812 12.546628 -36.491731
-38.488062 65.845806 -27.462395
-39.575559 36.999063 6.879021
-21.197187 3.512915 -19.707945
2.915454 49.978570 -10.931029
31.725784 -42.804730 3.879021
15.361481 -32.906247 -39.492705
-39.161289 62.394638 -61.120979
-55.750470 -35.283034 2.403761
34.831094 5.472807 -19.568901
-35.001825 3.522892 -57.915490
-21.522429 7.765196 -49.609282
67.978201 49.177125 -37.068842
20.204927 -7.952148 -61.120979
-21.437477 61.292794 -10.370640
34.833554 5.433648 -23.672846
34.803311 5.915024 -25.426376
-6.901308 43.636708 6.879021
-5.382525 31.689890 -26.200202
63.374568 22.029206 -29.255668
-18.902825 60.393589 -6.285443
-10.739647 28.982337 3.879021
-5.164686 21.571733 -61.120979
-30.648035 -1.504299 -61.120979
35.756844 -56.211532 -26.543947
-35.077280 3.483432 -20.190141
58.352441 26.508156 -49.809375
0.525270 -68.554256 5.485887
32.539790 -55.336538 -55.211110
15.243306 -20.880589 -31.695041
8.929669 34.301197 -29.855708
21.662417 -48.043092 -61.120979
29.260247 8.575776 -61.120979
-52.595431 -39.691072 -18.473962
69.840930 46.412557 -27.654888
-47.126347 -46.011539 -13.557483
34.822757 5.605500 -17.831158
-47.967805 -43.860107 -61.120979
-33.441453 0.639687 -61.120979
-43.219581 61.636193 -61.120979
9.899880 -21.805652 -50.560756
19.120371 -47.958993 -20.224580
-55.635308 -35.420265 -61.120979
-21.272764 4.501026 -9.830061
-9.290463 8.798501 -61.120979
-2.812088 57.450791 -59.457400
-21.156323 2.978640 -44.619818
50.122669 10.784155 -61.120979
-55.955065 -34.979376 -12.631857
57.965956 21.390829 -61.120979
65.370703 52.683942 -41.979429
-52.492833 -14.176079 -16.068783
4.794207 -22.126440 2.115374
23.399930 28.927066 -27.206920
54.578991 12.600825 -9.520860
75.631455 19.970016 3.879021
-55.250209 -36.025452 -23.034144
11.733938 -21.690419 -16.245676
69.382907 36.922635 -38.129175
-21.174233 3.212808 -15.087953
34.624566 8.760100 -27.446525
-3.981704 48.413851 -56.179826
40.310085 6.198743 -61.120979
20.755850 -49.277785 -48.029329
30.253566 -9.560454 -13.963395
0.211363 53.954584 -52.592642
55.746321 -48.582114 -0.373787
-8.791083 -17.586981 -49.845899
10.237769 25.866430 -61.120979
-21.237835 4.044354 -24.265771
9.698726 32.968709 -61.120979
65.110699 53.009720 -59.009221
-19.725758 64.026893 -61.120979
32.090961 11.084893 -61.120979
-39.128457 1.113655 -48.100019
54.749992 -51.350056 -4.039808
64.700623 53.494140 -38.613301
-21.161746 3.049541 -39.440147
19.129574 14.470863 -54.216313
68.974968 47.720600 5.024190
-20.927608 -0.011631 -47.281842
-38.923875 -6.434873 -61.120979
-56.616486 -31.959425 -3.727907
24.475139 -50.105212 -61.120979
45.160608 -57.195722 -28.083828
61.150603 55.758214 -36.574380
5.260340 45.321174 -42.507549
-47.729600 50.530872 3.879021
64.467460 53.746202 5.333261
63.114513 39.983742 -61.120979
21.236176 -49.616738 -54.887808
13.335806 -7.341706 -34.968907
69.113340 -26.774894 3.879021
-15.090131 58.541768 3.532312
4.652668 34.051219 -28.517638
67.119228 50.335630 6.655451
66.295773 51.453120 -19.028245
12.770348 -21.534590 -48.716676
-32.160945 12.589543 3.879021
-25.292887 62.208846 -42.475159
-44.179541 -13.134572 -8.736902
-33.630094 -53.002790 3.879021
57.277807 -49.147921 -58.180182
77.854644 -17.225324 4.230413
42.211892 -53.999220 -61.120979
-31.199030 69.403784 -19.928294
65.523735 25.897644 -61.120979
59.528842 -47.020138 -9.766861
65.423055 35.101691 -61.120979
21.802836 -50.016613 -41.257717
-9.267593 -9.696748 -61.120979
-11.992083 -0.808198 6.879021
1.623748 33.840802 -20.266144
-20.968288 0.520222 -56.991529
-35.316284 66.688373 -61.120979
7.483884 -21.957448 -2.912728
-52.041813 -40.422814 -59.885608
66.847161 42.815679 -61.120979
0.392100 33.196930 -61.120979
-9.520696 -66.296225 6.879021
-54.967853 -36.444507 -25.248774
6.255536 -22.034625 -17.458785
20.476407 11.994571 -57.439854
29.301351 -53.302497 -61.120979
-47.523635 -45.591206 -59.797923
45.509748 7.354195 -30.325803
1.004103 52.889799 -59.878138
-9.701452 63.100793 -15.092905
11.868022 -21.681994 -2.916446
13.856595 -29.581158 -28.650262
61.508762 33.176341 -54.702861
61.859864 -44.553474 5.111889
-45.085944 60.230761 -15.310104
-21.068095 1.825124 -11.870846
19.619081 -44.801075 -61.120979
-25.115065 7.066336 -55.427364
-39.281627 65.245409 2.218298
18.054558 -37.414270 -61.120979
-4.005286 21.093953 -61.120979
-21.296630 4.813050 -27.420741
-17.682533 63.967961 -61.120979
31.624320 -7.272560 -33.078358
-10.496357 19.471004 -61.120979
7.155333 -21.978091 -54.025696
-2.378605 46.484954 -61.120979
23.930636 -8.519821 -61.120979
34.454044 11.474292 -47.174463
11.532736 20.287720 -5.280763
-44.059350 -6.347654 -61.120979
8.000574 -14.252724 -61.120979
-67.021403 19.326830 3.879021
50.162173 12.005963 -61.120979
-21.503945 7.523533 -38.352381
-22.412985 4.920778 -61.120979
63.322638 44.772382 -40.052966
-20.200196 -9.031956 6.879021
-1.523442 -6.448453 -56.002084
1.121852 33.805936 -13.061681
-56.601145 -32.807198 -47.417368
-55.992393 -34.923943 -50.353232
2.747283 33.918853 -8.144875
42.499519 -50.483469 -23.782244
62.927783 21.396064 -7.285514
21.515767 8.328816 -19.323250
45.798544 14.827917 -19.770555
24.046564 -51.481313 -60.766737
-43.760520 -2.551280 -61.120979
-45.125823 -13.513779 -61.120979
-43.697924 60.625157 -61.120979
36.469688 5.880574 -61.120979
-65.003054 27.783545 3.879021
46.643056 54.205659 6.879021
41.587886 -60.177372 3.993832
-3.876441 58.488373 -21.268459
-49.731509 -27.739090 -7.675845
56.343429 -50.001193 -20.573454
2.072572 33.871981 -2.647514
63.166434 55.306462 -28.906965
55.815054 62.652965 3.955860
-28.653952 62.641227 -42.205013
34.910339 4.211458 -33.475642
-52.458350 -14.105841 -4.676243
-0.967692 55.412143 -26.243692
34.534663 10.191085 -34.321639
19.552228 13.803721 -7.560097
8.415360 -21.898924 2.870942
32.031657 -6.480350 -7.281695
-56.536380 -34.116593 -41.075943
-19.717296 40.528009 3.879021
24.530957 -46.894866 -61.120979
32.536657 -63.805877 3.879021
55.326781 13.163465 0.873371
-49.807047 -28.642795 -35.994519
-20.917537 -0.143308 -5.957815
54.972331 12.893664 -23.545179
56.648401 24.045230 -41.174905
-35.064613 68.286436 -57.560777
-25.368805 68.727417 -61.120979
-3.270742 48.524085 -61.120979
-45.103378 -3.846886 -21.808987
19.146606 -47.139603 -61.120979
32.369876 -5.773886 -55.552501
2.660157 33.912801 -26.637233
-55.910003 -35.046248 -16.644905
36.870744 11.946558 -28.897748
-4.094903 58.701340 -7.179030
-21.537512 7.962398 -53.291007
45.401870 14.632694 -5.964771
-46.923604 -11.859242 3.879021
-6.459086 -1.831790 -61.120979
6.249672 -22.034994 -13.496863
-16.687362 59.393593 -15.419117
-42.244446 -1.218723 -36.829831
-21.331398 5.267613 -22.951715
76.178789 34.025633 4.265138
-21.172122 3.185208 -18.027054
-43.542984 61.689238 -31.215376
52.332997 16.932296 -61.120979
-44.000425 61.256843 -1.705392
1.839725 50.883662 -61.120979
7.686576 -8.860608 -35.606441
-55.566504 -22.711122 -5.308021
-51.868305 -21.526979 -61.120979
20.145199 12.707916 -50.274436
19.907979 -39.467674 -44.261996
69.208668 47.350930 -11.022206
10.933243 80.873420 6.752488
62.242922 52.342734 -9.242781
-16.065581 59.090697 -53.679580
-50.808295 -41.912623 -17.921077
11.885294 -21.680909 -49.731564
1.302591 52.488880 -36.846944
5.783224 34.129758 -35.223776
47.061861 -57.014657 -42.631625
20.312769 64.562201 3.879021
-51.562017 -12.387561 -42.027101
56.420309 23.765617 3.789410
-51.203785 53.033471 6.879021
-47.075273 -13.396302 -61.120979
-47.320400 -16.138443 -61.120979
21.435823 30.064210 -61.120979
-22.030751 63.903597 -61.120979
-37.428460 66.647480 -41.074544
-11.550009 56.283427 -17.468372
12.650248 -7.663673 -0.525987
-42.909580 -11.396891 -3.273472
51.464355 -53.947024 -14.039654
-7.744015 59.436996 6.879021
-61.868225 -24.111530 4.083171
62.251920 52.308903 -37.586782
-50.827425 13.231976 3.879021
18.115785 -37.265240 -59.405364
68.148075 14.505998 3.879021
-42.131666 16.770840 6.879021
69.264025 36.374865 -8.027384
40.545553 13.003529 6.879021
-21.246127 4.152767 3.715807
62.802213 38.115535 -14.897590
58.146989 58.323342 3.879021
56.420926 13.939045 3.879021
26.817220 -13.788250 -37.738494
26.836666 -50.839834 -61.120979
-1.263531 43.626438 1.614224
-21.491636 7.362612 1.229944
35.853716 -49.373611 -9.161559
-48.395538 -44.658566 4.993436
11.556538 -21.701565 -29.378688
17.131533 -35.912545 -13.574680
-21.293737 10.331563 -17.875866
60.993341 31.723424 -38.234072
29.269832 -3.809230 -61.120979
34.603213 9.099966 -21.594052
5.681811 -22.070672 -47.211690
-40.736524 61.342859 -43.538654
60.363766 21.680181 -61.120979
5.441775 34.106037 -52.342353
34.748735 6.783697 -13.774300
-49.913424 -33.679310 -42.623140
-49.892689 -29.667364 -49.108593
36.559995 11.886851 -51.460898
-56.054839 -25.029336 -37.023519
-35.965245 67.679581 -37.761818
-5.268712 59.756726 -23.756440
11.151223 -36.063640 -61.120979
-21.260300 4.338060 -37.678897
9.421029 -35.894056 -18.346834
-20.280944 65.330034 -61.120979
6.098771 34.151678 -1.849986
51.827063 -53.672606 -15.826315
-0.446610 33.466778 -15.181970
64.396662 51.085546 -61.120979
-51.861293 -40.661417 -16.908129
-63.350785 32.655752 4.187893
-52.713366 -39.535191 -42.231779
0.967584 33.795219 -51.826954
49.511430 -55.364128 -25.271581
-47.809008 -45.289299 -28.408891
63.334689 43.770737 -61.120979
-53.688351 -38.254221 -32.524314
47.505153 -50.407998 -36.014225
62.510170 56.079429 -18.444484
-55.213641 -32.928305 -61.120979
-54.149778 -37.636616 -48.019629
61.651755 54.367084 -60.797930
-21.198962 3.536113 -17.153157
-52.353913 -37.144190 -61.120979
63.040192 55.455592 -58.994809
53.774057 -52.176197 -38.110169
6.351672 34.169247 -17.367521
35.992470 -52.255084 -61.120979
-46.822682 -17.743109 -39.131323
66.344947 -8.077329 3.879021
-53.060958 -15.333288 -25.692779
10.705913 -35.307921 3.879021
-48.256094 -44.816310 -26.340966
47.912357 8.433706 -35.962513
34.900009 4.375876 -45.371682
-48.103241 -7.471197 -61.120979
-26.922306 0.815719 -61.120979
7.154045 -26.707936 -61.120979
43.773273 -50.542291 -9.088009
-48.891172 -44.144438 -16.731321
50.089389 17.558095 -49.057429
59.176580 27.959649 -6.868385
34.779090 6.300542 -58.037204
1.974528 51.476363 -54.575910
-45.655970 -4.413736 -57.127451
34.802427 5.929090 -35.850688
34.644901 8.436422 -55.022757
-8.898324 23.922112 -61.120979
-44.608277 60.682273 -45.550221
4.686706 34.053583 -33.168708
37.312588 -49.754012 -14.570931
-8.306881 6.422197 -34.228753
-11.813053 63.458905 -61.120979
34.919110 11.571569 -22.692956
-52.784222 -14.769607 -29.405460
50.637696 -54.540728 -61.120979
-21.913596 7.895443 -11.223254
-53.305275 -38.752836 -41.553726
-20.921745 -0.088289 -15.029035
7.746699 -21.940936 -5.998044
65.105872 53.015423 -27.677989
-9.348740 61.689009 -61.120979
62.743820 53.668272 -61.120979
-5.798600 54.534565 -61.120979
10.027599 -21.797628 -14.597343
-21.143011 2.804603 0.762149
-55.062476 -20.772918 -20.753929
19.397211 14.048408 -37.229191
45.576631 -40.167515 3.879021
-53.441660 -16.202327 -30.739101
33.022374 -48.943263 3.879021
61.961417 34.513836 -58.686549
22.696848 -17.235038 -58.766101
-21.075768 1.925444 -40.517552
9.368097 -21.839064 -19.170873
7.563001 -21.952478 -32.707770
80.217477 -8.117552 5.397297
25.712353 -44.727720 -61.120979
-5.441694 -5.109254 -61.120979
-29.846143 -59.282444 5.601351
-53.043387 -18.177970 -61.120979
6.547789 -22.016263 -50.071976
-2.274414 18.121016 6.759606
67.405507 42.618136 -61.120979
7.174227 -30.725762 -52.370571
-28.416223 62.621353 -23.137848
-15.488436 -11.479085 -54.128750
-47.470376 -19.167609 -43.579279
-21.046829 1.547093 -53.991623
-4.004216 58.612934 -40.433389
24.049632 17.436690 -61.120979
34.424146 0.485346 -29.644593
34.880520 4.686084 -28.429415
66.313997 27.290521 -44.363901
-31.422329 4.092530 -61.120979
34.547140 9.992479 -36.979029
34.234608 -63.543881 5.423318
34.225758 12.578739 -49.522954
34.903750 4.316344 -32.540229
32.805728 16.994971 3.564385
12.111056 -40.348818 -48.704912
48.988382 2.330400 3.879021
31.902214 6.439192 6.879021
11.422350 -21.709996 -2.207646
-56.099130 -25.343486 -52.461222
19.893932 -14.157276 -61.120979
32.176563 -52.361825 -61.120979
49.050001 9.028644 -9.986512
-28.360629 -20.321930 3.879021
69.058844 47.573286 -22.963461
-48.992635 -44.037096 -14.950933
-52.337939 -40.031411 -11.558719
63.954611 40.669120 -61.120979
34.698000 7.591249 -14.743229
-38.422211 65.895627 -37.335490
-46.533488 -46.638773 -0.076172
-50.044317 -42.820513 -12.878351
49.302522 -55.504891 -19.008838
2.808956 31.803617 -61.120979
-20.781053 68.029498 -4.062766
12.993100 -26.479360 -2.788505
8.194116 21.020174 -27.636458
8.829093 -68.796455 6.217840
9.897227 -21.805819 -45.579544
66.540091 45.823610 -61.120979
11.943601 -26.414166 -61.120979
-21.417123 6.388400 -47.597807
6.731172 -16.560614 -61.120979
5.208795 -23.592998 -61.120979
33.355160 15.579719 -38.963208
34.686686 7.771337 1.635699
-38.908009 65.528081 -44.490928
27.226754 74.474216 6.879021
55.728768 -48.588437 -46.336848
50.776359 -54.467548 -24.449075
-5.158008 22.865760 -61.120979
-30.530293 -0.878513 -61.120979
62.315490 52.069897 -29.749659
-1.188744 49.778893 -61.120979
-45.720375 59.631066 -55.270219
-52.350095 -40.015344 -13.926212
65.588414 52.389116 5.725859
-24.384061 62.691778 -61.120979
-21.460405 6.954290 -22.174703
-31.553253 62.736899 -5.976001
2.298631 47.355842 -61.120979
4.949547 34.071843 -58.454711
2.850947 45.189328 -61.120979
32.469013 -5.566808 -10.928190
-13.590163 65.277406 -29.062524
-16.787764 59.439243 -35.476847
-15.323007 16.644238 -61.120979
-30.957071 5.335526 -7.541072
51.576983 -49.811103 -41.833396
11.294662 -21.718018 -28.847623
66.339831 33.970752 3.879021
63.585390 22.327964 -54.001009
-33.578621 69.287712 -9.999162
0.519717 -53.336280 6.879021
-11.699692 -30.030700 6.879021
-51.144360 -41.518662 -36.897799
48.079808 68.529693 5.477332
0.085557 40.091318 -20.439582
33.432120 -48.607144 -38.485193
47.495097 -50.408888 -12.041256
44.156399 14.019738 -20.510770
-37.762187 -3.065563 -61.120979
47.765343 -56.540648 -2.178017
17.016455 16.964035 -41.051260
37.732878 6.504965 -61.120979
17.743925 16.223927 -34.084817
34.677645 7.915247 -38.229462
-44.571200 -13.709001 -11.641016
35.282542 -51.162251 -61.120979
-6.337939 13.529683 -39.044140
34.523825 11.495619 -13.037823
-50.311736 -42.499214 -47.706003
-17.313924 59.678479 -59.335664
1.472039 33.830263 -52.273890
-42.843863 -11.316329 0.459350
68.926649 47.769481 -36.309505
7.104554 -23.618426 -61.120979
61.722158 56.913105 -13.632923
64.832088 53.338841 -33.449484
63.957687 22.940982 -55.656822
8.118639 35.968518 -61.120979
-56.314169 -34.446399 -38.434277
57.045961 14.668432 -17.020516
19.809716 -52.051526 3.879021
63.343192 55.107316 6.707109
49.828210 11.382560 -61.120979
8.036457 39.282282 6.879021
-52.162131 -38.149536 -61.120979
18.676096 -47.589630 -35.708063
-52.683363 -39.574848 -23.650808
-33.993245 62.617860 -30.579080
40.981066 -54.375490 -61.120979
6.859080 34.204497 -58.251946
6.540920 34.182394 -41.555771
63.323869 44.267014 -33.816024
25.206930 -39.694305 6.879021
-23.580950 -0.302758 -13.742177
-37.451243 66.630243 -41.927841
61.334976 57.322723 -0.849469
-20.962388 0.443093 -5.766390
41.684984 -50.415393 -57.493989
34.539208 10.118736 -56.892179
-43.457581 61.769965 -34.844128
69.950678 46.189184 -47.298726
10.591362 24.534957 -61.120979
-45.305685 -6.991791 -61.120979
-7.199251 61.344180 -45.588798
-21.374193 5.827125 -58.882279
10.017812 -21.798242 -49.316577
-21.241945 4.098092 -2.589725
7.000179 40.420513 -8.170459
-9.648841 5.615796 -61.120979
8.733312 -29.332413 -61.120979
34.945143 47.155683 3.879021
-48.849214 -12.712920 -61.120979
2.388049 28.768662 -61.120979
15.404184 -32.993015 -0.319886
11.943229 -21.677269 -27.193839
20.526810 0.331507 -6.881496
34.560076 9.786586 -42.586050
8.977349 -21.863614 -12.326675
30.074866 -54.459706 -8.175629
19.526394 -40.825368 -61.120979
34.735125 7.000327 -41.807830
-27.631111 62.555720 -37.719176
13.444465 80.713514 6.748594
-5.474148 -15.240503 -61.120979
-7.232686 0.524853 -20.692826
16.427245 -17.591698 -61.120979
57.290852 -49.135590 -44.789883
34.544468 1.132881 -7.364677
-29.433086 -1.243369 -12.097546
32.831305 16.929090 -58.502176
-21.058783 1.703384 -19.926066
-49.951033 -32.834639 1.645106
56.804184 -48.201000 -50.585586
4.582803 -13.710852 -61.120979
68.107145 31.908810 -8.431282
-39.614040 64.993912 0.496527
29.785032 -48.256003 -61.120979
-52.625630 -39.671976 -3.333957
59.621364 -46.932682 -19.451287
-41.200331 -9.333344 -61.120979
32.422725 -55.300553 -34.027167
-42.969230 -11.470016 -33.268170
59.102053 25.905192 -61.120979
-16.807550 60.504440 -61.120979
-21.004461 3.224649 -61.120979
-49.593408 -36.694567 -44.291959
54.381286 -51.662170 -8.217121
10.271594 -21.782297 -32.995044
43.245446 13.612736 -43.457675
-28.489389 -0.875677 -39.237025
62.912362 22.025987 -61.120979
59.252554 -47.125838 -61.120979
1.585261 33.838128 -46.286984
-14.039708 -13.161844 -25.112890
80.080282 -8.833828 6.305361
-39.454071 61.683954 -16.605608
-55.504676 -23.596765 -61.120979
43.837889 13.444316 -61.120979
41.787807 13.044804 -28.152332
-25.204314 62.193710 -24.634785
64.508701 53.720855 -60.154999
-0.683750 55.087786 3.515570
-35.224867 -56.004292 3.978975
3.630427 20.779056 -11.738208
-40.579136 -7.109945 6.879021
19.644162 -1.449842 -60.091011
-50.910366 -41.792060 -45.268825
0.892375 33.910464 2.825165
-45.621022 -15.434208 -11.569098
40.141490 -50.263968 -44.271724
-47.493999 -45.622558 -48.845561
-44.143078 -39.979736 6.879021
-12.860343 -14.357710 -60.607636
-55.998871 -24.652466 -32.727573
-32.767567 69.375437 -33.449775
-40.615028 -5.892954 -61.120979
-13.248607 26.193331 -24.532195
-51.321106 -27.914571 6.879021
-42.213104 62.841382 -44.928636
34.830371 5.484307 -7.338405
57.226836 22.618807 -61.120979
-17.965150 -64.638280 5.616642
69.762162 46.529460 -3.315914
57.469007 21.670268 -61.120979
7.674388 -21.945479 -41.795934
2.541574 -8.315917 -21.023818
0.918102 33.791781 -46.928310
0.981487 33.796185 -58.569279
18.235704 -48.215669 3.879021
3.870128 48.244071 -61.076177
63.027436 39.433663 -4.685641
-6.826396 12.596457 -24.631271
60.274167 58.445002 -16.135499
3.041114 -49.564232 3.879021
-38.059368 66.170148 -12.712142
1.233255 44.879797 -61.120979
20.456213 0.153592 -29.754941
-48.440360 -7.620988 -51.679532
33.414064 -55.605280 -53.281952
8.330000 -21.904287 -15.468753
-38.455332 65.870569 1.080229
55.498627 -50.716328 -1.021468
32.143494 -54.256163 -61.120979
44.397949 -51.257849 -61.120979
-21.071879 1.874604 -60.044390
-16.581454 59.345438 -18.651254
7.498061 34.248886 3.693193
-41.086948 61.243671 3.203776
7.734681 -32.241347 -53.184237
-49.275477 -8.799952 -16.624506
55.589191 -50.639664 -9.520251
-53.519789 -38.476645 -21.670586
-55.030083 -20.667537 -60.940490
46.957778 -50.456442 -10.282587
-56.164905 -34.667938 -20.046115
-68.208283 5.812962 6.474150
20.322436 12.483948 -61.120979
-51.224015 -29.707907 -61.120979
5.338809 -11.528938 -61.120979
-38.526286 0.348918 -61.120979
56.374575 -49.974827 -30.151397
57.761719 -48.690504 2.130793
50.332735 -54.803186 -43.442955
4.861355 -22.122221 -29.982008
-11.229807 -15.802488 -28.181814
-48.116104 -42.626909 -46.823596
4.960603 -22.778116 3.711530
-0.304448 33.504326 -37.493558
34.747953 2.491151 -51.645535
51.802830 17.271905 -61.120979
-51.784120 12.970956 6.879021
3.726589 33.986885 -52.091542
28.427688 1.768075 6.879021
11.417206 -21.710319 -34.701504
-54.491524 -36.810333 6.879021
13.319002 -28.175525 -27.130361
-40.024200 0.477931 -24.974312
28.423395 -53.797913 -8.653644
48.403934 -56.110363 -15.175231
7.025815 37.180743 -61.120979
34.614308 8.923367 -8.595687
47.430918 15.769980 -59.330419
53.162859 17.772581 -61.120979
-34.191848 1.027314 -61.120979
21.033832 10.455355 -19.762837
30.129965 17.100928 -61.120979
37.957658 12.155399 -8.069135
-29.344375 62.698944 3.614696
20.963112 -49.424044 -5.146305
34.899420 4.385261 -17.810130
-45.365813 -11.308909 -61.120979
38.573447 -49.996008 -30.065629
-38.977680 65.475370 -15.335459
34.805092 50.875701 3.879021
-11.286571 63.295124 -61.120979
68.712867 48.086765 -39.396314
-46.017717 59.350005 -4.740862
-38.590426 1.451653 -1.937457
57.969435 25.946407 -10.965687
15.495084 -6.032637 -25.395346
-21.110860 2.384247 -52.724469
-1.866700 -68.310359 3.884508
29.295312 -46.813844 -34.615817
10.651728 -21.758414 -14.439495
69.125271 47.474702 -15.689368
-21.452410 6.849758 -56.442727
8.461090 34.779097 -24.216145
61.779102 19.779646 -31.442824
38.810238 -51.568614 -61.120979
-55.177063 -31.038687 -61.120979
28.369827 -55.639660 6.879021
-8.105007 8.576734 -3.251302
-21.421973 6.451816 -14.545257
-10.628899 21.213849 -61.120979
62.415837 56.179229 -46.413587
5.630860 -22.073873 -38.799369
4.479537 34.039191 -44.547679
46.242107 -55.252240 -61.120979
34.267512 12.420652 -3.392906
-21.095830 2.187748 -23.607729
69.062004 35.467784 -29.589487
-33.701329 4.177514 -1.933249
25.129383 -52.123674 -50.470886
18.577279 15.238510 -45.158350
-39.698951 64.929670 -24.040635
-14.424749 58.167327 -58.352328
-1.009031 18.972121 -42.688005
-51.042246 -11.511409 -43.564828
-53.061210 -34.989622 -61.120979
55.196394 -50.972171 -25.940988
32.032909 34.162560 6.879021
71.777570 6.873474 6.879021
-47.159095 -45.976872 -36.350538
19.995385 13.008394 4.335535
56.130328 23.410134 -4.064704
-19.446572 67.619294 -35.176809
66.149172 51.663614 -3.587619
-7.681848 52.899841 -11.761716
34.828170 5.519348 -3.677673
-41.739516 63.242280 -35.984853
66.503482 51.180832 0.946874
25.661809 -47.240380 -61.120979
-51.803959 -40.736456 -25.731457
63.322161 44.967911 -29.991632
34.582979 9.422042 -40.658227
63.029165 55.468618 -57.275223
55.081308 -51.069593 -33.622145
62.803093 55.750287 -15.680802
49.143177 -50.239190 -17.206229
14.515374 -31.187057 -54.510093
69.957035 45.837541 -6.729246
-40.647369 64.166795 -49.739927
12.877299 -41.378029 -24.048933
-52.559387 -37.638920 -61.120979
62.683796 21.050307 -56.948001
34.860687 5.001771 -13.858395
-13.505656 -13.738224 -8.929564
-47.961686 -7.045232 -43.590100
-36.746125 67.153416 -29.362982
-31.843184 4.969176 2.997954
8.723366 -21.879572 1.685903
-47.698389 -43.786429 -35.410847
47.850205 -56.164734 6.879021
6.059639 -22.046933 -9.837724
-21.516291 7.684952 -12.274522
-1.611769 56.147897 -6.389709
57.035060 -49.377377 -32.875395
-21.217428 3.777550 -14.997527
-21.160865 3.038027 -20.369466
-17.687061 -28.466217 3.879021
27.501259 -48.797253 -61.120979
-34.380150 68.747634 -34.528437
0.453268 37.274363 -56.938206
58.496292 -47.996152 -52.539238
-7.451950 52.676871 -51.654630
23.389763 -42.850888 -32.750868
-53.114399 -25.418458 -61.120979
-9.562473 62.183384 -61.120979
38.781493 -56.778107 -2.663436
67.256167 43.203058 -61.120979
-10.681415 63.682136 -28.617889
50.168080 -54.921675 -52.971492
53.763341 -52.185268 -39.730494
6.323908 42.544072 -2.958430
-2.943945 57.579332 -31.680082
-21.420481 6.432310 -32.165945
32.045329 9.093380 -61.120979
-29.351926 1.306621 -61.120979
6.345325 -22.028984 -47.328304
68.037761 31.683082 -4.862651
-20.918201 -0.134624 -25.176183
-20.544821 67.956883 -40.366685
35.561054 -56.167925 -37.724357
19.212083 -47.803010 -61.120979
65.328156 46.757321 -61.120979
-14.252799 -17.313943 6.879021
51.678996 11.070552 -61.120979
6.894331 -29.891473 -44.582157
-21.741415 -0.021595 -61.120979
10.954744 -21.739375 -51.562121
62.422870 34.073171 -61.120979
8.946243 -21.865569 -30.013684
-41.938612 -10.206581 -19.652362
54.802127 -51.305923 -31.535839
80.215764 20.325479 5.160008
64.300979 23.519651 -19.560397
52.589213 -53.095978 -34.799022
64.049361 54.263469 -60.765160
-49.784975 -35.130701 -57.023972
56.032846 13.781553 -60.435317
60.284133 30.139530 -37.003845
-21.146374 2.848563 -42.381800
-22.310579 7.792633 -15.079375
32.447483 -55.308164 -46.373760
62.727418 37.677794 -56.890242
56.444465 15.032447 -61.120979
-21.525943 7.811147 -46.396399
34.463677 11.320955 -24.193548
-40.366767 -8.527498 -36.366281
-34.065874 50.950092 3.879021
3.180393 33.948941 -54.049102
6.857231 -29.780887 -24.284529
69.266381 47.265280 -3.729840
68.745786 48.037908 -42.293772
69.426409 47.027774 -1.089908
-6.854042 12.537817 -44.445405
-53.315509 -15.883976 -11.448736
68.099933 48.996458 -32.774811
5.258213 45.326167 2.212817
20.942746 1.461005 -58.777617
10.974010 -17.950009 -61.120979
24.302496 -43.595443 -24.024584
-49.964285 29.992856 3.879021
-38.006317 66.210285 -47.922362
-32.350162 -2.592432 -56.563218
-23.543761 68.666801 -47.162206
-21.362932 5.679896 -0.536985
-54.767342 -19.812786 -14.322684
21.604618 4.571838 -23.470612
-14.376622 17.264430 -61.120979
34.796142 6.029121 1.187244
34.810995 5.792721 -39.480864
77.839583 28.218985 3.879021
22.341110 20.650909 6.879021
50.058938 -54.995215 -22.689265
59.424314 -47.019652 -27.536784
34.896328 4.434473 -1.627692
22.022725 -41.643155 -21.929813
-3.289321 17.298175 -5.009759
58.722702 -47.342804 -43.133343
53.345045 -52.524130 -1.209940
-8.455952 29.999822 -32.786357
3.224346 33.951994 -35.472583
19.484577 -1.713833 -48.951794
61.997200 56.622124 -17.870823
-51.282511 -38.837223 -61.120979
-17.530944 66.792291 -61.120979
34.244762 -50.679843 -61.120979
38.071297 -56.677976 -42.954279
-54.420183 -37.257320 -31.427152
31.262965 -48.472261 -61.120979
12.581042 -24.334790 -31.365203
21.917639 20.144086 -61.120979
-51.107212 -20.670328 -61.120979
49.301141 -55.505822 -27.427005
-10.908033 66.983399 3.879021
-49.731038 -27.733453 -42.351831
64.423593 42.058621 -61.120979
46.966642 7.974867 -31.842211
-38.366516 -6.677323 -36.030315
4.524567 20.937673 -41.840429
62.727287 50.239890 -47.789050
-61.520070 26.034697 3.879021
42.137438 -56.220234 -61.120979
9.770735 -36.366825 -61.120979
-43.823825 -12.612859 -10.424618
-49.171346 -39.019696 -59.170257
-49.242681 -43.762087 -25.973101
1.425879 33.827056 -5.435774
-21.373123 5.813134 -27.884614
-54.138516 -37.651502 -16.518101
47.357698 -56.815322 -19.642407
-9.593128 22.831052 -61.120979
55.273800 -48.752348 -14.945116
-47.698714 -43.785529 -4.171665
45.717480 8.252916 -61.120979
-46.100304 -9.428243 -61.120979
7.384839 -21.963671 -11.108734
66.516139 51.161857 -22.408073
-41.835174 -10.079775 -44.631219
-49.131655 -24.391925 -38.112095
33.905860 -36.416134 3.879021
61.786991 56.844514 -14.492686
-25.292345 6.919709 -61.120979
6.744320 -22.003915 -29.460769
1.101560 33.804526 -56.957244
50.316354 17.723243 -19.127495
4.551851 34.044215 -49.704707
2.868096 33.927246 -57.389145
45.982308 -57.180872 -50.619889
34.872929 4.806908 -4.295830
11.031425 23.484828 -61.120979
63.302320 45.674228 -6.470094
-56.507199 -34.159904 -5.563649
68.002595 34.420579 -61.120979
-21.110079 2.374040 -47.271436
2.298908 33.887705 -0.770647
-29.811325 67.375581 -61.120979
24.733800 78.787940 5.458241
69.950055 42.197447 -54.289294
34.520458 10.417179 -0.280056
53.846588 -49.214853 -13.881317
53.383785 -52.494820 -34.565617
-21.188713 67.572332 -61.120979
-23.019095 -0.269277 -52.177339
-49.373289 -37.946001 -27.760406
27.453569 -45.866489 -61.120979
55.590013 -50.638968 -8.640647
33.295140 -48.558548 -49.400527
-20.924794 -0.048424 -35.027444
-8.082523 8.694118 -41.119741
11.161187 -27.224565 -61.120979
-2.678502 57.226280 -61.120979
34.517083 10.470905 -3.169358
-29.830726 5.713372 -44.312660
7.202879 -8.890648 -6.621831
-50.442910 -41.594744 -61.120979
34.716342 7.299306 -3.861333
34.647113 8.401218 -12.098418
-51.795576 -31.261863 -61.120979
16.256483 -43.507988 -61.120979
-48.435471 -44.608606 6.082043
37.194919 66.778099 3.879021
63.892004 54.449354 -35.991501
63.097298 55.391076 -23.103843
7.197734 -21.975427 -9.733850
59.937127 58.548147 -6.495163
-17.696552 -50.939960 6.879021
-25.972212 6.844355 -34.905290
12.649865 -24.692978 -55.765955
64.163351 54.128814 -54.896452
-50.523757 -19.835416 -61.120979
61.520930 55.171881 -61.120979
-21.260443 4.339932 -24.885716
-38.381639 65.926323 -3.961205
-39.518705 65.066041 -27.801997
-22.801724 61.654168 -1.760848
-41.405149 61.129035 -10.792281
25.653998 -44.585845 -24.695808
-29.414918 5.852860 2.326103
5.591473 34.116437 0.901897
52.339592 10.983337 -44.468448
14.289114 -30.691271 -30.671139
-18.605010 60.265511 -44.345010
-49.245587 -43.745402 6.500642
-55.226458 -36.060717 -0.144986
-21.535425 7.935119 -57.269237
64.878733 -41.052725 4.964439
37.366959 12.041902 -36.996011
5.284947 34.095143 -13.386737
16.230713 -45.299887 2.448001
-21.093318 2.154900 -48.954677
-13.028194 57.291281 -21.781668
15.595058 18.157267 -56.538312
-15.370266 66.128607 -58.015431
7.174703 39.703795 -61.120979
-51.294696 -41.339412 -40.943624
7.717538 34.264133 -24.721815
-39.090914 61.780543 -58.952786
0.507310 36.860357 -9.246776
4.858543 20.979621 -13.239414
7.681727 -21.945018 -5.365690
2.268398 51.008572 0.820683
7.480798 -12.647671 -61.120979
49.955718 -50.096270 -42.694390
67.285441 34.143958 -61.120979
64.759434 38.139555 -61.120979
23.338798 -49.952367 -61.120979
8.643250 -21.884606 -12.969755
-3.605938 53.196416 -61.120979
-61.201843 -25.530456 6.830419
69.612227 38.549146 -7.769945
-21.118161 2.479699 -25.756999
49.411015 -55.431788 -36.574172
10.867644 -28.824377 6.879021
-21.306943 4.947887 -34.007935
-0.824546 -6.881203 -9.071311
-17.225643 21.225190 -49.693494
7.888694 -29.986253 -61.120979
58.405699 5.222533 6.879021
