-56.588448 -30.152878 -19.589001 19.00000000
-32.638775 4.630216 -33.275364 19.00000000
-33.658165 4.195904 0.713696 19.00000000
-54.899845 -20.243851 -1.068425 19.00000000
-54.809189 -19.948915 -46.042652 19.00000000
-52.515720 -14.222695 -37.217178 19.00000000
-26.075132 6.817701 -18.860855 19.00000000
-56.605927 -32.543346 -16.085199 19.00000000
-47.862713 -6.926186 -21.106159 19.00000000
-35.676849 3.169883 -3.087794 19.00000000
-43.203815 -2.058554 -1.521694 19.00000000
-38.518803 1.496648 -45.664604 19.00000000
-31.509970 5.111143 -42.984234 19.00000000
-34.850739 3.601903 -51.384693 19.00000000
-28.941206 6.011773 -3.280224 19.00000000
-55.715656 -23.380831 -40.992455 19.00000000
-27.593933 6.424367 -38.945847 19.00000000
-37.717361 2.000122 -27.280287 19.00000000
-37.753849 1.977201 1.142931 19.00000000
-26.678320 6.661489 -53.446934 19.00000000
-36.323208 2.831866 -12.316882 19.00000000
-56.086227 -25.251959 -3.899993 19.00000000
-56.535797 -29.290756 -24.234587 19.00000000
-23.913864 7.377420 -49.289158 19.00000000
-45.224323 -3.970953 -25.169407 19.00000000
-40.837730 -0.127738 -44.511757 19.00000000
-23.301893 7.535906 -7.227998 19.00000000
-56.489635 -28.534849 -37.358639 19.00000000
-46.572388 -5.374163 -7.342072 19.00000000
-52.845188 -14.893789 -29.995121 19.00000000
-53.669975 -16.778494 -0.346530 19.00000000
-35.562290 3.229792 -21.744076 19.00000000
-29.782698 5.729484 -0.278837 19.00000000
-55.283531 -21.492056 -50.935505 19.00000000
-56.579967 -33.977680 -48.590862 19.00000000
-46.664925 -5.485467 -48.167278 19.00000000
-56.615814 -31.996590 1.044558 19.00000000
-56.150513 -25.707933 -43.248615 19.00000000
-23.586369 7.462233 -34.263119 19.00000000
-40.192387 0.352717 -20.656923 19.00000000
-43.505177 -2.322363 3.683250 19.00000000
-48.702644 -7.988187 -8.161511 19.00000000
-55.785080 -23.692541 -20.709663 19.00000000
-21.674158 7.957452 3.467387 19.00000000
-52.660099 -14.516783 -41.655518 19.00000000
-54.528763 -19.036631 -60.770851 19.00000000
-45.090679 -3.833859 -40.658710 19.00000000
-55.726143 -23.427910 -22.899298 19.00000000
-34.453201 3.809797 -57.311314 19.00000000
-21.729057 7.943234 -56.521461 19.00000000
-38.829239 1.301628 -7.543252 19.00000000
-50.724281 -10.975430 -43.632717 19.00000000
-37.128448 2.370084 -54.627403 19.00000000
-47.562180 -6.564698 -8.518403 19.00000000
-31.095594 5.287687 -36.352436 19.00000000
-54.646572 -19.419897 -17.944567 19.00000000
-40.417946 0.184789 -14.052321 19.00000000
-44.222961 -2.950711 -7.818593 19.00000000
-50.636845 -10.828043 -18.164640 19.00000000
-56.296204 -26.741266 -20.716934 19.00000000
-37.133484 2.366921 -47.038288 19.00000000
-54.362507 -18.526148 -23.805080 19.00000000
-29.767273 5.734658 -51.177513 19.00000000
-28.601744 6.125649 -13.020738 19.00000000
-25.830425 6.881074 -61.108597 19.00000000
-21.672188 7.957962 -7.922432 19.00000000
-50.180614 -10.082631 0.831645 19.00000000
-53.502048 -16.354717 -36.928490 19.00000000
-56.619076 -31.816118 -12.429804 19.00000000
-47.617249 -6.630938 -2.304165 19.00000000
-50.377747 -10.391296 -52.054462 19.00000000
-44.648533 -3.380305 -5.879909 19.00000000
-47.735371 -6.773018 -53.028069 19.00000000
-51.696739 -12.614659 -37.983803 19.00000000
-21.579294 7.982019 -34.232651 19.00000000
-56.173920 -25.873938 -54.043720 19.00000000
-43.340595 -2.178289 -28.075666 19.00000000
-31.477568 5.124947 -4.878992 19.00000000
-36.645790 2.663170 -34.067417 19.00000000
-51.617085 -12.480390 3.432090 19.00000000
-53.088520 -15.389429 -45.303730 19.00000000
-29.164284 5.936939 -33.432144 19.00000000
-45.064690 -3.807198 -47.632744 19.00000000
-55.594921 -22.838715 -13.053811 19.00000000
-42.275463 -1.245874 -47.187416 19.00000000
-56.578873 -34.037918 -57.589985 19.00000000
-49.044724 -8.472949 -58.913506 19.00000000
-55.589001 -22.812136 -51.915379 19.00000000
-53.411854 -16.127108 -15.866107 19.00000000
-31.891418 4.948626 -41.413246 19.00000000
-30.277216 5.563592 -41.183704 19.00000000
-29.287907 5.895468 -52.726707 19.00000000
-31.424547 5.147536 -59.962009 19.00000000
-54.569572 -19.169395 -40.162853 19.00000000
-56.539116 -29.345066 -6.000870 19.00000000
-56.473286 -28.267157 -19.946012 19.00000000
-48.449623 -7.632131 -13.119364 19.00000000
-55.037907 -20.692993 -29.369478 19.00000000
-49.402187 -8.979516 -4.929401 19.00000000
-48.488194 -7.684284 2.852834 19.00000000
-32.142933 4.841469 0.128284 19.00000000
-55.470123 -22.278379 -56.799690 19.00000000
-24.620367 7.194451 -43.947433 19.00000000
-45.350121 -4.099995 -20.515205 19.00000000
-54.915730 -20.295517 -16.480536 19.00000000
-54.674458 -19.510612 -22.028358 19.00000000
-26.938646 6.594071 -30.655773 19.00000000
-38.127895 1.742220 -59.108376 19.00000000
-33.598858 4.221172 -50.586548 19.00000000
-43.951187 -2.712801 -10.961455 19.00000000
-56.584934 -33.703785 -17.194798 19.00000000
-41.432255 -0.570357 -37.192657 19.00000000
-53.632671 -16.684359 -49.749332 19.00000000
-51.014156 -11.464062 -3.499851 19.00000000
-24.286325 7.280960 -0.842817 19.00000000
-48.783657 -8.102989 -22.657913 19.00000000
-48.411022 -7.585698 -56.856876 19.00000000
-46.068405 -4.836813 -46.198273 19.00000000
-38.105087 1.756550 -28.876385 19.00000000
-54.407570 -18.642363 -43.932453 19.00000000
-37.772888 1.965241 -5.641420 19.00000000
-49.706825 -9.411218 -40.319839 19.00000000
-56.606400 -32.516872 -41.693329 19.00000000
-53.617252 -16.645447 -20.811144 19.00000000
-53.851456 -17.236471 -40.079201 19.00000000
-47.954254 -7.036295 -34.937294 19.00000000
-45.835255 -4.597646 -15.315815 19.00000000
-38.921684 1.243553 -9.529194 19.00000000
-50.615742 -10.792469 -48.869244 19.00000000
-54.399799 -18.620264 -50.288345 19.00000000
-34.429012 3.822448 -34.003639 19.00000000
-45.559772 -4.315058 3.612404 19.00000000
-54.947037 -20.397369 -31.031660 19.00000000
-23.341284 7.525705 -60.132996 19.00000000
-34.627960 3.718406 -10.473133 19.00000000
-34.383556 3.846218 -26.366022 19.00000000
-48.340317 -7.500654 0.025827 19.00000000
-24.545048 7.213958 -22.486580 19.00000000
-42.049122 -1.047737 -35.760139 19.00000000
-54.208225 -18.136810 -59.286777 19.00000000
-26.445271 6.721844 -57.565578 19.00000000
-42.303368 -1.270303 -3.787341 19.00000000
-33.734741 4.163278 -17.873064 19.00000000
-56.482201 -28.413111 -35.421940 19.00000000
-56.612080 -30.539907 -26.186150 19.00000000
-51.544781 -12.358505 -24.377050 19.00000000
-56.326069 -26.953091 -32.620644 19.00000000
-22.898830 7.640290 -43.255577 19.00000000
-28.122490 6.286421 -44.356892 19.00000000
-52.484455 -14.159013 -2.540929 19.00000000
-43.972492 -2.731450 -59.308113 19.00000000
-45.245464 -3.992640 -34.608723 19.00000000
-56.584503 -33.727947 -3.897466 19.00000000
-52.922474 -15.051213 -47.028992 19.00000000
-44.589874 -3.320133 2.359862 19.00000000
-52.366070 -13.917871 -57.408550 19.00000000
-54.253456 -18.250950 -37.053753 19.00000000
-56.580692 -33.937325 -59.109913 19.00000000
-50.842327 -11.174415 -45.887886 19.00000000
-31.038765 5.308121 -3.200001 19.00000000
-41.922901 -0.937243 -14.441321 19.00000000
-23.598349 7.459131 -45.486221 19.00000000
-54.984962 -20.520748 -57.130047 19.00000000
-26.362343 6.743320 -20.355930 19.00000000
-55.958431 -24.470900 -39.468491 19.00000000
-51.613708 -12.474698 -30.712313 19.00000000
-56.481899 -28.408163 -53.055325 19.00000000
-39.023270 1.179737 -4.923156 19.00000000
-55.501663 -22.419983 -60.705715 19.00000000
-53.273087 -15.776920 -28.636677 19.00000000
-56.332432 -26.998226 -45.867485 19.00000000
-25.540215 6.956232 -28.930725 19.00000000
-56.606731 -32.498165 -60.600449 19.00000000
-56.259686 -26.482250 -55.514847 19.00000000
-32.890366 4.523024 -7.471407 19.00000000
-29.932091 5.679368 -5.383053 19.00000000
-53.875374 -17.296833 -1.950880 19.00000000
-54.124001 -17.924257 -34.623966 19.00000000
-32.515972 4.682536 -11.348338 19.00000000
-35.796497 3.107312 -7.994455 19.00000000
-49.699310 -9.400569 -7.636874 19.00000000
-25.268110 7.026701 -26.345112 19.00000000
-53.371075 -16.024195 -35.186485 19.00000000
-23.284973 7.540287 -21.226303 19.00000000
-53.647587 -16.721998 -12.025641 19.00000000
-54.728573 -19.686659 0.504297 19.00000000
-56.404869 -27.512005 3.224097 19.00000000
-54.361588 -18.523829 -31.010912 19.00000000
-55.730507 -23.447493 -15.724234 19.00000000
-34.477062 3.797319 -43.397507 19.00000000
-51.871708 -12.910913 -26.081347 19.00000000
-25.960382 6.847419 -32.606812 19.00000000
-47.085419 -5.991246 -22.421740 19.00000000
-46.753208 -5.591659 -29.256748 19.00000000
-46.637600 -5.452602 -56.574203 19.00000000
-56.486012 -28.475519 -22.975674 19.00000000
-52.971111 -15.150280 -58.897362 19.00000000
-56.508381 -28.841818 -27.587345 19.00000000
-56.044788 -24.958050 -41.653370 19.00000000
-56.108128 -25.407297 -58.271221 19.00000000
-25.283974 7.022593 -48.070358 19.00000000
-31.852419 4.965242 -25.503242 19.00000000
-56.599545 -30.334602 -17.446693 19.00000000
-51.285484 -11.921425 -22.394867 19.00000000
-55.489616 -22.365896 -7.058719 19.00000000
-43.036892 -1.912428 -23.221582 19.00000000
-38.011433 1.815385 -13.274868 19.00000000
-48.050987 -7.152646 -15.307423 19.00000000
-28.083378 6.297612 -0.816285 19.00000000
-54.273376 -18.301224 1.116273 19.00000000
-56.617481 -31.904268 -32.265732 19.00000000
-49.022556 -8.441534 -34.415913 19.00000000
-22.116610 7.842867 -47.096001 19.00000000
-48.604740 -7.849447 -41.019119 19.00000000
-53.838337 -17.203365 -43.068897 19.00000000
-34.487427 3.791899 -16.029938 19.00000000
-44.816299 -3.552399 -58.041656 19.00000000
-51.469105 -12.230943 -15.136961 19.00000000
-29.638807 5.777753 -39.417648 19.00000000
-54.049564 -17.736420 -38.590218 19.00000000
-46.951332 -5.829962 -20.555998 19.00000000
-56.579723 -30.010056 -45.226467 19.00000000
-49.330715 -8.878232 -45.098095 19.00000000
-56.586983 -33.590549 -18.833473 19.00000000
-51.401394 -12.116804 -8.325332 19.00000000
-55.353680 -21.755535 -15.797735 19.00000000
-32.690853 4.608026 -15.421193 19.00000000
-26.265684 6.768352 -8.673023 19.00000000
-56.467098 -28.165831 -13.297767 19.00000000
-40.098984 0.422255 -50.482327 19.00000000
-50.812592 -11.124292 -9.685393 19.00000000
-47.732811 -6.769938 -18.592390 19.00000000
-43.161480 -2.021494 -31.837517 19.00000000
-31.660585 5.046973 -34.555866 19.00000000
-43.591038 -2.397525 -35.399246 19.00000000
-49.405277 -8.983892 -52.961979 19.00000000
-36.210423 2.890847 -18.725296 19.00000000
-41.431847 -0.570052 -42.981258 19.00000000
-52.031422 -13.236236 -0.523367 19.00000000
-55.540730 -22.595394 -46.054497 19.00000000
-44.521824 -3.250327 -53.940163 19.00000000
-24.410915 7.248695 0.890634 19.00000000
-56.607811 -32.438553 -57.715836 19.00000000
-21.823778 7.918703 -16.260969 19.00000000
-50.443390 -10.501942 -31.720098 19.00000000
-54.305241 -18.381639 -47.021503 19.00000000
-54.528702 -19.036430 -9.676132 19.00000000
-54.552948 -19.115318 -13.635671 19.00000000
-46.009407 -4.776292 -60.927170 19.00000000
-48.026577 -7.123283 -37.129726 19.00000000
-42.672497 -1.593436 -43.112431 19.00000000
-53.900425 -17.360050 -25.091904 19.00000000
-42.278255 -1.248320 -32.855553 19.00000000
-42.323761 -1.288156 -50.117950 19.00000000
-54.632645 -19.374586 -2.428496 19.00000000
-54.092117 -17.843800 -26.822189 19.00000000
-45.941357 -4.706484 -22.284243 19.00000000
-24.613348 7.196269 -17.766476 19.00000000
-51.731258 -12.672844 -40.422211 19.00000000
-56.619934 -31.768682 -4.572402 19.00000000
-36.479671 2.750042 -60.358871 19.00000000
-45.645321 -4.402810 -27.534578 19.00000000
-36.303398 2.842227 -31.014645 19.00000000
-26.132130 6.802940 -7.050681 19.00000000
-31.670740 5.042646 -28.371630 19.00000000
-25.720861 6.909449 0.010538 19.00000000
-40.790916 -0.092884 3.497451 19.00000000
-56.042004 -24.938309 -52.072289 19.00000000
-56.628857 -31.275345 -55.972965 19.00000000
-42.389256 -1.345489 -16.599281 19.00000000
-53.955154 -17.498171 -16.631960 19.00000000
-29.513355 5.819838 -11.421685 19.00000000
-56.612659 -30.549353 -10.124293 19.00000000
-56.305397 -26.806475 -14.084458 19.00000000
-35.977406 3.012707 -43.138153 19.00000000
-49.604744 -9.266558 3.818157 19.00000000
-46.520527 -5.311785 -11.931146 19.00000000
-36.737247 2.615341 -58.147945 19.00000000
-35.110626 3.465992 2.100859 19.00000000
-53.156216 -15.527317 -43.680157 19.00000000
-46.912018 -5.782677 -37.334782 19.00000000
-35.395378 3.317081 -49.870956 19.00000000
-28.613436 6.121728 -30.378847 19.00000000
-26.515308 6.703705 3.815422 19.00000000
-56.291924 -26.710930 -52.378174 19.00000000
-55.076138 -20.817362 -3.479934 19.00000000
-33.779678 4.144133 -28.604355 19.00000000
-24.050947 7.341918 -53.369671 19.00000000
-37.354019 2.228379 3.403462 19.00000000
-34.311981 3.883650 -2.477787 19.00000000
-55.306126 -21.565565 -1.709575 19.00000000
-52.573185 -14.339746 -53.042381 19.00000000
-52.485386 -14.160909 3.201958 19.00000000
-31.109058 5.281950 -47.466930 19.00000000
-56.633022 -30.882797 -0.423065 19.00000000
-54.824203 -19.997770 -19.692846 19.00000000
-22.744522 7.680252 -50.380058 19.00000000
-47.820652 -6.875594 -59.597752 19.00000000
-55.892696 -24.175737 -30.705709 19.00000000
-56.067593 -25.119799 3.839490 19.00000000
-46.202194 -4.974055 -0.584560 19.00000000
-36.288010 2.850274 -48.506580 19.00000000
-51.905296 -12.979327 -33.382362 19.00000000
-52.218376 -13.617043 -31.788582 19.00000000
-52.079872 -13.334925 -7.209577 19.00000000
-56.552650 -29.566757 -56.002350 19.00000000
-41.939247 -0.951552 -45.530853 19.00000000
-51.444183 -12.188936 -47.742455 19.00000000
-56.613110 -32.146046 -19.449556 19.00000000
-54.421452 -18.687534 -54.220547 19.00000000
-42.250610 -1.224118 -26.494349 19.00000000
-41.733208 -0.794414 -30.738522 19.00000000
-54.470100 -18.845797 -32.698627 19.00000000
-52.987030 -15.182704 -49.581036 19.00000000
-56.579418 -30.005074 -12.182581 19.00000000
-56.590473 -33.397911 -5.629872 19.00000000
-43.340412 -2.178131 -40.488430 19.00000000
-27.739483 6.386673 -55.434887 19.00000000
-45.270351 -4.018169 -56.662922 19.00000000
-27.839443 6.360785 -18.357195 19.00000000
-53.748405 -16.976418 -6.991656 19.00000000
-29.352215 5.873895 -45.892456 19.00000000
-51.464493 -12.223167 -19.244116 19.00000000
-54.932243 -20.349239 -59.362797 19.00000000
-50.514660 -10.622084 2.239984 19.00000000
-56.485008 -28.459076 -4.535754 19.00000000
-53.497910 -16.344273 -41.712624 19.00000000
-51.439636 -12.181270 -42.166927 19.00000000
-56.633579 -30.891953 -50.820339 19.00000000
-52.891022 -14.987145 -0.739237 19.00000000
-23.878029 7.386700 -55.452091 19.00000000
-35.302750 3.365521 -56.097328 19.00000000
-56.501568 -28.730253 -60.604290 19.00000000
-32.986462 4.482083 -55.758209 19.00000000
-32.469898 4.702165 -48.070469 19.00000000
-21.666086 7.959542 -0.322060 19.00000000
-32.333027 4.760479 -44.283657 19.00000000
-56.419735 -27.617453 -57.965057 19.00000000
-54.106441 -17.879955 -48.732082 19.00000000
-56.624725 -31.503691 -7.074639 19.00000000
-45.394093 -4.145099 -17.711308 19.00000000
-56.579906 -33.981625 -20.403885 19.00000000
-56.308701 -26.829914 -60.936344 19.00000000
-54.019413 -17.660332 -10.541806 19.00000000
-43.443920 -2.268739 -14.363311 19.00000000
-29.419455 5.851338 -36.020718 19.00000000
-27.110207 6.549640 -28.862921 19.00000000
-51.111256 -11.627732 -13.503422 19.00000000
-29.070517 5.968394 -25.282253 19.00000000
-23.198256 7.562745 -37.414139 19.00000000
-52.380062 -13.946374 -8.727832 19.00000000
-41.946815 -0.958176 -21.769436 19.00000000
-21.994644 7.874453 -29.306549 19.00000000
-27.079359 6.557629 -48.607555 19.00000000
-55.420536 -22.055719 -28.758656 19.00000000
-35.831047 3.089245 -23.486427 19.00000000
-56.262962 -26.505493 -36.409008 19.00000000
-21.702517 7.950107 -12.548729 19.00000000
-29.009493 5.988865 -22.651691 19.00000000
-28.387726 6.197445 -15.340226 19.00000000
-38.859158 1.282834 -21.104206 19.00000000
-26.115145 6.807339 1.978749 19.00000000
-40.757137 -0.067736 -25.948240 19.00000000
-46.760574 -5.600520 -10.285168 19.00000000
-55.505524 -22.437313 -38.414288 19.00000000
-37.965473 1.844257 -15.204246 19.00000000
-29.925753 5.681494 -56.085583 19.00000000
-45.686623 -4.445180 -59.381039 19.00000000
-56.578835 -34.040245 -37.055710 19.00000000
-56.593170 -33.248730 -2.383310 19.00000000
-37.225506 2.309114 -25.010601 19.00000000
-43.191566 -2.047829 -9.433888 19.00000000
-45.225525 -3.972185 -29.165855 19.00000000
-56.092457 -25.296146 -21.920956 19.00000000
-30.459515 5.502437 -30.133570 19.00000000
-49.530781 -9.161745 -24.276400 19.00000000
-55.812290 -23.814707 -53.858112 19.00000000
-55.334751 -21.670553 -37.096500 19.00000000
-28.025064 6.312714 -10.113575 19.00000000
-55.190151 -21.188272 -13.862841 19.00000000
-45.788235 -4.549411 -2.594126 19.00000000
-54.512573 -18.983974 3.109581 19.00000000
-54.663036 -19.473452 -5.044281 19.00000000
-31.297611 5.201617 -6.831669 19.00000000
-29.975563 5.664784 -54.511772 19.00000000
-56.205593 -26.098600 -5.976678 19.00000000
-55.665092 -23.153791 -47.917973 19.00000000
-46.506165 -5.294512 -18.020054 19.00000000
-21.705391 7.949363 -5.859475 19.00000000
-56.630051 -31.209297 -14.553528 19.00000000
-49.631233 -9.304095 -17.186764 19.00000000
-39.791294 0.651327 -33.892986 19.00000000
-49.768883 -9.499161 -1.552163 19.00000000
-56.430130 -27.691175 -8.919264 19.00000000
-44.499428 -3.227353 -27.384325 19.00000000
-54.354584 -18.506153 -1.158589 19.00000000
-47.935150 -7.013313 -39.076725 19.00000000
-31.239187 5.226509 -39.751457 19.00000000
-45.060696 -3.803103 -11.956188 19.00000000
-56.583160 -33.801662 -31.772863 19.00000000
-56.557652 -29.648596 -47.635090 19.00000000
-53.775127 -17.043858 -52.062618 19.00000000
-50.699623 -10.933864 -21.393753 19.00000000
-56.149231 -25.698828 -8.153200 19.00000000
-54.200466 -18.117235 -29.448090 19.00000000
-43.723709 -2.513666 1.354334 19.00000000
-47.130245 -6.045162 -60.959927 19.00000000
-22.113768 7.843603 -23.747135 19.00000000
-54.644588 -19.413439 -48.176476 19.00000000
-23.595123 7.459966 -10.798473 19.00000000
-31.212114 5.238043 -18.672071 19.00000000
-33.016647 4.469222 3.816826 19.00000000
-21.672268 7.957941 -60.221684 19.00000000
-52.349449 -13.884024 -11.702314 19.00000000
-55.747845 -23.525345 -57.982677 19.00000000
-40.432140 0.174223 -10.412912 19.00000000
-51.689583 -12.602593 -4.954094 19.00000000
-56.023041 -24.803810 -55.510963 19.00000000
-23.517838 7.479981 -41.081139 19.00000000
-39.147820 1.101491 -37.260921 19.00000000
-33.485798 4.269342 -37.847504 19.00000000
-46.671410 -5.493271 -49.831734 19.00000000
-43.261082 -2.108685 -12.296545 19.00000000
-44.218140 -2.946489 -33.931557 19.00000000
-38.469055 1.527901 -23.226858 19.00000000
-48.356735 -7.520404 -31.035231 19.00000000
-35.122574 3.459746 -38.659836 19.00000000
-56.589703 -30.173439 -36.491493 19.00000000
-44.749588 -3.483966 -4.084258 19.00000000
-25.346567 7.006383 -37.849869 19.00000000
-24.867353 7.130488 -57.807224 19.00000000
-34.164635 3.960706 -21.353041 19.00000000
-55.956787 -24.463507 0.517629 19.00000000
-42.649349 -1.573173 2.180866 19.00000000
-28.593075 6.128557 -6.347088 19.00000000
-48.843006 -8.187091 -21.032820 19.00000000
-22.050556 7.859973 -45.415657 19.00000000
-24.259525 7.287901 3.616663 19.00000000
-52.193748 -13.566874 -29.499989 19.00000000
-49.027733 -8.448872 -37.306431 19.00000000
-28.098833 6.293609 -50.408829 19.00000000
-56.619160 -31.811510 -39.770798 19.00000000
-54.070232 -17.788574 -22.176249 19.00000000
-49.295120 -8.827788 0.036676 19.00000000
-56.633308 -31.029156 -3.108623 19.00000000
-39.241238 1.042806 -14.981882 19.00000000
-50.585812 -10.742021 -30.096155 19.00000000
-56.631607 -31.123203 -46.532944 19.00000000
-27.090948 6.554628 -36.625462 19.00000000
-55.991459 -24.619179 -9.663013 19.00000000
-53.772598 -17.037474 -31.781202 19.00000000
-54.566650 -19.159897 -25.727293 19.00000000
-21.761284 7.934888 -3.801568 19.00000000
-53.897755 -17.353313 -13.741795 19.00000000
-49.133831 -8.599224 -42.198204 19.00000000
-56.579926 -33.980492 -24.247751 19.00000000
-51.646202 -12.529468 1.163526 19.00000000
-31.756456 5.006127 -8.406884 19.00000000
-36.372829 2.805916 -32.571743 19.00000000
-55.283779 -21.492872 -21.736431 19.00000000
-36.867474 2.534032 -0.163072 19.00000000
-49.538101 -9.172117 -49.159130 19.00000000
-43.134636 -1.997992 -6.106920 19.00000000
-49.571182 -9.219000 -36.089081 19.00000000
-40.873348 -0.154255 -3.470396 19.00000000
-53.256878 -15.736013 -53.489166 19.00000000
-33.408054 4.302463 -39.776585 19.00000000
-56.540180 -29.362555 -8.915223 19.00000000
-25.322210 7.012691 -9.988706 19.00000000
-56.619423 -31.796881 -45.014942 19.00000000
-46.769894 -5.611727 -3.260037 19.00000000
-42.892967 -1.786436 -53.012741 19.00000000
-49.928471 -9.725315 -56.062233 19.00000000
-48.598225 -7.840209 -27.790848 19.00000000
-49.807747 -9.554235 -43.561558 19.00000000
-53.171528 -15.558507 -22.164734 19.00000000
-41.900948 -0.919295 -1.016349 19.00000000
-56.349014 -27.115841 -11.092675 19.00000000
-55.721451 -23.406836 -4.353067 19.00000000
-40.658554 0.005658 -55.426712 19.00000000
-27.625095 6.416296 -32.338474 19.00000000
-40.394108 0.202536 -8.365525 19.00000000
-51.514572 -12.307588 -44.553200 19.00000000
-45.267971 -4.015726 -44.845909 19.00000000
-45.403011 -4.154250 -42.620625 19.00000000
-45.714325 -4.473595 -13.391761 19.00000000
-52.462311 -14.113908 -50.733868 19.00000000
-41.150150 -0.360331 1.603792 19.00000000
-37.942867 1.858457 -19.737658 19.00000000
-38.340717 1.608523 -25.864147 19.00000000
-53.769978 -17.030863 -60.937344 19.00000000
-56.092125 -25.293797 -32.339916 19.00000000
-56.586517 -33.616165 -29.705797 19.00000000
-49.674301 -9.365130 -13.720846 19.00000000
-56.090233 -25.280363 -15.752304 19.00000000
-54.044659 -17.724039 -56.086697 19.00000000
-41.421249 -0.562163 -53.906361 19.00000000
-56.618511 -30.645187 -48.885208 19.00000000
-43.230854 -2.082222 -20.413067 19.00000000
-28.628815 6.116569 -48.547714 19.00000000
-56.583229 -33.798225 -14.926895 19.00000000
-55.674572 -23.196350 -18.767452 19.00000000
-29.527264 5.815173 3.323612 19.00000000
-56.511421 -28.891573 -29.308367 19.00000000
-31.322077 5.191194 -55.573994 19.00000000
-28.264149 6.238900 -34.807384 19.00000000
-52.494522 -14.179522 -18.706350 19.00000000
-50.833229 -11.159078 -0.874667 19.00000000
-29.822750 5.716048 -60.569035 19.00000000
-56.616280 -31.970945 -29.346800 19.00000000
-55.992722 -24.624855 -12.825444 19.00000000
-44.587475 -3.317673 -15.429038 19.00000000
-56.600986 -32.815937 -47.014977 19.00000000
-46.334789 -5.110069 2.125870 19.00000000
-54.916164 -20.296932 -44.056770 19.00000000
-56.596016 -33.091038 -33.712540 19.00000000
-41.182484 -0.384403 -49.444244 19.00000000
-50.911316 -11.290704 -56.955627 19.00000000
-27.973061 6.326181 -52.015087 19.00000000
-51.602345 -12.455542 -16.855301 19.00000000
-35.826656 3.091541 -5.074550 19.00000000
-49.461510 -9.063582 -50.831470 19.00000000
-55.006031 -20.589293 -9.928041 19.00000000
-51.559818 -12.383857 -49.708389 19.00000000
-56.479218 -28.364243 -14.973943 19.00000000
-56.014198 -24.741087 -18.977449 19.00000000
-45.356663 -4.106704 -55.068726 19.00000000
-54.665554 -19.481647 -27.881758 19.00000000
-43.721554 -2.511779 -16.410780 19.00000000
-31.029297 5.311297 -32.632996 19.00000000
-36.989639 2.457287 -56.649864 19.00000000
-53.665035 -16.766029 -58.852257 19.00000000
-41.817142 -0.856901 -5.517372 19.00000000
-29.266136 5.902771 -58.945042 19.00000000
-55.158180 -21.084267 -48.590321 19.00000000
-48.271881 -7.418341 -17.054058 19.00000000
-56.513290 -28.922239 -10.760654 19.00000000
-56.140095 -25.634048 -45.136700 19.00000000
-40.601341 0.048254 -61.001362 19.00000000
-40.667557 -0.001042 -58.327068 19.00000000
-56.542503 -29.400547 -2.952132 19.00000000
-43.245445 -2.094995 -38.084564 19.00000000
-33.542927 4.245002 -46.774693 19.00000000
-49.774097 -9.506551 -20.940924 19.00000000
-56.582668 -30.058304 -52.383972 19.00000000
-47.817478 -6.871777 1.773306 19.00000000
-56.532211 -29.232012 -58.717625 19.00000000
-30.750896 5.404689 -20.499422 19.00000000
-53.219921 -15.657080 -19.483507 19.00000000
-56.147064 -25.683481 -27.450983 19.00000000
-48.816231 -8.149147 -19.299452 19.00000000
-54.819332 -19.981924 -51.550148 19.00000000
-54.010593 -17.638077 -18.728519 19.00000000
-23.455559 7.496110 -12.875824 19.00000000
-22.664061 7.701090 -52.026970 19.00000000
-26.518360 6.702915 -34.799202 19.00000000
-36.094627 2.951404 -9.885869 19.00000000
-40.784824 -0.088349 -0.051557 19.00000000
-36.540630 2.718164 1.590352 19.00000000
-33.394218 4.308358 -9.276646 19.00000000
-56.114471 -25.452293 -38.152908 19.00000000
-56.537632 -29.320812 -33.157017 19.00000000
-56.487652 -28.502394 -45.257484 19.00000000
-44.221401 -2.949344 -55.724911 19.00000000
-24.762325 7.157688 -14.918289 19.00000000
-55.158131 -21.084103 -18.289473 19.00000000
-38.564377 1.468017 -50.434834 19.00000000
-55.435894 -22.124674 0.350474 19.00000000
-44.852856 -3.589897 -1.285440 19.00000000
-42.013454 -1.016514 3.746698 19.00000000
-56.599445 -32.901733 -8.749859 19.00000000
-51.471416 -12.234841 -35.240116 19.00000000
-42.553295 -1.489087 -7.533589 19.00000000
-28.974110 6.000735 -28.747185 19.00000000
-23.404352 7.509371 -4.796271 19.00000000
-56.184578 -25.949547 -17.417683 19.00000000
-40.837944 -0.127896 -34.852604 19.00000000
-56.355438 -27.161406 -59.445496 19.00000000
-38.378605 1.584723 -33.392025 19.00000000
-47.258484 -6.199411 -24.747982 19.00000000
-50.923435 -11.311138 -60.504997 19.00000000
-35.911667 3.047084 -44.794617 19.00000000
-52.457954 -14.105037 -34.719353 19.00000000
-23.835827 7.397630 -29.996771 19.00000000
-35.737854 3.137981 -17.148415 19.00000000
-43.909378 -2.676201 -43.770508 19.00000000
-21.766056 7.933652 -10.894420 19.00000000
-25.456018 6.978037 -1.848835 19.00000000
-54.568111 -19.164642 -15.495104 19.00000000
-45.870136 -4.633430 -38.970577 19.00000000
-47.729759 -6.766267 -4.181748 19.00000000
-56.598602 -30.319223 3.865494 19.00000000
-42.216190 -1.193988 -29.062218 19.00000000
-39.933613 0.545373 -31.655741 19.00000000
-50.974621 -11.397416 -5.925159 19.00000000
-55.129990 -20.992552 -54.614372 19.00000000
-55.814842 -23.826180 -32.543182 19.00000000
-56.369823 -27.263443 -16.344601 19.00000000
-52.605675 -14.405926 1.127463 19.00000000
-22.623915 7.711487 -39.043106 19.00000000
-56.540882 -29.374002 -0.737172 19.00000000
-56.193146 -26.010319 2.386006 19.00000000
-50.231655 -10.154957 -59.787243 19.00000000
-49.065289 -8.502090 -6.419405 19.00000000
-48.090385 -7.200035 -55.167793 19.00000000
-39.040607 1.168843 -35.443932 19.00000000
-40.645935 0.015052 -18.800611 19.00000000
-56.599247 -32.912670 -0.622854 19.00000000
-40.379734 0.213239 -38.223110 19.00000000
-39.951424 0.532111 -46.394516 19.00000000
-56.402332 -27.494036 -47.972618 19.00000000
-27.219427 6.521355 0.530161 19.00000000
-56.579926 -33.979877 -54.721069 19.00000000
-56.604446 -30.414885 -54.048042 19.00000000
-53.075981 -15.363889 -33.596687 19.00000000
-23.221846 7.556636 -31.386103 19.00000000
-48.618244 -7.868581 -51.945454 19.00000000
-56.605644 -32.558922 -27.268553 19.00000000
-43.014668 -1.892972 -61.080479 19.00000000
-50.124802 -10.003538 -54.416756 19.00000000
-46.981327 -5.866042 -32.849716 19.00000000
-24.842613 7.136895 -6.098715 19.00000000
-55.570045 -22.727028 -55.375614 19.00000000
-46.474930 -5.256938 -25.685614 19.00000000
-37.150517 2.356223 -8.130370 19.00000000
-52.561665 -14.316277 -27.814665 19.00000000
-56.590942 -33.371964 -10.677698 19.00000000
-49.992603 -9.816199 -34.306454 19.00000000
-33.502060 4.262413 -5.811459 19.00000000
-52.256218 -13.694116 -55.041504 19.00000000
-55.743565 -23.506142 -29.241598 19.00000000
-52.110725 -13.397764 -23.161007 19.00000000
-49.955467 -9.763570 -47.212814 19.00000000
-39.451668 0.904175 -58.452724 19.00000000
-53.766872 -17.023027 -54.214012 19.00000000
-47.691315 -6.720026 -45.429657 19.00000000
-52.566151 -14.325416 -17.147078 19.00000000
-53.437687 -16.192303 -48.141968 19.00000000
-27.555674 6.434275 -24.041573 19.00000000
-50.390144 -10.412192 -23.390533 19.00000000
-33.166035 4.405576 -36.151718 19.00000000
-40.932545 -0.198326 -33.038944 19.00000000
-41.492661 -0.615327 -59.516617 19.00000000
-47.493332 -6.481888 -51.274830 19.00000000
-51.996151 -13.164387 -21.123871 19.00000000
-42.929165 -1.818125 -57.241398 19.00000000
-53.206348 -15.629432 -13.765768 19.00000000
-56.592709 -33.273743 -35.509865 19.00000000
-48.456226 -7.640074 -47.398327 19.00000000
-55.938881 -24.383110 -6.954055 19.00000000
-22.606218 7.716070 -14.453021 19.00000000
-54.583504 -19.214714 -55.778923 19.00000000
-25.589127 6.943565 -59.297821 19.00000000
-41.045094 -0.282116 -12.773294 19.00000000
-49.107681 -8.562169 -15.921701 19.00000000
-56.612625 -30.548815 -40.570629 19.00000000
-45.727448 -4.487056 -48.997707 19.00000000
-42.185555 -1.167169 -39.050835 19.00000000
-55.997131 -24.644655 -49.259769 19.00000000
-38.295296 1.637057 -60.647400 19.00000000
-56.527332 -29.152122 -39.551476 19.00000000
-26.342676 6.748413 -40.844688 19.00000000
-33.209858 4.386905 -13.350741 19.00000000
-32.133270 4.845585 2.477294 19.00000000
-53.158737 -15.532453 -31.807631 19.00000000
-49.360455 -8.920374 -61.048046 19.00000000
-55.629822 -22.995424 -49.654762 19.00000000
-53.912754 -17.391169 -44.695412 19.00000000
-54.745899 -19.743025 -36.860806 19.00000000
-56.595921 -33.095985 -50.645359 19.00000000
-40.480362 0.138320 -5.433949 19.00000000
-49.752087 -9.475359 -18.886772 19.00000000
-56.192574 -26.006254 0.790047 19.00000000
-30.727432 5.412561 -52.325729 19.00000000
-36.267101 2.861206 -37.553352 19.00000000
-46.011494 -4.778431 -31.482592 19.00000000
-21.757921 7.935759 -31.782616 19.00000000
-34.191570 3.946619 -4.381427 19.00000000
-39.416912 0.930051 -12.903880 19.00000000
-47.189384 -6.116298 -30.745045 19.00000000
-23.028301 7.606760 -35.914650 19.00000000
-47.916382 -6.990739 -29.074436 19.00000000
-55.934910 -24.365273 -26.084694 19.00000000
-23.497820 7.485165 -28.330135 19.00000000
-50.349556 -10.343774 -38.777245 19.00000000
-53.461540 -16.252497 -17.621441 19.00000000
-43.505554 -2.322695 -17.927551 19.00000000
-25.493986 6.968204 -52.292664 19.00000000
-56.488220 -28.511671 -25.951160 19.00000000
-56.589073 -30.163130 -43.074791 19.00000000
-35.408985 3.309964 -25.068417 19.00000000
-45.979633 -4.745750 -8.561051 19.00000000
-49.357235 -8.915810 -28.977720 19.00000000
-54.455746 -18.799093 -57.729519 19.00000000
-21.627668 7.969491 -26.860598 19.00000000
-52.871223 -14.946819 -4.336012 19.00000000
-34.602654 3.731642 -12.429435 19.00000000
-51.737743 -12.683775 -51.485493 19.00000000
-52.463322 -14.115968 -39.746880 19.00000000
-55.452690 -22.200106 -58.666126 19.00000000
-55.887939 -24.154375 -60.059841 19.00000000
-55.914295 -24.272713 -36.852139 19.00000000
-56.148811 -25.695871 -0.838983 19.00000000
-33.931854 4.079299 -24.885923 19.00000000
-51.973038 -13.117309 -13.501392 19.00000000
-33.650917 4.198992 -0.862681 19.00000000
-22.277733 7.801140 -2.077134 19.00000000
-46.774120 -5.616812 -14.514078 19.00000000
-33.393509 4.308660 -52.910854 19.00000000
-30.842764 5.373872 -38.035835 19.00000000
-55.474724 -22.299032 -9.198395 19.00000000
-46.344276 -5.119802 -40.437859 19.00000000
-21.554075 7.988550 -36.708817 19.00000000
-43.633804 -2.434963 -3.077282 19.00000000
-49.324596 -8.869557 -57.451866 19.00000000
-47.464783 -6.447551 -41.416695 19.00000000
-56.627930 -31.326591 -37.480606 19.00000000
-56.609955 -32.320274 -48.816914 19.00000000
-41.798775 -0.843228 -56.587303 19.00000000
-55.754539 -23.555416 3.848677 19.00000000
-56.586357 -33.625168 -22.453428 19.00000000
-37.689678 2.017514 -35.529366 19.00000000
-37.394299 2.203076 -21.905956 19.00000000
-28.978823 5.999154 -37.568054 19.00000000
-27.380911 6.479535 -22.153065 19.00000000
-47.441864 -6.419984 -13.069695 19.00000000
-54.169815 -18.039879 -4.036189 19.00000000
-53.516060 -16.390081 -8.419925 19.00000000
-55.652653 -23.097939 -34.470123 19.00000000
-44.024502 -2.776978 -24.309414 19.00000000
-44.241241 -2.966712 -52.295555 19.00000000
-25.847834 6.876566 -16.305420 19.00000000
-35.371155 3.329748 -1.298861 19.00000000
-56.264233 -26.514523 -49.689686 19.00000000
-56.600163 -32.861958 -25.369858 19.00000000
-41.711861 -0.778522 -24.643402 19.00000000
-32.596809 4.648094 -22.938538 19.00000000
-31.729591 5.017573 -53.894341 19.00000000
-43.102974 -1.970275 -54.690006 19.00000000
-37.739334 1.986320 -38.223671 19.00000000
-27.012337 6.574987 -13.618960 19.00000000
-53.365452 -16.010010 1.543182 19.00000000
-56.578609 -34.052521 -39.717728 19.00000000
-45.986855 -4.753156 -5.170868 19.00000000
-54.607491 -19.292749 -11.553059 19.00000000
-49.934509 -9.733870 -9.751419 19.00000000
-51.518375 -12.313996 -58.803398 19.00000000
-33.017044 4.469054 -60.481026 19.00000000
-37.234203 2.303649 -52.884388 19.00000000
-53.410877 -16.124640 -10.231308 19.00000000
-28.752722 6.075002 -7.999029 19.00000000
-30.692286 5.424351 1.337392 19.00000000
-56.528126 -29.165115 -41.460560 19.00000000
-31.085432 5.292016 -12.118205 19.00000000
-50.706871 -10.946082 -41.050617 19.00000000
-56.612980 -32.153275 2.558677 19.00000000
-56.279716 -26.624348 -28.856493 19.00000000
-35.783886 3.113908 -53.655422 19.00000000
-54.692863 -19.570486 -7.669146 19.00000000
-24.238600 7.293320 -32.668705 19.00000000
-34.497826 3.786461 -45.375900 19.00000000
-36.880344 2.525947 -39.679909 19.00000000
-42.332222 -1.295562 -18.281654 19.00000000
-55.780907 -23.673803 -44.507397 19.00000000
-46.473263 -5.254933 -43.889648 19.00000000
-41.520229 -0.635852 -19.964363 19.00000000
-47.564968 -6.568057 -57.660751 19.00000000
-41.935413 -0.948196 -11.116743 19.00000000
-50.590710 -10.750273 -11.422373 19.00000000
-55.597984 -22.852482 -25.073256 19.00000000
-52.394756 -13.976304 -5.641613 19.00000000
-28.639690 6.112920 -41.195686 19.00000000
-55.332859 -21.662046 -4.882208 19.00000000
-55.128384 -20.987329 -23.146086 19.00000000
-29.620314 5.783958 -16.664457 19.00000000
-33.435097 4.290943 -58.548695 19.00000000
-32.331974 4.760928 -31.020269 19.00000000
-34.798401 3.629273 -6.789484 19.00000000
-56.480640 -28.387594 -43.340889 19.00000000
-53.909786 -17.383678 2.325060 19.00000000
-53.510666 -16.376467 -5.148155 19.00000000
-43.950405 -2.712116 -29.479910 19.00000000
-56.482231 -28.413620 -31.462257 19.00000000
-55.442688 -22.155191 -30.460562 19.00000000
-56.438084 -27.747602 -7.018651 19.00000000
-55.530502 -22.549467 -3.030319 19.00000000
-47.613857 -6.626858 3.828353 19.00000000
-38.061180 1.784131 -48.630997 19.00000000
-56.498760 -28.684259 1.520562 19.00000000
-56.574306 -29.921375 -30.639526 19.00000000
-38.559479 1.471095 -3.107824 19.00000000
-56.589352 -33.459011 -52.931168 19.00000000
-52.644287 -14.484576 -24.816704 19.00000000
-42.223515 -1.200401 -41.397926 19.00000000
-46.322220 -5.097174 -34.818092 19.00000000
-55.649078 -23.081888 -43.110565 19.00000000
-36.450024 2.765547 -26.615295 19.00000000
-56.580032 -33.975185 1.451828 19.00000000
-21.584566 7.980654 -54.640835 19.00000000
-39.636513 0.766562 -48.917458 19.00000000
-54.604427 -19.282791 -42.165035 19.00000000
-47.628368 -6.644311 -43.742367 19.00000000
-30.399990 5.522405 -26.725967 19.00000000
-50.236256 -10.161480 -3.122915 19.00000000
-43.217937 -2.070914 -51.289391 19.00000000
-23.187920 7.565422 -57.240158 19.00000000
-28.964209 6.004056 -27.056854 19.00000000
-56.359600 -27.190937 -34.260273 19.00000000
-48.158031 -7.281400 -33.308514 19.00000000
-56.320290 -26.912113 -44.225075 19.00000000
-39.850319 0.607382 -40.754879 19.00000000
-56.245079 -26.378672 -30.923485 19.00000000
-56.443954 -27.789232 -0.407596 19.00000000
-30.910702 5.351081 -57.483829 19.00000000
-40.530159 0.101248 -51.927525 19.00000000
-40.580383 0.063855 -16.131599 19.00000000
-23.649372 7.445917 -26.753592 19.00000000
-55.999119 -24.653572 -46.676769 19.00000000
-38.692234 1.387697 -52.189095 19.00000000
-53.072323 -15.356438 -51.582195 19.00000000
-49.425972 -9.013217 2.160345 19.00000000
-40.109940 0.414098 -22.382135 19.00000000
-31.174614 5.254020 -22.216902 19.00000000
-27.688387 6.399906 -58.620472 19.00000000
-46.705231 -5.533951 -27.652548 19.00000000
-53.654030 -16.738260 -46.072037 19.00000000
-35.886089 3.060459 -29.266050 19.00000000
-38.121540 1.746214 -55.572300 19.00000000
-26.451056 6.720345 -11.817436 19.00000000
-45.499966 -4.253704 -53.151211 19.00000000
-53.524982 -16.412596 3.527337 19.00000000
-52.188663 -13.556519 -43.010231 19.00000000
-54.192898 -18.098129 -8.165115 19.00000000
-27.538727 6.438664 -42.912155 19.00000000
-48.908485 -8.279884 -3.397446 19.00000000
-32.736202 4.588707 -26.874363 19.00000000
-24.295317 7.278632 -51.173927 19.00000000
-50.219231 -10.137354 -15.638780 19.00000000
-21.616186 7.972465 -21.538921 19.00000000
-21.790646 7.927284 -41.907948 19.00000000
-56.132988 -25.583624 -25.183271 19.00000000
-34.384689 3.845627 -54.537552 19.00000000
-49.232578 -8.739161 -32.517349 19.00000000
-55.118114 -20.953924 -26.913500 19.00000000
-39.426834 0.922664 -30.146532 19.00000000
-23.135193 7.579077 -19.282822 19.00000000
-39.548962 0.831741 2.247771 19.00000000
-42.591198 -1.522269 0.218348 19.00000000
-25.607676 6.938761 -3.550772 19.00000000
-56.603195 -30.394428 -28.769541 19.00000000
-53.018322 -15.246442 -6.813859 19.00000000
-38.797401 1.321630 -42.179031 19.00000000
-56.508720 -28.847380 -16.611809 19.00000000
-34.797768 3.629605 -36.388981 19.00000000
-47.681416 -6.708118 -11.398496 19.00000000
-50.907745 -11.284687 -33.578156 19.00000000
-55.310303 -21.579147 -42.728378 19.00000000
-35.070286 3.487090 -14.323253 19.00000000
-56.633572 -30.891787 -58.993553 19.00000000
-46.142097 59.176163 -8.650848 20.00000000
-18.666941 60.293671 -28.775702 20.00000000
-0.685689 42.291962 -31.170628 20.00000000
-1.180732 43.458202 -46.043495 20.00000000
-0.416465 41.600964 -25.274494 20.00000000
-16.116842 59.119545 -20.487669 20.00000000
-3.484135 47.669479 -27.694344 20.00000000
-41.281803 61.173473 -50.441452 20.00000000
-29.511967 62.712955 -48.094730 20.00000000
-8.291400 53.491020 -38.951698 20.00000000
-35.449120 62.489014 -6.283518 20.00000000
-0.787367 42.552929 -55.714466 20.00000000
0.231159 38.975891 -19.365120 20.00000000
-9.443538 54.578995 -58.482754 20.00000000
-29.241926 62.690380 -6.050257 20.00000000
-19.096582 60.462326 -43.638882 20.00000000
0.458049 37.237736 -27.182381 20.00000000
-12.782776 57.123951 -55.622295 20.00000000
-2.967699 46.814137 -2.885876 20.00000000
-14.996779 58.489235 -60.195034 20.00000000
-31.971178 62.735870 -32.222759 20.00000000
-21.239532 61.222569 -8.172062 20.00000000
-1.225102 43.548355 0.430732 20.00000000
-20.299976 60.889248 -18.150955 20.00000000
-29.163130 62.683792 -43.724873 20.00000000
-36.924061 62.234009 -46.010365 20.00000000
-44.710724 59.835438 -7.841524 20.00000000
-18.254440 60.106113 -50.640770 20.00000000
-44.746021 59.819180 3.640763 20.00000000
-30.529596 62.739414 -34.784912 20.00000000
-29.361036 62.700336 -52.710758 20.00000000
-42.787014 60.631199 -49.824352 20.00000000
-25.438967 62.233810 -40.628250 20.00000000
-5.792824 50.807701 -26.574066 20.00000000
-4.967365 49.768456 -50.154335 20.00000000
-26.090435 62.345139 -23.163734 20.00000000
-10.289813 55.269337 -40.126606 20.00000000
-2.808070 46.549751 -32.963097 20.00000000
-34.325253 62.588478 -45.572327 20.00000000
-1.907340 44.934582 -43.060013 20.00000000
-20.550322 60.978062 -51.712597 20.00000000
-1.058460 43.209759 -53.302792 20.00000000
-13.053130 57.308285 -0.616931 20.00000000
-40.058071 61.523308 -19.469976 20.00000000
-32.532421 62.734493 -40.618614 20.00000000
-18.200720 60.081688 -27.200710 20.00000000
-8.262789 53.463272 -44.344212 20.00000000
-42.554386 60.715008 -42.865383 20.00000000
-0.784375 42.545250 -11.953815 20.00000000
-8.659768 53.848286 -6.914485 20.00000000
0.849622 34.237984 -35.161530 20.00000000
-19.400801 60.570251 -46.112080 20.00000000
-45.935768 59.271194 -6.639856 20.00000000
-3.398722 47.528015 -14.354347 20.00000000
-44.871838 59.761230 -17.008621 20.00000000
0.178327 39.380627 -39.105743 20.00000000
-0.921339 42.896786 -3.644635 20.00000000
-26.985624 62.498116 -2.222502 20.00000000
-15.587905 58.821888 -3.311057 20.00000000
-35.578232 62.470703 -51.646446 20.00000000
-6.246722 51.330608 -35.660118 20.00000000
-31.535280 62.736942 -22.768747 20.00000000
0.521373 36.752625 -48.010845 20.00000000
-0.559867 41.969025 -4.970066 20.00000000
-9.316531 54.475388 -11.442663 20.00000000
-39.991508 61.541012 -15.023713 20.00000000
-2.256706 45.636559 -39.981506 20.00000000
-20.772018 61.056713 -33.452629 20.00000000
-27.849972 62.574017 -17.230782 20.00000000
-19.647648 60.657825 3.286260 20.00000000
-18.449457 60.194782 -14.672030 20.00000000
-39.765541 61.601112 -27.158054 20.00000000
-28.578405 62.634911 -54.548534 20.00000000
-45.741421 59.360710 -21.964287 20.00000000
-27.266481 62.525238 -0.527049 20.00000000
-38.530388 61.929626 -57.837914 20.00000000
-40.296940 61.459778 -37.666668 20.00000000
-13.397311 57.542953 3.824359 20.00000000
-39.931808 61.556889 -24.981201 20.00000000
-30.987766 62.738289 -41.719475 20.00000000
-2.700734 46.371979 -57.856350 20.00000000
-33.696541 62.644119 -1.476747 20.00000000
-7.438102 52.663441 -16.123766 20.00000000
-22.936630 61.689346 -8.242320 20.00000000
-39.719776 61.613285 -31.823088 20.00000000
-13.034915 57.295864 -47.747673 20.00000000
-1.431336 43.967400 -37.006466 20.00000000
-34.507065 62.572388 -48.635944 20.00000000
-31.331509 62.737446 -47.751732 20.00000000
-0.558277 41.964943 -28.407833 20.00000000
0.613302 36.048382 -54.501762 20.00000000
-24.247780 62.030251 -22.780893 20.00000000
-10.422676 55.377716 -50.314465 20.00000000
-32.231094 62.735233 -20.937477 20.00000000
-39.450752 61.684837 -3.136218 20.00000000
-40.016968 61.534241 -5.259828 20.00000000
-10.846756 55.723656 -61.016582 20.00000000
-3.471054 47.647816 -59.017490 20.00000000
-1.913623 44.947350 -25.027449 20.00000000
-14.146552 58.010773 -23.538839 20.00000000
-14.101721 57.985546 -55.995251 20.00000000
-43.001011 60.554104 -53.158005 20.00000000
0.406194 37.634991 -54.639095 20.00000000
-44.247101 60.048977 -47.959568 20.00000000
-34.902195 62.537415 -57.356312 20.00000000
-24.134560 62.001709 -60.279411 20.00000000
-37.917942 62.059216 -22.997993 20.00000000
-26.804831 62.467220 -12.330891 20.00000000
-1.693445 44.499973 -0.965426 20.00000000
-13.857164 57.847923 -3.478034 20.00000000
-9.218157 54.389847 -8.577816 20.00000000
-46.250076 59.126427 -39.483219 20.00000000
0.594120 36.195324 -30.813644 20.00000000
-11.495714 56.246407 -56.770416 20.00000000
-20.128843 60.828537 -29.428303 20.00000000
-44.799778 59.794422 -26.605850 20.00000000
-31.261795 62.737614 -3.398914 20.00000000
-22.847879 61.666203 -46.473663 20.00000000
-44.430622 59.964451 -37.784733 20.00000000
-19.079695 60.456337 -57.943913 20.00000000
0.127461 39.770302 -25.708284 20.00000000
-13.600990 57.681824 -5.699429 20.00000000
-9.384341 54.530704 -35.275379 20.00000000
-44.835827 59.777817 -52.238091 20.00000000
-20.890249 61.098656 -35.212296 20.00000000
-10.653833 55.566280 -46.690777 20.00000000
-6.449041 51.563686 -23.988001 20.00000000
-1.680768 44.474216 -3.280131 20.00000000
-4.995943 49.807732 -6.033761 20.00000000
0.842683 34.291142 -41.649498 20.00000000
-4.402554 48.992229 -14.510063 20.00000000
-39.640667 61.634323 -52.898312 20.00000000
-34.652164 62.559544 -13.298685 20.00000000
-33.074345 62.699184 -47.135227 20.00000000
-24.495895 62.072651 -24.559856 20.00000000
-35.105812 62.519398 1.671511 20.00000000
-37.926125 62.057774 3.614359 20.00000000
-15.106600 58.551037 -39.005135 20.00000000
-0.094079 40.773525 -29.490076 20.00000000
-43.462437 60.387871 -15.469701 20.00000000
-31.072594 62.738079 -19.641680 20.00000000
-32.024899 62.735741 -13.989023 20.00000000
-34.972378 62.531204 -60.118786 20.00000000
-24.633026 62.096085 -32.580166 20.00000000
0.355463 38.023628 3.513652 20.00000000
-46.200146 59.149426 -34.925144 20.00000000
0.653161 35.743027 -24.071056 20.00000000
-4.722026 49.431286 3.779527 20.00000000
0.570776 36.374161 -40.372650 20.00000000
-29.430758 62.706165 -24.472418 20.00000000
0.418483 37.540844 -9.670140 20.00000000
-18.198427 60.080647 -47.987064 20.00000000
-35.673534 62.453941 -4.633653 20.00000000
-21.491982 61.312130 -41.079082 20.00000000
-38.659733 61.895226 -38.610989 20.00000000
-0.400822 41.560818 -32.684093 20.00000000
-16.623287 59.364460 -50.748886 20.00000000
-2.374163 45.831097 -15.100618 20.00000000
-36.778492 62.259609 -27.159975 20.00000000
-4.469705 49.084518 -58.682076 20.00000000
-35.773602 62.436344 -30.460140 20.00000000
-31.971905 62.735870 -27.070412 20.00000000
-42.109886 60.875141 -47.160435 20.00000000
0.181817 39.353893 -33.523678 20.00000000
-24.003178 61.967449 -36.613125 20.00000000
-45.669868 59.393665 -11.466327 20.00000000
0.461153 37.213959 -46.324692 20.00000000
-28.643476 62.640350 -26.302910 20.00000000
-36.919056 62.234890 -15.806961 20.00000000
0.099525 39.984306 -2.277509 20.00000000
-28.470205 62.625866 -57.362648 20.00000000
-26.281048 62.377712 -21.274382 20.00000000
-16.346874 59.238777 -4.643504 20.00000000
-42.684254 60.668221 0.870407 20.00000000
-24.471941 62.068558 -2.625002 20.00000000
-35.567345 62.472618 -49.899719 20.00000000
-32.037312 62.735710 -5.164773 20.00000000
-18.290102 60.122330 -34.381958 20.00000000
-19.283119 60.528503 -36.286018 20.00000000
-37.847385 62.071625 -24.915577 20.00000000
-46.012386 59.235905 -55.573360 20.00000000
-21.899841 61.418999 -50.748543 20.00000000
-38.771309 61.865547 -20.958918 20.00000000
0.190787 39.285172 -46.348721 20.00000000
-33.875095 62.628315 -5.024530 20.00000000
-34.078609 62.610306 -35.238621 20.00000000
-0.399263 41.556812 -57.109982 20.00000000
0.905149 33.812603 -37.225224 20.00000000
-26.262192 62.374489 -6.485313 20.00000000
-20.422684 60.932781 -10.627903 20.00000000
-3.378868 47.495132 -34.900204 20.00000000
-1.703488 44.520378 -35.445019 20.00000000
-13.175012 57.391384 -14.368407 20.00000000
0.548154 36.547462 -61.026093 20.00000000
-41.490784 61.098183 -31.689999 20.00000000
-30.979414 62.738308 -57.547916 20.00000000
-30.906139 62.738487 -45.701679 20.00000000
-41.251633 61.184341 -0.097102 20.00000000
0.879941 34.005714 -27.760406 20.00000000
-46.238026 59.131977 -4.146837 20.00000000
-38.141300 62.019932 -2.132986 20.00000000
0.805733 34.574203 -29.749004 20.00000000
-44.158127 60.089958 -12.592809 20.00000000
-2.504210 46.046486 -44.919895 20.00000000
-14.195073 58.038078 -26.857212 20.00000000
-27.450802 62.540646 -5.151130 20.00000000
-22.233341 61.505962 -60.050934 20.00000000
-13.477962 57.597942 -36.687340 20.00000000
-16.152369 59.139538 -55.477833 20.00000000
-17.130186 59.594936 -36.434673 20.00000000
-42.531246 60.723343 -41.007896 20.00000000
-5.645026 50.637432 -49.007767 20.00000000
-21.638830 61.350941 -44.120701 20.00000000
-27.883572 62.576824 -20.731647 20.00000000
-33.884556 62.627480 3.286646 20.00000000
-0.719249 42.378098 -42.888317 20.00000000
-15.622946 58.841606 -35.493191 20.00000000
-5.182886 50.064651 -35.604565 20.00000000
-10.049735 55.073494 -3.830011 20.00000000
-10.883219 55.753403 -42.780624 20.00000000
0.907499 33.794601 -12.314479 20.00000000
-24.659925 62.100681 -30.871103 20.00000000
0.414028 37.574974 -39.122845 20.00000000
-2.336734 45.769104 -41.702026 20.00000000
-15.429689 58.732853 -18.747606 20.00000000
-15.584141 58.819771 -53.687263 20.00000000
-23.100313 61.732025 -21.504831 20.00000000
-13.523715 57.629135 -17.877592 20.00000000
-9.818340 54.884735 -13.473513 20.00000000
0.565034 36.418152 -22.226191 20.00000000
-35.236904 62.507793 -9.110525 20.00000000
-31.110695 62.737988 -49.340294 20.00000000
-39.363792 61.707966 -9.245052 20.00000000
-23.637924 61.872211 3.754921 20.00000000
-17.048618 59.557850 -18.005924 20.00000000
-24.000217 61.966679 -6.317239 20.00000000
-2.955004 46.793110 -22.091803 20.00000000
-21.543653 61.326122 -28.484140 20.00000000
-31.704227 62.736526 -6.834338 20.00000000
