-35.208099 68.189751 0.012214 6.00000000
-33.872238 69.089867 -15.391665 6.00000000
-36.835915 67.092918 -29.141193 6.00000000
-34.932316 68.375580 0.938030 6.00000000
-34.682926 68.543617 -20.186298 6.00000000
-40.933369 63.924694 -22.303598 6.00000000
-43.480923 61.747902 -41.832375 6.00000000
-36.678673 67.198868 -3.710343 6.00000000
-41.450825 63.486664 -49.276440 6.00000000
-37.667980 66.466263 -23.029036 6.00000000
-44.574181 60.714504 -3.628909 6.00000000
-44.596664 60.693249 -44.027779 6.00000000
-34.814648 68.454865 3.828646 6.00000000
-37.856880 66.323349 -31.116039 6.00000000
-40.774517 64.059166 -12.377837 6.00000000
-38.490162 65.844215 -20.180641 6.00000000
-33.494362 69.344490 -19.381651 6.00000000
-35.249226 68.162041 -36.554138 6.00000000
-38.341019 65.957054 -32.894325 6.00000000
-42.812885 62.333660 -37.687180 6.00000000
-40.810814 64.028442 -15.242669 6.00000000
-36.097298 67.590607 -60.939140 6.00000000
-41.057751 63.819401 -5.709380 6.00000000
-35.971558 67.675323 -30.436087 6.00000000
-45.917873 59.444386 -2.648092 6.00000000
-40.402863 64.373772 -16.074795 6.00000000
-38.555283 65.794945 -31.251089 6.00000000
-34.349068 68.768578 -47.172661 6.00000000
-36.197323 67.523209 -58.049492 6.00000000
-38.554855 65.795273 -24.428205 6.00000000
-39.961414 64.731094 -57.830490 6.00000000
-38.242928 66.031265 -49.609703 6.00000000
-45.818905 59.537933 -1.095348 6.00000000
-34.556473 68.628830 -11.717441 6.00000000
-34.442093 68.705894 -23.999220 6.00000000
-36.181435 67.533913 -24.774763 6.00000000
-38.023998 66.196907 -40.333244 6.00000000
-43.073029 62.113445 -2.275295 6.00000000
-41.204468 63.695206 -19.685963 6.00000000
-43.993965 61.262951 -11.436331 6.00000000
-39.088490 65.391533 3.231255 6.00000000
-39.571510 65.026093 -46.568687 6.00000000
-42.593002 62.519794 -32.431801 6.00000000
-43.608868 61.626961 1.279627 6.00000000
-45.132645 60.186619 -40.980240 6.00000000
-42.695431 62.433086 -13.264330 6.00000000
-43.796753 61.449364 -16.144762 6.00000000
-44.472530 60.810585 -39.616505 6.00000000
-40.984802 63.881157 -48.172035 6.00000000
-40.946514 63.913567 -45.059498 6.00000000
-43.199532 62.006359 -39.718464 6.00000000
-45.884068 59.476337 -29.913471 6.00000000
-41.537998 63.412865 -50.896076 6.00000000
-41.231945 63.671944 1.509824 6.00000000
-42.935642 62.229744 -15.081465 6.00000000
-33.553860 69.304398 -1.411280 6.00000000
-41.392464 63.536064 -47.329128 6.00000000
-39.047108 65.422844 -30.580580 6.00000000
-43.856514 61.392876 -54.109612 6.00000000
-41.438541 63.497059 -21.333735 6.00000000
-35.907841 67.718262 -53.473835 6.00000000
-38.159004 66.094765 -52.468937 6.00000000
-39.752937 64.888824 -23.429338 6.00000000
-44.818771 60.483307 -26.555515 6.00000000
-41.630653 63.334435 -2.343242 6.00000000
-43.578007 61.656132 -5.161688 6.00000000
-40.652348 64.162582 -20.282791 6.00000000
-33.882538 69.082932 2.925957 6.00000000
-35.660698 67.884789 -44.294910 6.00000000
-41.877907 63.125130 -23.258551 6.00000000
-44.646824 60.645836 -5.615077 6.00000000
-39.816376 64.840828 -56.664318 6.00000000
-46.175758 59.200619 -9.126489 6.00000000
-43.413269 61.811852 -29.373274 6.00000000
-39.248379 65.270561 -11.787802 6.00000000
-37.819187 66.351860 -42.497009 6.00000000
-43.297356 61.921417 -3.260684 6.00000000
-41.665607 63.304848 -30.234129 6.00000000
-36.104568 67.585701 -12.966495 6.00000000
-40.370209 64.401413 3.234494 6.00000000
-38.057899 66.171257 -32.022522 6.00000000
-39.144421 65.349220 -52.167805 6.00000000
-43.654903 61.583447 -55.105782 6.00000000
-34.412163 68.726059 -37.594513 6.00000000
-33.563892 69.297638 -27.706890 6.00000000
-34.952778 68.361794 -53.443897 6.00000000
-44.792130 60.508488 -58.060455 6.00000000
-37.077709 66.912849 -55.955345 6.00000000
-37.323685 66.726753 -40.237282 6.00000000
-33.626415 69.255508 -12.811185 6.00000000
-41.522133 63.426296 -17.042938 6.00000000
-41.511177 63.435570 -36.866531 6.00000000
-36.206532 67.516998 2.650701 6.00000000
-46.190350 59.186825 -41.852722 6.00000000
-34.273766 68.819313 -4.172673 6.00000000
-33.741673 69.177841 -25.828783 6.00000000
-42.338150 62.735531 -41.186741 6.00000000
-42.239025 62.819439 -53.950787 6.00000000
-44.656467 60.636719 -42.077831 6.00000000
-39.630009 64.981827 -16.384159 6.00000000
-33.578796 69.287598 -20.918846 6.00000000
-33.989571 69.010811 -17.088524 6.00000000
-40.478825 64.309471 -14.067393 6.00000000
-43.078686 62.108658 -34.412994 6.00000000
-39.527763 65.059189 -3.019969 6.00000000
-43.769951 61.474697 2.096659 6.00000000
-41.910946 63.097164 2.523322 6.00000000
-38.485214 65.847961 -54.482555 6.00000000
-45.546951 59.794994 -26.583782 6.00000000
-46.255936 59.124832 -57.821720 6.00000000
-45.477730 59.860424 -49.656384 6.00000000
-34.636127 68.575157 -29.265326 6.00000000
-44.691673 60.603439 -10.106777 6.00000000
-33.628323 69.254227 -21.737604 6.00000000
-38.797108 65.611992 -10.098083 6.00000000
-44.927258 60.380756 -2.857086 6.00000000
-46.045692 59.323559 -35.374485 6.00000000
-46.097584 59.274509 -43.802017 6.00000000
-35.566383 67.948334 -46.519691 6.00000000
-38.134281 66.113472 -30.276701 6.00000000
-40.094051 64.630745 -15.028729 6.00000000
-44.947170 60.361935 -54.957176 6.00000000
-40.409882 64.367828 -37.986759 6.00000000
-38.500008 65.836769 -28.144125 6.00000000
-36.806702 67.112602 -50.261047 6.00000000
-34.277977 68.816483 -2.038532 6.00000000
-39.593979 65.009087 -8.958053 6.00000000
-41.008308 63.861256 -11.398554 6.00000000
-46.016834 59.350838 -18.865240 6.00000000
-35.947559 67.691498 -11.029931 6.00000000
-45.545326 59.796528 -41.849369 6.00000000
-42.515862 62.585094 -26.068565 6.00000000
-41.639805 63.326687 -38.746899 6.00000000
-39.968258 64.725914 0.806192 6.00000000
-46.175564 59.200802 -59.767162 6.00000000
-34.448063 68.701874 -31.695793 6.00000000
-35.896782 67.725708 -9.083845 6.00000000
-37.458462 66.624779 -58.056194 6.00000000
-42.839672 62.310986 -44.279671 6.00000000
-42.240376 62.818298 -7.596860 6.00000000
-41.717155 63.261208 -43.589748 6.00000000
-41.721138 63.257835 -4.795035 6.00000000
-35.579262 67.939659 -57.062397 6.00000000
-35.381161 68.073143 -37.600552 6.00000000
-39.814209 64.842468 -49.680962 6.00000000
-44.986343 60.324909 -47.380516 6.00000000
-40.262650 64.492462 -20.917488 6.00000000
-41.056553 63.820419 -33.530094 6.00000000
-37.509678 66.586029 -36.769138 6.00000000
-42.887791 62.270252 -60.826077 6.00000000
-46.244595 59.135548 -19.922644 6.00000000
-41.723930 63.255474 -22.121580 6.00000000
-45.002201 60.309917 -24.845201 6.00000000
-36.283649 67.465034 -44.949509 6.00000000
-42.828121 62.320763 -17.586235 6.00000000
-35.657696 67.886810 -52.392696 6.00000000
-39.867260 64.802330 -20.047245 6.00000000
-40.192780 64.551613 -13.218812 6.00000000
-44.600655 60.689480 -51.097916 6.00000000
-46.111900 59.260979 -58.692127 6.00000000
-41.692230 63.282307 -57.393646 6.00000000
-42.978943 62.193092 -54.570621 6.00000000
-44.681988 60.612598 -36.825294 6.00000000
-45.337444 59.993031 -27.506536 6.00000000
-46.190968 59.186241 -44.878841 6.00000000
-45.474186 59.863777 -21.829082 6.00000000
-37.372585 66.689751 -9.401343 6.00000000
-38.532948 65.811844 -13.373478 6.00000000
-38.261391 66.017303 -9.468980 6.00000000
-40.684372 64.135475 -51.390659 6.00000000
-42.471161 62.622936 -55.348755 6.00000000
-40.616272 64.193123 -28.397797 6.00000000
-38.284248 66.000008 -5.918541 6.00000000
-43.882801 61.368027 -36.319733 6.00000000
-39.602859 65.002373 -50.537247 6.00000000
-37.860668 66.320480 -17.384392 6.00000000
-38.801453 65.608696 -8.918699 6.00000000
-44.395088 60.883789 -34.283367 6.00000000
-34.283688 68.812630 -23.206224 6.00000000
-39.349182 65.194298 -22.455679 6.00000000
-45.633324 59.713352 -17.686354 6.00000000
-38.031792 66.191010 -0.489256 6.00000000
-37.693722 66.446793 -53.270390 6.00000000
-41.389034 63.538967 -56.263374 6.00000000
-42.673084 62.452003 -40.257568 6.00000000
-41.189152 63.708172 -44.086143 6.00000000
-40.993061 63.874165 -30.559345 6.00000000
63.710880 54.663311 -40.909798 7.00000000
60.717922 57.975533 -35.657673 7.00000000
65.399269 52.638069 -52.341599 7.00000000
67.438667 49.942513 3.199808 7.00000000
66.626457 51.016045 -3.160316 7.00000000
67.729927 49.545589 -43.857224 7.00000000
63.440380 54.986622 -2.009934 7.00000000
61.975632 56.644943 -19.843037 7.00000000
67.225433 50.224354 -18.705378 7.00000000
63.123135 55.373695 3.801089 7.00000000
64.759140 53.425014 -56.715134 7.00000000
60.763901 57.926891 -33.118706 7.00000000
67.624428 49.696991 -2.124486 7.00000000
63.654427 54.730003 -26.664684 7.00000000
64.612923 53.597740 -35.034119 7.00000000
65.481895 52.528854 -55.308372 7.00000000
65.313614 52.751266 -27.058361 7.00000000
64.784866 53.394623 -51.736931 7.00000000
67.136040 50.342506 -22.583723 7.00000000
63.057835 55.452263 2.863961 7.00000000
66.257629 51.503544 -36.426884 7.00000000
67.100494 50.389496 -9.641117 7.00000000
68.755104 48.024086 -19.260487 7.00000000
65.251671 52.833145 -22.609688 7.00000000
67.551292 49.793655 -55.991520 7.00000000
66.531754 51.141212 -16.993105 7.00000000
69.935112 46.272778 -29.186022 7.00000000
67.034492 50.476727 -38.111275 7.00000000
65.811371 52.093372 -54.054535 7.00000000
68.686539 48.125858 -4.755710 7.00000000
64.052612 54.259624 -10.057729 7.00000000
68.032425 49.096645 -36.973522 7.00000000
66.447823 51.252159 -55.473770 7.00000000
69.387589 47.085384 -32.735664 7.00000000
62.253242 56.351246 -2.792740 7.00000000
67.835770 49.388515 -33.093250 7.00000000
60.728092 57.964775 -51.060848 7.00000000
62.098335 56.515125 -38.585850 7.00000000
63.128201 55.351627 -52.490631 7.00000000
62.497490 56.092846 -31.934036 7.00000000
67.583237 49.751431 -42.811733 7.00000000
65.048393 53.083321 -2.278690 7.00000000
69.530136 46.873821 -55.828575 7.00000000
66.123634 51.701923 -1.097739 7.00000000
66.214516 51.575516 -2.001610 7.00000000
67.661034 49.647835 -20.343737 7.00000000
63.757603 54.608124 -32.415455 7.00000000
60.679653 58.016018 -9.648208 7.00000000
64.262321 54.011902 -40.712189 7.00000000
65.860542 52.028381 -37.311691 7.00000000
68.455414 48.468861 -54.042027 7.00000000
65.842407 52.052361 -51.803947 7.00000000
65.062927 53.066158 -54.609112 7.00000000
62.721600 55.834122 -7.361961 7.00000000
64.242088 54.035801 -33.120869 7.00000000
61.598553 57.043873 -15.851443 7.00000000
65.459564 52.558346 -8.425261 7.00000000
61.267502 57.394108 -11.097363 7.00000000
67.851814 49.364700 -9.801557 7.00000000
60.753139 57.938274 -54.255959 7.00000000
64.836258 53.333920 -0.330085 7.00000000
65.293297 52.778133 -56.819080 7.00000000
66.365440 51.361046 -51.632565 7.00000000
60.553089 58.149914 -20.618942 7.00000000
63.979900 54.345524 -31.640270 7.00000000
69.782486 46.499294 -38.385452 7.00000000
69.207809 47.352196 -45.367046 7.00000000
62.861099 55.667152 -50.255314 7.00000000
59.797253 58.949554 -1.992227 7.00000000
62.085629 56.528576 -55.777733 7.00000000
67.446785 49.931786 -21.169003 7.00000000
63.238747 55.224640 -13.799683 7.00000000
60.117054 58.611217 -22.453379 7.00000000
60.368969 58.344707 -5.564828 7.00000000
62.454884 56.137920 -14.455726 7.00000000
69.813400 46.453415 -7.823740 7.00000000
68.143456 48.931858 -56.089352 7.00000000
60.823273 57.864079 -0.861973 7.00000000
65.505760 52.497280 -6.265678 7.00000000
66.355850 51.373718 -60.785526 7.00000000
59.914631 58.825371 -31.651468 7.00000000
65.629639 52.342983 -1.679638 7.00000000
60.591480 58.109303 -13.338292 7.00000000
61.616226 57.025173 -7.530973 7.00000000
62.928947 55.603935 -5.588507 7.00000000
68.708458 48.093330 3.742503 7.00000000
62.256622 56.347672 -24.792068 7.00000000
65.798935 52.115009 -28.774599 7.00000000
66.691505 50.930073 -41.543232 7.00000000
66.135345 51.665169 -33.502224 7.00000000
59.991959 58.743565 -36.755314 7.00000000
69.287804 47.233490 -4.290098 7.00000000
68.360832 48.609234 -61.103100 7.00000000
61.873856 56.752617 -53.440174 7.00000000
63.297844 55.151230 -39.317791 7.00000000
63.241924 55.217285 -22.592396 7.00000000
69.066620 47.561741 -52.017151 7.00000000
69.811752 46.455864 -55.179955 7.00000000
60.952728 57.727119 -22.187174 7.00000000
67.772247 49.482784 0.272701 7.00000000
62.813286 55.737930 -17.262949 7.00000000
67.708138 49.577934 -59.351498 7.00000000
65.693443 52.255409 -32.805634 7.00000000
69.091599 47.524670 -24.443514 7.00000000
69.159706 47.423588 -47.027481 7.00000000
62.220303 56.386093 -12.886792 7.00000000
69.130241 47.467323 -27.713509 7.00000000
66.137398 51.679352 -3.983077 7.00000000
69.165184 47.415459 -31.801262 7.00000000
66.361923 51.365685 -38.993114 7.00000000
63.306461 55.147778 -3.887955 7.00000000
67.569077 49.770142 -45.134132 7.00000000
60.434086 58.275818 -40.792164 7.00000000
65.822136 52.079144 -53.007504 7.00000000
66.670769 50.957470 1.824246 7.00000000
63.601501 54.792522 -54.809559 7.00000000
69.005020 47.653179 -8.836003 7.00000000
61.657043 56.981991 -26.816185 7.00000000
60.809780 57.878353 -58.918694 7.00000000
69.058083 47.574417 -37.785263 7.00000000
67.414650 49.974255 -53.859077 7.00000000
65.072212 53.055183 -36.154137 7.00000000
68.357643 48.613972 -39.508644 7.00000000
68.780792 47.985958 -20.802677 7.00000000
65.752373 52.195145 -16.002060 7.00000000
63.098866 55.400818 -0.568702 7.00000000
63.771416 54.591805 -3.204278 7.00000000
65.784508 52.144600 -20.999475 7.00000000
63.051495 55.453846 -8.936017 7.00000000
69.514587 46.896896 -12.823309 7.00000000
60.465679 58.242393 -4.690968 7.00000000
68.580788 48.282795 -55.802601 7.00000000
67.097084 50.393997 -26.668728 7.00000000
68.289116 48.715679 -28.927429 7.00000000
65.935707 51.929039 -30.902781 7.00000000
69.470085 46.962955 1.146336 7.00000000
68.082100 49.022938 -13.980108 7.00000000
69.947639 46.254181 -13.417871 7.00000000
68.870377 47.853004 -42.015194 7.00000000
63.469852 54.948036 -43.558132 7.00000000
65.817337 52.112408 3.234329 7.00000000
60.910946 57.771324 -39.420551 7.00000000
69.717453 46.595818 -9.813945 7.00000000
65.097610 53.025185 -33.811958 7.00000000
63.020084 55.497505 1.969869 7.00000000
65.654701 52.307110 -34.172947 7.00000000
63.832253 54.519939 -16.989697 7.00000000
67.123055 50.359665 -2.750217 7.00000000
59.760273 58.988674 -50.954647 7.00000000
59.871307 58.871204 -47.459103 7.00000000
59.792492 58.954590 -8.917218 7.00000000
64.263306 54.010735 -51.459072 7.00000000
62.784725 55.757370 -59.099323 7.00000000
68.609497 48.240192 -23.817324 7.00000000
68.715462 48.082912 -38.941467 7.00000000
60.244362 58.476536 -43.627155 7.00000000
69.129234 47.468811 -57.146729 7.00000000
62.020176 56.597816 -49.427692 7.00000000
68.154778 48.915081 2.557105 7.00000000
68.884544 47.831966 -25.882378 7.00000000
66.040108 51.800716 -14.205962 7.00000000
64.863876 53.301292 -58.963631 7.00000000
61.038731 57.636135 -15.824333 7.00000000
63.027603 55.470463 -45.846397 7.00000000
68.511604 48.385468 -37.641857 7.00000000
66.272179 51.484306 -25.868046 7.00000000
62.594608 55.981960 -27.013287 7.00000000
63.636597 54.751064 -1.182001 7.00000000
66.510284 51.169586 -6.327015 7.00000000
63.421040 55.008026 -5.899271 7.00000000
67.628281 49.691898 -60.211491 7.00000000
64.052078 54.260258 -4.218441 7.00000000
66.865715 50.699810 -50.854694 7.00000000
64.470650 53.765804 -38.452728 7.00000000
65.688759 52.255432 -43.058647 7.00000000
67.392517 50.003513 -32.759369 7.00000000
64.109535 54.192387 -15.887268 7.00000000
69.509399 46.904598 -42.199745 7.00000000
65.192665 52.911148 -25.390144 7.00000000
67.077568 50.419792 -40.474194 7.00000000
62.745434 55.813580 -29.837730 7.00000000
60.758865 57.932217 -27.767778 7.00000000
64.810257 53.364628 -14.186375 7.00000000
63.949074 54.381935 -23.641779 7.00000000
66.404976 51.308788 -20.688826 7.00000000
64.796249 53.381180 -52.704090 7.00000000
66.919403 50.628849 -19.470533 7.00000000
62.796101 55.753258 -27.862114 7.00000000
67.478607 49.889721 -49.235191 7.00000000
63.948418 54.382713 -46.467224 7.00000000
61.175701 57.491226 -29.078613 7.00000000
62.707722 55.848351 -4.122056 7.00000000
69.054070 47.580372 -41.098965 7.00000000
69.909058 46.311440 -48.867012 7.00000000
67.862823 49.348354 -55.250584 7.00000000
61.855503 56.772034 -5.032895 7.00000000
67.081757 50.414257 -20.445030 7.00000000
68.621155 48.222900 -8.067938 7.00000000
62.498302 56.091988 -57.041084 7.00000000
63.411613 55.016834 -34.520836 7.00000000
69.945801 46.256908 -22.214672 7.00000000
61.901615 56.723248 -27.666557 7.00000000
59.789436 58.957825 -7.648321 7.00000000
69.228424 47.321613 -1.602221 7.00000000
65.724289 52.235241 -14.890205 7.00000000
60.520214 58.184696 -57.324604 7.00000000
60.802368 57.886192 -26.043179 7.00000000
59.879463 58.862576 -34.853485 7.00000000
66.564835 51.097492 -58.854656 7.00000000
65.241974 52.845970 -30.508682 7.00000000
62.605679 55.968884 -22.312315 7.00000000
67.523911 49.829845 -56.810307 7.00000000
67.335381 50.079033 -52.285694 7.00000000
61.693279 56.943653 -23.627176 7.00000000
66.079041 51.756065 -6.975640 7.00000000
69.507935 46.906765 -18.638315 7.00000000
69.778015 46.505932 -40.588680 7.00000000
60.920982 57.760708 -30.265781 7.00000000
61.504848 57.143009 -19.220213 7.00000000
66.013611 51.826065 -46.171532 7.00000000
61.396156 57.257996 -37.276814 7.00000000
64.570076 53.648354 -44.132252 7.00000000
67.667290 49.638557 -8.045515 7.00000000
64.141258 54.154907 -37.738956 7.00000000
69.724129 46.585903 -33.719311 7.00000000
62.270767 56.332703 -48.565216 7.00000000
67.160774 50.309818 -24.378658 7.00000000
63.326714 55.117126 -16.428703 7.00000000
64.142807 54.153084 -56.390831 7.00000000
63.031174 55.466248 -59.819714 7.00000000
68.613503 48.234234 -45.465797 7.00000000
59.843597 58.900520 -52.846642 7.00000000
61.639793 57.000240 -21.944742 7.00000000
66.782494 50.809799 -12.903438 7.00000000
63.124619 55.358887 -21.388847 7.00000000
68.800423 47.956821 -44.730003 7.00000000
63.540241 54.864887 -56.698093 7.00000000
62.944157 55.569920 -35.800259 7.00000000
63.996822 54.325531 -8.343675 7.00000000
62.899746 55.626083 -31.151546 7.00000000
59.850872 58.892826 -45.646599 7.00000000
67.443466 49.936176 -39.902271 7.00000000
69.007179 47.649967 -56.178818 7.00000000
66.130966 51.670952 -29.381941 7.00000000
60.997604 57.679642 -13.999568 7.00000000
62.842918 55.688625 -43.746105 7.00000000
63.224644 55.244766 -7.883145 7.00000000
68.195847 48.854111 -23.356867 7.00000000
64.515099 53.713303 -2.081337 7.00000000
69.196892 47.368401 -13.582013 7.00000000
61.183922 57.482533 -18.411589 7.00000000
62.696148 55.866566 -42.775089 7.00000000
61.903389 56.721375 -6.212470 7.00000000
60.059837 58.671749 -55.918056 7.00000000
67.476822 49.892082 -12.318437 7.00000000
67.197456 50.261333 -13.347313 7.00000000
61.710201 56.925755 -42.101460 7.00000000
65.156158 52.956017 -44.307106 7.00000000
67.116966 50.367722 -7.887289 7.00000000
63.840912 54.509708 1.391897 7.00000000
67.087471 50.406708 -27.544792 7.00000000
60.495773 58.210556 -1.588623 7.00000000
64.203217 54.081726 -17.962402 7.00000000
69.911804 46.307365 -15.630276 7.00000000
62.448673 56.144485 -52.780090 7.00000000
66.971664 50.559769 -11.371382 7.00000000
67.437294 49.944324 -54.774471 7.00000000
62.660507 55.904114 -57.910522 7.00000000
61.869869 56.756832 -10.023273 7.00000000
68.295303 48.706509 -14.989769 7.00000000
68.065842 49.047062 -18.800493 7.00000000
65.883003 52.028465 -5.258070 7.00000000
65.047508 53.084366 -58.032307 7.00000000
59.723919 59.027138 -3.491626 7.00000000
62.323631 56.276775 -41.824200 7.00000000
68.465004 48.454624 -56.713776 7.00000000
65.307159 52.759804 -31.442081 7.00000000
68.566719 48.303684 -13.612747 7.00000000
67.793907 49.450642 -47.477001 7.00000000
68.329185 48.656204 -58.609505 7.00000000
62.843018 55.691120 -38.205215 7.00000000
60.753902 57.937469 -56.573505 7.00000000
61.712330 56.923504 -2.047468 7.00000000
68.555176 48.320820 -7.154437 7.00000000
64.534187 53.690750 -53.616634 7.00000000
59.861076 58.882030 3.319827 7.00000000
67.228661 50.220093 -25.876083 7.00000000
60.972031 57.706699 -16.774054 7.00000000
68.865532 47.860195 -17.815891 7.00000000
59.884125 58.857643 -23.267626 7.00000000
67.661263 49.647499 -31.012505 7.00000000
64.373955 53.880032 -9.116493 7.00000000
66.337761 51.397621 -11.104652 7.00000000
62.906189 55.613888 -40.336651 7.00000000
68.710518 48.090256 -28.445965 7.00000000
63.765121 54.599239 -12.048311 7.00000000
59.811897 58.934059 -42.724728 7.00000000
68.889977 47.823914 -54.625206 7.00000000
65.535568 52.471687 -23.407892 7.00000000
63.971378 54.355591 -2.422657 7.00000000
65.201340 52.899681 -45.178673 7.00000000
65.690521 52.253113 -44.030140 7.00000000
67.307243 50.116219 -34.343590 7.00000000
64.919632 53.235428 -43.496899 7.00000000
64.938271 53.213409 -4.407908 7.00000000
64.506760 53.723152 -45.549370 7.00000000
66.483864 51.206051 -0.514926 7.00000000
59.726299 59.024616 -12.367568 7.00000000
64.469727 53.766895 -21.650656 7.00000000
60.723476 57.969654 -38.584473 7.00000000
65.604233 52.379185 -9.654199 7.00000000
59.721905 59.029266 -38.331848 7.00000000
61.303413 57.356113 -36.032467 7.00000000
61.601006 57.041279 -52.728073 7.00000000
64.808495 53.366707 -40.106255 7.00000000
66.522896 51.152924 -59.955708 7.00000000
67.081955 50.413994 -43.899445 7.00000000
69.796646 46.478283 -57.216900 7.00000000
66.988091 50.538055 -15.443328 7.00000000
68.379272 48.581890 -10.151792 7.00000000
60.912376 57.769810 -25.053850 7.00000000
67.576088 49.760883 -0.589438 7.00000000
69.461990 46.974957 -30.922260 7.00000000
68.840851 47.896835 -4.000464 7.00000000
62.499191 56.091042 -1.521456 7.00000000
63.015285 55.485016 -37.303810 7.00000000
61.944466 56.677914 -1.083380 7.00000000
67.807762 49.430073 -52.959736 7.00000000
64.470436 53.766056 -16.752651 7.00000000
69.853577 46.393784 -41.550537 7.00000000
60.747910 57.943806 -36.693695 7.00000000
69.443619 47.002220 -49.284058 7.00000000
64.716660 53.475193 -6.620509 7.00000000
65.145126 52.969048 1.629399 7.00000000
62.811108 55.738949 -20.401073 7.00000000
67.542313 49.805527 -25.042826 7.00000000
68.106621 48.986534 -34.156567 7.00000000
62.866783 55.660439 -44.940006 7.00000000
63.007381 55.498314 -26.245575 7.00000000
68.635345 48.201839 2.295292 7.00000000
62.910297 55.627674 -3.341876 7.00000000
61.396648 57.257477 -22.710926 7.00000000
60.836426 57.850163 -19.068287 7.00000000
67.797356 49.445515 -51.023899 7.00000000
59.908920 58.831413 -10.318426 7.00000000
68.449524 48.477608 -33.407780 7.00000000
66.400085 51.315247 -19.058710 7.00000000
63.668049 54.713909 -18.087395 7.00000000
64.404366 53.844109 -58.362122 7.00000000
65.963387 51.909481 -11.804905 7.00000000
60.392654 58.319649 -14.527391 7.00000000
64.202751 54.082272 -13.708141 7.00000000
64.348022 53.910667 -42.447929 7.00000000
64.016632 54.302132 -41.603558 7.00000000
69.850487 46.398369 -14.271212 7.00000000
68.985916 47.681522 -16.333469 7.00000000
67.594955 49.735947 -29.846333 7.00000000
60.083794 58.646408 -29.962391 7.00000000
66.966263 50.566910 -49.604996 7.00000000
65.306709 52.760395 -38.296646 7.00000000
60.993217 57.684284 -5.136586 7.00000000
63.959599 54.369503 -12.954043 7.00000000
63.933662 54.400143 0.408444 7.00000000
62.535934 56.051266 -6.593004 7.00000000
66.965279 50.568214 -32.092937 7.00000000
65.485901 52.532364 -24.210102 7.00000000
63.398296 55.032566 -59.208714 7.00000000
67.368034 50.035870 -46.708317 7.00000000
67.780281 49.470860 -23.006069 7.00000000
62.032757 56.584507 -8.982579 7.00000000
63.042648 55.466694 -4.794455 7.00000000
68.145317 48.929108 -22.174311 7.00000000
66.891762 50.665375 -1.361658 7.00000000
66.797226 50.790337 -36.582836 7.00000000
61.256245 57.406017 -50.410610 7.00000000
62.379131 56.218060 -59.772091 7.00000000
66.524529 51.150768 -48.053059 7.00000000
69.468163 46.965801 -34.982216 7.00000000
68.283966 48.723320 -51.526379 7.00000000
62.301277 56.300426 0.437948 7.00000000
65.690620 52.252975 -42.054291 7.00000000
68.007866 49.133091 -44.582840 7.00000000
62.357231 56.241230 -50.517487 7.00000000
69.189819 47.378895 -23.402231 7.00000000
65.248489 52.837353 3.863054 7.00000000
68.200890 48.846638 -17.790236 7.00000000
62.300266 56.301495 -11.598462 7.00000000
64.756454 53.428185 -16.021030 7.00000000
68.472504 48.443501 -52.986164 7.00000000
66.033653 51.810917 -13.160431 7.00000000
68.625038 48.217113 -36.811920 7.00000000
65.270309 52.808510 -28.988634 7.00000000
68.983223 47.685520 -53.708015 7.00000000
64.569542 53.648983 -47.100975 7.00000000
59.833500 58.911205 -53.890633 7.00000000
69.033409 47.611038 -12.187444 7.00000000
61.494125 57.154350 -39.297333 7.00000000
67.686279 49.610367 -13.033314 7.00000000
68.989960 47.675537 2.849170 7.00000000
60.673370 58.022663 -31.144770 7.00000000
66.132538 51.680099 -8.752970 7.00000000
63.831352 54.521000 -33.837910 7.00000000
60.575294 58.126423 -26.986818 7.00000000
67.614792 49.709721 -6.141474 7.00000000
69.294220 47.223957 -19.592800 7.00000000
63.545822 54.858295 -25.761820 7.00000000
64.084557 54.221893 -28.058975 7.00000000
64.874016 53.289318 -23.378269 7.00000000
65.123077 52.995098 -41.963680 7.00000000
60.477329 58.230068 -47.935848 7.00000000
67.280182 50.151989 -8.771700 7.00000000
68.679466 48.136333 -35.369911 7.00000000
66.940865 50.600475 -5.884276 7.00000000
63.386211 55.046844 -46.467491 7.00000000
61.071690 57.601269 -6.339780 7.00000000
63.792931 54.566387 -48.863098 7.00000000
60.451508 58.257385 3.854698 7.00000000
59.892387 58.848907 -48.840622 7.00000000
68.094872 49.003990 -2.593388 7.00000000
63.661549 54.721592 -37.435719 7.00000000
63.375443 55.059563 -53.846954 7.00000000
69.071129 47.555054 -39.872353 7.00000000
69.158821 47.424904 -39.027107 7.00000000
69.692368 46.633049 -46.923553 7.00000000
69.818764 46.445450 0.222203 7.00000000
66.685432 50.938095 -22.320431 7.00000000
64.235725 54.043320 -0.408233 7.00000000
63.064686 55.426659 -32.040997 7.00000000
62.143677 56.467159 -46.389118 7.00000000
67.642578 49.673000 -35.090900 7.00000000
60.443687 58.265659 -21.615490 7.00000000
61.534725 57.111397 -59.515350 7.00000000
63.370201 55.065758 -42.497536 7.00000000
59.720772 59.030464 -0.507279 7.00000000
61.065315 57.608009 -51.960785 7.00000000
61.016933 57.659195 -40.903137 7.00000000
61.708260 56.927811 -48.722046 7.00000000
60.744740 57.947163 -10.712905 7.00000000
61.132584 57.536842 -55.245235 7.00000000
65.185760 52.920269 -14.894710 7.00000000
60.077915 58.652626 -39.797253 7.00000000
69.345245 47.148232 -0.749454 7.00000000
67.836533 49.387383 -39.266590 7.00000000
60.025799 58.707764 -35.753288 7.00000000
62.355389 56.243179 -10.677047 7.00000000
63.909645 54.428513 -36.635231 7.00000000
69.693130 46.631908 -31.920929 7.00000000
60.351036 58.363678 -16.485262 7.00000000
63.152222 55.323254 -60.926357 7.00000000
62.028969 56.588516 -58.593060 7.00000000
64.812584 53.361877 -8.342320 7.00000000
68.897003 47.813496 -2.194355 7.00000000
67.592247 49.739529 -14.073700 7.00000000
63.644714 54.741474 -31.036753 7.00000000
68.498413 48.405060 -12.154916 7.00000000
65.187607 52.917835 -39.253384 7.00000000
64.428513 53.815578 -57.374542 7.00000000
63.927189 54.407791 -38.685490 7.00000000
60.323586 58.392719 -50.264221 7.00000000
61.128391 57.541279 -57.860252 7.00000000
68.278221 48.731850 -31.305376 7.00000000
64.927109 53.226597 -3.536771 7.00000000
59.756264 58.992916 -57.182835 7.00000000
67.388214 50.009197 -19.592117 7.00000000
60.870483 57.814133 -61.023781 7.00000000
64.063835 54.246368 -43.373238 7.00000000
66.194466 51.587021 -15.276807 7.00000000
64.373436 53.880646 -48.933636 7.00000000
67.358818 50.048058 -50.650753 7.00000000
68.078415 49.028393 -45.612118 7.00000000
66.272324 51.485813 -10.019562 7.00000000
61.429611 57.222607 -31.088282 7.00000000
68.131622 48.949444 -0.708343 7.00000000
62.505497 56.084373 -18.577076 7.00000000
61.834625 56.794117 -15.058177 7.00000000
62.169525 56.439816 -32.874001 7.00000000
64.655701 53.547207 -29.357203 7.00000000
61.854359 56.773243 2.097278 7.00000000
66.402885 51.311554 -32.556255 7.00000000
67.130157 50.350285 1.421450 7.00000000
65.003258 53.136639 -1.093706 7.00000000
63.169075 55.316307 0.374877 7.00000000
65.807014 52.099136 -48.861561 7.00000000
59.821728 58.923660 2.320897 7.00000000
61.186562 57.479740 -20.322258 7.00000000
63.401997 55.028194 -12.790463 7.00000000
63.122471 55.364777 -15.015674 7.00000000
61.524746 57.121956 -25.935287 7.00000000
61.819229 56.810406 3.861107 7.00000000
68.422295 48.518021 -48.277943 7.00000000
62.598400 55.977482 -9.669444 7.00000000
62.267170 56.336510 -16.216553 7.00000000
68.656364 48.170624 -46.550800 7.00000000
69.116425 47.487831 -48.607838 7.00000000
67.892899 49.303734 -36.067223 7.00000000
68.434608 48.499752 -27.663649 7.00000000
68.045631 49.077038 -43.287861 7.00000000
66.748627 50.854568 -4.127054 7.00000000
64.527557 53.698578 -34.049644 7.00000000
63.931614 54.402561 -18.932325 7.00000000
63.879387 54.464260 -24.974173 7.00000000
69.197716 47.367180 -43.625072 7.00000000
59.793011 58.954041 -14.292076 7.00000000
60.471317 58.236427 -11.892529 7.00000000
67.637711 49.679428 -61.048206 7.00000000
62.449112 56.144024 -15.415924 7.00000000
59.744293 59.005581 -44.756367 7.00000000
64.609085 53.602272 -25.792656 7.00000000
64.655022 53.548004 2.608120 7.00000000
67.002151 50.519482 -53.273273 7.00000000
65.311295 52.754333 -20.593840 7.00000000
69.377876 47.099792 -10.767190 7.00000000
68.806053 47.948483 -1.004572 7.00000000
67.982391 49.170910 -12.287060 7.00000000
61.626862 57.013924 -17.675245 7.00000000
69.944023 46.259552 -11.249645 7.00000000
62.781006 55.768337 -34.050980 7.00000000
68.370621 48.594727 -19.963390 7.00000000
69.948830 46.252419 -49.954819 7.00000000
65.482597 52.527901 -11.524963 7.00000000
62.621811 55.949829 -19.440365 7.00000000
68.590736 48.268021 -40.331696 7.00000000
65.225029 52.868366 2.941685 7.00000000
61.334038 57.323715 -49.423573 7.00000000
62.402885 56.192932 -51.909142 7.00000000
60.943493 57.736889 -7.767687 7.00000000
65.765289 52.174431 -18.327929 7.00000000
64.590591 53.624119 -60.909435 7.00000000
61.071762 57.601189 0.442093 7.00000000
60.268372 58.451134 -2.555416 7.00000000
60.436203 58.273575 -0.197453 7.00000000
67.542549 49.805210 -10.510157 7.00000000
64.810768 53.364025 -17.988708 7.00000000
66.961983 50.572563 -28.753103 7.00000000
66.268097 51.489704 -18.164497 7.00000000
65.369026 52.678024 0.106632 7.00000000
64.995682 53.145588 -9.186261 7.00000000
66.393394 51.324093 -24.451975 7.00000000
69.750526 46.546730 -59.624748 7.00000000
62.277985 56.325069 1.600608 7.00000000
59.718975 59.032368 -29.371227 7.00000000
63.454533 54.966137 -44.979519 7.00000000
68.000214 49.144451 -41.902489 7.00000000
61.983131 56.637009 -33.787674 7.00000000
68.313675 48.679237 -20.764566 7.00000000
61.169678 57.497601 -3.961262 7.00000000
61.315475 57.343353 -53.691349 7.00000000
61.157719 57.510250 -45.704369 7.00000000
67.708389 49.577564 -28.818081 7.00000000
67.732651 49.541550 -50.069115 7.00000000
66.607819 51.040676 -29.553726 7.00000000
69.808212 46.461109 -60.830173 7.00000000
64.511086 53.718040 -37.071613 7.00000000
68.355354 48.617363 -36.030285 7.00000000
65.785088 52.128117 -39.428627 7.00000000
66.311302 51.432602 -42.413364 7.00000000
64.255547 54.019901 -20.555761 7.00000000
67.635460 49.682407 -22.203297 7.00000000
60.824177 57.863121 -34.761391 7.00000000
64.126221 54.172672 -29.573744 7.00000000
61.061703 57.611832 -12.148624 7.00000000
69.862175 46.381023 -39.754848 7.00000000
65.813507 52.090553 -38.380981 7.00000000
60.517807 58.187244 -17.948977 7.00000000
67.760002 49.500961 -18.163342 7.00000000
61.599918 57.042423 -14.123162 7.00000000
65.011620 53.126762 -26.310640 7.00000000
68.836098 47.903881 -15.349016 7.00000000
66.313614 51.446224 3.873113 7.00000000
69.835335 46.420864 -17.982639 7.00000000
60.929813 57.751366 1.421751 7.00000000
62.465557 56.126629 -54.583694 7.00000000
68.289909 48.714516 -16.309246 7.00000000
69.938332 46.267998 -20.557793 7.00000000
66.903198 50.650265 -54.251408 7.00000000
64.829895 53.341431 -20.265869 7.00000000
63.317867 55.127575 -41.498623 7.00000000
66.294266 51.458340 -7.801118 7.00000000
61.851406 56.776367 -30.349878 7.00000000
62.643196 55.928596 -36.590755 7.00000000
69.790237 46.487789 -54.287601 7.00000000
60.444534 58.264763 1.872089 7.00000000
66.782356 50.809982 -56.707386 7.00000000
60.809483 57.878666 -53.023598 7.00000000
61.356262 57.300201 -38.237904 7.00000000
69.289467 47.231007 -59.480202 7.00000000
64.166084 54.125587 -60.181549 7.00000000
67.876373 49.328247 -40.431190 7.00000000
67.549278 49.796314 -7.160307 7.00000000
63.428974 54.996326 -50.640171 7.00000000
62.686726 55.878082 -25.578997 7.00000000
65.182846 52.924122 -34.731758 7.00000000
65.957352 51.900425 -41.235359 7.00000000
65.662949 52.293015 -36.357288 7.00000000
61.633434 57.006969 -43.990788 7.00000000
65.743195 52.203823 0.803491 7.00000000
67.543144 49.804428 -15.614651 7.00000000
67.764786 49.493858 -3.199073 7.00000000
63.225895 55.236221 -49.303555 7.00000000
63.413574 55.014935 -10.021324 7.00000000
67.364044 50.041149 -4.267602 7.00000000
65.430809 52.596352 -10.694362 7.00000000
68.524796 48.365913 -6.286671 7.00000000
60.451584 58.257305 -44.478489 7.00000000
67.351799 50.057327 -5.241750 7.00000000
68.084412 49.019489 -30.307257 7.00000000
63.095627 55.390106 -51.502026 7.00000000
62.998711 55.516701 -10.966041 7.00000000
67.080688 50.415668 -48.414501 7.00000000
69.241425 47.302315 -26.853054 7.00000000
69.825790 46.435020 -6.729039 7.00000000
60.085110 58.645016 -60.838768 7.00000000
66.084518 51.732342 -40.196918 7.00000000
68.730705 48.060303 -14.504516 7.00000000
61.206989 57.458122 -24.064659 7.00000000
64.923508 53.230846 -24.173088 7.00000000
61.506748 57.140995 -56.392078 7.00000000
68.970123 47.704964 -33.188255 7.00000000
64.757713 53.426704 -5.254271 7.00000000
69.727333 46.581154 -25.234692 7.00000000
67.200645 50.257118 -58.417004 7.00000000
69.869164 46.370659 -2.364259 7.00000000
60.474899 58.232635 -3.765984 7.00000000
67.306702 50.116943 -36.025421 7.00000000
61.806839 56.823517 -54.897732 7.00000000
62.306370 56.295040 -23.989937 7.00000000
64.263580 54.010410 -1.370206 7.00000000
68.129616 48.952396 -59.640785 7.00000000
69.772263 46.514465 -36.079010 7.00000000
69.220848 47.332859 -3.335689 7.00000000
62.252674 56.351849 -37.598370 7.00000000
67.804703 49.434620 -11.286849 7.00000000
66.998749 50.523972 -0.272424 7.00000000
62.804020 55.744404 -2.487213 7.00000000
61.265247 57.396492 -21.351713 7.00000000
62.177921 56.430935 -45.117561 7.00000000
63.213951 55.250332 -33.122128 7.00000000
66.152939 51.663139 0.193765 7.00000000
59.784515 58.963028 -18.153723 7.00000000
68.530334 48.357670 -50.689983 7.00000000
59.820717 58.924728 -20.039501 7.00000000
63.910351 54.427677 -53.395607 7.00000000
60.015057 58.719128 -26.761763 7.00000000
65.509186 52.492748 -3.622959 7.00000000
65.364258 52.684341 -53.588531 7.00000000
65.524635 52.484871 -35.408649 7.00000000
63.605530 54.787762 -51.576122 7.00000000
69.787125 46.492416 -52.535080 7.00000000
67.052338 50.453140 -59.623970 7.00000000
68.588715 48.271030 -24.995077 7.00000000
69.339432 47.156857 -54.942471 7.00000000
61.777699 56.854343 -0.232103 7.00000000
67.696556 49.595123 -16.429031 7.00000000
69.569679 46.815136 -28.272751 7.00000000
63.539566 54.865685 -28.456785 7.00000000
66.051453 51.776054 -59.368076 7.00000000
64.023170 54.294411 2.338323 7.00000000
59.852734 58.890854 -24.890886 7.00000000
68.067741 49.044250 -6.835686 7.00000000
65.986481 51.884804 -6.069930 7.00000000
62.036556 56.580486 -3.816854 7.00000000
60.380600 58.332401 -8.229011 7.00000000
68.486259 48.423088 -41.392349 7.00000000
64.474625 53.761112 -12.653449 7.00000000
63.631210 54.757427 -27.548410 7.00000000
69.914459 46.303425 -42.761131 7.00000000
67.122810 50.359989 0.514591 7.00000000
69.931038 46.278820 -12.458970 7.00000000
61.874157 56.752296 -29.320742 7.00000000
62.351494 56.247299 -5.501847 7.00000000
65.168167 52.941837 -7.180750 7.00000000
67.101494 50.388165 -14.582298 7.00000000
69.686172 46.642242 -58.716171 7.00000000
69.920013 46.295181 -32.627834 7.00000000
63.973473 54.353115 -45.471828 7.00000000
63.961185 54.367626 -44.466137 7.00000000
64.467865 53.769093 -18.958183 7.00000000
65.035812 53.098186 -48.328911 7.00000000
64.292046 53.976791 -3.257834 7.00000000
66.092690 51.721542 -56.319576 7.00000000
68.987457 47.679230 -49.542980 7.00000000
69.820526 46.442844 -30.156687 7.00000000
66.587326 51.067764 -27.615124 7.00000000
62.243275 56.361794 -26.216124 7.00000000
69.182381 47.389957 2.096959 7.00000000
64.879211 53.283169 -11.118336 7.00000000
63.875648 54.468674 -61.057056 7.00000000
65.777771 52.151897 -22.599127 7.00000000
65.168350 52.941616 -56.024170 7.00000000
69.224022 47.328136 -20.504400 7.00000000
61.366306 57.289574 -0.911978 7.00000000
60.176952 58.547852 -25.913370 7.00000000
67.505592 49.854053 -37.622044 7.00000000
69.768898 46.519466 -4.625695 7.00000000
60.808575 57.879627 -37.646515 7.00000000
64.634895 53.571777 3.543371 7.00000000
61.916805 56.707176 -36.777695 7.00000000
59.801949 58.944584 -32.590946 7.00000000
62.800545 55.752075 -13.174913 7.00000000
65.106995 53.014095 -18.775394 7.00000000
63.561108 54.840237 -4.969338 7.00000000
61.369965 57.285706 2.893134 7.00000000
65.694206 52.257931 -29.941189 7.00000000
60.047386 58.684925 0.411381 7.00000000
68.411484 48.534065 -49.754707 7.00000000
67.815346 49.418831 -1.319986 7.00000000
66.098335 51.714081 -19.802668 7.00000000
69.866600 46.374458 -26.845451 7.00000000
65.536316 52.464077 -13.580671 7.00000000
67.459808 49.914574 -28.076658 7.00000000
62.885910 55.650639 -16.041697 7.00000000
61.322361 57.336067 -44.859348 7.00000000
64.432228 53.811192 -15.070514 7.00000000
63.975601 54.350601 -35.435867 7.00000000
69.426796 47.027195 -46.268570 7.00000000
59.802525 58.943977 -13.163816 7.00000000
69.845566 46.405682 2.113520 7.00000000
62.941696 55.571941 -48.417503 7.00000000
67.110031 50.376888 -6.786221 7.00000000
69.762306 46.529240 -19.310625 7.00000000
60.432076 58.277946 -47.021183 7.00000000
69.368446 47.113792 -52.789364 7.00000000
62.222355 56.383923 -17.112442 7.00000000
69.067802 47.559994 -21.810638 7.00000000
63.288074 55.162769 -18.802591 7.00000000
69.915146 46.302406 -56.364422 7.00000000
68.858543 47.870564 -51.271282 7.00000000
68.930832 47.763283 -9.874735 7.00000000
61.820576 56.808983 -21.104021 7.00000000
69.093819 47.521381 -7.240622 7.00000000
62.905136 55.620724 -28.897350 7.00000000
64.423935 53.820992 -49.902657 7.00000000
65.995720 51.849712 -25.150534 7.00000000
69.218719 47.336025 0.175942 7.00000000
60.810516 57.877571 -3.043719 7.00000000
62.991863 55.512680 -56.375019 7.00000000
65.286942 52.791332 -50.765408 7.00000000
60.760815 57.930157 -23.579334 7.00000000
68.325531 48.661648 -12.908533 7.00000000
60.583000 58.118275 -45.419060 7.00000000
60.484203 58.222794 -31.993263 7.00000000
61.432777 57.219254 -35.078335 7.00000000
66.552193 51.114201 -48.889431 7.00000000
60.400482 58.311367 -41.852795 7.00000000
69.812691 46.454464 -8.665708 7.00000000
66.340935 51.393433 -28.550812 7.00000000
60.854427 57.831120 -14.965930 7.00000000
66.839119 50.734966 -17.804426 7.00000000
68.866592 47.858608 -58.339783 7.00000000
65.931816 51.934181 -60.230862 7.00000000
66.696259 50.923786 -52.444584 7.00000000
62.803970 55.734638 -53.461437 7.00000000
65.469856 52.544765 -58.767410 7.00000000
59.797295 58.949509 -21.005651 7.00000000
65.624535 52.361122 -19.201246 7.00000000
63.860332 54.486771 -19.729963 7.00000000
63.274815 55.178432 -23.706936 7.00000000
64.434372 53.808662 -54.536034 7.00000000
68.742294 48.043095 -30.974174 7.00000000
65.974510 51.879089 -23.873161 7.00000000
69.566765 46.819458 -36.994442 7.00000000
67.940376 49.233273 -17.141985 7.00000000
61.515774 57.131451 -24.924536 7.00000000
68.083069 49.021488 -35.262024 7.00000000
59.975601 58.760872 -33.570881 7.00000000
63.774364 54.588318 -52.516544 7.00000000
67.044487 50.463516 -39.257664 7.00000000
69.891479 46.337528 -45.628773 7.00000000
65.032494 53.102104 -11.975130 7.00000000
67.872978 49.333279 -54.429043 7.00000000
66.523209 51.152512 -30.709082 7.00000000
61.702366 56.934044 0.648915 7.00000000
64.996941 53.144104 -46.298149 7.00000000
64.708099 53.485306 -28.284075 7.00000000
64.330215 53.931702 -39.311871 7.00000000
63.752865 54.613716 -58.194080 7.00000000
63.321163 55.123680 -30.261997 7.00000000
63.613197 54.778702 -10.864054 7.00000000
67.734711 49.538494 -27.181890 7.00000000
65.797401 52.111843 -45.222870 7.00000000
63.351902 55.087372 -36.350773 7.00000000
67.164398 50.305031 -30.477942 7.00000000
69.244987 47.297016 -29.037916 7.00000000
59.781796 58.965904 -30.750277 7.00000000
59.780823 58.966934 1.241190 7.00000000
63.294434 55.155258 -19.944088 7.00000000
61.743748 56.890263 -31.891216 7.00000000
69.848274 46.401661 -43.617165 7.00000000
68.095505 49.003044 -5.699957 7.00000000
69.505180 46.910858 -44.475479 7.00000000
67.022179 50.493004 -21.524014 7.00000000
65.831108 52.073078 -26.835690 7.00000000
69.530266 46.873634 -5.426765 7.00000000
65.450539 52.579941 -41.081650 7.00000000
68.025871 49.106380 -24.435102 7.00000000
67.971436 49.187160 -48.590084 7.00000000
65.912766 51.995975 1.587258 7.00000000
64.023109 54.294483 -34.610870 7.00000000
60.440514 58.269016 -6.968307 7.00000000
65.312080 52.753292 -17.573210 7.00000000
60.251148 58.469353 -37.659657 7.00000000
61.718624 56.916843 -16.707598 7.00000000
63.573601 54.825478 -9.175006 7.00000000
66.971962 50.559380 -55.434776 7.00000000
59.781796 58.965908 -19.042053 7.00000000
63.700340 54.675762 -47.204811 7.00000000
66.398888 51.325291 1.162111 7.00000000
61.479115 57.170231 -28.358793 7.00000000
68.873215 47.848789 -61.026085 7.00000000
60.557983 58.144741 -42.923775 7.00000000
68.137901 48.940117 -25.459755 7.00000000
66.138458 51.661053 -47.331627 7.00000000
64.881813 53.280102 -21.083429 7.00000000
66.906242 50.646244 -31.205761 7.00000000
62.082664 56.531704 -60.953568 7.00000000
66.390808 51.327515 -54.367619 7.00000000
63.599297 54.795128 -55.684277 7.00000000
60.942875 57.737545 2.273065 7.00000000
62.140427 56.470596 2.889246 7.00000000
59.717705 59.033710 -58.297066 7.00000000
68.557457 48.317417 -43.604000 7.00000000
68.245590 48.780296 -3.569812 7.00000000
68.142311 48.933586 -4.709433 7.00000000
65.780418 52.134285 -50.988453 7.00000000
60.422455 58.288124 -59.924000 7.00000000
65.900131 52.007736 -2.945498 7.00000000
62.432327 56.161785 -44.324612 7.00000000
66.521156 51.155224 -26.654036 7.00000000
62.035603 56.581493 -31.184355 7.00000000
59.824570 58.920654 -4.689915 7.00000000
64.936707 53.215256 -10.206448 7.00000000
68.706413 48.096367 -3.187782 7.00000000
64.261040 54.013416 -47.751514 7.00000000
65.763138 52.185516 -7.749758 7.00000000
61.090878 57.580967 -41.694866 7.00000000
64.330978 53.930794 -36.061413 7.00000000
66.788399 50.801998 -34.768444 7.00000000
68.310120 48.684532 1.476339 7.00000000
69.941933 46.262653 -0.781849 7.00000000
61.097172 57.574306 -2.047400 7.00000000
67.135864 50.342735 2.264548 7.00000000
68.362076 48.607403 -26.221428 7.00000000
61.567947 57.076248 -47.715385 7.00000000
61.504700 57.143162 -8.394728 7.00000000
68.292091 48.711254 -47.184647 7.00000000
66.714142 50.900150 -47.181717 7.00000000
63.853024 54.495399 -15.003956 7.00000000
69.318657 47.187687 -57.864243 7.00000000
61.770458 56.862007 -12.356297 7.00000000
65.148460 52.965111 -49.513721 7.00000000
64.373611 53.880432 -55.376217 7.00000000
67.836411 49.387562 -46.620140 7.00000000
59.742439 59.007542 -28.076035 7.00000000
66.810509 50.772778 -8.975075 7.00000000
66.131683 51.670002 -43.381390 7.00000000
67.229317 50.219219 -23.433971 7.00000000
64.604126 53.608131 -30.423384 7.00000000
66.657516 50.974987 -23.263145 7.00000000
63.248402 55.209633 -57.943390 7.00000000
65.613976 52.373734 -25.778494 7.00000000
69.564201 46.823277 3.600643 7.00000000
66.543312 51.125942 -57.725307 7.00000000
64.487984 53.745323 0.667725 7.00000000
63.376755 55.058014 -38.266010 7.00000000
61.968857 56.652107 -22.819807 7.00000000
62.042416 56.574287 -40.760643 7.00000000
66.251358 51.511829 -50.027428 7.00000000
69.578590 46.801907 -24.253460 7.00000000
69.195602 47.370319 -36.248341 7.00000000
63.873413 54.471313 -6.492732 7.00000000
62.720169 55.835407 -46.795677 7.00000000
59.754612 58.994663 -6.479909 7.00000000
66.550636 51.116261 -43.961189 7.00000000
67.179955 50.284466 -47.483166 7.00000000
66.317360 51.439743 2.810616 7.00000000
64.088120 54.217682 -22.463497 7.00000000
62.381073 56.216007 -28.530716 7.00000000
69.777863 46.506161 -21.306849 7.00000000
64.975334 53.169624 -13.328464 7.00000000
68.511299 48.385921 -32.200619 7.00000000
66.834373 50.741234 -33.799194 7.00000000
68.731506 48.059105 -29.337797 7.00000000
67.380768 50.019039 -41.910862 7.00000000
67.737251 49.534725 2.002826 7.00000000
69.527138 46.878269 -16.448231 7.00000000
62.581837 55.997047 -23.193237 7.00000000
66.600700 51.050083 -14.278026 7.00000000
63.921974 54.413948 -21.512634 7.00000000
60.164646 58.560871 -28.758051 7.00000000
63.989822 54.333801 -59.224621 7.00000000
59.727669 59.023170 -16.448416 7.00000000
61.274242 57.386978 -34.019165 7.00000000
64.330299 53.931595 -11.633074 7.00000000
69.022560 47.627132 -34.610176 7.00000000
62.368740 56.229053 -35.585037 7.00000000
64.595718 53.618065 -22.605642 7.00000000
68.957047 47.724380 -5.756051 7.00000000
61.554413 57.090569 -13.122695 7.00000000
59.913715 58.826340 -15.289428 7.00000000
68.614609 48.232601 -21.661127 7.00000000
66.917702 50.631092 3.123902 7.00000000
68.767715 48.005363 -47.703705 7.00000000
68.400574 48.550274 -8.969405 7.00000000
68.800331 47.956982 1.229549 7.00000000
61.382580 57.272362 -32.583405 7.00000000
67.576988 49.759686 -31.874165 7.00000000
61.808887 56.821350 -57.558651 7.00000000
60.276272 58.442776 -58.089409 7.00000000
69.413994 47.046196 -2.625147 7.00000000
62.101334 56.511955 -43.024593 7.00000000
67.747353 49.519737 -26.279655 7.00000000
69.363663 47.120888 -25.963346 7.00000000
65.150307 52.962936 -47.285389 7.00000000
69.827156 46.432999 -3.516694 7.00000000
61.253296 57.409134 -43.172421 7.00000000
65.996788 51.848297 -31.984320 7.00000000
66.627289 51.014938 -16.061514 7.00000000
63.643211 54.743252 -20.752041 7.00000000
61.889965 56.735573 -34.660019 7.00000000
60.155972 58.570045 -54.818386 7.00000000
64.696259 53.499298 -41.349468 7.00000000
65.679581 52.267570 -47.985966 7.00000000
63.971996 54.354858 -30.337002 7.00000000
68.614616 48.232586 -60.185432 7.00000000
63.615280 54.776245 -49.903976 7.00000000
66.131813 51.669830 -21.927010 7.00000000
60.609394 58.090351 -29.581558 7.00000000
64.061363 54.249287 -25.944887 7.00000000
62.181526 56.427116 -7.321295 7.00000000
66.579124 51.078609 -35.718044 7.00000000
65.309296 52.756973 -27.949661 7.00000000
65.641479 52.327961 -0.668528 7.00000000
59.770844 58.977493 -17.246363 7.00000000
60.989376 57.688347 -48.489697 7.00000000
66.009789 51.831116 -58.346405 7.00000000
62.716354 55.838139 -55.545162 7.00000000
66.923637 50.623245 -60.670006 7.00000000
68.266899 48.748672 0.267830 7.00000000
67.858673 49.354515 -58.220715 7.00000000
66.890846 50.666588 -43.001923 7.00000000
63.593414 54.802074 -48.058468 7.00000000
64.160126 54.132629 -7.465677 7.00000000
66.648697 50.986645 -12.012075 7.00000000
63.859463 54.487793 -39.797668 7.00000000
64.756668 53.427937 -31.368628 7.00000000
62.592300 55.984680 -60.581142 7.00000000
63.102367 55.382145 -47.635208 7.00000000
69.231308 47.317326 -14.690683 7.00000000
69.345215 47.148270 -17.336388 7.00000000
69.630806 46.724407 -23.151339 7.00000000
66.521538 51.154716 -5.451549 7.00000000
69.940430 46.264893 -53.509380 7.00000000
61.243668 57.419319 -9.170376 7.00000000
61.482166 57.167004 -40.116886 7.00000000
61.809731 56.820457 -18.431372 7.00000000
68.241989 48.785622 -38.685219 7.00000000
69.449249 46.993866 -47.867622 7.00000000
68.131371 48.949821 -7.916009 7.00000000
