34.902985 4.328497 -34.577976 25.00000000
34.826870 5.540040 -44.817036 25.00000000
34.455017 11.458800 -59.438679 25.00000000
34.828651 5.511673 -47.662758 25.00000000
34.652973 8.307935 -54.418900 25.00000000
34.455086 11.457721 -22.181477 25.00000000
34.795422 6.040585 -43.765511 25.00000000
34.783752 6.226301 -22.325390 25.00000000
34.769310 6.456217 -30.015545 25.00000000
34.635468 8.586548 -2.642226 25.00000000
34.622192 8.797872 0.904964 25.00000000
34.700130 7.557317 -42.218346 25.00000000
34.521935 10.393668 -39.088692 25.00000000
34.613693 8.933147 -53.471710 25.00000000
34.492493 10.862328 -46.227940 25.00000000
34.540127 10.104145 -36.008987 25.00000000
34.488823 10.920717 -40.369202 25.00000000
34.754311 6.694944 -26.587879 25.00000000
34.717117 7.286962 -25.790735 25.00000000
34.484814 10.984517 -22.781713 25.00000000
34.782490 6.246422 -9.576082 25.00000000
34.883163 4.644024 -2.631491 25.00000000
34.626762 8.725134 -44.318970 25.00000000
34.760422 6.597699 -21.718643 25.00000000
34.758350 6.630637 -48.023739 25.00000000
34.799706 5.972425 -47.242153 25.00000000
34.607327 9.034517 -21.936695 25.00000000
34.621525 8.808522 -38.898701 25.00000000
34.825283 5.565282 -42.144302 25.00000000
34.776875 6.335805 -52.194984 25.00000000
34.687752 7.754383 -21.139324 25.00000000
34.597000 9.198831 -22.962063 25.00000000
34.643623 8.456735 -48.125458 25.00000000
34.596500 9.206838 -15.343297 25.00000000
34.868973 4.869899 -32.449402 25.00000000
34.651642 8.329159 -24.889072 25.00000000
34.642914 8.468041 -29.100973 25.00000000
34.891048 4.518527 -8.683544 25.00000000
34.787373 6.168693 -37.956860 25.00000000
34.636696 8.567026 -51.817142 25.00000000
34.688274 7.746029 -19.964138 25.00000000
34.603806 9.090546 -46.689285 25.00000000
34.551098 9.929466 -4.717691 25.00000000
34.657009 8.243719 -16.152222 25.00000000
34.650963 8.339926 0.494953 25.00000000
34.597614 9.189084 -34.958099 25.00000000
34.647743 8.391153 -33.183422 25.00000000
34.856804 5.063580 -57.635620 25.00000000
34.887840 4.569551 -19.286261 25.00000000
34.634300 8.605124 -5.896970 25.00000000
34.774258 6.377461 -10.160477 25.00000000
34.576298 9.528361 2.860964 25.00000000
34.785778 6.194092 -52.833427 25.00000000
34.665863 8.102782 -44.637501 25.00000000
34.686214 7.778822 -31.886364 25.00000000
34.548744 9.966964 -38.213432 25.00000000
34.546082 10.009361 -51.384300 25.00000000
34.842121 5.297305 -25.703085 25.00000000
34.715244 7.316754 2.616187 25.00000000
34.589615 9.316411 -18.220922 25.00000000
34.901485 4.352392 -4.291424 25.00000000
34.541458 10.082927 -2.046117 25.00000000
34.726555 7.136732 -32.331993 25.00000000
34.864857 4.935404 -43.214764 25.00000000
34.901478 4.352509 -31.742693 25.00000000
34.850613 5.162152 -16.594252 25.00000000
34.486816 10.952668 -37.568455 25.00000000
34.591404 9.287954 -18.783064 25.00000000
34.876934 4.743147 -31.241013 25.00000000
34.508404 10.609020 -48.972027 25.00000000
34.488098 10.932255 -29.119619 25.00000000
34.685333 7.792887 -52.976902 25.00000000
34.900497 4.368078 -57.437840 25.00000000
34.616978 8.880865 -1.807941 25.00000000
34.744671 6.848392 -30.441692 25.00000000
34.505215 10.659791 -12.385368 25.00000000
34.634903 8.595559 -15.258935 25.00000000
34.530029 10.264807 -44.451653 25.00000000
34.829205 5.502857 -20.225777 25.00000000
34.907928 4.249835 -23.371899 25.00000000
34.849026 5.187402 -18.224428 25.00000000
34.799892 5.969427 -25.602650 25.00000000
34.498306 10.769755 -7.992251 25.00000000
34.471985 11.188715 -4.055828 25.00000000
34.835972 5.395185 -27.693794 25.00000000
34.846046 5.234803 -5.504953 25.00000000
34.721104 7.223545 -8.483442 25.00000000
34.695976 7.623453 -42.794518 25.00000000
34.898201 4.404653 -7.909047 25.00000000
34.649315 8.366196 -60.444691 25.00000000
34.905231 4.292765 -25.652948 25.00000000
34.677624 7.915573 -32.463043 25.00000000
34.567863 9.662620 -47.523544 25.00000000
34.690437 7.711642 -37.795940 25.00000000
34.615665 8.901787 -50.033489 25.00000000
34.904434 4.305451 -5.168250 25.00000000
34.906822 4.267445 -48.596519 25.00000000
34.571575 9.603517 -46.905602 25.00000000
34.812420 5.770033 -37.466976 25.00000000
34.463528 11.323355 -44.358498 25.00000000
34.526031 10.328461 -2.554790 25.00000000
34.582310 9.432673 -59.940083 25.00000000
34.796532 6.022931 -14.013678 25.00000000
34.726238 7.141802 -38.049816 25.00000000
34.456982 11.427506 -10.809389 25.00000000
34.827785 5.525459 -1.625059 25.00000000
34.733116 7.032325 -20.083410 25.00000000
34.460865 11.365715 -47.624969 25.00000000
34.673664 7.978585 -40.104427 25.00000000
34.548027 9.978361 -3.986217 25.00000000
34.750237 6.759813 -14.195771 25.00000000
34.826836 5.540553 -48.679523 25.00000000
34.626701 8.726100 -33.855419 25.00000000
34.455513 11.450890 -14.917734 25.00000000
34.884830 4.617506 -22.509258 25.00000000
34.627483 8.713647 -49.475601 25.00000000
34.757553 6.643350 -6.789790 25.00000000
34.714825 7.323466 -34.732773 25.00000000
34.871658 4.827105 2.705926 25.00000000
34.833035 5.441892 -14.455776 25.00000000
34.683155 7.827548 -59.711975 25.00000000
34.756771 6.655773 -53.209408 25.00000000
34.644470 8.443306 -43.205627 25.00000000
34.482662 11.018751 3.302483 25.00000000
34.643387 8.460541 -37.142380 25.00000000
34.819942 5.650272 -12.617137 25.00000000
34.517170 10.469505 -51.730377 25.00000000
34.685757 7.786162 -10.454003 25.00000000
34.854725 5.096677 -23.451405 25.00000000
34.574314 9.559949 -40.640324 25.00000000
34.637615 8.552366 -16.949978 25.00000000
34.608719 9.012347 -60.384266 25.00000000
34.517754 10.460256 -40.067772 25.00000000
34.588055 9.341242 0.555334 25.00000000
34.603630 9.093316 -8.090783 25.00000000
34.554741 9.871510 -6.628009 25.00000000
34.779049 6.301194 3.677704 25.00000000
34.527916 10.298454 -25.239895 25.00000000
34.737400 6.964128 -48.969353 25.00000000
34.589458 9.318883 -56.828037 25.00000000
34.455036 11.458506 -16.874153 25.00000000
34.894489 4.463732 -12.385415 25.00000000
34.560963 9.772463 -52.121098 25.00000000
34.799160 5.981107 -7.972487 25.00000000
34.640408 8.507980 -39.645702 25.00000000
34.519012 10.440160 -8.935851 25.00000000
34.817551 5.688401 -0.900343 25.00000000
34.549747 9.950950 -13.631321 25.00000000
34.750923 6.748895 -35.566181 25.00000000
34.800968 5.952326 -17.188097 25.00000000
34.834301 5.421737 -50.865486 25.00000000
34.610371 8.986033 -37.601379 25.00000000
34.497337 10.785168 -27.097118 25.00000000
34.591766 9.282170 -41.411789 25.00000000
34.714535 7.328096 -18.547358 25.00000000
34.908569 4.239613 -50.034805 25.00000000
34.536564 10.160855 -49.379169 25.00000000
34.811039 5.792008 -12.054485 25.00000000
34.821301 5.628672 -40.492039 25.00000000
34.524616 10.350970 -36.757519 25.00000000
34.456066 11.442086 -33.239494 25.00000000
34.489689 10.906958 -24.061312 25.00000000
34.685081 7.796854 -36.974640 25.00000000
34.505630 10.653212 -50.925079 25.00000000
34.908249 4.244729 -21.836020 25.00000000
34.774612 6.371810 -5.244637 25.00000000
34.513275 10.531509 -49.874458 25.00000000
34.792774 6.082713 -45.974773 25.00000000
34.543339 10.052961 -57.814133 25.00000000
34.811481 5.784978 -52.405087 25.00000000
34.906311 4.275554 -43.989048 25.00000000
34.578823 9.488173 -36.308929 25.00000000
34.851402 5.149542 -30.581118 25.00000000
34.511173 10.564976 -47.575802 25.00000000
34.858017 5.044261 -10.713536 25.00000000
34.498985 10.758933 -59.273735 25.00000000
34.781693 6.259126 -35.991444 25.00000000
34.530788 10.252740 -16.748983 25.00000000
34.546295 10.005945 -55.303185 25.00000000
34.524158 10.358283 -20.754341 25.00000000
34.484264 10.993300 -2.676908 25.00000000
34.454086 11.473585 -60.299522 25.00000000
34.578217 9.497827 -53.419601 25.00000000
34.828651 5.511692 -59.484245 25.00000000
34.519489 10.432598 -16.214014 25.00000000
34.676723 7.929922 -51.963257 25.00000000
34.585026 9.389449 -12.350065 25.00000000
34.687641 7.756127 3.163872 25.00000000
34.634682 8.599104 -45.120209 25.00000000
34.666088 8.099217 -38.984615 25.00000000
34.677055 7.924601 -12.933699 25.00000000
34.499981 10.743106 -23.511312 25.00000000
34.542397 10.067969 -50.150234 25.00000000
34.584877 9.391827 -32.487904 25.00000000
34.508736 10.603742 -31.138338 25.00000000
34.541851 10.076686 -48.014519 25.00000000
34.903755 4.316219 -54.111614 25.00000000
34.726681 7.134734 -11.324003 25.00000000
34.500069 10.741747 -15.230876 25.00000000
34.493317 10.849167 -22.183493 25.00000000
34.584957 9.390556 -30.496235 25.00000000
34.588173 9.339376 -33.984802 25.00000000
34.823559 5.592730 -54.822510 25.00000000
34.812931 5.761922 -35.749256 25.00000000
34.868675 4.874641 -15.337408 25.00000000
34.896984 4.423999 -5.734593 25.00000000
34.736874 6.972529 -16.351685 25.00000000
34.585262 9.385690 -42.793865 25.00000000
34.711655 7.373914 -41.121235 25.00000000
34.456699 11.432024 -39.913593 25.00000000
34.516819 10.475097 -9.974379 25.00000000
34.682495 7.838031 -53.583195 25.00000000
34.499660 10.748182 -28.184839 25.00000000
34.894905 4.457131 -54.836781 25.00000000
34.740253 6.918700 -0.705117 25.00000000
34.679688 7.882713 0.046179 25.00000000
34.775249 6.361662 -11.346927 25.00000000
34.703125 7.509692 -54.492565 25.00000000
34.893112 4.485684 -40.723324 25.00000000
34.583141 9.419472 -49.172764 25.00000000
34.672134 8.002922 -3.148229 25.00000000
34.454590 11.465631 -34.842319 25.00000000
34.792408 6.088554 -14.741050 25.00000000
34.713696 7.341432 -38.667469 25.00000000
34.633778 8.613503 2.160627 25.00000000
34.467960 11.252752 3.874514 25.00000000
34.821705 5.622251 -22.010395 25.00000000
34.901089 4.358670 -2.025457 25.00000000
34.906727 4.268990 -37.238853 25.00000000
34.909500 4.224823 0.992952 25.00000000
34.817009 5.696973 -10.624759 25.00000000
34.539814 10.109092 -6.008908 25.00000000
34.651520 8.331059 -46.949383 25.00000000
34.551090 9.929609 -19.929148 25.00000000
34.908798 4.235948 -59.951366 25.00000000
34.458488 11.403539 -21.156267 25.00000000
34.848270 5.199397 -0.086997 25.00000000
34.766575 6.499778 -28.019402 25.00000000
34.468300 11.247397 -11.840225 25.00000000
34.786747 6.178690 -41.728039 25.00000000
34.899437 4.384985 -40.147964 25.00000000
34.459538 11.386857 -37.155155 25.00000000
34.573292 9.576206 3.572110 25.00000000
34.714622 7.326649 3.703312 25.00000000
34.804714 5.892700 -8.979628 25.00000000
34.501122 10.724927 -17.938953 25.00000000
34.704857 7.482126 -20.474531 25.00000000
34.536114 10.168005 -9.488972 25.00000000
34.781662 6.259593 3.075644 25.00000000
34.685318 7.793092 -26.027721 25.00000000
34.456589 11.433777 -3.389599 25.00000000
34.498554 10.765826 -2.113749 25.00000000
34.461708 11.352317 -46.909092 25.00000000
34.564987 9.708414 -26.958181 25.00000000
34.737354 6.964853 -57.927639 25.00000000
34.670540 8.028350 -18.010084 25.00000000
34.793053 6.078281 -48.008476 25.00000000
34.854061 5.107201 -29.977793 25.00000000
34.688385 7.744282 -3.851612 25.00000000
34.828682 5.511201 -56.111748 25.00000000
34.874641 4.779634 -35.112659 25.00000000
34.803364 5.914196 -45.394669 25.00000000
34.831497 5.466365 -46.184929 25.00000000
34.472023 11.188133 -51.917461 25.00000000
34.533916 10.202934 2.903400 25.00000000
34.865898 4.918805 -8.160589 25.00000000
34.558121 9.817700 -44.054504 25.00000000
34.790672 6.116195 -53.586197 25.00000000
34.637226 8.558550 -56.749592 25.00000000
34.585468 9.382389 -31.532276 25.00000000
34.462776 11.335294 -1.830019 25.00000000
34.571213 9.609313 -24.406096 25.00000000
34.706791 7.451315 -34.027241 25.00000000
34.550774 9.934673 -54.605419 25.00000000
34.525452 10.337715 2.306389 25.00000000
34.768391 6.470834 -33.768486 25.00000000
34.821281 5.628986 -42.792526 25.00000000
34.473740 11.160808 -38.755966 25.00000000
34.511772 10.555397 1.699198 25.00000000
34.522812 10.379704 3.469606 25.00000000
34.882553 4.653715 -16.055290 25.00000000
34.772648 6.403112 -17.738249 25.00000000
34.782352 6.248610 -16.439363 25.00000000
34.846592 5.226111 -45.472202 25.00000000
34.880157 4.691865 -38.792290 25.00000000
34.907959 4.249364 -24.302782 25.00000000
34.579063 9.484335 -60.691685 25.00000000
34.539810 10.109138 -7.613599 25.00000000
34.562794 9.743343 -45.566612 25.00000000
34.525028 10.344414 -41.883400 25.00000000
34.748566 6.786397 -28.817160 25.00000000
34.499424 10.751986 0.452862 25.00000000
34.510231 10.579943 -13.866382 25.00000000
34.570522 9.620302 -43.477657 25.00000000
34.841671 5.304425 -17.445765 25.00000000
34.815922 5.714316 -50.188969 25.00000000
34.636650 8.567773 -4.520570 25.00000000
34.791409 6.104503 -35.307617 25.00000000
34.572540 9.588172 -59.399483 25.00000000
34.548248 9.974851 -24.009699 25.00000000
34.706364 7.458150 -10.040733 25.00000000
34.712154 7.365952 -49.745689 25.00000000
34.720654 7.230674 -20.954409 25.00000000
34.609646 8.997556 -57.437401 25.00000000
34.709541 7.407534 -12.765287 25.00000000
34.772827 6.400255 -27.431631 25.00000000
34.851959 5.140702 -35.683323 25.00000000
34.748184 6.792482 -12.465486 25.00000000
34.540627 10.096143 -29.293909 25.00000000
34.537228 10.150241 -37.384155 25.00000000
34.850101 5.170267 -2.871940 25.00000000
34.487904 10.935346 -11.224518 25.00000000
34.458603 11.401701 -7.587193 25.00000000
34.635567 8.584988 -3.756789 25.00000000
34.529343 10.275771 -27.267426 25.00000000
34.755142 6.681694 -49.566364 25.00000000
34.724880 7.163369 -4.036813 25.00000000
34.512218 10.548352 -3.766568 25.00000000
34.700783 7.546958 -39.574917 25.00000000
34.511875 10.553771 -25.899906 25.00000000
34.685085 7.796808 -58.048588 25.00000000
34.714481 7.328909 -51.721729 25.00000000
34.766468 6.501462 -53.986225 25.00000000
34.797626 6.005510 -61.108730 25.00000000
34.759556 6.611462 -44.421391 25.00000000
34.740463 6.915333 -3.319024 25.00000000
34.651558 8.330467 -17.452509 25.00000000
34.817612 5.687407 -34.405243 25.00000000
34.877510 4.734001 -60.625702 25.00000000
34.485775 10.969225 -33.714745 25.00000000
34.770363 6.439437 -37.083664 25.00000000
34.510506 10.575585 -59.939537 25.00000000
34.605911 9.057019 -45.931774 25.00000000
34.523655 10.366310 -56.924507 25.00000000
34.473579 11.163336 -0.137111 25.00000000
34.545696 10.015455 -41.237671 25.00000000
34.757668 6.641540 -25.519911 25.00000000
34.642159 8.480060 -37.755417 25.00000000
34.793491 6.071336 -57.212700 25.00000000
34.759552 6.611544 -43.447887 25.00000000
34.705574 7.470691 -30.567766 25.00000000
34.689793 7.721871 -17.474466 25.00000000
34.797672 6.004793 -43.183723 25.00000000
34.721783 7.212723 -53.768963 25.00000000
34.784649 6.212080 -42.512257 25.00000000
34.684586 7.804796 -26.925367 25.00000000
34.689667 7.723887 -60.497768 25.00000000
34.781628 6.260161 -59.188671 25.00000000
34.615814 8.899396 3.523012 25.00000000
34.702682 7.516743 -50.481220 25.00000000
34.877640 4.731949 -21.517551 25.00000000
34.517948 10.457132 -30.438957 25.00000000
34.723907 7.178903 -29.447062 25.00000000
34.514122 10.518039 -0.090655 25.00000000
34.467243 11.264219 -55.916355 25.00000000
34.568806 9.647648 -16.476742 25.00000000
34.745762 6.831036 -9.585440 25.00000000
34.459080 11.394127 -0.845553 25.00000000
34.849052 5.186935 -12.131625 25.00000000
34.627071 8.720202 -25.365011 25.00000000
34.510414 10.577066 -12.944182 25.00000000
34.832527 5.449978 -43.435360 25.00000000
34.761108 6.586744 -42.889191 25.00000000
34.529018 10.280895 -40.689884 25.00000000
34.562386 9.749806 -50.872318 25.00000000
34.703644 7.501435 -55.892731 25.00000000
34.759651 6.609923 -15.768407 25.00000000
34.910061 4.215907 -15.559386 25.00000000
34.708778 7.419669 -0.242071 25.00000000
34.588776 9.329768 1.357094 25.00000000
34.503601 10.685505 -11.843984 25.00000000
34.595512 9.222519 -27.305347 25.00000000
34.508591 10.606097 -60.513332 25.00000000
34.685448 7.791030 -43.680237 25.00000000
34.809799 5.811757 0.464424 25.00000000
34.631641 8.647500 -0.786109 25.00000000
34.681713 7.850493 -18.945732 25.00000000
34.692551 7.677984 0.589888 25.00000000
34.495892 10.808217 -10.610486 25.00000000
34.675045 7.956648 -8.897353 25.00000000
34.582253 9.433604 -4.482960 25.00000000
34.718464 7.265549 -43.382137 25.00000000
34.521381 10.402474 -33.516495 25.00000000
34.774010 6.381407 -7.504566 25.00000000
34.472450 11.181333 -51.222633 25.00000000
34.811642 5.782395 -33.706100 25.00000000
34.901463 4.352776 -9.785945 25.00000000
34.690331 7.713324 -14.117331 25.00000000
34.802711 5.924588 -46.585838 25.00000000
34.882862 4.648803 -36.628036 25.00000000
34.863106 4.963256 -44.582150 25.00000000
34.898251 4.403849 -11.693109 25.00000000
34.599869 9.153225 -2.737264 25.00000000
34.899445 4.384855 -30.836721 25.00000000
34.688820 7.737382 -2.132581 25.00000000
34.579716 9.473956 -27.835644 25.00000000
34.887924 4.568258 -7.195687 25.00000000
34.852676 5.129273 -43.931870 25.00000000
34.749065 6.778432 -8.941422 25.00000000
34.541809 10.077321 0.506974 25.00000000
34.461136 11.361384 -27.345118 25.00000000
34.546875 9.996717 -14.255113 25.00000000
34.792606 6.085372 -1.855283 25.00000000
34.820042 5.648726 -55.416168 25.00000000
34.860176 5.009879 -51.223629 25.00000000
34.621807 8.803998 -20.843204 25.00000000
34.712303 7.363575 -22.029350 25.00000000
34.453598 11.481391 -52.945534 25.00000000
34.906548 4.271818 -61.014843 25.00000000
34.702145 7.525300 -35.800442 25.00000000
34.857681 5.049603 -53.780849 25.00000000
34.806618 5.862387 -33.172176 25.00000000
34.604198 9.084300 -20.293896 25.00000000
34.490120 10.900088 -17.317825 25.00000000
34.456211 11.439814 -5.941959 25.00000000
34.895466 4.448228 -46.216827 25.00000000
34.564846 9.710636 -29.951620 25.00000000
34.541130 10.088158 -11.984408 25.00000000
34.717854 7.275215 -19.110701 25.00000000
34.743820 6.861936 -39.022030 25.00000000
34.753414 6.709222 -10.750103 25.00000000
34.464764 11.303647 -5.349833 25.00000000
34.551933 9.916157 1.447177 25.00000000
34.468632 11.242098 -15.622848 25.00000000
34.523056 10.375830 -48.493214 25.00000000
34.511421 10.561014 -52.294769 25.00000000
34.606621 9.045748 -4.861308 25.00000000
34.630531 8.665135 -19.719147 25.00000000
34.475746 11.128873 2.196981 25.00000000
34.834496 5.418638 -9.654572 25.00000000
34.698242 7.587416 -55.172729 25.00000000
34.786369 6.184687 -34.738644 25.00000000
34.629444 8.682468 -32.481655 25.00000000
34.666496 8.092685 -34.710258 25.00000000
34.695374 7.633048 1.843988 25.00000000
34.827698 5.526841 -41.408512 25.00000000
34.629772 8.677213 -23.367077 25.00000000
34.871799 4.824894 -60.058941 25.00000000
34.616516 8.888209 2.675024 25.00000000
34.508408 10.608965 -61.081902 25.00000000
34.764027 6.540314 -33.082684 25.00000000
34.750877 6.749588 -22.631985 25.00000000
34.867897 4.886985 3.543813 25.00000000
34.850479 5.164268 -33.475903 25.00000000
34.588093 9.340654 -1.458641 25.00000000
34.753551 6.707047 -54.990971 25.00000000
34.539101 10.120432 -19.311666 25.00000000
34.906212 4.277172 -44.669380 25.00000000
34.723667 7.182730 -15.432940 25.00000000
34.861694 4.985742 -1.906427 25.00000000
34.553970 9.883777 -30.734577 25.00000000
34.524620 10.350952 -42.495804 25.00000000
34.839130 5.344898 -24.228724 25.00000000
34.485874 10.967668 -32.990185 25.00000000
34.490765 10.889785 -31.843914 25.00000000
34.778500 6.309934 -2.502957 25.00000000
34.582607 9.427938 -8.632562 25.00000000
34.855362 5.086525 0.611603 25.00000000
34.907154 4.262148 -29.502909 25.00000000
34.548096 9.977299 -43.053875 25.00000000
34.707386 7.441840 -60.993519 25.00000000
34.616493 8.888568 -54.414417 25.00000000
34.734283 7.013756 1.640363 25.00000000
34.592194 9.275376 -38.199371 25.00000000
34.747311 6.806374 -34.427551 25.00000000
34.879589 4.700921 -58.030334 25.00000000
34.661610 8.170494 -5.349363 25.00000000
34.629063 8.688558 -31.003811 25.00000000
34.906479 4.272916 -52.617382 25.00000000
34.903229 4.324618 -33.947899 25.00000000
34.657539 8.235276 -20.184980 25.00000000
34.840958 5.315789 -13.725622 25.00000000
34.543316 10.053346 -10.988167 25.00000000
34.579735 9.473685 -15.827855 25.00000000
34.619034 8.848168 -55.109661 25.00000000
34.716427 7.297934 -51.105274 25.00000000
34.588680 9.331314 -11.128417 25.00000000
34.504921 10.664497 -4.467868 25.00000000
34.503151 10.692670 -32.419273 25.00000000
34.782635 6.244124 -48.662613 25.00000000
34.747540 6.802728 -19.400726 25.00000000
34.682720 7.834472 -6.947507 25.00000000
34.685509 7.790051 -27.652485 25.00000000
34.836407 5.388265 -36.389130 25.00000000
34.721001 7.225169 -17.911751 25.00000000
34.526234 10.325277 -3.162349 25.00000000
34.835361 5.404858 -32.738010 25.00000000
34.454117 11.473163 -42.431362 25.00000000
34.785709 6.195199 -54.482948 25.00000000
34.858143 5.042251 -22.072086 25.00000000
34.821503 5.625459 -19.692295 25.00000000
34.867260 4.897144 -4.457438 25.00000000
34.521339 10.403172 -34.257458 25.00000000
34.844933 5.252525 -29.239883 25.00000000
34.673752 7.977224 -8.357198 25.00000000
34.469456 11.228983 -40.980396 25.00000000
34.741188 6.903818 -40.149445 25.00000000
34.591675 9.283659 -54.054741 25.00000000
34.657455 8.236597 -1.785441 25.00000000
34.514416 10.513356 -28.753349 25.00000000
34.835602 5.401046 -4.677800 25.00000000
34.563454 9.732808 -3.297347 25.00000000
34.602657 9.108802 -26.642311 25.00000000
34.888626 4.557055 -52.002262 25.00000000
34.875145 4.771628 -0.587454 25.00000000
34.902279 4.339739 -30.120117 25.00000000
34.722054 7.208387 -26.403704 25.00000000
34.747799 6.798580 -40.837345 25.00000000
34.455906 11.444635 0.374542 25.00000000
34.789707 6.131521 -26.808512 25.00000000
34.623539 8.776448 -10.021161 25.00000000
34.593857 9.248908 -39.519531 25.00000000
34.562977 9.740447 -17.708597 25.00000000
34.579296 9.480623 -55.408108 25.00000000
34.896168 4.436997 -58.595383 25.00000000
34.871300 4.832875 -17.780750 25.00000000
34.802616 5.926063 -27.998930 25.00000000
34.684254 7.810049 -36.431980 25.00000000
34.594707 9.235350 -25.666838 25.00000000
34.478371 11.087068 -14.283843 25.00000000
34.771305 6.424481 -24.086199 25.00000000
34.763790 6.544036 -17.175039 25.00000000
34.811661 5.782134 -57.783939 25.00000000
34.710892 7.386053 -56.501156 25.00000000
34.468605 11.242536 -56.741920 25.00000000
2.797495 33.922340 -36.534840 26.00000000
2.587630 33.907761 -52.588093 26.00000000
2.241218 33.883698 -23.840324 26.00000000
8.330225 34.306698 -50.884178 26.00000000
7.988084 34.282928 -49.356457 26.00000000
8.576184 34.323784 -53.114185 26.00000000
6.967140 34.212002 -18.110146 26.00000000
7.167744 34.225941 -48.305454 26.00000000
7.659073 34.260071 -40.257008 26.00000000
5.053409 34.079060 -3.951046 26.00000000
6.586935 34.185593 -15.174101 26.00000000
1.670709 33.844063 -45.518108 26.00000000
4.970077 34.073269 -12.883591 26.00000000
4.240029 34.022552 -54.387962 26.00000000
1.669975 33.844013 -51.749870 26.00000000
3.607817 33.978634 -61.090862 26.00000000
6.152314 34.155399 -44.497631 26.00000000
3.957532 34.002930 -1.049520 26.00000000
7.091636 34.220654 -58.936462 26.00000000
2.564845 33.906178 -3.090197 26.00000000
1.712964 33.847000 -20.924414 26.00000000
4.605339 34.047932 -29.606298 26.00000000
6.618313 34.187771 -31.610521 26.00000000
5.431955 34.105354 -60.345303 26.00000000
8.002871 34.283955 -20.402775 26.00000000
7.459489 34.246208 -49.741154 26.00000000
1.031944 33.799690 -33.740185 26.00000000
1.095311 33.804092 -52.051666 26.00000000
7.677434 34.261349 2.087810 26.00000000
7.550170 34.252506 -25.153509 26.00000000
3.498602 33.971046 -42.278664 26.00000000
2.417123 33.895916 -6.364553 26.00000000
5.947416 34.141163 -33.165298 26.00000000
1.674560 33.844334 -28.546137 26.00000000
3.543544 33.974171 -54.713566 26.00000000
3.884395 33.997849 -33.697163 26.00000000
5.061641 34.079632 -2.845701 26.00000000
5.344651 34.099289 -56.802094 26.00000000
1.015019 33.798515 -61.105656 26.00000000
4.355406 34.030567 -3.851913 26.00000000
7.046544 34.217522 -2.861238 26.00000000
2.798238 33.922394 -24.918411 26.00000000
3.576294 33.976444 -49.924786 26.00000000
2.468679 33.899498 -18.060158 26.00000000
6.499965 34.179550 -26.673122 26.00000000
2.391127 33.894112 -58.483845 26.00000000
7.586529 34.255032 -18.609682 26.00000000
4.658134 34.051598 -30.941977 26.00000000
5.209968 34.089935 -33.066811 26.00000000
2.324871 33.889507 -45.945530 26.00000000
5.760788 34.128201 2.872427 26.00000000
4.166250 34.017429 -27.033888 26.00000000
1.144685 33.807522 -25.244345 26.00000000
6.422844 34.174191 -53.361526 26.00000000
1.807656 33.853577 3.157892 26.00000000
6.982291 34.213055 -52.844345 26.00000000
4.142775 34.015797 -2.505432 26.00000000
3.277756 33.955704 -0.814345 26.00000000
5.986074 34.143848 -27.083244 26.00000000
0.974382 33.795692 -44.996067 26.00000000
7.659947 34.260132 -46.308033 26.00000000
1.198089 33.811234 -16.056059 26.00000000
1.122505 33.805981 -15.366605 26.00000000
6.768766 34.198223 -41.310005 26.00000000
2.760900 33.919800 -9.726287 26.00000000
0.962769 33.794884 -8.506063 26.00000000
6.827459 34.202301 3.703133 26.00000000
3.037824 33.939037 1.439918 26.00000000
7.976665 34.282135 -45.732475 26.00000000
2.846452 33.925743 -37.218140 26.00000000
6.061855 34.149113 -60.299320 26.00000000
7.165314 34.225769 -37.650932 26.00000000
8.464218 34.316006 -36.700104 26.00000000
3.444733 33.967304 -47.145863 26.00000000
5.229373 34.091282 -43.315395 26.00000000
2.181503 33.879547 -0.532854 26.00000000
4.994528 34.074966 -2.217993 26.00000000
7.296374 34.234875 -61.087597 26.00000000
0.946322 33.793743 -47.073212 26.00000000
6.498503 34.179447 -6.409862 26.00000000
4.776016 34.059788 -3.391300 26.00000000
2.656856 33.912571 -25.768297 26.00000000
8.329249 34.306629 -38.936443 26.00000000
2.449433 33.898163 -49.221153 26.00000000
4.027797 34.007809 -22.588390 26.00000000
7.936213 34.279324 -26.255741 26.00000000
8.567223 34.323158 -7.217731 26.00000000
1.255407 33.815212 -31.677826 26.00000000
6.983355 34.213131 -45.060802 26.00000000
3.566468 33.975761 -44.049957 26.00000000
6.194686 34.158340 -55.093250 26.00000000
4.823752 34.063103 -37.181789 26.00000000
8.001433 34.283855 -57.141766 26.00000000
7.074429 34.219456 -38.290329 26.00000000
6.452842 34.176277 -9.165865 26.00000000
8.390025 34.310848 -2.464616 26.00000000
7.456321 34.245987 -15.475938 26.00000000
4.698604 34.054409 -9.112225 26.00000000
7.856092 34.273758 -29.012571 26.00000000
6.705540 34.193829 -46.889156 26.00000000
0.958749 33.794605 -42.830074 26.00000000
7.679274 34.261475 -51.556599 26.00000000
4.037831 34.008507 -59.593132 26.00000000
0.922690 33.792099 -20.034849 26.00000000
1.169249 33.809227 -58.293530 26.00000000
1.053200 33.801167 -48.991341 26.00000000
1.584141 33.838051 -27.898558 26.00000000
6.030781 34.146954 -21.014709 26.00000000
1.293823 33.817883 -22.620687 26.00000000
1.985158 33.865910 -52.396500 26.00000000
5.627172 34.118916 -34.865082 26.00000000
8.297211 34.304401 -21.837120 26.00000000
2.675906 33.913895 -10.556496 26.00000000
1.606216 33.839584 -53.094494 26.00000000
0.977983 33.795940 -3.134881 26.00000000
1.704209 33.846394 -61.087414 26.00000000
8.514536 34.319500 0.319993 26.00000000
2.989905 33.935707 -38.131866 26.00000000
6.912216 34.208187 -20.032982 26.00000000
7.045285 34.217430 -36.119087 26.00000000
3.691311 33.984432 -19.547070 26.00000000
1.797409 33.852867 -22.123688 26.00000000
1.090209 33.803738 -14.814636 26.00000000
7.403848 34.242340 3.861486 26.00000000
3.711302 33.985825 -47.741646 26.00000000
5.428664 34.105125 -8.921322 26.00000000
5.511898 34.110909 -7.856235 26.00000000
2.798925 33.922440 -27.816254 26.00000000
4.035711 34.008358 -16.822067 26.00000000
1.201980 33.811501 -39.770367 26.00000000
7.897532 34.276638 -22.509930 26.00000000
5.625396 34.118793 -54.724060 26.00000000
1.936068 33.862499 -22.810627 26.00000000
1.576798 33.837540 -7.573532 26.00000000
2.085120 33.872852 -32.779892 26.00000000
8.513828 34.319450 -49.045788 26.00000000
6.286462 34.164719 -55.965187 26.00000000
6.138253 34.154423 -54.449913 26.00000000
6.885862 34.206356 -58.325165 26.00000000
5.813351 34.131851 -12.579857 26.00000000
2.103114 33.874104 -1.116755 26.00000000
8.044240 34.286831 -35.431553 26.00000000
3.430475 33.966312 -5.594275 26.00000000
7.103489 34.221478 3.060457 26.00000000
8.572349 34.323517 -22.565254 26.00000000
2.401569 33.894836 -34.833473 26.00000000
3.136031 33.945858 -4.172035 26.00000000
5.058629 34.079422 -32.164459 26.00000000
5.449381 34.106567 -26.824654 26.00000000
2.559423 33.905804 -28.391867 26.00000000
7.537899 34.251656 -10.231084 26.00000000
4.642564 34.050518 -8.391206 26.00000000
5.970987 34.142799 0.149122 26.00000000
4.189949 34.019073 -37.778088 26.00000000
2.276629 33.886158 -60.824303 26.00000000
0.930885 33.792667 -43.398232 26.00000000
2.743556 33.918594 -29.721891 26.00000000
6.975761 34.212601 -33.048054 26.00000000
0.974545 33.795704 -4.845810 26.00000000
6.198278 34.158592 -47.946526 26.00000000
7.487970 34.248184 -16.130758 26.00000000
5.851030 34.134468 -45.932323 26.00000000
8.455927 34.315430 -45.197838 26.00000000
1.551968 33.835815 -17.537937 26.00000000
1.249629 33.814812 -5.769772 26.00000000
5.375537 34.101437 -38.238056 26.00000000
2.682210 33.914333 -20.097889 26.00000000
8.395117 34.311203 -57.660576 26.00000000
4.626835 34.049423 -16.481544 26.00000000
4.864409 34.065929 -58.687679 26.00000000
3.355142 33.961082 -22.384317 26.00000000
6.485009 34.178509 -45.319942 26.00000000
6.040754 34.147648 -25.164686 26.00000000
8.366528 34.309219 -46.302998 26.00000000
7.306118 34.235554 -59.505295 26.00000000
2.096694 33.873657 -10.009744 26.00000000
7.315169 34.236179 -24.609781 26.00000000
5.282466 34.094971 -49.784222 26.00000000
6.066972 34.149467 -56.863186 26.00000000
2.315417 33.888851 -36.075821 26.00000000
7.476938 34.247417 -54.206306 26.00000000
5.214370 34.090240 -35.497440 26.00000000
5.272603 34.094284 -55.787598 26.00000000
6.861549 34.204666 -1.975348 26.00000000
8.385404 34.310528 -29.359482 26.00000000
7.646249 34.259182 -13.486339 26.00000000
5.833822 34.133274 -38.631180 26.00000000
5.249870 34.092705 3.415491 26.00000000
7.438194 34.244728 -41.274651 26.00000000
2.063547 33.871353 -30.072321 26.00000000
4.547023 34.043880 -48.351040 26.00000000
3.564159 33.975601 -17.812811 26.00000000
1.915292 33.861053 -38.250526 26.00000000
4.521037 34.042076 -33.473324 26.00000000
7.838913 34.272564 -60.925171 26.00000000
5.625042 34.118771 -59.728554 26.00000000
1.917130 33.861183 -29.174656 26.00000000
2.570365 33.906563 -30.420267 26.00000000
2.910263 33.930176 -3.579673 26.00000000
5.610777 34.117779 -48.935726 26.00000000
4.758008 34.058537 -41.929287 26.00000000
4.712740 34.055393 0.804126 26.00000000
2.687687 33.914715 -35.367729 26.00000000
8.190558 34.296993 -11.106991 26.00000000
4.316660 34.027878 -15.254494 26.00000000
1.689155 33.845345 -34.744877 26.00000000
0.918915 33.791840 -45.814861 26.00000000
3.366375 33.961861 -39.578564 26.00000000
5.820023 34.132313 2.066994 26.00000000
1.843037 33.856037 -57.692825 26.00000000
1.259834 33.815521 -35.360630 26.00000000
1.006073 33.797894 -57.498672 26.00000000
7.690234 34.262238 -30.367977 26.00000000
3.259704 33.954453 -25.616669 26.00000000
6.710207 34.194153 -60.670830 26.00000000
2.442894 33.897709 -7.598276 26.00000000
5.542608 34.113041 -28.360498 26.00000000
2.298018 33.887642 -41.200016 26.00000000
4.292288 34.026184 -48.963894 26.00000000
5.746488 34.127205 -57.341316 26.00000000
2.684870 33.914516 -55.975952 26.00000000
7.703536 34.263161 -24.078960 26.00000000
4.881285 34.067101 -21.605303 26.00000000
2.193972 33.880417 -30.865335 26.00000000
8.443261 34.314548 -5.469971 26.00000000
2.068398 33.871693 -3.418848 26.00000000
7.611556 34.256771 -32.559742 26.00000000
1.635209 33.841599 -18.412687 26.00000000
6.118588 34.153053 -29.757795 26.00000000
7.769080 34.267715 -52.171886 26.00000000
7.988878 34.282982 -50.044746 26.00000000
6.896876 34.207123 -30.319021 26.00000000
3.855659 33.995850 -18.429684 26.00000000
1.600747 33.839203 1.029281 26.00000000
5.919207 34.139202 -41.967117 26.00000000
3.983156 34.004707 -46.153004 26.00000000
7.858386 34.273918 -33.998085 26.00000000
4.222247 34.021317 -36.007626 26.00000000
4.315135 34.027771 -56.501366 26.00000000
1.630020 33.841236 -16.937765 26.00000000
6.483928 34.178436 -22.781715 26.00000000
4.955656 34.072266 -19.271889 26.00000000
4.022454 34.007439 -25.640627 26.00000000
5.641424 34.119907 -41.199715 26.00000000
2.983936 33.935291 -26.479063 26.00000000
3.070047 33.941277 -32.192551 26.00000000
2.566652 33.906303 -16.290257 26.00000000
2.846130 33.925720 -60.531029 26.00000000
1.018498 33.798756 -34.552914 26.00000000
4.329837 34.028793 -55.775360 26.00000000
2.823389 33.924141 -51.465832 26.00000000
5.128602 34.084282 -19.882433 26.00000000
3.690869 33.984402 -42.874645 26.00000000
6.157153 34.155735 -35.088188 26.00000000
4.746536 34.057739 -17.040096 26.00000000
8.417846 34.312782 -9.848547 26.00000000
7.622740 34.257545 -14.563165 26.00000000
4.367602 34.031414 3.069836 26.00000000
4.192977 34.019283 -21.732973 26.00000000
1.333249 33.820621 -13.292804 26.00000000
7.143970 34.224289 -43.855568 26.00000000
1.300395 33.818340 -38.716927 26.00000000
3.575574 33.976395 -13.564917 26.00000000
5.897394 34.137688 -45.052967 26.00000000
8.437160 34.314125 -43.552734 26.00000000
6.306169 34.166084 2.522970 26.00000000
6.428383 34.174576 -50.173878 26.00000000
3.025480 33.938179 -6.250651 26.00000000
5.168142 34.087029 -40.688564 26.00000000
0.945103 33.793655 -26.789509 26.00000000
5.900580 34.137909 -18.611183 26.00000000
1.317832 33.819550 -1.472598 26.00000000
3.006120 33.936832 -6.884177 26.00000000
2.890673 33.928814 -39.161461 26.00000000
3.311252 33.958031 -16.006445 26.00000000
1.327189 33.820202 -55.924931 26.00000000
5.725338 34.125736 -10.884414 26.00000000
7.068089 34.219017 -14.189092 26.00000000
6.754153 34.197208 -44.433910 26.00000000
1.590339 33.838482 -47.635426 26.00000000
3.355281 33.961090 -59.306690 26.00000000
7.293875 34.234699 -35.120758 26.00000000
5.405423 34.103512 -25.450535 26.00000000
3.487195 33.970253 -50.526829 26.00000000
1.395249 33.824928 -0.880471 26.00000000
2.033437 33.869263 -60.028347 26.00000000
5.156899 34.086246 -16.283150 26.00000000
3.877823 33.997391 -39.093765 26.00000000
8.553548 34.322208 -6.205399 26.00000000
2.820814 33.923962 -47.227943 26.00000000
2.840544 33.925331 0.063082 26.00000000
7.846482 34.273090 -47.946335 26.00000000
6.307808 34.166199 -12.924849 26.00000000
1.997781 33.866787 -55.261662 26.00000000
3.265959 33.954884 -30.813454 26.00000000
4.599831 34.047546 -47.803104 26.00000000
1.345963 33.821503 -6.735162 26.00000000
4.485103 34.039577 -9.924234 26.00000000
3.508875 33.971760 2.293305 26.00000000
4.904978 34.068748 -7.880209 26.00000000
5.064201 34.079807 -34.420498 26.00000000
3.931628 34.001129 -23.642342 26.00000000
7.890470 34.276146 -16.667673 26.00000000
5.962813 34.142235 -27.790634 26.00000000
6.598900 34.186420 -39.651344 26.00000000
2.372508 33.892818 -31.727846 26.00000000
3.519274 33.972485 -30.284491 26.00000000
8.479993 34.317101 -14.904868 26.00000000
3.450255 33.967690 -16.612093 26.00000000
6.548499 34.182922 -15.775552 26.00000000
5.251120 34.092793 -20.425636 26.00000000
3.747406 33.988331 -55.409500 26.00000000
1.618942 33.840469 -5.187483 26.00000000
6.010482 34.145546 -40.485767 26.00000000
5.226801 34.091103 -18.361340 26.00000000
7.064104 34.218739 -27.304420 26.00000000
8.418183 34.312805 2.131336 26.00000000
4.969215 34.073208 -34.956234 26.00000000
3.903512 33.999176 -30.827200 26.00000000
5.936894 34.140434 -37.227909 26.00000000
2.753223 33.919266 -43.396252 26.00000000
2.292693 33.887272 -13.535333 26.00000000
6.554915 34.183365 -2.568783 26.00000000
6.797314 34.200207 -47.747128 26.00000000
8.537917 34.321125 -54.416519 26.00000000
6.286558 34.164722 3.499763 26.00000000
7.213290 34.229103 -55.696247 26.00000000
1.808146 33.853611 -8.640571 26.00000000
4.347107 34.029991 -6.329144 26.00000000
3.053287 33.940109 -13.717049 26.00000000
2.424069 33.896400 -57.287117 26.00000000
2.372655 33.892830 -12.806686 26.00000000
2.638000 33.911263 1.968302 26.00000000
2.193499 33.880383 -9.179240 26.00000000
2.061018 33.871178 -21.384001 26.00000000
4.601449 34.047661 -60.512417 26.00000000
8.205711 34.298046 -27.498125 26.00000000
1.473587 33.830372 -29.820387 26.00000000
2.441440 33.897606 -54.463539 26.00000000
3.684629 33.983971 1.539906 26.00000000
6.222291 34.160259 -29.013973 26.00000000
3.972501 34.003967 -12.735878 26.00000000
4.876795 34.066788 -13.770751 26.00000000
8.306349 34.305038 -37.251183 26.00000000
7.549433 34.252457 -44.888802 26.00000000
1.031949 33.799690 -51.034004 26.00000000
4.395062 34.033321 -40.542603 26.00000000
5.455678 34.107002 -22.956150 26.00000000
7.716947 34.264091 -36.132053 26.00000000
5.305076 34.096542 -45.093910 26.00000000
5.066483 34.079967 -5.650625 26.00000000
6.653515 34.190216 -59.682011 26.00000000
1.740448 33.848907 -51.132095 26.00000000
4.432906 34.035954 -57.804314 26.00000000
3.284574 33.956177 2.983711 26.00000000
2.791252 33.921909 -48.657211 26.00000000
2.219171 33.882168 -40.465820 26.00000000
4.147895 34.016151 -17.407564 26.00000000
5.227716 34.091167 -1.702498 26.00000000
0.915797 33.791622 -44.264927 26.00000000
4.346497 34.029949 -13.336432 26.00000000
8.578195 34.323921 -33.855152 26.00000000
6.425117 34.174351 -38.359215 26.00000000
1.838923 33.855751 -27.199358 26.00000000
5.706589 34.124435 -56.327778 26.00000000
7.403888 34.242344 -0.827980 26.00000000
6.121169 34.153233 -34.446522 26.00000000
7.049239 34.217709 -6.918481 26.00000000
7.109193 34.221870 -20.686659 26.00000000
4.479210 34.039169 -27.548450 26.00000000
3.111427 33.944149 -52.445099 26.00000000
6.408693 34.173210 -42.743309 26.00000000
6.362338 34.169987 -37.735764 26.00000000
2.245936 33.884026 -51.790215 26.00000000
7.563057 34.253403 -17.845507 26.00000000
5.344029 34.099247 -27.856028 26.00000000
1.107867 33.804962 -40.980270 26.00000000
3.220667 33.951740 -17.350040 26.00000000
6.924201 34.209023 -38.831562 26.00000000
3.483588 33.970005 -45.713898 26.00000000
2.453506 33.898445 -47.681149 26.00000000
2.816709 33.923676 -14.858644 26.00000000
6.555064 34.183376 -13.751074 26.00000000
1.792304 33.852512 -20.171286 26.00000000
1.100017 33.804420 -33.013470 26.00000000
6.278925 34.164192 -11.009840 26.00000000
2.407881 33.895275 -2.291410 26.00000000
2.943815 33.932507 -58.558388 26.00000000
5.031314 34.077522 -23.426319 26.00000000
4.774753 34.059700 0.114241 26.00000000
1.470552 33.830158 -42.316586 26.00000000
1.102711 33.804607 -28.281363 26.00000000
4.003126 34.006096 -14.644497 26.00000000
7.184007 34.227070 -11.529670 26.00000000
4.281501 34.025433 -30.256777 26.00000000
5.413437 34.104069 -30.389917 26.00000000
8.521877 34.320011 -16.753607 26.00000000
7.612229 34.256817 -8.999612 26.00000000
7.865960 34.274445 -56.493359 26.00000000
6.410815 34.173355 -49.155888 26.00000000
6.521758 34.181065 -31.041887 26.00000000
5.173426 34.087395 -15.556617 26.00000000
5.893636 34.137428 -3.485589 26.00000000
2.594974 33.908272 -11.236139 26.00000000
4.823336 34.063076 -14.696081 26.00000000
8.327401 34.306499 -8.780754 26.00000000
2.862313 33.926846 -33.311092 26.00000000
0.985207 33.796444 -47.856468 26.00000000
2.432425 33.896980 2.909803 26.00000000
7.210992 34.228943 -42.372814 26.00000000
7.862961 34.274235 -12.536992 26.00000000
7.047794 34.217606 -14.816979 26.00000000
2.634265 33.911003 -49.878124 26.00000000
2.047528 33.870243 -10.728655 26.00000000
7.664194 34.260426 3.326361 26.00000000
6.297453 34.165482 -12.299989 26.00000000
4.678417 34.053009 -56.925556 26.00000000
5.697556 34.123806 -21.623920 26.00000000
8.490767 34.317848 -4.735138 26.00000000
1.015185 33.798527 -32.208996 26.00000000
2.788141 33.921692 -41.696133 26.00000000
7.571926 34.254017 1.432571 26.00000000
8.047040 34.287022 -0.027782 26.00000000
6.521656 34.181057 -17.730892 26.00000000
7.911207 34.277588 -11.634005 26.00000000
2.235992 33.883335 -56.588612 26.00000000
8.065741 34.288322 -1.883453 26.00000000
4.262100 34.024086 -43.644791 26.00000000
6.847302 34.203678 -56.296619 26.00000000
5.633451 34.119354 -39.376286 26.00000000
6.474135 34.177753 -18.415819 26.00000000
7.503142 34.249241 -19.392654 26.00000000
4.178209 34.018257 -36.698246 26.00000000
2.014433 33.867943 -36.840214 26.00000000
1.429441 33.827305 -4.536513 26.00000000
2.048882 33.870335 2.335283 26.00000000
8.489842 34.317783 -55.639618 26.00000000
3.631575 33.980286 -34.429562 26.00000000
4.905724 34.068798 -53.190063 26.00000000
6.385757 34.171616 -7.050047 26.00000000
3.276917 33.955647 -20.406597 26.00000000
7.124305 34.222923 -39.457302 26.00000000
4.113229 34.013744 -47.353889 26.00000000
6.021403 34.146305 -8.537021 26.00000000
6.655554 34.190357 -21.190744 26.00000000
8.265161 34.302177 -29.924957 26.00000000
3.992423 34.005352 -10.643402 26.00000000
3.107655 33.943890 -14.298495 26.00000000
2.454406 33.898506 -37.758694 26.00000000
8.282293 34.303368 -23.670877 26.00000000
3.962438 34.003269 -33.117802 26.00000000
6.383028 34.171425 -9.767921 26.00000000
5.023239 34.076962 -41.263428 26.00000000
5.475462 34.108379 -4.468693 26.00000000
2.006095 33.867363 -47.157497 26.00000000
8.535544 34.320957 -28.128040 26.00000000
8.344721 34.307701 -60.354904 26.00000000
5.563146 34.114468 -15.183330 26.00000000
3.727178 33.986927 -3.555610 26.00000000
0.992103 33.796921 -30.946432 26.00000000
6.076648 34.150143 -51.122112 26.00000000
6.303309 34.165890 -28.333208 26.00000000
7.008748 34.214893 -42.962185 26.00000000
6.702957 34.193649 -34.864140 26.00000000
4.530141 34.042706 -44.370285 26.00000000
8.227532 34.299561 -17.923935 26.00000000
6.748583 34.196819 -29.581409 26.00000000
4.880254 34.067028 -43.876392 26.00000000
1.822385 33.854603 -12.247837 26.00000000
1.532724 33.834480 -43.093300 26.00000000
6.136213 34.154282 -43.484272 26.00000000
2.324497 33.889481 -44.390137 26.00000000
3.907829 33.999474 -41.697762 26.00000000
3.039734 33.939171 -31.433949 26.00000000
6.426187 34.174423 -51.777840 26.00000000
1.201593 33.811474 -27.287273 26.00000000
6.938980 34.210049 -5.186804 26.00000000
1.031564 33.799664 -14.196786 26.00000000
3.200287 33.950321 -28.485535 26.00000000
4.173822 34.017956 -53.489548 26.00000000
4.419185 34.035000 -15.852880 26.00000000
5.233657 34.091579 2.060638 26.00000000
6.408094 34.173168 -43.976139 26.00000000
3.378104 33.962677 -51.621899 26.00000000
1.638842 33.841850 1.564906 26.00000000
2.583845 33.907497 -21.240849 26.00000000
1.052482 33.801117 -53.235725 26.00000000
7.719097 34.264240 -39.641487 26.00000000
7.228151 34.230137 -22.730667 26.00000000
6.478282 34.178043 -3.256282 26.00000000
5.894970 34.137520 -7.282768 26.00000000
6.608990 34.187122 -17.140575 26.00000000
5.760787 34.128201 0.907335 26.00000000
0.947179 33.793800 -0.249852 26.00000000
3.604832 33.978428 -32.645058 26.00000000
7.013832 34.215248 -57.411755 26.00000000
3.337989 33.959888 -41.466984 26.00000000
3.929954 34.001011 -58.886585 26.00000000
5.559063 34.114185 -50.767307 26.00000000
3.771829 33.990028 -6.104730 26.00000000
2.572388 33.906704 -22.934072 26.00000000
1.917958 33.861240 -39.596725 26.00000000
7.732719 34.265186 -44.336567 26.00000000
0.929486 33.792572 -21.440228 26.00000000
0.915703 33.791615 -9.252468 26.00000000
6.215351 34.159779 -21.855330 26.00000000
7.753957 34.266663 -42.849537 26.00000000
1.079147 33.802971 -4.007026 26.00000000
1.124443 33.806114 -26.083679 26.00000000
7.266243 34.232780 -49.099346 26.00000000
4.703579 34.054756 -22.845062 26.00000000
5.200429 34.089272 -51.343952 26.00000000
6.817125 34.201584 0.133442 26.00000000
4.243408 34.022789 -52.253433 26.00000000
3.830457 33.994099 -57.500046 26.00000000
3.177229 33.948723 -23.113440 26.00000000
2.265791 33.885403 -50.848286 26.00000000
1.811401 33.853840 -37.493809 26.00000000
2.725421 33.917336 -5.458730 26.00000000
5.002613 34.075527 1.336853 26.00000000
4.146564 34.016060 -8.051138 26.00000000
8.366818 34.309238 -44.229961 26.00000000
3.738342 33.987701 -48.514385 26.00000000
3.900804 33.998985 -49.428734 26.00000000
7.038004 34.216927 -53.595421 26.00000000
1.151078 33.807964 -12.357225 26.00000000
8.153388 34.294411 -58.297348 26.00000000
2.661233 33.912876 -22.010374 26.00000000
4.965344 34.072941 -24.763554 26.00000000
8.519172 34.319820 -36.031513 26.00000000
0.970111 33.795395 -23.318209 26.00000000
6.052102 34.148438 -23.421478 26.00000000
8.505510 34.318874 -38.390858 26.00000000
2.406950 33.895210 -14.148860 26.00000000
7.330908 34.237274 -1.457255 26.00000000
5.417444 34.104347 -60.975212 26.00000000
4.423734 34.035316 -32.349846 26.00000000
3.278094 33.955727 -34.924824 26.00000000
6.770451 34.198341 -22.234570 26.00000000
8.083258 34.289539 -2.981555 26.00000000
4.813065 34.062363 -40.121906 26.00000000
2.907606 33.929993 -40.940964 26.00000000
8.460453 34.315742 -41.937824 26.00000000
2.118598 33.875179 -6.950567 26.00000000
5.908662 34.138474 -22.390575 26.00000000
4.340194 34.029510 -35.337170 26.00000000
5.373887 34.101322 -26.184237 26.00000000
4.648417 34.050922 -54.842697 26.00000000
7.604328 34.256268 -34.589264 26.00000000
8.251742 34.301243 -7.759025 26.00000000
1.407675 33.825790 0.224826 26.00000000
4.403158 34.033886 -17.995607 26.00000000
1.561489 33.836475 -19.434534 26.00000000
5.276109 34.094528 -46.334942 26.00000000
3.266040 33.954891 -57.688637 26.00000000
3.797084 33.991783 -4.890233 26.00000000
8.453767 34.315277 3.141203 26.00000000
1.566997 33.836861 -0.357433 26.00000000
5.603772 34.117290 -52.862408 26.00000000
7.395265 34.241745 -12.883602 26.00000000
7.066981 34.218941 -60.064941 26.00000000
5.292185 34.095646 -11.326507 26.00000000
1.765973 33.850681 -13.980030 26.00000000
2.236057 33.883339 -24.425730 26.00000000
1.663355 33.843552 -33.192867 26.00000000
7.806656 34.270325 -42.168797 26.00000000
7.921059 34.278271 -26.940931 26.00000000
3.700491 33.985073 -35.699249 26.00000000
2.921460 33.930954 -56.583607 26.00000000
6.149967 34.155235 -59.176506 26.00000000
8.519832 34.319866 -11.764475 26.00000000
4.705350 34.054878 -29.005800 26.00000000
7.896412 34.276558 0.785692 26.00000000
6.913937 34.208305 -23.206371 26.00000000
5.868793 34.135700 -47.409435 26.00000000
3.343350 33.960262 -53.776840 26.00000000
3.115448 33.944427 -53.249634 26.00000000
6.648432 34.189861 -0.808947 26.00000000
4.199188 34.019714 -3.144533 26.00000000
4.389536 34.032940 1.326726 26.00000000
6.955033 34.211163 -25.362444 26.00000000
8.103327 34.290936 -10.293963 26.00000000
5.304546 34.096504 0.283861 26.00000000
6.016110 34.145935 -31.661783 26.00000000
8.101557 34.290810 -41.441097 26.00000000
1.625930 33.840954 -23.396837 26.00000000
4.355610 34.030582 -50.393105 26.00000000
3.412175 33.965042 -24.938103 26.00000000
2.955980 33.933350 -54.869137 26.00000000
2.347122 33.891052 -19.354572 26.00000000
2.024920 33.868671 -42.690445 26.00000000
4.617539 34.048779 -31.541536 26.00000000
1.457220 33.829231 -32.599281 26.00000000
4.779114 34.060001 -42.616760 26.00000000
5.685948 34.123001 -31.040703 26.00000000
2.668466 33.913380 -0.992455 26.00000000
6.270039 34.163574 -57.950150 26.00000000
4.327444 34.028625 -41.194904 26.00000000
5.279408 34.094757 -16.894636 26.00000000
5.853620 34.134647 -0.598923 26.00000000
1.982359 33.865715 -44.968643 26.00000000
8.468939 34.316334 -48.420795 26.00000000
4.064513 34.010361 -8.814683 26.00000000
3.124485 33.945057 -18.293175 26.00000000
2.182472 33.879616 0.206362 26.00000000
7.431010 34.244228 -51.046745 26.00000000
6.518090 34.180809 -24.517921 26.00000000
5.032595 34.077614 -6.231191 26.00000000
1.498924 33.832130 -40.536606 26.00000000
4.141748 34.015724 2.477487 26.00000000
8.045317 34.286903 -4.342329 26.00000000
8.122311 34.292252 -13.079934 26.00000000
1.658542 33.843220 -9.478049 26.00000000
5.139852 34.085064 -33.771332 26.00000000
7.199728 34.228161 -45.694733 26.00000000
1.908706 33.860600 -34.190601 26.00000000
6.992177 34.213741 -18.991648 26.00000000
7.471617 34.247047 0.291410 26.00000000
4.123613 34.014465 -46.714314 26.00000000
6.444337 34.175686 -52.762089 26.00000000
2.504938 33.902020 -42.169018 26.00000000
8.443137 34.314541 -25.874079 26.00000000
