-21.424965 6.490933 -4.213570 23.00000000
-21.353579 5.557601 -34.295544 23.00000000
-21.010593 1.073332 -36.465405 23.00000000
-21.117111 2.465989 -19.190857 23.00000000
-21.053068 1.628658 -30.632477 23.00000000
-21.121374 2.521717 -60.369450 23.00000000
-21.461615 6.970108 -45.648411 23.00000000
-21.395052 6.099839 -19.650648 23.00000000
-21.042795 1.494355 -11.150120 23.00000000
-21.245308 4.142058 -34.133953 23.00000000
-21.070051 1.850705 -5.672806 23.00000000
-21.531055 7.877990 -0.623917 23.00000000
-21.121746 2.526572 -50.523911 23.00000000
-21.014576 1.125404 -37.129398 23.00000000
-21.101665 2.264042 -15.230624 23.00000000
-21.291309 4.743486 -48.267956 23.00000000
-21.014149 1.119807 -26.021124 23.00000000
-21.055492 1.660361 -39.343357 23.00000000
-21.322287 5.148494 -11.374256 23.00000000
-21.083897 2.031713 -51.252853 23.00000000
-21.131147 2.649487 -35.350544 23.00000000
-21.241081 4.086800 1.191907 23.00000000
-21.316160 5.068407 2.686752 23.00000000
-21.463362 6.992940 -29.755688 23.00000000
-21.105442 2.313408 -15.946479 23.00000000
-21.168598 3.139148 2.549571 23.00000000
-21.353580 5.557644 -19.374714 23.00000000
-21.032280 1.356880 -38.287525 23.00000000
-21.344208 5.435092 -57.801727 23.00000000
-21.393654 6.081558 -36.063744 23.00000000
-21.375280 5.841358 -0.596849 23.00000000
-21.536394 7.947779 -17.119150 23.00000000
-21.459686 6.944879 -1.216786 23.00000000
-21.273117 4.505639 -30.883762 23.00000000
-21.163216 3.068748 -14.734780 23.00000000
-21.126490 2.588584 -51.280426 23.00000000
-21.366854 5.731160 -52.592354 23.00000000
-21.367355 5.737720 -11.609912 23.00000000
-21.067963 1.823401 -46.431446 23.00000000
-21.054873 1.652265 -41.166634 23.00000000
-21.134954 2.699276 -2.506079 23.00000000
-21.161861 3.051064 -41.117767 23.00000000
-21.031818 1.350847 -11.950384 23.00000000
-21.193624 3.466340 -3.341142 23.00000000
-20.983734 0.722167 -0.364522 23.00000000
-21.461046 6.962678 -7.389727 23.00000000
-21.508642 7.584961 -14.722597 23.00000000
-21.336920 5.339806 -61.095123 23.00000000
-20.920612 -0.103103 -56.312141 23.00000000
-21.036894 1.417199 -3.575767 23.00000000
-21.106724 2.330165 -25.638243 23.00000000
-21.497150 7.434710 -19.180862 23.00000000
-20.926977 -0.019873 -38.098488 23.00000000
-21.184204 3.343171 -32.545769 23.00000000
-21.170351 3.162045 -14.032500 23.00000000
-21.066912 1.809661 -44.167000 23.00000000
-21.515295 7.671933 -11.269737 23.00000000
-21.120619 2.511834 -59.573334 23.00000000
-21.056921 1.679043 -36.383385 23.00000000
-21.437605 6.656184 -12.530101 23.00000000
-21.505556 7.544602 -49.959824 23.00000000
-21.317833 5.090266 -16.539036 23.00000000
-21.252125 4.231185 -17.143150 23.00000000
-21.185606 3.361495 -37.433071 23.00000000
-21.124735 2.565655 -55.777531 23.00000000
-21.386101 5.982819 -46.128071 23.00000000
-21.356403 5.594550 -17.776690 23.00000000
-21.423668 6.473962 -11.788875 23.00000000
-21.254448 4.261544 -46.391418 23.00000000
-20.928305 -0.002524 2.963358 23.00000000
-21.478819 7.195034 -47.088230 23.00000000
-21.529533 7.858081 -8.324861 23.00000000
-21.191271 3.435557 -9.487034 23.00000000
-21.139639 2.760507 -10.732240 23.00000000
-21.061192 1.734858 1.844249 23.00000000
-21.262293 4.364119 -55.180420 23.00000000
-20.989397 0.796213 -32.818710 23.00000000
-21.317492 5.085811 -31.510277 23.00000000
-21.176403 3.241173 -35.287945 23.00000000
-20.940834 0.161291 -1.155616 23.00000000
-21.531530 7.884185 1.304554 23.00000000
-21.446304 6.769935 -39.973160 23.00000000
-20.955709 0.355762 -10.923441 23.00000000
-20.917582 -0.142729 -4.000190 23.00000000
-21.206827 3.638960 1.635759 23.00000000
-21.349476 5.503956 -44.782433 23.00000000
-21.087646 2.080756 -31.727165 23.00000000
-21.506662 7.559059 -3.457937 23.00000000
-21.309278 4.978424 -9.973752 23.00000000
-21.033384 1.371324 -51.071907 23.00000000
-21.390055 6.034503 -60.106030 23.00000000
-21.368559 5.753459 -24.448097 23.00000000
-21.002453 0.966908 -3.162188 23.00000000
-21.056402 1.672254 -15.524366 23.00000000
-21.265322 4.403719 -24.515261 23.00000000
-21.164064 3.079851 -40.184734 23.00000000
-21.497324 7.436976 -31.112717 23.00000000
-21.204317 3.606126 -54.160873 23.00000000
-21.391052 6.047550 -11.082282 23.00000000
-21.295162 4.793867 1.950513 23.00000000
-21.442993 6.726641 -60.374294 23.00000000
-21.381962 5.928692 -18.429089 23.00000000
-21.114843 2.436325 -14.544644 23.00000000
-21.040337 1.462219 -5.150394 23.00000000
-21.067091 1.812004 -23.226728 23.00000000
-21.340881 5.391597 -40.264565 23.00000000
-21.319342 5.109999 -27.584429 23.00000000
-21.438995 6.674383 -17.190744 23.00000000
-21.095957 2.189393 -53.931149 23.00000000
-21.014101 1.119204 -40.246113 23.00000000
-21.519258 7.723747 -22.457726 23.00000000
-21.494326 7.397782 -4.107997 23.00000000
-21.529802 7.861600 -34.894333 23.00000000
-21.389254 6.024046 -53.684303 23.00000000
-21.437593 6.656052 -30.271231 23.00000000
-21.224533 3.870453 -57.571110 23.00000000
-21.224100 3.864776 -31.576857 23.00000000
-21.053493 1.634230 -17.566656 23.00000000
-21.230877 3.953372 -37.185760 23.00000000
-21.136580 2.720524 -37.683922 23.00000000
-20.944944 0.215034 -7.310974 23.00000000
-20.957560 0.379958 -49.330399 23.00000000
-20.921621 -0.089892 -2.585747 23.00000000
-21.470398 7.084923 -37.508408 23.00000000
-21.528572 7.845537 -27.916277 23.00000000
-21.010664 1.074259 -30.917324 23.00000000
-21.284061 4.648721 -27.074543 23.00000000
-21.232269 3.971591 -34.894253 23.00000000
-21.425798 6.501829 -55.340034 23.00000000
-21.479416 7.202821 -38.163277 23.00000000
-21.145170 2.832819 -34.150330 23.00000000
-21.175451 3.228746 -55.675453 23.00000000
-21.378925 5.888990 -33.148758 23.00000000
-21.539612 7.989850 -41.934032 23.00000000
-21.243690 4.120916 -6.870197 23.00000000
-21.172781 3.193817 3.563205 23.00000000
-21.071011 1.863254 -24.356108 23.00000000
-21.169405 3.149680 -4.254593 23.00000000
-21.421919 6.451113 -52.354858 23.00000000
-20.990746 0.813839 1.263018 23.00000000
-21.347193 5.474114 -56.011204 23.00000000
-21.002050 0.961656 1.969058 23.00000000
-21.237867 4.044771 -35.681156 23.00000000
-21.270672 4.473658 -43.713181 23.00000000
-20.963606 0.459017 -44.122536 23.00000000
-21.443680 6.735600 -53.299446 23.00000000
-21.384750 5.965151 -8.888390 23.00000000
-21.000891 0.946474 -57.529572 23.00000000
-21.278103 4.570822 -36.694569 23.00000000
-20.992651 0.838750 -55.388969 23.00000000
-20.962429 0.443635 -27.943203 23.00000000
-21.198202 3.526176 -38.714626 23.00000000
-20.955175 0.348781 -4.904919 23.00000000
-21.369112 5.760698 -37.562302 23.00000000
-21.381681 5.925038 -58.873131 23.00000000
-20.996157 0.884579 -12.617032 23.00000000
-21.520403 7.738713 -24.072157 23.00000000
-21.282007 4.621882 -57.324570 23.00000000
-21.345287 5.449203 0.267766 23.00000000
-21.537695 7.964799 -5.529745 23.00000000
-21.208807 3.664833 -45.504642 23.00000000
-21.107315 2.337916 -31.083490 23.00000000
-21.211269 3.697036 -59.828899 23.00000000
-21.041327 1.475155 -47.126793 23.00000000
-21.184971 3.353190 -51.905396 23.00000000
-21.277620 4.564518 -38.969833 23.00000000
-21.179686 3.284077 -16.962458 23.00000000
-21.032642 1.361624 -18.376686 23.00000000
-21.519688 7.729365 -44.572517 23.00000000
-21.158010 3.000715 -18.942375 23.00000000
-21.531761 7.887225 -18.747356 23.00000000
-21.035122 1.394016 -56.965260 23.00000000
-20.978392 0.652335 2.836674 23.00000000
-21.391085 6.047982 -17.336704 23.00000000
-21.279646 4.590979 -29.186163 23.00000000
-21.216642 3.767267 -6.265528 23.00000000
-21.195311 3.488378 -44.795986 23.00000000
-21.426718 6.513858 -25.758314 23.00000000
-21.194420 3.476714 -42.610390 23.00000000
-21.439598 6.682252 -51.596912 23.00000000
-21.268532 4.445695 -32.681683 23.00000000
-21.526543 7.818989 -10.034467 23.00000000
-20.974663 0.603566 -41.926792 23.00000000
-21.393965 6.085618 -27.125200 23.00000000
-21.370953 5.784753 -36.706928 23.00000000
-20.920109 -0.109689 -40.998806 23.00000000
-21.495665 7.415275 -38.759693 23.00000000
-21.122505 2.536500 -28.284616 23.00000000
-21.225191 3.879048 -60.476398 23.00000000
-21.085705 2.055360 -2.492244 23.00000000
-20.955456 0.352463 -17.029558 23.00000000
-21.492178 7.369699 -7.929885 23.00000000
-20.926046 -0.032045 -34.924698 23.00000000
-21.518087 7.708453 -17.795483 23.00000000
-21.106236 2.323795 -24.948521 23.00000000
-21.131903 2.659352 -41.776794 23.00000000
-21.470549 7.086906 -13.757126 23.00000000
-21.289356 4.717943 -13.720140 23.00000000
-21.318054 5.093154 -14.255810 23.00000000
-21.322544 5.151856 -40.896908 23.00000000
-20.978872 0.658605 -20.577316 23.00000000
-21.043568 1.504444 -7.560528 23.00000000
-21.226112 3.891081 -10.529698 23.00000000
-21.104275 2.298156 -7.897435 23.00000000
-21.092543 2.144764 -52.763756 23.00000000
-21.444607 6.747729 -23.197475 23.00000000
-21.078560 1.961956 -18.040779 23.00000000
-21.492910 7.379272 -8.699524 23.00000000
-21.264309 4.390471 -54.074669 23.00000000
-21.086046 2.059838 -33.105972 23.00000000
-21.038342 1.436125 -52.913292 23.00000000
-20.983458 0.718566 -1.147728 23.00000000
-21.139547 2.759321 -1.274899 23.00000000
-21.514956 7.667500 3.090244 23.00000000
-21.065821 1.795394 -14.756969 23.00000000
-21.164335 3.083394 -59.644547 23.00000000
-21.361118 5.656190 -1.492003 23.00000000
-21.252033 4.229987 -59.416061 23.00000000
-20.989231 0.794040 -32.171227 23.00000000
-20.926243 -0.029475 -48.336018 23.00000000
-21.017744 1.166842 -14.592626 23.00000000
-21.473923 7.131007 -11.604681 23.00000000
-21.321999 5.144720 -45.525139 23.00000000
-21.530205 7.866859 -32.106903 23.00000000
-20.948643 0.263371 -44.661804 23.00000000
-20.956553 0.366798 -2.065911 23.00000000
-21.146551 2.850882 -36.568417 23.00000000
-21.439951 6.686859 -58.988838 23.00000000
-21.525778 7.808987 -20.207302 23.00000000
-20.971518 0.562441 -19.839888 23.00000000
-21.074812 1.912954 -43.543777 23.00000000
-21.193775 3.468305 -30.873575 23.00000000
-21.484701 7.271955 -53.912884 23.00000000
-21.538849 7.979871 -23.006468 23.00000000
-21.125687 2.578102 -7.307276 23.00000000
-21.252422 4.235059 -19.407707 23.00000000
-21.323952 5.170254 -38.861340 23.00000000
-21.487764 7.311992 -13.022955 23.00000000
-21.236193 4.022872 -54.603806 23.00000000
-21.271610 4.485951 -36.111057 23.00000000
-21.296400 4.810038 -49.553871 23.00000000
-21.210230 3.683423 -47.854324 23.00000000
-21.460676 6.957827 -31.426319 23.00000000
-21.081648 2.002322 -56.537067 23.00000000
-21.241257 4.089092 -21.994690 23.00000000
-21.537949 7.968121 -58.980835 23.00000000
-21.223776 3.860525 -36.545147 23.00000000
-21.417507 6.393435 -2.640407 23.00000000
-21.260460 4.340155 -27.658428 23.00000000
-21.287201 4.689779 -33.545135 23.00000000
-21.328184 5.225613 -35.773617 23.00000000
-21.303062 4.897151 -2.995968 23.00000000
-21.104460 2.300557 -1.651690 23.00000000
-21.159653 3.022183 -53.017086 23.00000000
-21.135204 2.702545 -55.152805 23.00000000
-21.470503 7.086299 -50.755253 23.00000000
-21.128241 2.611479 -18.158089 23.00000000
-21.358536 5.622430 -39.560284 23.00000000
-21.314362 5.044868 -4.410000 23.00000000
-21.465424 7.019886 -22.249163 23.00000000
-20.918859 -0.126023 -22.521774 23.00000000
-21.398523 6.145230 -34.545132 23.00000000
-21.384207 5.958056 -16.023621 23.00000000
-21.248489 4.183647 -11.103289 23.00000000
-21.513166 7.644105 -37.222324 23.00000000
-21.185959 3.366104 -46.770592 23.00000000
-21.292217 4.755362 -34.511116 23.00000000
-21.042889 1.495578 -29.779940 23.00000000
-20.975374 0.612870 -6.432562 23.00000000
-21.434340 6.613506 -10.588473 23.00000000
-21.229494 3.935305 -4.703819 23.00000000
-20.937237 0.114255 -32.076134 23.00000000
-21.538603 7.976654 -37.827660 23.00000000
-21.073771 1.899332 -59.277748 23.00000000
-21.018335 1.174573 -9.368131 23.00000000
-21.489704 7.337354 -60.185619 23.00000000
-21.078733 1.964227 -22.625311 23.00000000
-21.416731 6.383268 -6.268036 23.00000000
-21.312231 5.017020 -51.715916 23.00000000
-21.417524 6.393649 -27.663574 23.00000000
-21.499111 7.460343 -6.807543 23.00000000
-21.019331 1.187574 -47.659107 23.00000000
-21.449318 6.809319 -3.535262 23.00000000
-21.391239 6.049994 -8.169048 23.00000000
-20.984398 0.730844 -46.022060 23.00000000
-21.163595 3.073716 -28.456392 23.00000000
-21.532457 7.896319 -52.186649 23.00000000
-21.302052 4.883924 -46.980846 23.00000000
-21.212666 3.715278 -40.475548 23.00000000
-21.425280 6.495051 -56.741577 23.00000000
-21.046303 1.540196 -42.909389 23.00000000
-20.975325 0.612213 -40.858105 23.00000000
-21.056955 1.679479 -26.775482 23.00000000
-21.039394 1.449896 -24.976683 23.00000000
-21.156996 2.987425 -33.560169 23.00000000
-21.311562 5.008271 -18.649170 23.00000000
-21.215452 3.751724 -11.517140 23.00000000
-21.040735 1.467425 2.979776 23.00000000
-21.251593 4.224207 -1.204931 23.00000000
-21.021145 1.211285 -5.786167 23.00000000
-21.429640 6.552050 -16.159063 23.00000000
-21.098948 2.228509 -0.950130 23.00000000
-21.391144 6.048738 -23.667337 23.00000000
-20.959072 0.399752 -53.919167 23.00000000
-21.161053 3.040475 -25.953060 23.00000000
-20.921894 -0.086345 -25.257811 23.00000000
-21.232862 3.979328 -25.334955 23.00000000
-21.132956 2.673130 -5.359513 23.00000000
-21.495968 7.419245 -21.704725 23.00000000
-21.179295 3.278978 -30.331560 23.00000000
-21.199598 3.544427 -33.937859 23.00000000
-21.049791 1.585819 -8.167904 23.00000000
-20.921778 -0.087852 -51.928074 23.00000000
-21.192371 3.449946 -16.125917 23.00000000
-21.318851 5.103589 -9.212761 23.00000000
-21.251343 4.220956 -23.840925 23.00000000
-21.537514 7.962432 -55.399082 23.00000000
-21.434692 6.618120 -45.126900 23.00000000
-21.167509 3.124885 -4.933672 23.00000000
-21.337187 5.343287 -19.907801 23.00000000
-21.168289 3.135084 -46.188576 23.00000000
-21.006456 1.019241 -58.680798 23.00000000
-21.328266 5.226671 -36.482811 23.00000000
-20.998142 0.910545 -4.775660 23.00000000
-21.248472 4.183429 -49.547974 23.00000000
-21.532631 7.898580 -53.413815 23.00000000
-21.331509 5.269069 -33.368557 23.00000000
-21.085476 2.052361 -20.326138 23.00000000
-21.270853 4.476037 -31.957201 23.00000000
-21.369423 5.764767 -29.080872 23.00000000
-20.919670 -0.115418 -59.358082 23.00000000
-21.261305 4.351191 -16.069294 23.00000000
-21.033964 1.378892 1.028858 23.00000000
-21.042227 1.486907 -6.449213 23.00000000
-21.535091 7.930755 -25.909348 23.00000000
-21.079422 1.973222 -19.493971 23.00000000
-21.501619 7.493146 -12.125016 23.00000000
-21.148422 2.875353 -54.338600 23.00000000
-21.163816 3.076608 -50.798222 23.00000000
-21.153917 2.947202 -11.551894 23.00000000
-21.390011 6.033929 -5.490857 23.00000000
-21.494970 7.406198 -5.201793 23.00000000
-20.930899 0.031379 -32.759705 23.00000000
-20.956051 0.360243 -8.066142 23.00000000
-21.533350 7.907992 -8.984839 23.00000000
-21.259296 4.324933 -15.428365 23.00000000
-21.520905 7.745271 -47.969154 23.00000000
-21.363495 5.687248 -27.800043 23.00000000
-21.366783 5.730260 2.592522 23.00000000
-21.377001 5.863827 -55.320644 23.00000000
-21.287552 4.694363 -8.784996 23.00000000
-21.154530 2.955206 -23.884260 23.00000000
-21.312078 5.015041 1.403033 23.00000000
-21.348389 5.489763 -8.496543 23.00000000
-21.530491 7.870599 3.748026 23.00000000
-21.429892 6.555332 0.502197 23.00000000
-20.924345 -0.054292 -21.113415 23.00000000
-21.501673 7.493827 -25.218651 23.00000000
-21.060583 1.726914 -37.249313 23.00000000
-21.319532 5.112491 -28.878105 23.00000000
-21.501869 7.496406 -2.255852 23.00000000
-21.272049 4.491663 -38.103825 23.00000000
-21.410583 6.302916 -20.277763 23.00000000
-20.917913 -0.138376 -29.914597 23.00000000
-21.470879 7.091230 -10.242837 23.00000000
-21.461212 6.964834 -20.563061 23.00000000
-21.515102 7.669411 -56.455971 23.00000000
-21.328234 5.226252 -47.850662 23.00000000
-21.279797 4.592974 -7.806508 23.00000000
-21.230776 3.952050 -32.311661 23.00000000
-21.220140 3.813019 -14.709377 23.00000000
-21.461155 6.964088 -57.081566 23.00000000
-21.539455 7.987811 -12.485330 23.00000000
-21.472422 7.111402 -41.455742 23.00000000
-21.194469 3.477386 -34.574299 23.00000000
-21.438513 6.668069 -35.756584 23.00000000
-20.985010 0.738858 -15.237638 23.00000000
-21.358212 5.618174 -10.676475 23.00000000
-21.222979 3.850122 -16.581875 23.00000000
-21.171223 3.173429 -10.108566 23.00000000
-21.196363 3.502145 -27.876064 23.00000000
-21.287479 4.693406 -58.617661 23.00000000
-21.434673 6.617872 2.859532 23.00000000
-21.423870 6.476628 -28.412954 23.00000000
-21.498291 7.449621 -51.506001 23.00000000
-21.027273 1.291420 -1.496202 23.00000000
-21.298923 4.843026 -10.682165 23.00000000
-20.938814 0.134874 -61.019867 23.00000000
-21.493713 7.389756 -55.873997 23.00000000
-21.112698 2.408264 -40.394329 23.00000000
-21.017284 1.160816 -23.700264 23.00000000
-21.326809 5.207607 -5.601424 23.00000000
-21.483528 7.256608 0.318582 23.00000000
-21.122654 2.538451 -48.257496 23.00000000
-20.985035 0.739183 -49.780827 23.00000000
-21.308594 4.969454 -37.517544 23.00000000
-21.279943 4.594897 -53.261150 23.00000000
-20.932625 0.053966 -42.943539 23.00000000
-21.018957 1.182704 -31.708799 23.00000000
-21.107153 2.335785 -45.230984 23.00000000
-21.113052 2.412920 -42.747738 23.00000000
-20.922646 -0.076504 -53.543900 23.00000000
-21.307079 4.949683 -42.133343 23.00000000
-21.526525 7.818764 -41.016281 23.00000000
-21.036880 1.417035 -49.737255 23.00000000
-21.155178 2.963690 -8.224677 23.00000000
-21.096060 2.190755 -17.068914 23.00000000
-20.937557 0.118449 -50.005005 23.00000000
-21.403482 6.210063 -1.273596 23.00000000
-21.422848 6.463256 -13.893771 23.00000000
-21.294846 4.789719 -21.712418 23.00000000
-21.422531 6.459114 -14.509459 23.00000000
-21.098326 2.220359 -27.392885 23.00000000
-21.085205 2.048848 -28.734037 23.00000000
-21.479088 7.198556 -49.436150 23.00000000
-21.383759 5.952201 -57.307014 23.00000000
-20.938751 0.134059 -13.412060 23.00000000
-21.445812 6.763509 -0.314742 23.00000000
-21.423948 6.477656 -20.853523 23.00000000
-21.112404 2.404428 -41.160542 23.00000000
-21.148943 2.882155 -20.868687 23.00000000
-21.154514 2.955004 -58.258041 23.00000000
-21.085131 2.047850 -34.430031 23.00000000
-21.373730 5.821064 -26.622452 23.00000000
-21.472477 7.112117 -58.328575 23.00000000
-20.999538 0.928803 -22.090017 23.00000000
-20.941290 0.167231 -35.783791 23.00000000
-20.990276 0.807714 -13.319736 23.00000000
-21.003132 0.975770 -15.987160 23.00000000
-21.239767 4.069607 -44.919033 23.00000000
-21.357849 5.613447 -46.854324 23.00000000
-21.525761 7.808748 -59.733505 23.00000000
-21.493570 7.387892 -26.893599 23.00000000
-21.519890 7.731998 -46.737667 23.00000000
-21.113558 2.419508 -9.458244 23.00000000
-21.484098 7.264052 -35.185711 23.00000000
-20.970062 0.543419 -19.050404 23.00000000
-21.405313 6.234017 -22.623749 23.00000000
-21.185045 3.354176 -2.687360 23.00000000
-20.929344 0.011079 2.181950 23.00000000
-20.985735 0.748327 -61.033688 23.00000000
-21.132294 2.664484 -43.359222 23.00000000
-21.217485 3.778293 2.224273 23.00000000
-21.402700 6.199841 -52.971020 23.00000000
-21.300909 4.868997 -55.822845 23.00000000
-21.528702 7.847216 -15.313337 23.00000000
-21.228449 3.921640 -30.094458 23.00000000
-21.320671 5.127370 -54.812820 23.00000000
-21.019827 1.194045 -59.346870 23.00000000
-21.527639 7.833321 -29.702171 23.00000000
-21.326807 5.207590 -53.090828 23.00000000
-21.218225 3.787979 -38.014870 23.00000000
-21.511244 7.618965 -39.550533 23.00000000
-21.007212 1.029127 -39.434433 23.00000000
-21.127243 2.598439 3.521327 23.00000000
-21.355497 5.582710 -54.228798 23.00000000
-21.530975 7.876952 -20.935572 23.00000000
-20.921062 -0.097202 -11.377644 23.00000000
-21.198137 3.525341 -18.414221 23.00000000
-20.938818 0.134931 -47.710979 23.00000000
-21.219009 3.798221 -43.719463 23.00000000
-21.535416 7.934987 -24.695770 23.00000000
-20.994413 0.861807 -25.104765 23.00000000
-21.039061 1.445522 -20.752895 23.00000000
-21.250828 4.214225 -0.365572 23.00000000
-20.951239 0.297326 -58.642063 23.00000000
-21.416901 6.385501 -47.386868 23.00000000
-21.487778 7.312150 -52.395531 23.00000000
-21.468641 7.061966 -28.671673 23.00000000
-21.297302 4.821838 3.618118 23.00000000
-21.235922 4.019326 -56.727982 23.00000000
-21.181664 3.309946 -5.783562 23.00000000
-21.423874 6.476655 -29.053230 23.00000000
-20.924547 -0.051642 -12.206562 23.00000000
-21.155603 2.969226 -25.403442 23.00000000
-21.152655 2.930681 -24.566496 23.00000000
-21.082193 2.009468 3.245774 23.00000000
-21.240538 4.079689 -28.792295 23.00000000
-21.534096 7.917741 -4.631535 23.00000000
-21.111313 2.390171 -58.938492 23.00000000
-20.977177 0.636441 -2.656242 23.00000000
-21.460445 6.954815 -1.822223 23.00000000
-20.971310 0.559726 -14.630441 23.00000000
-21.141237 2.781400 -53.689774 23.00000000
-21.243181 4.114240 -20.124998 23.00000000
-21.425684 6.500336 -43.071667 23.00000000
-21.495031 7.406989 -54.644939 23.00000000
-21.381893 5.927797 -59.539906 23.00000000
-21.236450 4.026256 -3.341090 23.00000000
-21.331285 5.266143 -12.565597 23.00000000
-20.922773 -0.074834 -39.118774 23.00000000
-21.464228 7.004262 -9.269748 23.00000000
-21.109243 2.363104 -11.568868 23.00000000
-21.140072 2.766165 -49.737022 23.00000000
-21.170191 3.159953 -39.273518 23.00000000
-21.271578 4.485507 -12.481282 23.00000000
-20.970865 0.553922 -3.697960 23.00000000
-20.971558 0.562970 -34.597885 23.00000000
-21.520330 7.737776 -43.183029 23.00000000
-21.173201 3.199294 -7.122661 23.00000000
-21.224144 3.865356 -41.998493 23.00000000
-21.299784 4.854274 -40.102207 23.00000000
-21.467941 7.052827 -47.692013 23.00000000
-21.052969 1.627363 -45.202156 23.00000000
-21.136774 2.723049 -26.900467 23.00000000
-21.426643 6.512874 -21.493265 23.00000000
-21.162039 3.053360 -47.848759 23.00000000
-21.197708 3.519727 -7.720562 23.00000000
-21.068941 1.836186 -57.478703 23.00000000
-20.923328 -0.067577 0.035821 23.00000000
-21.058405 1.698435 -12.979481 23.00000000
-21.434082 6.610132 1.155916 23.00000000
-21.123987 2.555888 -30.530937 23.00000000
-21.048105 1.563782 -53.770065 23.00000000
-20.978172 0.649449 -43.335934 23.00000000
-21.134140 2.688614 -51.985455 23.00000000
-21.030724 1.336535 -8.777240 23.00000000
-21.382812 5.939818 -12.761886 23.00000000
-21.054396 1.646023 -27.958803 23.00000000
-21.184650 3.348992 -49.123226 23.00000000
-21.523184 7.775056 -6.224842 23.00000000
-21.204777 3.612128 -56.264118 23.00000000
-21.407675 6.264877 -25.061775 23.00000000
-21.322395 5.149910 -26.149628 23.00000000
-21.428270 6.534147 -49.226303 23.00000000
-21.534409 7.921832 -52.740913 23.00000000
-21.321142 5.133536 -29.549257 23.00000000
-21.295000 4.791757 -6.548449 23.00000000
-21.235523 4.014135 -50.227913 23.00000000
-21.472403 7.111135 -17.621168 23.00000000
-21.430853 6.567899 -26.765711 23.00000000
-21.215809 3.756369 -13.054988 23.00000000
-21.239559 4.066904 -52.435661 23.00000000
-21.337549 5.348034 -6.899065 23.00000000
-21.169992 3.157371 -22.038528 23.00000000
-21.060581 1.726887 -54.398159 23.00000000
-20.927801 -0.009095 -29.184702 23.00000000
-21.217171 3.774182 -26.410606 23.00000000
-20.922241 -0.081807 -41.632858 23.00000000
-21.469477 7.072876 2.087278 23.00000000
-21.173531 3.203616 -38.162300 23.00000000
-21.382586 5.936854 -40.056602 23.00000000
-21.454882 6.882079 -27.246262 23.00000000
-21.355583 5.583828 -20.571869 23.00000000
-21.247515 4.170910 -45.774754 23.00000000
-21.090282 2.115225 -29.968122 23.00000000
-21.020468 1.202447 0.281900 23.00000000
-21.140068 2.766122 -61.096218 23.00000000
-21.136995 2.725949 -20.237337 23.00000000
-21.314606 5.048067 -54.020119 23.00000000
-21.299955 4.856533 -23.590500 23.00000000
-21.473377 7.123893 -36.842892 23.00000000
-21.105509 2.314294 -13.059185 23.00000000
-21.302610 4.891230 -19.516054 23.00000000
-21.136677 2.721778 -0.151350 23.00000000
-21.253242 4.245782 -55.863918 23.00000000
-20.930201 0.022251 -26.676762 23.00000000
-21.010784 1.075838 -30.198574 23.00000000
-21.358973 5.628136 -5.090990 23.00000000
-20.928953 0.005962 -16.365627 23.00000000
-20.986328 0.756105 -60.465092 23.00000000
-20.930939 0.031914 -45.405792 23.00000000
-20.970030 0.542990 3.841206 23.00000000
-21.254114 4.257194 -4.120405 23.00000000
-21.454987 6.883431 -15.013023 23.00000000
-21.195496 3.490804 -52.523647 23.00000000
-21.421608 6.447050 -50.564384 23.00000000
-21.439383 6.679423 -49.988209 23.00000000
-20.929544 0.013696 -0.555077 23.00000000
-20.927063 -0.018758 -51.185001 23.00000000
-21.151268 2.912549 2.000891 23.00000000
-20.927313 -0.015497 -36.360722 23.00000000
-21.037676 1.427408 -32.336330 23.00000000
-21.483521 7.256501 -36.177906 23.00000000
-21.193867 3.469499 -33.155834 23.00000000
-21.058516 1.699893 -40.438553 23.00000000
-21.086914 2.071191 -60.936237 23.00000000
-21.002096 0.962256 -54.182838 23.00000000
-21.125427 2.574720 -39.531780 23.00000000
-21.240002 4.072688 -27.015871 23.00000000
-21.474705 7.141248 -21.113653 23.00000000
-21.407366 6.260838 -31.078581 23.00000000
-21.381626 5.924321 -13.337797 23.00000000
-21.478092 7.185525 -34.563625 23.00000000
-21.477179 7.173577 -42.214458 23.00000000
-21.093651 2.159257 -38.944649 23.00000000
-21.339149 5.368970 -60.125904 23.00000000
-21.164364 3.083762 -31.914335 23.00000000
-21.155151 2.963331 -45.277596 23.00000000
-21.242756 4.108670 -13.594281 23.00000000
-21.325115 5.185478 -44.327724 23.00000000
-21.292175 4.754803 -59.880226 23.00000000
-21.101706 2.264562 1.555819 23.00000000
-21.423338 6.469667 -17.899881 23.00000000
-21.271095 4.479201 -29.841467 23.00000000
-21.122137 2.531681 -4.575027 23.00000000
-21.529741 7.860811 -1.316256 23.00000000
-21.309023 4.975067 -30.426794 23.00000000
-21.091818 2.135273 -6.961631 23.00000000
-21.151730 2.918576 -15.567653 23.00000000
-21.144756 2.827419 -19.678513 23.00000000
-21.148502 2.876387 -3.587610 23.00000000
-21.462496 6.981617 -43.378326 23.00000000
-21.431435 6.575521 -18.504686 23.00000000
-20.959892 0.410466 -15.925383 23.00000000
-21.253714 4.251949 -2.263988 23.00000000
-21.022430 1.228106 -33.547691 23.00000000
-21.409403 6.287455 -39.444839 23.00000000
-21.210844 3.691464 -17.374617 23.00000000
-21.259163 4.323195 -9.885256 23.00000000
-21.034554 1.386604 -60.635883 23.00000000
-21.011391 1.083766 -10.589169 23.00000000
-20.996284 0.886252 -27.015051 23.00000000
-21.034479 1.385641 -42.089657 23.00000000
-21.238024 4.046806 -29.445845 23.00000000
-21.315769 5.063274 -42.799999 23.00000000
-21.191498 3.438534 -0.570660 23.00000000
-20.925396 -0.040559 -9.990097 23.00000000
-21.087910 2.084194 -0.396614 23.00000000
-21.194515 3.477988 -19.393461 23.00000000
-21.124460 2.562054 -32.373817 23.00000000
-21.191898 3.443773 -20.135086 23.00000000
-21.466333 7.031806 -16.610271 23.00000000
-21.366236 5.723089 -43.766930 23.00000000
-21.348673 5.493466 -51.302216 23.00000000
-21.366657 5.728601 -47.572681 23.00000000
-21.534338 7.920898 -36.447628 23.00000000
-20.928421 -0.001001 -43.713612 23.00000000
-21.036022 1.405799 -0.232917 23.00000000
-21.035036 1.392900 -4.162115 23.00000000
-21.410295 6.299131 -37.183670 23.00000000
-20.975262 0.611405 -25.733803 23.00000000
-20.995237 0.872566 -56.070244 23.00000000
-21.102346 2.272949 -44.670387 23.00000000
-21.117025 2.464856 -46.453651 23.00000000
-20.930845 0.030706 -23.918894 23.00000000
-21.242516 4.105543 -44.360218 23.00000000
-21.397835 6.136228 -54.352943 23.00000000
-21.045689 1.532179 -49.073338 23.00000000
-21.040668 1.466548 -27.361917 23.00000000
-21.249155 4.192349 -41.502113 23.00000000
-21.166674 3.113978 -1.827180 23.00000000
-20.965162 0.479351 -59.660294 23.00000000
-21.032379 1.358167 -34.282791 23.00000000
-21.175220 3.225715 0.194038 23.00000000
-21.462151 6.977114 -15.593445 23.00000000
-21.455959 6.896152 -43.957649 23.00000000
-21.130333 2.638837 -22.531792 23.00000000
-21.456188 6.899169 -24.013046 23.00000000
-21.414379 6.352532 -47.989136 23.00000000
-20.967566 0.510788 -21.352316 23.00000000
-21.069407 1.842276 -60.045460 23.00000000
-21.217321 3.776158 3.589965 23.00000000
-21.414591 6.355287 -43.647915 23.00000000
-21.338753 5.363775 -38.131969 23.00000000
-21.522236 7.762675 -50.834415 23.00000000
-20.999176 0.924064 -45.167515 23.00000000
-20.991194 0.819707 -23.237080 23.00000000
-21.159182 3.016020 -12.879323 23.00000000
-21.358738 5.625049 -4.467714 23.00000000
-21.349733 5.507329 -25.123714 23.00000000
-21.201393 3.567903 -49.780537 23.00000000
-21.465082 7.015441 -46.269554 23.00000000
-21.079496 1.974184 -38.247391 23.00000000
-20.997482 0.901935 -42.697151 23.00000000
-21.110765 2.383019 -57.079781 23.00000000
-21.375771 5.847745 -43.060448 23.00000000
-21.255560 4.276082 -47.604752 23.00000000
-21.253922 4.254678 -39.856724 23.00000000
-21.105576 2.315167 -23.577246 23.00000000
-21.353096 5.551304 -9.573681 23.00000000
-21.002878 0.972463 3.345570 23.00000000
-21.156624 2.982575 -35.839520 23.00000000
-21.450903 6.830049 -8.117251 23.00000000
-21.339146 5.368897 -23.223585 23.00000000
-21.089657 2.107038 -10.880741 23.00000000
-21.230730 3.951465 -39.154621 23.00000000
-21.466736 7.037039 -4.670236 23.00000000
-21.135101 2.701176 -32.964993 23.00000000
-21.017195 1.159647 -22.720701 23.00000000
-21.094183 2.166210 -3.299930 23.00000000
-21.063931 1.770690 -9.320183 23.00000000
-21.399294 6.155298 -16.601179 23.00000000
-21.204910 3.613876 -60.968742 23.00000000
-20.923180 -0.069528 -28.153502 23.00000000
-21.195002 3.484330 -41.520164 23.00000000
-20.965345 0.481769 -36.670311 23.00000000
-20.996437 0.888270 -7.402414 23.00000000
-21.167072 3.119185 -17.737062 23.00000000
-21.069258 1.840326 0.264648 23.00000000
-20.997639 0.903965 -52.120144 23.00000000
-21.244530 4.131883 -18.621000 23.00000000
-21.474594 7.139814 -40.832844 23.00000000
-21.237675 4.042262 -23.137590 23.00000000
-21.377060 5.864617 -14.625377 23.00000000
-21.288506 4.706833 -57.959892 23.00000000
-21.514055 7.655719 -58.151596 23.00000000
-20.952612 0.315269 -56.925228 23.00000000
-21.283863 4.646140 -7.151693 23.00000000
-21.362646 5.676156 -22.681913 23.00000000
-21.533115 7.904930 -26.591522 23.00000000
-21.110571 2.380469 -3.913879 23.00000000
-21.493542 7.387532 0.885062 23.00000000
-21.119967 2.503311 -29.457985 23.00000000
-21.321585 5.139318 -50.479477 23.00000000
-21.508038 7.577057 -43.841671 23.00000000
-21.393913 6.084968 -55.850708 23.00000000
-21.335733 5.324290 -59.069805 23.00000000
-21.469830 7.077494 -6.270144 23.00000000
-21.254507 4.262342 -42.606121 23.00000000
-21.416224 6.376643 -15.611352 23.00000000
-21.094839 2.174789 -20.969151 23.00000000
-21.135040 2.700381 -48.904964 23.00000000
-21.422703 6.461356 -8.625226 23.00000000
-21.426130 6.506167 -37.757572 23.00000000
-21.324154 5.172894 -43.445972 23.00000000
-21.236721 4.029781 0.343598 23.00000000
-21.198536 3.530528 -12.254753 23.00000000
-21.287371 4.691992 -25.754719 23.00000000
-20.942377 0.181479 1.127844 23.00000000
-21.381514 5.922839 -60.794949 23.00000000
-21.302643 4.891659 -15.111246 23.00000000
-21.464615 7.009311 -27.990580 23.00000000
-21.371778 5.795567 -28.352926 23.00000000
-21.300070 4.858020 -17.581213 23.00000000
-21.532202 7.892964 -35.673843 23.00000000
-21.134827 2.697604 -21.541927 23.00000000
-20.976475 0.627260 -58.151363 23.00000000
-21.093336 2.155138 -49.420097 23.00000000
-21.529188 7.853574 -7.490724 23.00000000
-20.933842 0.069867 -23.118614 23.00000000
-21.114433 2.430972 -44.059731 23.00000000
-21.457968 6.922410 -24.681087 23.00000000
-21.438904 6.673162 -6.827970 23.00000000
-21.077801 1.952029 -35.471073 23.00000000
-21.002527 0.967881 -48.667042 23.00000000
-21.425270 6.494940 -36.566296 23.00000000
-21.411629 6.316570 3.588386 23.00000000
-20.928541 0.000567 -5.541296 23.00000000
-21.157974 3.000233 -13.475703 23.00000000
-21.044092 1.511321 -10.141885 23.00000000
-21.411007 6.308426 -29.660887 23.00000000
-21.341524 5.400003 3.466873 23.00000000
-21.153337 2.939619 -44.331997 23.00000000
-21.441406 6.705892 -59.793373 23.00000000
-20.924520 -0.051993 -19.240332 23.00000000
-21.004864 0.998436 -16.902411 23.00000000
-20.982937 0.711756 -14.011518 23.00000000
-21.484997 7.275802 -30.467159 23.00000000
-21.433636 6.604294 -33.291573 23.00000000
-21.516710 7.690427 -16.482164 23.00000000
-20.929157 0.008622 -33.639675 23.00000000
-21.113245 2.415426 -13.764009 23.00000000
-21.012938 1.103977 -59.954979 23.00000000
-21.387592 6.002325 -41.378262 23.00000000
-21.386703 5.990689 -10.124086 23.00000000
-21.536579 7.950204 -10.652797 23.00000000
-21.230673 3.950709 -53.431545 23.00000000
-20.926388 -0.027585 -37.150555 23.00000000
-21.334982 5.314476 -23.972076 23.00000000
-21.065380 1.789638 -55.482517 23.00000000
-21.309155 4.976790 -60.539948 23.00000000
-21.306446 4.941382 -1.617008 23.00000000
-21.010567 1.072976 -43.702042 23.00000000
-21.270327 4.469148 -26.415924 23.00000000
-21.233267 3.984613 -43.134556 23.00000000
-21.538712 7.978076 -54.258995 23.00000000
-21.518103 7.708640 -57.234848 23.00000000
-20.972364 0.573535 0.475307 23.00000000
-21.346668 5.467278 -31.028828 23.00000000
-20.945520 0.222546 -12.810972 23.00000000
-21.008387 1.044477 -24.536444 23.00000000
-21.066500 1.804264 -58.456112 23.00000000
-21.404793 6.227197 2.180145 23.00000000
-21.422550 6.459378 -42.400398 23.00000000
-21.361794 5.665009 -48.351116 23.00000000
-21.189144 3.407746 -21.514999 23.00000000
-20.983723 0.722027 -37.923397 23.00000000
-21.151005 2.909117 -16.363270 23.00000000
-21.162012 3.053016 -56.905907 23.00000000
-21.085291 2.049959 -33.804642 23.00000000
-21.525610 7.806793 -15.938650 23.00000000
-21.019758 1.193152 -21.467958 23.00000000
-20.968521 0.523287 -18.419670 23.00000000
-21.438866 6.672661 -35.141418 23.00000000
-21.534937 7.928737 -27.171360 23.00000000
-21.395660 6.107800 -0.069918 23.00000000
-20.922033 -0.084508 -8.498908 23.00000000
-20.921745 -0.088273 -9.206765 23.00000000
-21.086401 2.064471 -52.071293 23.00000000
-21.286222 4.676978 -22.380032 23.00000000
-21.048615 1.570444 -16.176933 23.00000000
-21.491430 7.359913 -18.412235 23.00000000
-21.356491 5.595707 -50.006958 23.00000000
-21.365374 5.711823 -12.217775 23.00000000
-21.127022 2.595557 0.951939 23.00000000
-21.189152 3.407854 -10.900182 23.00000000
-21.029142 1.315847 -19.549429 23.00000000
-21.388308 6.011669 -58.052303 23.00000000
-21.108543 2.353956 -35.980553 23.00000000
-21.270279 4.468523 -14.727560 23.00000000
-21.378605 5.884815 1.580433 23.00000000
-21.319506 5.112131 -32.215691 23.00000000
-21.078190 1.957116 -41.773365 23.00000000
-21.339684 5.375948 -21.301968 23.00000000
-21.377483 5.870136 -33.757351 23.00000000
-21.295113 4.793213 -20.185810 23.00000000
-20.978043 0.647754 -5.711107 23.00000000
-21.463211 6.990966 3.829727 23.00000000
-21.322483 5.151072 -49.011547 23.00000000
-21.148813 2.880464 -57.482845 23.00000000
-20.921473 -0.091847 3.516859 23.00000000
-21.286877 4.685524 -44.767342 23.00000000
-21.039204 1.447396 -44.613529 23.00000000
-21.024061 1.249412 -35.120701 23.00000000
-21.440731 6.697068 -33.973759 23.00000000
-21.063093 1.759727 -26.070484 23.00000000
-21.194523 3.478081 -24.221788 23.00000000
-20.919224 -0.121255 -59.958061 23.00000000
-21.371166 5.787551 -38.959961 23.00000000
-21.391724 6.056334 -35.106682 23.00000000
-21.307894 4.960306 -20.808916 23.00000000
-21.409964 6.294791 -4.862950 23.00000000
-21.484842 7.273797 -59.065445 23.00000000
-21.052570 1.622164 -16.769012 23.00000000
-21.260691 4.343168 2.473011 23.00000000
-21.110992 2.385993 -58.209156 23.00000000
-21.388386 6.012696 -51.806732 23.00000000
-21.309866 4.986082 -39.505840 23.00000000
-21.228802 3.926233 2.955365 23.00000000
-21.190460 3.424969 -51.312748 23.00000000
-21.323841 5.168823 -28.213734 23.00000000
-21.238379 4.051452 -58.802723 23.00000000
-21.538136 7.970548 -33.162258 23.00000000
-21.483870 7.261053 -55.314484 23.00000000
-21.002293 0.964801 -54.807594 23.00000000
-21.492722 7.376804 -23.293543 23.00000000
-21.433817 6.606661 -11.196155 23.00000000
-21.076456 1.934440 -4.549260 23.00000000
-21.140301 2.769150 -38.794930 23.00000000
-21.292404 4.757794 -51.129261 23.00000000
-20.964808 0.474719 -22.597734 23.00000000
-20.941273 0.167024 -27.261703 23.00000000
-21.303493 4.902783 -52.561909 23.00000000
-21.044300 1.514031 3.846913 23.00000000
-21.020462 1.202366 -50.491241 23.00000000
-21.221273 3.827820 -20.801493 23.00000000
-21.126104 2.583551 -5.970412 23.00000000
-20.923691 -0.062845 -21.963337 23.00000000
-21.007132 1.028074 -41.297585 23.00000000
-21.349783 5.507979 -6.295211 23.00000000
-21.190901 3.430730 -59.186825 23.00000000
-21.175514 3.229566 -42.086594 23.00000000
-21.488787 7.325346 -40.104877 23.00000000
-20.971743 0.565401 -38.916611 23.00000000
-21.007984 1.039238 -53.394817 23.00000000
-21.182327 3.318636 -43.186005 23.00000000
-21.356621 5.597378 -30.256208 23.00000000
-21.503311 7.515266 -32.718464 23.00000000
-21.535780 7.939745 -47.250664 23.00000000
-21.083740 2.029681 -47.918800 23.00000000
-21.357946 5.614717 -2.205035 23.00000000
-21.425495 6.497871 -41.760208 23.00000000
-21.533422 7.908929 -49.264477 23.00000000
-21.395777 6.109323 -3.608464 23.00000000
-20.965511 0.483930 -9.710944 23.00000000
-21.429075 6.544684 -41.158768 23.00000000
-21.049538 1.582491 -13.924188 23.00000000
-21.528502 7.844593 0.015989 23.00000000
-20.970661 0.551262 -29.546125 23.00000000
-21.144445 2.823348 -8.861264 23.00000000
-21.273558 4.511385 -13.152580 23.00000000
-21.009905 1.064331 -2.208729 23.00000000
-21.372934 5.810687 -40.804836 23.00000000
-21.064466 1.777679 2.430320 23.00000000
-21.303215 4.899150 0.017329 23.00000000
-21.463760 6.998169 -56.406059 23.00000000
-20.920889 -0.099486 -20.400969 23.00000000
-20.964985 0.477047 -46.558899 23.00000000
-21.023849 1.246658 -46.583084 23.00000000
-21.082918 2.018939 0.964674 23.00000000
-21.459427 6.941502 -25.342640 23.00000000
-21.194050 3.471875 -27.231375 23.00000000
-21.243902 4.123691 -50.941559 23.00000000
-21.030146 1.328964 -45.801804 23.00000000
-21.150208 2.898685 -27.804958 23.00000000
-21.304672 4.918212 -3.674734 23.00000000
-21.439283 6.678142 -5.449320 23.00000000
-21.390902 6.045583 -7.542494 23.00000000
-21.219069 3.798990 -58.216148 23.00000000
-20.978012 0.647373 -50.616261 23.00000000
-21.443501 6.733268 -39.100887 23.00000000
-21.049107 1.576866 -51.677578 23.00000000
-20.921244 -0.094834 -47.150711 23.00000000
-21.008936 1.051672 -27.988926 23.00000000
-21.521051 7.747192 2.449027 23.00000000
-21.390167 6.035989 -6.867122 23.00000000
-21.336061 5.328578 -13.224715 23.00000000
-21.217463 3.777987 -15.626751 23.00000000
-21.067804 1.821340 -50.300282 23.00000000
-21.232567 3.975466 -5.506079 23.00000000
-21.319929 5.117680 -35.171329 23.00000000
-21.414351 6.352156 -24.253483 23.00000000
-20.944130 0.204370 -40.041950 23.00000000
-21.242100 4.100099 -17.972965 23.00000000
-21.533535 7.910405 -40.175991 23.00000000
-21.537601 7.963560 -13.335373 23.00000000
-21.529387 7.856168 -33.934765 23.00000000
-21.304733 4.918989 -5.074623 23.00000000
-21.342224 5.409173 -3.335700 23.00000000
-21.356466 5.595380 -49.408592 23.00000000
-21.484324 7.266990 -53.043938 23.00000000
-21.372688 5.807456 -25.696215 23.00000000
-21.508512 7.583264 -29.083326 23.00000000
-21.040909 1.469684 -28.656788 23.00000000
-20.929087 0.007702 -17.762032 23.00000000
-21.355829 5.587052 -42.359558 23.00000000
-21.441820 6.711302 -54.807114 23.00000000
-21.182945 3.326706 -29.476364 23.00000000
-20.975018 0.608210 -28.605898 23.00000000
-21.095230 2.179899 -8.534458 23.00000000
-21.097488 2.209422 -12.275404 23.00000000
-21.064224 1.774524 -29.256420 23.00000000
-20.931259 0.036106 -31.099516 23.00000000
-21.229515 3.935577 -9.117956 23.00000000
-21.338263 5.357371 -46.236874 23.00000000
-21.024212 1.251394 -38.848618 23.00000000
-21.481657 7.232133 -57.658890 23.00000000
-21.214211 3.735478 -1.623929 23.00000000
-21.439556 6.681701 -61.022354 23.00000000
-21.372417 5.803916 -32.416458 23.00000000
-21.134176 2.689094 -45.853752 23.00000000
-21.523985 7.785530 -60.830891 23.00000000
-21.534620 7.924584 -30.483515 23.00000000
-21.469603 7.074533 -2.845543 23.00000000
-21.212868 3.717924 -22.543633 23.00000000
-20.922882 -0.073409 -46.368122 23.00000000
-20.953489 0.326756 -55.731564 23.00000000
-20.983519 0.719342 -12.086558 23.00000000
-21.377832 5.874709 -21.837215 23.00000000
-21.037651 1.427091 -57.901291 23.00000000
-21.423409 6.470579 -57.641335 23.00000000
-21.095478 2.183159 -22.049206 23.00000000
-21.425560 6.498716 -9.863303 23.00000000
-21.124323 2.560254 -10.131760 23.00000000
-20.971205 0.558365 -33.974312 23.00000000
-20.934305 0.075936 -57.640774 23.00000000
-20.997387 0.900679 -47.156403 23.00000000
-21.245317 4.142187 -14.195771 23.00000000
-21.410294 6.299120 -31.720484 23.00000000
-20.959009 0.398912 -24.531975 23.00000000
-21.405636 6.238210 -1.978595 23.00000000
-21.249331 4.194654 -48.596058 23.00000000
-21.192101 3.446413 -8.626508 23.00000000
-20.924580 -0.051220 -52.754345 23.00000000
-21.058031 1.693566 -2.920495 23.00000000
-20.998503 0.915247 -8.278881 23.00000000
-21.404449 6.222712 -45.556561 23.00000000
-21.201117 3.564291 0.757776 23.00000000
-21.519733 7.729973 -48.717167 23.00000000
-20.944382 0.207677 -55.078915 23.00000000
-21.421185 6.441514 -58.455959 23.00000000
-21.172026 3.183937 -60.359257 23.00000000
-21.517727 7.703718 -45.732349 23.00000000
-20.928322 -0.002298 -15.097288 23.00000000
-21.195969 3.496974 -28.875166 23.00000000
-21.434986 6.621953 -32.693317 23.00000000
-21.460209 6.951705 -19.823627 23.00000000
-21.481659 7.232165 -26.054047 23.00000000
-21.085831 2.056995 -53.320545 23.00000000
-21.444973 6.752526 -48.529388 23.00000000
-21.112146 2.401075 2.634787 23.00000000
-20.972120 0.570345 -8.848244 23.00000000
-21.364897 5.705589 -13.948508 23.00000000
-21.466053 7.028123 -44.517567 23.00000000
-20.986706 0.761014 -35.622078 23.00000000
-21.270769 4.474940 -11.706172 23.00000000
-21.301823 4.880926 -24.826702 23.00000000
-21.262794 4.370675 -60.868023 23.00000000
12.066010 -21.669556 -21.956882 24.00000000
5.937698 -22.054596 -22.716421 24.00000000
10.926866 -21.741127 -4.621183 24.00000000
6.862329 -21.996502 -41.690075 24.00000000
8.179905 -21.913717 -10.879213 24.00000000
12.066648 -21.669516 -2.995046 24.00000000
8.040957 -21.922447 -23.401981 24.00000000
6.911772 -21.993395 -11.670295 24.00000000
8.681808 -21.882183 -10.074905 24.00000000
5.967782 -22.052706 -34.369251 24.00000000
5.175975 -22.102453 -4.316818 24.00000000
6.971118 -21.989664 -58.329086 24.00000000
7.819947 -21.936335 -57.394527 24.00000000
9.542905 -21.828081 -0.710078 24.00000000
6.260363 -22.034323 -9.198263 24.00000000
8.836737 -21.872450 -9.389118 24.00000000
8.767107 -21.876823 -10.670125 24.00000000
6.248344 -22.035076 -50.013962 24.00000000
11.265011 -21.719881 -6.618490 24.00000000
6.763682 -22.002699 -34.201324 24.00000000
9.065298 -21.858089 -13.811301 24.00000000
9.252843 -21.846306 -28.297661 24.00000000
11.760935 -21.688723 -45.811893 24.00000000
4.862304 -22.122162 -15.448874 24.00000000
10.471735 -21.769724 -51.628635 24.00000000
11.471719 -21.706894 -17.509296 24.00000000
8.571583 -21.889109 -8.297442 24.00000000
7.708524 -21.943335 -19.163204 24.00000000
7.398600 -21.962807 -54.091572 24.00000000
6.810850 -21.999735 -52.524643 24.00000000
6.723120 -22.005247 -27.048668 24.00000000
9.403656 -21.836830 -18.751751 24.00000000
10.889980 -21.743444 0.358532 24.00000000
11.990439 -21.674303 -25.836418 24.00000000
10.683566 -21.756413 -1.452166 24.00000000
8.899419 -21.868511 -43.460938 24.00000000
11.514603 -21.704199 -48.548000 24.00000000
6.217572 -22.037010 -47.105350 24.00000000
9.777279 -21.813354 -37.088478 24.00000000
5.284139 -22.095657 -19.461519 24.00000000
10.240410 -21.784258 -32.563335 24.00000000
10.603892 -21.761419 -45.031361 24.00000000
7.731803 -21.941872 -11.215534 24.00000000
9.106460 -21.855501 -53.813293 24.00000000
6.372463 -22.027279 3.807959 24.00000000
12.014356 -21.672800 -3.872060 24.00000000
5.308951 -22.094099 -45.462238 24.00000000
7.844150 -21.934813 -6.603592 24.00000000
11.845361 -21.683418 -31.313215 24.00000000
7.283834 -21.970018 -48.288414 24.00000000
8.826053 -21.873119 -18.486139 24.00000000
7.099929 -21.981571 -49.038239 24.00000000
5.462967 -22.084421 -42.655903 24.00000000
10.717109 -21.754307 -26.143530 24.00000000
10.709077 -21.754810 -53.324623 24.00000000
6.429976 -22.023664 -29.744286 24.00000000
7.254540 -21.971857 -47.738262 24.00000000
10.439326 -21.771759 -39.507225 24.00000000
10.288324 -21.781246 -6.824250 24.00000000
6.930185 -21.992237 -3.728531 24.00000000
8.296639 -21.906384 -14.318005 24.00000000
8.750489 -21.877869 -3.273414 24.00000000
10.714445 -21.754473 -34.992767 24.00000000
6.494971 -22.019583 -38.993202 24.00000000
12.035813 -21.671452 -33.066544 24.00000000
6.218638 -22.036943 -23.161535 24.00000000
4.870551 -22.121643 -2.381390 24.00000000
11.069153 -21.732187 -48.975609 24.00000000
9.217939 -21.848497 -13.160177 24.00000000
7.945542 -21.928444 -9.790971 24.00000000
5.433963 -22.086245 0.648617 24.00000000
9.995709 -21.799631 -28.634422 24.00000000
10.363850 -21.776501 -1.876060 24.00000000
10.003890 -21.799116 -3.903094 24.00000000
4.895612 -22.120070 -48.751617 24.00000000
7.338566 -21.966579 -16.845892 24.00000000
8.898726 -21.868553 -50.525681 24.00000000
4.822693 -22.124649 -18.713154 24.00000000
10.342292 -21.777855 -54.214931 24.00000000
10.650100 -21.758516 -59.361843 24.00000000
6.342146 -22.029184 -18.442301 24.00000000
6.599038 -22.013042 -21.784899 24.00000000
7.457480 -21.959106 -18.271551 24.00000000
6.480317 -22.020502 -24.779287 24.00000000
10.822187 -21.747704 -50.307735 24.00000000
5.845082 -22.060413 -40.727959 24.00000000
5.905894 -22.056593 -18.854689 24.00000000
11.933969 -21.677851 -39.114574 24.00000000
10.364197 -21.776480 -12.778443 24.00000000
7.114246 -21.980673 -2.160930 24.00000000
9.181658 -21.850779 -52.219406 24.00000000
5.811459 -22.062527 -26.157194 24.00000000
11.557479 -21.701506 -54.793499 24.00000000
9.368470 -21.839041 -1.330174 24.00000000
9.980078 -21.800613 -41.505810 24.00000000
4.811990 -22.125322 -3.053659 24.00000000
5.280665 -22.095877 -14.711376 24.00000000
5.375598 -22.089911 -37.808598 24.00000000
10.369693 -21.776134 -27.502338 24.00000000
9.160738 -21.852093 -22.897587 24.00000000
11.947800 -21.676983 -5.054750 24.00000000
6.674219 -22.008320 -12.457128 24.00000000
5.877204 -22.058395 -31.950516 24.00000000
8.679424 -21.882334 0.678897 24.00000000
8.215105 -21.911507 -50.483810 24.00000000
4.847036 -22.123121 -46.033764 24.00000000
8.243546 -21.909719 2.928420 24.00000000
8.594363 -21.887676 -31.343636 24.00000000
11.824601 -21.684723 -57.214428 24.00000000
10.793635 -21.749498 -32.240467 24.00000000
10.467893 -21.769964 -46.208096 24.00000000
10.953905 -21.739428 -47.636776 24.00000000
4.963586 -22.115799 -12.160320 24.00000000
8.652264 -21.884039 -15.890180 24.00000000
8.636628 -21.885021 -56.177616 24.00000000
5.459695 -22.084627 -15.380061 24.00000000
5.999461 -22.050714 -30.948467 24.00000000
5.787698 -22.064018 -39.011780 24.00000000
12.056806 -21.670134 -47.675205 24.00000000
5.138075 -22.104836 -53.204762 24.00000000
8.792794 -21.875210 -49.665199 24.00000000
7.876693 -21.932768 -45.299992 24.00000000
4.913123 -22.118969 -11.274698 24.00000000
11.572396 -21.700567 -14.074307 24.00000000
11.620888 -21.697521 -19.262417 24.00000000
6.057868 -22.047045 -2.154990 24.00000000
8.072618 -21.920458 -49.345116 24.00000000
10.616763 -21.760611 0.899403 24.00000000
5.539251 -22.079630 -21.201485 24.00000000
11.434090 -21.709257 -15.142829 24.00000000
4.876603 -22.121264 -51.225109 24.00000000
6.373103 -22.027239 -34.791931 24.00000000
8.602877 -21.887142 3.862219 24.00000000
7.145059 -21.978737 -37.668522 24.00000000
5.874889 -22.058540 -56.802036 24.00000000
9.335607 -21.841105 -19.921778 24.00000000
6.439702 -22.023054 -54.754490 24.00000000
8.053837 -21.921638 -38.757038 24.00000000
8.259583 -21.908710 -40.940872 24.00000000
5.595745 -22.076080 3.229878 24.00000000
8.797820 -21.874893 -22.357008 24.00000000
7.631028 -21.948202 -9.369122 24.00000000
