-21.120134 2.505511 -32.717522 23.00000000
-21.246786 4.161393 -42.635281 23.00000000
-20.926477 -0.026404 -58.542156 23.00000000
-21.128981 2.621172 -44.822330 23.00000000
-21.533558 7.910705 -40.937428 23.00000000
-21.119410 2.496030 -9.457055 23.00000000
-21.202440 3.581603 -48.485142 23.00000000
-21.242973 4.111540 -48.777840 23.00000000
-21.219196 3.800668 -30.323284 23.00000000
-21.279222 4.585454 -55.008995 23.00000000
-21.539148 7.983787 -1.847962 23.00000000
-21.468477 7.059833 -16.243607 23.00000000
-21.046438 1.541980 -28.842178 23.00000000
-21.379873 5.901405 -10.753030 23.00000000
-20.997925 0.907707 -21.552776 23.00000000
-21.278294 4.573310 -22.297640 23.00000000
-21.353701 5.559216 -46.145378 23.00000000
-21.428934 6.542830 -38.647675 23.00000000
-21.282177 4.624092 -51.390137 23.00000000
-21.496019 7.419911 -44.429489 23.00000000
-21.312462 5.020037 -19.838257 23.00000000
-21.474007 7.132123 -58.443092 23.00000000
-21.313679 5.035939 -36.367481 23.00000000
-21.093307 2.154768 -57.199909 23.00000000
-21.461832 6.972953 -9.766176 23.00000000
-21.438616 6.669393 3.353161 23.00000000
-20.942736 0.186138 -47.510132 23.00000000
-21.231798 3.965439 -12.193295 23.00000000
-21.456619 6.904785 -1.406243 23.00000000
-21.392811 6.070548 2.701803 23.00000000
-21.260115 4.335636 -13.420301 23.00000000
-21.248306 4.181258 -12.793916 23.00000000
-21.342890 5.417853 -17.085203 23.00000000
-21.289352 4.717909 -35.762779 23.00000000
-21.326891 5.208677 -19.243559 23.00000000
-21.289894 4.724981 -7.958854 23.00000000
-21.290472 4.732544 -53.369396 23.00000000
-21.309259 4.978173 -45.718159 23.00000000
-21.068163 1.826021 -8.803596 23.00000000
-21.488527 7.321955 2.358080 23.00000000
-21.514572 7.662485 -22.366226 23.00000000
-21.416399 6.378946 -55.746727 23.00000000
-21.309540 4.981823 -2.499414 23.00000000
-21.046602 1.544122 -47.056210 23.00000000
-20.928196 -0.003939 -10.455781 23.00000000
-20.924248 -0.055561 -31.455818 23.00000000
-21.332714 5.284819 -7.927984 23.00000000
-21.081425 1.999409 -30.103031 23.00000000
-21.512081 7.629914 -42.117634 23.00000000
-21.521950 7.758929 -20.218716 23.00000000
-21.227324 3.906912 -7.651309 23.00000000
-21.173021 3.196950 -51.442932 23.00000000
-20.978115 0.648709 -56.581940 23.00000000
-20.927685 -0.010643 -44.747219 23.00000000
-21.442102 6.714996 -2.431140 23.00000000
-21.524633 7.794023 -57.287060 23.00000000
-21.020174 1.198595 1.196841 23.00000000
-21.311335 5.005311 -11.556675 23.00000000
-21.309299 4.978700 -31.810200 23.00000000
-21.460510 6.955677 2.810520 23.00000000
-21.085245 2.049370 -44.690453 23.00000000
-21.198973 3.536243 -43.892593 23.00000000
-21.373308 5.815572 -1.578478 23.00000000
-21.473854 7.130115 -49.731396 23.00000000
-21.183949 3.339838 -21.267067 23.00000000
-21.399775 6.161592 1.119399 23.00000000
-21.133013 2.673868 1.389548 23.00000000
-21.313789 5.037393 -57.446918 23.00000000
-21.203987 3.601818 -20.699087 23.00000000
-21.522923 7.771644 -23.611410 23.00000000
-21.406673 6.251794 -11.479534 23.00000000
-21.534079 7.917513 -11.862856 23.00000000
-20.928408 -0.001188 -11.556462 23.00000000
-21.198208 3.526244 3.033049 23.00000000
-21.073820 1.899990 -11.993335 23.00000000
-21.051661 1.610259 -19.579128 23.00000000
-21.272861 4.502298 -15.452689 23.00000000
-21.268658 4.447327 -16.186634 23.00000000
-21.050337 1.592959 -4.754794 23.00000000
-20.929173 0.008831 -52.304264 23.00000000
-21.046413 1.541655 -37.541759 23.00000000
-21.077332 1.945878 1.295551 23.00000000
-21.380322 5.907249 -38.547440 23.00000000
-21.208357 3.658940 -6.053712 23.00000000
-21.288942 4.712541 -8.653902 23.00000000
-21.237442 4.039217 -5.543864 23.00000000
-20.977196 0.636697 -53.149792 23.00000000
-21.272650 4.499523 -3.264518 23.00000000
-21.151819 2.919759 3.212432 23.00000000
-21.004822 0.997885 -25.350796 23.00000000
-20.985744 0.748470 -52.037430 23.00000000
-21.185656 3.362133 -0.723390 23.00000000
-21.350433 5.516494 -13.696155 23.00000000
-21.479477 7.203643 -52.789749 23.00000000
-21.111151 2.388042 -37.125343 23.00000000
-21.264957 4.398951 -34.402054 23.00000000
-21.537830 7.966568 -18.225319 23.00000000
-21.146725 2.853145 -53.528358 23.00000000
-21.072283 1.879868 -56.551491 23.00000000
-20.941502 0.170018 -45.953030 23.00000000
-21.065432 1.790308 -9.596914 23.00000000
-21.290220 4.729239 -55.884773 23.00000000
-21.087490 2.078714 -59.313236 23.00000000
-21.005013 1.000363 -12.402163 23.00000000
-21.267076 4.426662 -31.593355 23.00000000
-21.021536 1.216388 -56.754337 23.00000000
-21.508633 7.584820 -21.037365 23.00000000
-20.919447 -0.118348 -24.323471 23.00000000
-21.146833 2.854579 -10.353049 23.00000000
-21.220133 3.812901 -20.122087 23.00000000
-21.058352 1.697744 -48.230289 23.00000000
-21.077839 1.952515 -16.044111 23.00000000
-21.473211 7.121715 -20.173954 23.00000000
-20.989424 0.796554 -10.125379 23.00000000
-20.923483 -0.065572 -9.551483 23.00000000
-21.497917 7.444732 -9.025427 23.00000000
-21.199457 3.542606 -45.769714 23.00000000
-21.268385 4.443767 -59.522137 23.00000000
-21.412748 6.331207 -48.683552 23.00000000
-20.975819 0.618688 -22.826996 23.00000000
-20.991558 0.824473 -43.664051 23.00000000
-21.349026 5.498082 -51.259506 23.00000000
-20.921753 -0.088197 -38.107418 23.00000000
-20.952900 0.319038 -59.401505 23.00000000
-21.370628 5.780517 -54.038731 23.00000000
-21.369474 5.765428 -16.565710 23.00000000
-21.314270 5.043683 -34.187714 23.00000000
-21.126747 2.591964 -27.981087 23.00000000
-21.307051 4.949287 -13.438902 23.00000000
-20.966484 0.496643 -0.173209 23.00000000
-21.219534 3.805071 -24.412464 23.00000000
-21.156164 2.976558 -56.178802 23.00000000
-21.099848 2.240272 -59.890537 23.00000000
-21.438932 6.673544 -22.418119 23.00000000
-20.973993 0.594819 -49.358471 23.00000000
-21.389275 6.024307 -34.847813 23.00000000
-21.284065 4.648767 0.475052 23.00000000
-21.418476 6.406108 -42.564945 23.00000000
-21.164726 3.088507 -14.981105 23.00000000
-21.381245 5.919322 -6.985498 23.00000000
-21.192854 3.456254 -0.152725 23.00000000
-21.533936 7.915630 -2.429495 23.00000000
-21.013288 1.108581 -8.361122 23.00000000
-21.211554 3.700751 -29.069311 23.00000000
-21.028271 1.304451 -47.630898 23.00000000
-21.535824 7.940323 -16.931837 23.00000000
-21.270037 4.465368 -5.124890 23.00000000
-21.427189 6.520009 -43.626503 23.00000000
-21.232012 3.968203 -34.906464 23.00000000
-21.124994 2.569039 -41.527397 23.00000000
-21.111534 2.393079 -36.427406 23.00000000
-21.446918 6.777972 -47.119457 23.00000000
-21.435877 6.633604 -17.840954 23.00000000
-21.186357 3.371320 -36.749027 23.00000000
-21.505972 7.550028 -30.165670 23.00000000
-21.494003 7.393556 -18.347651 23.00000000
-21.537193 7.958230 1.865574 23.00000000
-20.923479 -0.065603 -41.607979 23.00000000
-21.020414 1.201741 3.751234 23.00000000
-20.921610 -0.090069 -20.321812 23.00000000
-21.422714 6.461498 -47.642696 23.00000000
-21.369257 5.762592 -4.388227 23.00000000
-21.067513 1.817505 -20.201187 23.00000000
-21.256847 4.292924 -18.137602 23.00000000
-21.345671 5.454216 -0.313602 23.00000000
-21.526234 7.814941 -38.788170 23.00000000
-21.275824 4.541028 -23.994198 23.00000000
-21.287491 4.693564 -41.553581 23.00000000
-21.163733 3.075517 -1.283460 23.00000000
-21.455843 6.894635 -39.134800 23.00000000
-21.508371 7.581422 -35.776768 23.00000000
-21.458992 6.935813 -27.612816 23.00000000
-21.110703 2.382194 -10.783667 23.00000000
-21.488249 7.318305 -57.895042 23.00000000
-21.534744 7.926217 -46.334187 23.00000000
-21.243505 4.118492 -41.363049 23.00000000
-21.185535 3.360575 -38.399700 23.00000000
-21.287479 4.693408 -1.443438 23.00000000
-21.320253 5.121921 -37.945576 23.00000000
-21.351040 5.524416 -20.602015 23.00000000
-20.923679 -0.062998 -2.096717 23.00000000
-21.241879 4.097204 -57.921284 23.00000000
-21.084120 2.034639 -27.033907 23.00000000
-21.229919 3.940867 2.366202 23.00000000
-21.523640 7.781031 -52.071804 23.00000000
-21.332834 5.286400 -58.002537 23.00000000
-20.925442 -0.039950 -33.966682 23.00000000
-21.287415 4.692554 -3.958830 23.00000000
-21.265882 4.411044 -28.643642 23.00000000
-21.251827 4.227293 -40.532200 23.00000000
-21.441063 6.701384 -54.641472 23.00000000
-20.997477 0.901834 -57.258694 23.00000000
-21.436728 6.644729 -35.291481 23.00000000
-21.116421 2.456949 0.540415 23.00000000
-20.988010 0.778077 -38.593056 23.00000000
-21.511520 7.622589 3.049380 23.00000000
-21.438610 6.669337 -44.875084 23.00000000
-21.071499 1.869624 -18.100552 23.00000000
-21.399338 6.155866 -17.132324 23.00000000
-21.294081 4.779707 3.034982 23.00000000
-20.998999 0.921740 -7.059465 23.00000000
-21.296001 4.804828 -27.389982 23.00000000
-21.391520 6.053652 -12.652021 23.00000000
-21.154799 2.958705 -16.461958 23.00000000
-21.141376 2.783219 -45.432098 23.00000000
-21.516306 7.685132 -45.817638 23.00000000
-21.059935 1.718442 0.619278 23.00000000
-20.920494 -0.104632 -21.216789 23.00000000
-21.533573 7.910917 -36.374008 23.00000000
-21.426813 6.515089 -5.947970 23.00000000
-21.372377 5.803382 -44.457294 23.00000000
-21.183516 3.334175 -55.282452 23.00000000
-21.246334 4.155478 -30.974569 23.00000000
-21.163427 3.071532 -7.253526 23.00000000
-21.424334 6.482670 -6.778308 23.00000000
-21.536064 7.943475 -53.045986 23.00000000
-21.054785 1.651095 -0.941446 23.00000000
-21.112198 2.401743 -25.190126 23.00000000
-21.117731 2.474083 -23.654806 23.00000000
-21.528282 7.841740 -46.997112 23.00000000
-21.353880 5.561540 1.007686 23.00000000
-21.411493 6.314797 -21.950859 23.00000000
-21.047756 1.559217 -29.450476 23.00000000
-21.252172 4.231815 -11.684772 23.00000000
-20.965595 0.485038 -42.094757 23.00000000
-21.379677 5.898826 -39.204285 23.00000000
-21.376469 5.856882 -19.843060 23.00000000
-21.534714 7.925803 -45.009567 23.00000000
-21.010508 1.072204 -20.934332 23.00000000
-21.235970 4.019950 -2.520268 23.00000000
-21.124144 2.557933 -17.066700 23.00000000
-21.038488 1.438036 -11.557570 23.00000000
-21.115063 2.439187 -21.042482 23.00000000
-21.150318 2.900130 -49.543041 23.00000000
-21.261768 4.357253 -43.492825 23.00000000
-21.287916 4.699132 -5.636622 23.00000000
-21.416311 6.377797 -57.986191 23.00000000
-21.208725 3.663754 -53.066166 23.00000000
-21.409712 6.291512 -58.726177 23.00000000
-21.230511 3.948596 -47.841908 23.00000000
-21.304379 4.914357 -32.923771 23.00000000
-21.454395 6.875712 -55.224297 23.00000000
-20.930592 0.027361 -55.275509 23.00000000
-21.455872 6.895007 -48.477802 23.00000000
-21.201752 3.572596 -11.118493 23.00000000
-21.463026 6.988567 -8.099782 23.00000000
-20.934669 0.080680 -34.562447 23.00000000
-21.001959 0.960451 -57.923454 23.00000000
-21.445406 6.758184 -32.234886 23.00000000
-21.148512 2.876514 -59.642712 23.00000000
-21.043570 1.504483 -52.333920 23.00000000
-21.457388 6.914834 -41.139545 23.00000000
-21.181656 3.309848 -12.240580 23.00000000
-21.312489 5.020393 -61.080788 23.00000000
-21.095703 2.186087 -5.867854 23.00000000
-21.476828 7.169004 -34.405083 23.00000000
-21.424917 6.490311 -18.447815 23.00000000
-21.134489 2.693184 -56.791004 23.00000000
-21.311859 5.012161 3.703914 23.00000000
-21.131269 2.651097 -24.607002 23.00000000
-21.436556 6.642471 -24.979601 23.00000000
-20.994362 0.861106 -45.135941 23.00000000
-21.291161 4.741532 -50.709827 23.00000000
-21.421503 6.445687 -10.464812 23.00000000
-21.345306 5.449452 3.127809 23.00000000
-21.493223 7.383360 -15.794821 23.00000000
-21.354881 5.574656 -25.238417 23.00000000
-21.261723 4.356671 -9.431809 23.00000000
-21.413523 6.341331 -27.531494 23.00000000
-21.476583 7.165797 -36.352306 23.00000000
-21.395277 6.102786 -12.051898 23.00000000
-21.258488 4.314357 -45.866695 23.00000000
-20.998631 0.916925 -20.097143 23.00000000
-21.511192 7.618291 -3.084728 23.00000000
-21.379976 5.902734 -36.449932 23.00000000
-21.177158 3.251043 -7.968667 23.00000000
-20.979752 0.670107 -5.164742 23.00000000
-21.465740 7.024050 -2.914790 23.00000000
-21.110409 2.378353 -60.491505 23.00000000
-21.002262 0.964422 -44.226009 23.00000000
-21.034418 1.384844 -43.108387 23.00000000
-21.478197 7.186904 -33.007236 23.00000000
-21.427893 6.529212 -56.759789 23.00000000
-21.337875 5.352301 -39.948223 23.00000000
-21.170738 3.167120 -22.836823 23.00000000
-21.489168 7.330335 -53.561695 23.00000000
-20.943670 0.198382 -12.115735 23.00000000
-21.293461 4.771610 -36.973621 23.00000000
-21.416588 6.381410 -24.452061 23.00000000
-21.186380 3.371611 -34.931900 23.00000000
-21.136087 2.714073 2.002713 23.00000000
-21.533579 7.910963 -59.875690 23.00000000
-21.055620 1.662025 -41.874340 23.00000000
-20.928474 -0.000308 -42.720573 23.00000000
-21.534315 7.920610 -21.805464 23.00000000
-21.470566 7.087118 -15.221641 23.00000000
-21.089373 2.103304 -45.878902 23.00000000
-21.021767 1.219429 -0.525463 23.00000000
-21.172010 3.183758 0.791041 23.00000000
-21.141041 2.778831 -27.331833 23.00000000
-21.342295 5.410071 -37.314243 23.00000000
-21.262543 4.367380 -57.295372 23.00000000
-21.358511 5.622102 -45.270622 23.00000000
-21.110615 2.381041 -51.933971 23.00000000
-20.991837 0.828107 -32.245335 23.00000000
-21.218161 3.787132 -15.892775 23.00000000
-21.119774 2.500782 -13.017487 23.00000000
-21.062534 1.752428 -25.555244 23.00000000
-21.531494 7.883716 -7.364714 23.00000000
-21.269957 4.464323 -58.458427 23.00000000
-21.140869 2.776603 -26.172249 23.00000000
-21.194059 3.472026 -30.909821 23.00000000
-20.966726 0.499809 -29.572811 23.00000000
-21.424231 6.481323 -36.462887 23.00000000
-21.179037 3.275612 -46.508137 23.00000000
-21.229473 3.935033 -41.961746 23.00000000
-21.221355 3.828888 -25.157125 23.00000000
-21.369968 5.771907 -34.239964 23.00000000
-21.290899 4.738141 -42.899422 23.00000000
-21.037497 1.425086 -4.076370 23.00000000
-21.317671 5.088140 -21.994211 23.00000000
-21.176640 3.244253 -17.032549 23.00000000
-21.400322 6.168745 -8.776985 23.00000000
-21.482874 7.248038 -29.659782 23.00000000
-21.095394 2.182059 -3.061626 23.00000000
-21.512856 7.640027 -48.760311 23.00000000
-21.027250 1.291118 -9.024886 23.00000000
-21.093431 2.156380 -29.238400 23.00000000
-21.281887 4.620299 -37.584129 23.00000000
-20.932562 0.053133 -22.004469 23.00000000
-21.219412 3.803478 -58.486488 23.00000000
-20.944046 0.203282 -17.278305 23.00000000
-20.918407 -0.131929 -56.764843 23.00000000
-21.182592 3.322104 -47.911442 23.00000000
-21.089710 2.107724 -26.021339 23.00000000
-21.534725 7.925982 -9.679273 23.00000000
-21.248774 4.187350 -38.713024 23.00000000
-21.007133 1.028115 -35.387493 23.00000000
-21.092928 2.149807 -39.823433 23.00000000
-21.298395 4.836146 -44.610168 23.00000000
-21.334124 5.303244 -8.645848 23.00000000
-21.314119 5.041724 -15.108900 23.00000000
-21.103552 2.288708 -49.350796 23.00000000
-21.343054 5.420008 -60.061737 23.00000000
-20.926140 -0.030840 0.918227 23.00000000
-20.929571 0.014033 3.028218 23.00000000
-21.521900 7.758283 -27.410275 23.00000000
-21.131744 2.657304 -14.586271 23.00000000
-21.414328 6.351865 -25.719181 23.00000000
-21.066542 1.804823 -19.036329 23.00000000
-21.492182 7.369731 -54.712376 23.00000000
-20.928844 0.004520 -5.556896 23.00000000
-21.017107 1.158493 2.363688 23.00000000
-20.967745 0.513118 -10.799152 23.00000000
-21.128401 2.613571 -15.899007 23.00000000
-21.166470 3.111292 -9.785048 23.00000000
-21.492447 7.373191 -34.984905 23.00000000
-21.140579 2.772810 -22.327921 23.00000000
-20.969362 0.534273 -34.163158 23.00000000
-21.530975 7.876943 -50.635460 23.00000000
-21.089403 2.103720 -28.378817 23.00000000
-21.013105 1.106177 0.186245 23.00000000
-21.056364 1.671769 -36.451614 23.00000000
-21.370523 5.779157 -58.365452 23.00000000
-21.436417 6.640661 -0.040383 23.00000000
-21.021288 1.213154 -53.487083 23.00000000
-21.420696 6.435134 -39.589066 23.00000000
-21.534264 7.919921 -23.007095 23.00000000
-21.090490 2.117935 -16.632839 23.00000000
-21.217211 3.774708 -36.291504 23.00000000
-21.352612 5.544961 -29.419243 23.00000000
-20.957014 0.372832 -28.144381 23.00000000
-21.003328 0.978350 -54.855965 23.00000000
-21.066332 1.802069 -52.815708 23.00000000
-20.969151 0.531505 -21.093058 23.00000000
-21.426149 6.506418 -15.092358 23.00000000
-21.291162 4.741568 -26.761934 23.00000000
-21.049873 1.586899 -39.868732 23.00000000
-21.170464 3.163528 -9.119913 23.00000000
-21.096371 2.194800 -38.377960 23.00000000
-21.070980 1.862862 -53.699585 23.00000000
-21.472057 7.106623 -43.911942 23.00000000
-20.922293 -0.081141 -23.643049 23.00000000
-21.163671 3.074707 -23.530939 23.00000000
-21.361340 5.659091 -59.355160 23.00000000
-20.985155 0.740768 -17.759331 23.00000000
-21.071659 1.871725 -20.764124 23.00000000
-21.480053 7.211156 3.539152 23.00000000
-21.273830 4.514969 -25.686012 23.00000000
-21.230225 3.944841 0.352714 23.00000000
-21.052523 1.621540 -27.562319 23.00000000
-21.453663 6.866121 -45.809109 23.00000000
-21.347570 5.479055 -55.012344 23.00000000
-21.191175 3.434321 -42.355839 23.00000000
-21.257219 4.297791 -6.123596 23.00000000
-21.241245 4.088945 -55.842804 23.00000000
-21.211166 3.695670 -18.870342 23.00000000
-21.536352 7.947230 -19.019451 23.00000000
-21.530476 7.870393 -7.984566 23.00000000
-21.502258 7.501485 -4.182317 23.00000000
-21.221884 3.835810 -35.472282 23.00000000
-21.481367 7.228344 -40.497803 23.00000000
-21.269491 4.458243 -45.240971 23.00000000
-21.019613 1.191273 -18.167713 23.00000000
-21.434956 6.621544 -19.871822 23.00000000
-21.494564 7.400898 -47.373966 23.00000000
-21.282715 4.631120 -54.003826 23.00000000
-21.142147 2.793296 -60.908630 23.00000000
-21.406286 6.246735 -53.408779 23.00000000
-21.055500 1.660452 -61.047424 23.00000000
-21.219221 3.800982 -17.408985 23.00000000
-21.101233 2.258370 -19.600489 23.00000000
-21.438789 6.671687 -59.540398 23.00000000
-21.428535 6.537615 -40.345066 23.00000000
-20.965076 0.478232 -48.210396 23.00000000
-21.451027 6.831664 -38.098110 23.00000000
-21.407455 6.262023 -5.270517 23.00000000
-20.935966 0.097647 -29.187517 23.00000000
-21.339294 5.370861 -22.712175 23.00000000
-21.337229 5.343850 -41.383659 23.00000000
-21.519459 7.726377 -42.746132 23.00000000
-21.517029 7.694598 -51.351055 23.00000000
-21.196146 3.499297 -61.097702 23.00000000
-20.970238 0.545727 -0.857128 23.00000000
-21.255678 4.277653 -56.575096 23.00000000
-21.040323 1.462024 -34.938812 23.00000000
-20.997597 0.903418 -27.672468 23.00000000
-21.129366 2.626189 -47.680172 23.00000000
-21.176367 3.240695 -31.792171 23.00000000
-21.113426 2.417816 -8.433008 23.00000000
-21.028448 1.306770 -5.322533 23.00000000
-21.317417 5.084840 -26.053736 23.00000000
-21.083977 2.032757 -43.345272 23.00000000
-21.122057 2.530635 -4.222589 23.00000000
-21.205816 3.625733 -47.252945 23.00000000
-20.975548 0.615128 -28.878378 23.00000000
-21.218670 3.793788 -6.911477 23.00000000
-21.440870 6.698898 -51.570335 23.00000000
-21.212898 3.718317 -45.056080 23.00000000
-21.538113 7.970253 -4.769120 23.00000000
-21.299227 4.847005 -35.152206 23.00000000
-20.999134 0.923509 -15.056309 23.00000000
-21.387865 6.005889 -22.740391 23.00000000
-21.344315 5.436492 -23.950083 23.00000000
-21.458359 6.927518 -49.106747 23.00000000
-21.144367 2.822324 -57.407780 23.00000000
-21.262426 4.365858 -36.312710 23.00000000
-21.193995 3.471170 -57.782578 23.00000000
-21.514391 7.660096 -14.961022 23.00000000
-21.394991 6.099042 -60.032864 23.00000000
-21.080667 1.989497 -24.142279 23.00000000
-21.042271 1.487485 -50.371136 23.00000000
-21.529228 7.854107 -29.549965 23.00000000
-21.185980 3.366369 -40.247513 23.00000000
-21.532209 7.893081 -24.826145 23.00000000
-21.213987 3.732553 -59.586811 23.00000000
-21.391184 6.049263 -26.888794 23.00000000
-21.164335 3.083388 -3.671550 23.00000000
-21.460215 6.951807 -4.975556 23.00000000
-21.102798 2.278860 -0.352845 23.00000000
-20.928085 -0.005400 -25.266483 23.00000000
-21.292513 4.759227 -40.181786 23.00000000
-21.032352 1.357835 -23.861643 23.00000000
-21.142164 2.793526 -21.562656 23.00000000
-21.300074 4.858083 -52.564926 23.00000000
-21.053808 1.638343 -11.007848 23.00000000
-21.125795 2.579530 -2.376563 23.00000000
-21.454626 6.878737 -14.412013 23.00000000
-21.484909 7.274650 -37.658897 23.00000000
-20.952599 0.315090 -30.640030 23.00000000
-21.127317 2.599406 -58.786556 23.00000000
-20.997688 0.904622 -30.008915 23.00000000
-21.536093 7.943851 -34.394344 23.00000000
-21.146154 2.845694 -30.826031 23.00000000
-21.326284 5.200760 -1.139953 23.00000000
-21.154980 2.961090 -20.737513 23.00000000
-21.485666 7.284551 -24.702145 23.00000000
-21.258993 4.320995 -60.831509 23.00000000
-21.426146 6.506376 -7.582749 23.00000000
-21.507137 7.565272 1.422786 23.00000000
-20.935099 0.086303 -19.553387 23.00000000
-21.061399 1.737594 -55.678028 23.00000000
-21.356991 5.602209 -28.233952 23.00000000
-20.928480 -0.000220 -55.949097 23.00000000
-21.362965 5.680330 -25.959223 23.00000000
-21.223389 3.855483 -31.739029 23.00000000
-21.531324 7.881514 -26.393599 23.00000000
-21.248171 4.179467 -8.337468 23.00000000
-21.229645 3.937271 -44.410156 23.00000000
-21.319107 5.106923 -40.817829 23.00000000
-21.249624 4.198485 -33.139984 23.00000000
-21.412277 6.325057 -20.585037 23.00000000
-21.366409 5.725372 -47.814163 23.00000000
-21.172600 3.191437 -44.534916 23.00000000
-21.470917 7.091717 -5.647492 23.00000000
-21.344152 5.434382 -43.175018 23.00000000
-21.058201 1.695777 -45.205734 23.00000000
-21.174706 3.218985 -15.598717 23.00000000
-21.287182 4.689523 -12.154943 23.00000000
-21.129036 2.621885 -1.694901 23.00000000
-21.306299 4.939476 -50.044479 23.00000000
-21.389420 6.026196 -35.708233 23.00000000
-21.539412 7.987235 -48.032280 23.00000000
-21.243528 4.118798 -50.237740 23.00000000
-21.100250 2.245535 -37.700764 23.00000000
-21.153601 2.943046 -58.149738 23.00000000
-20.954325 0.337664 -39.941051 23.00000000
-21.046007 1.536360 -40.843586 23.00000000
-21.004196 0.989691 -11.203209 23.00000000
-21.013096 1.106053 -48.709740 23.00000000
-21.383860 5.953521 -47.244221 23.00000000
-20.920238 -0.107979 -30.038225 23.00000000
-20.966969 0.502964 -25.879639 23.00000000
-21.461704 6.971280 -30.215599 23.00000000
-21.343760 5.429237 -34.755188 23.00000000
-21.399572 6.158950 -1.089762 23.00000000
-21.400154 6.166551 -49.270981 23.00000000
-21.341597 5.400951 -57.018795 23.00000000
-20.986332 0.756143 -16.033962 23.00000000
-21.391659 6.055489 1.866070 23.00000000
-21.392263 6.063378 -15.929933 23.00000000
-21.172703 3.192792 -33.040180 23.00000000
-21.013439 1.110550 -40.233353 23.00000000
-20.941444 0.169265 -37.406647 23.00000000
-21.126396 2.587379 2.656477 23.00000000
-21.006699 1.022408 -37.071781 23.00000000
-21.180269 3.291723 -28.067501 23.00000000
-21.461004 6.962126 -43.199165 23.00000000
-20.947447 0.247745 -51.587238 23.00000000
-21.061853 1.743514 -8.207389 23.00000000
-21.155952 2.973799 -43.159801 23.00000000
-20.924599 -0.050970 -54.432404 23.00000000
-21.163288 3.069717 -60.263638 23.00000000
-21.499819 7.469577 -59.063236 23.00000000
-21.440928 6.699642 -35.893261 23.00000000
-21.325951 5.196393 -1.880831 23.00000000
-21.087555 2.079553 -58.431168 23.00000000
-21.347931 5.483776 1.661726 23.00000000
-21.030130 1.328760 -54.233753 23.00000000
-21.141092 2.779513 -50.980251 23.00000000
-21.359276 5.632106 -31.856256 23.00000000
-20.991270 0.820718 -53.879887 23.00000000
-21.318504 5.099041 -16.599304 23.00000000
-21.227802 3.913176 -52.300514 23.00000000
-21.024961 1.261202 -33.647945 23.00000000
-21.335682 5.323632 -3.227907 23.00000000
-21.352409 5.542321 -43.942657 23.00000000
-21.146971 2.856353 -5.719377 23.00000000
-21.088638 2.093708 -50.509689 23.00000000
-21.026537 1.281770 -45.713261 23.00000000
-20.937328 0.115454 -3.415530 23.00000000
-21.044416 1.515538 -2.480215 23.00000000
-21.107790 2.344114 -42.047855 23.00000000
-21.367374 5.737985 -21.683722 23.00000000
-20.999231 0.924793 -30.611605 23.00000000
-21.117741 2.474218 -34.396915 23.00000000
-21.287422 4.692678 -14.621996 23.00000000
-21.515366 7.672853 -13.653198 23.00000000
-21.145477 2.836846 -37.863411 23.00000000
-21.236706 4.029587 -8.937741 23.00000000
-21.277079 4.557439 -19.312178 23.00000000
-21.094276 2.167440 -47.300133 23.00000000
-21.346508 5.465164 -9.190250 23.00000000
-21.164602 3.086898 -52.114632 23.00000000
-21.514706 7.664236 -5.532995 23.00000000
-21.023567 1.242969 -28.362272 23.00000000
-21.197929 3.522621 -41.472355 23.00000000
-21.336355 5.332443 -4.934327 23.00000000
-21.400801 6.175008 -45.495739 23.00000000
-21.137335 2.730373 -26.738756 23.00000000
-21.512316 7.632980 -60.631691 23.00000000
-20.917734 -0.140712 -2.776829 23.00000000
-21.244684 4.133897 -37.080147 23.00000000
-21.054537 1.647867 -24.856562 23.00000000
-21.160927 3.038833 -25.071039 23.00000000
-21.406300 6.246908 -23.266279 23.00000000
-21.295637 4.800070 -6.758234 23.00000000
-21.486757 7.298825 -22.842316 23.00000000
-21.230837 3.952846 -54.590492 23.00000000
-21.468912 7.065502 -42.512402 23.00000000
-21.029444 1.319797 -56.095840 23.00000000
-21.395947 6.111551 -57.311028 23.00000000
-21.477350 7.175847 -25.450026 23.00000000
-20.919092 -0.122967 -48.048450 23.00000000
-21.138300 2.742993 -31.497044 23.00000000
-20.988672 0.786730 0.790051 23.00000000
-21.420113 6.427486 -21.269239 23.00000000
-21.487507 7.308629 -56.154301 23.00000000
-21.133722 2.683147 -55.351204 23.00000000
-21.185131 3.355294 -27.334673 23.00000000
-21.232622 3.976191 -3.570590 23.00000000
-21.361410 5.660012 -55.767365 23.00000000
-21.379957 5.902503 -18.741779 23.00000000
-21.097635 2.211343 -33.873753 23.00000000
-21.002567 0.968418 -46.259602 23.00000000
-21.308819 4.972407 -7.388098 23.00000000
-21.304865 4.920708 -17.443462 23.00000000
-21.431183 6.572217 -3.508447 23.00000000
-21.258160 4.310090 -20.711708 23.00000000
-21.529375 7.856014 -37.472038 23.00000000
-21.349497 5.504229 -13.078627 23.00000000
-21.351028 5.524265 -30.182854 23.00000000
-21.170177 3.159788 -18.661509 23.00000000
-21.327665 5.218830 -48.578339 23.00000000
-21.193478 3.464409 -53.788464 23.00000000
-21.157249 2.990760 -35.369991 23.00000000
-21.523314 7.776753 0.145829 23.00000000
-21.333963 5.301163 2.429001 23.00000000
-21.415766 6.370654 -44.275208 23.00000000
-21.284756 4.657805 -47.904327 23.00000000
-20.976753 0.630914 -8.950052 23.00000000
-21.507238 7.566599 -8.469341 23.00000000
-20.968620 0.524566 -24.842405 23.00000000
-21.181686 3.310251 1.785260 23.00000000
-21.174541 3.216840 -58.894398 23.00000000
-21.015928 1.143098 -31.331129 23.00000000
-21.375492 5.844108 -52.527290 23.00000000
-20.935833 0.095899 -15.769594 23.00000000
11.466632 -21.707212 -3.401350 24.00000000
5.607926 -22.075314 -34.730286 24.00000000
11.032528 -21.734488 -46.822037 24.00000000
5.310735 -22.093987 -33.582047 24.00000000
10.856753 -21.745531 -58.717999 24.00000000
7.262885 -21.971334 -12.995312 24.00000000
6.746576 -22.003773 -18.869762 24.00000000
8.988535 -21.862911 -1.165874 24.00000000
10.478966 -21.769268 -53.324890 24.00000000
7.603208 -21.949951 -16.328354 24.00000000
7.397565 -21.962872 -42.152882 24.00000000
6.175754 -22.039639 -9.721873 24.00000000
11.981007 -21.674894 -59.027821 24.00000000
5.483573 -22.083126 -21.188118 24.00000000
7.142005 -21.978930 -22.181437 24.00000000
7.768803 -21.939547 -9.753167 24.00000000
7.979930 -21.926283 -1.654483 24.00000000
8.344906 -21.903351 -40.575832 24.00000000
12.047823 -21.670696 -33.982033 24.00000000
8.730193 -21.879143 -11.186537 24.00000000
4.899729 -22.119810 3.198924 24.00000000
9.681773 -21.819357 -23.591534 24.00000000
7.029330 -21.986008 -5.204030 24.00000000
5.505383 -22.081757 -4.741445 24.00000000
5.897093 -22.057146 -60.306484 24.00000000
10.736413 -21.753094 -19.188145 24.00000000
9.220590 -21.848331 -21.013733 24.00000000
10.456778 -21.770662 -12.762055 24.00000000
5.804441 -22.062967 -32.069889 24.00000000
8.506313 -21.893209 -29.752867 24.00000000
11.354527 -21.714256 -11.159915 24.00000000
6.256507 -22.034563 -42.773407 24.00000000
7.564047 -21.952412 -24.763844 24.00000000
10.482381 -21.769054 -57.304230 24.00000000
11.867041 -21.682056 -60.029125 24.00000000
11.087765 -21.731018 -47.960831 24.00000000
10.692291 -21.755865 -50.547348 24.00000000
8.174010 -21.914087 -37.481724 24.00000000
11.991217 -21.674253 0.568064 24.00000000
7.106579 -21.981153 -38.315697 24.00000000
9.921124 -21.804317 -13.911562 24.00000000
10.467749 -21.769974 -41.957943 24.00000000
7.235498 -21.973055 -36.200153 24.00000000
7.810106 -21.936953 -36.964943 24.00000000
8.861350 -21.870903 -18.141792 24.00000000
11.367241 -21.713457 -0.604238 24.00000000
4.852619 -22.122770 -31.817944 24.00000000
10.555996 -21.764427 -15.151546 24.00000000
5.606588 -22.075397 -25.740086 24.00000000
11.445900 -21.708515 -59.328136 24.00000000
6.727932 -22.004946 -20.667728 24.00000000
10.803822 -21.748857 -55.077023 24.00000000
7.788247 -21.938326 -29.799686 24.00000000
6.533588 -22.017155 -42.215099 24.00000000
11.995157 -21.674006 -0.591505 24.00000000
11.640472 -21.696291 -18.108973 24.00000000
11.441688 -21.708780 -32.781116 24.00000000
7.785144 -21.938520 -47.535915 24.00000000
7.611493 -21.949430 -22.495749 24.00000000
11.015650 -21.735548 -36.385056 24.00000000
8.211571 -21.911728 -41.281261 24.00000000
6.073758 -22.046045 -27.498409 24.00000000
8.221902 -21.911079 -59.210049 24.00000000
7.855721 -21.934086 -15.222226 24.00000000
8.382218 -21.901007 -52.977959 24.00000000
5.526172 -22.080450 -58.983337 24.00000000
9.378156 -21.838432 -10.971917 24.00000000
11.292066 -21.718182 -30.979012 24.00000000
6.766145 -22.002544 -49.814362 24.00000000
6.016870 -22.049620 -22.943108 24.00000000
12.013354 -21.672863 -5.484226 24.00000000
10.192431 -21.787271 -6.530231 24.00000000
5.368129 -22.090382 -13.618179 24.00000000
5.766109 -22.065376 -51.974236 24.00000000
7.464908 -21.958641 -10.301147 24.00000000
6.922023 -21.992750 -16.164276 24.00000000
11.364420 -21.713634 -35.739452 24.00000000
9.821805 -21.810556 -43.316128 24.00000000
7.173774 -21.976933 -18.350620 24.00000000
9.859653 -21.808180 -10.535833 24.00000000
11.119834 -21.729004 -40.693203 24.00000000
9.728235 -21.816437 -21.283213 24.00000000
9.926560 -21.803976 -37.033321 24.00000000
11.200295 -21.723948 -26.248512 24.00000000
10.572355 -21.763401 -29.900267 24.00000000
5.244946 -22.098120 -36.860107 24.00000000
10.770450 -21.750954 -53.988155 24.00000000
9.223316 -21.848160 -28.049894 24.00000000
5.506298 -22.081699 -26.321232 24.00000000
6.559082 -22.015553 -26.891676 24.00000000
6.148466 -22.041351 -1.268971 24.00000000
6.945833 -21.991255 -1.099221 24.00000000
5.368909 -22.090332 -40.538147 24.00000000
7.275561 -21.970537 -14.210764 24.00000000
10.059227 -21.795641 -0.073572 24.00000000
7.196302 -21.975517 -60.948013 24.00000000
4.799699 -22.126095 -59.632614 24.00000000
10.868282 -21.744808 -3.394669 24.00000000
7.957460 -21.927694 -4.748264 24.00000000
7.234002 -21.973148 -26.753365 24.00000000
8.079827 -21.920006 -45.095112 24.00000000
6.182163 -22.039234 -7.494012 24.00000000
6.636195 -22.010710 -52.326485 24.00000000
9.971275 -21.801167 -20.223143 24.00000000
10.714064 -21.754498 -51.219570 24.00000000
11.911130 -21.679285 -30.352005 24.00000000
10.141203 -21.790489 -49.838600 24.00000000
6.980259 -21.989092 -57.541130 24.00000000
6.085204 -22.045326 -26.490021 24.00000000
9.689198 -21.818890 -0.894972 24.00000000
11.561088 -21.701279 -54.586899 24.00000000
5.647341 -22.072838 -16.780548 24.00000000
8.611811 -21.886581 -43.430279 24.00000000
10.882667 -21.743904 -23.472967 24.00000000
9.976413 -21.800844 -24.274786 24.00000000
8.173343 -21.914129 -2.139854 24.00000000
9.727809 -21.816463 -25.064096 24.00000000
10.972731 -21.738245 -44.269814 24.00000000
8.849084 -21.871674 -46.012413 24.00000000
8.962409 -21.864553 -0.619822 24.00000000
5.278131 -22.096035 -28.228968 24.00000000
6.714571 -22.005783 -32.368031 24.00000000
6.094066 -22.044769 -35.261719 24.00000000
6.773202 -22.002100 -35.767849 24.00000000
10.247366 -21.783819 3.238232 24.00000000
4.978125 -22.114885 -23.848955 24.00000000
11.364294 -21.713642 -19.163334 24.00000000
8.189348 -21.913124 -28.848818 24.00000000
5.709811 -22.068913 -49.898621 24.00000000
9.738734 -21.815777 -22.561142 24.00000000
7.269820 -21.970898 -27.922033 24.00000000
9.248103 -21.846603 -25.863384 24.00000000
7.770618 -21.939432 1.709983 24.00000000
8.466138 -21.895735 -25.535496 24.00000000
4.801058 -22.126011 -5.886971 24.00000000
10.755756 -21.751879 -49.213467 24.00000000
11.427415 -21.709677 -11.700769 24.00000000
6.173083 -22.039806 -18.767715 24.00000000
7.253109 -21.971949 -40.789742 24.00000000
8.782371 -21.875866 -18.802601 24.00000000
7.774650 -21.939180 -13.943518 24.00000000
9.083906 -21.856918 -48.734203 24.00000000
7.276629 -21.970470 -51.963753 24.00000000
10.066445 -21.795187 -50.554562 24.00000000
7.319941 -21.967749 -32.790344 24.00000000
5.351208 -22.091444 -41.111534 24.00000000
8.198522 -21.912548 -35.368408 24.00000000
6.592309 -22.013466 -17.580587 24.00000000
10.086167 -21.793947 -27.125944 24.00000000
9.914262 -21.804749 -16.335199 24.00000000
5.269210 -22.096596 -7.224409 24.00000000
6.162529 -22.040468 -47.285877 24.00000000
5.396341 -22.088608 -52.404560 24.00000000
10.322406 -21.779104 -56.565735 24.00000000
11.784419 -21.687246 -46.453098 24.00000000
5.355541 -22.091171 -1.503188 24.00000000
9.464240 -21.833023 -39.432442 24.00000000
9.454663 -21.833626 -60.585186 24.00000000
5.687712 -22.070301 -21.764658 24.00000000
7.824949 -21.936020 3.654567 24.00000000
7.061376 -21.983994 -5.848132 24.00000000
11.366628 -21.713497 -28.655621 24.00000000
10.391395 -21.774771 -28.170546 24.00000000
7.427379 -21.960999 -51.303249 24.00000000
7.098249 -21.981678 -3.561082 24.00000000
4.995568 -22.113789 -11.855719 24.00000000
7.492565 -21.956903 -38.852802 24.00000000
12.056628 -21.670143 -6.403181 24.00000000
6.702361 -22.006552 -50.569130 24.00000000
9.881873 -21.806784 -47.701286 24.00000000
6.795648 -22.000690 -47.076851 24.00000000
10.668290 -21.757374 -22.261282 24.00000000
8.398583 -21.899979 -57.182281 24.00000000
10.951132 -21.739601 -45.064266 24.00000000
11.069317 -21.732178 -12.344701 24.00000000
7.737094 -21.941540 -14.565484 24.00000000
4.960195 -22.116011 -60.973156 24.00000000
9.120604 -21.854614 -6.067181 24.00000000
6.671984 -22.008459 -39.311806 24.00000000
7.811782 -21.936848 -61.109005 24.00000000
10.719165 -21.754177 -28.897194 24.00000000
10.840156 -21.746574 -48.679611 24.00000000
11.142437 -21.727583 -43.575882 24.00000000
8.133079 -21.916660 -39.715889 24.00000000
7.835486 -21.935356 -31.357281 24.00000000
9.303658 -21.843113 -22.990019 24.00000000
5.416394 -22.087349 -42.509884 24.00000000
5.647249 -22.072844 -9.956110 24.00000000
11.378351 -21.712761 -6.616998 24.00000000
5.879778 -22.058233 -8.629977 24.00000000
8.250206 -21.909302 -19.499538 24.00000000
10.106712 -21.792658 -32.919319 24.00000000
11.030919 -21.734589 -22.829268 24.00000000
9.025835 -21.860567 -29.261229 24.00000000
7.455089 -21.959257 -28.453352 24.00000000
7.198939 -21.975351 -1.617932 24.00000000
7.303309 -21.968794 -53.370476 24.00000000
5.298665 -22.094746 -49.092823 24.00000000
10.980853 -21.737736 -42.340233 24.00000000
10.298620 -21.780600 -30.396536 24.00000000
11.119970 -21.728994 -3.908773 24.00000000
9.123095 -21.854458 -12.010282 24.00000000
9.399571 -21.837086 -3.605224 24.00000000
6.911908 -21.993385 -43.653954 24.00000000
6.044859 -22.047861 -46.337109 24.00000000
11.661111 -21.694994 -38.616219 24.00000000
11.864607 -21.682209 -12.446737 24.00000000
6.363224 -22.027859 -24.385466 24.00000000
6.940520 -21.991589 -56.391876 24.00000000
6.094261 -22.044758 -44.539047 24.00000000
8.130931 -21.916796 -24.961630 24.00000000
7.279711 -21.970278 -33.393688 24.00000000
5.789929 -22.063879 -37.104836 24.00000000
8.457608 -21.896271 -37.973991 24.00000000
7.309778 -21.968388 -15.711440 24.00000000
9.079215 -21.857214 1.223973 24.00000000
9.625268 -21.822906 2.178584 24.00000000
7.223354 -21.973818 -44.982967 24.00000000
4.991994 -22.114014 -44.403950 24.00000000
8.999451 -21.862226 -50.004490 24.00000000
6.180627 -22.039331 -45.127171 24.00000000
7.136861 -21.979252 -19.847616 24.00000000
4.904666 -22.119499 -20.190088 24.00000000
8.476953 -21.895054 -51.573803 24.00000000
6.627457 -22.011257 -26.243275 24.00000000
5.092504 -22.107698 -22.387224 24.00000000
7.661274 -21.946302 3.007132 24.00000000
6.698217 -22.006811 -14.351519 24.00000000
5.351123 -22.091450 -35.326012 24.00000000
11.258641 -21.720282 -20.417637 24.00000000
8.592590 -21.887789 -15.317417 24.00000000
6.497800 -22.019403 1.718558 24.00000000
4.816451 -22.125042 -43.255253 24.00000000
7.109878 -21.980947 -14.808761 24.00000000
8.992165 -21.862684 0.003277 24.00000000
12.050875 -21.670506 -22.406500 24.00000000
4.829005 -22.124254 -6.845012 24.00000000
6.199371 -22.038155 -10.709994 24.00000000
10.130470 -21.791164 -61.088718 24.00000000
7.340308 -21.966469 -40.134342 24.00000000
9.957178 -21.802052 -13.290264 24.00000000
8.780336 -21.875994 -2.392364 24.00000000
8.397252 -21.900063 -27.267895 24.00000000
9.321480 -21.841993 -48.214287 24.00000000
11.187942 -21.724724 -16.463230 24.00000000
8.973296 -21.863869 -36.406898 24.00000000
6.902670 -21.993965 -51.224747 24.00000000
11.103375 -21.730038 -9.711094 24.00000000
11.896261 -21.680220 -36.326290 24.00000000
7.610768 -21.949476 -42.686691 24.00000000
6.872225 -21.995878 -59.154209 24.00000000
4.813287 -22.125240 -27.384415 24.00000000
8.543686 -21.890862 -12.131136 24.00000000
9.110307 -21.855261 -30.496836 24.00000000
6.998916 -21.987919 -24.917143 24.00000000
7.939239 -21.928839 -34.165638 24.00000000
10.739944 -21.752871 -30.692739 24.00000000
11.091818 -21.730762 -24.132149 24.00000000
10.091364 -21.793621 -32.080734 24.00000000
6.125261 -22.042810 -21.126675 24.00000000
8.039477 -21.922541 -43.692593 24.00000000
11.989151 -21.674383 2.593815 24.00000000
7.385501 -21.963631 -7.057841 24.00000000
8.008849 -21.924465 -17.143925 24.00000000
11.028045 -21.734770 -29.490313 24.00000000
7.765010 -21.939785 -27.493433 24.00000000
7.227366 -21.973564 -27.356441 24.00000000
7.934215 -21.929153 -13.124399 24.00000000
11.245930 -21.721081 -56.066681 24.00000000
4.957966 -22.116152 -39.982136 24.00000000
6.304032 -22.031578 -29.238386 24.00000000
11.518933 -21.703926 -58.643505 24.00000000
4.932834 -22.117729 0.342732 24.00000000
4.853406 -22.122721 -19.626656 24.00000000
8.004886 -21.924713 -52.407146 24.00000000
8.333766 -21.904051 -1.061708 24.00000000
10.611191 -21.760962 -41.410877 24.00000000
6.818223 -21.999271 -6.954951 24.00000000
8.744302 -21.878258 -54.375107 24.00000000
10.342754 -21.777826 -25.291422 24.00000000
8.452583 -21.896585 -28.248905 24.00000000
8.277518 -21.907585 -10.229167 24.00000000
8.666630 -21.883137 -58.729107 24.00000000
4.834019 -22.123940 -53.986805 24.00000000
11.992039 -21.674202 -3.916370 24.00000000
9.816805 -21.810871 -2.885634 24.00000000
6.487867 -22.020027 -12.941634 24.00000000
6.144248 -22.041616 -32.620567 24.00000000
10.265481 -21.782681 -24.728706 24.00000000
7.415407 -21.961752 -17.308933 24.00000000
5.047859 -22.110502 -51.027130 24.00000000
6.650125 -22.009832 -28.290726 24.00000000
7.911724 -21.930567 -51.686993 24.00000000
11.191267 -21.724516 -2.905259 24.00000000
10.407585 -21.773752 -42.636791 24.00000000
7.492685 -21.956896 -20.458549 24.00000000
11.042909 -21.733835 -1.895378 24.00000000
5.013681 -22.112652 -55.683849 24.00000000
8.887960 -21.869230 -13.966946 24.00000000
7.348578 -21.965950 -34.710648 24.00000000
7.915877 -21.930305 -6.585837 24.00000000
5.741586 -22.066916 -28.929241 24.00000000
7.831078 -21.935635 -41.814762 24.00000000
11.616811 -21.697779 -52.581932 24.00000000
6.160077 -22.040623 -59.073769 24.00000000
9.968007 -21.801373 -33.950985 24.00000000
8.528403 -21.891823 -52.167740 24.00000000
11.530571 -21.703196 -7.252104 24.00000000
6.627537 -22.011251 2.617527 24.00000000
11.235367 -21.721745 -60.262089 24.00000000
5.340324 -22.092129 -5.690242 24.00000000
7.192218 -21.975775 -16.722622 24.00000000
6.294852 -22.032154 -56.216698 24.00000000
10.456064 -21.770706 -21.049355 24.00000000
10.932272 -21.740788 -32.358219 24.00000000
12.056772 -21.670135 3.871653 24.00000000
9.246160 -21.846725 -16.625523 24.00000000
7.417668 -21.961609 -46.881405 24.00000000
10.420230 -21.772959 -60.049068 24.00000000
6.128680 -22.042597 -50.227837 24.00000000
9.790525 -21.812523 -17.664671 24.00000000
7.330032 -21.967115 0.083868 24.00000000
5.642946 -22.073114 0.315002 24.00000000
5.638636 -22.073385 -17.968952 24.00000000
10.673783 -21.757029 -33.426029 24.00000000
11.722320 -21.691149 -16.255316 24.00000000
11.884332 -21.680969 -14.117307 24.00000000
5.609749 -22.075199 -43.782181 24.00000000
7.435295 -21.960501 -2.868481 24.00000000
8.510750 -21.892931 -13.363759 24.00000000
5.736001 -22.067266 -23.461346 24.00000000
8.690374 -21.881645 -9.011692 24.00000000
5.181459 -22.102110 -28.919094 24.00000000
7.003048 -21.987659 -8.796349 24.00000000
8.865096 -21.870667 -34.445274 24.00000000
10.242834 -21.784103 -18.111059 24.00000000
11.796580 -21.686483 -31.336637 24.00000000
10.480929 -21.769144 -2.005524 24.00000000
8.745219 -21.878199 -6.722338 24.00000000
10.314557 -21.779598 -23.783281 24.00000000
5.615263 -22.074854 -7.742371 24.00000000
9.880898 -21.806845 -53.735172 24.00000000
12.026166 -21.672058 -53.835869 24.00000000
6.821814 -21.999046 -45.371624 24.00000000
8.709484 -21.880444 -38.970005 24.00000000
6.713371 -22.005859 -51.772064 24.00000000
6.100604 -22.044359 3.703279 24.00000000
12.000841 -21.673649 -42.299263 24.00000000
8.696836 -21.881239 3.844507 24.00000000
7.107167 -21.981117 -9.824105 24.00000000
6.915544 -21.993156 -24.356955 24.00000000
8.695679 -21.881311 -49.130611 24.00000000
11.291626 -21.718208 -22.373833 24.00000000
5.220012 -22.099688 -17.255573 24.00000000
7.201470 -21.975191 -11.851731 24.00000000
11.165666 -21.726124 -9.083584 24.00000000
8.690293 -21.881651 -51.069073 24.00000000
6.869045 -21.996078 -48.843578 24.00000000
7.845895 -21.934704 0.482603 24.00000000
5.436138 -22.086107 3.692487 24.00000000
9.536738 -21.828468 -49.638889 24.00000000
8.054471 -21.921598 -22.983324 24.00000000
9.796840 -21.812126 -12.383747 24.00000000
7.646281 -21.947245 -21.157532 24.00000000
6.389542 -22.026205 0.657025 24.00000000
11.855838 -21.682760 -37.243961 24.00000000
5.550726 -22.078909 -27.748039 24.00000000
6.255050 -22.034657 -0.315459 24.00000000
11.264039 -21.719942 -17.059666 24.00000000
6.699863 -22.006708 -10.303127 24.00000000
9.658689 -21.820807 3.275409 24.00000000
11.399120 -21.711454 2.869664 24.00000000
7.890538 -21.931898 -0.090982 24.00000000
8.053374 -21.921667 -54.381130 24.00000000
8.834246 -21.872606 -60.293427 24.00000000
8.381194 -21.901072 -5.864917 24.00000000
10.204645 -21.786505 -49.199032 24.00000000
10.180586 -21.788015 -4.376257 24.00000000
8.499873 -21.893614 -32.217384 24.00000000
6.064971 -22.046598 2.274967 24.00000000
11.918272 -21.678837 -8.909653 24.00000000
6.717973 -22.005569 -56.936470 24.00000000
7.869018 -21.933250 2.279658 24.00000000
5.667236 -22.071589 -55.534122 24.00000000
9.709905 -21.817589 -27.580099 24.00000000
11.866772 -21.682074 -40.412067 24.00000000
12.037609 -21.671339 -29.571589 24.00000000
9.154142 -21.852507 2.546726 24.00000000
6.734977 -22.004501 -30.360714 24.00000000
11.281887 -21.718821 -51.537956 24.00000000
8.600037 -21.887321 -1.630912 24.00000000
9.431382 -21.835089 -36.726406 24.00000000
5.311398 -22.093945 2.504558 24.00000000
10.097268 -21.793249 -8.649289 24.00000000
11.450732 -21.708212 -4.462822 24.00000000
5.587295 -22.076611 -12.373201 24.00000000
9.490575 -21.831369 -8.611476 24.00000000
11.062418 -21.732611 -38.742706 24.00000000
6.769877 -22.002310 -35.040382 24.00000000
5.103009 -22.107038 -35.987514 24.00000000
12.047730 -21.670704 -27.648504 24.00000000
10.102229 -21.792938 -44.494781 24.00000000
6.130931 -22.042454 -28.470549 24.00000000
10.816377 -21.748070 -14.243497 24.00000000
9.540947 -21.828203 -58.141720 24.00000000
11.104089 -21.729992 -7.841519 24.00000000
7.824684 -21.936035 -23.638248 24.00000000
7.135410 -21.979343 -23.477287 24.00000000
6.153237 -22.041054 -43.368477 24.00000000
4.813860 -22.125204 -1.838551 24.00000000
6.295700 -22.032103 -4.517611 24.00000000
11.916725 -21.678934 -43.424828 24.00000000
6.810061 -21.999784 -31.749052 24.00000000
5.972210 -22.052425 -15.452198 24.00000000
7.981576 -21.926180 -33.469200 24.00000000
8.530771 -21.891672 2.313916 24.00000000
10.727342 -21.753662 2.901017 24.00000000
5.297539 -22.094816 -18.507610 24.00000000
7.009164 -21.987274 -58.181198 24.00000000
10.111087 -21.792381 -39.496689 24.00000000
8.084913 -21.919685 -38.916317 24.00000000
6.619513 -22.011757 -54.413700 24.00000000
11.125406 -21.728653 -18.574640 24.00000000
7.298830 -21.969074 1.970055 24.00000000
5.757252 -22.065931 -57.394329 24.00000000
11.966815 -21.675787 -10.487080 24.00000000
11.203639 -21.723738 0.349997 24.00000000
5.674268 -22.071146 -51.309235 24.00000000
4.796961 -22.126266 -48.438519 24.00000000
10.214605 -21.785877 1.174537 24.00000000
10.065561 -21.795242 -41.129444 24.00000000
11.885600 -21.680889 -14.729429 24.00000000
6.226199 -22.036469 -34.544033 24.00000000
9.758944 -21.814507 -18.393604 24.00000000
9.098846 -21.855982 -17.644415 24.00000000
4.862219 -22.122168 -0.324175 24.00000000
10.585435 -21.762579 -27.446205 24.00000000
6.503013 -22.019075 -36.318451 24.00000000
11.100664 -21.730207 -21.019346 24.00000000
12.023726 -21.672211 1.657708 24.00000000
5.718939 -22.068338 -48.584682 24.00000000
7.981947 -21.926155 -12.488244 24.00000000
8.924599 -21.866928 -41.127605 24.00000000
5.827840 -22.061497 -5.420812 24.00000000
9.994964 -21.799679 -31.331497 24.00000000
6.155165 -22.040932 -30.183676 24.00000000
10.090197 -21.793694 -59.520084 24.00000000
9.419033 -21.835863 -50.381863 24.00000000
10.755588 -21.751888 -61.111984 24.00000000
6.094607 -22.044737 -20.456509 24.00000000
10.956713 -21.739250 -26.774227 24.00000000
11.381536 -21.712561 -10.498582 24.00000000
9.835803 -21.809677 -53.087044 24.00000000
9.842419 -21.809261 0.432113 24.00000000
6.603096 -22.012789 -19.501192 24.00000000
6.307805 -22.031342 -12.084089 24.00000000
10.110820 -21.792398 -55.116928 24.00000000
5.508535 -22.081558 -60.761791 24.00000000
12.051564 -21.670462 -38.996048 24.00000000
10.450595 -21.771051 -40.724407 24.00000000
4.917949 -22.118666 -16.757851 24.00000000
11.421350 -21.710058 -39.882404 24.00000000
11.057221 -21.732937 -19.799387 24.00000000
7.335665 -21.966761 -29.342318 24.00000000
7.574057 -21.951782 -54.790760 24.00000000
9.133275 -21.853819 -45.451233 24.00000000
9.469755 -21.832678 3.846869 24.00000000
7.369414 -21.964642 1.196202 24.00000000
11.203230 -21.723763 -36.998203 24.00000000
4.945329 -22.116945 -21.035589 24.00000000
5.220499 -22.099655 -39.346947 24.00000000
10.054874 -21.795914 -4.981970 24.00000000
8.540443 -21.891066 -7.622076 24.00000000
5.642091 -22.073168 -11.783018 24.00000000
9.330646 -21.841417 -43.711262 24.00000000
11.533108 -21.703037 -25.814018 24.00000000
10.758792 -21.751686 -40.189487 24.00000000
12.012460 -21.672918 -16.829243 24.00000000
7.576688 -21.951618 -2.183363 24.00000000
12.068199 -21.669416 -32.932281 24.00000000
8.837105 -21.872425 -56.331036 24.00000000
9.672777 -21.819921 -32.605820 24.00000000
11.305802 -21.717318 -31.796003 24.00000000
12.064643 -21.669641 -44.819508 24.00000000
4.964883 -22.115717 -9.922899 24.00000000
6.943619 -21.991392 -22.907425 24.00000000
7.275580 -21.970535 -19.213823 24.00000000
9.941385 -21.803043 -56.013317 24.00000000
9.222714 -21.848198 -7.994543 24.00000000
9.088198 -21.856649 -4.907228 24.00000000
10.631392 -21.759691 -9.296635 24.00000000
9.299300 -21.843386 -46.529922 24.00000000
4.869560 -22.121706 -14.742258 24.00000000
9.693173 -21.818640 -60.022713 24.00000000
6.729302 -22.004860 -41.122448 24.00000000
11.188295 -21.724701 -27.347923 24.00000000
10.317829 -21.779392 -22.873493 24.00000000
9.171155 -21.851439 -42.980785 24.00000000
5.088617 -22.107943 -7.805356 24.00000000
7.921333 -21.929964 -34.733486 24.00000000
7.169969 -21.977173 3.329147 24.00000000
