-33.718910 4.170023 -30.610186 19.00000000
-21.658915 7.961399 -53.057022 19.00000000
-56.264774 -26.518366 -9.133099 19.00000000
-53.844837 -17.219776 -47.510593 19.00000000
-38.840981 1.294252 -37.830307 19.00000000
-38.871147 1.275301 -46.784298 19.00000000
-28.526899 6.150757 -51.510143 19.00000000
-52.529957 -14.251691 -25.524286 19.00000000
-48.898655 -8.265955 -18.444532 19.00000000
-56.079399 -25.203537 -56.326759 19.00000000
-37.622395 2.059782 -13.576927 19.00000000
-28.104349 6.292180 -6.627457 19.00000000
-56.621845 -31.663080 -40.743069 19.00000000
-43.791172 -2.572724 -47.945496 19.00000000
-37.778202 1.961903 3.523695 19.00000000
-51.979004 -13.129465 -12.885978 19.00000000
-56.511246 -28.888714 -23.888071 19.00000000
-56.591026 -33.366512 -46.184078 19.00000000
-56.581825 -33.874699 -59.375092 19.00000000
-51.390942 -12.099191 -58.566944 19.00000000
-30.622749 5.447678 -20.676193 19.00000000
-53.050610 -15.312206 -15.859683 19.00000000
-29.630535 5.780528 -40.708305 19.00000000
-56.596092 -33.086884 -31.020924 19.00000000
-50.097645 -9.965050 -52.910046 19.00000000
-43.074982 -1.945771 -8.882504 19.00000000
-28.590479 6.129429 -2.687355 19.00000000
-41.691315 -0.763223 -7.882536 19.00000000
-34.533218 3.767952 -37.877960 19.00000000
-54.501480 -18.947880 -55.331341 19.00000000
-29.720911 5.750211 -28.822340 19.00000000
-52.110531 -13.397365 -1.774311 19.00000000
-34.654942 3.704297 -2.989350 19.00000000
-50.386990 -10.406874 -9.539460 19.00000000
-48.423450 -7.600650 -8.475603 19.00000000
-52.838436 -14.880039 -40.489422 19.00000000
-47.709263 -6.741612 -57.230427 19.00000000
-56.579563 -34.000771 -0.355470 19.00000000
-56.616905 -31.935854 -58.742062 19.00000000
-27.225452 6.519795 -16.713120 19.00000000
-33.169422 4.404133 -38.308990 19.00000000
-43.646599 -2.446162 0.728759 19.00000000
-35.415279 3.306674 -10.339258 19.00000000
-55.167076 -21.113201 -49.119743 19.00000000
-32.691647 4.607689 -3.579485 19.00000000
-56.620979 -30.685625 -33.538567 19.00000000
-56.578259 -29.986032 -51.181873 19.00000000
-28.538288 6.146937 -10.874754 19.00000000
-40.526588 0.103907 0.103522 19.00000000
-33.993767 4.050062 -7.352845 19.00000000
-56.591019 -33.367233 -36.207535 19.00000000
-36.498215 2.740346 -54.341026 19.00000000
-38.367130 1.591931 -17.999331 19.00000000
-56.371529 -27.275532 -50.529556 19.00000000
-37.621727 2.060202 -22.251852 19.00000000
-51.592861 -12.439558 -25.662434 19.00000000
-40.566914 0.073883 -27.805159 19.00000000
-52.574291 -14.342004 -47.867947 19.00000000
-54.031391 -17.690557 -60.806408 19.00000000
-25.553320 6.952838 -56.442497 19.00000000
-29.556257 5.805446 -45.852219 19.00000000
-55.544392 -22.611832 -17.599562 19.00000000
-38.197495 1.698497 -35.112225 19.00000000
-56.184971 -25.952333 -47.196327 19.00000000
-56.627079 -30.785498 -25.568958 19.00000000
-56.531319 -29.217403 -32.700874 19.00000000
-55.386913 -21.904757 -43.500031 19.00000000
-31.617374 5.065383 -38.853699 19.00000000
-56.596619 -30.286682 -53.070965 19.00000000
-38.458904 1.534277 1.765145 19.00000000
-27.112038 6.549167 -5.357544 19.00000000
-56.373772 -27.291460 -0.532036 19.00000000
-29.753767 5.739189 -12.982589 19.00000000
-23.202133 7.561741 -55.658245 19.00000000
-51.400822 -12.115839 -14.397930 19.00000000
-55.640537 -23.043543 -12.766022 19.00000000
-25.292818 7.020302 -38.371861 19.00000000
-54.246582 -18.233608 -15.089110 19.00000000
-46.887390 -5.753053 0.421517 19.00000000
-44.044838 -2.794782 -2.694892 19.00000000
-56.209145 -26.123787 2.013943 19.00000000
-21.572863 7.983685 -15.867106 19.00000000
-52.271656 -13.725567 -55.864422 19.00000000
-53.936668 -17.451521 -45.924080 19.00000000
-29.228527 5.915387 -43.764736 19.00000000
-38.062145 1.783525 -23.921732 19.00000000
-31.744841 5.011076 -15.628881 19.00000000
-54.546696 -19.094978 -18.452972 19.00000000
-56.481873 -28.407719 -56.003658 19.00000000
-38.522964 1.494034 -60.022255 19.00000000
-31.573885 5.083911 -5.804568 19.00000000
-38.191044 1.702549 -53.182949 19.00000000
-36.628654 2.672132 -6.108842 19.00000000
-43.424480 -2.251723 -12.875519 19.00000000
-49.213551 -8.712192 -14.778233 19.00000000
-55.655510 -23.110760 -29.662312 19.00000000
-24.222706 7.297437 -28.793112 19.00000000
-32.150230 4.838360 -55.211056 19.00000000
-28.876745 6.033397 -32.968964 19.00000000
-55.825054 -23.872028 -51.325645 19.00000000
-24.473553 7.232473 -50.918289 19.00000000
-56.427704 -27.673981 -39.283348 19.00000000
-54.220341 -18.167385 -12.328470 19.00000000
-39.851845 0.606247 -55.381950 19.00000000
-34.623768 3.720599 -32.026897 19.00000000
-47.420082 -6.393785 -60.584290 19.00000000
-48.673916 -7.947473 -55.672108 19.00000000
-44.076015 -2.822073 -34.158531 19.00000000
-54.813126 -19.961727 -14.937968 19.00000000
-35.870724 3.068496 -15.360938 19.00000000
-30.985727 5.325913 -46.746399 19.00000000
-25.579454 6.946070 -35.325497 19.00000000
-54.580490 -19.204920 -25.129547 19.00000000
-27.223475 6.520307 -26.171766 19.00000000
-36.245991 2.872247 -38.907600 19.00000000
-44.492413 -3.220155 -16.198708 19.00000000
-34.104343 3.992236 -17.068247 19.00000000
-48.363934 -7.529059 -59.409760 19.00000000
-34.913227 3.569225 -24.995485 19.00000000
-56.580235 -33.963516 -24.649000 19.00000000
-56.169262 -25.840906 -54.777790 19.00000000
-31.225981 5.232136 -53.780468 19.00000000
-55.430313 -22.099632 -52.264698 19.00000000
-26.531740 6.699450 -46.487545 19.00000000
-29.615282 5.785645 -4.318069 19.00000000
-55.543831 -22.609318 -54.559608 19.00000000
-39.279381 1.018844 -12.108235 19.00000000
-50.946159 -11.349437 2.312128 19.00000000
-54.980515 -20.506275 -7.384239 19.00000000
-30.817028 5.382505 -50.279984 19.00000000
-45.512009 -4.266062 -5.431166 19.00000000
-32.504578 4.687391 2.435245 19.00000000
-56.487602 -28.501595 -36.758160 19.00000000
-53.815361 -17.145386 -18.926033 19.00000000
-21.569414 7.984578 -48.299664 19.00000000
-22.818201 7.661171 -27.197029 19.00000000
-46.790707 -5.636762 -35.288807 19.00000000
-51.823647 -12.828575 1.909175 19.00000000
-56.581661 -33.884212 -41.167721 19.00000000
-52.574139 -14.341685 -28.744461 19.00000000
-46.068977 -4.837400 -38.041744 19.00000000
-56.480892 -28.391722 -27.589975 19.00000000
-53.545830 -16.465200 -11.580675 19.00000000
-51.447830 -12.195081 0.162851 19.00000000
-55.409275 -22.005163 -39.206985 19.00000000
-24.156940 7.314468 -52.986927 19.00000000
-45.590473 -4.346551 -51.890152 19.00000000
-44.775360 -3.510403 -46.607815 19.00000000
-55.904762 -24.229908 -19.210285 19.00000000
-44.221455 -2.949393 -52.526855 19.00000000
-29.700689 5.756995 -48.202831 19.00000000
-44.789497 -3.524906 -25.573044 19.00000000
-56.080032 -25.208029 -12.493775 19.00000000
-56.122040 -25.505987 -3.338941 19.00000000
-49.682804 -9.377181 -58.440228 19.00000000
-54.579357 -19.201229 -60.402470 19.00000000
-56.583630 -30.074005 -40.553436 19.00000000
-50.942974 -11.344069 -38.156319 19.00000000
-30.509918 5.485529 -25.446655 19.00000000
-50.356091 -10.354790 -46.962891 19.00000000
-55.982281 -24.577978 -46.522358 19.00000000
-53.298885 -15.842024 -2.191825 19.00000000
-36.203754 2.894336 -27.416805 19.00000000
-37.994946 1.825741 -26.080620 19.00000000
-56.249660 -26.411171 -32.841473 19.00000000
-33.740284 4.160917 -55.262871 19.00000000
-48.990921 -8.396703 -39.494602 19.00000000
-56.611435 -32.238674 -26.275188 19.00000000
-55.136581 -21.014006 -55.190971 19.00000000
-37.148998 2.357175 -10.025712 19.00000000
-54.470898 -18.848389 -7.593106 19.00000000
-39.660629 0.748606 -17.194372 19.00000000
-55.345486 -21.718752 -28.516153 19.00000000
-25.575468 6.947102 -2.805663 19.00000000
-39.492481 0.873790 -33.391037 19.00000000
-56.350670 -27.127590 -59.232368 19.00000000
-56.500839 -28.718325 -48.665318 19.00000000
-42.469036 -1.415328 -0.751315 19.00000000
-52.314335 -13.812493 -52.904247 19.00000000
-56.133385 -25.586432 -21.995520 19.00000000
-54.825565 -20.002197 -28.854740 19.00000000
-52.727638 -14.654349 -11.645032 19.00000000
-47.259823 -6.201018 -58.914509 19.00000000
-48.081619 -7.189492 -4.383993 19.00000000
-56.044865 -24.958582 -42.927711 19.00000000
-47.031826 -5.926784 -15.659243 19.00000000
-55.108608 -20.923002 -36.079987 19.00000000
-47.454975 -6.435755 -32.043007 19.00000000
-56.287601 -26.680269 -19.297808 19.00000000
-46.125511 -4.895391 -57.465019 19.00000000
-44.140259 -2.878312 -10.463695 19.00000000
-21.783142 7.929227 -11.888919 19.00000000
-50.440765 -10.497519 -34.587872 19.00000000
-53.420097 -16.147915 -35.953381 19.00000000
-54.244949 -18.229488 -9.505443 19.00000000
-56.574650 -29.926989 -20.660152 19.00000000
-36.150269 2.922307 -47.999947 19.00000000
-56.197777 -26.043156 -34.510181 19.00000000
-54.414494 -18.664894 1.691864 19.00000000
-22.438631 7.759471 -51.301743 19.00000000
-47.598499 -6.608385 -45.961479 19.00000000
-53.020405 -15.250684 -5.698451 19.00000000
-44.915150 -3.653801 -27.195719 19.00000000
-28.462025 6.172520 -20.251352 19.00000000
-56.238224 -26.330048 -53.334641 19.00000000
-36.100849 2.948150 -58.868511 19.00000000
-44.797737 -3.533358 -12.695706 19.00000000
-40.164597 0.373405 -23.068850 19.00000000
-53.498245 -16.345125 -30.873045 19.00000000
-47.604912 -6.616098 -23.502714 19.00000000
-29.990088 5.659912 -11.078274 19.00000000
-52.197701 -13.574922 -58.154114 19.00000000
-36.871937 2.531229 -35.587170 19.00000000
-44.415611 -3.141373 -56.236462 19.00000000
-26.783787 6.634176 -14.017623 19.00000000
-52.667816 -14.532501 -22.262276 19.00000000
-55.537704 -22.581816 -36.354752 19.00000000
-56.616226 -31.973663 -13.778000 19.00000000
-56.430016 -27.690374 -22.337543 19.00000000
-50.997177 -11.435435 -45.390762 19.00000000
-56.117184 -25.471523 -51.298454 19.00000000
-48.274948 -7.422027 -30.166597 19.00000000
-26.894688 6.605455 -55.623360 19.00000000
-53.838394 -17.203512 3.799560 19.00000000
-37.346268 2.233248 -11.771510 19.00000000
-42.068535 -1.064731 -44.634171 19.00000000
-54.683388 -19.539663 -42.034485 19.00000000
-40.897408 -0.172167 -37.219769 19.00000000
-22.097792 7.847740 -10.157855 19.00000000
-34.649158 3.707321 -48.153828 19.00000000
-36.744804 2.611096 -51.743729 19.00000000
-47.266697 -6.209289 -8.279568 19.00000000
-32.275326 4.785063 -50.530163 19.00000000
-43.837986 -2.613705 -58.061035 19.00000000
-46.500446 -5.287632 -42.818890 19.00000000
-53.877052 -17.301075 -44.115330 19.00000000
-49.177166 -8.660634 -10.272296 19.00000000
-54.988758 -20.533098 -19.265539 19.00000000
-30.405846 5.520441 -16.577824 19.00000000
-31.258537 5.218265 -28.500458 19.00000000
-40.295578 0.275892 -52.792492 19.00000000
-54.421917 -18.689047 -47.290737 19.00000000
-26.773243 6.636906 -50.940575 19.00000000
-35.303040 3.365370 -41.371777 19.00000000
-24.460199 7.235931 -23.209856 19.00000000
-50.647537 -10.846064 -5.147314 19.00000000
-46.294144 -5.068377 -11.536607 19.00000000
-56.123577 -25.516895 -1.108854 19.00000000
-22.870674 7.647581 -41.070854 19.00000000
-52.668934 -14.534780 -0.311254 19.00000000
-31.203207 5.241838 -1.721993 19.00000000
-38.793827 1.323874 -10.495737 19.00000000
-56.591171 -33.358784 -34.516239 19.00000000
-56.583527 -33.782055 -6.170489 19.00000000
-55.900642 -24.211426 -53.433289 19.00000000
-50.063080 -9.916069 -21.959757 19.00000000
-41.856770 -0.886405 -50.491783 19.00000000
-42.882507 -1.777281 -46.950439 19.00000000
-47.286957 -6.233659 -26.862202 19.00000000
-35.921879 3.041745 -60.889790 19.00000000
-43.920151 -2.685631 -61.057571 19.00000000
-48.458553 -7.642871 -1.773005 19.00000000
-35.791512 3.109920 -56.222458 19.00000000
-36.704163 2.632644 0.649652 19.00000000
-24.611950 7.196631 -45.658150 19.00000000
-56.604298 -32.633259 -32.844872 19.00000000
-29.942490 5.675880 -52.831402 19.00000000
-55.469250 -22.274439 -20.694456 19.00000000
-43.346050 -2.183065 -25.716084 19.00000000
-56.584614 -33.721794 -11.724618 19.00000000
-27.901558 6.344699 -8.200254 19.00000000
-55.537407 -22.580482 -3.057284 19.00000000
-47.209499 -6.140490 -25.115957 19.00000000
-48.645702 -7.907492 -37.070652 19.00000000
-55.439560 -22.141136 3.112077 19.00000000
-51.242874 -11.849597 -19.456038 19.00000000
-33.217087 4.383826 -12.077338 19.00000000
-41.982323 -0.989262 -48.267639 19.00000000
-27.830753 6.363036 -59.062088 19.00000000
-50.620060 -10.799747 -26.703529 19.00000000
-35.006760 3.520311 0.170825 19.00000000
-40.546230 0.089282 -47.205452 19.00000000
-56.449600 -27.879309 -33.670666 19.00000000
-50.917572 -11.301253 -20.987299 19.00000000
-31.062370 5.300201 3.791689 19.00000000
-55.935928 -24.369854 -31.451336 19.00000000
-49.204350 -8.699155 0.947924 19.00000000
-45.987568 -4.753891 -19.380047 19.00000000
-55.210434 -21.254257 -3.675938 19.00000000
-52.759872 -14.720006 -7.931985 19.00000000
-48.260738 -7.404937 -20.681568 19.00000000
-54.992607 -20.545616 -59.290222 19.00000000
-41.725300 -0.788526 -46.390469 19.00000000
-45.221382 -3.967936 -39.208477 19.00000000
-43.663769 -2.461193 -20.787678 19.00000000
-55.719833 -23.399584 -42.430370 19.00000000
-30.986128 5.325778 -13.909970 19.00000000
-30.510729 5.485257 -35.271927 19.00000000
-56.610687 -32.280083 0.513095 19.00000000
-56.584267 -33.740330 -39.491570 19.00000000
-42.875256 -1.770931 -40.522423 19.00000000
-51.873489 -12.914540 -51.526474 19.00000000
-54.755375 -19.773855 -34.848473 19.00000000
-27.059240 6.562840 -48.045010 19.00000000
-56.030449 -24.856354 -29.962910 19.00000000
-41.780048 -0.829286 -18.594597 19.00000000
-52.054432 -13.283100 -20.714754 19.00000000
-56.600662 -30.352959 -6.990900 19.00000000
-54.217716 -18.160757 -17.124556 19.00000000
-56.157730 -25.759109 -38.470970 19.00000000
-47.839203 -6.897906 -14.395964 19.00000000
-30.551168 5.471691 -55.275841 19.00000000
-52.410973 -14.009339 -35.064552 19.00000000
-43.260529 -2.108200 -15.173978 19.00000000
-51.227116 -11.823034 -11.723060 19.00000000
-35.512608 3.255775 1.916806 19.00000000
-49.470749 -9.076673 -32.903755 19.00000000
-47.388264 -6.355512 2.489856 19.00000000
-56.012238 -24.727177 -33.174076 19.00000000
-56.631748 -31.115435 -16.957096 19.00000000
-56.467850 -28.178125 -29.887007 19.00000000
-49.904896 -9.691906 -39.821056 19.00000000
-49.764919 -9.493543 -60.668503 19.00000000
-23.792702 7.408798 -20.287767 19.00000000
-56.620838 -31.718628 -23.554985 19.00000000
-46.811150 -5.661348 -47.201233 19.00000000
-30.491772 5.491616 -57.191387 19.00000000
-56.582531 -30.056032 -0.303353 19.00000000
-22.321661 7.789763 -38.070080 19.00000000
-33.130100 4.420885 -58.564919 19.00000000
-55.583233 -22.786236 -49.273113 19.00000000
-35.428520 3.299750 -7.684194 19.00000000
-40.020306 0.480829 -59.073536 19.00000000
-56.372826 -27.284725 -7.065532 19.00000000
-51.513268 -12.305387 -28.933350 19.00000000
-56.579643 -33.995430 -57.495953 19.00000000
-53.279045 -15.791956 -44.118649 19.00000000
-51.110313 -11.626147 -47.995659 19.00000000
-33.787781 4.140682 -45.824829 19.00000000
-41.939610 -0.951868 -6.262821 19.00000000
-23.247015 7.550118 -14.384213 19.00000000
-55.137341 -21.016474 -21.860607 19.00000000
-29.350071 5.874614 1.377787 19.00000000
-28.902771 6.024666 -26.661665 19.00000000
-27.169079 6.534394 -28.468548 19.00000000
-51.563011 -12.389235 -56.333694 19.00000000
-48.969440 -8.366264 -4.930341 19.00000000
-42.845440 -1.744831 -56.618221 19.00000000
-33.199959 4.391123 -36.775433 19.00000000
-52.507530 -14.206017 -46.183853 19.00000000
-27.872686 6.352176 -30.869661 19.00000000
-26.951792 6.590666 -19.192019 19.00000000
-23.607374 7.456793 -47.596222 19.00000000
-40.241989 0.315787 -7.605126 19.00000000
-43.547550 -2.359456 -27.416243 19.00000000
-56.622032 -31.652494 -54.219383 19.00000000
-21.547634 7.990218 2.998258 19.00000000
-47.977013 -7.063665 -52.569977 19.00000000
-52.455490 -14.100015 -17.125595 19.00000000
-21.772108 7.932085 -44.690319 19.00000000
-46.919575 -5.791764 -12.991003 19.00000000
-48.108078 -7.221316 -47.453712 19.00000000
-40.120056 0.406565 -31.606718 19.00000000
-51.139999 -11.676189 -39.809841 19.00000000
-55.327438 -21.637705 -33.701527 19.00000000
-28.929043 6.015853 -24.610256 19.00000000
-52.877655 -14.959918 -56.891113 19.00000000
-53.831020 -17.184908 -13.629571 19.00000000
-33.387173 4.311361 -25.097940 19.00000000
-55.653439 -23.101461 -14.918694 19.00000000
-53.586132 -16.566916 -41.206020 19.00000000
-22.116179 7.842978 -39.699615 19.00000000
-51.922623 -13.014623 -47.118900 19.00000000
-42.053879 -1.051900 -12.154069 19.00000000
-33.311348 4.343665 -20.263918 19.00000000
-55.512459 -22.468452 -22.822517 19.00000000
-56.581650 -33.885509 -18.505314 19.00000000
-50.617710 -10.795791 -7.391096 19.00000000
-38.310349 1.627602 -54.737736 19.00000000
-55.769131 -23.620932 -56.780048 19.00000000
-56.581352 -33.901752 -22.522099 19.00000000
-48.300846 -7.453177 1.347825 19.00000000
-40.472687 0.144036 -51.242332 19.00000000
-51.213097 -11.799404 -32.404575 19.00000000
-55.132050 -20.999256 -24.704885 19.00000000
-26.633642 6.673060 3.292806 19.00000000
-52.790081 -14.781542 -50.397141 19.00000000
-56.462109 -28.084133 0.919219 19.00000000
-54.400749 -18.622660 -35.998032 19.00000000
-35.422001 3.303158 -34.375481 19.00000000
-51.579998 -12.417873 -22.200932 19.00000000
-39.523773 0.850495 -49.489754 19.00000000
-56.583923 -33.759014 -49.478424 19.00000000
-49.248749 -8.762076 -20.364517 19.00000000
-29.711004 5.753534 -31.527464 19.00000000
-36.136059 2.929737 -1.356669 19.00000000
-25.869156 6.871044 -21.799120 19.00000000
-46.213219 -4.985364 -14.613365 19.00000000
-52.381145 -13.948585 3.640397 19.00000000
-23.379002 7.515936 -32.830814 19.00000000
-33.788486 4.140381 -9.530087 19.00000000
-56.053383 -25.019005 -58.759338 19.00000000
-56.113945 -25.448555 -10.690383 19.00000000
-51.468296 -12.229579 -60.827114 19.00000000
-41.402157 -0.547949 -31.818413 19.00000000
-56.248318 -26.401627 -30.659784 19.00000000
-56.614841 -30.585102 -8.714606 19.00000000
-44.732368 -3.466304 -22.331141 19.00000000
-33.240833 4.373709 -56.716034 19.00000000
-53.081329 -15.374779 -51.858841 19.00000000
-39.387833 0.950714 -25.006550 19.00000000
-45.721184 -4.480632 -16.831554 19.00000000
-51.548710 -12.365130 -37.052113 19.00000000
-45.943981 -4.709179 -25.862053 19.00000000
-46.586147 -5.390714 -28.479565 19.00000000
-56.187607 -25.971039 -5.728296 19.00000000
-50.694572 -10.925350 -54.834621 19.00000000
-49.285255 -8.813811 -11.826889 19.00000000
-53.033894 -15.278160 -42.472076 19.00000000
-23.616741 7.454367 -58.277729 19.00000000
-24.406631 7.249804 -6.896149 19.00000000
-49.750671 -9.473356 -13.134723 19.00000000
-54.176113 -18.055777 0.095382 19.00000000
-43.460438 -2.283200 -45.259769 19.00000000
-54.897430 -20.235994 -9.671465 19.00000000
-48.436146 -7.615918 3.566643 19.00000000
-45.733185 -4.492943 -7.212941 19.00000000
-53.214802 -15.646649 -17.472542 19.00000000
-25.570606 6.948361 -12.410842 19.00000000
-35.978764 3.011995 -23.911402 19.00000000
-44.261639 -2.984567 2.153591 19.00000000
-46.393036 -5.169821 3.718845 19.00000000
-46.282677 -5.056612 -61.021976 19.00000000
-48.112907 -7.227122 -49.026531 19.00000000
-49.820232 -9.571931 -5.938904 19.00000000
-53.232937 -15.683590 -60.644218 19.00000000
-39.235405 1.046469 -29.326563 19.00000000
-25.170200 7.052057 -58.383610 19.00000000
-37.757767 1.974739 -50.220985 19.00000000
-43.920071 -2.685561 -32.215656 19.00000000
-27.909996 6.342514 -0.085542 19.00000000
-47.678642 -6.704784 -55.160061 19.00000000
-29.684286 5.762497 -22.162788 19.00000000
-55.964512 -24.498190 -35.763866 19.00000000
-56.624092 -31.538876 -35.618027 19.00000000
-43.496677 -2.314922 -55.116798 19.00000000
-45.293602 -4.042018 3.199666 19.00000000
-50.693756 -10.923978 -13.088830 19.00000000
-34.443501 3.814871 -27.450924 19.00000000
-24.895477 7.123204 -54.394276 19.00000000
-25.074179 7.076925 -44.121803 19.00000000
-43.586746 -2.393768 -36.570290 19.00000000
-28.030518 6.311302 -40.282066 19.00000000
-21.893787 7.900573 -18.280910 19.00000000
-56.514687 -28.945059 -11.886635 19.00000000
-35.817928 3.096104 -22.295120 19.00000000
-43.340397 -2.178116 -42.304504 19.00000000
-39.313190 0.997604 3.745540 19.00000000
-33.274136 4.359520 -18.490362 19.00000000
-50.725922 -10.978196 -43.396698 19.00000000
-31.003107 5.320082 -9.840689 19.00000000
-56.585266 -30.100838 -60.573658 19.00000000
-51.437153 -12.177086 -4.757908 19.00000000
-26.295986 6.760505 -7.464887 19.00000000
-56.457859 -28.014515 -20.813507 19.00000000
-46.996037 -5.883735 -2.425821 19.00000000
-52.360435 -13.906400 -14.834682 19.00000000
-53.747917 -16.975185 -20.650490 19.00000000
-45.285336 -4.033537 -1.598324 19.00000000
-46.867317 -5.728911 -56.248837 19.00000000
-47.908009 -6.980667 -0.184900 19.00000000
-54.811302 -19.955793 3.435582 19.00000000
-29.644331 5.775901 3.143754 19.00000000
-54.026863 -17.679132 -30.143089 19.00000000
-36.250496 2.869892 -49.999561 19.00000000
-31.116142 5.278932 -42.973042 19.00000000
-40.308231 0.266472 -13.429903 19.00000000
-29.719110 5.750815 -59.235470 19.00000000
-54.447353 -18.771790 -1.710323 19.00000000
-55.088612 -20.857946 -60.890133 19.00000000
-25.739817 6.904540 -18.149832 19.00000000
-41.979591 -0.986868 -54.645702 19.00000000
-37.802605 1.946573 -0.675869 19.00000000
-53.216125 -15.649349 -3.951238 19.00000000
-40.168060 0.370827 -41.766262 19.00000000
-56.474339 -28.284342 -52.748886 19.00000000
-23.807322 7.405012 -10.241108 19.00000000
-53.652245 -16.733751 -9.595899 19.00000000
-40.667618 -0.001088 -25.518673 19.00000000
-24.196865 7.304129 -0.467052 19.00000000
-37.471153 2.154795 -2.367165 19.00000000
-30.162968 5.601918 -23.733130 19.00000000
-38.109409 1.753833 -32.602737 19.00000000
-21.614220 7.972974 -56.570496 19.00000000
-55.745808 -23.516201 -44.555157 19.00000000
-46.607025 -5.415827 -52.561630 19.00000000
-22.693287 7.693521 -21.952211 19.00000000
-28.869926 6.035684 -17.719856 19.00000000
-24.374380 7.258156 -34.078957 19.00000000
-56.560669 -29.698021 -43.788300 19.00000000
-34.016933 4.037948 -60.263611 19.00000000
-37.082550 2.398919 -20.273281 19.00000000
-54.331047 -18.446760 -5.165104 19.00000000
-53.007908 -15.225228 -27.307503 19.00000000
-55.294590 -21.528034 -1.499998 19.00000000
-31.438225 5.141709 -37.272430 19.00000000
-29.089745 5.961944 -15.544904 19.00000000
-51.209995 -11.794174 -23.959211 19.00000000
-25.558529 6.951489 -5.968942 19.00000000
-56.632240 -31.088177 -31.263798 19.00000000
-34.557053 3.755488 -13.794544 19.00000000
-46.538658 -5.333592 -3.992324 19.00000000
-53.911991 -17.389246 -8.124750 19.00000000
-41.599270 -0.694696 -41.128895 19.00000000
-46.394669 -5.171494 -32.789238 19.00000000
-50.293537 -10.249346 -14.844182 19.00000000
-23.602179 7.458139 -5.133554 19.00000000
-40.489655 0.131402 -3.272112 19.00000000
-56.610931 -30.521111 1.427406 19.00000000
-39.105289 1.128209 -42.818539 19.00000000
-35.982296 3.010148 -12.616448 19.00000000
-56.613922 -32.100815 -52.768372 19.00000000
-38.497467 1.510051 -20.458040 19.00000000
-52.057919 -13.290205 -8.276652 19.00000000
-54.907734 -20.269512 0.212060 19.00000000
-54.175339 -18.053814 -52.459473 19.00000000
-42.943512 -1.830685 -34.077438 19.00000000
-33.717625 4.170571 -35.105930 19.00000000
-21.999887 7.873095 -31.553757 19.00000000
-55.231243 -21.321962 -41.461025 19.00000000
-44.504143 -3.232190 -41.543800 19.00000000
-50.111523 -9.984716 -44.636696 19.00000000
-52.533596 -14.259109 -9.550111 19.00000000
-56.634205 -30.902155 -29.577805 19.00000000
-48.297070 -7.448636 -42.523918 19.00000000
-44.570736 -3.300502 -49.037464 19.00000000
-56.531776 -29.224937 -22.191818 19.00000000
-53.473270 -16.282093 -39.261208 19.00000000
-27.291553 6.502676 -33.438438 19.00000000
-50.594189 -10.756137 -17.233892 19.00000000
-50.131069 -10.012419 -28.609194 19.00000000
-49.520195 -9.146743 -46.141533 19.00000000
-32.096870 4.861094 -26.815304 19.00000000
-56.116123 -25.464010 3.603397 19.00000000
-56.317425 -26.891796 -16.108757 19.00000000
-52.163761 -13.505796 -33.031277 19.00000000
-34.350300 3.863611 -21.412840 19.00000000
-49.376411 -8.942985 -16.666809 19.00000000
-26.727556 6.648738 -44.639488 19.00000000
-41.859837 -0.888688 -26.272291 19.00000000
-37.803307 1.946132 -57.926430 19.00000000
-34.787903 3.634763 -39.684746 19.00000000
-26.682299 6.660459 -23.350380 19.00000000
-25.151966 7.056779 -41.931862 19.00000000
-33.735912 4.162781 -28.924522 19.00000000
-38.989822 1.200748 -7.170221 19.00000000
-56.618237 -30.640701 -57.689171 19.00000000
-24.631321 7.191615 -16.456987 19.00000000
-53.471798 -16.278385 1.131624 19.00000000
-39.316914 0.995265 -8.892593 19.00000000
-38.967770 1.214601 -13.612068 19.00000000
-43.530514 -2.344543 3.309811 19.00000000
-35.698376 3.158626 -46.441956 19.00000000
-37.042610 2.424010 -18.449677 19.00000000
-49.932060 -9.730401 -37.841255 19.00000000
-37.364899 2.221545 -56.075390 19.00000000
-26.255810 6.770910 -60.017143 19.00000000
-22.145826 7.835300 -0.117758 19.00000000
-40.386307 0.208345 -5.892484 19.00000000
-53.380066 -16.046890 -0.412447 19.00000000
-47.141483 -6.058682 -41.273041 19.00000000
-21.583857 7.980837 -58.121265 19.00000000
-56.587631 -33.555126 -7.907599 19.00000000
-29.135050 5.946745 -56.300343 19.00000000
-56.611687 -32.224491 -48.741158 19.00000000
-49.711987 -9.418535 -4.006377 19.00000000
-48.311535 -7.466033 -33.800163 19.00000000
-55.704548 -23.330940 -27.714212 19.00000000
-30.465151 5.500547 -60.981583 19.00000000
-52.397400 -13.981693 -3.832810 19.00000000
-42.967613 -1.851783 -3.801308 19.00000000
-44.457188 -3.184023 -8.475328 19.00000000
-55.331680 -21.656761 -47.277641 19.00000000
-55.777786 -23.659788 -10.468517 19.00000000
-44.003765 -2.758828 -18.220364 19.00000000
-56.142014 -25.647654 -41.177158 19.00000000
-56.600319 -30.347317 -48.270309 19.00000000
-51.003696 -11.446430 -35.976295 19.00000000
-22.142574 7.836143 -60.592464 19.00000000
-29.637543 5.778178 -37.887428 19.00000000
-44.480610 -3.208048 -54.028610 19.00000000
-46.315685 -5.090472 -31.276709 19.00000000
-54.158848 -18.012203 -26.477133 19.00000000
-56.485668 -28.469917 -57.870979 19.00000000
-34.415649 3.829435 -43.667675 19.00000000
-46.144016 -4.914376 -24.176472 19.00000000
-56.603294 -32.688969 -17.094055 19.00000000
-48.611298 -7.858738 -25.709553 19.00000000
-54.988598 -20.532576 -30.706366 19.00000000
-33.876228 4.102997 -52.190784 19.00000000
-49.644165 -9.322421 -7.791919 19.00000000
-47.935555 -7.013803 -10.716339 19.00000000
-43.112514 -1.978629 -11.315977 19.00000000
-56.586189 -33.634636 -15.545300 19.00000000
-55.026066 -20.654463 -11.370541 19.00000000
-44.738426 -3.472516 -19.522623 19.00000000
-56.592625 -30.221329 -37.130772 19.00000000
-56.370461 -27.267973 -40.927208 19.00000000
-24.027567 7.347973 -18.236965 19.00000000
-47.768208 -6.812514 -6.860239 19.00000000
-33.561329 4.237162 -41.934082 19.00000000
-56.028194 -24.840351 -14.458206 19.00000000
-37.438435 2.175347 -45.123425 19.00000000
-26.402693 6.732870 -0.792739 19.00000000
-48.748997 -8.053869 -57.755760 19.00000000
-53.394398 -16.083059 -25.454601 19.00000000
-27.103949 6.551262 -38.801193 19.00000000
-32.105614 4.857368 -8.277311 19.00000000
-56.542732 -29.404331 -10.201464 19.00000000
-56.579876 -33.983219 -27.755615 19.00000000
-37.068699 2.407621 -40.791271 19.00000000
-56.442390 -27.778141 -32.047508 19.00000000
-56.586990 -33.590614 -4.092938 19.00000000
-28.478397 6.167028 -49.122540 19.00000000
-56.231956 -26.285603 -17.529099 19.00000000
-52.038776 -13.251212 -38.612579 19.00000000
-56.075356 -25.174858 -44.934467 19.00000000
-50.417812 -10.458827 -19.182175 19.00000000
-56.503029 -28.754154 -41.977592 19.00000000
-34.956882 3.546395 -54.471710 19.00000000
-51.092651 -11.596372 -51.196663 19.00000000
-56.611958 -32.209236 -56.231838 19.00000000
-37.220448 2.312290 -46.759590 19.00000000
-48.160084 -7.283867 -44.383926 19.00000000
-25.810549 6.886222 -52.356983 19.00000000
-39.233814 1.047468 -51.966534 19.00000000
-51.675903 -12.579532 -42.586590 19.00000000
-31.748547 5.009497 -48.492458 19.00000000
-35.681087 3.167667 -29.104448 19.00000000
-56.403992 -27.505789 -11.026682 19.00000000
-50.408894 -10.443797 0.660614 19.00000000
-32.787853 4.566700 -40.314598 19.00000000
-55.950977 -24.437431 -49.018635 19.00000000
-51.831917 -12.842516 -18.012339 19.00000000
-40.795856 -0.096561 -35.615868 19.00000000
-30.874052 5.363375 -44.694023 19.00000000
-44.354118 -3.078295 -50.842953 19.00000000
-28.219709 6.253808 -54.667603 19.00000000
-56.588802 -30.158730 -14.100905 19.00000000
-24.930477 7.114140 -40.114330 19.00000000
-33.774326 4.146414 -1.282381 19.00000000
-44.702660 -3.435827 -35.672497 19.00000000
-56.631451 -31.131939 -21.770548 19.00000000
-47.974335 -7.060446 -16.094000 19.00000000
-21.554691 7.988390 -20.935122 19.00000000
-48.235012 -7.373991 -27.357349 19.00000000
-56.430202 -27.691700 -25.725279 19.00000000
-28.359217 6.207008 -46.971012 19.00000000
-46.883224 -5.748044 -5.875866 19.00000000
-36.888191 2.521016 -42.431904 19.00000000
-56.198864 -26.050867 -23.580973 19.00000000
-54.134888 -17.951735 -21.862484 19.00000000
-37.098698 2.388775 -29.366203 19.00000000
-49.789085 -9.527792 -55.980972 19.00000000
-54.472832 -18.854677 -33.558392 19.00000000
-42.118008 -1.108040 -38.191219 19.00000000
-50.913006 -11.293556 -41.596436 19.00000000
-37.607109 2.069384 -38.909733 19.00000000
-51.940163 -13.050347 -44.859936 19.00000000
-56.591812 -30.208035 3.219230 19.00000000
-22.635136 7.708581 -28.908129 19.00000000
-54.770164 -19.821968 -53.988007 19.00000000
-56.581085 -33.917019 -2.468691 19.00000000
-48.166012 -7.290996 -38.821880 19.00000000
-55.896183 -24.191401 -54.987743 19.00000000
-56.190048 -25.988358 -25.666605 19.00000000
-39.486790 0.878028 -57.698051 19.00000000
-42.491611 -1.435090 -16.619541 19.00000000
-45.586491 -4.342463 -47.983318 19.00000000
-41.114964 -0.334136 -1.627523 19.00000000
-41.312607 -0.481279 -55.985653 19.00000000
-34.795139 3.630980 -50.869667 19.00000000
-31.586521 5.078527 -11.597504 19.00000000
-52.246193 -13.673701 -30.812220 19.00000000
-56.549313 -29.512053 -26.424831 19.00000000
-22.424677 7.763084 -23.837416 19.00000000
-47.935638 -7.013899 -35.659870 19.00000000
-22.952253 7.626454 -53.974579 19.00000000
-26.804073 6.628922 -53.987778 19.00000000
-41.327587 -0.492432 -59.211395 19.00000000
-49.863754 -9.633603 2.583420 19.00000000
-27.820560 6.365675 -21.841393 19.00000000
-28.831011 6.048739 -34.973732 19.00000000
-55.852901 -23.997051 -22.361143 19.00000000
-29.321039 5.884353 -9.173416 19.00000000
-42.096432 -1.089150 -60.454597 19.00000000
-38.923309 1.242533 -5.447762 19.00000000
-38.412170 1.563636 -3.773147 19.00000000
-56.393959 -27.434631 -35.363590 19.00000000
-40.951138 -0.212168 1.692559 19.00000000
-37.576160 2.088828 -7.377338 19.00000000
-53.257298 -15.737072 -46.172623 19.00000000
-52.490894 -14.172130 -36.661358 19.00000000
-45.254513 -4.001918 -20.910055 19.00000000
-49.160770 -8.637399 -35.558571 19.00000000
-56.574242 -29.920313 -28.212742 19.00000000
-23.881174 7.385885 -25.632851 19.00000000
-46.097782 -4.866949 -44.706074 19.00000000
-53.619312 -16.650648 -53.423779 19.00000000
-38.399452 1.571624 -48.599873 19.00000000
-41.541859 -0.651955 -23.636372 19.00000000
-54.220364 -18.167444 -3.196567 19.00000000
-31.850540 4.966042 -32.078129 19.00000000
-45.560764 -4.316074 -29.753214 19.00000000
-53.841846 -17.212223 -55.012035 19.00000000
-56.618454 -31.850637 -20.146662 19.00000000
-49.865520 -9.636107 -50.983349 19.00000000
-23.613827 7.455122 -30.467896 19.00000000
-51.363129 -12.052307 -6.470740 19.00000000
-48.608730 -7.855101 -31.944435 19.00000000
-44.070381 -2.817141 -4.741410 19.00000000
-34.400352 3.837435 -22.950771 19.00000000
-26.688498 6.658854 -41.753761 19.00000000
-25.393892 6.994126 -30.364519 19.00000000
-22.894115 7.641511 -34.667633 19.00000000
-56.610264 -32.303257 -42.923248 19.00000000
-56.306759 -26.816149 -28.513163 19.00000000
-54.888493 -20.206917 -50.961910 19.00000000
-56.602299 -32.744087 -10.259368 19.00000000
-33.539635 4.246404 0.340200 19.00000000
-55.742130 -23.499699 2.030276 19.00000000
-26.825718 6.623317 -11.498059 19.00000000
-32.578636 4.655838 -44.215336 19.00000000
-55.344345 -21.713629 -15.783374 19.00000000
-48.392155 -7.563003 -12.408601 19.00000000
-23.391932 7.512588 2.305303 19.00000000
-52.549175 -14.290839 -44.171654 19.00000000
-41.012882 -0.258137 -17.317957 19.00000000
-56.625465 -30.759081 -42.289097 19.00000000
-51.473289 -12.237996 -33.894733 19.00000000
-31.459631 5.132589 -33.687843 19.00000000
-56.257420 -26.466196 -48.737076 19.00000000
-53.166382 -15.548026 -20.706518 19.00000000
-42.167549 -1.151406 -52.220329 19.00000000
-40.821831 -0.115899 3.404752 19.00000000
-55.290421 -21.514467 -45.287998 19.00000000
-35.362213 3.334423 -52.488155 19.00000000
-36.920956 2.500436 -33.635811 19.00000000
-40.179821 0.362073 -15.480307 19.00000000
-40.335144 0.246436 -43.410217 19.00000000
-30.645397 5.440081 -7.684878 19.00000000
-56.633293 -30.887239 -44.971340 19.00000000
-56.498096 -28.673393 -8.343423 19.00000000
-26.049625 6.824307 -9.754903 19.00000000
-38.971188 1.212454 -22.177614 19.00000000
-46.045418 -4.813232 1.738393 19.00000000
-56.282928 -26.647135 -13.920177 19.00000000
-38.499809 1.508580 -40.751724 19.00000000
-46.560932 -5.360384 -50.652298 19.00000000
-21.841595 7.914090 -6.804526 19.00000000
-24.057266 7.340282 -60.593498 19.00000000
-41.221733 -0.413624 -10.784575 19.00000000
-49.267086 -8.788062 -42.843216 19.00000000
-23.279675 7.541660 -12.135976 19.00000000
-54.521416 -19.012733 -11.000426 19.00000000
-25.447351 6.980282 -32.173061 19.00000000
-44.010921 -2.765091 -23.879526 19.00000000
-41.395981 -0.543350 -14.761998 19.00000000
-52.164017 -13.506316 -40.493294 19.00000000
-27.564219 6.432062 -36.016418 19.00000000
-55.863968 -24.046749 -2.023790 19.00000000
-32.424339 4.721575 -46.829674 19.00000000
-47.681305 -6.707987 -17.701452 19.00000000
-53.224827 -15.667073 -14.207545 19.00000000
-25.594397 6.942201 -25.057365 19.00000000
-48.895653 -8.261699 -6.497383 19.00000000
-38.586063 1.454395 -31.050438 19.00000000
-21.757683 7.935821 -36.087921 19.00000000
-49.248985 -8.762412 -49.708939 19.00000000
-37.693939 2.014838 -36.891678 19.00000000
-56.619690 -30.664507 -2.232616 19.00000000
-52.259563 -13.700931 -27.249344 19.00000000
-56.633083 -31.041489 -12.357260 19.00000000
-35.804005 3.103386 -44.862419 19.00000000
-44.079090 -2.824767 -40.042904 19.00000000
-56.619701 -31.781656 -38.857201 19.00000000
-47.217030 -6.149548 -33.783722 19.00000000
-56.584946 -33.703274 -20.338825 19.00000000
-54.678059 -19.522327 -31.921896 19.00000000
-23.551910 7.471157 -2.034383 19.00000000
-50.998798 -11.438170 -53.146740 19.00000000
-31.218452 5.235343 -58.874409 19.00000000
-39.936310 0.543365 -60.763607 19.00000000
-51.376492 -12.074831 -27.249063 19.00000000
-56.524139 -29.099840 -3.429440 19.00000000
-25.145754 7.058388 -47.279629 19.00000000
-24.854744 7.133753 1.239703 19.00000000
-53.662018 -16.758411 -16.265993 19.00000000
-56.267567 -26.538174 -57.370724 19.00000000
-41.772778 -0.823874 -20.471552 19.00000000
-22.652546 7.704072 -3.939941 19.00000000
-31.213406 5.237493 1.739293 19.00000000
-55.909824 -24.252644 -37.476688 19.00000000
-56.611420 -32.239697 -6.055374 19.00000000
-48.610764 -7.857979 -60.989185 19.00000000
-56.585663 -33.662880 -51.455608 19.00000000
-31.286594 5.206311 -40.564030 19.00000000
-53.520424 -16.401091 -32.813515 19.00000000
-44.354778 -3.078970 -37.766663 19.00000000
-25.130287 7.062394 2.927077 19.00000000
-30.194117 5.591468 -2.858564 19.00000000
-41.213886 -0.407782 -21.998493 19.00000000
-56.332272 -26.997095 -37.425892 19.00000000
-53.750149 -16.980818 -6.178023 19.00000000
-43.107857 -1.974549 -7.152988 19.00000000
-45.810886 -4.572649 -34.458797 19.00000000
-44.431618 -3.157794 -0.639651 19.00000000
-36.701004 2.634296 -32.127251 19.00000000
-32.351242 4.752718 -52.540787 19.00000000
-52.890194 -14.985462 -33.481567 19.00000000
-55.773617 -23.641062 -60.497311 19.00000000
-46.985767 -5.871384 -20.077446 19.00000000
-45.698460 -4.457320 -55.830837 19.00000000
-55.481827 -22.330915 -8.223429 19.00000000
-37.341927 2.235976 -15.143533 19.00000000
-47.078777 -5.983256 -39.600525 19.00000000
-34.562256 3.752768 -57.810078 19.00000000
-25.038736 7.086104 -4.396847 19.00000000
-54.728611 -19.686789 -3.626819 19.00000000
-47.099766 -6.008504 -37.135658 19.00000000
-41.204079 -0.400481 -4.729466 19.00000000
-56.616478 -31.959927 3.850367 19.00000000
-23.798170 7.407381 -43.358459 19.00000000
-39.877007 0.587514 -20.963573 19.00000000
-40.722099 -0.041652 -40.046818 19.00000000
-45.355137 -4.105141 0.585387 19.00000000
-38.407677 1.566458 -16.011309 19.00000000
-28.035179 6.310094 -12.764600 19.00000000
-50.811577 -11.122580 -30.113764 19.00000000
-44.278271 -3.000490 -14.096679 19.00000000
-46.140434 -4.910702 -40.821632 19.00000000
-33.312859 4.343023 -33.043392 19.00000000
-41.080814 -0.308711 -33.905045 19.00000000
-51.853359 -12.878664 -15.971907 19.00000000
-36.043034 2.978386 -37.203560 19.00000000
-56.586571 -33.612747 -43.934750 19.00000000
-50.411304 -10.447857 -11.288074 19.00000000
-49.864937 -9.635278 -23.617237 19.00000000
-55.892414 -24.174469 -25.863710 19.00000000
-56.455639 -27.978188 -54.416065 19.00000000
-54.956974 -20.429695 -13.284351 19.00000000
-56.582497 -33.838120 -37.691547 19.00000000
-50.133743 -10.016208 -42.337097 19.00000000
-22.170406 7.828935 -46.379234 19.00000000
-45.406467 -4.157794 -50.171612 19.00000000
-56.419529 -27.615988 3.390380 19.00000000
-44.872181 -3.609723 -44.643291 19.00000000
-21.649525 7.963831 -13.756010 19.00000000
-26.735815 6.646599 -57.568657 19.00000000
-49.748047 -9.469635 -26.277981 19.00000000
-56.058651 -25.056379 -7.219505 19.00000000
-49.000484 -8.410259 -28.982758 19.00000000
-53.526459 -16.416325 -28.858387 19.00000000
-54.845753 -20.067877 -46.409893 19.00000000
-56.507206 -28.822573 -45.483219 19.00000000
-55.404236 -21.982525 0.835906 19.00000000
-33.303722 4.346915 -5.040532 19.00000000
-25.811563 6.885959 -36.926514 19.00000000
-56.511036 -28.885298 2.266863 19.00000000
-49.534344 -9.166790 -54.452106 19.00000000
-43.939709 -2.702751 -43.613480 19.00000000
-27.611202 6.419894 -43.149204 19.00000000
-44.498413 -3.226312 -29.071085 19.00000000
-52.199211 -13.577999 -5.707897 19.00000000
-49.996849 -9.822215 -31.058805 19.00000000
-54.830925 -20.019638 -16.873661 19.00000000
-55.570602 -22.729525 -32.166920 19.00000000
-30.277445 5.563515 -18.929211 19.00000000
-30.736971 5.409361 -30.120432 19.00000000
-44.855770 -3.592891 -31.351406 19.00000000
-56.610886 -32.269096 -2.952270 19.00000000
-35.897087 3.054708 -30.811575 19.00000000
-53.238976 -15.695894 -37.695423 19.00000000
-51.971596 -13.114373 -10.721055 19.00000000
-51.773376 -12.743841 -48.888077 19.00000000
-22.216619 7.816966 -42.933357 19.00000000
-32.623196 4.636852 -23.468203 19.00000000
-55.765942 -23.606598 -34.409348 19.00000000
-43.285011 -2.129632 -49.950287 19.00000000
-54.275814 -18.307379 -28.698668 19.00000000
-56.611485 -32.235386 -60.965519 19.00000000
-54.093334 -17.846878 -42.182152 19.00000000
-48.488560 -7.684804 -53.902607 19.00000000
-52.800983 -14.803745 -19.288906 19.00000000
-53.044895 -15.300567 -55.265957 19.00000000
-41.759865 -0.814260 -3.036791 19.00000000
-42.269047 -1.240256 3.364947 19.00000000
-29.479280 5.831269 -1.287086 19.00000000
-27.154119 6.538268 -3.471805 19.00000000
-56.467350 -28.169930 -60.574047 19.00000000
-55.641418 -23.047485 -0.617433 19.00000000
-51.549957 -12.367237 -54.816525 19.00000000
-51.183399 -11.749346 -9.857240 19.00000000
-28.201912 6.259778 2.854130 19.00000000
-22.211123 7.818390 -49.661343 19.00000000
-32.618855 4.638703 -13.792327 19.00000000
-53.400036 -16.097286 -58.782528 19.00000000
-56.630100 -30.834986 -4.260891 19.00000000
-56.583717 -33.770309 -54.212082 19.00000000
-54.751808 -19.762255 -27.150063 19.00000000
-25.940378 6.852599 -15.770295 19.00000000
-31.650221 5.051389 -22.213715 19.00000000
-37.000629 2.450383 -25.029119 19.00000000
-56.489616 -28.534571 -1.820931 19.00000000
-49.792641 -9.532827 -0.521496 19.00000000
-48.873421 -8.230193 -22.200029 19.00000000
-42.157845 -1.142913 -29.661951 19.00000000
-35.931473 3.036727 -16.992050 19.00000000
-56.621937 -31.657976 -47.108822 19.00000000
-39.297371 1.007541 -0.866719 19.00000000
-39.474621 0.887089 -36.297855 19.00000000
-54.663536 -19.475084 -48.987938 19.00000000
-39.681278 0.733232 -19.368580 19.00000000
-54.581894 -19.209484 -57.444649 19.00000000
-48.864468 -8.217504 -41.118786 19.00000000
-54.606693 -19.290161 -43.713898 19.00000000
-50.587334 -10.744584 -59.304783 19.00000000
-42.119915 -1.109707 0.945155 19.00000000
-54.333210 -18.452215 -50.851734 19.00000000
-31.775038 4.998210 -17.493055 19.00000000
-56.475727 -28.307087 -17.983376 19.00000000
-34.063450 4.013620 3.090597 19.00000000
-55.352444 -21.749989 -9.834094 19.00000000
-56.004578 -24.678083 -4.849189 19.00000000
-40.246872 0.312153 -45.538448 19.00000000
-49.334545 -8.883659 -47.757996 19.00000000
-55.980614 -24.570486 -23.913942 19.00000000
-55.492798 -22.380186 -58.535370 19.00000000
-35.567856 3.226883 -4.353331 19.00000000
-40.856953 -0.142047 -57.410980 19.00000000
-54.282982 -18.325460 -23.673561 19.00000000
-52.252277 -13.686089 -23.991268 19.00000000
-23.023779 7.607931 -8.768345 19.00000000
-56.453453 -27.942369 -43.498520 19.00000000
-45.258270 -4.005777 -58.958363 19.00000000
-21.642004 7.965779 -25.400747 19.00000000
-50.635284 -10.825410 -49.492424 19.00000000
-33.797638 4.136481 -49.735668 19.00000000
-54.566475 -19.159325 -37.599052 19.00000000
-45.857346 -4.620306 -22.396767 19.00000000
-50.403381 -10.434505 -32.692574 19.00000000
-34.664696 3.699197 -19.393557 19.00000000
-50.541203 -10.666825 -25.028299 19.00000000
-50.650192 -10.850540 -1.984247 19.00000000
-55.309414 -21.576258 -56.618099 19.00000000
-56.177948 -25.902521 -60.731251 19.00000000
-53.967552 -17.529455 -58.076405 19.00000000
-48.671329 -7.943810 -24.033051 19.00000000
-54.729221 -19.688772 -20.942591 19.00000000
-56.511559 -28.893841 -6.415738 19.00000000
-25.372845 6.999577 -49.139801 19.00000000
-53.270855 -15.771291 -48.633987 19.00000000
-51.456833 -12.210254 -3.237534 19.00000000
-25.785120 6.892807 -27.034481 19.00000000
-55.326298 -21.632582 -26.815689 19.00000000
-48.654148 -7.919461 -51.069313 19.00000000
-45.281769 -4.029881 -3.636750 19.00000000
-39.719395 0.704854 -26.551056 19.00000000
-53.566711 -16.517902 -23.612103 19.00000000
-56.372372 -27.281509 -3.903631 19.00000000
-56.574837 -29.930012 -18.858433 19.00000000
-38.901955 1.255947 -44.759018 19.00000000
-42.604290 -1.533730 -31.350981 19.00000000
-54.321678 -18.423115 -40.495701 19.00000000
-53.833355 -17.190800 -37.264137 19.00000000
-39.431694 0.919047 -2.368919 19.00000000
-27.873165 6.352052 -52.938171 19.00000000
-56.613663 -32.115231 -50.634274 19.00000000
-44.976364 -3.716596 -32.989532 19.00000000
-55.672546 -23.187260 -40.395161 19.00000000
-56.022587 -24.800587 -16.624081 19.00000000
-38.053093 1.789212 -27.948881 19.00000000
-53.589252 -16.574783 -50.969227 19.00000000
-56.592422 -33.290051 2.188213 19.00000000
-53.904842 -17.371202 -49.217400 19.00000000
-55.876862 -24.104649 -8.504225 19.00000000
-47.005863 -5.895553 -49.137302 19.00000000
-32.149456 4.838689 -60.235615 19.00000000
-39.673153 0.739282 -39.191662 19.00000000
-56.416428 -27.594009 -47.401875 19.00000000
0.894004 33.897980 -47.054604 20.00000000
-36.122055 62.375061 -10.125020 20.00000000
0.900379 33.849144 -21.300615 20.00000000
-0.938788 42.941570 -15.847573 20.00000000
-22.454525 61.563637 -32.004028 20.00000000
-35.470070 62.487160 -3.249499 20.00000000
-42.714592 60.657291 -25.109606 20.00000000
-31.884075 62.736088 -52.470592 20.00000000
-42.146461 60.861965 -14.364387 20.00000000
-29.040781 62.673565 -44.912155 20.00000000
-1.978585 45.079346 -0.191256 20.00000000
-12.256388 56.765049 -36.855957 20.00000000
-1.159682 43.415428 -51.035583 20.00000000
-17.201363 59.627300 -23.837513 20.00000000
0.103225 39.955963 -30.258266 20.00000000
0.657703 35.708233 -14.200203 20.00000000
-36.665703 62.279446 -33.727936 20.00000000
-34.120335 62.606613 -14.753939 20.00000000
-18.327166 60.139179 -48.683537 20.00000000
0.687123 35.482849 -51.844570 20.00000000
-41.931957 60.939243 -8.357356 20.00000000
-1.969256 45.060387 -42.306358 20.00000000
0.293501 38.498302 3.210524 20.00000000
-14.574407 58.251549 -47.335831 20.00000000
-2.450132 45.956917 -23.990711 20.00000000
-26.256405 62.373501 -54.973972 20.00000000
-43.549198 60.356613 3.768526 20.00000000
-38.471127 61.945389 -13.078189 20.00000000
-30.508411 62.739468 -3.799902 20.00000000
-17.413618 59.723808 -41.393532 20.00000000
-14.470382 58.193008 -29.004116 20.00000000
-21.988819 61.442200 -60.165798 20.00000000
-16.906811 59.493374 -30.850441 20.00000000
-36.585403 62.293571 -27.455723 20.00000000
-23.800756 61.914669 -55.159386 20.00000000
-12.292210 56.789474 -28.974596 20.00000000
-10.608363 55.529190 -9.698443 20.00000000
-37.162521 62.192070 -49.802685 20.00000000
-5.101346 49.952587 -16.822500 20.00000000
-13.076485 57.324207 -42.984516 20.00000000
-10.217777 55.210571 -1.397397 20.00000000
-36.686111 62.275860 -15.166965 20.00000000
-15.777069 58.928337 -31.919781 20.00000000
-20.445860 60.941002 -43.800915 20.00000000
-1.674789 44.462067 -24.296007 20.00000000
0.182060 39.352032 -47.905552 20.00000000
-40.682224 61.357300 -47.725460 20.00000000
-30.616171 62.739201 -31.622082 20.00000000
-45.536007 59.455318 -29.319477 20.00000000
-19.890486 60.743977 -18.072296 20.00000000
-8.546114 53.738056 -31.575819 20.00000000
-2.631010 46.256496 -41.194588 20.00000000
-14.979633 58.479588 -16.215828 20.00000000
-7.292350 52.522083 -55.322220 20.00000000
-34.243183 62.595741 3.565449 20.00000000
-0.299373 41.300434 -0.967627 20.00000000
-41.753399 61.003574 -29.901903 20.00000000
-39.238037 61.741413 0.586223 20.00000000
-25.866253 62.306828 -5.344013 20.00000000
-42.187656 60.847126 1.535547 20.00000000
-7.849602 53.062538 -61.085197 20.00000000
-1.746371 44.607513 -16.135302 20.00000000
-16.548584 59.330494 3.778627 20.00000000
-25.033728 62.164558 -42.789650 20.00000000
0.693541 35.433681 -37.241802 20.00000000
-20.779749 61.059456 -36.629292 20.00000000
-11.731615 56.407249 -6.337523 20.00000000
-16.728050 59.412094 -43.222446 20.00000000
-13.611553 57.689026 1.759848 20.00000000
0.052381 40.345474 -18.427183 20.00000000
-41.996971 60.915825 3.660747 20.00000000
-37.620136 62.111588 -25.643623 20.00000000
-1.550948 44.210438 -7.426210 20.00000000
-37.294495 62.168861 -17.327410 20.00000000
-27.670773 62.559036 -8.024974 20.00000000
-28.695637 62.644711 -60.711308 20.00000000
-1.148437 43.392578 -43.395321 20.00000000
-33.119576 62.695183 -48.548931 20.00000000
-22.348486 61.535984 -20.229769 20.00000000
-4.645430 49.326015 -5.357942 20.00000000
-2.304958 45.716476 -58.380898 20.00000000
-4.434722 49.036438 -43.683792 20.00000000
-2.175846 45.480156 1.972376 20.00000000
-28.214346 62.604477 -51.015999 20.00000000
-15.778546 58.929169 -36.079895 20.00000000
-3.923544 48.333920 -23.664749 20.00000000
0.444147 37.344242 -48.781162 20.00000000
-3.721043 48.055618 -5.138623 20.00000000
-27.795933 62.569500 -18.871752 20.00000000
0.018127 40.485535 -57.356125 20.00000000
-22.115181 61.475151 -14.283273 20.00000000
-35.268574 62.504990 -0.192916 20.00000000
-39.672638 61.625820 -45.416264 20.00000000
-0.499359 41.813725 -34.271629 20.00000000
0.595804 36.182423 0.231780 20.00000000
-13.310061 57.483463 -50.514431 20.00000000
-38.266155 61.997971 -58.837639 20.00000000
-29.317776 62.696720 -6.993164 20.00000000
-2.161938 45.451897 -18.172359 20.00000000
-32.733952 62.729309 -33.412914 20.00000000
-1.357196 43.816753 1.043783 20.00000000
-35.804974 62.430824 -13.517398 20.00000000
-16.191730 59.161690 -20.661386 20.00000000
-8.114417 53.319370 -19.174183 20.00000000
-5.262537 50.174114 2.210842 20.00000000
-29.552773 62.716366 2.248702 20.00000000
-1.887009 44.893272 -19.804882 20.00000000
