-22.746899 68.489319 -54.871334 21.00000000
-5.055881 59.579781 -35.035896 21.00000000
3.481618 48.986992 -20.057821 21.00000000
-8.650913 62.368565 0.634703 21.00000000
7.905965 36.922752 -37.031395 21.00000000
-32.749294 69.375771 -2.248743 21.00000000
-20.870684 68.057053 -18.966227 21.00000000
2.273416 51.000584 -30.551474 21.00000000
-29.088287 69.343430 1.843107 21.00000000
5.490740 44.780380 -21.867130 21.00000000
-19.479416 67.629387 -4.857832 21.00000000
-13.288389 65.129250 -39.329144 21.00000000
-10.270417 63.438320 -12.258160 21.00000000
-29.783560 69.385880 -46.860699 21.00000000
-26.236378 69.091927 -6.289366 21.00000000
6.594975 41.736073 -61.063530 21.00000000
-10.869049 63.793446 -6.766178 21.00000000
-2.342489 56.982628 -18.212776 21.00000000
7.495824 38.506542 -47.290588 21.00000000
6.073165 43.291489 -32.006844 21.00000000
-31.565777 69.397156 -57.666954 21.00000000
7.818859 37.259117 -16.297726 21.00000000
-7.785856 61.758125 -52.480244 21.00000000
-28.464586 69.305344 -57.517475 21.00000000
-21.597870 68.233406 -52.032154 21.00000000
3.849599 48.283329 -39.410091 21.00000000
4.366486 47.294922 -53.909164 21.00000000
-11.870881 64.387764 -47.305702 21.00000000
-24.576496 68.857903 -23.833988 21.00000000
4.232910 47.550350 -28.159288 21.00000000
1.923718 51.557243 -38.917545 21.00000000
-5.244522 59.736614 -32.960236 21.00000000
4.943969 46.063759 -46.666351 21.00000000
-18.290442 67.263916 -54.341091 21.00000000
-20.173923 67.842873 -48.551640 21.00000000
-4.265347 58.867496 -41.397366 21.00000000
-0.106713 54.381813 -2.636657 21.00000000
-0.882564 55.314899 -59.306873 21.00000000
-13.093569 65.033607 -32.085629 21.00000000
-3.363388 57.988224 -30.345654 21.00000000
-13.695335 65.329041 -60.419117 21.00000000
-6.879472 61.095901 -0.491973 21.00000000
2.730803 50.272503 -56.119564 21.00000000
-8.352969 62.158314 -9.869197 21.00000000
4.266874 47.485405 -0.586822 21.00000000
-5.644171 60.068882 -40.886951 21.00000000
-21.359388 68.180290 -47.639511 21.00000000
-32.586063 69.378716 -39.249153 21.00000000
-8.401482 62.192551 -34.407536 21.00000000
8.544585 34.456673 -20.860266 21.00000000
3.549289 48.857586 -45.412487 21.00000000
-19.443005 67.618195 -30.915268 21.00000000
-25.766518 69.025681 -53.554279 21.00000000
7.481301 38.562626 -39.285099 21.00000000
3.384394 49.172905 -23.704224 21.00000000
-33.353386 69.364853 -47.589821 21.00000000
-31.566076 69.397148 -54.970612 21.00000000
-17.464087 66.958321 -58.872444 21.00000000
-10.128425 63.354088 -30.474543 21.00000000
-25.290619 68.958588 -42.630123 21.00000000
5.405450 44.980576 -48.526577 21.00000000
3.747095 48.479340 -61.087219 21.00000000
0.552276 53.496677 -18.236773 21.00000000
1.861046 51.657005 -44.803631 21.00000000
-4.086484 58.693130 -34.013359 21.00000000
-4.957125 59.497677 -5.802168 21.00000000
-30.731047 69.412239 -36.666023 21.00000000
-19.190926 67.540710 -17.707170 21.00000000
-3.373961 57.998531 -2.604555 21.00000000
-6.605291 60.867950 -9.034531 21.00000000
7.817604 37.263962 -46.275494 21.00000000
-13.727800 65.344978 -24.219894 21.00000000
-9.738472 63.122753 -15.586414 21.00000000
-14.865953 65.903740 -2.245647 21.00000000
0.690583 53.310909 -9.437595 21.00000000
6.868852 40.919701 -25.069023 21.00000000
-17.013149 66.779633 -17.418648 21.00000000
-7.712459 61.706333 -61.024529 21.00000000
-21.873537 68.294807 -59.152138 21.00000000
-9.841117 63.183647 -10.199013 21.00000000
-24.547163 68.853767 -36.049030 21.00000000
5.344495 45.123646 -4.662346 21.00000000
-32.112316 69.387276 -17.432222 21.00000000
-4.188352 58.792439 1.217097 21.00000000
-25.646896 69.008820 -0.902962 21.00000000
8.518525 34.557304 -50.835003 21.00000000
3.295338 49.343201 -7.608445 21.00000000
-25.221630 68.948860 -25.690947 21.00000000
-0.537767 54.921024 -46.092728 21.00000000
-31.651049 69.395615 -7.845307 21.00000000
-8.561492 62.305462 -39.370682 21.00000000
-10.427024 63.531223 -53.916973 21.00000000
6.405038 42.302238 -40.810928 21.00000000
-14.685159 65.814980 -54.338470 21.00000000
-7.398367 61.484688 -46.189995 21.00000000
-17.788260 67.086777 -20.201517 21.00000000
5.984334 43.556278 -58.683743 21.00000000
-17.175749 66.844063 -41.698025 21.00000000
-23.890261 68.743973 -16.563732 21.00000000
1.026119 52.860229 -1.953405 21.00000000
-0.077287 54.342289 -47.863747 21.00000000
5.992389 43.532269 -28.608910 21.00000000
0.026443 54.202965 -42.091576 21.00000000
-28.635714 69.315796 -10.579750 21.00000000
-12.585148 64.784004 -15.905336 21.00000000
-0.650219 55.049480 -27.312479 21.00000000
-1.728584 56.281338 -29.892925 21.00000000
-26.421745 69.118065 -16.482616 21.00000000
6.678334 41.487598 -28.745497 21.00000000
-26.470718 69.124969 -14.316604 21.00000000
-12.870943 64.924316 -49.052269 21.00000000
-11.716095 64.295944 -51.049843 21.00000000
4.623094 46.804230 -55.825844 21.00000000
-10.755101 63.725849 -1.398014 21.00000000
6.939234 40.655853 -41.138149 21.00000000
-7.000789 61.196766 -39.925404 21.00000000
-1.488684 56.007294 -52.162060 21.00000000
5.843258 43.952953 -3.261340 21.00000000
-4.399122 58.997906 -39.808086 21.00000000
-28.953926 69.335228 -50.722706 21.00000000
7.519180 38.416351 -17.318058 21.00000000
-13.282941 65.126579 -3.007371 21.00000000
-14.081870 65.518806 -41.406967 21.00000000
-21.078695 68.117775 -13.862066 21.00000000
-18.497759 67.327637 -48.330624 21.00000000
-9.004914 62.618366 -55.870213 21.00000000
-16.308048 66.500221 -30.981958 21.00000000
4.568237 46.909130 -17.738371 21.00000000
2.041821 51.369244 -54.617931 21.00000000
-31.764544 69.393562 -3.676467 21.00000000
-10.480221 63.562782 -42.426319 21.00000000
-24.718613 68.877937 -50.616669 21.00000000
-3.788350 58.402496 -35.767769 21.00000000
4.235851 47.544727 -45.986427 21.00000000
3.481837 48.986572 -1.376294 21.00000000
-7.324975 61.432899 -14.578558 21.00000000
-25.025488 68.921204 -3.605793 21.00000000
6.934888 40.672638 -46.584106 21.00000000
-22.007345 68.324608 -39.400867 21.00000000
-14.767953 65.855629 -50.107033 21.00000000
2.620640 50.447865 -9.153184 21.00000000
-6.944021 61.149567 1.870243 21.00000000
5.919833 43.748543 -36.683819 21.00000000
-20.589590 67.970642 -53.324684 21.00000000
-33.226315 69.367149 -0.295950 21.00000000
-20.794823 68.033730 -55.029373 21.00000000
-8.522473 62.277927 2.316314 21.00000000
5.679344 44.337688 -24.233313 21.00000000
-31.180321 69.404121 -30.822405 21.00000000
-7.150893 61.310055 -30.987062 21.00000000
-18.983601 67.476982 -46.225834 21.00000000
5.883198 43.857742 -17.297295 21.00000000
2.056748 51.345482 -20.358213 21.00000000
7.297843 39.271061 -9.617547 21.00000000
-5.228766 59.723515 -58.506134 21.00000000
-4.592859 59.186771 -29.266689 21.00000000
-4.995205 59.529335 -47.973362 21.00000000
-2.798823 57.437859 -52.376820 21.00000000
-6.911963 61.122917 -10.809240 21.00000000
-9.223921 62.772915 -33.198441 21.00000000
-22.797291 68.500542 -8.327344 21.00000000
-30.038994 69.401482 -22.745501 21.00000000
-5.583580 60.018505 3.655000 21.00000000
5.142789 45.597088 -1.277152 21.00000000
-21.735149 68.263985 -29.887995 21.00000000
-23.888023 68.743477 0.017861 21.00000000
7.967978 36.683285 -4.565823 21.00000000
-1.315715 55.809704 -12.999366 21.00000000
-5.370205 59.841106 -24.304672 21.00000000
-25.793859 69.029533 -12.824555 21.00000000
4.972593 45.996571 0.270746 21.00000000
-19.268545 67.564568 -15.592570 21.00000000
-24.133089 68.795387 -57.442341 21.00000000
5.833840 43.975060 -51.218697 21.00000000
4.564206 46.916840 -33.053169 21.00000000
5.363273 45.079571 -38.650688 21.00000000
-19.754484 67.713943 -35.768284 21.00000000
-13.750429 65.356087 -0.886829 21.00000000
-26.731571 69.161743 -26.840883 21.00000000
7.610610 38.063290 -49.499893 21.00000000
-6.063875 60.417820 -16.154146 21.00000000
-17.283989 66.886955 -6.091039 21.00000000
-22.658432 68.469620 -60.932922 21.00000000
3.249200 49.431423 -52.645664 21.00000000
-25.032385 68.922173 -37.974033 21.00000000
6.959891 40.576084 -14.121864 21.00000000
0.116164 54.082451 3.414764 21.00000000
-19.050671 67.497597 -58.585007 21.00000000
-25.900352 69.044556 -21.544056 21.00000000
-10.840937 63.776772 -59.433632 21.00000000
-4.010897 58.619446 -57.009857 21.00000000
-16.154219 66.439262 -46.550404 21.00000000
-4.215252 58.818661 -52.901669 21.00000000
-26.817038 69.173798 -24.989174 21.00000000
8.425882 34.915051 -8.670028 21.00000000
-27.714033 69.259521 -51.989841 21.00000000
8.223050 35.698303 -2.888566 21.00000000
3.484293 48.981876 -3.244669 21.00000000
-33.120266 69.369064 -52.011894 21.00000000
-28.011499 69.277679 -47.266201 21.00000000
0.980662 52.921284 1.492904 21.00000000
0.197845 53.972740 -8.057320 21.00000000
7.476830 38.579887 -33.393730 21.00000000
-28.385756 69.300529 -27.319876 21.00000000
1.655772 51.983768 -60.818333 21.00000000
-4.180062 58.784355 -8.415361 21.00000000
6.076905 43.280342 -52.606567 21.00000000
-18.396767 67.296593 -22.705311 21.00000000
0.903078 53.025494 -22.525526 21.00000000
-8.343284 62.151482 -43.087021 21.00000000
8.370615 35.128471 -1.476917 21.00000000
-33.170250 69.368156 3.283605 21.00000000
-23.267818 68.605339 -34.630100 21.00000000
-18.134176 67.215881 -30.161674 21.00000000
-5.026287 59.555176 -54.514225 21.00000000
-14.481416 65.714958 -16.041864 21.00000000
3.552434 48.851574 -31.462097 21.00000000
-9.737453 63.122150 -24.521086 21.00000000
-5.082650 59.602036 -46.035576 21.00000000
-17.255939 66.875839 -44.868179 21.00000000
-25.096754 68.931252 1.813790 21.00000000
-16.522461 66.585182 -15.517878 21.00000000
-6.577784 60.845081 -58.090343 21.00000000
8.528118 34.520264 -37.687233 21.00000000
-19.410187 67.608109 -56.151081 21.00000000
-24.922485 68.906685 -30.120783 21.00000000
5.682398 44.330521 -46.773228 21.00000000
-19.755875 67.714371 -9.733436 21.00000000
7.385154 38.933903 1.880238 21.00000000
0.830387 53.123131 -13.322217 21.00000000
-13.778615 65.369926 -4.711654 21.00000000
-30.841301 69.410248 -20.440844 21.00000000
-0.157205 54.449635 -19.807615 21.00000000
2.568426 50.530979 -11.280717 21.00000000
8.573501 34.345013 -23.827446 21.00000000
5.519967 44.711781 -60.559616 21.00000000
-24.883329 68.901161 -14.929502 21.00000000
-4.416276 59.014629 2.956961 21.00000000
6.071296 43.297062 -47.913921 21.00000000
-6.675584 60.926392 -50.550495 21.00000000
-13.470048 65.218437 -58.165794 21.00000000
-24.948002 68.910278 -52.168762 21.00000000
-0.257595 54.584473 -30.266319 21.00000000
-24.505260 68.847855 -40.001179 21.00000000
7.631214 37.983723 -35.631855 21.00000000
-22.136835 68.353447 -0.515805 21.00000000
-2.697091 57.338688 -12.224159 21.00000000
-25.109892 68.933105 -27.487688 21.00000000
-0.282525 54.617958 1.778785 21.00000000
7.111521 39.990559 -48.575237 21.00000000
-1.844983 56.414307 -46.153522 21.00000000
1.891272 51.608894 -43.270134 21.00000000
-14.982784 65.961098 -57.933624 21.00000000
-3.269446 57.896645 -31.983009 21.00000000
-17.492241 66.969475 -12.397642 21.00000000
-29.797863 69.386757 -6.580964 21.00000000
-11.021257 63.883739 -56.089672 21.00000000
-31.634144 69.395920 -46.004608 21.00000000
0.141820 54.047993 -43.979324 21.00000000
-3.841208 58.454025 -49.449490 21.00000000
-5.659766 60.081844 -10.247462 21.00000000
6.198901 42.916695 -4.536537 21.00000000
-16.922436 66.743683 -48.151943 21.00000000
6.717352 41.371288 -59.062565 21.00000000
-6.041917 60.399567 -44.917080 21.00000000
-30.101379 69.405289 -9.930021 21.00000000
-5.323686 59.802429 -19.879719 21.00000000
2.073370 51.319023 -24.472927 21.00000000
7.525563 38.391705 -37.751766 21.00000000
-2.708292 57.349606 1.719645 21.00000000
5.447251 44.882458 -30.734533 21.00000000
6.357228 42.444752 -33.899494 21.00000000
-4.156050 58.760948 -16.859766 21.00000000
0.132974 54.059872 -28.677244 21.00000000
-26.055696 69.066452 -46.518333 21.00000000
-5.382880 59.851646 -3.634930 21.00000000
7.011405 40.377159 -39.431362 21.00000000
-8.635025 62.357349 -29.774891 21.00000000
-27.309252 69.234802 -5.009731 21.00000000
-0.932259 55.371666 -6.039541 21.00000000
-28.898209 69.331825 -18.613636 21.00000000
-27.482544 69.245384 -58.918610 21.00000000
4.715126 46.600899 -36.478554 21.00000000
-9.148849 62.719936 -37.698578 21.00000000
-26.253448 69.094337 3.348764 21.00000000
-5.093444 59.611012 -21.525969 21.00000000
0.781306 53.189053 -15.476944 21.00000000
5.165819 45.543034 -14.335715 21.00000000
-9.141203 62.714542 -41.423260 21.00000000
-22.038687 68.331589 -41.214676 21.00000000
8.426838 34.911362 -11.032211 21.00000000
-23.130274 68.574707 -10.516202 21.00000000
-23.167992 68.583107 -4.248875 21.00000000
-5.935068 60.310730 -14.430712 21.00000000
-11.467212 64.148293 -31.523233 21.00000000
-14.264820 65.608620 -51.822765 21.00000000
-2.427044 57.075432 -10.082233 21.00000000
-33.328732 69.365295 -35.677959 21.00000000
-30.503094 69.416359 -50.160095 21.00000000
-26.517178 69.131516 -23.243547 21.00000000
8.338298 35.253269 -61.118488 21.00000000
-26.512562 69.130867 0.734914 21.00000000
-0.245334 54.568005 -38.055164 21.00000000
-23.133795 68.575493 -51.225044 21.00000000
-13.332688 65.151001 2.318364 21.00000000
-20.160994 67.838898 -38.176449 21.00000000
-2.112688 56.720116 -31.971865 21.00000000
3.727798 48.516239 -55.910065 21.00000000
5.460045 44.852428 -6.438063 21.00000000
-20.704317 68.005913 -58.091782 21.00000000
4.949041 46.051853 -19.283800 21.00000000
1.743780 51.843674 -14.689907 21.00000000
3.800200 48.377789 -12.248273 21.00000000
0.912815 53.012417 -35.490776 21.00000000
4.214752 47.585072 -7.188183 21.00000000
1.336764 52.442982 -48.905186 21.00000000
0.988697 52.910492 -47.427620 21.00000000
-29.130039 69.345978 -13.997067 21.00000000
-7.311121 61.423122 -23.519283 21.00000000
-25.691271 69.015076 -41.091576 21.00000000
6.859532 40.947479 -8.751419 21.00000000
-4.915675 59.463215 -0.681785 21.00000000
5.406268 44.978653 -40.666759 21.00000000
3.529093 48.896206 -17.066826 21.00000000
6.226739 42.833714 -21.937498 21.00000000
7.634968 37.969227 -5.548220 21.00000000
7.629904 37.988785 -28.620445 21.00000000
3.719841 48.531456 -14.100110 21.00000000
-24.082073 68.786697 -41.582005 21.00000000
-3.252583 57.880207 -6.293033 21.00000000
-32.296124 69.383957 -44.279388 21.00000000
-10.596422 63.631718 -4.909456 21.00000000
-17.007666 66.777458 -14.076100 21.00000000
-0.279555 54.613968 -4.724613 21.00000000
-13.427724 65.197662 -28.810719 21.00000000
8.016904 36.494350 -50.497780 21.00000000
-21.383137 68.185577 -56.405434 21.00000000
4.982992 45.972164 -7.381978 21.00000000
7.564497 38.241356 -22.996954 21.00000000
-9.181238 62.742794 -31.525360 21.00000000
-24.567280 68.856598 3.769809 21.00000000
7.982837 36.625904 -34.022675 21.00000000
-14.980356 65.959908 -29.070639 21.00000000
-21.575132 68.228340 -26.230436 21.00000000
2.094854 51.284824 -35.290283 21.00000000
-9.972925 63.261837 -22.168644 21.00000000
5.241599 45.365162 -35.315872 21.00000000
6.546237 41.881351 -0.544320 21.00000000
-8.587184 62.323593 -21.590841 21.00000000
-0.124995 54.406368 -39.841576 21.00000000
-15.282811 66.093948 -0.493925 21.00000000
-28.876038 69.330467 -3.010488 21.00000000
-14.768153 65.855728 -27.474913 21.00000000
-16.555717 66.598366 -38.783348 21.00000000
-1.742524 56.297264 -22.219721 21.00000000
-9.654157 63.072735 -3.026040 21.00000000
-18.312641 67.270737 -1.772044 21.00000000
-9.232224 62.778770 -52.601467 21.00000000
-18.009535 67.174461 3.678650 21.00000000
-0.662976 55.064056 -51.346165 21.00000000
-18.952272 67.467354 -41.107502 21.00000000
1.077588 52.791096 -25.302088 21.00000000
5.935737 43.701134 -14.230953 21.00000000
-11.657076 64.260925 -20.158012 21.00000000
-8.044866 61.940899 -24.999670 21.00000000
-19.388981 67.601593 1.633385 21.00000000
-25.814108 69.032394 -33.460430 21.00000000
-7.854288 61.806416 -12.597107 21.00000000
-17.186256 66.848228 -8.352041 21.00000000
-1.219676 55.699993 -11.254527 21.00000000
-5.578922 60.014633 -7.488806 21.00000000
8.417995 34.945511 -46.713848 21.00000000
-0.885591 55.318356 -41.015202 21.00000000
-2.505638 57.152050 -4.290035 21.00000000
-33.402065 69.363968 -32.211365 21.00000000
6.579280 41.782856 -47.665932 21.00000000
-12.205852 64.586479 -60.090801 21.00000000
5.320428 45.180138 -45.099159 21.00000000
-1.072997 55.532436 -15.192770 21.00000000
-6.943677 61.149281 -48.542671 21.00000000
-13.664199 65.313751 -12.494165 21.00000000
-1.602049 56.136795 -2.822055 21.00000000
-23.593901 68.677971 -49.012894 21.00000000
-1.664562 56.208202 -26.269367 21.00000000
-13.776174 65.368729 3.769890 21.00000000
-13.342655 65.155891 -53.276722 21.00000000
7.998738 36.564503 -13.708940 21.00000000
-30.501352 69.416389 -44.426487 21.00000000
6.009364 43.481670 -19.022284 21.00000000
-29.558048 69.372108 -61.032894 21.00000000
7.603463 38.090885 -60.397846 21.00000000
1.912044 51.575829 -10.048727 21.00000000
7.222667 39.561359 -12.032436 21.00000000
-18.706570 67.391830 -26.001198 21.00000000
-2.930428 57.566154 -50.464764 21.00000000
3.988450 48.017815 -35.698662 21.00000000
-0.170523 54.467522 -35.428825 21.00000000
7.161345 39.798157 -29.686287 21.00000000
2.849956 50.082832 -21.930962 21.00000000
7.399879 38.877041 0.274438 21.00000000
-2.505190 57.151611 -35.042500 21.00000000
4.140646 47.726780 -23.508726 21.00000000
-32.611198 69.378265 -22.689016 21.00000000
2.528895 50.593906 -41.681923 21.00000000
-20.225666 67.858780 -44.900379 21.00000000
-27.406015 69.240707 -30.779404 21.00000000
8.215569 35.727196 -41.326744 21.00000000
8.570504 34.356586 -55.246296 21.00000000
0.759461 53.218395 -38.861137 21.00000000
1.756614 51.823246 -3.250975 21.00000000
-10.546599 63.602161 -26.818283 21.00000000
-31.310230 69.401772 -14.774173 21.00000000
-29.079643 69.342903 -54.915382 21.00000000
1.518210 52.199265 -52.970791 21.00000000
4.473836 47.089645 -14.762876 21.00000000
-15.436927 66.155022 -40.429585 21.00000000
2.394203 50.808311 -59.668774 21.00000000
7.738549 37.569241 -54.496365 21.00000000
5.868818 43.892960 1.339600 21.00000000
2.182214 51.145763 -32.560020 21.00000000
-6.106702 60.453426 -17.735287 21.00000000
-28.927946 69.333641 -53.318642 21.00000000
4.743709 46.533806 -20.872520 21.00000000
-13.854712 65.407280 -44.813663 21.00000000
4.578244 46.889996 -12.718914 21.00000000
-25.565041 68.997276 -18.654156 21.00000000
-2.883579 57.520481 -25.438293 21.00000000
4.665134 46.718239 1.829934 21.00000000
0.339169 53.782917 -26.598410 21.00000000
-13.344302 65.156700 -56.532127 21.00000000
-33.246246 69.366783 -54.055214 21.00000000
-23.226385 68.596115 -37.508320 21.00000000
-11.684522 64.277206 -28.450939 21.00000000
-2.771086 57.410820 -1.091283 21.00000000
6.238244 42.799419 -1.984718 21.00000000
-1.785591 56.346462 0.864881 21.00000000
2.392072 50.811703 -47.744099 21.00000000
2.441019 50.733788 -37.589672 21.00000000
8.554625 34.417904 -18.173828 21.00000000
2.354563 50.871410 -51.025200 21.00000000
3.326806 49.283024 -54.275169 21.00000000
-15.317383 66.107651 -8.800106 21.00000000
-12.526598 64.755264 -7.890282 21.00000000
-27.372980 69.238693 -37.121349 21.00000000
5.699917 44.289402 -8.802725 21.00000000
-1.870185 56.443096 -49.696918 21.00000000
-23.878687 68.741394 -26.556698 21.00000000
-20.424971 67.920044 -32.984489 21.00000000
-32.818787 69.374512 -30.733244 21.00000000
7.107166 40.007374 -20.284300 21.00000000
-30.739935 69.412079 1.984172 21.00000000
3.897962 48.190845 -43.988636 21.00000000
-30.662624 69.413475 -16.795792 21.00000000
-7.549563 61.591381 -16.522982 21.00000000
-1.128702 55.596073 -34.584469 21.00000000
-29.415100 69.363380 -30.764975 21.00000000
8.468867 34.749065 -32.738304 21.00000000
-12.081199 64.512527 -13.019041 21.00000000
0.680857 53.323975 -30.157463 21.00000000
4.388928 47.252010 -2.581913 21.00000000
1.407381 52.348129 -37.229229 21.00000000
-26.345072 69.107254 -39.206425 21.00000000
1.451243 52.289215 -34.226353 21.00000000
-32.501923 69.380241 1.272034 21.00000000
-3.790109 58.404213 -60.495144 21.00000000
-8.078335 61.964516 -2.766767 21.00000000
-28.725424 69.321274 -35.436447 21.00000000
4.001724 47.992432 -10.167235 21.00000000
-25.551525 68.995369 -59.069393 21.00000000
-28.479048 69.306229 -33.499691 21.00000000
-7.237864 61.371429 -21.781252 21.00000000
6.094133 43.228985 -25.890011 21.00000000
-26.799536 69.171326 -9.841627 21.00000000
5.581610 44.567093 -0.197151 21.00000000
4.090010 47.823608 -52.377918 21.00000000
5.612570 44.494423 2.953909 21.00000000
6.904234 40.791012 -43.098263 21.00000000
-21.002665 68.097618 -2.810134 21.00000000
8.369199 35.133942 -14.604196 21.00000000
-23.993973 68.767075 -32.061630 21.00000000
3.684794 48.598473 1.278795 21.00000000
-1.441203 55.953053 -55.664577 21.00000000
2.550366 50.559727 3.766282 21.00000000
4.716707 46.597187 -24.820076 21.00000000
-16.984459 66.768257 -21.555735 21.00000000
8.327048 35.296711 -48.995037 21.00000000
2.939569 49.940182 -33.616535 21.00000000
6.984603 40.480659 -5.381275 21.00000000
-24.663218 68.870125 -47.092159 21.00000000
6.513657 41.978466 -15.019494 21.00000000
-18.047319 67.189178 -31.936354 21.00000000
-13.301676 65.135773 -36.092842 21.00000000
-18.947035 67.465744 0.007275 21.00000000
-18.539330 67.340416 -13.752928 21.00000000
6.938712 40.657871 -57.672543 21.00000000
1.397208 52.361794 -11.841281 21.00000000
2.399222 50.800323 -17.130512 21.00000000
6.398606 42.321411 -8.026562 21.00000000
-4.807670 59.373421 -50.717537 21.00000000
-6.422939 60.716343 -2.096351 21.00000000
5.258410 45.325703 -11.584708 21.00000000
7.254939 39.436737 -60.989052 21.00000000
-32.566769 69.379066 -11.630706 21.00000000
-9.025097 62.632610 -17.514381 21.00000000
-9.410596 62.904644 -6.163547 21.00000000
-23.607271 68.680946 -22.269514 21.00000000
-9.123494 62.702045 -26.329279 21.00000000
-10.200004 63.396549 -8.542495 21.00000000
-3.889003 58.500618 -11.684097 21.00000000
7.097896 40.043171 -22.899418 21.00000000
-28.306850 69.295715 -23.203749 21.00000000
-14.787916 65.865433 2.419036 21.00000000
-16.879250 66.726570 -3.493280 21.00000000
5.832719 43.977688 -42.101009 21.00000000
-2.242744 56.868683 3.593618 21.00000000
-12.262465 64.620064 -5.847994 21.00000000
-16.500559 66.576508 -29.198641 21.00000000
7.916289 36.882885 -25.020832 21.00000000
4.741168 46.539772 3.787761 21.00000000
4.797912 46.406582 -29.644032 21.00000000
6.533032 41.920712 -23.293692 21.00000000
-22.111567 68.347816 -12.436677 21.00000000
5.504038 44.749168 -33.811096 21.00000000
5.097484 45.703430 -53.203705 21.00000000
-2.391706 57.038849 -33.468327 21.00000000
-14.358010 65.654373 -48.159595 21.00000000
-13.449152 65.208176 -26.258846 21.00000000
-3.904772 58.515991 -43.547443 21.00000000
-12.065724 64.503349 -0.556440 21.00000000
-30.102432 69.405350 -56.538620 21.00000000
-0.342744 54.698242 -21.955568 21.00000000
6.605967 41.703308 -6.452544 21.00000000
-11.378502 64.095673 -49.325787 21.00000000
-30.761181 69.411697 -4.947007 21.00000000
3.415886 49.112686 -42.580078 21.00000000
-17.853064 67.112457 1.543121 21.00000000
-28.250868 69.292297 -8.450125 21.00000000
-32.397629 69.382118 -34.326660 21.00000000
-11.624875 64.241829 -57.943214 21.00000000
1.934916 51.539421 0.711081 21.00000000
-10.023356 63.291756 -44.065090 21.00000000
-13.539667 65.252617 -8.907103 21.00000000
-31.752897 69.393776 -48.887001 21.00000000
7.702215 37.709545 -40.897148 21.00000000
-14.085923 65.520790 -19.643272 21.00000000
-19.478775 67.629196 -20.231630 21.00000000
0.508017 53.556126 -23.892513 21.00000000
-23.673552 68.695709 -18.513100 21.00000000
-33.057262 69.370201 -5.544039 21.00000000
-12.170250 64.565361 -37.335396 21.00000000
-26.984173 69.197357 -42.145935 21.00000000
-0.523023 54.904182 -53.177124 21.00000000
-1.933778 56.515739 -14.431895 21.00000000
6.293012 42.636166 -45.531178 21.00000000
-13.290924 65.130501 -46.814838 21.00000000
-28.607306 69.314056 -41.787647 21.00000000
6.510531 41.987785 -17.773935 21.00000000
-14.914924 65.927780 -6.827436 21.00000000
2.195280 51.124966 -1.044078 21.00000000
6.843974 40.993855 -10.798530 21.00000000
-28.090338 69.282494 -45.137047 21.00000000
5.977118 43.577785 -49.422520 21.00000000
-2.559349 57.204411 -38.495735 21.00000000
-1.244255 55.728073 2.451634 21.00000000
5.444610 44.888657 -26.023500 21.00000000
4.129517 47.748062 -19.193871 21.00000000
8.119673 36.097500 -51.929478 21.00000000
-6.974900 61.175240 -43.888111 21.00000000
1.653242 51.987797 -40.778618 21.00000000
-5.924496 60.301941 -27.818130 21.00000000
-20.126986 67.828445 -22.025652 21.00000000
-23.895948 68.745239 -59.463097 21.00000000
-23.916466 68.749809 -53.333412 21.00000000
-3.794791 58.408775 -19.115885 21.00000000
-6.499997 60.780411 -32.727276 21.00000000
-27.771412 69.263023 -6.492415 21.00000000
-33.270065 69.366356 -27.172997 21.00000000
-23.149595 68.579010 -43.447956 21.00000000
4.029246 47.939800 -25.654684 21.00000000
-16.070175 66.405960 -59.235481 21.00000000
7.235226 39.512859 -35.027878 21.00000000
6.422517 42.250137 0.963789 21.00000000
7.078755 40.117085 -37.334522 21.00000000
4.100105 47.804302 3.129798 21.00000000
-23.669319 68.694763 -13.750640 21.00000000
-6.493344 60.774879 -29.534533 21.00000000
-1.018793 55.470516 -1.059348 21.00000000
5.645054 44.418175 -54.216320 21.00000000
3.079366 49.717651 -38.762634 21.00000000
-27.097136 69.213287 -49.067921 21.00000000
7.720744 37.637997 -3.132726 21.00000000
-14.791892 65.867378 -35.487789 21.00000000
-3.345033 57.970329 -45.556488 21.00000000
4.101019 47.802559 -57.541592 21.00000000
6.793839 41.143299 -2.084510 21.00000000
-14.158581 65.556465 0.832077 21.00000000
-33.442684 69.363235 -8.472084 21.00000000
8.169794 35.903957 -12.366263 21.00000000
-9.541620 62.997101 -19.836340 21.00000000
-9.552626 63.004868 -58.518246 21.00000000
-8.250086 62.085716 -57.496178 21.00000000
4.038272 47.922543 -4.738877 21.00000000
4.680453 46.682281 -4.092720 21.00000000
-30.394213 69.418327 -51.948311 21.00000000
8.522109 34.543465 -39.670448 21.00000000
8.450054 34.821712 -16.432827 21.00000000
4.855633 46.271103 -5.722598 21.00000000
-22.361088 68.403389 -15.337066 21.00000000
1.971332 51.481449 -58.113136 21.00000000
0.704029 53.292850 -4.083466 21.00000000
-10.944753 63.838356 -33.238049 21.00000000
-22.269938 68.383095 -17.547665 21.00000000
-7.486960 61.547207 -59.233021 21.00000000
-13.256952 65.113823 -11.074558 21.00000000
0.009841 54.225262 -0.328549 21.00000000
0.639158 53.379982 -52.044769 21.00000000
8.430331 34.897873 -28.973902 21.00000000
-4.036925 58.644821 -4.246316 21.00000000
-29.299957 69.356354 -37.412254 21.00000000
-16.172422 66.446480 -56.385735 21.00000000
-5.231073 59.725433 -56.161327 21.00000000
-4.063823 58.671043 -22.479065 21.00000000
-6.069707 60.422668 -26.202419 21.00000000
7.333873 39.131927 -53.073479 21.00000000
7.466827 38.618515 -7.811459 21.00000000
6.741328 41.299824 -35.320026 21.00000000
0.210349 53.955944 -58.284229 21.00000000
-3.559154 58.179066 -9.794480 21.00000000
5.395549 45.003815 -15.959540 21.00000000
-8.982268 62.602386 -45.170559 21.00000000
4.982469 45.973392 -58.271320 21.00000000
4.588268 46.870827 -34.867977 21.00000000
-22.979862 68.541206 3.866974 21.00000000
-12.596328 64.789497 -30.187851 21.00000000
7.019514 40.345848 -33.661171 21.00000000
6.059076 43.333485 -6.323641 21.00000000
6.653807 41.560707 -19.509403 21.00000000
-11.439404 64.131798 -35.230740 21.00000000
-2.918396 57.554424 -59.232574 21.00000000
0.318818 53.810253 -36.776497 21.00000000
6.863827 40.934677 -55.622536 21.00000000
-0.524536 54.905910 -32.079723 21.00000000
-21.850842 68.289749 -22.175995 21.00000000
3.041825 49.777409 -35.476257 21.00000000
-10.938800 63.834824 -13.919756 21.00000000
-3.392117 58.016232 -54.790207 21.00000000
-20.276066 67.874268 -27.262878 21.00000000
-8.733355 62.426739 -23.452295 21.00000000
-23.196976 68.589561 -29.472878 21.00000000
-21.630484 68.240669 -50.005669 21.00000000
8.007742 36.529732 -47.907200 21.00000000
-4.812111 59.377110 -2.254425 21.00000000
3.252812 49.424519 -50.523266 21.00000000
7.500908 38.486912 3.789063 21.00000000
-1.533805 56.058838 -57.752682 21.00000000
-0.352779 54.709705 -16.374289 21.00000000
3.825794 48.328850 -21.891813 21.00000000
-20.169775 67.841599 -25.570429 21.00000000
-2.769400 57.409176 -23.287472 21.00000000
0.284941 53.855755 -60.095257 21.00000000
-0.882475 55.314796 -8.182987 21.00000000
-21.859404 68.291656 -9.583121 21.00000000
3.117320 49.657234 -58.391453 21.00000000
7.693039 37.744980 -11.303717 21.00000000
3.721451 48.528378 -32.958042 21.00000000
2.552452 50.556404 -27.603456 21.00000000
8.561963 34.389568 -27.559965 21.00000000
7.517395 38.423241 -57.182201 21.00000000
-5.696771 60.112614 1.904026 21.00000000
-15.887155 66.333435 -60.961948 21.00000000
3.301094 49.332191 -46.992855 21.00000000
7.913816 36.892437 -32.429737 21.00000000
-30.483818 69.416710 -33.064644 21.00000000
-2.554894 57.200066 -44.448215 21.00000000
-29.906660 69.393394 -8.282833 21.00000000
-31.504080 69.398270 -42.771111 21.00000000
-6.996076 61.192848 -7.072526 21.00000000
7.547611 38.306564 -13.205176 21.00000000
-10.008324 63.282837 -60.626266 21.00000000
7.941463 36.785671 -42.711128 21.00000000
4.334652 47.355797 -37.937920 21.00000000
-3.372270 57.996883 -14.721066 21.00000000
-6.154803 60.493416 -38.708218 21.00000000
-17.609982 67.016136 -49.908543 21.00000000
-27.465826 69.244362 -20.764462 21.00000000
-28.279083 69.294022 -15.606791 21.00000000
6.452458 42.160889 -37.145134 21.00000000
8.400334 35.013710 -56.844048 21.00000000
-6.553586 60.824963 -20.340023 21.00000000
-8.281803 62.108097 -54.442776 21.00000000
8.042180 36.396748 -57.995865 21.00000000
5.987456 43.546970 -44.225098 21.00000000
6.721980 41.357498 -3.787430 21.00000000
2.930391 49.954792 -12.932123 21.00000000
-14.353728 65.652267 -33.290661 21.00000000
4.163112 47.683823 -42.270988 21.00000000
6.949518 40.616142 0.472758 21.00000000
-8.090531 61.973122 -28.359165 21.00000000
-10.517865 63.585114 -52.257629 21.00000000
-10.485621 63.565987 -39.356922 21.00000000
-25.467489 68.983521 -44.862068 21.00000000
3.987287 48.020039 -30.106152 21.00000000
-0.210307 54.520958 -10.580399 21.00000000
-21.408909 68.191322 -7.614395 21.00000000
7.793015 37.358917 -8.889167 21.00000000
-27.312534 69.235001 -28.718025 21.00000000
-11.444614 64.134888 -10.571089 21.00000000
-32.280678 69.384239 -28.936310 21.00000000
7.123875 39.942852 -27.930014 21.00000000
1.916536 51.568680 -46.396091 21.00000000
-15.831997 66.311577 -4.918920 21.00000000
-18.909412 67.454178 -39.248684 21.00000000
-13.979929 65.468758 -30.341768 21.00000000
-28.738110 69.322044 -21.550011 21.00000000
-19.786406 67.723755 -60.401649 21.00000000
-21.560183 68.225014 -34.057735 21.00000000
7.344918 39.089275 -24.782696 21.00000000
6.920075 40.729839 -30.986320 21.00000000
3.404568 49.134327 -28.937386 21.00000000
8.509106 34.593678 -4.340082 21.00000000
7.284450 39.322781 -2.789729 21.00000000
-26.968533 69.195152 -3.385412 21.00000000
-15.711499 66.263824 -52.758671 21.00000000
-14.495983 65.722107 -37.145355 21.00000000
8.087411 36.222084 -23.411343 21.00000000
-17.715313 67.057877 -9.945204 21.00000000
-24.137592 68.796021 -12.158745 21.00000000
1.543442 52.162579 -17.874584 21.00000000
-11.067456 63.911148 0.832054 21.00000000
-7.411140 61.493702 3.542303 21.00000000
-32.776600 69.375275 -41.644089 21.00000000
3.496407 48.958710 -37.077991 21.00000000
-16.413132 66.541862 -36.514614 21.00000000
6.528787 41.933369 -50.121952 21.00000000
1.595931 52.079025 3.153432 21.00000000
-31.570311 69.397072 -53.237385 21.00000000
-20.497833 67.942436 -0.508325 21.00000000
7.538651 38.341164 -1.647351 21.00000000
-20.755884 68.021759 -11.037566 21.00000000
-7.697194 61.695560 -18.838890 21.00000000
0.798660 53.165745 -45.380672 21.00000000
6.465404 42.122299 -13.389251 21.00000000
-18.839155 67.432579 -51.388424 21.00000000
-26.951542 69.192757 -34.582844 21.00000000
6.347007 42.475220 -57.437908 21.00000000
-29.046345 69.340866 -43.633953 21.00000000
6.713377 41.383141 -21.287733 21.00000000
-11.111642 63.937359 -16.041327 21.00000000
-33.351524 69.364883 -3.856765 21.00000000
-12.187458 64.575569 -17.828896 21.00000000
-2.998684 57.632694 -7.874650 21.00000000
-15.987738 66.373291 -19.020821 21.00000000
-15.287437 66.095787 -14.348214 21.00000000
-12.123012 64.537338 -24.136271 21.00000000
6.350811 42.463879 -55.818932 21.00000000
8.010226 36.520138 -27.820829 21.00000000
6.150481 43.061024 -38.747845 21.00000000
-22.414761 68.415344 -27.925797 21.00000000
7.985147 36.616985 -39.693314 21.00000000
-22.443045 68.421646 -23.716654 21.00000000
2.615532 50.455994 -2.631520 21.00000000
-1.903547 56.481205 -39.931538 21.00000000
8.298220 35.408031 -19.328468 21.00000000
-30.466867 69.417015 -41.184219 21.00000000
-17.264114 66.879082 -34.577477 21.00000000
0.416362 53.679234 -50.341698 21.00000000
6.338685 42.500027 3.363066 21.00000000
-29.178917 69.348961 -24.967327 21.00000000
1.122987 52.730118 -28.359753 21.00000000
-2.846095 57.483940 -16.568998 21.00000000
0.774715 53.197906 -19.826466 21.00000000
1.257865 52.548954 -7.457707 21.00000000
-31.227301 69.403275 -24.182598 21.00000000
2.792398 50.174454 0.446696 21.00000000
-14.740627 65.842216 -10.578198 21.00000000
-10.105714 63.340614 -50.495159 21.00000000
-14.913581 65.927124 -38.941734 21.00000000
-7.426719 61.504696 -26.433167 21.00000000
3.377410 49.186260 -26.825617 21.00000000
-14.933347 65.936829 -31.583242 21.00000000
-16.130058 66.429688 -24.501682 21.00000000
-33.335018 69.365181 -58.515018 21.00000000
7.228870 39.537403 -16.079626 21.00000000
7.123969 39.942490 -0.948238 21.00000000
-22.697174 68.478249 -36.088169 21.00000000
-13.733696 65.347870 -17.445612 21.00000000
8.113648 36.120770 -55.481735 21.00000000
3.182320 49.553764 -60.002026 21.00000000
-31.992907 69.389435 -9.501641 21.00000000
-15.530257 66.192009 -22.080770 21.00000000
-9.731861 63.118832 -35.720409 21.00000000
-20.285734 67.877243 -43.021961 21.00000000
7.992987 36.586708 -0.502590 21.00000000
-11.281190 64.037941 -21.808357 21.00000000
-45.681999 7.331024 3.879021 22.00000000
77.402184 29.161638 3.879021 22.00000000
0.830902 -42.040077 3.879021 22.00000000
-59.710514 -10.638147 3.879021 22.00000000
2.872519 -60.024368 3.879021 22.00000000
74.783714 -23.803860 3.879021 22.00000000
52.779793 -37.747715 3.879021 22.00000000
24.042233 -45.411194 3.879021 22.00000000
-50.249550 -16.014565 3.879021 22.00000000
-6.035113 -38.982761 3.879021 22.00000000
59.864799 -38.460979 3.879021 22.00000000
18.695980 67.900513 3.879021 22.00000000
68.345924 -30.211121 3.879021 22.00000000
61.036629 23.967543 3.879021 22.00000000
71.306435 -8.684171 3.879021 22.00000000
51.889137 2.088409 3.879021 22.00000000
-61.620510 27.852287 3.879021 22.00000000
6.174807 73.910362 3.879021 22.00000000
-22.981291 48.981579 3.879021 22.00000000
33.701431 19.912889 3.879021 22.00000000
63.820663 -19.320829 3.879021 22.00000000
-28.032276 -0.635891 3.879021 22.00000000
-54.459301 38.167725 3.879021 22.00000000
38.304470 -13.153170 3.879021 22.00000000
-19.189898 34.922318 3.879021 22.00000000
-27.214396 59.376251 3.879021 22.00000000
48.382378 49.694599 3.879021 22.00000000
54.008022 -7.505019 3.879021 22.00000000
16.865541 56.969154 3.879021 22.00000000
6.721661 54.397797 3.879021 22.00000000
43.695045 -57.916084 3.879021 22.00000000
12.066150 -57.851704 3.879021 22.00000000
-16.855171 -30.858881 3.879021 22.00000000
-19.863653 31.543505 3.879021 22.00000000
-13.958353 54.540764 3.879021 22.00000000
-36.535244 -12.255064 3.879021 22.00000000
65.919579 46.116505 3.879021 22.00000000
-31.277910 -55.635902 3.879021 22.00000000
2.241638 -25.052073 3.879021 22.00000000
14.865080 -30.461348 3.879021 22.00000000
1.714222 -34.048637 3.879021 22.00000000
-26.977686 18.823114 3.879021 22.00000000
-55.598145 -33.071445 3.879021 22.00000000
65.862228 -13.903389 3.879021 22.00000000
-8.599852 53.542660 3.879021 22.00000000
-51.826595 22.804226 3.879021 22.00000000
37.699219 52.633446 3.879021 22.00000000
9.370301 66.907997 3.879021 22.00000000
-12.761628 73.411156 3.879021 22.00000000
-61.587349 13.004903 3.879021 22.00000000
77.601738 -7.353487 3.879021 22.00000000
29.834959 61.219616 3.879021 22.00000000
74.479561 -8.836132 3.879021 22.00000000
-33.344418 -38.565105 3.879021 22.00000000
17.897547 53.681709 3.879021 22.00000000
-53.642387 1.700602 3.879021 22.00000000
75.865456 -4.118534 3.879021 22.00000000
51.164696 -4.798820 3.879021 22.00000000
-28.782587 -27.329283 3.879021 22.00000000
-0.902634 -62.530342 3.879021 22.00000000
49.743668 -35.633675 3.879021 22.00000000
-48.583607 -39.675461 3.879021 22.00000000
-16.867208 67.078171 3.879021 22.00000000
-42.031666 -31.822744 3.879021 22.00000000
-1.162369 33.452557 3.879021 22.00000000
-36.510101 -40.730846 3.879021 22.00000000
24.355108 -21.619955 3.879021 22.00000000
0.717149 -65.960823 3.879021 22.00000000
-14.057682 30.957338 3.879021 22.00000000
6.040031 -57.008968 3.879021 22.00000000
-11.348007 28.913061 3.879021 22.00000000
71.564224 21.452578 3.879021 22.00000000
27.292212 70.506485 3.879021 22.00000000
34.621532 -63.355640 3.879021 22.00000000
64.172379 49.329960 3.879021 22.00000000
-11.451683 51.221390 3.879021 22.00000000
23.276657 -55.844177 3.879021 22.00000000
37.035412 69.808678 3.879021 22.00000000
12.908548 -45.246464 3.879021 22.00000000
25.322891 52.825157 3.879021 22.00000000
3.438676 59.669861 3.879021 22.00000000
35.798080 1.081202 3.879021 22.00000000
32.682995 69.519325 3.879021 22.00000000
34.531284 -57.077293 3.879021 22.00000000
-42.867584 37.542973 3.879021 22.00000000
52.763626 58.605942 3.879021 22.00000000
35.763615 35.846729 3.879021 22.00000000
-33.454121 65.930794 3.879021 22.00000000
37.413971 44.769772 3.879021 22.00000000
44.423454 35.265156 3.879021 22.00000000
-47.395817 -36.252796 3.879021 22.00000000
11.345918 54.142193 3.879021 22.00000000
-54.490871 5.452384 3.879021 22.00000000
20.808891 -62.665363 3.879021 22.00000000
-31.265547 -42.421848 3.879021 22.00000000
12.418145 48.229507 3.879021 22.00000000
34.929195 25.042913 3.879021 22.00000000
-25.109747 -15.024594 3.879021 22.00000000
40.462929 39.998268 3.879021 22.00000000
40.544212 70.422066 3.879021 22.00000000
68.781227 1.013721 3.879021 22.00000000
17.435373 50.533546 3.879021 22.00000000
-33.349846 9.531539 3.879021 22.00000000
43.612736 42.947189 3.879021 22.00000000
32.757324 -10.676471 3.879021 22.00000000
7.962940 -47.698269 3.879021 22.00000000
-37.076981 -5.983612 3.879021 22.00000000
74.933510 -13.204488 3.879021 22.00000000
49.885349 44.093227 3.879021 22.00000000
-4.160961 -27.010201 3.879021 22.00000000
-8.751461 70.588509 3.879021 22.00000000
54.975456 54.627182 3.879021 22.00000000
-14.022881 77.170479 3.879021 22.00000000
64.385551 8.627869 3.879021 22.00000000
-21.781055 5.758238 3.879021 22.00000000
-23.742399 -61.804661 3.879021 22.00000000
27.747417 -19.799255 3.879021 22.00000000
-52.156689 51.514477 3.879021 22.00000000
1.207831 -21.969492 3.879021 22.00000000
6.361786 61.105946 3.879021 22.00000000
-58.105045 35.247227 3.879021 22.00000000
-28.792177 68.347809 3.879021 22.00000000
-3.919527 -44.575794 3.879021 22.00000000
9.293014 79.640991 3.879021 22.00000000
-26.808199 55.638561 3.879021 22.00000000
-66.928909 14.023006 3.879021 22.00000000
-67.096008 17.120987 3.879021 22.00000000
41.594448 57.568756 3.879021 22.00000000
37.685802 65.881729 3.879021 22.00000000
-38.880211 -19.525616 3.879021 22.00000000
8.139348 -34.829189 3.879021 22.00000000
38.140804 25.223644 3.879021 22.00000000
10.966440 70.614487 3.879021 22.00000000
29.778868 -38.442112 3.879021 22.00000000
75.443764 33.747108 3.879021 22.00000000
23.567188 75.544800 3.879021 22.00000000
-46.455910 -29.326530 3.879021 22.00000000
-4.011421 -61.719707 3.879021 22.00000000
49.400311 -38.586750 3.879021 22.00000000
-41.673584 -49.427292 3.879021 22.00000000
-20.071096 -21.290861 3.879021 22.00000000
17.222843 40.836735 3.879021 22.00000000
11.132114 -31.074339 3.879021 22.00000000
-48.604958 24.841156 3.879021 22.00000000
-35.881054 -36.148193 3.879021 22.00000000
20.288248 -33.523518 3.879021 22.00000000
41.643623 -20.942266 3.879021 22.00000000
-55.583183 -8.995849 3.879021 22.00000000
21.336096 -43.491096 3.879021 22.00000000
-27.819159 -11.781881 3.879021 22.00000000
-38.825577 20.250174 3.879021 22.00000000
47.594536 32.381859 3.879021 22.00000000
-24.281843 -33.625153 3.879021 22.00000000
-5.295679 55.637028 3.879021 22.00000000
-34.385178 39.493046 3.879021 22.00000000
-37.472069 -25.878534 3.879021 22.00000000
44.800671 -14.386497 3.879021 22.00000000
27.830191 57.843491 3.879021 22.00000000
2.788857 -63.123646 3.879021 22.00000000
-6.517147 -64.136719 3.879021 22.00000000
6.023693 35.152000 3.879021 22.00000000
-67.819550 10.503633 3.879021 22.00000000
59.402115 20.968796 3.879021 22.00000000
-14.662860 58.861881 3.879021 22.00000000
-1.867526 -22.067984 3.879021 22.00000000
53.652802 15.616312 3.879021 22.00000000
18.028955 -42.774990 3.879021 22.00000000
52.056118 5.954364 3.879021 22.00000000
12.689532 66.198662 3.879021 22.00000000
-15.833734 24.333822 3.879021 22.00000000
-59.538975 30.740412 3.879021 22.00000000
23.127188 33.627846 3.879021 22.00000000
-48.388416 9.150853 3.879021 22.00000000
46.295742 -8.711590 3.879021 22.00000000
6.379462 -62.535534 3.879021 22.00000000
68.374657 9.306440 3.879021 22.00000000
-46.442154 -26.047812 3.879021 22.00000000
-1.237059 -25.638870 3.879021 22.00000000
29.923738 -27.440935 3.879021 22.00000000
9.390686 50.920319 3.879021 22.00000000
47.611843 -24.591797 3.879021 22.00000000
-48.560547 31.437538 3.879021 22.00000000
-45.113155 -38.636360 3.879021 22.00000000
67.771164 43.340710 3.879021 22.00000000
66.473366 38.919304 3.879021 22.00000000
72.652245 27.900143 3.879021 22.00000000
5.906981 67.627090 3.879021 22.00000000
-25.832708 1.876249 3.879021 22.00000000
-26.463280 64.748413 3.879021 22.00000000
0.016346 43.097549 3.879021 22.00000000
-50.599777 -37.134529 3.879021 22.00000000
-60.156929 -27.144806 3.879021 22.00000000
42.902134 -26.920057 3.879021 22.00000000
-28.738194 -47.999271 3.879021 22.00000000
29.459814 72.860054 3.879021 22.00000000
-41.412235 -45.223515 3.879021 22.00000000
-10.168509 78.696404 3.879021 22.00000000
30.177402 44.247234 3.879021 22.00000000
57.093552 -28.921026 3.879021 22.00000000
-54.766502 19.861387 3.879021 22.00000000
9.160163 -52.977383 3.879021 22.00000000
-9.310107 -32.196259 3.879021 22.00000000
69.967804 -11.948152 3.879021 22.00000000
-20.693579 20.836565 3.879021 22.00000000
12.522804 -54.157909 3.879021 22.00000000
15.853218 -50.851955 3.879021 22.00000000
5.022950 -26.813484 3.879021 22.00000000
17.670731 -39.453789 3.879021 22.00000000
32.482906 -5.568492 3.879021 22.00000000
-23.969301 21.361597 3.879021 22.00000000
24.147896 -66.345825 3.879021 22.00000000
42.866505 -41.376869 3.879021 22.00000000
-8.631848 -50.138157 3.879021 22.00000000
39.733540 -33.757389 3.879021 22.00000000
-59.919582 38.235748 3.879021 22.00000000
-15.136409 -14.206389 3.879021 22.00000000
-14.933319 64.741920 3.879021 22.00000000
-7.939041 -41.411057 3.879021 22.00000000
-5.041551 45.627380 3.879021 22.00000000
26.414713 -36.584351 3.879021 22.00000000
65.730995 -2.465040 3.879021 22.00000000
63.352692 -42.133938 3.879021 22.00000000
-15.863271 -22.714424 3.879021 22.00000000
-34.159748 -27.818308 3.879021 22.00000000
-17.389147 70.592018 3.879021 22.00000000
56.493752 57.310997 3.879021 22.00000000
-4.390002 49.293118 3.879021 22.00000000
-27.438564 -42.616215 3.879021 22.00000000
-11.033348 -29.258043 3.879021 22.00000000
41.326946 33.432137 3.879021 22.00000000
-20.108107 66.143188 3.879021 22.00000000
-13.792882 46.299294 3.879021 22.00000000
-24.927410 -26.523939 3.879021 22.00000000
5.874448 -50.737762 3.879021 22.00000000
64.631134 -39.009762 3.879021 22.00000000
17.270859 -64.362907 3.879021 22.00000000
4.258123 76.323959 3.879021 22.00000000
-24.056412 -1.431685 3.879021 22.00000000
2.673763 -52.799507 3.879021 22.00000000
17.954510 60.680496 3.879021 22.00000000
-37.439999 9.299664 3.879021 22.00000000
-50.126923 1.004089 3.879021 22.00000000
51.344639 36.863441 3.879021 22.00000000
55.764805 19.399504 3.879021 22.00000000
34.361202 31.000195 3.879021 22.00000000
-16.663696 -64.985931 3.879021 22.00000000
22.258310 62.548973 3.879021 22.00000000
49.302700 8.113648 3.879021 22.00000000
26.510941 73.786438 3.879021 22.00000000
37.075138 32.252323 3.879021 22.00000000
-21.380505 46.366268 3.879021 22.00000000
-52.713799 -23.151779 3.879021 22.00000000
36.124584 42.042614 3.879021 22.00000000
-32.037704 21.044029 3.879021 22.00000000
10.229910 -64.919357 3.879021 22.00000000
37.423527 -49.676994 3.879021 22.00000000
-53.886772 15.376232 3.879021 22.00000000
12.331554 -35.453930 3.879021 22.00000000
-25.365950 -45.371593 3.879021 22.00000000
57.737877 -6.931305 3.879021 22.00000000
-56.644299 -30.054211 3.879021 22.00000000
-37.688709 59.331200 3.879021 22.00000000
30.093464 30.055645 3.879021 22.00000000
-48.681355 12.470420 3.879021 22.00000000
-21.152191 -53.902702 3.879021 22.00000000
7.061821 -29.227678 3.879021 22.00000000
-36.599632 -29.731770 3.879021 22.00000000
26.157141 -29.508860 3.879021 22.00000000
-25.169405 -22.207718 3.879021 22.00000000
77.962425 -10.779012 3.879021 22.00000000
25.503445 37.077114 3.879021 22.00000000
-21.426517 -36.142712 3.879021 22.00000000
-5.140013 -23.101496 3.879021 22.00000000
37.137619 -23.286655 3.879021 22.00000000
49.157467 15.344720 3.879021 22.00000000
-16.534197 52.003742 3.879021 22.00000000
-31.986071 6.012495 3.879021 22.00000000
-32.201370 13.334185 3.879021 22.00000000
-34.753464 -15.785266 3.879021 22.00000000
-38.969620 -33.349701 3.879021 22.00000000
55.834473 51.293957 3.879021 22.00000000
27.818876 67.185432 3.879021 22.00000000
-34.700089 57.559174 3.879021 22.00000000
-10.318167 -66.147125 3.879021 22.00000000
45.748604 14.613916 3.879021 22.00000000
-41.092785 8.459306 3.879021 22.00000000
41.608967 -16.625122 3.879021 22.00000000
-21.655411 12.581256 3.879021 22.00000000
-36.254021 43.305023 3.879021 22.00000000
-30.212013 52.729767 3.879021 22.00000000
46.643795 -11.997724 3.879021 22.00000000
-11.450261 -47.845257 3.879021 22.00000000
-9.817033 35.316204 3.879021 22.00000000
50.515247 -20.975296 3.879021 22.00000000
-53.950867 -5.460045 3.879021 22.00000000
62.335373 38.590199 3.879021 22.00000000
-37.418461 56.206303 3.879021 22.00000000
-1.715834 47.239910 3.879021 22.00000000
-62.768337 1.067248 3.879021 22.00000000
65.757782 0.939130 3.879021 22.00000000
37.723568 -53.453510 3.879021 22.00000000
28.625616 47.719303 3.879021 22.00000000
77.778893 19.553211 3.879021 22.00000000
-64.011314 17.845165 3.879021 22.00000000
68.441795 36.423985 3.879021 22.00000000
-24.210562 -53.431976 3.879021 22.00000000
28.675486 -41.587387 3.879021 22.00000000
4.116954 -40.093060 3.879021 22.00000000
28.545738 54.099529 3.879021 22.00000000
-36.102207 63.183167 3.879021 22.00000000
55.776237 -49.463192 3.879021 22.00000000
-36.320152 48.655174 3.879021 22.00000000
-26.268839 70.298187 3.879021 22.00000000
-43.759239 -24.206057 3.879021 22.00000000
-13.525211 35.582329 3.879021 22.00000000
5.264751 -43.743362 3.879021 22.00000000
-66.450981 1.147896 3.879021 22.00000000
18.586433 37.813900 3.879021 22.00000000
-54.506268 24.706499 3.879021 22.00000000
-32.357937 -12.512401 3.879021 22.00000000
0.660091 -38.093914 3.879021 22.00000000
-29.503691 -51.597179 3.879021 22.00000000
71.309723 -21.037846 3.879021 22.00000000
-44.145111 59.490662 3.879021 22.00000000
-35.920357 12.559838 3.879021 22.00000000
-33.556484 16.615372 3.879021 22.00000000
39.786060 30.328814 3.879021 22.00000000
13.790784 -65.323753 3.879021 22.00000000
29.971891 64.614189 3.879021 22.00000000
-35.085495 2.757140 3.879021 22.00000000
-28.983040 -39.183163 3.879021 22.00000000
46.828850 41.330570 3.879021 22.00000000
68.176765 33.231544 3.879021 22.00000000
-32.066311 -49.709553 3.879021 22.00000000
-32.706841 42.703293 3.879021 22.00000000
0.991344 62.845463 3.879021 22.00000000
33.815254 -22.368187 3.879021 22.00000000
