31.440323 68.067528 6.879021 1.00000000
-23.387226 60.264999 6.879021 1.00000000
48.780094 11.204756 6.879021 1.00000000
48.659103 -17.323830 6.879021 1.00000000
20.887007 -42.918232 6.879021 1.00000000
65.260681 -0.845432 6.879021 1.00000000
-52.505047 -39.224449 6.879021 1.00000000
32.846840 2.425043 6.879021 1.00000000
26.959053 -65.157448 6.879021 1.00000000
15.301760 18.742548 6.879021 1.00000000
-34.139263 -28.481361 6.879021 1.00000000
64.704643 -26.542574 6.879021 1.00000000
-13.664256 -44.077229 6.879021 1.00000000
-46.831364 18.950306 6.879021 1.00000000
-60.772282 29.088436 6.879021 1.00000000
37.661228 1.325492 6.879021 1.00000000
42.756775 18.150984 6.879021 1.00000000
16.103582 37.595371 6.879021 1.00000000
49.207668 -5.033108 6.879021 1.00000000
32.292137 -10.626321 6.879021 1.00000000
-25.039843 18.476965 6.879021 1.00000000
39.727993 -6.638093 6.879021 1.00000000
44.628258 -6.193762 6.879021 1.00000000
30.886908 -51.170616 6.879021 1.00000000
-3.544010 -51.046345 6.879021 1.00000000
-61.904053 25.098660 6.879021 1.00000000
9.646610 64.380051 6.879021 1.00000000
26.350758 -1.119388 6.879021 1.00000000
-2.730614 -33.142761 6.879021 1.00000000
64.356201 39.861645 6.879021 1.00000000
56.635647 -25.067623 6.879021 1.00000000
-35.703899 58.767540 6.879021 1.00000000
-5.666232 -22.075119 6.879021 1.00000000
17.977238 33.848640 6.879021 1.00000000
-30.485016 -21.382261 6.879021 1.00000000
51.708141 -38.181351 6.879021 1.00000000
34.812599 8.611065 6.879021 1.00000000
13.648647 -27.209522 6.879021 1.00000000
10.000470 -12.380618 6.879021 1.00000000
-17.364420 -35.068836 6.879021 1.00000000
13.742159 79.328224 6.879021 1.00000000
-54.774094 16.007477 6.879021 1.00000000
34.580391 34.081577 6.879021 1.00000000
20.422146 14.223332 6.879021 1.00000000
8.535749 -44.647232 6.879021 1.00000000
-13.962487 24.853895 6.879021 1.00000000
21.423939 -39.669178 6.879021 1.00000000
-17.310087 71.368484 6.879021 1.00000000
30.579554 -14.319065 6.879021 1.00000000
79.710190 -3.429857 6.879021 1.00000000
-6.801153 -36.280643 6.879021 1.00000000
46.145821 64.576866 6.879021 1.00000000
12.531928 31.462751 6.879021 1.00000000
-19.749838 37.836823 6.879021 1.00000000
61.470112 23.329405 6.879021 1.00000000
65.506805 47.351112 6.879021 1.00000000
-45.498104 -37.450237 6.879021 1.00000000
-47.527767 12.787415 6.879021 1.00000000
-39.969803 -3.935865 6.879021 1.00000000
-27.742626 3.581370 6.879021 1.00000000
-46.119892 43.339806 6.879021 1.00000000
-32.654243 19.394022 6.879021 1.00000000
27.101227 10.109685 6.879021 1.00000000
-18.620079 64.599350 6.879021 1.00000000
-16.755829 45.856411 6.879021 1.00000000
45.239559 -30.159882 6.879021 1.00000000
27.817877 -60.181698 6.879021 1.00000000
68.370224 -15.566460 6.879021 1.00000000
-49.674709 -30.734858 6.879021 1.00000000
-38.107578 45.328579 6.879021 1.00000000
3.369742 67.362335 6.879021 1.00000000
50.221115 -48.926346 6.879021 1.00000000
-42.712410 -41.306129 6.879021 1.00000000
-45.654793 -30.126461 6.879021 1.00000000
54.736435 -17.866488 6.879021 1.00000000
-43.170197 19.363127 6.879021 1.00000000
25.756063 2.839879 6.879021 1.00000000
-19.205236 60.931007 6.879021 1.00000000
-29.061737 43.511070 6.879021 1.00000000
-9.937327 -44.735931 6.879021 1.00000000
-42.241615 44.432106 6.879021 1.00000000
53.223358 1.685122 6.879021 1.00000000
18.632179 -47.195572 6.879021 1.00000000
18.855135 -13.373417 6.879021 1.00000000
19.862419 -50.303181 6.879021 1.00000000
-40.546860 30.835875 6.879021 1.00000000
28.070152 31.324619 6.879021 1.00000000
-33.845371 -40.240463 6.879021 1.00000000
54.440517 42.267662 6.879021 1.00000000
-0.168357 41.459358 6.879021 1.00000000
-29.845366 69.193268 6.879021 1.00000000
-21.265215 3.759340 6.879021 1.00000000
36.509285 -4.662226 6.879021 1.00000000
-13.293545 66.872208 6.879021 1.00000000
-13.904459 -54.655609 6.879021 1.00000000
-3.693260 70.170197 6.879021 1.00000000
28.372070 46.790943 6.879021 1.00000000
52.592876 -2.476625 6.879021 1.00000000
23.334852 62.742691 6.879021 1.00000000
-22.341677 34.597679 6.879021 1.00000000
-31.370214 -36.062138 6.879021 1.00000000
-24.640251 -10.112131 6.879021 1.00000000
-61.714050 14.897823 6.879021 1.00000000
53.173244 22.920752 6.879021 1.00000000
26.670614 -51.774155 6.879021 1.00000000
-21.971233 -25.124418 6.879021 1.00000000
-23.097183 -20.547012 6.879021 1.00000000
55.148975 -10.899273 6.879021 1.00000000
-27.547253 -19.642744 6.879021 1.00000000
-21.653580 -4.698849 6.879021 1.00000000
-48.033749 -15.330677 6.879021 1.00000000
-37.887005 -27.420668 6.879021 1.00000000
79.986771 11.125949 6.879021 1.00000000
-8.666620 58.807259 6.879021 1.00000000
19.361513 -17.954031 6.879021 1.00000000
66.959877 34.643345 6.879021 1.00000000
5.093653 -13.083506 6.879021 1.00000000
61.753899 -20.487143 6.879021 1.00000000
-10.056012 -14.593009 6.879021 1.00000000
39.155930 64.440094 6.879021 1.00000000
-38.218983 4.519430 6.879021 1.00000000
50.354088 -21.119768 6.879021 1.00000000
46.884579 48.320202 6.879021 1.00000000
-21.490112 40.779068 6.879021 1.00000000
-29.747078 -7.313141 6.879021 1.00000000
-36.907852 8.261415 6.879021 1.00000000
81.276176 7.587941 6.879021 1.00000000
-28.971924 25.741562 6.879021 1.00000000
-23.011587 -52.667667 6.879021 1.00000000
-52.772041 21.479549 6.879021 1.00000000
35.944595 -22.464485 6.879021 1.00000000
0.499171 36.876183 6.879021 1.00000000
-16.044153 29.826908 6.879021 1.00000000
10.620039 69.273811 6.879021 1.00000000
5.797428 32.585434 6.879021 1.00000000
-37.009014 65.887596 6.879021 1.00000000
17.822180 -29.404713 6.879021 1.00000000
-46.062195 54.915867 6.879021 1.00000000
8.855423 -33.997292 6.879021 1.00000000
37.381527 39.820755 6.879021 1.00000000
-27.380911 48.304630 6.879021 1.00000000
20.842028 45.761738 6.879021 1.00000000
-30.678326 49.530815 6.879021 1.00000000
-23.178007 -42.151237 6.879021 1.00000000
24.497818 33.233673 6.879021 1.00000000
-39.124931 -35.455181 6.879021 1.00000000
12.147778 40.109100 6.879021 1.00000000
-36.364693 -5.687665 6.879021 1.00000000
-14.692020 37.335144 6.879021 1.00000000
-36.997917 -45.633923 6.879021 1.00000000
10.656589 -41.974297 6.879021 1.00000000
16.458057 50.966099 6.879021 1.00000000
65.940193 -31.138544 6.879021 1.00000000
-49.283085 4.134983 6.879021 1.00000000
11.142033 -66.775047 6.879021 1.00000000
71.353920 -26.107590 6.879021 1.00000000
31.308140 60.161301 6.879021 1.00000000
19.362431 20.580658 6.879021 1.00000000
68.449257 -33.747147 6.879021 1.00000000
-22.566860 14.729667 6.879021 1.00000000
-28.522749 72.200813 6.879021 1.00000000
-1.433024 -21.148726 6.879021 1.00000000
62.578064 27.191038 6.879021 1.00000000
-37.263187 52.595554 6.879021 1.00000000
-23.155569 51.947147 6.879021 1.00000000
55.676357 -32.638985 6.879021 1.00000000
58.975636 43.318233 6.879021 1.00000000
35.826683 27.237129 6.879021 1.00000000
-0.070605 -52.396885 6.879021 1.00000000
17.000235 63.520050 6.879021 1.00000000
39.849998 -52.656830 6.879021 1.00000000
-48.651203 -34.470318 6.879021 1.00000000
24.540012 -5.303357 6.879021 1.00000000
-19.336563 12.993021 6.879021 1.00000000
6.941709 -63.105129 6.879021 1.00000000
42.029789 -4.220576 6.879021 1.00000000
-43.096149 33.062645 6.879021 1.00000000
-58.702522 24.850025 6.879021 1.00000000
32.860077 -21.584572 6.879021 1.00000000
13.828853 -38.454155 6.879021 1.00000000
45.184669 -22.001650 6.879021 1.00000000
39.025982 17.398643 6.879021 1.00000000
-2.671117 53.361523 6.879021 1.00000000
-24.271015 5.386583 6.879021 1.00000000
29.179815 -35.283695 6.879021 1.00000000
28.816265 21.535749 6.879021 1.00000000
19.495516 49.405506 6.879021 1.00000000
76.681953 -6.655256 6.879021 1.00000000
31.766233 -56.027050 6.879021 1.00000000
-52.322060 49.239109 6.879021 1.00000000
0.400152 54.806526 6.879021 1.00000000
-39.160934 -7.842447 6.879021 1.00000000
73.171928 -16.206121 6.879021 1.00000000
48.010735 52.283073 6.879021 1.00000000
8.423797 42.512058 6.879021 1.00000000
-14.831671 75.788292 6.879021 1.00000000
72.568329 2.172159 6.879021 1.00000000
59.012344 32.724052 6.879021 1.00000000
-55.383186 -5.131650 6.879021 1.00000000
39.957916 -21.180790 6.879021 1.00000000
-52.491611 -27.612576 6.879021 1.00000000
20.164301 -1.978964 6.879021 1.00000000
10.399117 -30.247484 6.879021 1.00000000
9.650239 25.356472 6.879021 1.00000000
-16.995316 -50.469028 6.879021 1.00000000
-35.025146 22.424236 6.879021 1.00000000
-24.360775 63.397732 6.879021 1.00000000
75.453758 8.361838 6.879021 1.00000000
-11.112564 17.062885 6.879021 1.00000000
22.553202 -47.466900 6.879021 1.00000000
6.569081 -36.319439 6.879021 1.00000000
21.986746 -53.381927 6.879021 1.00000000
-11.040286 35.822472 6.879021 1.00000000
14.556058 -64.104790 6.879021 1.00000000
7.322113 -25.148058 6.879021 1.00000000
-12.710074 71.330482 6.879021 1.00000000
-33.079952 2.693901 6.879021 1.00000000
-16.372635 10.208630 6.879021 1.00000000
31.943277 -46.799992 6.879021 1.00000000
-20.370102 -36.895027 6.879021 1.00000000
1.459623 -26.044937 6.879021 1.00000000
-52.695992 10.032740 6.879021 1.00000000
-33.821163 -18.988363 6.879021 1.00000000
23.836908 -62.669529 6.879021 1.00000000
-37.591049 -40.684769 6.879021 1.00000000
-7.595725 -11.110831 6.879021 1.00000000
21.405787 -60.709702 6.879021 1.00000000
40.594383 -60.153046 6.879021 1.00000000
63.585743 43.047714 6.879021 1.00000000
69.295799 29.309013 6.879021 1.00000000
-41.639744 48.867264 6.879021 1.00000000
-39.821899 -43.542915 6.879021 1.00000000
-44.272739 -6.645475 6.879021 1.00000000
7.191446 28.280796 6.879021 1.00000000
-67.946159 0.658081 6.879021 1.00000000
3.743394 -42.562489 6.879021 1.00000000
-26.261721 -7.086089 6.879021 1.00000000
76.589867 0.627326 6.879021 1.00000000
-34.074398 -24.949224 6.879021 1.00000000
-5.158669 47.292240 6.879021 1.00000000
39.715397 -45.612877 6.879021 1.00000000
-3.434396 -66.161659 6.879021 1.00000000
0.688141 -8.843286 6.879021 1.00000000
-60.465794 11.401134 6.879021 1.00000000
31.110201 35.997604 6.879021 1.00000000
-10.730761 -22.912642 6.879021 1.00000000
64.416161 6.101714 6.879021 1.00000000
41.915165 11.875736 6.879021 1.00000000
39.820454 25.850458 6.879021 1.00000000
-43.888931 -16.261984 6.879021 1.00000000
-16.077671 15.045028 6.879021 1.00000000
-58.842262 3.366005 6.879021 1.00000000
23.355906 51.624123 6.879021 1.00000000
45.368172 -18.715624 6.879021 1.00000000
24.405069 -43.476643 6.879021 1.00000000
73.527832 36.399464 6.879021 1.00000000
38.005028 47.972919 6.879021 1.00000000
-28.504810 65.974251 6.879021 1.00000000
-3.080654 27.589598 6.879021 1.00000000
-51.961288 32.860931 6.879021 1.00000000
52.758156 56.290569 6.879021 1.00000000
25.788633 -9.058370 6.879021 1.00000000
-42.060158 2.016976 6.879021 1.00000000
72.963921 30.716574 6.879021 1.00000000
5.418166 -55.478500 6.879021 1.00000000
1.053095 -45.047657 6.879021 1.00000000
76.683708 18.833778 6.879021 1.00000000
-8.573766 21.515564 6.879021 1.00000000
-24.815727 44.468079 6.879021 1.00000000
-44.225880 23.355457 6.879021 1.00000000
22.005278 9.984700 6.879021 1.00000000
4.834820 -16.570971 6.879021 1.00000000
17.615496 58.477783 6.879021 1.00000000
50.594791 16.588160 6.879021 1.00000000
-37.872784 -0.180415 6.879021 1.00000000
37.945507 36.185478 6.879021 1.00000000
64.104202 2.940262 6.879021 1.00000000
-18.039431 -6.668465 6.879021 1.00000000
9.673869 77.483742 6.879021 1.00000000
-34.024876 39.696213 6.879021 1.00000000
12.894287 -57.818714 6.879021 1.00000000
49.867306 20.368456 6.879021 1.00000000
9.345309 -16.524305 6.879021 1.00000000
15.027463 75.489723 6.879021 1.00000000
-65.438408 12.752032 6.879021 1.00000000
-28.782698 -50.233047 6.879021 1.00000000
-44.618042 -19.420166 6.879021 1.00000000
-11.232192 -10.482132 6.879021 1.00000000
-50.548485 -18.339680 6.879021 1.00000000
-40.314594 -46.930904 6.879021 1.00000000
-16.379904 50.026024 6.879021 1.00000000
17.328388 41.454300 6.879021 1.00000000
21.861300 -28.061609 6.879021 1.00000000
-31.608644 31.979689 6.879021 1.00000000
-18.983658 -59.398911 6.879021 1.00000000
-39.134281 -11.441157 6.879021 1.00000000
59.734245 58.258202 6.879021 1.00000000
19.841396 -34.103668 6.879021 1.00000000
28.332767 -54.518459 6.879021 1.00000000
62.634312 -9.541977 6.879021 1.00000000
-4.463972 -56.861099 6.879021 1.00000000
7.601281 -10.038556 6.879021 1.00000000
2.906936 -63.411152 6.879021 1.00000000
-20.629219 56.942364 6.879021 1.00000000
31.060760 -38.004120 6.879021 1.00000000
-31.980347 -44.910728 6.879021 1.00000000
57.687908 23.842482 6.879021 1.00000000
-35.447208 26.765682 6.879021 1.00000000
-12.161428 28.120111 6.879021 1.00000000
-0.811144 -64.036324 6.879021 1.00000000
46.461075 4.562798 6.879021 1.00000000
43.614300 38.715649 6.879021 1.00000000
57.293743 -48.433788 6.879021 1.00000000
69.502335 -0.094123 6.879021 1.00000000
67.024445 43.838127 6.879021 1.00000000
29.446316 -63.136917 6.879021 1.00000000
49.337357 35.617565 6.879021 1.00000000
10.703418 57.434631 6.879021 1.00000000
65.983276 30.929043 6.879021 1.00000000
-49.992012 54.729652 6.879021 1.00000000
-33.978943 47.035965 6.879021 1.00000000
-22.187578 73.385017 6.879021 1.00000000
-47.987431 47.486500 6.879021 1.00000000
-67.783638 8.101914 6.879021 1.00000000
-22.663225 -47.171631 6.879021 1.00000000
-13.508645 6.302698 6.879021 1.00000000
-11.921091 20.443453 6.879021 1.00000000
71.544342 -12.795469 6.879021 1.00000000
-36.258358 -32.107304 6.879021 1.00000000
20.754562 -8.340522 6.879021 1.00000000
34.406300 -0.292377 6.879021 1.00000000
-49.839230 39.541405 6.879021 1.00000000
10.927001 28.211189 6.879021 1.00000000
-13.459897 -21.126059 6.879021 1.00000000
47.565224 27.289787 6.879021 1.00000000
70.624084 -31.516094 6.879021 1.00000000
-7.407531 -52.887661 6.879021 1.00000000
48.566162 68.006042 6.879021 1.00000000
1.076144 -68.502640 6.879021 1.00000000
-40.486435 9.553725 6.879021 1.00000000
6.894383 -48.804379 6.879021 1.00000000
-46.992928 33.997696 6.879021 1.00000000
-30.706610 6.104027 6.879021 1.00000000
-10.039971 2.258223 6.879021 1.00000000
58.519375 -21.273043 6.879021 1.00000000
55.643059 -1.220465 6.879021 1.00000000
-19.474751 -27.730597 6.879021 1.00000000
54.472652 18.619217 6.879021 1.00000000
-27.290361 -41.389286 6.879021 1.00000000
-61.481182 0.500346 6.879021 1.00000000
-15.263352 3.521654 6.879021 1.00000000
5.421234 -27.773211 6.879021 1.00000000
23.139715 -35.241821 6.879021 1.00000000
-37.215542 -20.485514 6.879021 1.00000000
6.363354 56.473026 6.879021 1.00000000
-10.847833 -32.416485 6.879021 1.00000000
29.487720 -44.062283 6.879021 1.00000000
35.452366 74.799980 6.879021 1.00000000
36.977955 -15.566903 6.879021 1.00000000
-33.673920 -51.526569 6.879021 1.00000000
67.770378 4.987624 6.879021 1.00000000
4.613460 37.240322 6.879021 1.00000000
28.541771 -5.857478 6.879021 1.00000000
-60.837132 6.415948 6.879021 1.00000000
30.108686 17.392315 6.879021 1.00000000
29.138363 -31.022139 6.879021 1.00000000
-19.832739 23.424179 6.879021 1.00000000
-51.661030 6.264993 6.879021 1.00000000
23.912338 -19.976904 6.879021 1.00000000
-26.660301 32.805134 6.879021 1.00000000
35.099148 -28.298740 6.879021 1.00000000
20.125780 28.690788 6.879021 1.00000000
71.877930 22.429880 6.879021 1.00000000
43.355038 -43.353420 6.879021 1.00000000
-49.503292 -26.040548 6.879021 1.00000000
-25.603924 -38.357464 6.879021 1.00000000
40.150848 -25.107233 6.879021 1.00000000
66.412132 -18.127090 6.879021 1.00000000
13.177896 25.006620 6.879021 1.00000000
-53.121284 -13.322071 6.879021 1.00000000
40.030300 -31.956018 6.879021 1.00000000
-45.600300 15.724465 6.879021 1.00000000
55.416073 -40.092712 6.879021 1.00000000
-11.622440 -0.753395 6.879021 1.00000000
-51.440742 16.688360 6.879021 1.00000000
49.464931 7.025898 6.879021 1.00000000
-10.602638 61.401257 6.879021 1.00000000
-26.260977 -23.164076 6.879021 1.00000000
-28.531067 9.035341 6.879021 1.00000000
-38.962521 23.344790 6.879021 1.00000000
-26.017414 -56.628712 6.879021 1.00000000
-16.861872 68.176437 6.879021 1.00000000
-14.550641 -3.349456 6.879021 1.00000000
31.545887 23.752003 6.879021 1.00000000
-47.596420 -4.258306 6.879021 1.00000000
12.674984 50.575722 6.879021 1.00000000
-3.104214 -14.049339 6.879021 1.00000000
45.479122 8.015051 6.879021 1.00000000
39.081364 51.058716 6.879021 1.00000000
-6.964176 -1.291624 6.879021 1.00000000
-57.074291 -12.767192 6.879021 1.00000000
55.968525 58.371513 6.879021 1.00000000
-11.010213 -18.796616 6.879021 1.00000000
-1.180153 67.246841 6.879021 1.00000000
38.737968 22.294001 6.879021 1.00000000
-16.670713 58.553791 6.879021 1.00000000
-28.109196 -34.607967 6.879021 1.00000000
41.537132 35.594776 6.879021 1.00000000
-64.810593 -0.320491 6.879021 1.00000000
60.607292 0.023032 6.879021 1.00000000
15.415968 -6.528495 6.879021 1.00000000
-5.074351 59.923401 6.879021 1.00000000
25.621307 78.510338 6.879021 1.00000000
-24.251131 26.551910 6.879021 1.00000000
-58.768456 -9.508307 6.879021 1.00000000
-31.243290 59.586124 6.879021 1.00000000
22.990965 0.487476 6.879021 1.00000000
46.498238 17.811281 6.879021 1.00000000
25.247837 -40.441010 6.879021 1.00000000
-7.686326 30.805681 6.879021 1.00000000
52.198494 10.723341 6.879021 1.00000000
7.446901 61.424297 6.879021 1.00000000
-2.218782 49.035419 6.879021 1.00000000
36.781075 -55.099731 6.879021 1.00000000
66.001671 -10.940539 6.879021 1.00000000
48.037266 -27.213425 6.879021 1.00000000
-13.736941 -39.694054 6.879021 1.00000000
49.102901 58.714752 6.879021 1.00000000
37.082512 -38.911396 6.879021 1.00000000
11.912442 73.139267 6.879021 1.00000000
-39.149567 58.910652 6.879021 1.00000000
-12.846799 10.204213 6.879021 1.00000000
1.470840 -33.228767 6.879021 1.00000000
35.368458 30.889872 6.879021 1.00000000
24.864546 -24.193033 6.879021 1.00000000
7.252763 80.294411 6.879021 1.00000000
-28.404573 -10.294102 6.879021 1.00000000
58.637062 -36.743809 6.879021 1.00000000
-48.582451 -41.605381 6.879021 1.00000000
-30.683565 -27.494385 6.879021 1.00000000
-2.236650 -26.264950 6.879021 1.00000000
-4.943638 -8.849112 6.879021 1.00000000
23.972218 46.685963 6.879021 1.00000000
18.627066 -63.475567 6.879021 1.00000000
31.287495 76.241837 6.879021 1.00000000
-7.708067 35.295731 6.879021 1.00000000
-65.857605 -12.027988 6.879021 1.00000000
-7.793447 63.383133 6.879021 1.00000000
-37.396622 13.320007 6.879021 1.00000000
49.231964 -0.308035 6.879021 1.00000000
-7.694998 69.365562 6.879021 1.00000000
-35.329037 30.795153 6.879021 1.00000000
32.505421 10.815114 6.879021 1.00000000
-58.821697 -17.177011 6.879021 1.00000000
34.535648 70.950111 6.879021 1.00000000
12.720862 65.921677 6.879021 1.00000000
-12.720482 48.734825 6.879021 1.00000000
-13.885063 -47.586651 6.879021 1.00000000
-3.628458 63.302322 6.879021 1.00000000
16.936289 -26.261242 6.879021 1.00000000
-22.628534 29.629847 6.879021 1.00000000
0.893041 26.054745 6.879021 1.00000000
-0.013494 45.050396 6.879021 1.00000000
0.501240 -59.229836 6.879021 1.00000000
-3.274200 19.120113 6.879021 1.00000000
42.505978 23.978975 6.879021 1.00000000
24.801851 -58.545540 6.879021 1.00000000
68.270401 23.392506 6.879021 1.00000000
-32.481026 -48.203529 6.879021 1.00000000
-47.577232 8.521466 6.879021 1.00000000
-14.092360 -17.935423 6.879021 1.00000000
43.092583 -55.472630 6.879021 1.00000000
-13.485319 -6.971006 6.879021 1.00000000
47.179333 45.021198 6.879021 1.00000000
54.634960 -43.252747 6.879021 1.00000000
24.185303 66.145760 6.879021 1.00000000
-64.618202 27.887341 6.879021 1.00000000
-22.979069 22.137108 6.879021 1.00000000
5.521616 64.403488 6.879021 1.00000000
17.457792 78.861870 6.879021 1.00000000
48.039284 -13.708573 6.879021 1.00000000
61.323067 -6.081406 6.879021 1.00000000
11.326242 21.004816 6.879021 1.00000000
61.229836 19.209393 6.879021 1.00000000
-61.161522 36.099113 6.879021 1.00000000
63.440285 34.605907 6.879021 1.00000000
-53.568295 -7.690697 6.879021 1.00000000
29.236387 4.799538 6.879021 1.00000000
-19.553801 31.529350 6.879021 1.00000000
-32.300507 -11.704081 6.879021 1.00000000
42.635807 70.568916 6.879021 1.00000000
-21.040573 -12.297725 6.879021 1.00000000
-58.435654 -1.539779 6.879021 1.00000000
67.507156 13.341444 6.879021 1.00000000
38.337612 13.392952 6.879021 1.00000000
66.592010 26.031891 6.879021 1.00000000
11.176107 -50.123547 6.879021 1.00000000
9.786391 33.772068 6.879021 1.00000000
49.990898 -43.793438 6.879021 1.00000000
43.032539 3.140485 6.879021 1.00000000
26.526852 18.577738 6.879021 1.00000000
-45.812775 37.398495 6.879021 1.00000000
22.589069 42.003067 6.879021 1.00000000
-17.612497 -14.850906 6.879021 1.00000000
0.555462 61.263168 6.879021 1.00000000
68.804138 38.268070 6.879021 1.00000000
-1.411741 23.648857 6.879021 1.00000000
77.445595 4.361862 6.879021 1.00000000
22.681684 69.442879 6.879021 1.00000000
47.975346 -8.685097 6.879021 1.00000000
-11.933687 -65.662468 6.879021 1.00000000
3.934971 70.791023 6.879021 1.00000000
-59.385868 -5.827589 6.879021 1.00000000
5.305497 -65.969635 6.879021 1.00000000
29.712444 72.384064 6.879021 1.00000000
-17.804043 26.952253 6.879021 1.00000000
28.577578 55.881950 6.879021 1.00000000
32.629372 43.033802 6.879021 1.00000000
-18.883957 19.233461 6.879021 1.00000000
-20.970917 45.388958 6.879021 1.00000000
27.442703 37.903214 6.879021 1.00000000
1.120812 49.279461 6.879021 1.00000000
36.074322 -45.636612 6.879021 1.00000000
23.808441 -16.630178 6.879021 1.00000000
-33.645611 -15.805250 6.879021 1.00000000
79.021477 -11.468809 6.879021 1.00000000
54.148708 26.230946 6.879021 1.00000000
63.993603 54.175831 6.879021 1.00000000
-6.434418 -18.063646 6.879021 1.00000000
33.326279 -43.239887 6.879021 1.00000000
75.008148 -12.945632 6.879021 1.00000000
-38.652531 28.059393 6.879021 1.00000000
7.103805 71.229126 6.879021 1.00000000
47.796932 -34.274761 6.879021 1.00000000
-9.431972 -48.903965 6.879021 1.00000000
-22.355833 -62.577755 6.879021 1.00000000
19.202127 75.039246 6.879021 1.00000000
-60.133049 -26.834473 6.879021 1.00000000
-18.982653 75.700935 6.879021 1.00000000
14.325252 -15.357627 6.879021 1.00000000
-63.215893 21.878117 6.879021 1.00000000
-29.736021 -14.840876 6.879021 1.00000000
71.778671 -3.060140 6.879021 1.00000000
-64.371002 18.515453 6.879021 1.00000000
-2.075069 56.975910 6.879021 1.00000000
34.465950 -36.251823 6.879021 1.00000000
-45.444920 -33.654846 6.879021 1.00000000
54.799332 62.516136 6.879021 1.00000000
60.656662 13.088860 6.879021 1.00000000
-17.618437 -18.317785 6.879021 1.00000000
-53.248108 2.629572 6.879021 1.00000000
52.978306 -29.215223 6.879021 1.00000000
-45.755558 50.758217 6.879021 1.00000000
-49.603558 44.522518 6.879021 1.00000000
-31.208174 28.322323 6.879021 1.00000000
50.868740 -12.091005 6.879021 1.00000000
46.526215 -41.899704 6.879021 1.00000000
59.904530 3.448333 6.879021 1.00000000
22.860439 -11.394272 6.879021 1.00000000
-6.359789 -25.773495 6.879021 1.00000000
49.392094 -54.040009 6.879021 1.00000000
-54.461018 24.524841 6.879021 1.00000000
-19.515507 49.053593 6.879021 1.00000000
46.719894 41.839844 6.879021 1.00000000
43.250549 55.543949 6.879021 1.00000000
-30.239611 38.990925 6.879021 1.00000000
67.565605 9.117465 6.879021 1.00000000
71.218071 6.024763 6.879021 1.00000000
35.488781 50.846096 6.879021 1.00000000
18.319530 66.694824 6.879021 1.00000000
-27.862993 -59.887844 6.879021 1.00000000
51.700245 -8.393721 6.879021 1.00000000
-58.375229 38.793720 6.879021 1.00000000
-43.420868 -1.762281 6.879021 1.00000000
75.734428 25.668390 6.879021 1.00000000
-56.402363 27.529152 6.879021 1.00000000
58.721500 -45.219044 6.879021 1.00000000
-30.316933 22.252254 6.879021 1.00000000
-37.131596 36.808697 6.879021 1.00000000
62.149467 46.091930 6.879021 1.00000000
74.157707 -19.887451 6.879021 1.00000000
72.261353 15.122426 6.879021 1.00000000
36.439850 20.073076 6.879021 1.00000000
7.062873 23.085743 6.879021 1.00000000
63.459435 -35.896099 6.879021 1.00000000
59.458488 6.934513 6.879021 1.00000000
-34.639858 5.777500 6.879021 1.00000000
-18.125933 34.425365 6.879021 1.00000000
10.334546 -60.409050 6.879021 1.00000000
-56.732819 -25.496483 6.879021 1.00000000
14.638752 -68.172073 6.879021 1.00000000
-48.615723 22.291582 6.879021 1.00000000
-17.413584 -45.043503 6.879021 1.00000000
52.428146 -45.779587 6.879021 1.00000000
-20.859978 -16.414566 6.879021 1.00000000
43.070908 32.824062 6.879021 1.00000000
33.149029 -59.557568 6.879021 1.00000000
0.875666 75.134369 6.879021 1.00000000
17.905943 -56.525146 6.879021 1.00000000
38.656544 -48.608219 6.879021 1.00000000
14.325349 61.378834 6.879021 1.00000000
-26.851664 -27.558174 6.879021 1.00000000
62.350723 -13.790715 6.879021 1.00000000
-47.087708 1.662792 6.879021 1.00000000
1.889236 -19.181728 6.879021 1.00000000
3.265577 22.491343 6.879021 1.00000000
-25.216425 54.814045 6.879021 1.00000000
16.402966 -50.438713 6.879021 1.00000000
25.131659 -55.072170 6.879021 1.00000000
45.143291 11.952639 6.879021 1.00000000
-30.273804 0.514971 6.879021 1.00000000
-41.713116 52.913292 6.879021 1.00000000
-22.623259 11.577774 6.879021 1.00000000
19.193556 69.713440 6.879021 1.00000000
-59.933578 21.735579 6.879021 1.00000000
-2.870547 -43.861473 6.879021 1.00000000
55.902958 7.977771 6.879021 1.00000000
-30.989708 -31.884508 6.879021 1.00000000
-63.089603 -4.757634 6.879021 1.00000000
-25.621632 40.717270 6.879021 1.00000000
17.175800 -42.730312 6.879021 1.00000000
-32.797680 53.015442 6.879021 1.00000000
22.073189 76.851959 6.879021 1.00000000
-36.677986 17.173260 6.879021 1.00000000
-34.150505 10.655952 6.879021 1.00000000
-62.683815 -9.874916 6.879021 1.00000000
16.245478 -10.895237 6.879021 1.00000000
-10.731608 24.295673 6.879021 1.00000000
-47.612206 26.980833 6.879021 1.00000000
-2.565478 -60.053570 6.879021 1.00000000
40.443966 42.072075 6.879021 1.00000000
34.355133 47.099529 6.879021 1.00000000
-15.433940 -31.556362 6.879021 1.00000000
-42.693691 56.398762 6.879021 1.00000000
-29.818876 14.621413 6.879021 1.00000000
-13.613407 -24.902418 6.879021 1.00000000
-39.668438 -23.810434 6.879021 1.00000000
17.722609 -38.287491 6.879021 1.00000000
75.002747 -23.404943 6.879021 1.00000000
-32.186726 -4.944199 6.879021 1.00000000
58.926888 37.084087 6.879021 1.00000000
-5.989449 56.319832 6.879021 1.00000000
40.470924 -41.653339 6.879021 1.00000000
-7.277479 -31.848482 6.879021 1.00000000
39.293682 56.906609 6.879021 1.00000000
-37.991894 33.375519 6.879021 1.00000000
58.392231 -17.149883 6.879021 1.00000000
9.711917 -37.796204 6.879021 1.00000000
-10.980100 -26.802406 6.879021 1.00000000
-56.218773 -21.684847 6.879021 1.00000000
-58.125443 8.600278 6.879021 1.00000000
46.704098 -46.774448 6.879021 1.00000000
17.282171 -60.251514 6.879021 1.00000000
13.353353 47.419434 6.879021 1.00000000
64.248978 12.834259 6.879021 1.00000000
-4.288258 79.455643 6.879021 1.00000000
25.267696 58.032478 6.879021 1.00000000
41.550571 -28.159363 6.879021 1.00000000
-9.418084 -40.006294 6.879021 1.00000000
-40.517174 -16.440418 6.879021 1.00000000
59.726040 -11.686599 6.879021 1.00000000
21.740471 6.309977 6.879021 1.00000000
59.238323 48.100925 6.879021 1.00000000
48.968102 31.430229 6.879021 1.00000000
37.643539 61.479565 6.879021 1.00000000
77.400475 30.618294 6.879021 1.00000000
-4.433254 41.172283 6.879021 1.00000000
-62.200047 32.284389 6.879021 1.00000000
-13.383475 -50.795849 6.879021 1.00000000
-30.930336 35.141388 6.879021 1.00000000
-49.425499 36.051311 6.879021 1.00000000
16.573996 -32.548561 6.879021 1.00000000
-6.207984 -45.580334 6.879021 1.00000000
14.274734 -23.159081 6.879021 1.00000000
62.713707 15.885784 6.879021 1.00000000
-6.764553 38.376804 6.879021 1.00000000
-10.167622 -58.154476 6.879021 1.00000000
3.471640 58.976173 6.879021 1.00000000
25.155470 6.786025 6.879021 1.00000000
34.644459 13.264679 6.879021 1.00000000
56.461758 39.267052 6.879021 1.00000000
-17.055592 -63.929668 6.879021 1.00000000
70.883385 44.224842 6.879021 1.00000000
71.251038 26.111471 6.879021 1.00000000
-8.958586 50.449608 6.879021 1.00000000
-33.464752 -8.141361 6.879021 1.00000000
19.963711 38.092270 6.879021 1.00000000
58.534115 27.753603 6.879021 1.00000000
-57.239197 44.458591 6.879021 1.00000000
57.778362 19.978331 6.879021 1.00000000
24.964411 54.451683 6.879021 1.00000000
-0.637605 -16.429173 6.879021 1.00000000
28.030470 -16.614115 6.879021 1.00000000
44.513859 -10.143478 6.879021 1.00000000
-26.650284 -52.896557 6.879021 1.00000000
-0.280988 32.662209 6.879021 1.00000000
12.390706 -18.922789 6.879021 1.00000000
9.839449 45.998131 6.879021 1.00000000
-9.106586 55.180122 6.879021 1.00000000
-25.645498 -49.721535 6.879021 1.00000000
-19.973965 -31.099863 6.879021 1.00000000
31.793812 -27.723757 6.879021 1.00000000
14.137367 56.834091 6.879021 1.00000000
23.743807 -66.555397 6.879021 1.00000000
-66.112228 -7.058621 6.879021 1.00000000
-43.642109 -48.980042 6.879021 1.00000000
-15.859417 61.789402 6.879021 1.00000000
7.787378 52.890816 6.879021 1.00000000
-39.480968 19.945795 6.879021 1.00000000
-27.348269 57.367294 6.879021 1.00000000
31.926344 28.100006 6.879021 1.00000000
-25.193293 37.193733 6.879021 1.00000000
43.841812 46.563377 6.879021 1.00000000
27.485086 -26.937357 6.879021 1.00000000
3.260708 46.958878 6.879021 1.00000000
-6.115876 15.478824 6.879021 1.00000000
60.123955 51.736134 6.879021 1.00000000
-26.234747 29.686050 6.879021 1.00000000
-17.031414 -23.318563 6.879021 1.00000000
-7.455699 -65.804016 6.879021 1.00000000
23.942266 73.974243 6.879021 1.00000000
-51.206169 -21.844273 6.879021 1.00000000
38.334671 9.370967 6.879021 1.00000000
64.663666 18.906553 6.879021 1.00000000
68.493568 19.191641 6.879021 1.00000000
-58.720478 17.877092 6.879021 1.00000000
36.818287 -8.911303 6.879021 1.00000000
29.655367 0.436305 6.879021 1.00000000
51.128849 46.204643 6.879021 1.00000000
45.938488 24.107321 6.879021 1.00000000
-26.087187 12.303064 6.879021 1.00000000
32.514072 6.108381 6.879021 1.00000000
-33.518978 14.219590 6.879021 1.00000000
35.529049 58.058270 6.879021 1.00000000
65.102539 -40.076218 6.879021 1.00000000
26.943235 13.326143 6.879021 1.00000000
-7.969771 77.629044 6.879021 1.00000000
36.331173 43.660301 6.879021 1.00000000
76.890556 -16.211781 6.879021 1.00000000
-20.820147 69.924324 6.879021 1.00000000
-0.615404 -55.685848 6.879021 1.00000000
-18.652956 7.463395 6.879021 1.00000000
40.606167 -38.158218 6.879021 1.00000000
53.642712 37.063782 6.879021 1.00000000
33.822273 -31.533888 6.879021 1.00000000
72.245407 41.113586 6.879021 1.00000000
76.140816 -3.400087 6.879021 1.00000000
-45.957432 -46.666222 6.879021 1.00000000
57.657043 -8.327064 6.879021 1.00000000
54.842487 -22.103239 6.879021 1.00000000
-45.133400 5.045661 6.879021 1.00000000
-3.475195 35.807629 6.879021 1.00000000
-0.120449 78.174911 6.879021 1.00000000
30.418682 50.281876 6.879021 1.00000000
-22.151438 -33.673630 6.879021 1.00000000
35.504463 66.698074 6.879021 1.00000000
68.908386 47.661880 6.879021 1.00000000
-8.660561 73.285828 6.879021 1.00000000
-11.880147 78.113274 6.879021 1.00000000
-34.301861 62.582836 6.879021 1.00000000
19.751085 61.663563 6.879021 1.00000000
44.523232 -14.796568 6.879021 1.00000000
26.442236 50.515293 6.879021 1.00000000
54.850990 -35.777599 6.879021 1.00000000
-43.096165 12.493839 6.879021 1.00000000
-24.651478 2.058834 6.879021 1.00000000
23.359360 25.952715 6.879021 1.00000000
-65.451645 24.689734 6.879021 1.00000000
-42.126713 -33.146980 6.879021 1.00000000
17.148857 54.685017 6.879021 1.00000000
70.593483 33.345554 6.879021 1.00000000
-43.459694 28.242287 6.879021 1.00000000
-16.828794 -11.470466 6.879021 1.00000000
-7.428851 42.682201 6.879021 1.00000000
49.033730 39.196175 6.879021 1.00000000
3.893739 40.883389 6.879021 1.00000000
-48.813652 30.933031 6.879021 1.00000000
21.326744 32.120106 6.879021 1.00000000
50.913147 49.736755 6.879021 1.00000000
44.254089 -39.468861 6.879021 1.00000000
3.870067 27.396284 6.879021 1.00000000
3.678599 -23.411957 6.879021 1.00000000
57.909336 54.584766 6.879021 1.00000000
-16.103256 42.466522 6.879021 1.00000000
31.072123 -18.618963 6.879021 1.00000000
-9.037568 8.866833 6.879021 1.00000000
55.543423 31.968227 6.879021 1.00000000
72.979912 18.796234 6.879021 1.00000000
-54.423767 37.948395 6.879021 1.00000000
42.028210 -18.592474 6.879021 1.00000000
-25.400934 -30.873945 6.879021 1.00000000
51.698154 -34.843479 6.879021 1.00000000
-12.587737 40.874893 6.879021 1.00000000
34.109768 -40.002441 6.879021 1.00000000
-0.111864 -28.835421 6.879021 1.00000000
21.798431 58.753632 6.879021 1.00000000
-43.336338 -44.839897 6.879021 1.00000000
3.733933 53.854736 6.879021 1.00000000
-63.762733 -16.518764 6.879021 1.00000000
27.224867 61.689819 6.879021 1.00000000
-13.589916 -36.586002 6.879021 1.00000000
-18.925163 -56.078476 6.879021 1.00000000
3.410723 -39.022980 6.879021 1.00000000
-57.702183 14.291754 6.879021 1.00000000
50.944946 -24.837416 6.879021 1.00000000
-5.159727 -40.818424 6.879021 1.00000000
-10.164501 -61.884136 6.879021 1.00000000
-35.287979 -35.297699 6.879021 1.00000000
-52.643356 13.260326 6.879021 1.00000000
-54.279259 45.586102 6.879021 1.00000000
46.529461 -50.854176 6.879021 1.00000000
-54.071423 -1.707442 6.879021 1.00000000
-3.982968 -4.742256 6.879021 1.00000000
-55.027260 -17.419304 6.879021 1.00000000
-53.895889 29.827574 6.879021 1.00000000
61.423424 -39.462784 6.879021 1.00000000
-55.307022 33.684193 6.879021 1.00000000
23.767532 12.758256 6.879021 1.00000000
3.642562 -52.155811 6.879021 1.00000000
-41.219795 16.310526 6.879021 1.00000000
66.197395 -5.529058 6.879021 1.00000000
6.854320 -68.757614 6.879021 1.00000000
5.607739 75.145927 6.879021 1.00000000
-32.562088 25.164865 6.879021 1.00000000
6.503080 -41.045296 6.879021 1.00000000
28.600023 25.582088 6.879021 1.00000000
-45.757484 59.053394 6.879021 1.00000000
15.987753 -18.933786 6.879021 1.00000000
67.787376 -22.296999 6.879021 1.00000000
30.040157 64.123566 6.879021 1.00000000
-21.708652 -8.738669 6.879021 1.00000000
-24.354708 -15.028455 6.879021 1.00000000
-19.603436 -40.408894 6.879021 1.00000000
31.198156 32.796871 6.879021 1.00000000
20.272598 -66.671455 6.879021 1.00000000
-7.717641 -6.778828 6.879021 1.00000000
-51.525143 26.511480 6.879021 1.00000000
-20.130033 0.414838 6.879021 1.00000000
50.689419 42.558571 6.879021 1.00000000
34.674572 63.459438 6.879021 1.00000000
26.907726 -46.398308 6.879021 1.00000000
-17.178980 -0.929909 6.879021 1.00000000
-15.509785 -27.528585 6.879021 1.00000000
40.529167 -12.431382 6.879021 1.00000000
43.314220 -36.353401 6.879021 1.00000000
-42.981365 40.448380 6.879021 1.00000000
15.894812 72.337769 6.879021 1.00000000
-15.927715 -60.212234 6.879021 1.00000000
35.123264 -18.417831 6.879021 1.00000000
51.099606 28.933809 6.879021 1.00000000
42.337070 6.627802 6.879021 1.00000000
79.652557 14.421417 6.879021 1.00000000
-58.419109 34.193733 6.879021 1.00000000
-49.745235 -11.230485 6.879021 1.00000000
33.566677 17.788286 6.879021 1.00000000
16.261620 29.714987 6.879021 1.00000000
-37.451790 62.377991 6.879021 1.00000000
25.587019 71.212425 6.879021 1.00000000
3.875062 -9.815059 6.879021 1.00000000
-26.687319 -1.462308 6.879021 1.00000000
43.401806 -48.258152 6.879021 1.00000000
68.517715 -28.148157 6.879021 1.00000000
-47.864021 -21.036964 6.879021 1.00000000
62.749756 -17.288454 6.879021 1.00000000
9.380799 37.568409 6.879021 1.00000000
-4.885490 -29.315132 6.879021 1.00000000
6.424689 -59.744682 6.879021 1.00000000
59.298473 -29.664705 6.879021 1.00000000
32.803825 -4.731996 6.879021 1.00000000
60.941219 -33.602768 6.879021 1.00000000
53.776825 -14.192774 6.879021 1.00000000
0.960306 -12.999195 6.879021 1.00000000
3.442416 -30.547712 6.879021 1.00000000
49.996120 2.814372 6.879021 1.00000000
68.576149 -8.320697 6.879021 1.00000000
33.826283 -62.626087 6.879021 1.00000000
-40.442261 -20.395090 6.879021 1.00000000
-60.793213 -22.678391 6.879021 1.00000000
-35.772640 -11.432698 6.879021 1.00000000
-19.246721 52.740334 6.879021 1.00000000
-24.530273 66.663216 6.879021 1.00000000
-6.275105 -14.162409 6.879021 1.00000000
22.829220 18.348089 6.879021 1.00000000
-26.356609 15.576798 6.879021 1.00000000
-45.144814 -10.037488 6.879021 1.00000000
15.468369 -45.981140 6.879021 1.00000000
-30.507401 -54.638695 6.879021 1.00000000
-54.034912 -31.080793 6.879021 1.00000000
-23.747330 -59.536160 6.879021 1.00000000
21.351768 -57.203407 6.879021 1.00000000
8.086830 49.719082 6.879021 1.00000000
-39.227818 41.855473 6.879021 1.00000000
-42.506351 -25.973379 6.879021 1.00000000
6.437348 45.937424 6.879021 1.00000000
25.278530 -30.267368 6.879021 1.00000000
53.003212 -52.135109 6.879021 1.00000000
51.652348 65.700005 6.879021 1.00000000
-25.232412 70.174103 6.879021 1.00000000
-29.098505 53.306774 6.879021 1.00000000
-40.789604 63.589993 6.879021 1.00000000
-6.026933 24.791565 6.879021 1.00000000
13.939836 43.370232 6.879021 1.00000000
-32.467983 42.729774 6.879021 1.00000000
-36.455410 -54.206829 6.879021 1.00000000
-8.851288 46.394619 6.879021 1.00000000
-10.313113 -4.403001 6.879021 1.00000000
-60.374592 -12.535675 6.879021 1.00000000
-5.494137 66.564941 6.879021 1.00000000
63.920483 -22.824999 6.879021 1.00000000
-33.968704 69.001289 4.130676 2.00000000
79.028290 25.496815 6.220332 2.00000000
-64.417213 29.626734 4.050096 2.00000000
-67.685570 14.949797 5.866770 2.00000000
40.950741 72.728012 4.036825 2.00000000
81.356262 12.007702 6.559139 2.00000000
29.042780 -65.384079 4.945635 2.00000000
-26.653246 73.183128 4.016739 2.00000000
-53.510765 -38.465656 4.091319 2.00000000
22.314453 -67.165222 6.042946 2.00000000
21.493126 79.517426 6.604386 2.00000000
-19.908909 -63.922737 6.754753 2.00000000
28.391607 -65.595116 3.909126 2.00000000
-67.363251 17.485779 5.526836 2.00000000
76.656036 32.817558 6.839371 2.00000000
75.737450 -22.938936 4.117050 2.00000000
-41.403404 -51.317848 6.787325 2.00000000
-7.424503 -67.453667 5.703658 2.00000000
68.498466 48.434250 4.269689 2.00000000
12.430201 -68.582283 6.675976 2.00000000
22.108822 -67.204285 4.928272 2.00000000
58.220650 -48.256702 3.992551 2.00000000
64.050110 -42.052818 6.713907 2.00000000
53.553692 -52.327007 4.995241 2.00000000
61.221897 57.442356 4.183277 2.00000000
66.127617 51.702644 4.418317 2.00000000
73.794670 -27.181847 6.417737 2.00000000
-2.275817 -68.258362 4.854923 2.00000000
49.376850 67.656670 4.105209 2.00000000
-65.711044 -13.089637 5.585130 2.00000000
-61.292465 -25.337490 4.001317 2.00000000
33.568893 -63.806877 6.859362 2.00000000
79.474785 23.752337 6.838400 2.00000000
47.586338 -56.647610 3.922728 2.00000000
-31.273443 -58.496361 6.811265 2.00000000
-25.208923 73.861443 5.338987 2.00000000
16.005474 80.410156 6.543738 2.00000000
-57.752350 -32.132256 5.614902 2.00000000
-2.396172 80.439980 5.917224 2.00000000
-41.963543 -50.853748 4.217142 2.00000000
-67.230164 -6.099658 6.334836 2.00000000
-55.241299 -36.079960 4.432146 2.00000000
-62.083775 35.848770 4.081898 2.00000000
79.205414 -12.606954 4.455256 2.00000000
39.042282 -61.446896 5.329075 2.00000000
56.159397 62.367664 6.680595 2.00000000
-61.018665 38.117359 6.471923 2.00000000
55.664528 62.777683 4.474192 2.00000000
11.823718 80.816719 4.271675 2.00000000
52.458275 -53.220989 5.406540 2.00000000
43.235992 -59.272949 5.993361 2.00000000
60.468803 58.239086 4.430233 2.00000000
70.589470 -32.978409 5.097310 2.00000000
-64.855530 -16.078888 5.940001 2.00000000
-33.718163 69.160004 6.253947 2.00000000
-64.413727 -17.442125 4.040831 2.00000000
3.089943 80.913246 6.364190 2.00000000
-50.542568 -42.219467 5.054237 2.00000000
-2.999913 -68.166328 4.170686 2.00000000
53.896690 -52.043690 6.297408 2.00000000
37.076988 -62.369877 5.533903 2.00000000
64.287834 53.963673 4.112997 2.00000000
19.248039 79.947464 6.652355 2.00000000
-56.115246 46.911358 5.787579 2.00000000
75.765427 -22.868437 6.839487 2.00000000
81.498451 9.719957 4.680057 2.00000000
11.164442 -68.660950 6.490005 2.00000000
24.103594 -66.750916 4.238901 2.00000000
81.428001 10.853429 6.875491 2.00000000
-20.424635 75.914703 5.700598 2.00000000
78.729698 -14.453922 5.558834 2.00000000
-63.465027 32.367844 6.568200 2.00000000
-42.856792 62.311981 4.137717 2.00000000
75.545326 35.629135 5.313242 2.00000000
-25.835287 -61.368748 5.665832 2.00000000
-21.272846 75.579613 4.169803 2.00000000
11.657476 -68.630310 5.421942 2.00000000
67.433792 -37.705265 6.319591 2.00000000
81.498146 9.724821 6.877662 2.00000000
7.382208 -68.795364 5.285461 2.00000000
27.385689 -65.910881 5.316998 2.00000000
55.979282 62.516895 5.458362 2.00000000
43.904839 71.101067 3.950840 2.00000000
-40.588734 64.189034 6.841629 2.00000000
-63.390629 32.555340 4.621753 2.00000000
74.380638 -25.939058 3.970195 2.00000000
65.756706 -39.993065 3.985146 2.00000000
-11.448220 -66.568535 5.555105 2.00000000
-9.556170 79.246216 6.432128 2.00000000
29.518667 -65.229851 5.803905 2.00000000
-58.182465 -31.369661 6.340645 2.00000000
72.086784 42.595139 6.623839 2.00000000
80.863014 16.484568 6.811802 2.00000000
66.026604 51.841900 6.657296 2.00000000
1.539670 80.816895 5.244192 2.00000000
46.632061 -57.252228 4.121986 2.00000000
74.043121 38.855679 4.074011 2.00000000
-62.118652 35.760872 5.398024 2.00000000
-60.545837 39.120193 6.218113 2.00000000
69.249825 47.286774 3.894462 2.00000000
79.842377 22.290873 3.989324 2.00000000
-29.717325 -59.353390 6.829527 2.00000000
15.267254 80.503983 5.334313 2.00000000
-18.387909 -64.500565 4.832516 2.00000000
-15.373799 -65.482430 4.023468 2.00000000
78.446823 27.596355 5.163398 2.00000000
39.983212 73.199799 3.969589 2.00000000
76.785721 -20.297169 4.831943 2.00000000
-5.195088 80.074707 5.283000 2.00000000
-19.674721 -64.015663 4.705741 2.00000000
77.605751 30.191589 4.065118 2.00000000
-4.441825 80.183128 6.531114 2.00000000
-14.680126 77.902855 6.821807 2.00000000
-53.887352 50.143803 6.722274 2.00000000
81.422729 1.262464 6.517760 2.00000000
-66.399544 -10.399610 6.664631 2.00000000
-38.457706 65.875084 5.899697 2.00000000
-57.803860 44.249557 4.990527 2.00000000
-54.821281 48.860390 5.553418 2.00000000
-54.598083 -36.966705 4.036804 2.00000000
79.282562 -12.307442 5.382461 2.00000000
-48.986191 -44.033985 4.959970 2.00000000
56.181507 -50.156395 5.441581 2.00000000
1.489090 -68.615631 5.040348 2.00000000
54.288368 63.917885 4.054544 2.00000000
-16.472912 77.321846 4.009825 2.00000000
46.404427 69.594704 6.689972 2.00000000
-39.714680 -52.717026 6.103648 2.00000000
79.013351 25.555182 5.152165 2.00000000
36.272114 -62.738953 5.932234 2.00000000
-55.407375 -35.833549 5.557463 2.00000000
-14.159746 78.071152 3.975132 2.00000000
-36.216969 -55.305687 4.131458 2.00000000
30.060490 77.251236 6.562614 2.00000000
10.424450 -68.706940 5.820364 2.00000000
80.043518 21.232136 5.286606 2.00000000
-12.693165 -66.247871 3.911406 2.00000000
-31.748758 -58.213974 4.701093 2.00000000
-67.914246 13.094597 4.130742 2.00000000
-63.704918 31.763292 3.943371 2.00000000
0.593527 80.758095 5.600692 2.00000000
-65.923447 24.458790 6.729837 2.00000000
-34.710114 -56.331509 5.929048 2.00000000
64.998421 -40.908276 4.274523 2.00000000
8.779550 80.990654 4.782196 2.00000000
48.166813 68.474388 6.822695 2.00000000
31.325552 -64.644272 6.402195 2.00000000
-39.050526 65.445061 6.592221 2.00000000
-66.650215 -9.152400 5.226030 2.00000000
13.776390 -68.492538 6.181751 2.00000000
74.193810 -26.335304 6.873220 2.00000000
-68.038116 1.039234 6.077903 2.00000000
70.428955 45.425632 4.173345 2.00000000
-27.825184 -60.395481 5.915102 2.00000000
-3.227190 80.335632 6.668241 2.00000000
-51.280529 -41.326054 6.466084 2.00000000
-51.988056 -40.469467 5.347028 2.00000000
-67.462212 -4.524868 6.684666 2.00000000
8.625654 -68.796303 4.537286 2.00000000
-52.054878 52.589813 3.936084 2.00000000
35.146759 75.379333 3.984420 2.00000000
-41.204224 63.680641 4.053756 2.00000000
-8.820611 79.385948 3.891388 2.00000000
57.971584 60.676880 6.746970 2.00000000
-49.357895 55.826908 6.579374 2.00000000
-67.955376 -0.291986 3.917194 2.00000000
-58.534122 42.923584 6.815283 2.00000000
80.867737 -4.237707 6.479890 2.00000000
55.448582 -50.761803 4.721847 2.00000000
-66.217499 23.317116 5.199475 2.00000000
75.003738 -24.617519 6.443104 2.00000000
-67.791908 14.113168 6.677764 2.00000000
78.084068 28.715660 6.048379 2.00000000
44.789192 -58.419773 5.165548 2.00000000
60.341869 -46.167511 6.862989 2.00000000
-67.505226 16.368738 6.352695 2.00000000
46.488590 -57.343090 6.828008 2.00000000
-28.702246 -59.912441 5.563649 2.00000000
-11.485087 -66.559036 6.638686 2.00000000
-53.105579 -39.024254 6.686288 2.00000000
-68.207001 7.502374 4.221854 2.00000000
-52.229343 -40.177364 6.748420 2.00000000
81.229553 -1.391028 6.853419 2.00000000
-68.209419 4.313470 5.424686 2.00000000
-33.039974 -57.393181 5.164667 2.00000000
64.420967 -41.605221 4.984197 2.00000000
80.005409 21.432726 6.372141 2.00000000
-25.866880 73.552437 4.603155 2.00000000
28.552994 -65.542809 6.830129 2.00000000
-37.506443 66.565094 5.742000 2.00000000
-63.878803 -19.092693 5.423798 2.00000000
81.462486 1.886844 3.985054 2.00000000
21.324062 -67.353371 3.946862 2.00000000
75.316162 -23.954893 5.504426 2.00000000
-63.657642 -19.677128 4.665704 2.00000000
81.133949 -2.143214 5.130544 2.00000000
-2.002238 -68.293137 3.893950 2.00000000
13.860025 -68.482040 4.235507 2.00000000
61.318993 57.325844 6.263987 2.00000000
75.990242 34.502907 3.977738 2.00000000
-45.964321 59.400478 6.309146 2.00000000
55.653591 -50.592464 6.376383 2.00000000
-68.207916 6.292997 6.415873 2.00000000
-68.208206 5.915659 5.185938 2.00000000
79.909058 -9.727765 6.508440 2.00000000
-13.863720 -65.946373 4.009483 2.00000000
-46.178490 -46.995548 5.765191 2.00000000
47.731342 -56.555721 6.833971 2.00000000
-49.025829 -43.978977 6.862226 2.00000000
56.920452 -49.465080 5.079280 2.00000000
71.832207 -30.858505 5.153564 2.00000000
-32.813908 69.732910 6.111750 2.00000000
24.630251 -66.616119 5.376883 2.00000000
-22.437950 -62.919216 4.922744 2.00000000
31.300093 76.847404 3.945767 2.00000000
2.737237 80.891327 4.417213 2.00000000
-23.631582 -62.407757 5.047502 2.00000000
-15.193919 77.736343 5.792593 2.00000000
31.950397 -64.441772 5.641415 2.00000000
4.919339 80.993561 4.006214 2.00000000
-66.480148 22.227654 4.978262 2.00000000
-20.779566 -63.577263 4.581130 2.00000000
-22.606331 75.052818 6.713895 2.00000000
81.263199 13.297310 4.035127 2.00000000
62.095463 -44.302971 5.470445 2.00000000
51.349834 -54.025013 5.045303 2.00000000
-42.907978 62.263988 5.867161 2.00000000
-42.467857 62.636864 6.848871 2.00000000
-66.530663 21.963917 6.094694 2.00000000
-5.087779 -67.900970 5.367660 2.00000000
42.149200 72.067970 5.159425 2.00000000
-59.227184 41.665154 3.944752 2.00000000
81.579453 6.667440 5.225938 2.00000000
51.929020 -53.604897 6.671455 2.00000000
77.268585 31.231955 5.447483 2.00000000
72.778839 -29.139673 5.494856 2.00000000
36.965248 -62.422356 6.664441 2.00000000
14.035964 80.660477 4.476493 2.00000000
35.044434 -63.223953 4.562964 2.00000000
66.772568 -38.613914 5.510842 2.00000000
80.386070 -7.237346 6.877946 2.00000000
81.577309 3.833800 4.061456 2.00000000
-65.334953 -14.559069 4.679252 2.00000000
-64.212402 -18.063347 5.861547 2.00000000
-53.630981 50.496105 4.441250 2.00000000
-64.171272 -18.190243 4.794694 2.00000000
79.191429 -12.661253 6.857037 2.00000000
-64.934669 -15.834681 4.914875 2.00000000
25.258444 -66.455338 6.099420 2.00000000
41.037689 72.680130 6.236130 2.00000000
-63.011520 -21.312643 6.566176 2.00000000
-10.479751 -66.817986 4.840123 2.00000000
31.161724 -64.697365 4.863003 2.00000000
-67.821236 -1.665519 5.782837 2.00000000
32.952770 -64.050278 3.993596 2.00000000
55.364742 63.026066 6.558675 2.00000000
-68.206306 8.419555 4.820947 2.00000000
68.931419 -35.586704 6.698266 2.00000000
4.424350 -68.793144 6.518764 2.00000000
79.478195 23.739010 5.290494 2.00000000
-36.707939 -54.948402 6.814864 2.00000000
-50.818287 54.082302 4.365671 2.00000000
51.060127 66.431725 6.765253 2.00000000
61.440022 -44.999878 6.543970 2.00000000
-47.479671 57.823948 6.575476 2.00000000
1.393756 80.807831 6.393239 2.00000000
-30.821915 70.945229 6.679810 2.00000000
-58.273331 -31.204082 5.037319 2.00000000
-49.826653 -43.086201 6.419932 2.00000000
70.941177 44.617138 6.793004 2.00000000
81.309029 -0.523081 6.186325 2.00000000
