65.436592 25.503340 -12.201156 15.00000000
44.737553 7.025222 3.674664 15.00000000
69.459785 37.467892 -37.365112 15.00000000
52.991650 11.419061 -57.423088 15.00000000
68.528130 33.278416 -31.427782 15.00000000
69.384972 36.937283 3.232025 15.00000000
65.798943 26.241404 -39.138454 15.00000000
69.922684 41.749264 -53.509579 15.00000000
57.988541 15.545959 -0.003142 15.00000000
51.019665 10.154133 0.901437 15.00000000
64.898849 24.527447 -25.958412 15.00000000
38.679016 5.181032 -39.435799 15.00000000
51.505466 10.459323 -58.312256 15.00000000
65.572136 25.779425 -43.865894 15.00000000
57.971088 15.528058 -31.022757 15.00000000
58.836304 16.415600 -25.724854 15.00000000
36.288723 4.562005 -52.750835 15.00000000
58.340721 15.907228 -20.710756 15.00000000
45.501987 7.350888 -55.162411 15.00000000
63.265156 21.874157 -17.885233 15.00000000
66.262306 27.185228 -55.288914 15.00000000
35.189724 4.277390 -11.004204 15.00000000
65.131523 24.919664 -45.078358 15.00000000
41.298958 5.859534 -11.499096 15.00000000
68.414619 32.909119 -38.170620 15.00000000
64.672920 24.146624 -27.627781 15.00000000
50.991474 10.136424 -49.560375 15.00000000
62.743603 21.135059 -19.368797 15.00000000
43.560646 6.604480 -19.496201 15.00000000
58.631966 16.205986 -16.386049 15.00000000
64.501846 23.858242 -50.560539 15.00000000
69.679939 39.029430 -50.720161 15.00000000
48.258457 8.614701 -24.922361 15.00000000
35.714405 4.413270 -54.369617 15.00000000
42.005314 6.082686 -2.247511 15.00000000
68.461693 33.062279 -34.080307 15.00000000
52.047276 10.799697 -32.994675 15.00000000
37.966995 4.996636 -24.353649 15.00000000
38.543953 5.146054 -26.067928 15.00000000
54.475086 12.523470 -31.387188 15.00000000
68.512505 33.227581 -1.276980 15.00000000
36.986496 4.742711 -7.260566 15.00000000
69.963463 45.482014 -33.049065 15.00000000
35.142532 4.265169 -20.022074 15.00000000
69.983879 44.353031 -28.102818 15.00000000
35.976238 4.481079 -27.215218 15.00000000
50.718956 9.965222 -21.877327 15.00000000
37.434319 4.858686 -29.917812 15.00000000
69.990433 42.858685 -5.345146 15.00000000
38.949223 5.251009 -21.893829 15.00000000
62.748158 21.141512 -61.077900 15.00000000
37.046959 4.758369 -38.898552 15.00000000
62.376762 20.615206 -2.399681 15.00000000
51.729595 10.600124 -24.261862 15.00000000
69.943893 42.096519 3.474235 15.00000000
43.101147 6.450324 -27.709446 15.00000000
59.873798 17.487921 -16.148521 15.00000000
67.507812 30.154074 -54.622299 15.00000000
37.616570 4.905884 -60.018810 15.00000000
69.347229 36.748451 -10.294628 15.00000000
70.005936 43.133366 -43.195793 15.00000000
41.991020 6.077891 -47.484879 15.00000000
69.622810 38.624222 -13.910609 15.00000000
42.314442 6.186394 -29.489330 15.00000000
69.343788 36.732990 -20.876493 15.00000000
53.768711 11.997576 -59.490479 15.00000000
53.594891 11.868168 -38.816093 15.00000000
58.793331 16.371515 -22.119871 15.00000000
35.182480 4.275514 -35.986328 15.00000000
69.126747 35.758484 -38.425789 15.00000000
42.491299 6.245727 -55.666962 15.00000000
57.138165 14.749148 -18.399664 15.00000000
69.937073 41.984810 -16.181007 15.00000000
53.704891 11.950065 -17.364355 15.00000000
55.487270 13.303957 -32.589622 15.00000000
63.968121 22.958565 -28.347532 15.00000000
60.507805 18.250511 -5.213676 15.00000000
57.468815 15.038597 -6.498747 15.00000000
63.411533 22.081587 -60.087330 15.00000000
50.267948 9.681891 -43.873806 15.00000000
66.908142 28.640806 -45.892395 15.00000000
56.722095 14.384919 -13.907976 15.00000000
63.095314 21.633474 0.988257 15.00000000
66.126472 26.908558 -18.173262 15.00000000
58.917316 16.498699 1.814809 15.00000000
60.395191 18.115059 -47.972736 15.00000000
39.961956 5.513282 -26.534466 15.00000000
40.010979 5.525978 -15.411111 15.00000000
50.549210 9.858585 -6.986616 15.00000000
65.644897 25.927633 -7.375357 15.00000000
35.121830 4.259807 -2.681422 15.00000000
35.195736 4.278947 -33.412109 15.00000000
63.772415 22.628677 -40.575985 15.00000000
58.696510 16.272198 -24.157789 15.00000000
66.854301 28.504923 -54.788677 15.00000000
63.053467 21.574169 -37.679176 15.00000000
36.560955 4.632506 -25.525438 15.00000000
66.891121 28.597851 -28.289261 15.00000000
65.499512 25.631500 -23.993612 15.00000000
58.918743 16.500162 -28.808315 15.00000000
69.482811 37.631245 -22.256315 15.00000000
65.960289 26.570051 -42.374897 15.00000000
36.506802 4.618482 -16.876108 15.00000000
66.985321 28.835558 -37.815666 15.00000000
52.928669 11.372173 -41.185135 15.00000000
69.458443 37.458389 -4.133066 15.00000000
56.613869 14.290180 0.387389 15.00000000
68.720978 33.936558 -53.888290 15.00000000
68.711441 33.893734 -35.602654 15.00000000
69.509338 37.819405 -18.016085 15.00000000
58.736153 16.312862 -9.430063 15.00000000
66.196045 27.050259 -34.135082 15.00000000
69.958321 45.766327 -36.292458 15.00000000
69.987778 44.137405 -8.150353 15.00000000
58.691879 16.267447 -6.318361 15.00000000
61.204227 19.088179 -43.961800 15.00000000
59.244736 16.834570 -14.629066 15.00000000
69.108833 35.678040 -54.641644 15.00000000
46.111351 7.610492 -25.139311 15.00000000
68.959206 35.006222 -27.690269 15.00000000
57.911697 15.467136 -46.901417 15.00000000
49.743359 9.391240 -25.962976 15.00000000
64.493073 23.843456 -21.816395 15.00000000
41.951637 6.064679 -0.448809 15.00000000
53.713966 11.956821 -6.437669 15.00000000
40.287426 5.597571 -5.836973 15.00000000
49.292992 9.155718 -12.101886 15.00000000
68.652115 33.681782 -55.905788 15.00000000
49.525841 9.277488 -33.175972 15.00000000
66.758423 28.262987 -9.114516 15.00000000
69.930565 41.878307 -40.127064 15.00000000
35.452076 4.345333 -47.056900 15.00000000
59.504280 17.100809 -30.375214 15.00000000
42.252354 6.165564 -52.684544 15.00000000
64.913811 24.552677 -47.106335 15.00000000
52.544628 11.112144 -16.191210 15.00000000
59.805599 17.409903 -18.370638 15.00000000
69.989372 44.049229 -34.275410 15.00000000
50.628654 -49.977905 -20.177483 16.00000000
55.086147 -48.819954 -35.724239 16.00000000
13.139307 -27.240297 -10.760130 16.00000000
16.405230 -34.727009 -18.329117 16.00000000
13.009003 -26.562126 -46.006664 16.00000000
28.219624 -46.208508 -19.866911 16.00000000
13.308523 -28.120987 -17.116613 16.00000000
33.934441 -48.785351 -43.072075 16.00000000
29.625576 -46.999451 -57.916618 16.00000000
20.512245 -40.163811 -1.940096 16.00000000
12.084060 -21.748228 -26.068369 16.00000000
12.515281 -23.992531 -59.571125 16.00000000
43.167622 -50.539307 -1.198816 16.00000000
46.427559 -50.503368 -4.387560 16.00000000
42.483238 -50.482109 -35.282768 16.00000000
44.758018 -50.539890 -38.645836 16.00000000
15.680228 -33.526257 -16.433798 16.00000000
12.809210 -25.522293 -37.489975 16.00000000
22.623808 -42.226067 -34.459637 16.00000000
37.689068 -49.844879 -8.071408 16.00000000
12.668034 -24.787542 -19.008089 16.00000000
55.393044 -48.709389 -10.531777 16.00000000
35.427589 -49.262497 -20.746344 16.00000000
26.727661 -45.317890 -59.639835 16.00000000
51.945614 -49.720413 -60.867439 16.00000000
26.144754 -44.920452 -2.115680 16.00000000
20.314768 -39.936310 -31.557173 16.00000000
46.699986 -50.479256 -10.619517 16.00000000
34.889709 -49.122246 -3.044631 16.00000000
51.654186 -49.797523 -16.344122 16.00000000
52.014114 -49.702194 -43.658592 16.00000000
46.271446 -50.517185 -8.584862 16.00000000
18.079510 -37.215385 -3.873421 16.00000000
46.836441 -50.467178 -32.816330 16.00000000
47.324306 -50.424004 -55.926426 16.00000000
13.424189 -28.471336 -30.831511 16.00000000
34.501328 -48.986462 -45.372047 16.00000000
19.227615 -38.683872 -27.367109 16.00000000
45.949825 -50.536987 -56.757519 16.00000000
12.623940 -24.558050 -1.903520 16.00000000
53.180264 -49.392059 2.254270 16.00000000
17.791037 -36.818928 1.292382 16.00000000
43.020935 -50.527046 -11.734040 16.00000000
33.812199 -48.741982 2.034157 16.00000000
12.910647 -26.050228 -39.952095 16.00000000
56.564468 -48.287361 -5.176138 16.00000000
48.305447 -50.337170 -39.868858 16.00000000
51.543224 -49.817039 -24.407110 16.00000000
55.960796 -48.504845 -1.709578 16.00000000
13.285917 -28.003332 -5.484013 16.00000000
12.861183 -25.792791 -5.281596 16.00000000
51.886578 -49.736115 -57.302013 16.00000000
59.542137 -46.965382 -27.251175 16.00000000
14.433018 -31.019720 -3.651406 16.00000000
16.747957 -35.294640 -11.809679 16.00000000
48.437073 -50.325520 -49.125664 16.00000000
55.611172 -48.630802 -49.204945 16.00000000
18.585447 -37.910713 -22.052208 16.00000000
12.970918 -26.363911 -25.689098 16.00000000
22.191919 -41.807251 1.186167 16.00000000
40.289532 -50.289265 -11.540218 16.00000000
14.787521 -31.740028 -25.573755 16.00000000
12.433236 -23.565523 -11.895844 16.00000000
35.352791 -49.242992 -19.036547 16.00000000
12.085421 -21.755310 -53.849972 16.00000000
12.911470 -26.054510 -2.418377 16.00000000
23.592592 -43.016342 -1.866078 16.00000000
21.505117 -41.141148 -54.312897 16.00000000
33.547009 -48.647903 -2.253526 16.00000000
24.588812 -43.829002 -8.682690 16.00000000
14.288112 -30.688698 -7.699808 16.00000000
44.166428 -50.541332 -20.667391 16.00000000
49.186676 -50.231541 -29.387787 16.00000000
56.585461 -48.279800 -56.556183 16.00000000
15.187803 -32.553352 -24.038889 16.00000000
59.358849 -47.049805 -9.550767 16.00000000
12.265879 -22.694511 -23.215843 16.00000000
54.749313 -48.941303 1.857669 16.00000000
14.751796 -31.667439 -56.513306 16.00000000
18.371634 -37.616863 -41.392956 16.00000000
42.433655 -50.477962 -6.137682 16.00000000
28.546953 -46.392708 -43.353882 16.00000000
19.047813 -38.476734 -50.210007 16.00000000
23.169533 -42.671238 -37.520561 16.00000000
16.244862 -34.461407 -0.780651 16.00000000
13.621454 -28.977642 -32.937092 16.00000000
15.659039 -33.491161 -35.725510 16.00000000
34.960880 -49.140804 -47.011806 16.00000000
40.932198 -50.352478 -43.024620 16.00000000
34.089401 -48.840324 -16.225012 16.00000000
15.165727 -32.508499 -27.304832 16.00000000
47.806633 -50.381317 -9.062680 16.00000000
47.100185 -50.443840 -48.147350 16.00000000
32.126259 -48.136463 -6.943290 16.00000000
19.531939 -39.034462 2.790853 16.00000000
44.250984 -50.541126 -30.504362 16.00000000
31.817715 -47.996178 -12.374138 16.00000000
14.829718 -31.825766 -22.518278 16.00000000
13.993682 -29.933008 -25.675274 16.00000000
57.720905 -47.804218 -8.497959 16.00000000
18.803219 -38.194954 -9.226284 16.00000000
53.282814 -49.364788 -17.193180 16.00000000
44.839371 -50.539696 -54.235569 16.00000000
54.459755 -49.045620 -18.494436 16.00000000
34.551491 -49.004257 3.640474 16.00000000
13.787244 -29.403160 -52.335945 16.00000000
19.896841 -39.454842 -36.907085 16.00000000
53.671749 -49.261353 -33.809841 16.00000000
12.620328 -24.539251 -13.738462 16.00000000
12.421640 -23.505175 3.858694 16.00000000
53.837128 -49.217369 -21.601620 16.00000000
22.154078 -41.770550 -32.193161 16.00000000
25.625467 -44.566391 -16.200024 16.00000000
48.289246 -50.338604 2.000646 16.00000000
50.685307 -49.967941 -14.869051 16.00000000
23.918694 -43.282360 -28.464128 16.00000000
59.091698 -47.172852 -42.023163 16.00000000
31.052078 -47.648056 -52.365360 16.00000000
53.498428 -49.307446 -27.771036 16.00000000
15.686675 -33.536934 -39.370403 16.00000000
51.501114 -49.824448 1.845663 16.00000000
59.251278 -47.099350 -0.149748 16.00000000
13.236136 -27.744247 -40.951859 16.00000000
35.807739 -49.361622 -52.019283 16.00000000
28.352823 -46.283463 -25.678528 16.00000000
24.954861 -44.109161 -48.857735 16.00000000
42.794098 -50.508087 3.654030 16.00000000
49.053616 -50.254944 -56.720341 16.00000000
14.962564 -32.095695 0.078891 16.00000000
33.994576 -48.806683 -41.270660 16.00000000
24.703465 -43.922531 -21.784435 16.00000000
26.319818 -45.039814 -27.807701 16.00000000
58.418293 -47.483009 -15.845706 16.00000000
52.160069 -49.663380 -35.713554 16.00000000
50.373806 -50.022732 -26.205835 16.00000000
55.267956 -48.754456 -57.710106 16.00000000
37.754845 -49.856117 -9.893489 16.00000000
23.871778 -43.244087 -40.295818 16.00000000
58.951958 -47.237213 1.469398 16.00000000
47.619789 -50.397854 -41.457432 16.00000000
17.156353 -35.946655 -6.935065 16.00000000
40.356564 -50.300720 0.511971 16.00000000
47.744923 -50.386776 -36.382393 16.00000000
16.674271 -35.172600 -2.300894 16.00000000
22.011581 -41.632347 -60.809296 16.00000000
43.984627 -50.541775 -32.108742 16.00000000
59.523018 -46.974190 -3.032771 16.00000000
54.631985 -48.983574 -42.838718 16.00000000
42.191288 -50.457706 -7.788301 16.00000000
29.802841 -47.080051 -7.917957 16.00000000
50.176834 -50.057377 -30.814976 16.00000000
33.852715 -48.756355 -35.104412 16.00000000
24.761181 -43.969612 -19.652323 16.00000000
44.741039 -50.539932 1.176446 16.00000000
35.983334 -49.407410 -37.546589 16.00000000
54.048424 -49.161175 -32.072247 16.00000000
14.790694 -31.746475 -11.208688 16.00000000
47.541805 -50.404755 -7.373313 16.00000000
18.787226 -38.176529 -7.605018 16.00000000
25.909573 -44.760101 -12.406125 16.00000000
34.812878 -49.096989 -12.881040 16.00000000
27.200783 -45.635159 -37.160046 16.00000000
13.301726 -28.085613 -22.644741 16.00000000
12.335854 -23.058701 -18.733114 16.00000000
19.140097 -38.583046 -1.035603 16.00000000
15.793310 -33.713543 -61.072231 16.00000000
40.638908 -50.327969 3.688030 16.00000000
27.661209 -45.894260 -14.875782 16.00000000
46.097397 -50.532589 2.819381 16.00000000
26.045944 -44.853081 -17.717409 16.00000000
48.959698 -50.271461 -34.695187 16.00000000
35.644588 -49.319080 -0.687946 16.00000000
51.537380 -49.818069 -9.138437 16.00000000
17.053150 -35.800106 -4.244156 16.00000000
21.495115 -41.131447 -26.144657 16.00000000
17.434069 -36.328331 -14.244878 16.00000000
27.620914 -45.871586 -0.754990 16.00000000
16.463587 -34.823662 3.716443 16.00000000
39.206627 -50.104210 -46.076927 16.00000000
13.938871 -29.792330 0.678044 16.00000000
19.466505 -38.959084 -3.133176 16.00000000
50.661362 -49.972153 -4.735168 16.00000000
13.607077 -28.940742 -34.860649 16.00000000
15.779769 -33.691113 -45.222645 16.00000000
54.554031 -49.011658 -15.263507 16.00000000
16.401222 -34.720371 -56.022736 16.00000000
45.684387 -50.537636 -13.363959 16.00000000
12.189186 -22.295359 -8.618070 16.00000000
12.087585 -21.766577 -33.877491 16.00000000
42.449554 -50.479294 -42.320747 16.00000000
22.957951 -42.498642 -52.880527 16.00000000
42.218056 -50.459946 -52.008877 16.00000000
12.277154 -22.753193 -50.310501 16.00000000
35.581913 -49.302738 -57.300762 16.00000000
54.130661 -49.139305 -3.761290 16.00000000
32.185223 -48.163277 -27.725567 16.00000000
15.525408 -33.239326 -10.379240 16.00000000
26.178226 -44.943275 -7.626115 16.00000000
30.025591 -47.181332 -26.535843 16.00000000
13.370695 -28.334040 -48.087765 16.00000000
37.191822 -49.722523 -5.372262 16.00000000
16.943914 -35.619183 -26.248674 16.00000000
41.789371 -50.424118 2.083335 16.00000000
35.532764 -49.289921 -44.049129 16.00000000
15.562400 -33.314491 3.799308 16.00000000
54.640663 -48.980446 -50.864231 16.00000000
23.256956 -42.742554 -13.222039 16.00000000
32.111389 -48.129704 -46.331017 16.00000000
17.331856 -36.187855 -38.931862 16.00000000
13.324852 -28.205975 -44.549023 16.00000000
18.577911 -37.900356 -57.259243 16.00000000
38.614025 -50.002941 -6.695069 16.00000000
16.416456 -34.745602 -15.629036 16.00000000
54.196869 -49.121696 -37.286488 16.00000000
43.591061 -50.542736 -28.206539 16.00000000
40.537125 -50.319462 -23.448404 16.00000000
24.470303 -43.732330 -0.159868 16.00000000
34.563000 -49.008343 -39.815201 16.00000000
19.320086 -38.790401 -58.770988 16.00000000
12.622596 -24.551058 -21.750628 16.00000000
13.918957 -29.741219 -9.599078 16.00000000
43.521450 -50.542904 -57.080917 16.00000000
12.990968 -26.468264 -0.600075 16.00000000
12.160811 -22.147680 -6.361711 16.00000000
35.325527 -49.235886 1.229965 16.00000000
13.193278 -27.521193 -49.526653 16.00000000
13.170484 -27.402557 -18.648844 16.00000000
37.332775 -49.759277 1.101680 16.00000000
18.563866 -37.881054 3.358341 16.00000000
14.048577 -30.073904 3.550276 16.00000000
47.377670 -50.419281 3.826709 16.00000000
12.122532 -21.948456 -42.974689 16.00000000
37.137707 -49.708412 -25.049555 16.00000000
39.890724 -50.221115 -57.234364 16.00000000
58.034653 -47.659710 -2.832539 16.00000000
57.771835 -47.780758 -25.433504 16.00000000
17.044580 -35.785912 -59.711823 16.00000000
12.440351 -23.602558 -40.546284 16.00000000
29.397900 -46.871574 -21.597113 16.00000000
52.159981 -49.663403 -13.269732 16.00000000
13.200290 -27.557686 -57.684849 16.00000000
14.271205 -30.645304 -23.813116 16.00000000
29.757362 -47.059372 -53.390240 16.00000000
44.963909 -50.539391 -44.120335 16.00000000
38.810051 -50.036442 -51.765934 16.00000000
41.148518 -50.370560 -47.016727 16.00000000
32.653671 -48.330978 -22.816216 16.00000000
48.800606 -50.293346 -17.977757 16.00000000
42.535629 -50.486485 -49.254807 16.00000000
18.063112 -37.192852 -53.181278 16.00000000
12.933229 -26.167755 -27.424847 16.00000000
29.259800 -46.793861 -41.253212 16.00000000
30.122276 -47.225292 -30.205530 16.00000000
22.007368 -41.628262 -30.463696 16.00000000
44.760731 -50.539886 -4.535560 16.00000000
28.221844 -46.209755 -8.301881 16.00000000
40.457123 -50.312775 -45.028564 16.00000000
33.660210 -48.688061 -54.152916 16.00000000
40.175816 -50.269833 -3.751057 16.00000000
58.520599 -47.435890 -61.108376 16.00000000
12.105967 -21.862246 -20.012869 16.00000000
12.329212 -23.024132 -32.228249 16.00000000
58.317570 -47.529404 -35.447590 16.00000000
32.686600 -48.342663 -60.259720 16.00000000
51.024719 -49.908241 -18.625252 16.00000000
33.375011 -48.586884 -24.607424 16.00000000
13.259538 -27.866041 -55.249371 16.00000000
47.267254 -50.429050 -28.232273 16.00000000
18.392574 -37.645641 -55.581566 16.00000000
37.790485 -49.862209 -50.391632 16.00000000
44.117790 -50.541451 -42.263428 16.00000000
25.618071 -44.561348 -42.068031 16.00000000
12.087732 -21.767338 1.481324 16.00000000
15.963587 -33.995556 -3.186430 16.00000000
48.799221 -50.293468 -44.877140 16.00000000
48.759533 -50.296982 -52.645451 16.00000000
27.154732 -45.609074 1.540968 16.00000000
29.108149 -46.708519 0.953458 16.00000000
12.113600 -21.901972 -56.324554 16.00000000
12.774749 -25.342945 -11.486320 16.00000000
44.758961 -50.539890 -2.728480 16.00000000
32.119438 -48.133366 -53.468418 16.00000000
12.069245 -21.671124 -12.056360 16.00000000
19.000029 -38.421684 -60.480362 16.00000000
31.561197 -47.879543 -29.645500 16.00000000
24.276890 -43.574554 -25.490009 16.00000000
55.724724 -48.589893 -40.815002 16.00000000
26.120684 -44.904037 -55.901981 16.00000000
53.057953 -49.424587 -42.229286 16.00000000
38.674076 -50.013203 -28.778439 16.00000000
58.129223 -47.616150 -20.467295 16.00000000
13.701121 -29.182117 -46.086617 16.00000000
27.271484 -45.674946 -9.671938 16.00000000
51.674351 -49.792557 -29.251223 16.00000000
58.013103 -47.669636 -10.405179 16.00000000
45.319950 -50.538525 -25.127134 16.00000000
44.265453 -50.541092 -58.526302 16.00000000
28.424179 -46.323620 2.680715 16.00000000
49.111458 -50.244770 -42.844490 16.00000000
40.892986 -50.349201 -50.091213 16.00000000
19.679960 -39.204987 -22.366415 16.00000000
25.994879 -44.818264 2.496256 16.00000000
34.574333 -49.012360 -6.420124 16.00000000
55.306076 -48.740719 -33.517681 16.00000000
39.670952 -50.183559 -15.421598 16.00000000
23.254181 -42.740288 -6.616214 16.00000000
47.884121 -50.374458 -31.162777 16.00000000
38.506630 -49.984589 -23.947323 16.00000000
12.198152 -22.342024 -58.127758 16.00000000
24.520569 -43.773335 1.588000 16.00000000
29.662027 -47.016026 -19.224907 16.00000000
35.448643 -49.267986 -59.229866 16.00000000
18.801224 -38.192654 0.880270 16.00000000
40.896042 -50.349457 -25.217964 16.00000000
12.318482 -22.968287 -61.050968 16.00000000
56.045536 -48.474316 -29.128231 16.00000000
18.149097 -37.311024 -32.533409 16.00000000
25.380054 -44.399063 -44.983631 16.00000000
52.631027 -49.538128 -14.939110 16.00000000
20.530161 -40.184448 -8.230847 16.00000000
36.513119 -49.545551 -6.759104 16.00000000
40.310196 -50.292797 -13.649217 16.00000000
15.771543 -33.677490 -41.574821 16.00000000
22.504044 -42.109966 -28.727257 16.00000000
59.557415 -46.958347 3.825962 16.00000000
21.748890 -41.377571 -8.840446 16.00000000
28.332098 -46.271801 -52.611858 16.00000000
59.317593 -47.068806 -50.850197 16.00000000
54.445435 -49.050781 -8.313165 16.00000000
55.492020 -48.673729 -23.802380 16.00000000
28.927755 -46.607002 -31.767450 16.00000000
32.060921 -48.106758 -3.847297 16.00000000
13.346258 -28.271318 -25.385876 16.00000000
38.759506 -50.027802 -36.639923 16.00000000
55.170345 -48.789619 -47.429176 16.00000000
56.299473 -48.382832 -7.434347 16.00000000
49.907543 -50.104744 3.620305 16.00000000
31.652798 -47.921192 -50.316891 16.00000000
12.429166 -23.544346 -48.353672 16.00000000
56.456348 -48.326313 -45.587955 16.00000000
21.278982 -40.921829 -13.137655 16.00000000
52.395042 -49.600887 -26.393494 16.00000000
29.453236 -46.902714 -45.193340 16.00000000
53.088573 -49.416447 -19.641579 16.00000000
49.319794 -50.208122 -13.844099 16.00000000
43.316410 -50.543404 -37.540768 16.00000000
20.737745 -40.396904 -39.234570 16.00000000
32.198151 -48.169151 -10.144755 16.00000000
55.736095 -48.585796 -17.061056 16.00000000
59.486492 -46.991013 -20.077488 16.00000000
12.808421 -25.518188 -29.145075 16.00000000
32.375748 -48.232380 2.302652 16.00000000
17.712505 -36.710999 -61.010971 16.00000000
43.148548 -50.537712 1.109321 16.00000000
35.879395 -49.380306 -29.685764 16.00000000
26.192400 -44.952938 -22.125261 16.00000000
17.054142 -35.801746 -50.560806 16.00000000
24.800285 -44.001511 -50.795727 16.00000000
31.979498 -48.069736 -25.756310 16.00000000
17.203583 -36.011566 -58.003426 16.00000000
29.391430 -46.867935 -60.896751 16.00000000
19.517675 -39.018028 -48.385731 16.00000000
20.611479 -40.274445 -27.866999 16.00000000
15.153455 -32.483562 -4.575525 16.00000000
14.683741 -31.529160 1.887752 16.00000000
46.927319 -50.459137 -51.005222 16.00000000
40.478371 -50.314548 -33.297134 16.00000000
13.452222 -28.543287 -53.720749 16.00000000
16.547552 -34.962727 -24.389271 16.00000000
53.763596 -49.236923 -57.924976 16.00000000
15.106178 -32.387501 -32.585217 16.00000000
25.699415 -44.616814 -9.439386 16.00000000
13.095004 -27.009722 -12.562013 16.00000000
44.205845 -50.541237 -8.923402 16.00000000
15.845867 -33.800587 -33.606915 16.00000000
53.909653 -49.198082 -59.669472 16.00000000
57.819180 -47.758953 -13.928498 16.00000000
27.886116 -46.020824 -33.638458 16.00000000
15.981772 -34.025677 -43.545296 16.00000000
51.788914 -49.762089 -49.855301 16.00000000
51.820908 -49.753578 -46.688633 16.00000000
13.145633 -27.273220 -32.568638 16.00000000
33.025913 -48.463036 -29.654057 16.00000000
24.770348 -43.977089 -6.601203 16.00000000
32.633121 -48.323689 -58.013718 16.00000000
41.904366 -50.433727 -29.376093 16.00000000
12.575594 -24.306435 -36.065994 16.00000000
55.532543 -48.659130 -44.285980 16.00000000
12.536226 -24.101540 -38.684296 16.00000000
14.993455 -32.158463 -38.456837 16.00000000
44.875252 -50.539604 -19.155935 16.00000000
23.334091 -42.805473 -23.464003 16.00000000
12.980432 -26.413429 -9.441133 16.00000000
13.663106 -29.084549 -58.237545 16.00000000
41.015755 -50.359463 -59.019760 16.00000000
38.746777 -50.025627 -21.721710 16.00000000
50.006290 -50.087376 0.944266 16.00000000
24.201136 -43.512760 -15.598838 16.00000000
14.900657 -31.969908 -36.724667 16.00000000
42.903442 -50.517227 -33.249119 16.00000000
12.342679 -23.094219 -16.673637 16.00000000
38.703850 -50.018291 -4.643007 16.00000000
17.329988 -36.185291 -54.604561 16.00000000
33.319927 -48.567341 -32.935375 16.00000000
59.180298 -47.132042 -33.708492 16.00000000
48.809841 -50.292530 -11.371748 16.00000000
20.895044 -40.549461 3.189755 16.00000000
18.887924 -38.292538 -16.691542 16.00000000
14.137629 -30.302465 -54.160240 16.00000000
46.278267 -50.516579 -42.778900 16.00000000
30.425957 -47.363369 -40.199566 16.00000000
14.014280 -29.985876 -15.990329 16.00000000
26.753088 -45.335224 -24.858604 16.00000000
23.186764 -42.685291 -46.934380 16.00000000
41.568558 -50.405663 -36.851501 16.00000000
42.492931 -50.482918 -53.915356 16.00000000
57.484329 -47.913181 -33.276924 16.00000000
30.402756 -47.352821 -31.943401 16.00000000
19.446163 -38.935646 -39.918346 16.00000000
26.661736 -45.272938 -46.571518 16.00000000
15.662761 -33.497326 -12.425198 16.00000000
51.143013 -49.887436 -37.045765 16.00000000
18.004482 -37.112274 -51.221722 16.00000000
21.391865 -41.031307 -18.058146 16.00000000
24.458609 -43.722790 -53.017849 16.00000000
34.797382 -49.091492 -31.490171 16.00000000
13.388322 -28.379280 -15.403580 16.00000000
16.605927 -35.059406 -22.149248 16.00000000
56.519741 -48.303474 -42.573921 16.00000000
12.730534 -25.112827 -32.947964 16.00000000
52.547104 -49.560448 -7.504036 16.00000000
28.572098 -46.406860 -37.910416 16.00000000
16.443939 -34.791119 -37.480408 16.00000000
38.086243 -49.912750 -33.183392 16.00000000
53.243179 -49.375328 -29.765821 16.00000000
19.365625 -38.842865 -55.638397 16.00000000
30.284430 -47.299023 -49.735249 16.00000000
17.736359 -36.743782 -34.266064 16.00000000
40.177689 -50.270153 -1.762581 16.00000000
33.455444 -48.615417 -4.809405 16.00000000
30.122635 -47.225456 -13.099036 16.00000000
12.962513 -26.320166 -22.350103 16.00000000
54.227985 -49.113422 -12.327859 16.00000000
20.614328 -40.277206 -20.500116 16.00000000
28.958817 -46.624481 -10.041162 16.00000000
18.581581 -37.905399 -45.192299 16.00000000
45.240067 -50.538715 -33.743038 16.00000000
30.589418 -47.437695 -56.712826 16.00000000
22.047844 -41.667519 -47.920704 16.00000000
14.603776 -31.366680 -47.921089 16.00000000
19.804684 -39.348675 -11.689637 16.00000000
12.852251 -25.746304 -43.731403 16.00000000
12.617169 -24.522812 -23.684004 16.00000000
45.043205 -50.539196 -47.462784 16.00000000
42.382050 -50.473652 -31.539864 16.00000000
38.633526 -50.006275 -11.190094 16.00000000
55.229156 -48.768433 -55.522667 16.00000000
56.414448 -48.341408 -20.299149 16.00000000
54.370007 -49.075649 -2.072123 16.00000000
30.773722 -47.521492 -9.387707 16.00000000
45.933090 -50.537029 -37.336582 16.00000000
20.225277 -39.833214 -17.350185 16.00000000
59.514217 -46.978245 -29.933748 16.00000000
24.817783 -44.015697 -31.448072 16.00000000
27.052931 -45.539665 -29.798187 16.00000000
44.872955 -50.539612 -22.982491 16.00000000
12.706110 -24.985706 -53.745529 16.00000000
23.414026 -42.870682 -42.601288 16.00000000
20.112108 -39.702839 -49.654732 16.00000000
52.429798 -49.591644 -38.920635 16.00000000
45.635750 -50.537754 -6.224007 16.00000000
33.769871 -48.726967 -11.311054 16.00000000
12.188739 -22.293032 -28.169302 16.00000000
42.755333 -50.504848 -45.870811 16.00000000
41.112148 -50.367519 -21.160530 16.00000000
50.809742 -49.946056 -53.446907 16.00000000
18.547987 -37.859234 -38.516777 16.00000000
42.418388 -50.476688 -55.765720 16.00000000
35.519283 -49.286407 -42.147865 16.00000000
18.998213 -38.419594 -43.350533 16.00000000
15.158120 -32.493042 -44.257481 16.00000000
15.519822 -33.227978 -56.741219 16.00000000
28.668449 -46.461082 -30.082357 16.00000000
15.406907 -32.998547 -1.799820 16.00000000
39.255501 -50.112564 -19.950722 16.00000000
13.523326 -28.725784 -42.750179 16.00000000
21.287916 -40.930492 -10.537067 16.00000000
14.272646 -30.649002 -29.797813 16.00000000
57.416225 -47.944546 -17.188965 16.00000000
23.007095 -42.538731 -8.518207 16.00000000
36.856350 -49.635048 -20.226875 16.00000000
59.187134 -47.128895 -22.114286 16.00000000
12.244941 -22.585537 -30.271011 16.00000000
21.051567 -40.701267 -51.679089 16.00000000
22.754799 -42.332920 -10.102671 16.00000000
16.905035 -35.554794 -43.143757 16.00000000
26.257565 -44.997368 -14.395861 16.00000000
30.208956 -47.264706 -59.578903 16.00000000
26.039360 -44.848595 -35.628277 16.00000000
50.648903 -49.974346 -11.981629 16.00000000
56.004066 -48.489258 2.837536 16.00000000
40.574577 -50.322590 -55.083134 16.00000000
17.977074 -37.074604 -20.449827 16.00000000
13.871514 -29.619452 -6.175173 16.00000000
19.636412 -39.154819 -52.403049 16.00000000
29.343678 -46.841061 -4.900953 16.00000000
24.337767 -43.624214 -43.798218 16.00000000
47.598927 -50.399696 -57.605286 16.00000000
13.194329 -27.526661 -28.728439 16.00000000
41.438435 -50.394787 -0.748736 16.00000000
22.488195 -42.094597 -45.508934 16.00000000
57.043159 -48.114906 -12.172755 16.00000000
22.426268 -42.034534 -11.847146 16.00000000
21.890123 -41.514549 -39.172661 16.00000000
20.262653 -39.876270 -46.188545 16.00000000
16.795843 -35.373947 -32.984371 16.00000000
24.802658 -44.003448 3.866481 16.00000000
25.785316 -44.675381 0.835138 16.00000000
48.780781 -50.295101 -32.794392 16.00000000
46.160141 -50.527035 -58.452934 16.00000000
47.564316 -50.402763 -25.132790 16.00000000
35.428574 -49.262756 -35.997963 16.00000000
15.800313 -33.725140 -19.436407 16.00000000
20.690437 -40.351025 -23.490444 16.00000000
30.609901 -47.447006 -46.270016 16.00000000
50.647953 -49.974510 -44.498920 16.00000000
13.209112 -27.603598 2.213642 16.00000000
19.233976 -38.691200 -5.233060 16.00000000
23.335388 -42.806534 -27.007584 16.00000000
45.418640 -50.538280 -28.508842 16.00000000
34.464478 -48.973389 -22.825794 16.00000000
18.258829 -37.461830 -12.729855 16.00000000
54.916786 -48.880966 -27.145332 16.00000000
59.082577 -47.177052 -24.843370 16.00000000
38.738155 -50.024155 -26.549101 16.00000000
21.833914 -41.460033 -3.440015 16.00000000
50.882683 -49.933224 -38.835850 16.00000000
16.258896 -34.484650 -57.945553 16.00000000
42.055565 -50.446365 -13.044217 16.00000000
28.770479 -46.518497 -23.487057 16.00000000
21.286119 -40.928753 -33.309525 16.00000000
39.560909 -50.164753 -8.453240 16.00000000
28.202038 -46.198608 -39.651138 16.00000000
24.027042 -43.370743 -5.162918 16.00000000
49.610817 -50.156937 -8.712022 16.00000000
58.788460 -47.312515 -39.957077 16.00000000
56.502743 -48.309601 -34.710545 16.00000000
12.291900 -22.829939 -13.297842 16.00000000
58.102451 -47.628483 -55.600334 16.00000000
52.553028 -49.558872 -23.038179 16.00000000
17.537067 -36.469887 -45.315605 16.00000000
30.372934 -47.339260 -11.122750 16.00000000
21.614746 -41.247471 -49.871330 16.00000000
13.340357 -28.256172 -8.645013 16.00000000
35.981377 -49.406898 -32.775093 16.00000000
53.677021 -49.259949 -49.220890 16.00000000
56.092346 -48.457451 -60.910950 16.00000000
21.942730 -41.565571 -41.047901 16.00000000
22.010164 -41.630974 -21.269255 16.00000000
13.798368 -29.431711 -49.345783 16.00000000
52.480652 -49.578121 -0.156972 16.00000000
23.447308 -42.897827 -59.002369 16.00000000
24.497990 -43.754913 -54.951344 16.00000000
59.546143 -46.963539 -48.774334 16.00000000
18.957933 -38.373188 -53.764835 16.00000000
20.007502 -39.582329 -9.687578 16.00000000
15.578057 -33.346306 -37.444313 16.00000000
13.137190 -27.229277 -59.307396 16.00000000
53.474480 -49.313816 -44.769451 16.00000000
14.251348 -30.594339 -57.499416 16.00000000
32.673504 -48.338013 -36.404755 16.00000000
36.609516 -49.570686 -13.520970 16.00000000
16.810305 -35.397900 -34.648003 16.00000000
12.349568 -23.130074 -3.290984 16.00000000
13.674542 -29.113899 -37.515022 16.00000000
29.269455 -46.799294 -15.588145 16.00000000
16.861601 -35.482857 -41.387119 16.00000000
50.423878 -50.013924 -7.231027 16.00000000
28.195015 -46.194656 -54.533905 16.00000000
17.178097 -35.976536 -17.406185 16.00000000
29.310192 -46.822220 -2.902252 16.00000000
27.124649 -45.588562 -48.636696 16.00000000
14.104564 -30.217602 -14.416599 16.00000000
37.275326 -49.744297 -43.543732 16.00000000
28.107273 -46.145283 -35.436832 16.00000000
25.565456 -44.525475 -37.249123 16.00000000
12.381272 -23.295078 -55.580151 16.00000000
25.047405 -44.172260 -13.881336 16.00000000
23.622734 -43.040932 -51.198895 16.00000000
47.501743 -50.408298 -3.218005 16.00000000
20.621742 -40.284397 1.127863 16.00000000
26.526747 -45.180901 -44.093094 16.00000000
18.245092 -37.442951 -5.976257 16.00000000
15.882250 -33.860844 -21.167412 16.00000000
23.469425 -42.915874 -32.728653 16.00000000
27.532084 -45.821598 -11.678463 16.00000000
27.753519 -45.946209 -21.872332 16.00000000
15.574179 -33.338425 -59.174942 16.00000000
38.453167 -49.975452 -16.808214 16.00000000
14.552645 -31.262787 -40.662151 16.00000000
52.721775 -49.513996 -2.575215 16.00000000
16.178352 -34.351254 -51.401936 16.00000000
26.567917 -45.208969 -19.497208 16.00000000
27.965912 -46.065731 -41.695374 16.00000000
25.389187 -44.405293 -39.206394 16.00000000
12.534325 -24.091648 -30.734274 16.00000000
13.840177 -29.539021 -39.653118 16.00000000
59.489349 -46.989697 -4.811840 16.00000000
46.088036 -50.533417 -1.384088 16.00000000
31.029755 -47.637905 -61.086132 16.00000000
40.899750 -50.349766 -40.865257 16.00000000
41.809643 -50.425812 -57.408081 16.00000000
16.215784 -34.413246 -31.567377 16.00000000
29.606140 -46.988762 -28.253002 16.00000000
22.909855 -42.459408 -17.721762 16.00000000
45.255276 -50.538681 -50.154240 16.00000000
36.215717 -49.468002 -3.991139 16.00000000
22.945196 -42.488235 -49.670872 16.00000000
50.443691 -50.010441 -35.409454 16.00000000
12.676772 -24.833019 -47.342617 16.00000000
33.875317 -48.764374 -18.162840 16.00000000
58.129097 -47.616207 -37.861618 16.00000000
38.697205 -50.017159 -54.687004 16.00000000
24.479507 -43.739838 -33.907780 16.00000000
55.375671 -48.715649 -52.891167 16.00000000
17.599810 -36.556114 3.298579 16.00000000
26.828762 -45.386822 -38.861996 16.00000000
21.290709 -40.933201 -35.628460 16.00000000
15.057307 -32.288200 -34.414986 16.00000000
41.835785 -50.427998 -18.540709 16.00000000
12.142800 -22.053940 -35.698780 16.00000000
24.796844 -43.998707 -10.976051 16.00000000
49.877258 -50.110069 -3.044812 16.00000000
21.153013 -40.799656 -37.456959 16.00000000
36.431866 -49.524364 2.778868 16.00000000
36.286961 -49.486580 -22.456207 16.00000000
15.155651 -32.488026 -48.938835 16.00000000
12.536398 -24.102434 -25.586845 16.00000000
50.217499 -50.050224 -23.119354 16.00000000
47.316059 -50.424732 -54.048290 16.00000000
57.284794 -48.005081 -30.202030 16.00000000
46.312420 -50.513557 -40.058659 16.00000000
12.704546 -24.977566 -3.717565 16.00000000
15.076975 -32.328163 -14.388541 16.00000000
14.078731 -30.151299 -31.661564 16.00000000
14.860956 -31.889238 -19.595675 16.00000000
27.949820 -46.056675 -56.228813 16.00000000
35.105324 -49.178467 -14.978965 16.00000000
46.497429 -50.497185 -18.059698 16.00000000
27.762114 -45.951046 -27.587915 16.00000000
48.000538 -50.364155 -23.105448 16.00000000
34.448215 -48.967621 -37.341709 16.00000000
56.216824 -48.412605 -22.348370 16.00000000
14.402539 -30.957788 -33.018204 16.00000000
18.623444 -37.962936 -47.177406 16.00000000
33.804031 -48.739086 -26.808424 16.00000000
16.608112 -35.063026 -13.579100 16.00000000
13.554773 -28.806496 -60.104233 16.00000000
12.959292 -26.303406 -56.738480 16.00000000
19.465319 -38.957714 -20.528812 16.00000000
22.986065 -42.521572 -0.467216 16.00000000
14.670778 -31.502819 -58.937881 16.00000000
27.764183 -45.952209 -45.530605 16.00000000
31.798573 -47.987473 0.685223 16.00000000
17.138277 -35.921814 -52.692924 16.00000000
35.642288 -49.318481 -34.400875 16.00000000
40.101360 -50.257111 -5.884313 16.00000000
52.188339 -49.655861 -55.128082 16.00000000
22.244476 -41.858223 -5.740995 16.00000000
23.883278 -43.253468 -60.821907 16.00000000
20.400036 -40.034538 -58.172024 16.00000000
25.350639 -44.379009 -3.761279 16.00000000
37.562859 -49.819271 -38.248714 16.00000000
16.701195 -35.217190 -20.066284 16.00000000
12.767663 -25.306061 -55.368271 16.00000000
20.588171 -40.251278 -14.745510 16.00000000
57.039066 -48.116379 -24.007721 16.00000000
45.825058 -50.537292 -21.229567 16.00000000
20.790550 -40.448116 -48.163403 16.00000000
38.234341 -49.938057 -48.291615 16.00000000
17.184183 -35.984905 -0.853537 16.00000000
38.962914 -50.062565 -40.296612 16.00000000
13.011447 -26.574846 -48.090122 16.00000000
54.809895 -48.919476 -25.289038 16.00000000
56.312504 -48.378136 -26.522278 16.00000000
22.011333 -41.632107 -58.851879 16.00000000
15.563723 -33.317181 -8.516462 16.00000000
25.339064 -44.371117 -29.450071 16.00000000
38.300220 -49.949318 -44.805428 16.00000000
35.313877 -49.232849 -10.020387 16.00000000
13.934439 -29.780954 -41.549202 16.00000000
12.090259 -21.780491 -38.302258 16.00000000
31.435928 -47.822586 -24.100533 16.00000000
23.136007 -42.643890 -57.067554 16.00000000
45.897484 -50.537117 -30.920670 16.00000000
14.493365 -31.142338 -12.777997 16.00000000
56.615887 -48.268837 -18.694445 16.00000000
19.777809 -39.317715 -13.269439 16.00000000
45.541767 -50.537983 -26.812851 16.00000000
23.531534 -42.966537 -19.568954 16.00000000
19.221292 -38.676586 -30.731707 16.00000000
27.953138 -46.058544 -49.896191 16.00000000
44.374367 -50.540829 -60.802513 16.00000000
29.844772 -47.099117 -48.110935 16.00000000
12.666014 -24.777031 -0.236295 16.00000000
48.704350 -50.301865 -27.445679 16.00000000
12.730604 -25.113190 -49.685139 16.00000000
13.603489 -28.931532 -27.653481 16.00000000
54.923344 -48.878605 -0.032045 16.00000000
29.090740 -46.698723 -1.069503 16.00000000
33.186180 -48.519894 -50.605038 16.00000000
51.707565 -49.783722 -40.861198 16.00000000
38.754948 -50.027023 -42.205208 16.00000000
12.806346 -25.507393 -52.188370 16.00000000
13.291493 -28.032354 -20.678997 16.00000000
12.483810 -23.828739 -51.873985 16.00000000
53.294041 -49.361801 -24.998795 16.00000000
17.939419 -37.022854 -11.077966 16.00000000
12.959719 -26.305628 -19.750542 16.00000000
23.580685 -43.006630 2.875572 16.00000000
50.010029 -50.086720 -46.325829 16.00000000
31.287050 -47.754894 -37.351181 16.00000000
39.635338 -50.177471 -34.857971 16.00000000
49.242146 -50.221783 -38.428822 16.00000000
17.654427 -36.631180 -16.054823 16.00000000
26.210293 -44.965137 -50.207741 16.00000000
46.389919 -50.506699 -23.786592 16.00000000
40.068027 -50.251415 -37.919060 16.00000000
24.399368 -43.674465 -17.884886 16.00000000
32.146980 -48.145885 -39.083191 16.00000000
13.018110 -26.609522 -60.998444 16.00000000
29.726824 -47.045486 -36.635189 16.00000000
50.082939 -50.073895 -41.227230 16.00000000
59.108707 -47.165016 -18.044527 16.00000000
46.982582 -50.454247 -46.095062 16.00000000
14.177158 -30.403921 -0.717421 16.00000000
25.926428 -44.771591 -52.044411 16.00000000
43.185234 -50.540779 -22.175140 16.00000000
12.971380 -26.366318 3.461551 16.00000000
13.042256 -26.735193 -30.351168 16.00000000
14.570922 -31.299925 -43.035091 16.00000000
53.195061 -49.388126 -5.450396 16.00000000
31.707840 -47.946217 3.866319 16.00000000
27.161663 -45.613144 -4.631250 16.00000000
19.575390 -39.084518 -32.846401 16.00000000
20.210276 -39.815929 -25.787868 16.00000000
12.252072 -22.622652 -10.483723 16.00000000
36.489788 -49.539467 -48.674347 16.00000000
13.752544 -29.314098 -12.328904 16.00000000
42.399490 -50.475109 -44.062347 16.00000000
18.044348 -37.167061 -59.229664 16.00000000
14.860397 -31.888103 3.788702 16.00000000
41.546753 -50.403839 -4.692881 16.00000000
59.603447 -46.937145 -43.840195 16.00000000
25.658875 -44.589169 -5.393392 16.00000000
48.456470 -50.323803 -15.463417 16.00000000
39.632610 -50.177006 -18.197870 16.00000000
54.714046 -48.954006 -6.265229 16.00000000
36.293713 -49.488338 -54.848045 16.00000000
57.990292 -47.680141 -53.991375 16.00000000
39.062237 -50.079536 -0.677452 16.00000000
30.748341 -47.509953 1.937216 16.00000000
57.079716 -48.099541 -36.588551 16.00000000
16.593075 -35.038120 -29.755075 16.00000000
23.299282 -42.777081 -21.546959 16.00000000
32.997040 -48.452793 -13.729385 16.00000000
47.248375 -50.430721 -13.943340 16.00000000
14.056887 -30.095232 -50.717999 16.00000000
58.456505 -47.465408 -6.893504 16.00000000
26.661917 -45.273064 -57.839890 16.00000000
52.478130 -49.578793 3.713340 16.00000000
20.847258 -40.503117 -60.835583 16.00000000
37.287693 -49.747520 -46.488003 16.00000000
28.252808 -46.227180 -6.545385 16.00000000
12.125166 -21.962168 -45.008968 16.00000000
57.610138 -47.855232 0.106402 16.00000000
56.801994 -48.201790 -50.991211 16.00000000
12.361557 -23.192472 -46.696182 16.00000000
26.327978 -45.045376 -33.787308 16.00000000
52.219715 -49.647518 -59.024174 16.00000000
18.475849 -37.760090 -23.789417 16.00000000
34.765594 -49.080215 -60.927071 16.00000000
15.922568 -33.927620 -52.999275 16.00000000
21.957952 -41.580334 -23.162178 16.00000000
44.502258 -50.540516 -45.720188 16.00000000
17.626966 -36.593437 -47.491909 16.00000000
26.932583 -45.457607 3.680424 16.00000000
48.054836 -50.359348 -19.536604 16.00000000
37.045155 -49.684277 -31.011688 16.00000000
49.683693 -50.144119 -16.670755 16.00000000
16.225533 -34.429394 -5.070655 16.00000000
24.955057 -44.109295 -27.080601 16.00000000
49.171429 -50.234219 -24.608891 16.00000000
56.059269 -48.469368 -14.684951 16.00000000
42.672752 -50.497948 -10.148068 16.00000000
28.623577 -46.435829 -46.860092 16.00000000
44.306019 -50.540993 -36.373466 16.00000000
12.112014 -21.893717 -48.690544 16.00000000
17.209803 -36.020111 -27.946283 16.00000000
29.607969 -46.989792 -33.560940 16.00000000
13.122121 -27.150854 -24.224550 16.00000000
18.276051 -37.485497 -48.863022 16.00000000
13.501423 -28.669567 -0.823806 16.00000000
16.576847 -35.011246 -10.117952 16.00000000
38.161144 -49.925549 -13.958623 16.00000000
15.205620 -32.589558 -46.721512 16.00000000
59.492054 -46.988453 -12.021310 16.00000000
33.689823 -48.698570 -9.466649 16.00000000
31.245949 -47.736202 -18.476501 16.00000000
59.217056 -47.115112 -52.794716 16.00000000
52.435001 -49.590263 -32.734779 16.00000000
17.813107 -36.849258 -43.699020 16.00000000
13.830334 -29.513758 -19.350647 16.00000000
17.954418 -37.043468 -26.582169 16.00000000
31.468346 -47.837322 -47.828003 16.00000000
52.020870 -49.700397 -31.151342 16.00000000
52.202148 -49.652187 -51.549164 16.00000000
37.111416 -49.701557 -36.422722 16.00000000
43.538429 -50.542862 -50.674088 16.00000000
19.069460 -38.501671 -25.350195 16.00000000
20.794258 -40.451714 -56.246834 16.00000000
27.576359 -45.846512 -31.824139 16.00000000
20.899767 -40.554043 -4.655133 16.00000000
38.776291 -50.030670 -2.720409 16.00000000
36.574989 -49.561684 -60.363804 16.00000000
14.247863 -30.585396 -27.610785 16.00000000
12.887543 -25.929983 -58.312611 16.00000000
19.684452 -39.210163 -15.709348 16.00000000
42.967846 -50.522610 -59.418739 16.00000000
43.156490 -50.538376 -26.389364 16.00000000
23.098482 -42.613277 -54.491287 16.00000000
20.246233 -39.857353 -34.598873 16.00000000
40.250019 -50.282513 -60.863697 16.00000000
21.784952 -41.412552 -15.832125 16.00000000
32.415474 -48.246475 -42.221470 16.00000000
56.310017 -48.379032 -32.319023 16.00000000
54.513412 -49.026291 3.765301 16.00000000
50.729340 -49.960197 -1.236115 16.00000000
39.642090 -50.178627 -30.369465 16.00000000
15.061314 -32.296341 -53.554054 16.00000000
54.927441 -48.877129 -38.693207 16.00000000
39.514000 -50.156738 -53.388718 16.00000000
15.580959 -33.352200 -25.830980 16.00000000
58.705887 -47.350548 -46.223804 16.00000000
59.586079 -46.945145 -14.348933 16.00000000
18.843002 -38.240788 -18.779737 16.00000000
13.080945 -26.936548 -7.188207 16.00000000
15.759348 -33.657295 0.672399 16.00000000
32.328884 -48.215755 -19.935881 16.00000000
21.420506 -41.059086 -44.517563 16.00000000
18.004253 -37.111958 -2.117212 16.00000000
24.345299 -43.630360 -35.777645 16.00000000
13.920675 -29.745628 -56.005909 16.00000000
13.016329 -26.600256 -54.107479 16.00000000
57.146130 -48.068951 -47.967609 16.00000000
32.422356 -48.248917 -1.112743 16.00000000
17.804491 -36.837418 -35.982101 16.00000000
50.943020 -49.922611 -47.960606 16.00000000
57.035229 -48.117764 -39.416451 16.00000000
12.681226 -24.856199 -15.695570 16.00000000
42.260632 -50.463505 -60.861095 16.00000000
22.209070 -41.823883 2.953130 16.00000000
14.803637 -31.772774 -16.953003 16.00000000
57.640465 -47.841267 -41.323017 16.00000000
19.385670 -38.865955 -29.184505 16.00000000
28.134550 -46.160633 -59.426075 16.00000000
54.143406 -49.135914 -40.068840 16.00000000
12.518176 -24.007599 1.625324 16.00000000
12.538449 -24.113110 -6.266704 16.00000000
22.317785 -41.929325 -19.084354 16.00000000
44.377239 -50.540821 -10.628012 16.00000000
48.677319 -50.304256 -21.448208 16.00000000
43.964802 -50.541824 -13.660977 16.00000000
31.975197 -48.067780 -15.211365 16.00000000
49.524769 -50.172070 -59.867699 16.00000000
20.703184 -40.363384 -41.447132 16.00000000
37.315788 -49.754848 -53.145557 16.00000000
15.927839 -33.936352 -47.611153 16.00000000
40.303696 -50.291687 -28.618771 16.00000000
37.333298 -49.759411 -58.705612 16.00000000
59.442177 -47.011425 -36.786533 16.00000000
14.814486 -31.794817 -31.112682 16.00000000
39.915760 -50.225391 -9.987594 16.00000000
16.925592 -35.588840 -48.511272 16.00000000
15.410433 -33.005711 -17.951626 16.00000000
12.592435 -24.394081 -45.681198 16.00000000
17.103996 -35.874699 -31.125851 16.00000000
40.619820 -50.326370 -48.546799 16.00000000
20.046322 -39.627048 -54.056694 16.00000000
57.623444 -47.849106 -27.485390 16.00000000
13.272142 -27.931644 -39.010635 16.00000000
47.816616 -50.380432 0.113699 16.00000000
35.312019 -49.232365 -25.838211 16.00000000
38.407051 -49.967571 -60.186897 16.00000000
30.730268 -47.501736 -2.077289 16.00000000
44.365738 -50.540848 -52.364120 16.00000000
37.251495 -49.738083 -0.994685 16.00000000
14.686521 -31.534809 -61.003700 16.00000000
46.155159 -50.527477 -52.748268 16.00000000
13.422379 -28.466694 -3.530855 16.00000000
43.167053 -50.539257 -39.570587 16.00000000
12.412366 -23.456905 -43.600914 16.00000000
41.918335 -50.434895 -38.691494 16.00000000
18.935059 -38.346836 -14.232501 16.00000000
53.731792 -49.245384 -54.814541 16.00000000
38.606712 -50.001694 3.080612 16.00000000
26.259315 -44.998562 -31.364634 16.00000000
31.949455 -48.056076 -34.251522 16.00000000
30.836086 -47.549850 -42.001808 16.00000000
36.039028 -49.421932 -16.880327 16.00000000
17.515821 -36.440685 -24.496218 16.00000000
41.544910 -50.403687 -26.789810 16.00000000
48.915379 -50.279259 -51.051186 16.00000000
33.869305 -48.762241 -48.644386 16.00000000
13.389069 -28.381199 3.827591 16.00000000
50.068726 -50.076393 -10.417640 16.00000000
50.070370 -50.076103 -58.070137 16.00000000
29.679638 -47.024033 -51.526821 16.00000000
44.277489 -50.541061 -15.926905 16.00000000
46.307873 -50.513962 0.718721 16.00000000
45.922466 -50.537056 -16.131060 16.00000000
43.368523 -50.543278 -17.230993 16.00000000
50.451351 -50.009090 -51.568592 16.00000000
42.191463 -50.457722 -16.095184 16.00000000
57.328072 -47.985149 3.490352 16.00000000
29.340446 -46.839245 -55.817223 16.00000000
20.157883 -39.755569 -6.397961 16.00000000
12.580513 -24.332035 -57.211651 16.00000000
40.562778 -50.321606 -51.904930 16.00000000
12.088257 -21.770071 -40.557056 16.00000000
57.478977 -47.915646 -58.078007 16.00000000
34.667095 -49.045269 -55.941574 16.00000000
15.925218 -33.932011 -23.016674 16.00000000
42.432758 -50.477890 -23.721746 16.00000000
32.179180 -48.160526 -16.871054 16.00000000
25.162491 -44.250725 -46.694160 16.00000000
19.900408 -39.458950 -44.592468 16.00000000
15.812454 -33.745247 2.213540 16.00000000
58.294666 -47.539951 -31.705851 16.00000000
14.517550 -31.191479 -5.533543 16.00000000
14.484341 -31.124002 -46.091503 16.00000000
21.972305 -41.594254 -42.754360 16.00000000
34.197536 -48.878689 -8.008427 16.00000000
13.055583 -26.804552 -36.365005 16.00000000
14.126221 -30.273188 -21.358702 16.00000000
44.314732 -50.540974 -7.208263 16.00000000
31.537479 -47.868759 -21.703302 16.00000000
24.936983 -44.096970 -59.351372 16.00000000
32.139782 -48.142612 -31.707008 16.00000000
46.826710 -50.468040 -60.626778 16.00000000
26.613203 -45.239849 -40.898705 16.00000000
30.932911 -47.593872 -54.786030 16.00000000
30.790829 -47.529270 -6.041143 16.00000000
19.205500 -38.658394 -35.007534 16.00000000
20.738464 -40.397602 -29.698090 16.00000000
38.739346 -50.024357 -31.687428 16.00000000
45.917973 -50.537067 -35.248215 16.00000000
52.817291 -49.488594 -11.456586 16.00000000
48.450733 -50.324310 -4.664127 16.00000000
24.082281 -43.415806 -3.575211 16.00000000
15.630728 -33.444271 -28.852415 16.00000000
34.926224 -49.131767 -50.102463 16.00000000
57.784554 -47.774902 -49.814404 16.00000000
