-48.522255 56.597500 6.879021 1.00000000
25.167984 -18.164148 6.879021 1.00000000
40.872532 -21.911568 6.879021 1.00000000
17.687101 -9.622421 6.879021 1.00000000
33.448086 61.835823 6.879021 1.00000000
-50.571976 -36.012497 6.879021 1.00000000
-8.950522 62.871189 6.879021 1.00000000
-35.713135 -29.461617 6.879021 1.00000000
77.642220 28.629856 6.879021 1.00000000
-47.563065 -5.452218 6.879021 1.00000000
72.703316 31.831989 6.879021 1.00000000
56.556526 33.583664 6.879021 1.00000000
-46.955402 28.083855 6.879021 1.00000000
-45.338398 40.452118 6.879021 1.00000000
49.019005 -51.249649 6.879021 1.00000000
18.916447 20.819620 6.879021 1.00000000
22.888556 -51.362808 6.879021 1.00000000
-23.587397 36.501797 6.879021 1.00000000
32.941540 42.566910 6.879021 1.00000000
25.772940 9.089584 6.879021 1.00000000
42.281960 20.413546 6.879021 1.00000000
-9.411808 -41.706657 6.879021 1.00000000
60.842209 14.416021 6.879021 1.00000000
37.696239 48.813686 6.879021 1.00000000
26.469133 -45.111671 6.879021 1.00000000
5.464088 56.593227 6.879021 1.00000000
15.885435 63.738098 6.879021 1.00000000
51.510468 46.781002 6.879021 1.00000000
-35.841434 18.744530 6.879021 1.00000000
-31.184483 36.383495 6.879021 1.00000000
22.268518 -64.552811 6.879021 1.00000000
43.078049 -44.204151 6.879021 1.00000000
-66.871803 -2.765831 6.879021 1.00000000
-3.701094 -12.797822 6.879021 1.00000000
4.885977 22.182240 6.879021 1.00000000
61.533184 10.590078 6.879021 1.00000000
78.750221 25.537245 6.879021 1.00000000
-31.392515 32.215790 6.879021 1.00000000
-32.459248 28.936161 6.879021 1.00000000
15.896754 -49.841087 6.879021 1.00000000
-25.290323 -30.941647 6.879021 1.00000000
38.967735 -39.837532 6.879021 1.00000000
46.968548 -33.332863 6.879021 1.00000000
0.505747 -9.799571 6.879021 1.00000000
65.556427 -20.261021 6.879021 1.00000000
-6.541315 69.166786 6.879021 1.00000000
8.256179 -33.970589 6.879021 1.00000000
22.176767 3.136829 6.879021 1.00000000
-53.992466 1.769178 6.879021 1.00000000
40.947723 -28.649773 6.879021 1.00000000
30.984394 20.921082 6.879021 1.00000000
4.625925 -33.413502 6.879021 1.00000000
-56.739140 -16.223558 6.879021 1.00000000
17.197939 -32.853024 6.879021 1.00000000
17.530441 67.336861 6.879021 1.00000000
25.250235 -9.688983 6.879021 1.00000000
18.931479 70.565918 6.879021 1.00000000
-45.603199 24.593372 6.879021 1.00000000
-27.611900 37.859482 6.879021 1.00000000
-40.387470 25.392756 6.879021 1.00000000
-1.714700 62.217457 6.879021 1.00000000
66.489998 2.220464 6.879021 1.00000000
-13.598427 50.944778 6.879021 1.00000000
-43.318913 7.365833 6.879021 1.00000000
28.317753 -38.100868 6.879021 1.00000000
13.073678 -41.631351 6.879021 1.00000000
-23.872849 51.111115 6.879021 1.00000000
54.512619 -6.912386 6.879021 1.00000000
61.432346 52.506016 6.879021 1.00000000
-19.853327 -52.916183 6.879021 1.00000000
31.729191 3.858874 6.879021 1.00000000
-40.691860 45.975479 6.879021 1.00000000
45.972408 26.615868 6.879021 1.00000000
24.812901 -28.360304 6.879021 1.00000000
43.467381 4.498436 6.879021 1.00000000
33.523590 65.887085 6.879021 1.00000000
35.756771 -48.487167 6.879021 1.00000000
55.772446 5.929138 6.879021 1.00000000
-61.938732 -11.319900 6.879021 1.00000000
-17.195879 17.699102 6.879021 1.00000000
-0.053548 -43.065292 6.879021 1.00000000
-9.942284 14.787102 6.879021 1.00000000
79.678970 22.439068 6.879021 1.00000000
-65.958488 -10.921152 6.879021 1.00000000
9.468931 22.688904 6.879021 1.00000000
-46.215523 -45.556141 6.879021 1.00000000
48.145992 42.907673 6.879021 1.00000000
-23.220095 62.892437 6.879021 1.00000000
-16.819658 69.045647 6.879021 1.00000000
-48.473137 34.700214 6.879021 1.00000000
9.449568 -8.880809 6.879021 1.00000000
23.735300 -31.544821 6.879021 1.00000000
30.419975 -54.165535 6.879021 1.00000000
0.275162 37.542587 6.879021 1.00000000
-36.280739 8.576018 6.879021 1.00000000
10.674521 69.949951 6.879021 1.00000000
37.079479 65.036652 6.879021 1.00000000
-49.088326 53.358479 6.879021 1.00000000
-26.027781 3.758969 6.879021 1.00000000
19.608906 35.151897 6.879021 1.00000000
4.656027 30.528236 6.879021 1.00000000
-29.003883 22.267912 6.879021 1.00000000
-39.433598 -13.246463 6.879021 1.00000000
-26.223427 10.823612 6.879021 1.00000000
11.943156 -45.081856 6.879021 1.00000000
-36.532009 12.497403 6.879021 1.00000000
-6.937872 -21.426376 6.879021 1.00000000
34.865887 -61.152042 6.879021 1.00000000
-19.035057 72.732979 6.879021 1.00000000
-47.090523 4.389699 6.879021 1.00000000
-8.420662 0.320198 6.879021 1.00000000
6.978152 33.188339 6.879021 1.00000000
-46.179749 -12.468473 6.879021 1.00000000
28.695080 -16.396456 6.879021 1.00000000
-7.109013 -67.081673 6.879021 1.00000000
51.447479 38.363453 6.879021 1.00000000
-49.483910 -32.627289 6.879021 1.00000000
-14.822516 11.416255 6.879021 1.00000000
27.547033 -0.947647 6.879021 1.00000000
-30.732801 57.642262 6.879021 1.00000000
10.424005 79.212807 6.879021 1.00000000
-15.139767 -5.667662 6.879021 1.00000000
-45.897133 59.375633 6.879021 1.00000000
27.825590 -26.792385 6.879021 1.00000000
-28.860401 29.361881 6.879021 1.00000000
29.341167 -49.351795 6.879021 1.00000000
1.804559 26.815729 6.879021 1.00000000
11.769683 -31.118324 6.879021 1.00000000
65.792389 -32.483528 6.879021 1.00000000
-11.235085 -12.381192 6.879021 1.00000000
-37.351070 47.378838 6.879021 1.00000000
-39.241741 -27.526937 6.879021 1.00000000
-17.165045 47.704681 6.879021 1.00000000
66.192596 -24.813404 6.879021 1.00000000
53.589684 35.248508 6.879021 1.00000000
-33.642666 -26.768389 6.879021 1.00000000
-3.473995 57.840382 6.879021 1.00000000
-34.789715 67.357681 6.879021 1.00000000
-7.149519 36.763733 6.879021 1.00000000
-41.597031 -47.068840 6.879021 1.00000000
-33.928097 45.189877 6.879021 1.00000000
-49.320309 22.034151 6.879021 1.00000000
72.449989 -21.971867 6.879021 1.00000000
-14.751876 -59.223251 6.879021 1.00000000
-60.828411 26.376554 6.879021 1.00000000
-63.363094 16.116344 6.879021 1.00000000
22.576777 22.054838 6.879021 1.00000000
-21.111227 69.475716 6.879021 1.00000000
-13.238211 -15.339815 6.879021 1.00000000
4.338685 60.525425 6.879021 1.00000000
28.499193 71.858879 6.879021 1.00000000
-27.050623 -13.840680 6.879021 1.00000000
31.852316 7.166821 6.879021 1.00000000
51.658703 20.544846 6.879021 1.00000000
-11.755418 -5.002585 6.879021 1.00000000
76.280464 6.050499 6.879021 1.00000000
40.327805 -33.326237 6.879021 1.00000000
34.262707 13.007048 6.879021 1.00000000
-17.255405 -28.157949 6.879021 1.00000000
27.545900 32.670235 6.879021 1.00000000
33.861538 30.724253 6.879021 1.00000000
7.626813 -52.236027 6.879021 1.00000000
44.442677 -21.356628 6.879021 1.00000000
-5.573841 75.889427 6.879021 1.00000000
71.901207 -8.491347 6.879021 1.00000000
44.292091 -24.858898 6.879021 1.00000000
55.443329 37.882263 6.879021 1.00000000
-5.709018 24.297560 6.879021 1.00000000
-27.448559 45.633316 6.879021 1.00000000
-42.222378 -50.516815 6.879021 1.00000000
40.153774 60.748337 6.879021 1.00000000
-2.103321 -60.233292 6.879021 1.00000000
39.960400 -6.145602 6.879021 1.00000000
-52.758354 31.780325 6.879021 1.00000000
-65.645782 -13.344617 5.402219 2.00000000
0.589569 -68.558350 6.852178 2.00000000
-61.900227 36.247643 4.284488 2.00000000
-50.430927 54.549820 6.085331 2.00000000
69.320778 47.174770 5.545249 2.00000000
76.353500 -21.386414 4.134663 2.00000000
-63.939796 -18.904493 3.899785 2.00000000
-43.318996 -49.684864 3.900755 2.00000000
-10.016513 79.131592 6.609722 2.00000000
80.085930 -8.804332 4.321566 2.00000000
-61.201595 37.729385 5.780586 2.00000000
48.841961 -55.844151 6.322588 2.00000000
-15.503761 77.635925 6.668893 2.00000000
10.683279 80.889336 5.086095 2.00000000
-55.280670 -36.025684 5.009926 2.00000000
64.901283 -41.025509 3.991831 2.00000000
-21.017178 75.680618 5.501121 2.00000000
19.474678 79.904053 5.157767 2.00000000
-55.582211 -35.557587 6.231274 2.00000000
24.172314 -66.733330 5.183470 2.00000000
-43.319401 61.878220 6.346969 2.00000000
70.631012 45.106701 5.414884 2.00000000
49.159119 67.815109 5.073833 2.00000000
50.352085 -54.748753 5.547874 2.00000000
81.050354 14.992524 4.266576 2.00000000
51.770859 65.914520 4.097730 2.00000000
-62.915653 -21.555309 4.454567 2.00000000
-17.926952 -64.650726 6.860121 2.00000000
-60.080669 -27.910650 5.658396 2.00000000
81.373146 0.483842 4.006482 2.00000000
-21.374149 -63.341331 3.920482 2.00000000
75.653076 35.356396 5.786060 2.00000000
-6.352880 -67.658936 3.906036 2.00000000
18.208038 80.130219 5.132076 2.00000000
-2.983136 80.366280 6.068544 2.00000000
-22.044781 -63.075226 6.751998 2.00000000
-59.941154 40.368763 6.212508 2.00000000
68.106239 -36.781193 6.039592 2.00000000
-46.968555 58.367397 6.097828 2.00000000
-57.187492 -33.023853 4.111891 2.00000000
35.258755 75.334900 5.049586 2.00000000
3.292962 80.925865 5.621317 2.00000000
-64.613609 -16.825361 5.398761 2.00000000
73.042366 -28.661180 4.959134 2.00000000
-0.856856 80.633247 5.526968 2.00000000
54.690948 63.584332 6.610610 2.00000000
-65.920784 24.469122 6.683141 2.00000000
81.314453 -0.437890 4.589025 2.00000000
-59.551884 41.075581 4.105492 2.00000000
-54.404305 49.433407 5.963794 2.00000000
-40.016064 -52.467316 5.730813 2.00000000
-67.879692 -1.200014 5.053210 2.00000000
19.778637 79.845825 6.343253 2.00000000
-32.922634 69.664047 3.894925 2.00000000
-0.352181 -68.498383 5.121615 2.00000000
73.411423 -27.991081 4.102763 2.00000000
-53.447906 -38.552322 4.884208 2.00000000
71.117294 -32.148079 4.562780 2.00000000
-66.601715 21.592972 6.700418 2.00000000
-53.288696 50.966476 6.361037 2.00000000
81.579422 6.629143 6.388451 2.00000000
67.364059 -37.801094 4.454818 2.00000000
29.717825 77.362869 6.852988 2.00000000
80.004242 21.438869 5.262597 2.00000000
-68.199150 3.630271 4.992458 2.00000000
-39.282150 -53.075123 5.068110 2.00000000
-41.937057 63.075321 4.045072 2.00000000
-67.347610 -5.437556 6.774134 2.00000000
70.882446 -32.517517 6.587932 2.00000000
64.623108 -41.361252 6.728198 2.00000000
18.353008 -67.917793 6.648509 2.00000000
57.026440 61.565777 6.802118 2.00000000
23.454956 79.117317 5.644111 2.00000000
39.508469 73.423630 5.801320 2.00000000
57.272892 -49.134621 6.637594 2.00000000
30.574753 77.083702 5.137430 2.00000000
54.776981 63.513050 4.757585 2.00000000
-49.545708 55.618225 6.447202 2.00000000
4.568387 80.993820 6.246354 2.00000000
81.518456 9.398079 4.043226 2.00000000
-36.319912 -55.230774 5.511642 2.00000000
-67.562927 15.914778 4.313403 2.00000000
52.683887 -53.045479 5.238401 2.00000000
20.363667 79.733765 4.254699 2.00000000
-25.998796 -61.291653 4.417987 2.00000000
39.662407 -61.155659 6.694672 2.00000000
78.959557 -13.561493 5.046832 2.00000000
39.489155 -61.237022 5.609969 2.00000000
-63.423428 32.472679 6.793034 2.00000000
78.445992 27.598915 3.913910 2.00000000
57.280869 61.326492 4.768208 2.00000000
-63.758984 31.627045 4.584105 2.00000000
-39.472767 65.110825 6.576458 2.00000000
47.202862 -56.890579 4.812325 2.00000000
73.909454 -26.938398 5.241640 2.00000000
-66.853882 -8.080346 4.498725 2.00000000
68.030067 -36.885872 3.952116 2.00000000
37.476280 74.381775 5.457289 2.00000000
51.802471 -53.696690 6.669885 2.00000000
-37.095348 66.863289 6.852139 2.00000000
30.352512 -64.959618 5.294345 2.00000000
-9.690880 79.214935 5.375858 2.00000000
-17.822351 -64.684799 5.648066 2.00000000
71.659370 43.374001 5.965542 2.00000000
25.229679 -66.462700 5.560150 2.00000000
44.876942 -58.364182 6.580371 2.00000000
-63.755802 31.635061 5.827015 2.00000000
81.578667 5.626992 5.344420 2.00000000
21.813112 -67.260460 4.314397 2.00000000
75.072517 36.663811 4.054436 2.00000000
75.203964 36.383919 5.170699 2.00000000
70.497772 45.317001 6.769988 2.00000000
-40.908680 63.924755 6.587509 2.00000000
28.032866 77.911781 4.157615 2.00000000
73.125999 40.701389 4.983507 2.00000000
65.964699 51.927242 4.036699 2.00000000
54.144455 64.037125 5.668592 2.00000000
7.131925 -68.795181 6.222007 2.00000000
24.453791 78.860062 5.338675 2.00000000
-53.681545 -38.230232 6.408002 2.00000000
38.390167 -61.753155 6.782933 2.00000000
75.574615 -23.349291 4.598051 2.00000000
81.385612 11.535454 6.546558 2.00000000
-40.200684 64.509567 6.212146 2.00000000
-54.550869 -37.031780 5.266199 2.00000000
61.913921 56.691338 6.106028 2.00000000
65.262894 -40.589073 6.487464 2.00000000
-67.076416 -6.908928 4.347662 2.00000000
-40.971954 63.872490 4.265589 2.00000000
13.897898 80.678024 5.895827 2.00000000
-66.867981 -8.006105 6.679625 2.00000000
-57.999577 -31.702930 6.611236 2.00000000
4.454600 80.993912 3.919254 2.00000000
-23.330503 74.743637 3.967994 2.00000000
79.232841 -12.500468 4.626621 2.00000000
-61.607708 36.868053 6.825048 2.00000000
41.495728 72.427864 6.504457 2.00000000
43.249416 71.462036 6.004132 2.00000000
75.862701 -22.623283 3.945284 2.00000000
-65.216537 27.172983 5.068179 2.00000000
-12.026437 -66.419601 6.627251 2.00000000
-18.051704 -64.610085 3.899879 2.00000000
65.594482 52.381771 6.460437 2.00000000
-49.555241 -43.414391 6.871869 2.00000000
-15.264922 77.713333 3.968884 2.00000000
-53.089909 -39.045849 4.051591 2.00000000
-65.741730 25.164301 5.768630 2.00000000
2.118308 -68.655693 5.586390 2.00000000
8.083500 80.991180 4.156972 2.00000000
79.120171 -12.937903 6.658045 2.00000000
-25.900370 73.536713 5.759993 2.00000000
3.382150 80.931404 6.781725 2.00000000
-37.711109 66.416634 5.729815 2.00000000
16.591331 80.335701 3.917740 2.00000000
-42.287132 -50.585640 3.953936 2.00000000
-64.933479 -15.838353 4.200169 2.00000000
-45.786118 -47.364571 5.509223 2.00000000
-13.245890 -66.105507 6.613794 2.00000000
72.143494 42.491798 5.551138 2.00000000
16.602667 -68.137680 5.325759 2.00000000
81.095367 14.634031 6.761378 2.00000000
-19.003733 -64.281914 6.874998 2.00000000
81.495224 9.771866 5.298143 2.00000000
12.279011 80.787727 4.084829 2.00000000
44.042255 -58.830505 5.153776 2.00000000
80.983253 -3.328881 4.927620 2.00000000
-27.767294 -60.427364 6.114107 2.00000000
81.229027 13.569503 4.227267 2.00000000
-47.755260 57.530926 4.111029 2.00000000
-7.487229 79.639259 5.706505 2.00000000
-41.111748 -51.559498 3.895522 2.00000000
-39.619072 -52.796242 4.168447 2.00000000
-58.871838 42.310375 3.934551 2.00000000
77.545677 30.376957 6.534060 2.00000000
-63.865856 31.319269 6.784906 2.00000000
77.655418 -17.836899 4.012223 2.00000000
-23.152018 -62.633865 5.758436 2.00000000
-66.406036 22.585125 6.851461 2.00000000
-53.141346 -38.974949 5.910431 2.00000000
81.580208 7.661660 4.155858 2.00000000
-56.601852 -33.948193 6.667112 2.00000000
-13.129928 78.334724 3.982444 2.00000000
62.657593 55.898197 6.486742 2.00000000
-12.360419 78.531677 5.097387 2.00000000
13.228222 -68.532684 6.531431 2.00000000
77.154831 31.554943 5.150733 2.00000000
24.084379 78.955200 6.546515 2.00000000
-68.174583 9.006149 6.632236 2.00000000
-33.795334 69.111115 5.437662 2.00000000
-64.990562 -15.662229 5.709374 2.00000000
-14.777596 77.871262 5.300039 2.00000000
21.199739 -67.376984 6.017284 2.00000000
78.137657 -16.356529 4.084538 2.00000000
-32.437572 -57.776112 5.413845 2.00000000
-4.001929 -68.038979 5.108146 2.00000000
-68.207603 6.710986 6.857198 2.00000000
-54.813095 -36.670292 4.109768 2.00000000
65.079559 -40.810345 5.231243 2.00000000
79.408676 24.010614 6.873701 2.00000000
-62.182396 35.600227 5.780219 2.00000000
56.109440 -50.215927 3.993139 2.00000000
-67.490417 -4.300236 6.700919 2.00000000
-63.771423 -19.389120 6.123442 2.00000000
-40.691784 64.103912 5.330685 2.00000000
-36.192440 67.518272 3.958378 2.00000000
62.983356 55.542953 5.541087 2.00000000
-44.394352 -48.673508 5.173054 2.00000000
-46.978020 -46.163006 6.152203 2.00000000
75.744431 35.125141 4.090780 2.00000000
-61.356369 37.401123 4.380353 2.00000000
-17.969933 76.836685 5.027019 2.00000000
71.348351 43.940762 6.732075 2.00000000
69.667480 -34.428806 4.744038 2.00000000
76.954712 32.061523 6.619580 2.00000000
71.133888 44.312958 4.885519 2.00000000
37.167740 -62.327259 3.898465 2.00000000
-44.222660 61.046776 4.616762 2.00000000
30.814360 -64.809937 6.670800 2.00000000
49.873154 -55.096157 4.202515 2.00000000
23.065136 -67.016708 5.758940 2.00000000
77.572670 30.293665 5.362753 2.00000000
-13.777440 78.168999 4.864644 2.00000000
-67.693581 -2.682207 6.432676 2.00000000
-62.897163 -21.602116 6.497902 2.00000000
37.306274 74.461929 4.406888 2.00000000
-66.963425 -7.503708 5.489259 2.00000000
-68.171188 3.180420 6.038567 2.00000000
-36.222290 -55.301815 6.676944 2.00000000
81.341019 12.252916 4.327907 2.00000000
-68.082741 10.448578 5.024061 2.00000000
-58.160011 43.602879 6.869380 2.00000000
-38.364162 -53.743153 5.002706 2.00000000
58.814434 -47.689224 6.685817 2.00000000
-68.126839 2.466832 5.117318 2.00000000
28.393433 77.794312 6.620199 2.00000000
-58.127827 43.661320 3.956225 2.00000000
-67.072540 -6.929364 6.832298 2.00000000
-68.206665 7.943028 3.982446 2.00000000
65.045631 53.046230 5.296788 2.00000000
80.071144 21.086695 6.809462 2.00000000
52.879677 65.085045 6.439848 2.00000000
48.918285 -55.788788 3.960293 2.00000000
7.674420 80.991486 5.335086 2.00000000
-49.263733 55.927025 5.506659 2.00000000
72.678604 -29.321674 5.635377 2.00000000
-49.969604 -42.913136 6.119720 2.00000000
-41.668549 -51.098164 5.735600 2.00000000
-42.632660 62.500740 5.714612 2.00000000
24.935955 -66.537880 4.568123 2.00000000
81.429115 10.835500 4.279598 2.00000000
80.572571 -6.263643 6.753178 2.00000000
-53.941124 -37.872372 4.066395 2.00000000
34.780281 75.524757 3.994156 2.00000000
52.891262 -52.874184 6.699847 2.00000000
44.045170 -58.828903 6.420012 2.00000000
-65.746735 -12.950206 4.349167 2.00000000
36.841267 74.681175 6.385577 2.00000000
78.619545 27.063395 4.993392 2.00000000
-38.696854 -53.501053 6.042819 2.00000000
-65.844025 -12.570080 6.703599 2.00000000
79.711632 22.826956 6.821212 2.00000000
8.219174 -68.795998 5.397374 2.00000000
-46.931557 -46.214897 4.176972 2.00000000
-53.617062 50.515236 5.242362 2.00000000
-57.400757 -32.687206 6.825473 2.00000000
-67.385628 17.309763 6.551784 2.00000000
-51.225208 -41.393028 6.512830 2.00000000
6.955090 80.992027 6.250997 2.00000000
16.697897 80.322151 5.171930 2.00000000
81.394554 0.820102 6.833776 2.00000000
-63.302700 32.776932 5.416867 2.00000000
40.642517 72.888947 4.082009 2.00000000
76.799927 32.453327 3.969984 2.00000000
66.926140 -38.402878 6.773233 2.00000000
62.569763 -43.798660 4.666867 2.00000000
-23.023197 74.887962 6.754506 2.00000000
-67.212303 18.405294 6.806813 2.00000000
74.033821 -26.674635 4.239499 2.00000000
78.115303 -16.425156 6.708764 2.00000000
-14.262160 78.038307 3.928454 2.00000000
81.231346 13.550998 5.274436 2.00000000
80.194374 -8.238161 5.625412 2.00000000
59.796120 -46.747791 5.900011 2.00000000
-10.849328 -66.722794 6.807097 2.00000000
-61.158386 -25.622988 4.063715 2.00000000
13.312869 80.721893 4.328289 2.00000000
-68.010765 0.599225 6.792833 2.00000000
-64.428223 -17.397394 6.645252 2.00000000
52.086899 65.684532 6.653933 2.00000000
46.297897 69.662422 6.635330 2.00000000
-51.386723 53.396236 5.883062 2.00000000
80.772987 -4.983187 4.361444 2.00000000
80.884003 16.317408 5.584369 2.00000000
45.650360 -57.874184 3.956100 2.00000000
-8.425096 -67.262009 6.822936 2.00000000
64.259132 -41.800545 5.336996 2.00000000
-7.858413 79.568741 4.488721 2.00000000
81.566277 8.628664 4.651848 2.00000000
78.805328 -14.160300 6.632336 2.00000000
-32.724731 69.789406 5.287841 2.00000000
73.242592 40.488930 6.764881 2.00000000
-36.592182 -55.032642 4.392361 2.00000000
42.521725 71.862808 4.215926 2.00000000
66.861252 50.691288 3.962505 2.00000000
-62.066322 -23.689724 5.801024 2.00000000
-68.112770 2.240510 6.845142 2.00000000
-56.565018 46.203819 6.331390 2.00000000
2.410572 80.871025 6.349078 2.00000000
-44.667912 -48.416225 4.209431 2.00000000
65.677719 -40.088398 3.991760 2.00000000
63.302479 -42.955170 5.398888 2.00000000
-30.524969 -58.908581 6.847610 2.00000000
-27.671198 72.674232 5.713953 2.00000000
-3.872343 80.254631 5.084676 2.00000000
-67.962868 12.331101 4.526612 2.00000000
-56.611469 -33.933064 4.221239 2.00000000
-21.826967 -63.161652 5.662774 2.00000000
-66.243736 23.215248 4.025535 2.00000000
5.762998 -68.794151 4.080209 2.00000000
-21.898335 75.332512 6.369483 2.00000000
-65.261086 -14.827478 4.729386 2.00000000
2.505512 80.876923 4.822306 2.00000000
-60.355972 39.522881 6.715335 2.00000000
25.024691 78.713020 6.525122 2.00000000
-40.084190 -52.410873 6.804509 2.00000000
16.659449 80.327042 6.803787 2.00000000
-23.943110 74.455925 6.829479 2.00000000
45.094177 -58.226543 4.761830 2.00000000
-32.156052 -57.955067 6.713379 2.00000000
76.814316 -20.225103 5.889033 2.00000000
33.729465 -63.743443 5.511646 2.00000000
56.806057 61.773041 3.918389 2.00000000
55.789040 62.674519 4.601143 2.00000000
-47.353931 -45.762089 5.179889 2.00000000
-11.343553 -66.595497 4.882116 2.00000000
80.825081 16.786718 6.691595 2.00000000
7.787421 -68.795670 4.383586 2.00000000
3.371402 -68.735489 5.540713 2.00000000
-52.672997 51.812572 6.778727 2.00000000
-67.882050 -1.181195 3.996445 2.00000000
64.058563 54.241253 6.811188 2.00000000
-16.821415 -65.010857 5.836028 2.00000000
-56.435253 46.407951 4.963108 2.00000000
36.153866 -62.785667 6.641259 2.00000000
77.529259 -18.224194 5.504449 2.00000000
-24.178713 -62.149796 3.971875 2.00000000
75.197739 36.397179 6.462732 2.00000000
46.155384 -57.554199 5.070963 2.00000000
58.334549 60.335518 6.469152 2.00000000
69.503654 46.886112 6.471298 2.00000000
42.305893 71.981674 5.757929 2.00000000
-33.967995 69.001740 3.953078 2.00000000
60.987419 -45.481121 3.889987 2.00000000
-51.307014 53.492439 3.949100 2.00000000
47.943592 -56.421249 6.620799 2.00000000
-66.236328 -11.037309 5.095347 2.00000000
-1.176061 80.593170 4.206599 2.00000000
76.524307 33.151024 6.794087 2.00000000
-62.488670 -22.636131 6.792556 2.00000000
-19.615088 -64.039330 4.269782 2.00000000
-15.474513 -65.449623 6.500939 2.00000000
-30.572670 71.082008 5.472403 2.00000000
81.580284 7.764151 6.445026 2.00000000
66.726311 -38.677479 4.777557 2.00000000
13.408141 -68.521507 3.906269 2.00000000
-9.641977 -67.028915 6.314676 2.00000000
62.691601 55.861942 4.070343 2.00000000
44.722462 70.650764 4.972103 2.00000000
-45.697372 -47.448032 4.257839 2.00000000
-39.668037 64.949532 5.105509 2.00000000
-16.572132 77.289688 6.792708 2.00000000
-66.343376 -10.619086 4.018482 2.00000000
-68.062714 1.435041 4.165692 2.00000000
-67.780968 14.199241 4.780614 2.00000000
81.578087 4.862818 6.262980 2.00000000
-48.049580 -45.020164 5.886453 2.00000000
-38.241508 -53.832409 3.996559 2.00000000
41.747131 -60.089985 6.505332 2.00000000
-5.330162 -67.854836 6.816988 2.00000000
-25.112000 -61.709766 6.237423 2.00000000
11.678250 -68.629021 6.876406 2.00000000
53.231133 -52.593452 4.102579 2.00000000
78.525284 -15.166602 6.797514 2.00000000
-10.630740 78.974380 5.717691 2.00000000
80.401482 19.347927 5.598211 2.00000000
79.850906 -10.031364 5.391426 2.00000000
-32.625835 69.852058 6.405146 2.00000000
-41.654514 63.308693 5.068826 2.00000000
81.489265 2.307430 5.759223 2.00000000
-19.367842 -64.137436 5.908451 2.00000000
-59.467754 -29.027538 4.451433 2.00000000
52.640045 65.282005 3.899474 2.00000000
-3.335024 -68.123741 6.032956 2.00000000
44.227482 -58.728855 4.132399 2.00000000
48.143456 68.489235 3.926497 2.00000000
-46.182812 59.193951 5.484607 2.00000000
-7.648160 79.608688 6.813875 2.00000000
81.302162 12.878081 6.250893 2.00000000
-68.209671 3.984169 6.708891 2.00000000
38.524864 73.887383 5.377394 2.00000000
-65.480927 -13.988725 6.629242 2.00000000
-32.121700 -57.976906 4.516179 2.00000000
15.994757 -68.214005 4.013805 2.00000000
70.511040 -33.101791 5.796136 2.00000000
-6.112860 -67.704910 5.686615 2.00000000
-58.420822 -30.935312 5.742238 2.00000000
58.161785 60.497997 5.310283 2.00000000
-25.469904 73.738876 4.762852 2.00000000
81.578590 5.528007 4.265981 2.00000000
36.456238 74.859734 3.924673 2.00000000
-24.092657 -62.190369 5.200332 2.00000000
-33.964649 -56.805382 5.058630 2.00000000
-14.556810 77.942818 6.722869 2.00000000
79.423317 -11.760944 6.500579 2.00000000
-34.063892 68.940964 6.635879 2.00000000
-2.716002 80.399818 4.645130 2.00000000
81.322060 -0.318454 6.637815 2.00000000
-16.365858 -65.159256 6.826280 2.00000000
-37.008232 66.926491 5.025266 2.00000000
80.423904 -7.039826 6.144952 2.00000000
-64.205971 30.275198 6.766749 2.00000000
-63.024872 33.477093 6.054928 2.00000000
-12.138925 -66.390633 4.299611 2.00000000
53.610172 64.479797 6.793610 2.00000000
-68.209183 4.623958 5.485913 2.00000000
-61.626846 36.827461 5.183444 2.00000000
57.253178 61.352531 5.794517 2.00000000
-67.358597 17.522404 5.223522 2.00000000
31.437277 -64.608063 5.163863 2.00000000
40.742496 -60.641293 6.807876 2.00000000
44.051479 71.020302 5.683838 2.00000000
55.754364 62.703251 5.597484 2.00000000
20.488037 -67.512192 5.215857 2.00000000
-57.003693 45.513741 4.101460 2.00000000
-16.530910 -65.105492 3.912234 2.00000000
54.306934 -51.704823 5.149904 2.00000000
-55.011204 -36.397171 6.596082 2.00000000
78.782402 26.457516 3.943406 2.00000000
-31.180548 70.748428 4.039525 2.00000000
16.189371 -68.189575 6.754757 2.00000000
-42.783459 62.376175 3.960996 2.00000000
-45.722237 59.625233 6.797295 2.00000000
-68.071075 10.631750 3.956837 2.00000000
66.717064 50.890057 4.980560 2.00000000
-60.726845 -26.541866 4.106970 2.00000000
-46.121109 59.252274 4.314382 2.00000000
40.400055 73.003265 6.844529 2.00000000
21.723234 -67.277534 6.849597 2.00000000
-68.126625 2.463405 4.051998 2.00000000
-27.258602 72.898827 6.785489 2.00000000
-20.953489 75.705780 6.701148 2.00000000
-63.846138 -19.193489 5.067064 2.00000000
-67.980965 0.119666 3.891634 2.00000000
71.496101 -31.468782 3.921061 2.00000000
-8.770782 79.395416 6.490780 2.00000000
-65.039925 27.715128 6.716781 2.00000000
-54.427429 -37.201958 6.440641 2.00000000
0.542091 80.754898 4.990130 2.00000000
-57.210632 45.188206 5.784096 2.00000000
-35.566944 -55.778717 4.055288 2.00000000
60.649338 58.040035 6.465948 2.00000000
-30.242004 71.263466 4.262150 2.00000000
-60.490578 39.237389 4.379319 2.00000000
74.538132 -25.605022 4.792040 2.00000000
-43.641163 61.596436 4.010281 2.00000000
47.217865 69.077614 4.378786 2.00000000
56.709045 -49.663300 5.075886 2.00000000
-14.286215 -65.836716 6.807264 2.00000000
-62.570244 -22.429644 5.032850 2.00000000
-65.425606 26.391647 4.114667 2.00000000
9.793819 -68.746140 4.250636 2.00000000
14.845629 -68.358292 4.839590 2.00000000
-59.569279 -28.842535 6.054839 2.00000000
8.766655 -68.796410 4.541150 2.00000000
68.610405 48.279922 4.024497 2.00000000
24.004538 -66.776276 3.916667 2.00000000
-51.592110 -40.948818 4.536045 2.00000000
80.434631 19.173410 6.856148 2.00000000
-24.242695 -62.119629 6.795136 2.00000000
28.805084 -65.461113 4.173519 2.00000000
80.531914 -6.475907 3.880719 2.00000000
-48.545086 -44.507038 4.265166 2.00000000
76.621544 -20.710918 4.835760 2.00000000
22.822775 -67.068649 4.046886 2.00000000
-58.775127 -30.289677 4.867225 2.00000000
-28.285465 -60.141983 5.187254 2.00000000
-63.014874 33.502289 4.371490 2.00000000
-68.208275 5.825433 5.941299 2.00000000
71.903595 -30.728888 6.844664 2.00000000
-60.047333 40.175972 4.480033 2.00000000
80.972717 -3.411795 6.256000 2.00000000
-44.495674 -48.578213 6.684700 2.00000000
66.306145 51.456532 6.845151 2.00000000
79.457787 -11.627102 4.278228 2.00000000
79.087654 25.264874 5.050838 2.00000000
-66.362961 22.752361 5.229953 2.00000000
33.108608 -63.988712 6.857361 2.00000000
-37.380322 -54.459103 4.028034 2.00000000
-19.994303 76.084709 6.598587 2.00000000
-13.357800 -66.076683 4.945480 2.00000000
26.656498 78.292732 3.965368 2.00000000
-51.040913 53.813610 6.815023 2.00000000
73.464081 -27.883005 5.466617 2.00000000
-2.206812 -68.267136 4.578217 2.00000000
79.205856 24.803061 6.290498 2.00000000
-64.069870 30.692986 4.086133 2.00000000
29.984747 -65.078804 4.339154 2.00000000
-61.521954 -24.848845 5.405784 2.00000000
-68.207687 6.600464 4.176558 2.00000000
60.977367 57.698284 5.553697 2.00000000
63.286896 -42.973976 3.980976 2.00000000
34.199291 75.755295 5.546658 2.00000000
81.239746 -1.310863 4.038153 2.00000000
80.083038 -8.819420 6.791595 2.00000000
-65.456291 -14.084967 3.975009 2.00000000
-31.044691 70.822983 6.400599 2.00000000
65.846672 52.076462 5.295567 2.00000000
80.614876 18.224680 4.055495 2.00000000
57.969734 -48.481239 5.756256 2.00000000
74.146721 38.635082 5.243098 2.00000000
63.604015 54.791550 5.538591 2.00000000
-52.605488 -39.713680 5.169504 2.00000000
-11.932674 78.641159 6.821312 2.00000000
58.817966 -47.692093 3.911901 2.00000000
-52.243256 -40.160503 4.273358 2.00000000
61.730324 56.904469 4.071933 2.00000000
-50.057125 -42.807175 4.864040 2.00000000
24.035261 -66.768410 6.775643 2.00000000
72.111435 -30.351500 3.905302 2.00000000
4.981800 -68.793564 6.741516 2.00000000
30.989939 -64.753036 4.199529 2.00000000
64.290154 53.960865 5.669725 2.00000000
56.115334 -50.211060 6.872880 2.00000000
77.312904 -18.888334 4.768196 2.00000000
-20.841976 -63.552498 6.608778 2.00000000
-66.642693 -9.192012 4.398294 2.00000000
78.649055 -14.767012 5.538601 2.00000000
-64.831375 28.355337 4.115476 2.00000000
-54.926479 48.715832 5.540796 2.00000000
70.153435 45.860512 3.891935 2.00000000
-23.101242 -62.656021 6.800323 2.00000000
79.872032 -9.921086 4.153604 2.00000000
59.549213 -47.000271 6.815625 2.00000000
78.345253 -15.719269 4.974244 2.00000000
-67.470947 -4.455238 5.579001 2.00000000
72.201614 -30.187761 5.831312 2.00000000
67.281929 -37.913952 5.653675 2.00000000
-24.711487 74.095062 6.126793 2.00000000
-68.141411 9.527161 5.708637 2.00000000
3.638894 -68.752518 6.675197 2.00000000
-48.132301 57.130035 6.750419 2.00000000
-34.633514 68.580078 4.699508 2.00000000
68.602127 -36.099754 5.021021 2.00000000
-67.672997 15.048759 3.889817 2.00000000
73.969208 39.013062 4.237350 2.00000000
56.521442 62.040718 5.923133 2.00000000
-52.530621 -39.812618 6.727493 2.00000000
51.912861 65.811188 5.099942 2.00000000
81.380875 11.611707 5.204422 2.00000000
81.462502 1.887165 6.872932 2.00000000
-65.751129 25.127802 4.070310 2.00000000
18.029148 80.152954 6.374116 2.00000000
26.019896 78.456696 6.167083 2.00000000
-41.444595 -51.283718 6.758564 2.00000000
-61.581589 -24.721863 4.165284 2.00000000
75.667831 -23.114388 6.642382 2.00000000
-15.872973 -65.319817 5.546839 2.00000000
15.095278 80.525841 6.536791 2.00000000
38.477879 73.909538 6.496317 2.00000000
-5.157845 -67.887840 4.961535 2.00000000
79.491585 23.686695 3.982132 2.00000000
-64.552521 -17.013847 3.961924 2.00000000
62.729897 -43.628395 6.876892 2.00000000
-13.939220 -65.926926 3.950747 2.00000000
-20.262594 -63.782394 5.639227 2.00000000
-68.018364 11.459501 6.304461 2.00000000
67.666756 49.580853 4.191515 2.00000000
49.453583 67.600830 4.175690 2.00000000
-31.263937 -58.501598 5.436576 2.00000000
-4.358725 -67.993629 6.473049 2.00000000
-60.316940 39.605663 5.306351 2.00000000
15.586498 -68.265266 5.686197 2.00000000
77.836136 -17.282139 5.992743 2.00000000
34.587029 -63.404655 6.217599 2.00000000
-35.641037 67.918213 4.708840 2.00000000
80.919060 -3.833931 4.082004 2.00000000
17.802765 80.181732 4.021787 2.00000000
2.696645 -68.692520 4.192194 2.00000000
-67.756760 -2.179063 4.140569 2.00000000
-48.412434 -44.633175 6.850375 2.00000000
61.018826 57.657196 4.399066 2.00000000
-36.599319 67.223099 5.899395 2.00000000
78.993477 -13.429808 4.015974 2.00000000
80.635269 -5.936326 5.122835 2.00000000
48.032585 -56.364868 3.897451 2.00000000
57.877834 -48.580750 4.775687 2.00000000
79.791473 22.514997 4.087237 2.00000000
-50.927601 -41.753330 5.603139 2.00000000
51.511963 -53.907391 3.920232 2.00000000
71.491837 -31.476519 5.291590 2.00000000
21.574104 79.501907 6.852649 2.00000000
-67.836716 -1.542229 6.674038 2.00000000
-68.208435 5.609642 4.956977 2.00000000
81.580322 7.809675 5.263910 2.00000000
-67.516685 16.278601 6.214414 2.00000000
-15.756131 77.554138 5.051599 2.00000000
61.632118 -44.795628 6.630385 2.00000000
50.274769 67.003242 5.322920 2.00000000
-10.754103 -66.747322 5.678783 2.00000000
18.664047 -67.858704 4.684222 2.00000000
-66.518715 -9.844605 5.151612 2.00000000
74.324280 -26.058601 5.672066 2.00000000
-67.632713 -3.166928 5.085027 2.00000000
-55.714588 47.541626 4.260848 2.00000000
81.573364 3.628174 6.801072 2.00000000
-0.782779 80.642548 6.558746 2.00000000
80.252228 20.133566 4.743440 2.00000000
34.840950 -63.304340 5.177361 2.00000000
80.764931 17.265781 5.150666 2.00000000
79.910538 21.932089 6.240762 2.00000000
-19.011505 76.472969 5.388863 2.00000000
33.580860 -63.802147 3.943064 2.00000000
-67.911247 13.141736 3.911662 2.00000000
22.007221 79.418945 4.087687 2.00000000
-18.661560 76.611214 6.804528 2.00000000
-6.771499 79.775230 4.704387 2.00000000
3.281941 80.925179 4.013216 2.00000000
-68.206383 8.319104 5.840662 2.00000000
68.314606 48.687702 6.839075 2.00000000
-22.634123 75.041840 4.727241 2.00000000
-49.077503 -43.927567 6.028298 2.00000000
-9.506529 -67.054863 4.339360 2.00000000
41.609779 72.365051 4.005647 2.00000000
48.558807 -56.031471 5.027930 2.00000000
-56.148556 -34.663677 6.034122 2.00000000
-17.180172 77.092628 4.351947 2.00000000
75.933456 -22.444967 5.248120 2.00000000
37.038208 -62.388092 5.677893 2.00000000
-66.093857 -11.593966 4.083035 2.00000000
-63.419456 32.482689 3.883073 2.00000000
-68.107727 10.056194 6.604566 2.00000000
-58.740578 -30.352642 6.677908 2.00000000
-47.658791 -45.446636 4.054724 2.00000000
-66.086761 23.824715 5.858002 2.00000000
80.097237 20.949387 3.989365 2.00000000
77.794998 -17.408426 4.885136 2.00000000
-67.923553 12.948453 5.400021 2.00000000
-52.596546 51.917633 5.343171 2.00000000
54.149094 -51.835201 3.906629 2.00000000
-61.785873 -24.286880 6.584892 2.00000000
64.664619 53.507507 4.523514 2.00000000
-22.262581 -62.988804 4.477184 2.00000000
-57.886806 -31.908430 4.744576 2.00000000
29.149458 -65.349503 5.395203 2.00000000
-31.531109 70.545639 5.285240 2.00000000
68.785187 48.020142 6.237700 2.00000000
-60.795887 -26.394857 5.171996 2.00000000
-35.646233 67.914444 6.772627 2.00000000
-44.676865 60.605412 6.145881 2.00000000
-60.085934 -27.901060 6.688678 2.00000000
17.514280 -68.023224 4.118296 2.00000000
81.447853 1.657105 4.943340 2.00000000
-7.430998 -67.452423 4.615228 2.00000000
9.761706 -68.748131 6.078482 2.00000000
58.384415 60.288616 4.291690 2.00000000
-40.297722 -52.233952 4.603774 2.00000000
67.752266 49.462940 6.394816 2.00000000
15.018138 -68.336632 6.783797 2.00000000
-58.101597 43.708942 5.715237 2.00000000
-68.018806 0.728525 4.889598 2.00000000
-23.569460 74.631409 5.190042 2.00000000
-65.948036 -12.163695 5.042586 2.00000000
-27.196432 72.928024 4.025921 2.00000000
52.248207 -53.373360 4.280840 2.00000000
0.355331 -68.543434 5.881946 2.00000000
-67.961601 -0.191808 5.507407 2.00000000
-57.590157 44.591179 4.261317 2.00000000
14.108477 -68.450844 5.557843 2.00000000
-60.854095 38.466404 4.935909 2.00000000
59.677181 -46.874252 4.214567 2.00000000
-68.176117 8.982105 4.775200 2.00000000
50.598885 66.767380 6.591198 2.00000000
-45.331139 -47.792469 6.802114 2.00000000
-62.606449 34.531567 6.579980 2.00000000
-17.143257 77.104591 5.545566 2.00000000
-65.145470 27.391129 3.909934 2.00000000
-67.740417 14.518244 5.881069 2.00000000
4.323466 -68.793068 3.898233 2.00000000
-42.267590 -50.601833 5.005158 2.00000000
-65.207809 -14.991867 6.429269 2.00000000
48.848991 68.040733 6.725757 2.00000000
77.227486 -19.150560 6.780731 2.00000000
-61.039074 38.074081 6.846996 2.00000000
-67.040215 19.303720 5.591103 2.00000000
-67.830803 13.807097 6.723930 2.00000000
63.561607 54.842899 4.141404 2.00000000
72.741249 41.402515 6.597700 2.00000000
-1.531857 -68.352921 6.718044 2.00000000
6.189626 -68.794472 5.352343 2.00000000
-57.155666 -33.074093 5.179861 2.00000000
67.937195 -37.013500 5.002138 2.00000000
-16.272011 77.386948 4.079677 2.00000000
81.506630 2.580128 4.195138 2.00000000
55.200115 -50.967041 5.300618 2.00000000
-38.173267 66.081398 6.678177 2.00000000
-13.656243 78.200020 6.024222 2.00000000
74.175728 -26.373659 6.831002 2.00000000
27.916010 77.949844 5.272823 2.00000000
42.330185 71.968292 6.759175 2.00000000
81.021996 15.218371 5.927227 2.00000000
60.758705 -45.724304 6.750527 2.00000000
1.655218 -68.626205 3.997785 2.00000000
31.145048 76.897919 4.096267 2.00000000
74.753532 37.343018 5.601940 2.00000000
-41.732098 63.244610 6.838476 2.00000000
70.416267 -33.250874 3.939259 2.00000000
50.374451 -54.732533 6.861210 2.00000000
32.514542 -64.223404 5.599946 2.00000000
63.769146 -42.391930 6.268321 2.00000000
-66.792580 20.596554 6.749431 2.00000000
-67.022728 19.394993 6.601153 2.00000000
60.529800 -45.967690 5.460973 2.00000000
44.602974 70.716576 3.888121 2.00000000
-33.074631 -57.371147 3.958466 2.00000000
51.469650 66.133713 6.007192 2.00000000
42.926220 -59.442944 3.892145 2.00000000
75.101860 -24.409405 6.638375 2.00000000
55.800957 62.664646 6.623944 2.00000000
-1.043446 -68.414993 4.361117 2.00000000
26.086046 -66.243515 5.078218 2.00000000
-29.042915 71.921478 6.513993 2.00000000
12.847088 80.751556 6.783913 2.00000000
81.577423 3.992072 4.100724 2.00000000
51.903324 -53.623524 5.338393 2.00000000
-53.750069 50.332458 4.204386 2.00000000
32.527637 76.418602 6.387288 2.00000000
-26.870117 -60.880840 6.807214 2.00000000
21.508917 79.514397 5.039079 2.00000000
-66.499672 22.125711 3.998252 2.00000000
-26.987749 -60.825378 5.483053 2.00000000
-19.201555 76.397888 4.327731 2.00000000
73.743271 39.494133 5.634850 2.00000000
-28.743391 -59.889782 4.218396 2.00000000
80.778992 -4.935982 5.491824 2.00000000
-66.541931 -9.722400 6.202960 2.00000000
69.522255 -34.657253 5.680920 2.00000000
-14.039136 -65.901192 5.797273 2.00000000
78.798096 26.396212 6.747533 2.00000000
42.959057 -59.424923 6.743585 2.00000000
-1.940025 80.497246 5.484703 2.00000000
74.617630 -25.436417 6.712252 2.00000000
26.605627 78.305832 5.173132 2.00000000
-52.203449 52.410496 4.225685 2.00000000
77.069298 -19.582514 3.993755 2.00000000
29.646023 77.386253 5.334886 2.00000000
71.597275 43.487160 4.101802 2.00000000
7.163408 -68.795204 5.189801 2.00000000
34.976028 75.447083 6.186101 2.00000000
72.117783 42.538647 3.973762 2.00000000
-41.247196 -51.447273 4.907342 2.00000000
-57.651920 -32.290779 5.843570 2.00000000
66.530342 -38.946777 5.767037 2.00000000
27.388222 -65.910233 3.929484 2.00000000
-26.049520 -61.267738 5.990068 2.00000000
-59.924889 -28.194521 3.948317 2.00000000
-63.371468 -20.401514 6.474794 2.00000000
74.729362 37.394485 6.828208 2.00000000
-59.224728 -29.470398 6.778673 2.00000000
41.559113 72.392960 5.024200 2.00000000
-26.238449 73.377930 6.808669 2.00000000
13.037857 -68.544518 5.198425 2.00000000
-66.807220 20.520103 5.594284 2.00000000
46.359283 69.623398 4.279933 2.00000000
41.719746 -60.105015 4.232647 2.00000000
32.143299 -64.370064 6.745399 2.00000000
-27.201885 -60.724419 4.369708 2.00000000
-37.290131 -54.524738 5.331232 2.00000000
-7.985179 -67.346275 5.641686 2.00000000
-21.572380 75.461281 4.480069 2.00000000
-67.937767 12.725293 6.352757 2.00000000
-43.055717 -49.932476 6.570323 2.00000000
45.497192 70.171417 4.241345 2.00000000
-37.250149 -54.553833 6.419431 2.00000000
-56.037426 47.033772 6.707540 2.00000000
-61.312950 -25.293877 6.460456 2.00000000
6.177137 80.992615 4.371465 2.00000000
8.930885 80.990540 6.517142 2.00000000
74.979340 -24.669268 4.306093 2.00000000
-65.505844 26.080139 5.450306 2.00000000
5.043439 -68.793610 5.311968 2.00000000
-11.721299 78.695259 4.133096 2.00000000
-49.162014 -43.846989 5.067100 2.00000000
26.989248 -66.012344 6.634032 2.00000000
12.805971 80.754173 5.403199 2.00000000
80.765984 17.257378 3.946264 2.00000000
55.080093 -51.066181 4.145206 2.00000000
70.029396 46.056297 5.702213 2.00000000
46.564518 -57.294987 6.559789 2.00000000
-29.648218 71.589310 5.668675 2.00000000
59.599419 59.145924 5.708094 2.00000000
11.453715 -68.642975 5.352679 2.00000000
81.092216 -2.471557 5.743374 2.00000000
11.131629 -68.662994 4.013567 2.00000000
-29.886969 -59.259960 5.304394 2.00000000
-3.457702 80.306694 3.908193 2.00000000
29.798731 -65.139091 6.329200 2.00000000
45.211758 70.352859 5.963171 2.00000000
50.915634 66.536873 3.962160 2.00000000
52.772766 65.173622 5.103077 2.00000000
31.037500 76.932953 6.852581 2.00000000
46.811749 69.335777 5.646158 2.00000000
39.103821 -61.417995 4.247639 2.00000000
-49.913456 55.174377 4.203054 2.00000000
40.396023 -60.811123 5.825585 2.00000000
-8.612284 79.425529 5.253846 2.00000000
70.844925 44.769066 4.046422 2.00000000
-30.099682 71.341568 6.698949 2.00000000
49.436646 -55.412785 5.265015 2.00000000
-56.037495 -34.839020 4.202303 2.00000000
-34.781715 68.486191 5.770758 2.00000000
62.248814 -44.139915 6.050029 2.00000000
-50.884338 -41.805683 4.493971 2.00000000
-66.769890 -8.522469 5.577490 2.00000000
4.257078 80.985786 5.025318 2.00000000
69.618591 -34.505714 6.865916 2.00000000
-64.800224 -16.249535 6.529376 2.00000000
-63.194168 -20.850313 5.602413 2.00000000
45.774178 -57.795719 6.831460 2.00000000
-5.420591 80.031860 4.698792 2.00000000
69.045586 -35.407112 6.826051 2.00000000
-28.801851 -59.857586 6.539077 2.00000000
14.850019 80.557014 5.291432 2.00000000
81.071709 -2.632959 3.901310 2.00000000
61.338688 57.304832 6.752902 2.00000000
66.236450 -39.350639 6.680422 2.00000000
47.936230 68.620964 6.841380 2.00000000
79.209908 24.787241 3.917333 2.00000000
59.087143 59.627712 4.106155 2.00000000
-40.220993 64.492783 3.989883 2.00000000
67.166550 50.270397 6.776646 2.00000000
5.565849 80.993073 5.659460 2.00000000
-57.489025 44.750271 6.852032 2.00000000
46.661190 -57.233780 3.919314 2.00000000
-68.069481 1.543898 5.906133 2.00000000
81.577766 4.447214 5.007274 2.00000000
81.265648 -1.107078 5.737060 2.00000000
72.160751 42.460346 6.676920 2.00000000
19.972288 -67.610168 6.796487 2.00000000
61.857708 -44.555763 3.988346 2.00000000
-65.609909 25.676104 6.877944 2.00000000
58.854134 -47.657902 5.557241 2.00000000
-42.304161 -50.571533 6.533101 2.00000000
81.579330 6.504905 4.567766 2.00000000
-58.668385 42.679802 5.325827 2.00000000
45.983444 69.862312 5.245965 2.00000000
-4.486680 -67.977364 3.885432 2.00000000
-10.433754 79.024803 4.468584 2.00000000
17.221424 -68.059990 6.217951 2.00000000
-24.380692 74.250420 4.567455 2.00000000
-64.179298 -18.165478 4.875297 2.00000000
78.261108 28.169390 6.351444 2.00000000
-62.189507 -23.393398 3.893027 2.00000000
-64.610603 29.033068 6.672125 2.00000000
76.070625 34.299419 6.726507 2.00000000
-68.206635 7.983065 6.774903 2.00000000
74.243607 38.428780 6.366724 2.00000000
14.545103 80.595772 4.130708 2.00000000
81.544220 8.983588 6.875586 2.00000000
-47.563599 -45.538475 6.700897 2.00000000
37.190113 -62.316750 6.802935 2.00000000
-30.736685 -58.791981 3.970375 2.00000000
80.898849 16.199198 4.032201 2.00000000
-43.767124 -49.263405 6.786297 2.00000000
-68.207542 6.787694 5.463661 2.00000000
60.211891 58.510887 4.955127 2.00000000
41.068283 -60.462513 5.103606 2.00000000
78.714432 -14.513206 4.267024 2.00000000
-66.750664 20.815367 3.950817 2.00000000
-5.948751 79.931526 5.651583 2.00000000
33.876823 75.883247 4.537361 2.00000000
77.878128 29.351124 6.313097 2.00000000
6.139169 -68.794434 6.453810 2.00000000
43.933365 71.085358 6.870317 2.00000000
1.228580 80.797562 6.627552 2.00000000
-64.410255 29.648090 4.293239 2.00000000
19.028633 79.989487 4.039442 2.00000000
-33.006924 -57.414188 6.649820 2.00000000
-67.364265 17.477816 3.990757 2.00000000
-28.681667 72.119720 4.097977 2.00000000
-10.722757 -66.755394 3.888214 2.00000000
22.663778 79.293190 4.877477 2.00000000
-32.095261 70.188225 4.002299 2.00000000
38.304848 73.991119 4.075411 2.00000000
48.068256 68.537033 5.873521 2.00000000
-48.505775 56.732933 5.356308 2.00000000
-18.715345 -64.393898 4.854162 2.00000000
76.485863 -21.052845 6.657928 2.00000000
-62.471977 34.870449 3.948670 2.00000000
-59.216503 -29.485382 5.385379 2.00000000
81.177200 -1.802956 6.752981 2.00000000
-64.109833 -18.379820 5.934419 2.00000000
-55.111919 48.460999 4.401330 2.00000000
43.776978 71.171486 4.230316 2.00000000
25.243250 78.656731 4.300692 2.00000000
-35.663834 67.901672 5.706594 2.00000000
72.639992 -29.391783 4.140071 2.00000000
76.411987 -21.239025 5.704690 2.00000000
-39.056831 65.440483 4.215073 2.00000000
80.731956 -5.306042 6.507166 2.00000000
9.560289 80.960846 5.585928 2.00000000
-34.226864 -56.638702 3.941835 2.00000000
81.446114 10.561957 6.080166 2.00000000
61.211082 -45.243305 4.953117 2.00000000
20.342152 -67.539909 4.114662 2.00000000
-65.396484 26.504734 6.386583 2.00000000
-49.607414 -43.351624 3.966630 2.00000000
-53.054386 51.288467 4.640702 2.00000000
-4.537898 80.171066 6.052290 2.00000000
0.193078 80.733208 6.687259 2.00000000
36.173634 74.971870 5.689339 2.00000000
73.020828 40.893047 3.952326 2.00000000
-15.146170 -65.556580 4.082085 2.00000000
-54.372753 49.476765 4.458584 2.00000000
33.002480 76.230186 4.958948 2.00000000
23.708254 79.052078 3.973819 2.00000000
-50.814369 54.087029 5.124672 2.00000000
-67.346527 -5.446148 5.530358 2.00000000
-20.637489 75.830612 4.071816 2.00000000
-43.126030 -49.866344 5.396248 2.00000000
76.301598 33.714771 5.503880 2.00000000
19.382225 -67.722267 5.969784 2.00000000
-48.855202 56.361404 4.076848 2.00000000
67.354500 50.011307 5.118559 2.00000000
36.517410 -62.632683 4.687080 2.00000000
25.189047 -66.473099 6.607071 2.00000000
-7.262865 -67.484627 6.758595 2.00000000
-35.094025 -56.087463 6.591079 2.00000000
79.614548 -11.018496 5.896983 2.00000000
-37.866081 66.304230 3.914943 2.00000000
78.029739 28.883312 5.435499 2.00000000
54.707447 -51.373993 6.835545 2.00000000
-38.617996 65.758804 5.374259 2.00000000
37.603031 -62.122826 4.807680 2.00000000
-35.114216 -56.074631 5.135368 2.00000000
-62.728909 34.222954 5.327621 2.00000000
68.957214 -35.546131 3.976335 2.00000000
-34.005089 -56.779678 6.288117 2.00000000
57.101852 -49.314240 4.032194 2.00000000
27.258133 -65.943527 5.371552 2.00000000
75.025528 -24.571297 5.420058 2.00000000
27.239721 78.142517 6.831463 2.00000000
73.178024 -28.414862 6.571075 2.00000000
11.764552 80.820488 5.295672 2.00000000
-64.886528 28.186041 5.512999 2.00000000
22.913498 -67.051422 6.865641 2.00000000
79.410706 24.002699 5.014862 2.00000000
-17.215895 -64.882355 4.738094 2.00000000
59.598099 59.147163 6.863623 2.00000000
38.275314 -61.807095 5.471146 2.00000000
-68.208679 5.289581 3.919171 2.00000000
35.742039 75.143127 6.809952 2.00000000
77.677292 29.970827 4.290967 2.00000000
43.177944 -59.304806 5.402794 2.00000000
-66.280014 -10.866646 6.531101 2.00000000
32.170174 76.560448 4.543738 2.00000000
33.051796 76.210617 3.942438 2.00000000
1.523066 80.815865 5.637946 2.00000000
39.622822 73.369720 3.914065 2.00000000
61.685020 56.935471 5.135979 2.00000000
-66.989532 19.568319 4.065723 2.00000000
9.372508 80.972801 4.504277 2.00000000
29.533064 77.423058 4.138226 2.00000000
53.945602 -52.003284 6.657731 2.00000000
-25.329590 -61.607174 5.203308 2.00000000
69.445358 46.978149 4.183422 2.00000000
-3.435231 -68.111000 4.226448 2.00000000
-67.382484 -5.159809 4.293143 2.00000000
34.125473 75.784584 6.636067 2.00000000
0.912951 80.777946 3.893278 2.00000000
-0.552817 -68.477348 6.859878 2.00000000
-47.133068 58.192478 4.617402 2.00000000
31.498842 76.782661 6.017498 2.00000000
-9.106821 79.331581 3.897955 2.00000000
-55.258301 48.259407 6.484492 2.00000000
49.791801 67.354698 6.487237 2.00000000
8.875625 -68.796494 6.832850 2.00000000
10.911157 80.874825 3.989597 2.00000000
68.726151 48.113323 5.057726 2.00000000
-59.074615 41.942181 6.396965 2.00000000
-67.499779 -4.225634 3.914266 2.00000000
64.186333 -41.888409 4.015992 2.00000000
64.847534 53.286072 6.658872 2.00000000
-20.536692 -63.673634 4.485359 2.00000000
-19.995258 76.084328 5.547639 2.00000000
80.304314 -7.664179 4.455921 2.00000000
-68.208595 5.400178 6.853398 2.00000000
53.526924 -52.349117 5.114566 2.00000000
35.663826 -62.979259 4.372343 2.00000000
-66.004440 24.144316 4.904158 2.00000000
-44.947140 60.361965 4.393747 2.00000000
-13.241181 -13.995260 -54.844582 3.00000000
-19.078577 17.804852 -33.046429 3.00000000
26.096453 -14.487089 -38.993153 3.00000000
