-34.527714 3.770831 -37.475933 19.00000000
-56.511868 -28.898918 -7.702443 19.00000000
-56.499130 -28.690365 -22.852427 19.00000000
-43.503414 -2.320822 -35.807144 19.00000000
-42.992149 -1.873260 -16.156860 19.00000000
-56.634319 -30.973259 -6.754499 19.00000000
-41.923054 -0.937378 -5.304741 19.00000000
-22.046497 7.861024 -13.110421 19.00000000
-28.175995 6.268472 -39.674049 19.00000000
-37.292057 2.267305 -2.302670 19.00000000
-52.635693 -14.467064 -60.916645 19.00000000
-53.118340 -15.450165 -22.357691 19.00000000
-55.476032 -22.304911 -37.518803 19.00000000
-53.026829 -15.263772 -32.724258 19.00000000
-55.917747 -24.288223 -60.923561 19.00000000
-56.618305 -31.858721 -40.852116 19.00000000
-31.113226 5.280175 -0.790748 19.00000000
-55.972374 -24.533491 -47.143864 19.00000000
-45.600380 -4.356710 -15.400950 19.00000000
-56.584587 -33.722221 -51.201588 19.00000000
-55.610176 -22.907211 -9.369999 19.00000000
-46.678062 -5.501271 -9.520928 19.00000000
-53.655704 -16.742483 -4.546837 19.00000000
-26.175970 6.791586 -43.769619 19.00000000
-54.953938 -20.419815 -4.352942 19.00000000
-56.170891 -25.852468 3.200238 19.00000000
-36.910820 2.506802 -28.724934 19.00000000
-31.212578 5.237846 -40.309978 19.00000000
-22.190517 7.823726 -57.725418 19.00000000
-55.662548 -23.142370 -10.983460 19.00000000
-39.658726 0.750022 -20.428186 19.00000000
-43.274811 -2.120701 -11.752270 19.00000000
-36.480621 2.749546 -32.038841 19.00000000
-56.599049 -30.326517 -22.754232 19.00000000
-51.870411 -12.908273 2.384402 19.00000000
-56.226124 -26.244215 -53.128506 19.00000000
-40.955345 -0.215302 -39.844116 19.00000000
-47.010242 -5.900821 -43.662739 19.00000000
-56.611645 -32.227055 -31.238691 19.00000000
-21.570047 7.984414 -32.128738 19.00000000
-25.652252 6.927217 -40.766216 19.00000000
-51.789024 -12.770216 -55.968441 19.00000000
-54.301800 -18.372952 -12.800706 19.00000000
-49.032654 -8.455847 -23.767820 19.00000000
-28.841146 6.045339 -4.219474 19.00000000
-43.367920 -2.202209 -28.066416 19.00000000
-26.800865 6.629753 -24.661247 19.00000000
-49.176830 -8.660159 -12.587956 19.00000000
-21.594042 7.978200 -23.508398 19.00000000
-40.646580 0.014572 -7.955728 19.00000000
-53.631580 -16.681608 -11.629702 19.00000000
-55.518200 -22.494238 2.773458 19.00000000
-56.618931 -30.652060 -28.861479 19.00000000
-43.402088 -2.232119 -33.138454 19.00000000
-55.092182 -20.869560 -22.897915 19.00000000
-23.132532 7.579766 3.721415 19.00000000
-28.429291 6.183501 -27.246515 19.00000000
-54.647350 -19.422432 -39.577881 19.00000000
-56.601830 -30.372065 -41.518097 19.00000000
-33.774517 4.146332 -13.089286 19.00000000
-49.258053 -8.775257 -4.384396 19.00000000
-40.022514 0.479185 -17.204233 19.00000000
-55.448730 -22.182308 -47.356628 19.00000000
-55.913071 -24.267212 -48.838276 19.00000000
-49.440487 -9.033788 1.098802 19.00000000
-56.120029 -25.491709 -39.183598 19.00000000
-56.581135 -33.914066 -13.320591 19.00000000
-52.381748 -13.949812 -43.408596 19.00000000
-48.174343 -7.301022 -17.066442 19.00000000
-45.903950 -4.668114 -12.506875 19.00000000
-47.689716 -6.718104 -59.395336 19.00000000
-55.916348 -24.281942 -0.622149 19.00000000
-55.404587 -21.984104 -5.004286 19.00000000
-25.355076 7.004179 -25.712454 19.00000000
-49.955898 -9.764180 -45.178764 19.00000000
-55.576057 -22.754013 -17.324743 19.00000000
-39.504883 0.864560 -4.457527 19.00000000
-56.015453 -24.749983 -53.987713 19.00000000
-26.712294 6.652691 -17.667746 19.00000000
-50.205502 -10.117895 -59.813572 19.00000000
-56.634277 -30.975571 -36.934471 19.00000000
-31.834343 4.972943 -55.273399 19.00000000
-51.717274 -12.649273 -31.498375 19.00000000
-56.265797 -26.525618 -32.357281 19.00000000
-52.845020 -14.893443 -48.244999 19.00000000
-35.501461 3.261604 -34.384060 19.00000000
-55.343933 -21.711771 -21.313244 19.00000000
-55.635040 -23.018850 -55.760403 19.00000000
-45.037712 -3.779525 -61.013241 19.00000000
-44.558697 -3.288149 -18.938898 19.00000000
-32.148418 4.839132 -3.206252 19.00000000
-56.044941 -24.959133 -56.091164 19.00000000
-32.484726 4.695848 -30.096008 19.00000000
-54.742229 -19.731092 -50.713497 19.00000000
-25.696608 6.915730 -48.044540 19.00000000
-36.840126 2.551213 -16.485647 19.00000000
-46.125320 -4.895196 -1.443771 19.00000000
-28.214220 6.255649 -21.126928 19.00000000
-56.525837 -29.127663 -30.174805 19.00000000
-54.068245 -17.783558 -44.351448 19.00000000
-26.872635 6.611166 3.501659 19.00000000
-43.765606 -2.550342 -44.248688 19.00000000
-50.614151 -10.789789 -25.208220 19.00000000
-56.600868 -32.823097 -7.990190 19.00000000
-56.614552 -32.065983 -54.867317 19.00000000
-49.605572 -9.267729 -61.023113 19.00000000
-55.513367 -22.472528 0.138154 19.00000000
-22.111366 7.844224 -7.776741 19.00000000
-56.358200 -27.181000 -36.540253 19.00000000
-33.127506 4.421990 -43.130436 19.00000000
-33.007072 4.473302 -18.164715 19.00000000
-39.943348 0.538124 1.829497 19.00000000
-50.833710 -11.159889 -41.133377 19.00000000
-36.068943 2.964836 -4.025775 19.00000000
-47.456684 -6.437808 -12.510400 19.00000000
-30.906628 5.352448 1.344215 19.00000000
-52.517754 -14.226836 -39.814529 19.00000000
-46.745361 -5.582218 -29.047728 19.00000000
-45.764900 -4.525477 -39.594189 19.00000000
-56.604290 -32.633354 -46.498787 19.00000000
-56.592159 -30.213663 -43.111027 19.00000000
-56.595882 -33.098869 -14.715366 19.00000000
-52.276443 -13.735316 -25.968208 19.00000000
-51.432877 -12.169876 -36.544891 19.00000000
-33.857426 4.111010 -10.583839 19.00000000
-50.905758 -11.281334 -51.292122 19.00000000
-56.622616 -31.620485 -5.087221 19.00000000
-47.735832 -6.773570 -45.245182 19.00000000
-52.939598 -15.086093 -59.361973 19.00000000
-33.088383 4.438659 -59.896797 19.00000000
-54.591160 -19.239624 -25.719055 19.00000000
-56.297050 -26.747290 -58.151531 19.00000000
-54.731964 -19.697689 -33.465652 19.00000000
-47.456741 -6.437878 -61.067142 19.00000000
-52.754654 -14.709380 -12.043489 19.00000000
-44.911240 -3.649790 -38.337364 19.00000000
-56.418648 -27.609743 -52.461563 19.00000000
-37.673618 2.027602 -14.265168 19.00000000
-32.640224 4.629598 -1.341689 19.00000000
-32.102634 4.858637 -51.400024 19.00000000
-44.134602 -2.873362 -34.428967 19.00000000
-26.380930 6.738506 -37.681469 19.00000000
-48.362633 -7.527498 -9.034125 19.00000000
-55.810223 -23.805437 -26.736973 19.00000000
-37.300903 2.261748 -6.694727 19.00000000
-54.108295 -17.884628 -60.291271 19.00000000
-38.752785 1.349658 -18.315048 19.00000000
-55.909214 -24.249910 -37.683464 19.00000000
-49.758430 -9.484349 -2.248737 19.00000000
-32.686321 4.609958 -54.034706 19.00000000
-46.573879 -5.375957 -58.746414 19.00000000
-53.023033 -15.256043 2.582101 19.00000000
-36.492138 2.743523 -23.120331 19.00000000
-56.592529 -33.283920 -23.631435 19.00000000
-50.041550 -9.885562 -27.355867 19.00000000
-47.836498 -6.894652 -57.794098 19.00000000
-40.777790 -0.083112 -46.121265 19.00000000
-56.616875 -31.937578 -58.978058 19.00000000
-56.598785 -32.938107 -20.176332 19.00000000
-22.402094 7.768933 -39.398968 19.00000000
-29.918528 5.683918 -60.521706 19.00000000
-24.107361 7.327309 -24.528793 19.00000000
-44.612911 -3.343762 -12.649475 19.00000000
-22.715719 7.687711 -33.767914 19.00000000
-55.640038 -23.041294 -34.728199 19.00000000
-50.825951 -11.146812 -1.895272 19.00000000
-30.439754 5.509066 -32.508671 19.00000000
-44.050903 -2.800094 -14.275990 19.00000000
-46.255978 -5.029223 -3.418771 19.00000000
-55.416134 -22.035950 -57.461193 19.00000000
-42.897366 -1.790287 -9.978500 19.00000000
-45.880768 -4.644334 3.017008 19.00000000
-30.425175 5.513957 -50.517319 19.00000000
-53.580868 -16.553631 -58.292404 19.00000000
-27.712629 6.393627 -0.717633 19.00000000
-32.565746 4.661329 -37.016449 19.00000000
-45.579025 -4.334805 -31.734835 19.00000000
-24.797066 7.148690 -20.926569 19.00000000
-27.550100 6.435718 -48.032623 19.00000000
-55.334461 -21.669237 -53.813389 19.00000000
-37.969116 1.841968 -22.655865 19.00000000
-48.777016 -8.093575 -2.814145 19.00000000
-56.381481 -27.346144 -56.167461 19.00000000
-44.947655 -3.687146 -7.467863 19.00000000
-42.511387 -1.452403 -59.687881 19.00000000
-51.334145 -12.003451 -17.484800 19.00000000
-28.706194 6.090611 -12.669151 19.00000000
-56.488796 -28.521112 -20.937666 19.00000000
-56.148197 -25.691517 -51.525917 19.00000000
-30.989214 5.324743 -58.587151 19.00000000
-30.512577 5.484637 -53.896320 19.00000000
-51.001427 -11.442598 -55.465668 19.00000000
-51.617153 -12.480505 -52.663227 19.00000000
-55.270287 -21.448973 -18.526756 19.00000000
-48.512497 -7.718725 -50.708855 19.00000000
-30.738382 5.408888 -29.999786 19.00000000
-49.553047 -9.193301 -21.057476 19.00000000
-38.197544 1.698466 -20.892433 19.00000000
-28.396179 6.194609 -17.342108 19.00000000
-56.540462 -29.367153 -51.350372 19.00000000
-47.701515 -6.732295 -42.366940 19.00000000
-55.082836 -20.839159 -38.371048 19.00000000
-49.571259 -9.219108 -25.555162 19.00000000
-52.267284 -13.716657 -49.698040 19.00000000
-53.233658 -15.685056 -30.746864 19.00000000
-36.795624 2.579170 -21.415983 19.00000000
-56.341393 -27.061806 -22.814135 19.00000000
-40.746212 -0.059602 -60.427841 19.00000000
-54.068844 -17.785069 -14.898472 19.00000000
-29.822346 5.716184 -13.842622 19.00000000
-56.578041 -29.982477 -17.753065 19.00000000
-43.393993 -2.225035 -41.940155 19.00000000
-45.705490 -4.464534 -50.136452 19.00000000
-51.256203 -11.872064 -26.383919 19.00000000
-26.558708 6.692466 -58.524410 19.00000000
-53.957737 -17.504686 -8.763631 19.00000000
-25.064058 7.079546 -27.629034 19.00000000
-56.555401 -29.611774 -16.062210 19.00000000
-56.605488 -32.567657 1.483262 19.00000000
-50.038555 -9.881314 -23.933783 19.00000000
-42.816563 -1.719551 -24.646877 19.00000000
-39.234760 1.046875 -28.968168 19.00000000
-51.504025 -12.289807 -42.308872 19.00000000
-31.263044 5.216345 -35.236839 19.00000000
-24.188545 7.306283 -12.649830 19.00000000
-54.129150 -17.937256 -19.516041 19.00000000
-31.554350 5.092234 -17.864714 19.00000000
-56.254570 -26.445972 -24.608194 19.00000000
-55.697559 -23.299576 -33.164894 19.00000000
-53.590157 -16.577072 -20.995199 19.00000000
-34.820740 3.617591 -32.074883 19.00000000
-32.214165 4.811120 -45.640537 19.00000000
-28.350603 6.209898 -7.534342 19.00000000
-21.830282 7.917019 -56.085724 19.00000000
-53.043568 -15.297864 -0.590621 19.00000000
-45.832043 -4.594351 -22.840866 19.00000000
-36.998322 2.451833 -54.836723 19.00000000
-51.058216 -11.538327 -59.068687 19.00000000
-39.594803 0.797614 -55.539307 19.00000000
-47.793507 -6.842941 -10.553108 19.00000000
-47.747723 -6.787875 -28.017893 19.00000000
-27.270760 6.508061 -53.291027 19.00000000
-41.546150 -0.655151 -49.695782 19.00000000
-50.422810 -10.467254 -3.486108 19.00000000
-55.780804 -23.673328 -59.193474 19.00000000
-50.258816 -10.193450 -6.389839 19.00000000
-24.319174 7.272454 -39.340336 19.00000000
-49.163273 -8.640943 -43.549007 19.00000000
-38.367279 1.591836 -24.508795 19.00000000
-51.426388 -12.158936 -24.489113 19.00000000
-42.885983 -1.780322 2.722648 19.00000000
-54.585312 -19.220596 -14.439915 19.00000000
-35.654884 3.181371 -1.937770 19.00000000
-56.531616 -29.222281 -9.823505 19.00000000
-49.656456 -9.339842 -29.027838 19.00000000
-51.673828 -12.576040 -0.551025 19.00000000
-42.079803 -1.074596 -8.665395 19.00000000
-39.699524 0.719648 -50.281563 19.00000000
-56.613873 -32.104027 -10.912463 19.00000000
-37.336369 2.239467 -51.692001 19.00000000
-56.582188 -33.855000 -45.445385 19.00000000
-51.034328 -11.498060 -5.216533 19.00000000
-56.290066 -26.697727 -5.457369 19.00000000
-29.295309 5.892984 -10.304343 19.00000000
-50.795498 -11.095479 -28.010748 19.00000000
-53.743233 -16.963364 -52.067329 19.00000000
-50.136234 -10.019737 2.015781 19.00000000
-56.618633 -31.840590 -15.909996 19.00000000
-44.804977 -3.540785 -5.807209 19.00000000
-32.713497 4.598379 -12.129662 19.00000000
-54.422050 -18.689476 -56.612034 19.00000000
-55.406109 -21.990950 -51.215393 19.00000000
-22.157108 7.832379 -19.509237 19.00000000
-21.867247 7.907446 -37.659496 19.00000000
-55.722294 -23.410625 -13.963045 19.00000000
-39.179657 1.081491 -39.624859 19.00000000
-47.106998 -6.017200 -24.924952 19.00000000
-48.558990 -7.784609 -20.325813 19.00000000
-46.172935 -4.944038 -24.286545 19.00000000
-56.266621 -26.531441 -17.328907 19.00000000
-55.830166 -23.894964 -22.713326 19.00000000
-46.595913 -5.402462 -31.232750 19.00000000
-28.884401 6.030829 -42.263802 19.00000000
-32.106827 4.856852 -13.987753 19.00000000
-56.137508 -25.615690 -30.992403 19.00000000
-35.380211 3.325012 -6.654735 19.00000000
-30.207706 5.586909 -37.060421 19.00000000
-23.055368 7.599750 -17.664337 19.00000000
-23.296545 7.537291 -32.130474 19.00000000
-55.149948 -21.057489 -26.084755 19.00000000
-38.083466 1.770133 -41.254597 19.00000000
-29.375015 5.866246 -1.215565 19.00000000
-40.354710 0.231868 -54.215195 19.00000000
-39.941013 0.539862 -26.614595 19.00000000
-38.101719 1.758664 -3.821705 19.00000000
-31.357883 5.175939 -23.598974 19.00000000
-41.732105 -0.793591 -10.905753 19.00000000
-56.591633 -30.205036 -45.056629 19.00000000
-45.363182 -4.113393 -34.747490 19.00000000
-52.897156 -14.999639 -29.332758 19.00000000
-43.199127 -2.054449 -30.043991 19.00000000
-56.616573 -31.954681 -1.397270 19.00000000
-50.843552 -11.176477 -33.975563 19.00000000
-55.754501 -23.555239 -51.553368 19.00000000
-38.938862 1.232762 -12.894390 19.00000000
-53.632736 -16.684525 -32.068359 19.00000000
-39.553562 0.828315 -30.500795 19.00000000
-28.438032 6.180569 -55.086075 19.00000000
-35.453030 3.286932 3.775221 19.00000000
-40.364712 0.224423 3.530916 19.00000000
-25.387863 6.995688 -15.396760 19.00000000
-52.626846 -14.449046 -13.672576 19.00000000
-35.066246 3.489202 -26.807549 19.00000000
-34.132298 3.977617 -2.340948 19.00000000
-52.313442 -13.810679 -33.786610 19.00000000
-23.816414 7.402657 -16.170401 19.00000000
-50.629059 -10.814918 -38.014641 19.00000000
-36.196972 2.897883 -9.630580 19.00000000
-33.849670 4.114314 -58.127678 19.00000000
-30.272869 5.565050 -7.955076 19.00000000
-50.728943 -10.983291 3.459869 19.00000000
-45.639957 -4.397312 -30.111727 19.00000000
-51.419109 -12.146670 -40.138226 19.00000000
-45.632549 -4.389712 -8.884560 19.00000000
-56.466042 -28.148481 -57.575073 19.00000000
-35.954834 3.024510 -13.343819 19.00000000
-30.784866 5.393294 -46.197906 19.00000000
-55.882862 -24.131578 3.008959 19.00000000
-52.974770 -15.157732 -44.514465 19.00000000
-49.775421 -9.508429 -35.214275 19.00000000
-43.899334 -2.667407 -47.230896 19.00000000
-30.712645 5.417521 3.334586 19.00000000
-41.078541 -0.307020 -33.751209 19.00000000
-56.581562 -33.889835 -34.637493 19.00000000
-55.335915 -21.675764 -11.798065 19.00000000
-56.195698 -26.028404 -10.137569 19.00000000
-56.085892 -25.249592 -58.974380 19.00000000
-53.534218 -16.435898 -2.576649 19.00000000
-39.313431 0.997453 -23.075077 19.00000000
-24.781298 7.152774 -8.452559 19.00000000
-39.942467 0.538781 -25.046560 19.00000000
-55.917084 -24.285244 -29.908722 19.00000000
-43.474510 -2.295519 -19.473167 19.00000000
-51.912952 -12.994927 -35.183529 19.00000000
-54.125252 -17.927422 -10.784004 19.00000000
-54.520836 -19.010843 -17.143675 19.00000000
-56.412052 -27.562973 -9.088742 19.00000000
-27.345215 6.488779 -51.533173 19.00000000
-24.090485 7.331679 -1.138765 19.00000000
-26.734814 6.646859 -26.885624 19.00000000
-53.849628 -17.231867 -46.171925 19.00000000
-24.141800 7.318390 -4.891210 19.00000000
-26.560898 6.691899 -29.094643 19.00000000
-56.520863 -29.046213 -3.561964 19.00000000
-33.682232 4.185650 3.076348 19.00000000
-48.323341 -7.480234 -4.562341 19.00000000
-55.999016 -24.653118 -16.757780 19.00000000
-24.424459 7.245187 -33.856552 19.00000000
-23.415012 7.506611 -48.535194 19.00000000
-28.304184 6.225470 -58.944145 19.00000000
-44.489262 -3.216923 -22.348482 19.00000000
-27.718216 6.392180 -13.810499 19.00000000
-46.526379 -5.318821 -51.308884 19.00000000
-28.397573 6.194141 -46.565430 19.00000000
-44.858021 -3.595197 -33.022621 19.00000000
-41.632458 -0.719405 -13.442432 19.00000000
-41.751930 -0.808353 -18.560684 19.00000000
-52.348289 -13.881655 -30.675037 19.00000000
-30.778696 5.395364 -56.643906 19.00000000
-56.614109 -30.573135 -10.659559 19.00000000
-29.992027 5.659262 -18.032187 19.00000000
-31.620859 5.063897 -60.337460 19.00000000
-25.500753 6.966452 -6.594850 19.00000000
-48.192669 -7.323063 -55.958237 19.00000000
-52.720703 -14.640224 -55.561462 19.00000000
-40.253639 0.307116 -42.561806 19.00000000
-53.060833 -15.333033 -9.679802 19.00000000
-55.249683 -21.381948 -9.061434 19.00000000
-47.684464 -6.711785 -14.440506 19.00000000
-41.304482 -0.475229 -3.697345 19.00000000
-52.393867 -13.974498 -21.120590 19.00000000
-47.169155 -6.091966 -7.994741 19.00000000
-46.720013 -5.551727 -54.680622 19.00000000
-55.181675 -21.160704 -14.256106 19.00000000
-56.498554 -28.680889 -59.131824 19.00000000
-52.131805 -13.440708 -23.830353 19.00000000
-56.473701 -28.273920 2.024026 19.00000000
-51.977299 -13.125988 -6.779056 19.00000000
-29.688456 5.761099 -22.212858 19.00000000
-45.316467 -4.065473 -53.304649 19.00000000
-54.642906 -19.407972 -1.295258 19.00000000
-56.499153 -28.690697 -54.573784 19.00000000
-22.177359 7.827134 -15.235133 19.00000000
-34.372879 3.851802 -30.591661 19.00000000
-51.884907 -12.937794 -2.120730 19.00000000
-40.309891 0.265236 -13.435513 19.00000000
-46.149521 -4.920020 -42.927303 19.00000000
-48.660145 -7.927961 -25.645489 19.00000000
-51.352036 -12.033604 -8.115026 19.00000000
-42.127205 -1.116091 -35.896099 19.00000000
-33.205650 4.388699 -7.167705 19.00000000
-56.550014 -29.523582 -27.630856 19.00000000
-54.766045 -19.808559 -41.207520 19.00000000
-21.986673 7.876517 -5.778290 19.00000000
-56.631187 -31.146454 -47.347652 19.00000000
-30.718359 5.415605 -52.125408 19.00000000
-32.324677 4.764037 -16.562929 19.00000000
-35.221722 3.407895 -48.455185 19.00000000
-42.639626 -1.564662 -40.132412 19.00000000
-42.861153 -1.758586 -34.495281 19.00000000
-51.354321 -12.037457 -57.457420 19.00000000
-56.198654 -26.049395 -42.644581 19.00000000
-55.459438 -22.230396 -7.578793 19.00000000
-56.208767 -26.121103 -19.730555 19.00000000
-41.016850 -0.261090 -55.807922 19.00000000
-27.360775 6.484749 -56.774628 19.00000000
-23.631123 7.450643 -14.315069 19.00000000
-35.862061 3.073025 -51.203949 19.00000000
-55.178329 -21.149820 -32.038513 19.00000000
-38.697861 1.384162 -6.810296 19.00000000
-47.990028 -7.079322 -1.898520 19.00000000
-38.901039 1.256521 -52.360767 19.00000000
-38.344639 1.606061 -47.221153 19.00000000
-36.544689 2.716042 -41.453812 19.00000000
-56.621174 -31.700195 -24.186308 19.00000000
-49.111217 -8.567176 -30.881706 19.00000000
-46.576885 -5.379574 -37.170692 19.00000000
-46.263535 -5.036975 -56.327888 19.00000000
-35.003269 3.522136 0.689773 19.00000000
-33.924660 4.082363 -28.739799 19.00000000
-43.966202 -2.725945 -26.377077 19.00000000
-28.226032 6.251687 -9.289187 19.00000000
-21.606705 7.974920 0.492528 19.00000000
-48.103615 -7.215944 -48.860264 19.00000000
-47.476727 -6.461916 -20.250057 19.00000000
-50.896580 -11.265863 -48.135914 19.00000000
-45.360439 -4.110578 -54.941444 19.00000000
-40.029682 0.473849 -38.194401 19.00000000
-37.114620 2.378772 -45.460747 19.00000000
-47.113461 -6.024972 -0.801593 19.00000000
-54.773838 -19.833923 -52.931820 19.00000000
-37.808662 1.942767 -53.529732 19.00000000
-50.327351 -10.306342 -19.551689 19.00000000
-46.643818 -5.460079 -48.699123 19.00000000
-55.954422 -24.452885 -18.753267 19.00000000
-22.803299 7.665030 -52.475224 19.00000000
-52.374729 -13.935513 -45.441532 19.00000000
-24.648972 7.187044 -52.117184 19.00000000
-35.964409 3.019503 -30.369537 19.00000000
-56.250854 -26.419615 -28.608681 19.00000000
-37.963867 1.845266 1.600148 19.00000000
-56.581181 -33.910740 -43.404346 19.00000000
-56.501907 -28.735825 -5.462393 19.00000000
-54.524467 -19.022659 3.649269 19.00000000
-30.014866 5.651601 -5.577390 19.00000000
-52.260017 -13.701861 -10.796802 19.00000000
-42.731758 -1.645315 -3.833714 19.00000000
-38.212708 1.688940 -49.856400 19.00000000
-33.979488 4.057528 -53.380672 19.00000000
-33.165672 4.405730 -47.278156 19.00000000
-56.023380 -24.806219 1.216552 19.00000000
-33.782887 4.142766 -25.866707 19.00000000
-44.466064 -3.193129 -15.899163 19.00000000
-27.306488 6.498808 -22.671782 19.00000000
-56.585464 -33.674698 -16.198299 19.00000000
-56.026287 -24.826818 -5.817331 19.00000000
-53.079388 -15.370829 -24.817307 19.00000000
-54.204628 -18.127733 -31.952654 19.00000000
-55.569912 -22.726429 -31.514650 19.00000000
-56.610218 -32.305546 -52.912479 19.00000000
-45.047272 -3.789332 -48.504650 19.00000000
-56.578709 -34.047173 -21.375719 19.00000000
-47.939705 -7.018794 -23.873337 19.00000000
-31.031645 5.310509 -10.386813 19.00000000
-56.605980 -30.439987 -31.492899 19.00000000
-49.300716 -8.835719 -15.761820 19.00000000
-50.495502 -10.589786 -49.484467 19.00000000
-51.748493 -12.701898 -60.791409 19.00000000
-36.519997 2.728955 0.672097 19.00000000
-56.506672 -28.813805 -49.664761 19.00000000
-54.675106 -19.512720 -18.852001 19.00000000
-34.989376 3.529401 -11.819665 19.00000000
-53.299404 -15.843337 -36.937920 19.00000000
-56.621826 -30.699465 -3.478904 19.00000000
-36.393833 2.794932 -57.628174 19.00000000
-29.555019 5.805862 -45.374146 19.00000000
-41.146160 -0.357360 -14.926043 19.00000000
-47.534893 -6.531878 -18.495144 19.00000000
-39.523136 0.850968 -41.322788 19.00000000
-55.550037 -22.637180 -49.266716 19.00000000
-53.842728 -17.214451 2.906801 19.00000000
-32.315308 4.768028 3.785805 19.00000000
-53.402290 -16.102976 -47.250168 19.00000000
-46.579239 -5.382406 -52.807632 19.00000000
-55.665131 -23.153967 -15.551588 19.00000000
-54.380363 -18.571209 -4.474816 19.00000000
-38.601063 1.444972 -37.828819 19.00000000
-49.104218 -8.557259 -46.948097 19.00000000
-53.902672 -17.365723 -17.314777 19.00000000
-56.612045 -32.204666 -44.394939 19.00000000
-31.994333 4.904779 -25.093834 19.00000000
-51.212234 -11.797950 -13.201852 19.00000000
-53.490498 -16.325567 -38.675274 19.00000000
-35.571304 3.225078 -61.109112 19.00000000
-33.290325 4.352622 -24.347378 19.00000000
-32.342052 4.756634 -26.765257 19.00000000
-32.748699 4.583381 -22.302975 19.00000000
-37.032673 2.430252 -25.422981 19.00000000
-48.658985 -7.926315 -34.447548 19.00000000
-52.685150 -14.567806 -36.044067 19.00000000
-44.883572 -3.621409 -36.261230 19.00000000
-53.696976 -16.846638 -48.776196 19.00000000
-55.686718 -23.250887 -25.198294 19.00000000
-45.630775 -4.387891 -19.542080 19.00000000
-44.083977 -2.829046 -20.786634 19.00000000
-56.629646 -31.231701 -38.637142 19.00000000
-56.047150 -24.974804 -33.301174 19.00000000
-51.372223 -12.067633 -49.758080 19.00000000
-31.753716 5.007294 -44.168037 19.00000000
-54.733856 -19.703852 -61.035599 19.00000000
-35.299213 3.367370 -24.823887 19.00000000
-56.444668 -27.798512 -27.505310 19.00000000
-56.630745 -31.170883 -27.230013 19.00000000
-26.204634 6.784163 -21.373779 19.00000000
-47.042782 -5.939960 -40.809048 19.00000000
-50.514694 -10.622138 -11.736248 19.00000000
-55.984558 -24.588196 -7.717671 19.00000000
-43.494022 -2.312601 -31.537603 19.00000000
-56.598240 -32.967796 -48.756519 19.00000000
-21.636705 7.967151 -51.200340 19.00000000
-46.638302 -5.453448 -5.490692 19.00000000
-28.110449 6.290461 -28.891718 19.00000000
-54.987873 -20.530222 -43.028465 19.00000000
-54.102646 -17.870367 -27.186852 19.00000000
-22.946478 7.627950 -11.160533 19.00000000
-56.617779 -31.887709 -50.232704 19.00000000
-32.381321 4.739903 -20.254253 19.00000000
-50.947701 -11.352041 -60.727230 19.00000000
-56.508472 -28.843328 -0.320419 19.00000000
-52.023457 -13.220008 -59.207394 19.00000000
-26.987564 6.581402 -4.688400 19.00000000
-34.264000 3.908741 -39.653603 19.00000000
-56.494270 -28.610765 -37.721382 19.00000000
-22.242424 7.810284 -54.095242 19.00000000
-27.625793 6.416116 -30.713312 19.00000000
-51.220127 -11.811252 1.380039 19.00000000
-37.161388 2.349392 -18.455164 19.00000000
-33.844570 4.116485 -16.284372 19.00000000
-53.353786 -15.980576 -13.458969 19.00000000
-50.178917 -10.080223 -39.896851 19.00000000
-46.408298 -5.185476 -35.467510 19.00000000
-21.575270 7.983062 -30.387592 19.00000000
-47.156155 -6.076326 -33.219753 19.00000000
-33.527176 4.251712 -8.889535 19.00000000
-52.684799 -14.567092 -53.830727 19.00000000
-54.508423 -18.970463 -35.583481 19.00000000
-56.602444 -32.735855 -27.870474 19.00000000
-50.125462 -10.004471 -57.965450 19.00000000
-49.300243 -8.835047 3.562056 19.00000000
-48.352795 -7.515661 -22.114708 19.00000000
-43.811726 -2.590715 -17.492132 19.00000000
-52.724209 -14.647368 -6.395003 19.00000000
-56.470776 -28.226007 -45.582668 19.00000000
-53.784981 -17.068716 1.157687 19.00000000
-24.324583 7.271053 -10.330333 19.00000000
-54.744167 -19.737392 -27.489437 19.00000000
-42.873859 -1.769710 1.023051 19.00000000
-46.718521 -5.549936 -27.105116 19.00000000
-37.439186 2.174876 -60.487759 19.00000000
-50.848553 -11.184911 -21.457703 19.00000000
-50.701305 -10.936702 -35.548607 19.00000000
-38.986870 1.202603 0.309307 19.00000000
-32.749260 4.583142 -40.108662 19.00000000
-55.868355 -24.066452 -42.743484 19.00000000
-56.463512 -28.107073 -42.544949 19.00000000
-56.239998 -26.342632 1.699563 19.00000000
-55.507809 -22.447580 -23.491928 19.00000000
-56.579472 -34.005932 -2.958033 19.00000000
-52.159245 -13.496598 3.832858 19.00000000
-21.643820 7.965309 -17.012348 19.00000000
-55.239208 -21.347874 -40.109692 19.00000000
-55.274475 -21.462597 -35.574844 19.00000000
-29.390438 5.861072 -48.484741 19.00000000
-56.576405 -29.955675 -34.671909 19.00000000
-21.927578 7.891822 2.642139 19.00000000
-56.635082 -30.931110 -14.477202 19.00000000
-55.009266 -20.599817 -48.085930 19.00000000
-40.410900 0.190035 -44.422203 19.00000000
-29.197716 5.925724 -52.565907 19.00000000
-39.724709 0.700900 -57.186832 19.00000000
-25.376396 6.998657 -42.262939 19.00000000
-39.708561 0.712920 -2.686455 19.00000000
-47.299610 -6.248877 -49.942791 19.00000000
-23.695482 7.433975 -41.233303 19.00000000
-22.666990 7.700331 -46.934071 19.00000000
-46.236286 -5.009026 -14.095289 19.00000000
-26.529465 6.700039 -19.621468 19.00000000
-44.462559 -3.189532 -57.735416 19.00000000
-56.578606 -34.052673 -37.663170 19.00000000
-53.409004 -16.119915 -56.240578 19.00000000
-56.599140 -32.917816 -57.072723 19.00000000
-56.596272 -30.280998 -1.344365 19.00000000
-56.594429 -33.179115 -17.685499 19.00000000
-53.231956 -15.681590 -26.588785 19.00000000
-42.774204 -1.682472 -47.721836 19.00000000
-53.951111 -17.487959 -39.760288 19.00000000
-23.010155 7.611459 -21.172911 19.00000000
-47.732796 -6.769920 -35.228531 19.00000000
-26.713606 6.652351 -10.378550 19.00000000
-28.815165 6.054055 -50.562534 19.00000000
-52.256908 -13.695529 -19.512604 19.00000000
-56.617168 -31.921722 3.568025 19.00000000
-27.629030 6.415277 -15.568146 19.00000000
-47.412899 -6.385142 -3.795960 19.00000000
-53.457539 -16.242397 -40.495003 19.00000000
-51.197994 -11.773946 -19.446751 19.00000000
-53.856335 -17.248785 -33.486683 19.00000000
-41.575333 -0.676876 -23.715366 19.00000000
-54.790562 -19.888323 -8.261009 19.00000000
-31.379946 5.166539 -4.870164 19.00000000
-56.500896 -28.719250 -26.002214 19.00000000
-48.708878 -7.997019 -32.710426 19.00000000
-51.276062 -11.905541 -11.027689 19.00000000
-56.454128 -27.953424 -19.352280 19.00000000
-42.026085 -1.027570 -29.269602 19.00000000
-56.598015 -32.980621 -33.231964 19.00000000
-54.298126 -18.363684 -30.184872 19.00000000
-52.095772 -13.367304 -41.134857 19.00000000
-55.612595 -22.918066 -45.410118 19.00000000
-34.285637 3.897427 -20.896944 19.00000000
-54.860764 -20.116703 -36.935898 19.00000000
-35.110657 3.465978 -15.362034 19.00000000
-55.057495 -20.756718 -0.542903 19.00000000
-55.917416 -24.286730 -2.774571 19.00000000
-34.628635 3.718054 -35.622005 19.00000000
-35.075607 3.484307 -59.131527 19.00000000
-54.509930 -18.975374 -47.372112 19.00000000
-42.182377 -1.164387 -55.318027 19.00000000
-45.536144 -4.290820 -59.521633 19.00000000
-56.604839 -30.421354 -55.516598 19.00000000
-53.197659 -15.611729 -51.020386 19.00000000
-32.368561 4.745340 -28.389977 19.00000000
-55.929344 -24.340294 -31.823772 19.00000000
-23.983767 7.359317 -54.489902 19.00000000
-56.587154 -33.581066 -26.105946 19.00000000
-54.271381 -18.296192 -7.280050 19.00000000
-37.324169 2.247130 -37.411861 19.00000000
-40.246494 0.312435 -58.667316 19.00000000
-27.125780 6.545608 -34.045204 19.00000000
-43.316002 -2.156759 -61.108948 19.00000000
-48.627956 -7.882344 -60.071625 19.00000000
-55.890842 -24.167412 -57.644192 19.00000000
-35.904957 3.050594 2.173657 19.00000000
-56.390869 -27.412714 -15.084978 19.00000000
-26.070086 6.819008 -39.162983 19.00000000
-56.509346 -28.857630 -31.846375 19.00000000
-54.676941 -19.518686 -31.520676 19.00000000
-25.382973 6.996954 -45.555855 19.00000000
-56.605568 -30.433271 -25.605242 19.00000000
-56.608006 -32.428371 -3.021445 19.00000000
-55.114719 -20.942881 -16.463932 19.00000000
-41.599174 -0.694627 2.103162 19.00000000
-25.716154 6.910668 -53.593784 19.00000000
-53.718498 -16.900946 -0.873720 19.00000000
-52.580173 -14.353979 -27.590540 19.00000000
-24.364452 7.260727 -49.755512 19.00000000
-28.126375 6.285118 -60.579712 19.00000000
-23.495508 7.485764 -56.857277 19.00000000
-29.907396 5.687652 -34.004749 19.00000000
-41.895950 -0.915573 -2.086793 19.00000000
-39.494171 0.872533 -33.265991 19.00000000
-52.434505 -14.057268 -57.805897 19.00000000
-45.620518 -4.377370 -21.197706 19.00000000
-29.888788 5.693894 -25.031681 19.00000000
-53.864010 -17.268154 -25.221815 19.00000000
-42.209755 -1.188353 -0.427601 19.00000000
-56.186436 -25.962725 -8.472206 19.00000000
-48.150715 -7.272597 -7.016329 19.00000000
-51.645306 -12.527959 -21.071377 19.00000000
-44.324852 -3.048271 -59.451683 19.00000000
-26.832441 6.621575 -7.771570 19.00000000
-40.092899 0.426783 -48.342236 19.00000000
-24.993992 7.097691 -22.810623 19.00000000
-55.038704 -20.695585 2.606608 19.00000000
-37.907673 1.880566 -10.658584 19.00000000
-48.047207 -7.148095 -39.912762 19.00000000
-25.009295 7.093728 -59.400387 19.00000000
-44.923393 -3.662256 -3.893538 19.00000000
-39.315769 0.995984 -36.092979 19.00000000
-24.947432 7.109750 -56.300175 19.00000000
-49.319355 -8.862129 -54.814381 19.00000000
-54.845825 -20.068115 -45.922073 19.00000000
-56.581955 -33.868027 -40.488605 19.00000000
-43.621155 -2.423890 -4.924606 19.00000000
-56.447083 -27.838022 -35.020126 19.00000000
-21.992989 7.874882 -41.991566 19.00000000
-53.425655 -16.161938 -15.253565 19.00000000
-56.578957 -34.033741 -29.002541 19.00000000
-40.056870 0.453608 -6.640537 19.00000000
-56.360565 -27.197781 -44.358242 19.00000000
-56.026642 -24.829334 -24.986151 19.00000000
-24.624266 7.193442 -43.700924 19.00000000
-39.921574 0.554334 -10.131463 19.00000000
-52.254932 -13.691500 -47.009693 19.00000000
-56.628326 -31.304533 -12.954306 19.00000000
-24.047096 7.342915 0.920109 19.00000000
-47.819916 -6.874706 -31.956194 19.00000000
-47.883072 -6.950675 -37.422005 19.00000000
-32.353771 4.751641 -49.493420 19.00000000
-50.098373 -9.966087 -46.995914 19.00000000
-56.581558 -33.890587 -10.438064 19.00000000
-34.249107 3.916530 -45.451771 19.00000000
-38.439510 1.546461 -16.860640 19.00000000
-56.451458 -27.909676 -12.056516 19.00000000
-46.514835 -5.304941 1.046954 19.00000000
-54.557224 -19.129223 -54.544586 19.00000000
-27.660200 6.407205 -35.884640 19.00000000
-44.167419 -2.902090 2.079497 19.00000000
-40.957088 -0.216598 -30.275040 19.00000000
-34.662342 3.700427 -19.354292 19.00000000
-24.044113 7.343688 -35.618229 19.00000000
-27.593866 6.424384 -41.251980 19.00000000
-50.423183 -10.467886 -0.396326 19.00000000
-40.883591 -0.161879 -21.926056 19.00000000
-35.829357 3.090128 -56.080475 19.00000000
-53.362778 -16.003263 -7.603432 19.00000000
-44.979458 -3.719766 -46.778503 19.00000000
-23.748518 7.420240 -30.322859 19.00000000
-56.122341 -25.508120 -36.446861 19.00000000
-50.334373 -10.318179 -17.701887 19.00000000
-56.562431 -29.726919 -39.664986 19.00000000
-52.261635 -13.705149 -51.253010 19.00000000
-25.710711 6.912078 -34.622540 19.00000000
-40.372246 0.218814 -19.017019 19.00000000
-40.404362 0.194902 -0.624709 19.00000000
-28.964849 6.003841 -32.571594 19.00000000
-43.021736 -1.899163 -22.049789 19.00000000
-42.380829 -1.338110 -45.025593 19.00000000
-56.121758 -25.503979 -44.406273 19.00000000
-54.043255 -17.720493 -37.071663 19.00000000
-54.763237 -19.799435 -44.413620 19.00000000
-56.609516 -30.497894 -49.224701 19.00000000
-55.986012 -24.594728 -28.191319 19.00000000
-37.622395 2.059782 -39.429031 19.00000000
-21.619501 7.971607 -49.582458 19.00000000
-50.135387 -10.018540 -30.666424 19.00000000
-54.585899 -19.222521 -22.252447 19.00000000
-44.667603 -3.399865 -24.552153 19.00000000
-53.373875 -16.031265 -60.812225 19.00000000
-54.562881 -19.147629 -9.735545 19.00000000
-55.132694 -21.001350 -49.867100 19.00000000
-42.204967 -1.184164 -27.563316 19.00000000
-30.674759 5.430231 -19.735098 19.00000000
-21.814959 7.920987 -35.783417 19.00000000
-48.960842 -8.354081 -10.889556 19.00000000
-56.112331 -25.437115 -22.162382 19.00000000
-49.066841 -8.504292 -57.285622 19.00000000
-54.415161 -18.667067 1.358617 19.00000000
-56.298500 -26.757561 -40.488544 19.00000000
-45.473282 -4.226332 -44.982983 19.00000000
-54.773457 -19.832678 -11.300837 19.00000000
-56.610989 -32.263287 -35.376656 19.00000000
-56.603268 -32.689526 -60.758133 19.00000000
-50.341499 -10.330193 -15.542382 19.00000000
-51.427509 -12.160826 -15.081201 19.00000000
-55.592098 -22.826036 -19.200556 19.00000000
-54.153683 -17.999165 -2.408419 19.00000000
-55.441479 -22.149748 -60.564823 19.00000000
-23.928484 7.373633 -19.390617 19.00000000
-55.715736 -23.381186 -6.358278 19.00000000
-45.559101 -4.314369 -17.424271 19.00000000
-56.580605 -33.942509 -47.508499 19.00000000
-54.992630 -20.545696 -29.354059 19.00000000
-53.701263 -16.857458 -35.399639 19.00000000
-56.344856 -27.086351 -30.137974 19.00000000
-51.812241 -12.809352 -48.385948 19.00000000
-29.159817 5.938437 -19.820398 19.00000000
-56.525280 -29.118546 3.839326 19.00000000
-24.650511 7.186645 3.075070 19.00000000
-51.564041 -12.390972 -45.207352 19.00000000
-56.551430 -29.546734 -13.716493 19.00000000
-48.506405 -7.710091 -29.232111 19.00000000
-54.054260 -17.748268 -41.691841 19.00000000
-22.095842 7.848245 -2.120886 19.00000000
-48.673267 -7.946554 -0.514247 19.00000000
-50.734283 -10.992292 -9.152447 19.00000000
-50.066551 -9.920988 -42.530575 19.00000000
-39.241447 1.042674 -14.512441 19.00000000
-32.321857 4.765237 -41.597412 19.00000000
-51.965977 -13.102930 -54.460255 19.00000000
-54.579414 -19.201414 -58.998260 19.00000000
-55.161041 -21.093573 -58.717495 19.00000000
-47.086784 -5.992886 -38.835686 19.00000000
-48.647533 -7.910087 -52.430164 19.00000000
-49.237965 -8.746792 -39.882828 19.00000000
-47.179565 -6.104487 -22.237600 19.00000000
-46.836597 -5.691962 -15.759963 19.00000000
-52.343174 -13.871242 -17.421465 19.00000000
-46.315430 -5.090210 -7.105742 19.00000000
-55.821793 -23.857384 -20.455765 19.00000000
-56.294453 -26.728859 -48.022396 19.00000000
-34.125515 3.981163 -55.005882 19.00000000
-53.483131 -16.306980 -28.824551 19.00000000
-49.090618 -8.537984 -6.295462 19.00000000
-56.324574 -26.942501 -49.621376 19.00000000
-52.340584 -13.865965 1.208538 19.00000000
-45.107269 -3.850879 0.798768 19.00000000
-56.205517 -26.098055 -34.620338 19.00000000
-53.960098 -17.510645 -54.516552 19.00000000
-56.390663 -27.411270 -2.584702 19.00000000
-32.442478 4.713847 -32.408779 19.00000000
-29.938965 5.677062 -38.916882 19.00000000
-56.591827 -30.208229 -8.486794 19.00000000
-28.761095 62.650185 0.709227 20.00000000
-23.448694 61.822868 -44.364624 20.00000000
-1.013689 43.118790 -51.936413 20.00000000
-0.929676 42.918182 -9.822738 20.00000000
-42.000580 60.914524 -59.490891 20.00000000
-5.194667 50.080841 -15.364207 20.00000000
-15.170052 58.586742 -29.465120 20.00000000
0.376883 37.859535 -48.197853 20.00000000
-3.469111 47.644596 -27.617775 20.00000000
-14.394250 58.150166 -14.393446 20.00000000
-19.638958 60.654743 -6.032141 20.00000000
-21.501074 61.315018 -48.717052 20.00000000
0.783354 34.745647 -1.403773 20.00000000
-0.456536 41.703812 -35.806129 20.00000000
0.832126 34.372017 -27.347233 20.00000000
-30.185663 62.740261 -44.935135 20.00000000
0.885879 33.960228 -58.668434 20.00000000
0.112023 39.888569 -50.712543 20.00000000
-32.271465 62.735134 -53.134579 20.00000000
0.907399 33.795364 -4.209521 20.00000000
-19.192692 60.496426 -15.439835 20.00000000
-7.075888 52.285835 -60.386265 20.00000000
-6.011764 51.059929 -40.623913 20.00000000
-0.164914 40.955330 -10.196887 20.00000000
-28.324570 62.613689 -61.056313 20.00000000
-10.971986 55.825813 -22.081844 20.00000000
0.606725 36.098763 -53.357822 20.00000000
-11.520982 56.263638 -25.293156 20.00000000
-0.960183 42.996483 -6.811670 20.00000000
-21.763824 61.383533 -55.129028 20.00000000
-45.977589 59.251930 -30.364401 20.00000000
-13.597623 57.679527 -30.719036 20.00000000
-32.907146 62.713982 -21.215294 20.00000000
-18.485394 60.211124 -37.665722 20.00000000
-21.874928 61.412502 -11.903845 20.00000000
-3.333675 47.420284 -25.033606 20.00000000
-24.069916 61.984852 -38.516083 20.00000000
-19.434681 60.582272 -57.466587 20.00000000
-22.518469 61.580311 -45.605644 20.00000000
-30.039080 62.740620 -48.134998 20.00000000
-10.389701 55.350819 -35.527351 20.00000000
-31.558838 62.736885 -13.572328 20.00000000
-34.539043 62.569557 -20.011185 20.00000000
-36.572338 62.295868 -22.503035 20.00000000
-1.527518 44.162830 -29.317896 20.00000000
0.176463 39.394905 -34.167549 20.00000000
-8.811308 53.995258 -6.521542 20.00000000
0.248486 38.843155 -23.201351 20.00000000
-45.414326 59.511364 -0.313824 20.00000000
-1.218637 43.535217 -44.742195 20.00000000
-41.006065 61.271168 -45.583054 20.00000000
-13.179695 57.394577 -47.308643 20.00000000
0.448832 37.308350 -43.589821 20.00000000
-29.330811 62.697811 -19.855804 20.00000000
-3.339047 47.429180 -31.491772 20.00000000
-1.343024 43.787960 -20.635593 20.00000000
-3.496342 47.689701 -7.733053 20.00000000
-3.523215 47.734207 -46.715656 20.00000000
-17.566662 59.793392 -13.225392 20.00000000
-13.465113 57.589180 -16.424181 20.00000000
-12.567489 56.977165 -39.576687 20.00000000
-37.441021 62.143089 -24.009604 20.00000000
-41.847126 60.969807 -14.582923 20.00000000
-36.712193 62.271271 -55.370434 20.00000000
-8.306778 53.505936 -13.106498 20.00000000
-33.169018 62.690804 -31.223022 20.00000000
0.901009 33.844318 -40.441956 20.00000000
-1.390449 43.884319 -17.231960 20.00000000
-6.278832 51.367599 -42.501644 20.00000000
-28.696930 62.644821 3.863883 20.00000000
-39.366329 61.707291 -0.624294 20.00000000
-12.280419 56.781433 -30.297741 20.00000000
-44.271603 60.037693 -35.536060 20.00000000
0.437075 37.398415 -32.599068 20.00000000
-0.904695 42.854065 -32.495701 20.00000000
-2.069001 45.263058 -20.659700 20.00000000
-12.762270 57.109970 -19.372644 20.00000000
-27.388088 62.535404 -33.717140 20.00000000
-7.344276 52.572441 -45.172539 20.00000000
-42.095432 60.880352 -7.092363 20.00000000
-35.190498 62.511902 -11.805246 20.00000000
-1.079478 43.252464 -54.644104 20.00000000
0.592468 36.207981 -27.123159 20.00000000
-25.964798 62.323666 -22.976391 20.00000000
-12.886080 57.194386 -59.683113 20.00000000
-24.563662 62.084229 -48.376274 20.00000000
-22.499952 61.575481 -51.838264 20.00000000
-26.299873 62.380928 -39.250336 20.00000000
-33.132381 62.694050 -40.468712 20.00000000
-43.474129 60.383656 -50.223873 20.00000000
-16.636223 59.370338 -44.070042 20.00000000
-36.565056 62.297150 -50.971222 20.00000000
-3.459042 47.627922 -11.354125 20.00000000
-11.392635 56.168953 -14.349424 20.00000000
-10.993104 55.843040 -12.656814 20.00000000
-31.896820 62.736053 -55.129066 20.00000000
-3.261733 47.301128 -60.483147 20.00000000
-6.803130 51.971607 -8.507301 20.00000000
-32.627079 62.734261 -33.799274 20.00000000
-1.828042 44.773460 -51.214054 20.00000000
-10.790069 55.677414 3.811465 20.00000000
-18.618525 60.271656 -3.816958 20.00000000
-44.080856 60.125549 -42.772598 20.00000000
-1.394420 43.892387 -33.738083 20.00000000
-21.828798 61.400475 -4.576656 20.00000000
-8.400905 53.597225 -15.130919 20.00000000
-29.648247 62.724346 -49.682919 20.00000000
-30.989332 62.738285 -16.065706 20.00000000
-29.363655 62.700558 -40.577442 20.00000000
-2.157947 45.443787 -60.841522 20.00000000
-43.480282 60.381439 -24.132574 20.00000000
-12.165256 56.702915 -23.743654 20.00000000
-46.219498 59.140511 -23.327192 20.00000000
-25.828623 62.300396 -2.365588 20.00000000
-44.863918 59.764877 -1.975668 20.00000000
-3.606842 47.872715 -3.038237 20.00000000
-28.106939 62.595497 -47.510761 20.00000000
-27.953178 62.582645 -11.557483 20.00000000
-14.209579 58.046242 -6.891043 20.00000000
-1.739994 44.594555 -36.884598 20.00000000
0.649844 35.768436 -19.558361 20.00000000
-14.913241 58.442223 -31.168409 20.00000000
-14.190966 58.035767 -41.224457 20.00000000
-41.974018 60.924091 -39.094086 20.00000000
-44.603718 59.884724 -23.075466 20.00000000
0.491057 36.984867 -2.162248 20.00000000
-15.392213 58.711761 -60.892529 20.00000000
-4.424784 49.022781 -9.463909 20.00000000
-20.777098 61.058514 -56.657696 20.00000000
-38.401917 61.963795 -42.938152 20.00000000
-40.966988 61.281563 3.662971 20.00000000
-4.614000 49.282822 -2.782207 20.00000000
-10.070105 55.090111 -55.572159 20.00000000
-13.336115 57.501228 -57.807438 20.00000000
-33.896442 62.626427 -46.233955 20.00000000
-1.308850 43.718521 -61.111683 20.00000000
-12.681467 57.054874 -34.307117 20.00000000
-22.405605 61.550880 -59.509594 20.00000000
-28.754841 62.649662 -35.740967 20.00000000
-3.542506 47.766159 -51.501381 20.00000000
-32.695320 62.732727 -0.221754 20.00000000
-38.476936 61.943844 -28.121071 20.00000000
0.193828 39.261875 -9.729243 20.00000000
-0.590737 42.048256 -5.363794 20.00000000
-10.198052 55.194481 -53.761395 20.00000000
-32.661488 62.734177 -25.935627 20.00000000
-24.248220 62.030327 -6.415702 20.00000000
0.527248 36.707623 -59.536678 20.00000000
-0.203562 41.054527 0.598683 20.00000000
-9.399077 54.542725 -30.981367 20.00000000
0.775410 34.806507 -24.038376 20.00000000
-41.792850 60.989361 -23.907438 20.00000000
-5.704082 50.705467 -8.430139 20.00000000
-28.854559 62.657997 -16.940754 20.00000000
-28.117556 62.596386 -18.415405 20.00000000
0.223722 39.032864 -7.064542 20.00000000
-16.525620 59.320053 -16.842943 20.00000000
-28.440010 62.623341 -24.200798 20.00000000
-39.603195 61.644291 -4.151631 20.00000000
-3.997197 48.435143 -58.628105 20.00000000
-0.664716 42.238129 -60.124924 20.00000000
-1.636283 44.383827 -56.610058 20.00000000
-7.530348 52.752907 0.072293 20.00000000
-17.691692 59.850243 -56.038074 20.00000000
-20.787750 61.062294 -35.353886 20.00000000
0.662197 35.673809 -58.013401 20.00000000
-3.879605 48.273533 -4.680560 20.00000000
-20.825665 61.075745 -8.353360 20.00000000
0.859379 34.163239 -10.241726 20.00000000
-6.113417 51.177036 -25.368559 20.00000000
-15.408937 58.721176 -27.259935 20.00000000
-13.742099 57.778034 -51.210983 20.00000000
-8.968341 54.147560 -16.584501 20.00000000
-0.684698 42.289417 -30.494303 20.00000000
-22.338921 61.533489 -35.937695 20.00000000
-45.834858 59.317673 -4.279892 20.00000000
-17.011587 59.541012 -57.826641 20.00000000
-11.905509 56.525814 -50.424778 20.00000000
-43.268539 60.457722 -41.034939 20.00000000
-11.597249 56.315636 -44.520889 20.00000000
-0.707717 42.348495 -19.412474 20.00000000
-2.284863 45.683193 0.358892 20.00000000
-46.000771 59.241253 1.465093 20.00000000
-1.160776 43.417652 -41.843235 20.00000000
-4.960447 49.758949 -41.210705 20.00000000
-11.443966 56.210827 -7.029883 20.00000000
-12.265382 56.771183 -28.107126 20.00000000
-18.347008 60.148201 -0.621729 20.00000000
-14.723083 58.335213 -20.758179 20.00000000
-18.597158 60.261940 -10.854086 20.00000000
-45.862339 59.305016 -11.773603 20.00000000
-45.437374 59.500748 -43.902679 20.00000000
-46.098400 59.196285 -19.834530 20.00000000
-44.555691 59.906845 -39.466381 20.00000000
-23.295424 61.782902 -50.383942 20.00000000
-9.519959 54.641331 -39.594723 20.00000000
-21.924238 61.425362 -1.009430 20.00000000
-24.015911 61.970772 -54.593868 20.00000000
-25.546572 62.252197 -32.181839 20.00000000
-11.602408 56.319153 -32.042858 20.00000000
-39.386063 61.702042 -46.924366 20.00000000
-18.003075 59.991821 -59.493240 20.00000000
-26.556757 62.424828 -44.579597 20.00000000
-25.845404 62.303265 -34.663284 20.00000000
-12.778248 57.120865 -55.273270 20.00000000
-42.561462 60.712460 -19.482258 20.00000000
-45.702114 59.378815 -26.462408 20.00000000
-16.694639 59.396900 3.720373 20.00000000
-20.539274 60.974144 -13.764736 20.00000000
0.203086 39.190952 -38.818832 20.00000000
-37.113113 62.200760 -56.857513 20.00000000
0.833378 34.362427 -29.187872 20.00000000
-32.857529 62.718372 -56.651073 20.00000000
-10.339452 55.309826 -27.834486 20.00000000
-3.652284 47.947975 -38.735424 20.00000000
-38.910942 61.828411 -12.800925 20.00000000
-32.076191 62.735615 -36.046600 20.00000000
-28.469486 62.625805 -43.887241 20.00000000
-26.949535 62.491947 -28.443636 20.00000000
-30.556925 62.739349 -21.005091 20.00000000
-0.680223 42.277931 -1.534488 20.00000000
-33.578201 62.654591 -54.779106 20.00000000
0.868729 34.091606 -14.801102 20.00000000
-29.251415 62.691174 -46.360523 20.00000000
0.459904 37.223530 -24.125862 20.00000000
-23.348354 61.796703 -17.176712 20.00000000
-33.892799 62.626751 3.557440 20.00000000
-0.552248 41.949467 -53.413555 20.00000000
-0.089742 40.762394 -29.934471 20.00000000
-1.787225 44.690525 -40.123329 20.00000000
0.045898 40.395138 -8.143516 20.00000000
-10.303345 55.280373 -6.302952 20.00000000
-7.997619 53.206097 -39.150249 20.00000000
-5.205947 50.096344 -36.210968 20.00000000
-46.190495 59.153870 -39.335209 20.00000000
-38.666054 61.893543 -51.185097 20.00000000
-43.000450 60.554306 -34.453728 20.00000000
-7.519007 52.741905 -53.894699 20.00000000
-30.831573 62.738674 -43.302456 20.00000000
-40.691273 61.354893 -41.165260 20.00000000
-9.555322 54.670177 -29.175053 20.00000000
0.892966 33.905933 2.783716 20.00000000
-37.449268 62.141640 -32.292427 20.00000000
-28.655359 62.641346 -4.188960 20.00000000
-46.102287 59.194496 -53.260712 20.00000000
-35.002682 62.528522 -50.324867 20.00000000
-11.334370 56.121426 -0.542207 20.00000000
-2.398081 45.870708 -54.679890 20.00000000
-39.833584 61.583015 -36.380936 20.00000000
-2.418496 45.904522 2.857786 20.00000000
-43.774952 60.266445 -53.837940 20.00000000
-1.128880 43.352844 -4.403039 20.00000000
-8.108511 53.313644 -46.602394 20.00000000
-32.512074 62.734543 -29.031876 20.00000000
-4.831988 49.582405 -34.329060 20.00000000
-41.248936 61.185314 -32.682312 20.00000000
-17.846210 59.920498 2.245886 20.00000000
-6.144662 51.213032 -37.030075 20.00000000
-9.255972 54.425987 -11.033705 20.00000000
-24.322939 62.043095 -11.301432 20.00000000
-44.220795 60.061096 -19.924347 20.00000000
-20.363043 60.911621 -1.651686 20.00000000
-40.256485 61.470535 -11.639210 20.00000000
-6.705565 51.859211 -35.317551 20.00000000
-7.135464 52.354469 -1.410119 20.00000000
0.207027 39.160763 -45.004021 20.00000000
0.044459 40.406162 -1.222378 20.00000000
-5.780947 50.794018 -53.375771 20.00000000
-5.898878 50.929878 3.228141 20.00000000
-14.351386 58.126041 -10.822037 20.00000000
-45.913029 59.281670 -32.643978 20.00000000
-14.301232 58.097820 0.635312 20.00000000
-7.295300 52.524944 -41.134827 20.00000000
-0.007931 40.552414 -59.763412 20.00000000
-37.809410 62.078300 -4.168832 20.00000000
-27.325560 62.530178 -21.689760 20.00000000
-17.201891 59.627541 -48.007481 20.00000000
-5.497535 50.467518 -44.801373 20.00000000
-0.035208 40.622421 -39.687138 20.00000000
-4.533549 49.172256 -39.560692 20.00000000
0.518457 36.774963 -5.688037 20.00000000
-3.964298 48.389927 -40.990719 20.00000000
-46.198929 59.149982 -54.994698 20.00000000
-19.531309 60.616554 -24.141577 20.00000000
-44.680946 59.849155 -48.168415 20.00000000
