0.465339 0.045412 0.017908
0.465339 -0.081468 -0.036457
0.465339 0.063708 -0.000177
0.465339 0.051274 -0.045163
0.465339 -0.025973 -0.064443
0.465339 0.009735 0.056811
0.465339 0.059790 -0.005826
0.465339 -0.067527 0.073284
0.465339 -0.008093 0.001974
0.465339 -0.079095 0.060303
0.465339 0.003487 -0.038519
0.465339 0.066050 -0.068569
0.465339 -0.041667 -0.025888
0.465339 -0.070766 -0.016332
0.465339 -0.010551 0.022646
0.465339 0.053774 -0.027714
0.465339 -0.010794 0.061670
0.465339 -0.010120 -0.055498
0.465339 0.015303 0.075459
0.465339 -0.080528 0.056815
0.465339 -0.018182 0.031708
0.465339 -0.020255 0.086668
0.465339 0.067073 -0.003322
0.465339 0.034982 -0.086244
0.465339 -0.076303 0.051634
0.465339 0.061096 0.005989
0.465339 -0.037976 0.004292
0.465339 -0.058322 -0.079403
0.465339 0.038688 -0.061104
0.465339 0.018309 0.057660
0.465339 0.076075 0.008721
0.465339 0.092899 -0.023961
0.465339 -0.000612 0.049495
0.465339 0.039488 -0.039235
0.465339 0.039541 0.086307
0.465339 -0.057305 -0.036680
0.465339 -0.029396 0.058570
0.465339 0.055289 -0.062622
0.465339 0.010198 0.093251
0.465339 -0.006929 -0.060001
0.465339 0.031807 -0.013554
0.465339 0.013424 0.062397
0.465339 0.001239 0.076918
0.465339 -0.024722 -0.053240
0.465339 0.024603 0.043131
0.465339 0.006580 -0.049833
0.465339 -0.024596 -0.076764
0.465339 0.015108 -0.095865
0.465339 -0.045330 0.079830
0.465339 -0.032835 -0.049471
0.465339 0.031650 0.083440
0.465339 0.091996 0.032945
0.465339 0.030041 -0.004672
0.465339 0.013684 -0.018379
0.465339 -0.046315 -0.017766
0.465339 -0.094953 -0.004260
0.465339 0.086409 0.029797
0.465339 0.028962 -0.002112
0.465339 0.052002 -0.040392
0.465339 -0.063066 0.030447
0.465339 0.094038 -0.002584
0.465339 0.072756 0.062040
0.465339 -0.030377 0.051542
0.465339 0.044277 -0.035947
0.465339 -0.020297 -0.004315
0.465339 -0.012664 0.070033
0.465339 0.084469 0.011201
0.465339 -0.047894 0.030252
0.465339 0.011428 0.012774
0.465339 0.046888 0.025223
0.465339 0.051424 0.013700
0.465339 0.037953 -0.073690
0.465339 0.089036 0.013796
0.465339 -0.030039 0.018312
0.465339 0.018684 -0.005284
0.465339 0.049521 -0.037942
0.465339 -0.070710 0.025003
0.465339 -0.048919 0.025383
0.465339 0.053200 -0.010477
0.465339 0.012971 0.007843
0.465339 0.044100 0.069474
0.465339 0.037415 -0.078226
0.465339 -0.024860 -0.088442
0.465339 0.087309 0.022863
0.465339 0.016816 -0.051212
0.465339 0.006015 -0.060628
0.465339 -0.017635 0.096703
0.465339 -0.002755 -0.016425
0.465339 0.095697 -0.023375
0.465339 -0.024739 -0.062728
0.465339 -0.030532 0.031352
0.465339 -0.093958 -0.022679
0.465339 0.056142 0.069272
0.465339 0.027758 -0.079680
0.465339 -0.043173 0.043132
0.465339 -0.076124 0.007508
0.465339 0.036067 0.041790
0.465339 0.078402 -0.037879
0.465339 0.082395 0.018502
0.465339 -0.077633 -0.013330
0.465339 0.011423 -0.087634
0.465339 0.083619 0.044816
0.465339 -0.028700 -0.058128
0.465339 0.025478 -0.011349
0.465339 0.040002 -0.060363
0.465339 0.076785 -0.034301
0.465339 -0.045730 -0.018967
0.465339 0.053134 0.063795
0.465339 0.025974 0.013439
0.465339 -0.021383 -0.002135
0.465339 0.059741 0.065525
0.465339 -0.013749 0.046614
0.465339 -0.030102 -0.017970
0.465339 -0.014908 0.002561
0.465339 0.087803 -0.033061
0.465339 -0.004659 0.040698
0.465339 -0.073685 0.050791
0.465339 -0.094014 -0.005624
0.465339 -0.051556 0.051690
0.465339 0.085887 -0.012282
0.465339 0.088297 -0.009244
0.465339 -0.045360 -0.059418
0.465339 -0.083928 -0.008246
0.465339 0.099138 0.009723
0.465339 0.070118 -0.041074
0.465339 0.075822 0.022027
0.465339 0.016183 -0.018340
0.465339 0.019312 0.079255
0.465339 0.083312 -0.044501
0.465339 -0.038794 -0.005714
0.465339 0.088406 -0.035891
0.465339 -0.034003 0.027525
0.465339 0.062119 -0.065643
0.465339 0.068834 -0.003246
0.465339 0.002935 0.094301
0.465339 0.078258 -0.040293
0.465339 -0.009424 0.044833
0.465339 0.075966 0.051254
0.465339 -0.014154 0.061879
0.465339 0.044089 -0.037360
0.465339 0.039073 0.018933
0.465339 -0.000511 -0.022397
0.465339 -0.080687 0.020620
0.465339 0.001460 -0.079114
0.465339 -0.067219 0.068965
0.465339 -0.071223 -0.061886
0.465339 -0.003130 0.072600
0.465339 0.050525 -0.025134
0.465339 -0.054547 -0.028896
0.465339 -0.002537 0.077290
0.465339 0.002216 0.042827
0.465339 0.056981 -0.031006
0.465339 0.071826 0.040958
0.465339 -0.076958 -0.027481
0.465339 -0.023037 0.047075
0.465339 0.016985 -0.058585
0.465339 0.014259 0.031285
0.465339 -0.003642 -0.010313
0.465339 0.000008 0.087883
0.465339 0.007170 -0.074541
0.465339 0.033742 -0.033514
0.465339 -0.069391 -0.058662
0.465339 -0.022425 0.088388
0.465339 -0.071419 -0.033607
0.465339 -0.023453 -0.009551
0.465339 -0.031969 0.021643
0.465339 0.057520 0.080109
0.465339 -0.069316 -0.011215
0.465339 0.058161 -0.078449
0.465339 -0.011525 -0.015075
0.465339 -0.053013 0.041115
0.465339 -0.042798 -0.080258
0.465339 0.064044 -0.064354
0.465339 0.000389 0.092232
0.465339 -0.010201 0.096827
0.465339 0.036668 0.077313
0.465339 -0.072286 -0.003791
0.465339 0.044526 -0.065269
0.465339 0.054063 0.004927
0.465339 0.013922 -0.064435
0.465339 -0.007692 -0.002188
0.465339 -0.012535 -0.019401
0.465339 -0.046619 0.029410
0.465339 0.070022 0.034440
0.465339 -0.002226 -0.090258
0.465339 0.079629 0.030339
0.465339 -0.039958 0.029798
0.465339 -0.024092 -0.010828
0.465339 -0.009099 -0.060067
0.465339 -0.065948 -0.029686
0.465339 0.055782 0.016245
0.465339 -0.070544 0.058624
0.465339 0.016620 -0.022440
0.465339 -0.083814 -0.017483
0.465339 0.062043 -0.049194
0.465339 0.074446 0.052313
0.465339 0.075515 -0.006764
0.465339 -0.074061 -0.039699
0.465339 0.041349 0.052692
0.465339 -0.094901 -0.019574
0.465339 0.052819 0.034653
0.465339 -0.087061 -0.023041
0.465339 -0.062566 -0.058044
0.465339 -0.076079 0.064476
0.465339 -0.066452 0.016762
0.465339 -0.033042 0.048755
0.465339 0.097135 0.006493
0.465339 0.004218 0.063582
0.465339 -0.019297 -0.038216
0.465339 0.096831 -0.018998
0.465339 0.051680 -0.076126
0.465339 0.038557 0.066988
0.465339 -0.081623 0.013649
0.465339 -0.031635 0.003599
0.465339 -0.089963 -0.036117
0.465339 -0.053982 0.021086
0.465339 -0.004675 -0.008501
0.465339 0.025080 0.030058
0.465339 0.025155 -0.075947
0.465339 0.060463 -0.039598
0.465339 -0.011151 -0.073232
0.465339 -0.053994 0.036128
0.465339 -0.087363 0.020236
0.465339 0.049254 0.067496
0.465339 -0.000178 0.028393
0.465339 -0.036112 -0.017942
0.465339 -0.077427 -0.056388
0.465339 0.050356 -0.027543
0.465339 0.059892 0.070664
0.465339 -0.088264 -0.026983
0.465339 -0.069837 -0.051218
0.465339 -0.024044 0.031041
0.465339 0.072667 0.068712
0.465339 0.014246 0.015566
0.465339 -0.074356 -0.009820
0.465339 0.012511 -0.045075
0.465339 0.081846 0.009547
0.465339 -0.032122 0.005376
0.465339 0.039778 -0.049206
0.465339 -0.052333 0.021766
0.465339 0.063486 0.043898
0.465339 0.007055 0.060544
0.465339 -0.028338 0.006279
0.465339 0.040222 -0.058642
0.465339 -0.034900 0.093495
0.465339 0.029135 0.062159
0.465339 0.041395 -0.059927
0.465339 -0.067029 0.071099
0.465339 -0.049351 -0.058613
0.465339 0.089654 -0.019541
0.465339 0.026390 0.054605
0.465339 0.050938 0.047646
0.465339 0.055135 -0.055334
0.465339 -0.002819 0.088885
0.465339 -0.000935 0.068216
0.465339 -0.072146 -0.024525
0.465339 0.064580 -0.055626
0.465339 0.058131 0.054099
0.465339 -0.001280 -0.040463
0.465339 -0.034913 -0.087704
0.465339 -0.085044 -0.015176
0.465339 -0.038223 -0.040933
0.465339 -0.028966 -0.060919
0.465339 0.013287 0.092905
0.465339 -0.013514 0.041303
0.465339 -0.080677 -0.009033
0.465339 0.068242 0.020463
0.465339 -0.061567 -0.059353
0.465339 -0.073051 0.045280
0.465339 0.017118 -0.089398
0.465339 -0.023211 -0.057417
0.465339 0.034592 -0.062701
0.465339 0.002977 0.040546
0.465339 0.021386 0.006901
0.465339 -0.084389 -0.032681
0.465339 -0.047548 0.057966
0.465339 -0.020573 0.068705
0.465339 -0.066341 0.039694
0.465339 0.069793 -0.004635
0.465339 0.071828 -0.068152
0.465339 -0.095509 -0.001921
0.465339 -0.001972 -0.062192
0.465339 -0.012176 0.038963
0.465339 0.070057 0.036500
0.465339 0.036451 0.047710
0.465339 -0.011558 0.056896
0.465339 -0.005461 -0.091224
0.465339 0.075114 -0.044752
0.465339 0.042317 0.085447
0.465339 -0.015040 0.029534
0.465339 -0.006775 -0.089640
0.465339 -0.016169 -0.025516
0.465339 -0.034344 -0.008526
0.465339 -0.058056 -0.023206
0.465339 0.058611 -0.039486
0.465339 -0.075487 0.032785
0.465339 0.044971 -0.009570
0.465339 0.082810 0.015297
0.465339 0.059000 0.047504
0.465339 0.055287 0.077721
0.465339 0.011987 0.040906
0.465339 -0.003464 0.050283
0.465339 0.050286 0.035088
0.465339 0.011341 -0.084399
0.465339 -0.035457 0.046572
0.465339 -0.080722 -0.039620
0.465339 -0.014315 -0.074511
0.465339 0.022295 -0.063600
0.465339 -0.008124 -0.057735
0.465339 -0.005911 0.022633
0.465339 -0.057465 -0.002618
0.465339 0.077204 0.042338
0.465339 -0.090983 0.024105
0.465339 -0.013043 -0.025566
0.465339 -0.021919 -0.008985
0.465339 -0.077696 -0.030823
0.465339 -0.021241 0.067232
0.465339 -0.000678 0.058445
0.465339 0.096520 0.025815
0.465339 0.054281 0.078987
0.465339 0.074822 -0.017695
0.465339 -0.040057 0.057050
0.465339 -0.040293 0.088801
0.465339 -0.006560 -0.000638
0.465339 0.001058 0.099665
0.465339 0.016225 -0.080963
0.465339 -0.019518 -0.058549
0.465339 -0.035512 0.028161
0.465339 -0.080107 0.035986
0.465339 0.004316 0.057527
0.465339 -0.053675 -0.052923
0.465339 0.083914 -0.040349
0.465339 0.036841 0.049847
0.465339 -0.037626 -0.064650
0.465339 0.016228 -0.087272
0.465339 -0.071276 0.001717
0.465339 0.050599 0.010656
0.465339 0.087069 -0.031902
0.465339 -0.001316 0.053070
0.465339 -0.060130 0.060914
0.465339 -0.012674 0.077724
0.465339 -0.047862 0.019160
0.465339 0.039490 -0.010209
0.465339 0.053737 -0.051131
0.465339 0.024666 -0.029771
0.465339 0.037445 0.056025
0.465339 0.082985 0.047841
0.465339 0.049402 0.086693
0.465339 0.044585 0.071874
0.465339 0.075261 -0.048584
0.465339 -0.083447 0.046445
0.465339 -0.023494 0.094154
0.465339 -0.092111 0.022776
0.465339 0.043304 -0.020414
0.465339 -0.022367 -0.050718
0.465339 0.010533 -0.036709
0.465339 0.018668 -0.037364
0.465339 -0.009381 -0.046526
0.465339 0.005423 -0.086974
0.465339 0.009136 0.070290
0.465339 -0.087634 0.003654
0.465339 0.077227 -0.011323
0.465339 0.031974 -0.011884
0.465339 -0.082519 0.031654
0.465339 -0.002374 -0.030109
0.465339 -0.014036 0.011139
0.465339 -0.037416 -0.089962
0.465339 -0.020359 0.029270
0.465339 -0.009568 -0.019655
0.465339 -0.005164 0.074873
0.465339 0.099861 0.002324
0.465339 0.013648 -0.010395
0.465339 -0.077292 0.045309
0.465339 -0.085423 0.032461
0.465339 0.013502 -0.035197
0.465339 -0.041173 -0.031806
0.465339 0.029351 0.023392
0.465339 -0.023923 0.032798
0.465339 -0.049326 -0.032114
0.465339 0.075641 -0.061750
0.465339 0.080117 0.057124
0.465339 -0.079406 0.048393
0.465339 -0.094897 0.002442
0.465339 -0.013779 -0.086394
0.465339 -0.038490 0.018934
0.465339 0.039722 0.052289
0.465339 -0.057868 0.039845
0.465339 0.065449 -0.063681
0.465339 0.022986 0.066565
0.465339 -0.029529 -0.024931
0.465339 0.002093 0.047723
0.465339 -0.067955 -0.009863
0.465339 -0.063088 0.005821
0.465339 0.031729 -0.033558
0.465339 0.028561 0.091741
0.465339 -0.083912 -0.028815
0.465339 0.032641 -0.072093
0.465339 -0.063910 0.026582
0.465339 -0.014168 0.006171
0.465339 -0.017465 -0.053895
0.465339 -0.041646 0.083033
0.465339 -0.057088 0.015209
0.465339 0.059938 0.009343
0.465339 0.057915 -0.005273
0.465339 0.026011 -0.061531
0.465339 -0.065235 0.056908
0.465339 -0.001196 -0.012176
0.465339 -0.012009 -0.060704
0.465339 0.084495 -0.022916
0.465339 -0.019005 -0.093882
0.465339 0.008260 -0.084731
0.465339 -0.060691 0.078709
0.465339 -0.053073 -0.017070
0.465339 0.052208 0.055319
0.465339 -0.009684 0.041982
0.465339 0.031030 -0.028183
0.465339 -0.015755 -0.021909
0.465339 -0.013302 -0.028115
0.465339 -0.054211 -0.055720
0.465339 0.076061 -0.039390
0.465339 -0.008903 0.075859
0.465339 0.025352 0.072845
0.465339 0.020129 0.031092
0.465339 0.008655 0.050597
0.465339 -0.082380 -0.052348
0.465339 0.013093 0.077622
0.465339 0.055256 0.071497
0.465339 0.005163 0.090197
0.465339 0.023966 0.085974
0.465339 -0.048934 -0.042734
0.465339 -0.021614 0.089830
0.465339 0.043633 0.041286
0.465339 -0.042872 0.032324
0.465339 0.000483 -0.002125
0.465339 -0.066120 -0.043634
0.465339 -0.038271 0.032437
0.465339 0.065403 0.044891
0.465339 0.037066 -0.024314
0.465339 0.064928 0.057030
0.465339 0.008633 0.022593
0.465339 -0.069437 -0.012852
0.465339 -0.002984 0.020878
0.465339 0.003104 0.052401
0.465339 0.049895 0.063949
0.465339 0.041733 -0.073344
0.465339 -0.025392 -0.020948
0.465339 0.067583 0.009534
0.465339 -0.034205 0.016069
0.465339 0.086917 -0.028823
0.465339 0.023058 -0.033377
0.465339 0.042968 -0.010401
0.465339 0.075056 0.005448
0.465339 -0.041186 -0.063870
0.465339 -0.034746 0.075513
0.465339 0.023220 0.030510
0.465339 0.025556 -0.031265
0.465339 0.088668 -0.031739
0.465339 -0.074136 0.038728
0.465339 0.080859 -0.006736
0.465339 0.057003 0.071965
0.465339 0.038729 0.015494
0.465339 -0.041291 -0.065692
0.465339 -0.061462 0.029593
0.465339 0.093511 0.005704
0.465339 -0.032221 0.089270
0.465339 0.079761 -0.024052
0.465339 -0.055283 0.059888
0.465339 -0.046897 0.064633
0.465339 -0.080928 0.003644
0.465339 0.036559 0.088104
0.465339 -0.005805 -0.003768
0.465339 0.030596 0.075444
0.465339 -0.000986 -0.095884
0.465339 -0.057657 0.059653
0.465339 0.026594 0.088168
0.465339 -0.064829 -0.028659
0.465339 0.030829 0.087697
0.465339 0.076594 -0.035789
0.465339 0.028488 0.034573
0.465339 -0.031918 0.079426
0.465339 -0.048652 -0.060524
0.465339 0.028136 -0.088403
0.465339 0.089192 0.028699
0.465339 0.015843 0.072974
0.465339 -0.063611 0.036331
0.465339 0.022232 0.094972
0.465339 -0.025470 -0.041419
0.465339 0.039586 0.041143
0.465339 0.035631 -0.014865
0.465339 0.066731 -0.031895
0.465339 -0.038192 0.002879
0.465339 -0.025087 0.051196
0.465339 -0.037483 -0.035405
0.465339 0.047484 -0.020912
0.465339 0.051156 0.069914
0.465339 0.020898 -0.026929
0.465339 0.056450 -0.024709
0.465339 0.045011 0.005611
0.465339 0.046159 0.032536
0.465339 -0.075943 -0.050978
0.465339 0.075203 0.036688
0.465339 0.093906 -0.026607
0.465339 -0.021012 -0.012447
0.465339 -0.047834 -0.029372
0.465339 -0.021729 0.017785
0.465339 0.008794 0.071665
0.465339 -0.078292 0.022875
0.465339 0.043814 0.023096
0.465339 -0.033633 0.021673
0.465339 0.034011 0.058538
0.465339 -0.024098 -0.069770
0.465339 -0.067305 -0.042847
0.465339 0.069071 0.072110
0.465339 -0.000092 -0.079234
0.465339 0.026092 -0.025203
0.465339 0.035422 -0.049186
0.465339 -0.007506 0.041099
0.465339 0.048006 -0.000433
0.465339 -0.046169 -0.043828
0.465339 0.063129 0.063251
0.465339 0.005460 -0.035552
0.465339 -0.065258 0.062183
0.465339 -0.042743 -0.039797
0.465339 0.073448 -0.034659
0.465339 -0.020746 -0.078349
0.465339 -0.013313 0.050594
0.465339 -0.061991 -0.024892
0.465339 -0.080624 -0.013056
0.465339 0.071818 0.029385
0.465339 0.064705 0.068474
0.465339 0.051645 0.053769
0.465339 0.098292 0.001995
0.465339 0.042146 0.066942
0.465339 0.009494 -0.006656
0.465339 0.025415 0.085797
0.465339 -0.030872 0.092894
0.465339 0.020095 -0.039545
0.465339 0.079856 0.034895
0.465339 0.064112 0.071720
0.465339 0.022516 0.084933
0.465339 -0.069147 -0.016269
0.465339 0.018045 0.069040
0.465339 -0.068142 0.016562
0.465339 0.049465 -0.005530
0.465339 0.021195 -0.053645
0.465339 -0.063667 0.016645
0.465339 -0.085856 0.002542
0.465339 -0.040156 -0.051982
0.465339 -0.025011 0.055615
0.465339 0.047350 0.079966
0.465339 0.044020 -0.006335
0.465339 -0.069093 0.057589
0.465339 0.089668 -0.003637
0.465339 0.032064 0.027273
0.465339 0.011790 0.097422
0.465339 0.037628 0.084401
0.465339 -0.061939 0.065437
0.465339 -0.011356 0.099251
0.465339 0.039701 0.087875
0.465339 -0.025799 -0.080169
0.465339 0.015778 0.096186
0.465339 -0.024711 0.017715
0.465339 -0.040485 0.047790
0.465339 0.023404 0.077577
0.465339 -0.048531 -0.083020
0.465339 -0.067729 -0.031543
0.465339 0.067629 0.007982
0.465339 -0.020508 -0.071946
0.465339 -0.049317 0.084770
0.465339 -0.008829 0.032793
0.465339 0.013267 0.068211
0.465339 -0.045782 0.018427
0.465339 -0.046155 -0.054171
0.465339 -0.020229 0.022466
0.465339 0.056485 0.003336
0.465339 0.023853 -0.047066
0.465339 0.033415 -0.056068
0.465339 -0.049814 -0.007876
0.465339 0.039099 -0.066731
0.465339 -0.086926 -0.008244
0.465339 -0.001212 -0.066821
0.465339 0.056382 0.063310
0.465339 0.001894 -0.038717
0.465339 0.017894 -0.015504
0.465339 -0.021978 0.043933
0.465339 0.048296 -0.055424
0.465339 -0.081851 0.055865
0.465339 0.089682 0.012437
0.465339 0.019054 0.000018
0.465339 -0.001502 0.019670
0.465339 -0.008028 0.014458
0.465339 -0.028104 0.007591
0.465339 -0.083290 0.054413
0.465339 -0.024820 -0.017469
0.465339 -0.087319 -0.032337
0.465339 -0.042155 -0.034926
0.465339 0.052687 -0.057420
0.465339 -0.036172 0.091388
0.465339 -0.040427 0.036551
0.465339 -0.021675 0.034860
0.465339 0.030888 0.022367
0.465339 0.034730 0.027436
0.465339 0.044526 0.051283
0.465339 -0.094817 0.021130
0.465339 0.012613 0.004721
0.465339 0.045140 -0.042648
0.465339 -0.034793 -0.056329
0.465339 0.089915 0.035716
0.465339 0.076596 -0.028725
0.465339 -0.028614 0.079343
0.465339 -0.002570 -0.003479
0.465339 0.021878 0.065690
0.465339 0.049482 -0.036277
0.465339 0.055173 0.046242
0.465339 0.050201 -0.081466
0.465339 0.080477 -0.002307
0.465339 0.036365 -0.056892
0.465339 0.009999 0.009291
0.465339 -0.048445 -0.081559
0.465339 -0.072694 0.049657
0.465339 -0.003907 0.067012
0.465339 -0.005775 -0.012740
0.465339 -0.046429 -0.023414
0.465339 -0.023282 0.092671
0.465339 0.010743 0.059843
0.465339 -0.037061 0.047664
0.465339 0.045670 0.054241
0.465339 0.019185 -0.060624
0.465339 -0.076622 -0.046717
0.465339 -0.063104 -0.016735
0.465339 -0.018264 0.026465
0.465339 -0.088712 -0.032970
0.465339 0.028728 -0.003495
0.465339 -0.048991 -0.076086
0.465339 0.039323 -0.012027
0.465339 -0.061884 0.032760
0.465339 -0.092658 0.005576
0.465339 -0.006449 -0.024070
0.465339 0.004473 0.022941
0.465339 0.009790 0.083393
0.465339 -0.050266 0.018019
0.465339 0.085067 -0.045409
0.465339 -0.049941 0.004644
0.465339 -0.012971 -0.023544
0.465339 0.030429 -0.007048
0.465339 -0.052095 -0.048661
0.465339 -0.052401 -0.003728
0.465339 0.023191 -0.088236
0.465339 0.055596 0.061099
0.465339 -0.006809 -0.091965
0.465339 -0.030360 -0.042184
0.465339 0.056878 -0.066975
0.465339 0.028018 -0.086822
0.465339 -0.052408 0.072202
0.465339 -0.023226 -0.081006
0.465339 -0.047455 0.045192
0.465339 -0.085777 -0.032551
0.465339 0.014397 0.061055
0.465339 -0.035972 -0.025603
0.465339 0.026213 -0.032554
0.465339 0.074156 0.014580
0.465339 -0.087221 -0.029597
0.465339 -0.012558 -0.042093
0.465339 -0.008127 -0.092664
0.465339 0.004113 0.009877
0.465339 0.041058 0.088065
0.465339 0.071006 -0.047375
0.465339 0.037525 -0.058803
0.465339 -0.009257 0.023407
0.465339 0.048066 -0.087416
0.465339 -0.072413 0.022888
0.465339 -0.047414 0.004169
0.465339 0.020188 0.055379
0.465339 0.082937 -0.023190
0.465339 -0.035365 0.071717
0.465339 0.067631 -0.056168
0.465339 -0.033850 -0.053514
0.465339 -0.049506 0.063761
0.465339 -0.058680 0.037858
0.465339 -0.076927 0.060433
0.465339 -0.057675 -0.033688
0.465339 -0.094871 0.005569
0.465339 -0.034874 -0.011826
0.465339 -0.017436 0.092052
0.465339 -0.072486 0.027689
0.465339 -0.023616 0.075386
0.465339 0.010270 0.001333
0.465339 -0.052140 0.003114
0.465339 0.054802 0.025720
0.465339 0.020641 -0.031712
0.465339 0.079678 -0.041405
0.465339 0.084779 -0.032159
0.465339 0.067535 -0.006480
0.465339 -0.010326 -0.051764
0.465339 -0.004126 -0.003828
0.465339 0.000294 0.022982
0.465339 -0.067785 -0.051108
0.465339 -0.049284 -0.013936
0.465339 0.015672 -0.082583
0.465339 0.099571 0.003629
0.465339 -0.036752 0.029121
0.465339 -0.085401 -0.008834
0.465339 0.011307 -0.068014
0.465339 -0.064639 0.001641
0.465339 0.035979 -0.072574
0.465339 0.000918 0.045699
0.465339 0.030553 0.071636
0.465339 -0.060879 0.075600
0.465339 -0.092994 -0.007466
0.465339 0.010563 -0.090267
0.465339 0.047822 -0.014541
0.465339 0.038927 0.037113
0.465339 -0.022708 -0.034404
0.465339 -0.078359 -0.046549
0.465339 -0.016356 0.065516
0.465339 0.069933 -0.065689
0.465339 0.017093 0.094333
0.465339 -0.019461 -0.020256
0.465339 0.009219 -0.058044
0.465339 -0.046075 0.071954
0.465339 -0.023735 -0.018892
0.465339 0.051070 -0.033562
0.465339 -0.005488 0.087190
0.465339 -0.081665 0.045758
0.465339 -0.048133 0.055533
0.465339 -0.075056 -0.022034
0.465339 0.022936 -0.053824
0.465339 -0.004800 0.076624
0.465339 0.085933 -0.009226
0.465339 -0.007069 0.076680
0.465339 0.020089 0.035507
0.465339 0.080348 0.016364
0.465339 -0.081222 -0.044040
0.465339 -0.072840 0.037354
0.465339 0.034433 -0.027666
0.465339 -0.059266 0.059516
0.465339 0.029734 0.050763
0.465339 -0.046369 0.063098
0.465339 -0.068776 0.029965
0.465339 -0.043520 -0.005732
0.465339 -0.035993 -0.022327
0.465339 -0.039312 -0.088191
0.465339 -0.057657 0.027327
0.465339 -0.016560 -0.089257
0.465339 0.088872 0.036995
0.465339 0.032210 -0.016011
0.465339 0.062338 0.042409
0.465339 -0.088897 0.033207
0.465339 0.066382 0.057485
0.465339 0.009919 -0.074152
0.465339 0.025620 0.052595
0.465339 -0.026976 0.051419
0.465339 0.023514 -0.020676
0.465339 0.043265 0.073439
0.465339 0.057681 0.013371
0.465339 -0.050673 -0.021569
0.465339 -0.064590 0.054154
0.465339 -0.011393 0.087978
0.465339 -0.022436 -0.083195
0.465339 0.061691 0.058666
0.465339 -0.009507 -0.025185
0.465339 -0.006141 0.093362
0.465339 -0.013012 0.075597
0.465339 0.035570 -0.087767
0.465339 0.061312 0.075476
0.465339 -0.040689 -0.075783
0.465339 -0.051018 0.077855
0.465339 -0.070015 0.023591
0.465339 -0.043584 0.058475
0.465339 0.031054 0.005728
0.465339 -0.009776 0.019290
0.465339 0.066309 0.043258
0.465339 0.033013 -0.038161
0.465339 -0.003920 -0.091921
0.465339 0.079357 0.017717
0.465339 -0.040245 0.043449
0.465339 0.025586 -0.023577
0.465339 -0.034690 0.043359
0.465339 0.040961 -0.041760
0.465339 0.000768 0.048591
0.465339 0.086959 -0.015672
0.465339 0.086199 0.017588
0.465339 0.038555 -0.071414
0.465339 -0.044741 -0.025082
0.465339 -0.042939 -0.089662
0.465339 -0.077623 -0.004055
0.465339 0.044836 -0.044515
0.465339 -0.075273 0.039654
0.465339 -0.005470 0.001401
0.465339 0.032083 -0.091754
0.465339 -0.050957 -0.072906
0.465339 -0.001607 -0.051691
0.465339 -0.046860 0.086692
0.465339 -0.071800 -0.008378
0.465339 -0.056862 0.069974
0.465339 -0.058279 0.054461
0.465339 0.078959 -0.019800
0.465339 0.032374 0.060816
0.465339 0.038195 0.092391
0.465339 0.009392 0.039625
0.465339 -0.039087 0.038216
0.465339 -0.060149 -0.012872
0.465339 -0.096217 0.014700
0.465339 0.036998 0.016243
0.465339 0.052652 0.026566
0.465339 0.077093 -0.019069
0.465339 0.005962 0.069831
0.465339 0.022103 -0.047132
0.465339 -0.005667 0.081151
0.465339 0.022173 -0.021004
0.465339 -0.082338 0.052736
0.465339 0.006367 0.091878
0.465339 0.018017 -0.038614
0.465339 0.017771 0.024994
0.465339 -0.051638 -0.034231
0.465339 -0.039646 0.008478
0.465339 -0.062251 0.077223
0.465339 -0.075330 0.015408
0.465339 -0.092672 0.030623
0.465339 0.049940 -0.080134
0.465339 0.019136 -0.024649
0.465339 0.009945 0.081942
0.465339 0.083582 -0.033397
0.465339 -0.015590 0.025364
0.465339 -0.035451 -0.071974
0.465339 -0.065682 0.014186
0.465339 -0.064451 0.008117
0.465339 0.024188 -0.068373
0.465339 0.046831 0.038069
0.465339 0.003053 0.089653
0.465339 0.054292 -0.009387
0.465339 0.001671 -0.070317
0.465339 -0.056800 0.073641
0.465339 0.073621 0.054777
0.465339 0.027579 0.019962
0.465339 0.017520 -0.056145
0.465339 0.047709 -0.071654
0.465339 0.061648 -0.075414
0.465339 -0.047928 -0.054261
0.465339 0.010102 -0.039781
0.465339 -0.018155 0.095411
0.465339 -0.057331 0.009384
0.465339 0.017553 0.001309
0.465339 -0.043637 0.039785
0.465339 0.012591 -0.052852
0.465339 0.015429 0.014027
0.465339 0.031025 -0.051158
0.465339 -0.020287 -0.017910
0.465339 -0.000659 -0.050326
0.465339 -0.048600 0.001912
0.465339 -0.027408 0.086132
0.465339 0.083194 0.010319
0.465339 -0.040612 0.039900
0.465339 0.085943 -0.047898
0.465339 -0.041307 -0.015886
0.465339 -0.012260 -0.026757
0.465339 -0.058139 0.031977
0.465339 0.055682 0.076381
0.465339 -0.051405 0.028441
0.465339 0.001673 0.026043
0.465339 -0.025156 -0.047871
0.465339 0.023172 0.054547
0.465339 -0.051933 -0.084665
0.465339 -0.074601 0.045963
0.465339 0.015263 -0.069647
0.465339 -0.076776 0.039671
0.465339 -0.032585 -0.026497
0.465339 0.017975 0.006553
0.465339 -0.040887 -0.067664
0.465339 -0.000120 0.074028
0.465339 0.062500 0.040846
0.465339 0.026714 -0.026973
0.465339 0.010602 -0.045903
0.465339 -0.024516 -0.000842
0.465339 -0.032554 0.067726
0.465339 0.017061 -0.053033
0.465339 0.012735 -0.097401
0.465339 0.038201 0.047587
0.465339 -0.003547 -0.074616
0.465339 -0.031376 0.042647
0.465339 -0.006534 -0.005473
0.465339 -0.079137 0.056071
0.465339 0.090517 0.029231
0.465339 0.071223 -0.014946
0.465339 0.088398 -0.005079
0.465339 0.004630 0.051567
0.465339 -0.010110 -0.005209
0.465339 0.062070 0.012695
0.465339 -0.045773 -0.077875
0.465339 0.020782 -0.047579
0.465339 -0.034499 0.033650
0.465339 0.032690 0.035933
0.465339 0.020221 -0.059704
0.465339 0.040243 0.035870
0.465339 -0.025361 0.022864
0.465339 -0.099120 -0.008719
0.465339 0.061743 0.010196
0.465339 0.042547 0.057557
0.465339 0.018849 0.049684
0.465339 -0.016494 -0.071443
0.465339 0.035861 -0.078664
0.465339 0.062527 -0.002618
0.465339 -0.029072 0.002519
0.465339 -0.008303 -0.031455
0.465339 0.017278 0.063643
0.465339 -0.019960 -0.084841
0.465339 0.033041 0.077355
0.465339 0.026495 -0.000110
0.465339 0.051953 -0.038372
0.465339 -0.086087 -0.003586
0.465339 -0.026811 0.023431
0.465339 0.063343 -0.004524
0.465339 0.088183 -0.014827
0.465339 -0.065221 -0.057835
0.465339 -0.079838 0.023699
0.465339 -0.017295 0.028259
0.465339 -0.022853 -0.041830
0.465339 0.093332 -0.008610
0.465339 -0.023215 0.017681
0.465339 -0.052536 -0.020644
0.465339 -0.064595 0.039078
0.465339 -0.004329 -0.066732
0.465339 -0.088128 -0.017567
0.465339 0.061657 0.051465
0.465339 -0.050452 -0.023183
0.465339 -0.036025 -0.080799
0.465339 -0.020548 -0.019254
0.465339 0.031961 0.064693
0.465339 -0.047152 0.082146
0.465339 -0.037983 -0.053481
0.465339 0.050168 0.066242
0.465339 -0.080735 -0.051222
0.465339 -0.054654 -0.062497
0.465339 -0.016297 -0.096690
0.465339 -0.062548 -0.062477
0.465339 -0.028382 0.023820
0.465339 -0.004765 -0.097372
0.465339 0.004806 0.019141
0.465339 -0.029132 0.034675
0.465339 0.010700 0.065561
0.465339 0.067136 -0.046481
0.465339 -0.097474 -0.020739
0.465339 0.050943 -0.041631
0.465339 -0.019032 0.047704
0.465339 -0.012792 0.034271
0.465339 0.055208 0.010597
0.465339 0.009364 -0.014964
0.465339 -0.089464 0.034460
0.465339 0.042634 -0.013147
0.465339 -0.019777 -0.048389
0.465339 0.019836 0.097754
0.465339 0.097378 -0.020736
0.465339 0.045316 0.055751
0.465339 0.055362 0.028304
0.465339 -0.042210 -0.017450
0.465339 0.093591 0.012169
0.465339 0.033369 0.086022
0.465339 -0.023189 0.061081
0.465339 0.060764 0.002360
0.465339 0.004620 0.035692
0.465339 -0.031652 -0.056218
0.465339 -0.057871 -0.021289
0.465339 -0.027542 -0.087240
0.465339 -0.079284 0.012401
0.465339 0.048474 0.017155
0.465339 0.016390 0.029588
0.465339 -0.003826 -0.052686
0.465339 0.006921 -0.039878
0.465339 0.043222 -0.007584
0.465339 0.026304 -0.058495
0.465339 0.027638 -0.095550
0.465339 -0.037915 0.071179
0.465339 -0.020766 -0.050455
0.465339 0.046413 0.021771
0.465339 -0.013533 -0.035434
0.465339 -0.005239 0.013266
0.465339 -0.068512 0.031517
0.465339 0.030597 -0.049087
0.465339 -0.027554 0.021131
0.465339 -0.070991 -0.021373
0.465339 0.005211 -0.069199
0.465339 0.000587 -0.049083
0.465339 -0.079388 0.000039
0.465339 0.053547 -0.065212
0.465339 0.031649 0.059618
0.465339 -0.027781 -0.039637
0.465339 0.036303 -0.083360
0.465339 0.034284 0.015835
0.465339 -0.003483 0.005069
0.465339 0.077501 -0.053920
0.465339 0.010814 -0.014321
0.465339 0.039238 0.057513
0.465339 -0.046973 0.008158
0.465339 -0.081335 0.028100
0.465339 0.076642 -0.054987
0.465339 0.082904 -0.047781
0.465339 -0.027145 0.088335
0.465339 -0.040660 0.007170
0.465339 -0.072064 -0.001685
0.465339 -0.038293 -0.076488
0.465339 -0.022811 0.038669
0.465339 -0.066891 -0.038106
0.465339 0.079656 0.006279
0.465339 0.036225 0.009782
0.465339 0.071992 0.012357
0.465339 -0.056703 0.062409
0.465339 -0.095766 -0.025418
0.465339 -0.071364 0.061826
0.465339 0.058230 -0.061213
0.465339 0.004226 -0.014926
0.465339 -0.037642 -0.004544
0.465339 0.035737 -0.092668
0.465339 0.054887 0.015158
0.465339 0.003968 -0.072588
0.465339 0.090448 -0.022426
0.465339 -0.045982 0.047584
0.465339 -0.059578 0.053185
0.465339 0.075244 -0.012101
0.465339 0.010630 0.072142
0.465339 0.022716 0.038541
0.465339 -0.077275 0.059106
0.465339 0.088070 -0.013091
0.465339 0.066678 -0.028516
0.465339 -0.028534 -0.043363
0.465339 0.075162 -0.019773
0.465339 -0.059882 0.057739
0.465339 0.022947 0.086954
0.465339 -0.045748 0.077784
0.465339 0.026775 0.064476
0.465339 -0.053706 0.061093
0.465339 -0.011978 0.062489
0.465339 0.029605 0.037875
0.465339 -0.050312 0.012651
0.465339 -0.088611 -0.023851
0.465339 -0.081881 -0.023718
0.465339 -0.067069 -0.014797
0.465339 -0.045471 -0.067326
0.465339 0.017571 -0.024520
0.465339 0.094200 -0.006883
0.465339 0.051795 0.066441
0.465339 0.075826 -0.030572
0.465339 -0.098666 -0.013221
0.465339 0.021975 -0.080416
0.465339 0.008760 0.062897
0.465339 -0.046066 -0.031875
0.465339 -0.038946 0.050527
0.465339 -0.096274 -0.000614
0.465339 0.038050 -0.036728
0.465339 -0.056753 -0.048090
0.465339 -0.079108 0.005794
0.465339 0.030482 0.073020
0.465339 -0.060210 0.034648
0.465339 -0.063837 -0.063091
0.465339 -0.093377 0.002644
0.465339 -0.028830 -0.092569
0.465339 0.060915 0.019597
0.465339 0.068784 0.003529
0.465339 0.033920 -0.074567
0.465339 -0.012978 0.037620
0.465339 0.038320 -0.014925
0.465339 0.022740 -0.078319
0.465339 -0.034263 -0.034286
0.465339 0.083506 0.024245
0.465339 0.078046 -0.052595
0.465339 0.023870 0.034909
0.465339 -0.011901 0.020941
0.465339 0.066926 0.039509
0.465339 -0.062566 0.058434
0.465339 -0.014044 0.096470
0.465339 0.067812 -0.027292
0.465339 -0.055001 0.019460
0.465339 -0.022718 -0.046191
0.465339 -0.053417 -0.068399
0.465339 -0.083669 0.030826
0.465339 0.025699 -0.094801
0.465339 -0.007597 -0.052753
0.465339 -0.077794 -0.005455
0.465339 0.006143 0.059396
0.465339 0.007842 0.021125
0.465339 0.001829 -0.003508
0.465339 0.004195 0.025800
0.465339 0.077976 -0.015474
0.465339 -0.070335 -0.030990
0.465339 0.063244 0.026122
0.465339 -0.050571 0.030162
0.465339 -0.026123 0.089702
0.465339 -0.059993 -0.021461
0.465339 0.089922 0.021795
0.465339 0.091241 -0.028641
0.465339 -0.005613 -0.014223
0.465339 -0.073149 -0.050930
0.465339 -0.049026 0.023798
0.465339 0.004410 0.044565
0.465339 -0.045042 0.074820
0.465339 0.049467 0.072039
0.465339 -0.053298 -0.051261
0.465339 0.082124 0.037031
0.465339 0.015535 0.045250
0.465339 -0.077301 -0.054302
0.465339 0.088685 -0.030069
0.465339 -0.038657 -0.023873
0.465339 0.075254 0.027050
0.465339 -0.043872 -0.046398
0.465339 -0.049022 0.016538
0.465339 0.022327 0.059882
0.465339 0.024110 0.001619
0.465339 -0.014912 0.023232
0.465339 0.038612 0.011295
0.465339 0.041232 0.015441
0.465339 -0.038829 0.044782
0.465339 -0.003505 0.099492
0.465339 0.054054 -0.001280
0.465339 0.017373 0.048118
0.465339 0.059419 -0.070283
0.465339 -0.004708 0.089049
0.465339 0.049302 0.073559
0.465339 -0.039604 -0.025106
0.465339 -0.018413 0.062196
0.465339 -0.083401 -0.024168
0.465339 0.014197 0.047393
0.465339 0.084013 -0.053043
0.465339 0.042334 -0.042118
0.465339 0.071423 0.018440
0.465339 -0.049531 0.014769
0.465339 0.051309 -0.003018
0.465339 -0.053677 0.019204
0.465339 -0.024202 0.023664
0.465339 0.001241 -0.006602
0.465339 -0.081198 -0.046670
0.465339 0.020690 -0.094126
0.465339 -0.002233 0.091782
0.465339 -0.026511 -0.040493
0.465339 -0.029681 0.043538
0.465339 0.038551 0.090778
0.465339 -0.022488 -0.070013
0.465339 -0.014793 0.050048
0.465339 0.019866 0.056950
0.465339 -0.031976 -0.072229
0.465339 -0.006312 0.005896
0.465339 -0.020391 -0.023503
0.465339 -0.036641 0.043592
0.465339 0.066537 0.068621
0.465339 -0.019266 0.085705
0.465339 -0.096410 0.019654
0.465339 -0.026551 -0.000251
0.465339 -0.009502 -0.032603
0.465339 0.058426 0.004990
0.465339 0.040150 0.047618
0.465339 -0.019999 0.039271
0.465339 0.029301 0.042927
0.465339 -0.060200 0.069337
0.465339 0.024288 -0.010478
0.465339 0.055710 0.013571
0.465339 0.053430 0.029912
0.465339 0.046450 -0.009616
0.465339 -0.034444 0.041602
0.465339 0.022426 0.028991
0.465339 0.066903 -0.040810
0.465339 0.027812 0.025772
0.465339 0.066614 -0.066494
0.465339 -0.016864 -0.017188
0.465339 -0.054447 0.012369
0.465339 -0.048748 -0.026233
0.465339 -0.010496 0.026512
0.465339 0.010635 -0.033888
0.465339 -0.030228 -0.052550
0.465339 -0.011572 -0.059211
0.465339 -0.033032 0.007883
0.465339 0.025374 0.041901
0.465339 0.056781 0.007964
0.465339 -0.058353 0.058386
0.465339 0.012706 0.050494
0.465339 -0.026639 0.009422
0.465339 0.077481 0.060344
0.465339 0.069913 -0.015801
0.465339 0.011741 0.051678
0.465339 -0.001096 -0.032365
0.465339 0.008491 0.086489
0.465339 0.062848 0.006760
0.465339 -0.031568 0.091054
0.465339 0.000932 0.057335
0.465339 0.004257 -0.041678
0.465339 -0.093117 0.012515
0.465339 -0.032367 0.069724
0.465339 -0.003241 0.053121
0.465339 0.004705 -0.002364
0.465339 -0.016261 -0.037722
0.465339 0.084162 0.048828
0.465339 0.066508 -0.057641
0.465339 0.039999 0.013943
0.465339 0.004210 -0.060257
0.465339 0.022231 -0.038522
0.465339 0.035414 -0.074626
0.465339 0.061886 -0.011316
0.465339 -0.037338 0.020600
0.465339 0.057238 0.011184
0.465339 -0.020555 0.012151
0.465339 0.060871 -0.012472
0.465339 -0.037425 -0.027572
0.465339 -0.011597 -0.024521
0.465339 0.073210 0.038080
0.465339 0.054163 -0.015779
0.465339 -0.082236 -0.008422
0.465339 0.046195 0.034139
0.465339 -0.009658 -0.064015
0.465339 -0.002502 -0.014742
0.465339 0.051991 -0.031132
0.465339 0.070879 0.043164
0.465339 0.052135 -0.077667
0.465339 0.001755 -0.099360
0.465339 -0.054967 0.026171
0.465339 0.071386 0.048802
0.465339 0.031430 -0.023484
0.465339 0.020600 0.050555
0.465339 -0.043096 -0.057656
0.465339 -0.081201 0.026057
0.465339 0.028988 0.053987
0.465339 -0.032703 -0.025069
0.465339 -0.018570 0.014996
0.465339 -0.032095 0.031517
0.465339 0.030266 -0.069296
0.465339 -0.036150 -0.040245
0.465339 0.068690 0.038127
0.465339 0.025513 -0.091110
0.465339 0.032253 -0.054921
0.465339 0.008589 0.031158
0.465339 0.009838 -0.016474
0.465339 -0.028421 -0.025978
0.465339 -0.074572 0.049121
0.465339 0.080414 0.036313
0.465339 -0.050499 0.074802
0.465339 0.033272 -0.085905
0.465339 0.069167 0.022814
0.465339 -0.066660 0.007732
0.465339 -0.028340 0.015212
0.465339 0.008587 0.035501
0.465339 0.011982 0.038419
0.465339 -0.062144 0.024809
0.465339 -0.069307 -0.041423
0.465339 -0.000924 -0.045911
0.465339 0.076668 -0.037791
0.465339 -0.046175 -0.029830
0.465339 -0.032843 0.087559
0.465339 -0.029341 -0.000060
0.465339 0.004835 0.091511
0.465339 -0.047026 -0.009207
0.465339 0.063478 -0.052315
0.465339 0.007473 0.096599
0.465339 0.025945 -0.067714
0.465339 -0.071938 0.058346
0.465339 0.008501 -0.056316
0.465339 0.012462 -0.065641
0.465339 0.085522 -0.015616
0.465339 -0.000469 -0.000073
0.465339 0.049010 -0.027028
0.465339 0.066688 0.064013
0.465339 0.050045 -0.009941
0.465339 0.011302 0.033476
0.465339 -0.022286 0.022695
0.465339 0.030845 0.040522
0.465339 -0.018333 0.069882
0.465339 -0.022889 0.077514
0.465339 0.040320 -0.037937
0.465339 -0.001834 -0.027594
0.465339 -0.013997 -0.031089
0.465339 0.061301 -0.061821
0.465339 -0.019811 -0.066088
0.465339 -0.000013 0.076047
0.465339 -0.017375 -0.032307
0.465339 0.069704 0.002207
0.465339 0.007838 0.077737
0.465339 0.047663 0.047535
0.465339 0.053631 -0.063137
0.465339 0.017502 -0.011704
0.465339 -0.047024 0.027945
0.465339 0.053524 0.054971
0.465339 -0.075590 -0.052764
0.465339 -0.056225 0.044419
0.465339 0.078723 0.016204
0.465339 -0.018312 -0.096800
0.465339 -0.030807 0.019931
0.465339 -0.062267 -0.069225
0.465339 0.079117 -0.031938
0.465339 0.038338 -0.028950
0.465339 -0.090029 -0.027406
0.465339 -0.052060 0.061427
0.465339 -0.012279 0.000378
0.465339 -0.059927 -0.058765
0.465339 0.003125 -0.086985
0.465339 0.085187 0.027085
0.465339 -0.054524 0.028366
0.465339 -0.026655 0.055065
0.465339 -0.009594 0.093928
0.465339 0.037108 -0.051948
0.465339 -0.024263 -0.040497
0.465339 -0.009851 0.028395
0.465339 -0.028441 -0.069222
0.465339 0.043845 0.031060
0.465339 -0.040826 0.003414
0.465339 0.057758 -0.013837
0.465339 0.042499 0.053372
0.465339 -0.020683 0.037843
0.465339 -0.016368 -0.011958
0.465339 0.039707 -0.052253
0.465339 -0.067127 0.038312
0.465339 0.035585 -0.000335
0.465339 0.053430 -0.034661
0.465339 -0.093665 -0.032393
0.465339 -0.017761 -0.038854
0.465339 0.034825 0.018505
0.465339 -0.063794 0.068389
0.465339 -0.037951 0.030349
0.465339 0.059467 -0.017254
0.465339 -0.073970 -0.017563
0.465339 -0.056239 -0.051048
0.465339 0.033433 0.021509
0.465339 -0.061534 -0.013573
0.465339 -0.007102 -0.054362
0.465339 -0.029703 0.015250
0.465339 -0.055175 -0.074208
0.465339 0.018995 0.001500
0.465339 0.023374 0.088736
0.465339 -0.058028 -0.053142
0.465339 0.020426 -0.081229
0.465339 0.059693 -0.030928
0.465339 -0.008389 0.085706
0.465339 0.027227 0.030357
0.465339 0.044361 0.084459
0.465339 0.079375 -0.044882
0.465339 -0.052141 -0.009095
0.465339 0.020618 0.023450
0.465339 -0.013220 -0.087943
0.465339 -0.021664 0.075189
0.465339 0.011922 -0.056836
0.465339 0.039173 0.029116
0.465339 0.088881 0.025146
0.465339 0.066523 -0.026609
0.465339 -0.096551 0.002252
0.465339 -0.003096 -0.001877
0.465339 -0.002537 0.049310
0.465339 -0.097863 -0.007316
0.465339 -0.068996 0.060066
0.465339 -0.026807 -0.076501
0.465339 0.047695 -0.060514
0.465339 -0.023066 -0.084795
0.465339 -0.099520 0.003102
0.465339 -0.043293 0.046274
0.465339 -0.089993 0.031477
0.465339 -0.054066 -0.048808
0.465339 0.009761 0.068303
0.465339 -0.067991 -0.021801
0.465339 -0.048612 0.048656
0.465339 -0.062486 -0.034342
0.465339 0.010998 -0.001262
0.465339 0.051376 0.062330
0.465339 0.017727 -0.049505
0.465339 0.021976 -0.042533
0.465339 0.067119 -0.071592
0.465339 -0.040473 0.055297
0.465339 0.002668 -0.042575
0.465339 0.027317 -0.012835
0.465339 -0.006007 -0.010731
0.465339 0.015930 -0.097929
0.465339 0.042865 -0.046948
0.465339 0.059082 -0.080011
0.465339 0.056261 -0.029559
0.465339 -0.055989 -0.069815
0.465339 -0.025360 -0.019192
0.465339 -0.076581 0.010628
0.465339 0.007989 -0.063880
0.465339 -0.037310 -0.008526
0.465339 -0.014656 -0.096327
0.465339 -0.010538 -0.066236
0.465339 -0.000014 0.033133
0.465339 -0.031533 -0.046285
0.465339 0.054884 0.003464
0.465339 -0.031945 -0.011899
0.465339 0.052216 -0.023584
0.465339 -0.043246 0.034900
0.465339 0.024521 0.066078
0.465339 0.091341 -0.036963
0.465339 0.021664 0.032480
0.465339 -0.048741 0.083015
0.465339 0.092428 0.026948
0.465339 0.039681 -0.055534
0.465339 0.034244 0.076060
0.465339 -0.069719 -0.063527
0.465339 0.018198 -0.023200
0.465339 -0.073776 0.028748
0.465339 0.025368 0.063094
0.465339 -0.088701 -0.043515
0.465339 0.061765 0.025179
0.465339 -0.033662 0.084873
0.465339 -0.010458 0.034698
0.465339 -0.006910 -0.032101
0.465339 -0.070986 -0.069114
0.465339 -0.056250 -0.026794
0.465339 0.031526 0.090793
0.465339 0.016764 0.081978
0.465339 0.078407 0.031653
0.465339 0.013331 -0.043646
0.465339 -0.091114 0.032367
0.465339 -0.001706 0.065177
0.465339 0.059333 0.072171
0.465339 -0.030728 -0.033012
0.465339 0.059801 0.048793
0.465339 -0.057093 0.047370
0.465339 0.025888 -0.021880
0.465339 -0.057833 0.050437
0.465339 -0.025412 0.008751
0.465339 -0.066487 -0.028383
0.465339 -0.078135 0.035518
0.465339 0.028501 -0.091822
0.465339 0.011251 0.088638
0.465339 0.029209 0.089810
0.465339 -0.032283 0.082498
0.465339 -0.043974 0.038272
0.465339 0.035266 -0.060772
0.465339 0.022331 0.061617
0.465339 -0.007399 0.049048
0.465339 0.043768 -0.031218
0.465339 -0.049881 -0.069282
0.465339 0.060975 0.036120
0.465339 0.053377 -0.026422
0.465339 0.034083 -0.041915
0.465339 -0.065243 -0.067115
0.465339 0.001455 0.009007
0.465339 -0.061782 0.000650
0.465339 -0.071354 0.020740
0.465339 0.036927 -0.035330
0.465339 0.024265 0.000125
0.465339 -0.033026 -0.007026
0.465339 -0.083964 0.002738
0.465339 0.040253 -0.053649
0.465339 0.063261 -0.014251
0.465339 -0.000142 -0.028795
0.465339 -0.099173 -0.006718
0.465339 -0.020605 -0.073757
0.465339 -0.062960 -0.051619
0.465339 0.043171 -0.024667
0.465339 0.076798 0.021075
0.465339 -0.078508 -0.042077
0.465339 -0.037975 -0.069013
0.465339 -0.026453 -0.045424
0.465339 0.002069 -0.027387
0.465339 0.089301 -0.044023
0.465339 0.023895 -0.036500
0.465339 -0.047677 0.070938
0.465339 -0.081104 -0.038026
0.465339 0.033738 -0.029203
0.465339 0.028854 0.084492
0.465339 -0.047644 -0.003401
0.465339 -0.029406 -0.004627
0.465339 0.019188 -0.070428
0.465339 -0.055500 0.061587
0.465339 0.047790 0.033498
0.465339 0.020807 -0.092379
0.465339 -0.028514 0.047273
0.465339 -0.088404 0.025916
0.465339 -0.061464 0.009420
0.465339 -0.041470 0.008638
0.465339 0.057940 -0.058858
0.465339 0.004721 -0.071391
0.465339 0.057212 -0.055402
0.465339 -0.053392 -0.071119
0.465339 -0.022064 -0.016411
0.465339 0.044150 0.013904
0.465339 -0.034995 0.022164
0.465339 0.024223 -0.077924
0.465339 -0.072625 -0.041247
0.465339 -0.052401 -0.025873
0.465339 0.024084 -0.034303
0.465339 -0.030831 -0.075731
0.465339 0.007970 -0.050545
0.465339 0.037121 -0.027439
0.465339 -0.052586 0.064236
0.465339 0.015322 -0.052261
0.465339 -0.053188 0.062402
0.465339 -0.019086 -0.003445
0.465339 0.054539 -0.048971
0.465339 -0.037951 -0.010078
0.465339 0.047907 0.036656
0.465339 -0.027509 0.031669
0.465339 0.084257 -0.014508
0.465339 -0.078578 0.016800
0.465339 0.007778 -0.076786
0.465339 -0.003703 -0.062322
0.465339 0.027306 0.060534
0.465339 0.048287 0.081292
0.465339 -0.047076 0.073135
0.465339 -0.008872 -0.023246
0.465339 -0.090356 0.001283
0.465339 0.046818 -0.054972
0.465339 0.093179 0.003308
0.465339 0.007065 0.052990
0.465339 0.054739 0.051418
0.465339 -0.015046 -0.013135
0.465339 0.004204 -0.088483
0.465339 0.064099 -0.029913
0.465339 0.032881 -0.093605
0.465339 -0.078674 -0.028944
0.465339 0.034434 0.022893
0.465339 0.052497 -0.071507
0.465339 0.041008 0.012915
0.465339 -0.060227 0.019898
0.465339 -0.023008 -0.037793
0.465339 -0.009895 0.076997
0.465339 0.002661 0.054395
0.465339 0.049023 -0.021037
0.465339 0.034650 -0.077757
0.465339 0.027667 0.042381
0.465339 0.008377 0.044793
0.465339 0.014115 0.042787
0.465339 0.038847 0.085049
0.465339 0.015792 -0.020759
0.465339 0.071054 -0.013089
0.465339 -0.011767 0.013086
0.465339 0.005588 -0.015263
0.465339 0.028919 -0.013083
0.465339 0.066927 -0.024896
0.465339 0.013929 -0.066540
0.465339 -0.035715 0.052903
0.465339 0.022690 -0.072744
0.465339 0.012326 0.045627
0.465339 0.096551 0.013807
0.465339 -0.002857 0.075664
0.465339 0.018544 0.010353
0.465339 -0.067520 0.046936
0.465339 -0.056420 0.026195
0.465339 -0.034532 0.063020
0.465339 0.015567 -0.049107
0.465339 -0.020823 0.085158
0.465339 0.038114 -0.039005
0.465339 -0.008321 -0.013859
0.465339 -0.051368 0.065586
0.465339 0.025758 -0.039817
0.465339 -0.001678 -0.048877
0.465339 0.001380 0.010559
0.465339 0.071179 -0.036214
0.465339 0.052668 0.012955
0.465339 0.007786 0.012890
0.465339 0.040025 -0.029040
0.465339 -0.013705 -0.007064
0.465339 -0.070449 -0.002379
0.465339 0.093243 -0.030549
0.465339 -0.079204 -0.035409
0.465339 0.023568 0.069507
0.465339 0.057968 -0.008810
0.465339 0.042308 -0.070787
0.465339 -0.077383 0.052611
0.465339 -0.014978 0.032043
0.465339 -0.002355 -0.092295
0.465339 -0.014228 -0.003699
0.465339 0.089639 0.030664
0.465339 -0.006136 -0.067155
0.465339 0.031219 -0.082528
0.465339 0.039509 -0.050630
0.465339 -0.072107 -0.007038
0.465339 0.020413 0.021629
0.465339 0.056854 0.075647
0.465339 -0.076596 0.047084
0.465339 0.043902 -0.012430
0.465339 0.027113 -0.022816
0.465339 0.067914 -0.020562
0.465339 0.064215 -0.076259
0.465339 0.069923 -0.017270
0.465339 -0.025323 0.064245
0.465339 0.051631 0.011969
0.465339 -0.050134 -0.034110
0.465339 0.033021 -0.070651
0.465339 0.033707 -0.060935
0.465339 0.060822 -0.020394
0.465339 0.072815 -0.010036
0.465339 -0.057000 0.049032
0.465339 -0.089930 0.040356
0.465339 0.033341 -0.020375
0.465339 -0.063345 -0.013343
0.465339 -0.056204 0.018051
0.465339 -0.033435 -0.071941
0.465339 0.063249 0.031112
0.465339 -0.001583 -0.077877
0.465339 0.002293 0.071735
0.465339 -0.060050 0.015466
0.465339 0.047676 0.067950
0.465339 -0.013376 -0.013863
0.465339 -0.056099 -0.061603
0.465339 0.087415 -0.047612
0.465339 0.063647 0.036871
0.465339 -0.006558 0.061666
0.465339 0.035549 -0.058829
0.465339 -0.017974 -0.007532
0.465339 -0.023477 -0.030669
0.465339 0.034701 0.008318
0.465339 0.043826 -0.042134
0.465339 0.045714 0.025984
0.465339 -0.057700 -0.015310
0.465339 0.070266 -0.037824
0.465339 0.014939 0.017048
0.465339 -0.007598 -0.065876
0.465339 -0.020828 -0.053596
0.465339 -0.027410 -0.006432
0.465339 -0.022261 -0.054763
0.465339 0.040338 0.064182
0.465339 0.056455 -0.015214
0.465339 0.005727 0.040365
0.465339 0.025492 0.050802
0.465339 0.041526 -0.009706
0.465339 -0.025515 -0.082363
0.465339 0.057210 0.055819
0.465339 0.028784 0.046207
0.465339 -0.058953 -0.024437
0.465339 0.043366 0.052009
0.465339 0.030305 -0.012389
0.465339 -0.024250 -0.079839
0.465339 0.054030 0.070490
0.465339 0.090091 0.037826
0.465339 0.080508 -0.044042
0.465339 0.007243 -0.033842
0.465339 -0.061157 0.018034
0.465339 0.082493 0.056222
0.465339 0.031787 0.045798
0.465339 0.038855 0.065544
0.465339 0.027590 -0.073622
0.465339 0.050287 -0.031219
0.465339 0.087217 -0.020960
0.465339 -0.004331 -0.031044
0.465339 -0.005402 0.027630
0.465339 0.063666 -0.039133
0.465339 0.077560 0.004108
0.465339 -0.074601 0.060862
0.465339 -0.059352 -0.044438
0.465339 -0.025386 -0.070905
0.465339 0.081683 0.042229
0.465339 -0.037088 0.007406
0.465339 0.058528 -0.045873
0.465339 -0.070372 0.044111
0.465339 -0.030610 -0.054638
0.465339 -0.084839 0.012227
0.465339 -0.016270 0.045267
0.465339 0.032532 0.040438
0.465339 -0.005982 -0.029352
0.465339 0.015820 -0.015077
0.465339 -0.037605 0.083683
0.465339 -0.096531 0.006974
0.465339 0.044629 -0.052400
0.465339 0.070206 0.060215
0.465339 -0.010892 0.051669
0.465339 -0.027811 -0.089131
0.465339 0.075193 -0.051332
0.465339 -0.028939 0.051806
0.465339 -0.029549 0.010061
0.465339 0.056711 0.043047
0.465339 0.093757 0.020633
0.465339 0.088214 -0.025015
0.465339 0.077739 0.001454
0.465339 -0.028701 -0.032047
0.465339 -0.021768 -0.062759
0.465339 0.010014 -0.065809
0.465339 -0.012991 -0.096885
0.465339 0.067969 0.057222
0.465339 -0.013056 -0.020908
0.465339 0.065806 0.073189
0.465339 0.013739 0.027832
0.465339 -0.050502 -0.065172
0.465339 -0.067727 -0.053416
0.465339 0.060761 -0.042079
0.465339 -0.020713 -0.064602
0.465339 -0.013420 0.057072
0.465339 -0.023214 -0.071617
0.465339 0.064136 -0.020457
0.465339 -0.083033 -0.033214
0.465339 -0.002457 0.009265
0.465339 0.080134 -0.046334
0.465339 0.042547 0.069077
0.465339 0.024708 0.058731
0.465339 0.069405 -0.022062
0.465339 0.009744 0.028411
0.465339 0.040594 0.065652
0.465339 -0.019816 -0.013464
0.465339 0.036310 0.053269
0.465339 0.025742 -0.056750
0.465339 -0.000751 0.015178
0.465339 -0.023130 0.058047
0.465339 -0.031216 0.027648
0.465339 0.007357 0.000752
0.465339 -0.058731 -0.008961
0.465339 -0.090443 -0.013467
0.465339 -0.035463 0.087004
0.465339 0.062213 -0.008294
0.465339 0.054395 0.035456
0.465339 -0.003255 -0.082908
0.465339 0.048367 -0.016339
0.465339 -0.007443 0.018801
0.465339 0.000221 -0.030239
0.465339 -0.095624 -0.015071
0.465339 -0.057320 0.065067
0.465339 -0.035801 -0.036882
0.465339 0.041934 -0.019384
0.465339 -0.007934 -0.069615
0.465339 0.016323 0.065325
0.465339 -0.028742 0.031098
0.465339 -0.030531 -0.034676
0.465339 0.025394 -0.018659
0.465339 0.096903 -0.007431
0.465339 -0.016616 0.002043
0.465339 -0.002282 -0.079384
0.465339 -0.079413 0.057690
0.465339 -0.065936 0.049218
0.465339 0.025756 0.010252
0.465339 -0.022595 0.036735
0.465339 -0.016418 -0.018578
0.465339 -0.044122 -0.021482
0.465339 0.003401 0.066926
0.465339 0.064356 0.066816
