-0.346828 -0.078669 -0.061143
0.436686 0.004904 -0.099557
0.228751 0.098826 0.015171
-0.262549 -0.032684 -0.094122
-0.173582 0.032575 0.094608
-0.373701 0.079116 -0.060868
0.197075 0.099193 0.012855
-0.273457 -0.098063 0.018517
0.378065 0.039687 -0.091481
0.155426 0.018402 0.098369
-0.055191 -0.088196 -0.046411
-0.214718 0.010509 0.099483
0.341748 -0.084075 0.053921
0.356855 0.035126 0.093690
-0.256796 -0.028511 0.095832
0.186689 0.038280 -0.092090
-0.348906 0.043495 -0.089769
0.339311 -0.062965 0.077604
0.402233 0.062248 0.078341
-0.073585 -0.096318 -0.025746
-0.081143 -0.099740 -0.000845
-0.275087 0.030071 0.095446
-0.425914 0.091612 0.040139
0.164602 0.010816 0.099454
-0.294574 -0.098201 -0.017285
-0.089965 0.034399 0.093952
-0.147396 0.083720 0.054787
-0.206305 -0.064631 -0.075835
-0.201461 0.081534 -0.057640
-0.418479 0.007357 -0.099419
0.046707 -0.090116 -0.042641
0.448525 -0.099733 0.001431
0.433862 -0.018048 -0.098025
0.350289 -0.094660 0.031667
-0.064597 -0.085437 0.051650
0.295532 -0.080838 -0.058321
0.093648 0.099838 -0.005148
-0.209375 -0.074830 -0.065779
0.385448 0.100005 0.000163
0.320794 0.098312 0.018418
-0.320058 -0.099468 -0.007221
-0.285762 0.061641 0.078812
-0.240881 -0.099761 -0.000162
0.072180 0.095948 -0.027823
0.141287 0.091793 -0.039359
-0.381281 0.009676 0.099562
0.402592 -0.096751 -0.024133
-0.035423 0.077339 -0.063159
0.386848 -0.077877 0.062527
-0.438395 0.064645 0.076391
0.171472 -0.050046 0.086507
0.243523 -0.085015 0.052363
0.160236 0.021000 -0.097454
0.114512 0.025268 0.096842
-0.044358 0.067301 0.074050
0.033514 0.070672 0.070820
0.169794 -0.018057 0.098387
0.168986 -0.043908 0.089802
0.447708 0.050792 -0.085841
0.345027 -0.069355 -0.071541
0.410067 -0.043362 0.090080
-0.333603 -0.074072 -0.066639
-0.102207 0.071309 -0.069820
0.159723 -0.073380 0.067787
-0.037503 -0.094687 0.031594
-0.288606 -0.007150 0.099779
0.344780 -0.099744 0.001060
-0.438264 0.099472 0.010008
0.185195 -0.016379 0.098653
-0.440147 -0.087240 0.048601
0.325819 -0.064101 -0.076302
0.416105 0.094202 0.033588
0.459850 0.021709 -0.097295
-0.124498 -0.043022 0.090254
-0.450574 -0.086530 0.049801
-0.371853 0.005396 0.099904
-0.249164 0.083175 0.055589
-0.261298 0.028450 -0.095554
0.058468 0.098803 0.015319
0.118321 0.099305 0.011772
-0.043286 0.043591 -0.089720
0.463134 0.093264 0.036194
0.243036 0.024617 -0.096645
-0.297061 0.028563 0.095884
-0.081306 0.079318 0.060971
0.320323 -0.023331 0.097243
-0.353100 0.004923 -0.099556
-0.311275 -0.033046 -0.093992
0.027853 -0.099638 0.004458
0.409553 -0.058855 -0.080429
-0.206624 0.053479 -0.084252
-0.197057 -0.089065 0.045066
0.100507 0.012106 -0.098970
0.059970 -0.032036 -0.094356
-0.095710 -0.094987 -0.030329
0.284512 -0.026705 -0.095994
0.456213 -0.016880 -0.098210
-0.181340 -0.060628 0.079417
0.269447 -0.099087 0.011614
-0.372414 0.030096 0.095439
0.097490 -0.073408 -0.067393
-0.163383 -0.014861 -0.098530
0.038642 0.099951 -0.001539
0.073296 0.097350 0.022863
-0.293821 0.069518 0.071974
-0.445259 0.093397 0.035825
0.382649 -0.063829 0.076905
0.217801 0.098790 0.015398
-0.319894 0.034557 0.093895
0.232862 -0.052154 -0.084898
-0.162696 0.003341 -0.099606
0.335968 0.071844 -0.069286
0.295539 0.074367 0.066933
-0.326493 -0.041855 -0.090442
-0.185915 0.071019 0.070474
-0.326200 0.000360 0.100062
0.439309 0.092839 0.037303
-0.032493 0.070019 0.071473
-0.135082 -0.060546 0.079480
0.030538 -0.080154 0.059592
0.103647 0.077446 0.063384
-0.456333 -0.065825 -0.074782
-0.256249 -0.065389 -0.075167
-0.453787 0.074877 0.066355
0.125787 -0.060521 -0.079137
0.091554 0.084053 0.054296
-0.036613 -0.089114 -0.044609
-0.393358 -0.076359 -0.064045
-0.081329 -0.007453 -0.099387
0.349103 -0.049809 0.086647
-0.257038 0.091559 -0.039898
0.277677 -0.025953 -0.096212
0.095035 -0.044071 0.089719
0.379292 -0.051882 -0.085058
0.103522 -0.086261 -0.049893
0.029988 -0.038575 0.092225
-0.065350 0.084767 -0.052814
-0.316726 -0.057020 -0.081702
-0.418548 -0.039062 -0.091651
-0.239756 -0.098471 -0.015577
0.404500 0.024208 -0.096737
-0.057793 0.002446 0.099997
-0.175907 -0.099630 0.004709
0.260278 0.094640 -0.032009
0.154616 0.054409 0.083997
0.096064 0.089947 0.043794
-0.113229 0.096480 0.026354
-0.402202 0.053923 -0.083965
-0.298762 -0.076451 -0.063941
0.014241 -0.042962 -0.089921
-0.072483 -0.093920 0.033724
0.051323 -0.048468 -0.087078
0.341402 -0.074243 0.066808
0.417197 0.033352 -0.093966
-0.459681 0.029480 -0.095255
-0.176087 -0.037591 -0.092288
-0.388904 0.033063 0.094433
0.023417 0.002535 0.099994
0.186669 0.088621 -0.046034
0.257537 -0.010820 0.099432
-0.309401 -0.049197 0.087010
-0.068404 -0.096853 0.024041
0.329717 -0.099742 -0.000763
0.022715 0.005868 -0.099526
-0.056090 0.018822 -0.097940
-0.388821 -0.095126 -0.029850
0.279647 0.042468 -0.090278
-0.310771 0.077599 0.063186
-0.366038 -0.042582 -0.090115
0.096769 0.099381 -0.010614
0.281742 -0.056380 -0.082136
0.316995 0.006896 -0.099462
-0.230516 0.015590 -0.098452
0.069615 0.061962 -0.078200
-0.319072 0.097192 0.023569
-0.309291 0.024265 0.097087
-0.419093 -0.099054 0.011959
-0.162191 -0.075897 -0.064570
-0.224668 0.091005 0.041542
0.464629 -0.000641 -0.099683
-0.081803 -0.059135 -0.080212
0.269929 -0.009844 0.099524
0.387644 0.019948 -0.097689
-0.329200 0.012340 0.099310
0.226368 0.050019 0.086662
0.437012 0.059082 -0.080435
-0.216562 0.085151 0.052528
0.195247 0.099012 -0.013638
-0.337875 0.036528 -0.092822
-0.431769 -0.006902 -0.099440
0.255823 0.021003 0.097816
0.324056 0.009250 0.099602
0.219548 0.060232 -0.079542
-0.091844 -0.023581 -0.096825
0.246862 0.098272 -0.018307
-0.354514 0.095269 0.030523
-0.093094 -0.075336 0.065569
-0.144672 -0.031112 -0.094688
0.129364 0.052140 0.085407
-0.201408 0.095490 0.029762
0.344460 0.036525 0.093186
0.153914 0.097737 0.021133
-0.147386 0.093471 0.035618
-0.394459 0.001241 0.100035
-0.408205 0.097911 -0.019988
-0.364554 -0.050234 0.086396
-0.333241 -0.099226 0.010139
0.453082 -0.075137 -0.065431
0.099948 -0.084949 0.052475
-0.006358 0.067504 0.073870
0.104731 0.010514 0.099483
-0.376157 0.041019 -0.090905
-0.324930 -0.047705 0.087867
0.085510 0.058520 0.081204
0.246305 -0.068284 -0.072612
-0.109381 0.097505 -0.021805
-0.147475 -0.048340 -0.087153
-0.000011 0.099344 -0.011004
-0.466761 0.087322 0.048857
-0.350234 0.099474 -0.009621
-0.004077 0.085170 0.052496
-0.465796 -0.097298 0.022048
-0.238168 0.071585 -0.069544
-0.466217 -0.052575 -0.084649
0.346347 0.011015 -0.099073
-0.051277 0.029369 0.095650
-0.280924 0.097633 0.021594
-0.377228 -0.012455 0.099274
-0.464145 0.076411 -0.064252
-0.121531 0.096466 -0.026041
-0.397060 0.095884 -0.028043
-0.138543 0.096182 0.027383
-0.374124 -0.062292 0.078126
-0.310066 0.099906 0.003328
-0.438399 0.031722 0.094915
0.337420 0.046427 0.088637
-0.144794 0.005926 0.099887
0.430363 0.000691 0.100052
0.452601 0.071282 0.070211
-0.270062 -0.005916 -0.099518
-0.173253 -0.060387 -0.079241
-0.280680 -0.099687 -0.002511
-0.254627 0.055874 -0.082639
-0.422602 -0.076587 -0.063787
-0.267121 -0.039403 -0.091503
0.377658 -0.068547 0.072712
-0.425659 -0.009768 0.099531
0.029951 -0.045364 0.089060
0.283281 -0.001927 0.100006
0.298633 0.030467 -0.094969
-0.449513 0.092091 -0.038670
-0.172618 -0.081881 -0.056787
-0.076824 -0.018172 -0.098006
-0.143835 -0.096038 -0.026711
-0.304277 0.098263 -0.018363
-0.369448 -0.034113 -0.093608
-0.199858 0.041890 -0.090528
0.296825 -0.097570 -0.020473
0.366161 -0.092913 -0.036158
0.268039 0.003074 -0.099614
-0.427333 -0.092125 0.038413
0.457805 -0.034547 0.093814
-0.201940 0.097630 -0.021249
0.211806 0.058154 0.081452
-0.113074 -0.080505 0.059139
-0.260016 0.099367 -0.010756
-0.169318 -0.038065 -0.092082
-0.255053 0.004265 0.099940
-0.162486 0.099874 -0.004010
0.297846 -0.027669 -0.095713
0.435542 -0.099718 0.001906
-0.373277 -0.040983 -0.090820
-0.329543 0.005965 0.099886
-0.401508 0.078492 -0.061673
0.267879 -0.024291 0.097029
0.269516 -0.081881 -0.056786
-0.424934 -0.054447 -0.083450
-0.164246 -0.099595 -0.005461
-0.451355 0.078318 0.062260
0.432887 -0.079506 0.060427
-0.324280 -0.087629 0.047886
-0.414389 0.097376 -0.022385
0.096527 -0.097071 -0.022704
-0.079855 -0.098912 -0.012792
0.450690 -0.038834 -0.091750
0.342108 -0.058176 -0.080916
-0.267428 -0.099707 -0.001876
-0.109662 0.013527 0.099141
-0.248021 0.087592 -0.048037
0.057042 -0.051254 -0.085430
0.373795 -0.097924 -0.018889
-0.073175 0.025634 -0.096373
-0.203873 0.077920 -0.062410
-0.025073 0.084619 -0.053065
0.175796 -0.083047 -0.055071
-0.212561 0.037623 0.092737
0.394959 -0.011915 -0.098966
-0.027330 0.095492 0.029754
-0.389472 0.096179 -0.027029
0.079898 0.087828 0.047953
0.145343 -0.062819 0.077718
-0.191109 0.010970 0.099440
0.194693 -0.074203 -0.066491
0.386887 0.096774 -0.024982
-0.086261 0.095611 -0.028983
0.398473 0.081127 -0.058239
-0.245018 -0.086030 0.050646
0.000351 -0.083425 0.054878
-0.101860 -0.094348 0.032534
-0.136542 0.039268 -0.091663
0.281079 -0.067093 -0.073664
0.223372 0.048741 -0.087055
0.437436 0.017851 0.098456
0.257577 0.020066 -0.097662
-0.313623 0.096613 -0.025536
0.252084 -0.089125 0.044950
-0.032274 0.087951 -0.047348
0.058897 0.055366 0.083347
0.295147 -0.092855 -0.036319
-0.189730 0.098443 0.017591
-0.432288 0.042966 0.090401
0.172816 0.041668 -0.090624
0.204636 -0.002615 0.099984
-0.175609 0.048050 0.087811
0.180582 0.099558 -0.008734
0.187154 -0.096919 0.023746
0.111175 0.051415 0.085836
0.294578 -0.062536 0.077937
0.337913 0.086273 -0.050268
0.147725 -0.095917 -0.027128
-0.207374 0.093276 -0.035799
0.228117 -0.074021 -0.066698
-0.007301 -0.007367 -0.099396
0.189070 -0.090032 0.043170
-0.059708 0.035330 -0.093254
0.351082 -0.056465 0.082441
-0.138402 -0.040183 -0.091166
-0.242950 0.071721 0.069771
0.002109 0.079657 0.060533
0.044715 -0.011503 0.099367
0.297743 0.096346 -0.026453
-0.277167 -0.035490 0.093475
0.099820 0.051248 -0.085572
-0.119357 -0.008708 -0.099269
0.189001 0.039105 0.092096
0.270268 0.009942 -0.099174
-0.438313 -0.017139 0.098532
0.138777 -0.099193 -0.010127
0.118274 0.092257 -0.038287
0.332407 0.075793 -0.064952
-0.385089 -0.092421 0.037730
0.035396 -0.041867 0.090800
0.139957 -0.060205 -0.079383
0.370060 -0.007144 0.099779
0.050254 -0.005895 0.099881
0.234849 -0.099183 -0.010236
-0.225326 -0.069678 -0.071218
-0.364837 0.099854 0.004994
0.052365 0.080902 -0.058565
0.322280 0.076286 -0.064393
0.284789 -0.087417 0.048303
-0.197660 -0.079567 0.060348
-0.297360 -0.011351 -0.099019
-0.422977 0.065150 -0.075583
-0.160318 0.013527 0.099141
-0.183668 0.099614 -0.008140
0.218444 -0.010728 0.099441
-0.437183 -0.080764 0.058793
-0.277862 0.008930 -0.099270
0.026030 -0.052246 -0.084844
-0.154395 0.084774 -0.052802
0.450424 -0.096396 -0.025479
0.432030 0.092955 0.037035
0.157750 -0.014177 0.099001
-0.130782 0.088583 -0.046108
-0.194500 -0.086378 0.050059
-0.213537 0.009241 -0.099241
0.222126 -0.044709 -0.089031
-0.086235 -0.032043 0.094716
0.003090 0.062248 -0.077979
0.122695 0.099696 0.007641
-0.452581 -0.099264 0.009746
0.347406 0.092475 -0.037782
0.244042 -0.017301 0.098507
-0.132431 -0.099499 0.007256
0.117547 0.015580 -0.098453
0.273473 -0.094111 -0.032830
-0.345407 0.098560 -0.016487
-0.249979 0.096716 0.025543
-0.315018 0.046548 0.088576
0.372467 -0.013628 -0.098725
0.315670 0.050068 -0.086270
-0.410655 -0.082214 -0.056296
0.411188 0.048693 -0.087083
0.028997 -0.004600 0.099922
-0.272090 0.082076 -0.056843
0.081863 -0.081175 -0.057826
-0.057966 0.009322 0.099596
0.441834 -0.031623 0.094867
-0.251732 0.093101 0.036648
-0.421125 -0.013629 0.099088
-0.466169 0.076467 0.064551
0.151851 0.095993 -0.027667
-0.047593 -0.078744 -0.061046
0.375680 -0.032902 -0.094044
-0.426029 -0.025466 -0.096354
-0.266485 0.074371 -0.066565
0.302765 -0.098628 0.014950
0.243966 0.091506 -0.040021
0.013622 0.070548 0.070944
-0.236203 -0.004921 0.099912
0.388246 -0.054732 -0.083257
-0.258713 -0.071900 0.069359
0.332275 0.029551 0.095597
-0.390494 -0.030542 -0.094879
0.406755 0.082391 -0.056379
-0.385605 0.094957 -0.031130
0.328156 -0.045004 0.089244
-0.038409 -0.097532 -0.020643
0.054612 -0.099522 -0.006652
0.003139 0.065660 0.075496
-0.417527 -0.024864 0.096891
-0.046383 -0.062778 -0.077387
-0.352972 0.038987 0.092147
0.164952 -0.099188 -0.010186
-0.397577 0.029613 -0.095217
-0.189049 -0.032800 0.094443
0.037451 -0.059056 0.080636
0.210319 -0.068061 -0.072811
-0.211767 -0.087920 0.047315
0.353663 -0.062762 0.077762
0.073437 0.092175 0.038839
-0.356322 -0.094475 -0.031819
0.225603 0.056399 0.082645
-0.039682 -0.021840 -0.097214
-0.253073 0.090816 0.041978
0.113612 -0.087982 0.047193
-0.439343 0.086446 0.050338
0.392939 -0.099755 -0.000364
0.139228 0.045256 0.089234
0.450595 0.090542 -0.042249
-0.346054 -0.032850 -0.094062
-0.114165 -0.016841 0.098579
-0.034579 0.088030 0.047556
0.208560 -0.072855 -0.068020
-0.241087 -0.079676 0.060207
-0.197328 -0.055447 -0.082770
-0.189774 0.048155 0.087757
0.344658 0.051102 0.086021
-0.064003 0.081460 0.058113
0.365879 -0.032486 -0.094193
0.151048 0.035267 0.093639
-0.068473 0.098679 -0.015736
-0.354674 0.099853 -0.004668
-0.138631 0.098195 -0.018718
-0.379193 0.031357 -0.094684
-0.100127 -0.071152 0.070107
0.108679 -0.085299 0.051884
-0.026969 -0.003799 -0.099584
-0.095752 -0.099429 0.007991
0.182329 0.056817 0.082361
-0.170867 0.039111 0.092093
0.301206 -0.098440 -0.015775
0.449453 0.066462 0.074789
0.455894 0.094414 0.033001
-0.327410 0.099922 -0.002472
0.441159 -0.063021 -0.077198
-0.011995 0.099650 0.008130
0.192035 -0.058539 0.081032
-0.335867 0.069441 -0.071689
-0.433505 0.098882 -0.014459
0.297892 0.062185 -0.078027
0.008504 0.078969 0.061421
0.374026 0.016878 -0.098248
-0.165643 -0.066927 0.074173
0.175091 -0.030237 0.095330
0.385078 0.089376 -0.044553
0.363626 0.092855 0.037268
0.176860 0.096472 0.026382
0.463976 0.095792 -0.028361
0.272705 -0.081060 0.058357
0.451307 0.005372 -0.099542
-0.081885 0.098290 -0.018197
0.008060 0.028160 -0.095639
0.150148 -0.085455 -0.051257
-0.326787 -0.097068 0.023079
0.233742 0.087148 -0.048789
0.236387 -0.047300 -0.087711
-0.141542 -0.071442 0.069817
-0.108884 -0.014081 0.099017
-0.379412 -0.097226 0.022372
-0.415124 0.030068 -0.095084
0.306055 -0.096022 -0.026765
-0.236956 0.056468 0.082598
0.329364 -0.025699 0.096649
-0.429479 -0.084064 -0.053574
0.174238 -0.063524 0.077171
0.237893 0.099972 0.001243
-0.014262 -0.087031 -0.048592
0.204813 -0.053601 -0.084025
0.361778 -0.099023 -0.011924
0.151853 0.057151 -0.081771
0.398017 -0.021611 0.097628
-0.454986 -0.014424 -0.098599
0.337599 0.080886 0.058948
-0.296388 -0.047461 -0.087629
0.064873 0.097630 -0.021249
0.437490 -0.090647 -0.041466
-0.218679 -0.086423 -0.049620
-0.066703 0.062727 0.077970
0.394013 -0.009746 0.099533
-0.430194 -0.081274 0.058042
0.266947 0.093095 0.036664
-0.258571 0.082953 0.055916
0.257426 0.056270 0.082732
0.399898 0.095782 -0.028394
-0.410839 -0.055172 -0.082958
0.175661 0.098225 0.018949
-0.457732 -0.021884 -0.097204
-0.151756 -0.025047 -0.096475
0.373302 0.046995 0.088348
0.362406 -0.099131 0.011153
-0.455538 -0.070641 -0.070255
0.282545 -0.053716 0.084310
0.086327 -0.093174 -0.035432
-0.435201 0.025672 0.096724
0.363362 0.037884 0.092624
0.225139 0.064504 -0.076153
0.310096 -0.089366 0.044477
0.297301 -0.045471 0.089006
0.379160 -0.097648 0.020485
-0.350427 0.099820 0.006072
0.013374 -0.042119 0.090691
-0.059166 -0.083473 0.054806
-0.262563 -0.094738 -0.031090
0.046712 0.070431 -0.070699
0.305368 0.082138 -0.056752
0.066854 -0.042506 -0.090153
-0.007873 0.052824 0.085003
0.197278 -0.038615 0.092207
-0.411090 -0.094063 0.033326
0.141938 -0.096172 0.026611
-0.183382 0.081180 0.058524
-0.007003 -0.050210 -0.086048
-0.272807 -0.087836 -0.047116
0.156010 -0.099676 -0.002878
-0.218262 -0.098932 0.013029
-0.255979 -0.054163 0.084006
0.457355 -0.087454 -0.047867
-0.084169 -0.011783 0.099341
0.237640 0.094979 -0.031068
-0.274279 -0.049476 -0.086482
-0.302063 -0.072097 0.069162
-0.307558 0.015602 -0.098450
0.365256 -0.095151 -0.029765
-0.295886 -0.085695 -0.050851
0.132945 0.041608 0.091013
0.123516 0.058109 0.081483
0.160760 -0.087180 0.048702
0.274320 -0.097899 0.019363
0.124066 0.054147 -0.083813
-0.228387 0.032409 0.094668
0.099732 0.096459 0.026428
-0.014078 -0.097215 0.022420
-0.268634 0.013361 0.099168
-0.225985 -0.010678 -0.099083
0.261951 0.089494 -0.044321
0.181261 0.078495 0.062032
-0.054808 -0.027811 -0.095672
0.406420 -0.098693 0.014539
-0.395647 -0.013090 -0.098811
0.333232 -0.054780 -0.083224
-0.432461 -0.095994 -0.026861
-0.418181 0.024109 -0.096759
-0.151069 -0.089234 0.044735
-0.196846 -0.098054 0.018576
-0.379328 -0.021773 -0.097229
0.347874 0.019647 -0.097756
0.232131 -0.094938 -0.030498
0.179073 0.014671 0.098960
0.049204 -0.097219 -0.022040
-0.238541 0.032483 0.094641
-0.120314 0.062506 -0.077778
-0.362345 -0.098853 0.013532
0.014876 -0.067081 -0.073675
-0.010994 0.081478 -0.057723
-0.087544 0.051495 0.085789
-0.054220 0.090411 -0.042521
-0.423833 -0.099601 -0.005258
0.189779 0.015181 -0.098516
0.043676 -0.099712 -0.001730
-0.047754 0.021489 -0.097344
0.089944 -0.099406 -0.007873
-0.091604 -0.095907 0.027523
0.097917 0.053802 0.084410
0.008146 -0.038482 -0.091902
0.080083 -0.099768 0.000319
0.075729 -0.095855 0.027702
0.079633 0.008406 0.099682
0.428107 0.033613 0.094235
0.294695 -0.073603 0.067535
0.149327 0.051381 0.085856
-0.383270 -0.042727 -0.090041
0.331405 -0.018653 0.098289
0.332706 0.092738 0.037538
-0.359425 -0.058636 -0.080599
-0.376943 0.069110 0.072382
0.434998 0.071372 0.070121
0.391367 -0.021737 -0.097237
-0.331545 -0.098257 -0.016928
0.373267 0.099651 -0.007752
-0.151742 -0.084875 0.052600
0.443291 -0.093143 0.035881
0.145908 0.058152 -0.081091
0.416885 -0.088246 -0.046313
-0.238995 -0.032065 0.094708
0.404341 0.090085 0.043523
-0.373256 -0.063092 -0.077143
-0.346769 0.071953 0.069539
0.366052 0.080371 -0.059251
-0.158831 0.025845 0.096674
0.171511 -0.043879 -0.089454
-0.273731 0.098192 0.019094
0.080551 -0.093261 -0.035190
-0.166195 0.088588 -0.046100
0.151244 0.099876 0.004291
-0.115947 -0.099013 0.012396
0.021340 -0.093535 0.034792
-0.247215 -0.099760 0.000569
0.030501 0.098223 0.018956
-0.129644 0.074804 0.066437
-0.152321 -0.090791 -0.041134
-0.300474 -0.099189 -0.010171
0.331144 -0.080743 -0.058461
-0.077732 0.045979 -0.088503
-0.108246 0.058889 -0.080584
-0.359432 0.050441 0.086411
0.145566 0.098883 -0.014449
-0.087488 -0.051806 0.085466
0.371633 0.097233 -0.023024
-0.074318 0.090433 -0.042478
-0.004275 -0.072411 0.068847
-0.037857 -0.054189 -0.083625
-0.300263 -0.062581 0.077903
0.091028 -0.008034 0.099695
0.054159 -0.078791 0.061348
0.328645 -0.098841 0.013604
0.282629 0.075813 -0.064930
0.348106 -0.089883 -0.043099
-0.362133 -0.087227 -0.048261
0.403542 -0.082230 -0.056273
0.273781 0.073499 0.067917
0.365533 0.002137 0.100007
0.275849 -0.055792 -0.082536
0.463270 0.091548 -0.039923
0.460327 0.032076 0.094788
0.375674 -0.059621 -0.079835
0.154057 0.035846 -0.093068
0.421172 -0.098705 -0.014102
-0.135083 -0.076728 -0.063627
-0.399212 0.050166 0.086574
0.417131 0.050109 0.086608
-0.013398 -0.092922 -0.036134
0.093031 0.091691 -0.039593
0.159288 -0.098238 0.017413
0.175243 -0.098427 0.016217
-0.274334 0.068237 0.073225
0.039611 0.086853 0.049651
0.287927 -0.098776 -0.013652
-0.243718 0.092019 0.039197
0.122055 -0.075658 -0.064841
-0.462512 0.068392 -0.072725
-0.109956 0.066183 0.075035
0.065128 -0.066615 -0.074086
0.423621 -0.060407 -0.079226
0.359954 -0.028156 0.095935
-0.114595 -0.094821 -0.030858
-0.155376 0.019191 0.098221
-0.080719 0.043971 0.089889
-0.446107 0.005690 -0.099532
0.167096 0.099183 -0.012558
0.385953 0.072107 -0.069022
0.348664 -0.018877 0.098239
0.101480 0.024623 0.097007
0.394315 -0.064505 0.076309
0.092137 0.060165 -0.079595
-0.167615 0.057377 0.081980
-0.206049 -0.045230 0.089128
-0.368598 0.086677 0.049948
0.337982 -0.098401 -0.016017
0.078632 -0.092628 0.037252
-0.194831 0.038751 -0.091886
-0.390346 -0.081880 -0.056788
-0.040524 -0.075589 -0.064919
-0.257087 -0.076567 0.064172
0.028296 -0.006755 -0.099453
-0.464537 0.054491 -0.083579
-0.445017 -0.099338 -0.008599
0.380437 -0.017348 0.098499
-0.408497 0.077109 -0.063456
0.171102 -0.066734 -0.073982
0.400352 -0.095205 -0.029579
-0.110465 -0.099624 -0.004524
-0.365602 -0.029247 0.095618
-0.316420 -0.095064 -0.030062
-0.432064 -0.093899 0.033783
0.196435 -0.087898 0.047357
-0.227913 0.040898 -0.090958
-0.317962 0.036640 -0.092782
0.409253 -0.089681 -0.043496
-0.185159 0.044956 -0.089024
0.077051 0.033240 -0.094006
0.339422 0.027999 -0.095685
-0.282706 -0.010079 0.099502
-0.052975 -0.005695 -0.099525
-0.363203 -0.036168 -0.092868
-0.074857 -0.003465 0.099957
0.035012 -0.012452 -0.098912
0.415756 -0.082537 -0.055820
0.374685 0.065864 0.075317
0.044507 0.087438 -0.048298
-0.350850 0.078525 0.061993
-0.005394 0.020976 -0.097459
-0.400138 -0.099003 -0.012140
-0.376024 -0.095818 0.027830
0.457557 0.025988 0.096633
0.212646 -0.051049 -0.085552
0.331066 -0.061401 0.078818
-0.325108 -0.049926 -0.086216
0.126658 -0.096439 -0.025331
-0.431630 0.094773 0.032002
-0.444847 0.095439 -0.029577
0.105276 0.002174 0.100005
0.065169 -0.081107 -0.057925
0.197329 0.048581 0.087512
0.058116 -0.003847 0.099945
-0.130914 -0.099623 -0.004570
-0.112059 0.048585 -0.087147
0.374013 -0.034970 0.093662
0.261925 -0.047076 -0.087825
-0.049847 0.041302 -0.090783
0.300969 -0.017449 0.098483
-0.389408 0.054329 0.084052
0.327733 -0.096052 0.027025
-0.210871 -0.058328 -0.080812
-0.092718 -0.070800 0.070458
0.102234 0.037868 -0.092269
0.056921 -0.002964 -0.099610
-0.322463 0.031202 -0.094740
-0.112803 -0.070351 0.070907
-0.160491 -0.098507 -0.015351
-0.402483 0.045494 0.089113
0.222738 -0.015705 0.098759
0.310616 -0.056338 -0.082165
0.110516 0.096712 -0.025194
0.123430 -0.093168 0.035813
-0.117580 -0.093602 0.034607
-0.070684 0.074475 -0.066447
0.312082 0.064959 0.076115
0.075647 0.099384 -0.010574
-0.365216 -0.061518 0.078726
0.330513 0.000605 -0.099692
0.200513 -0.062709 0.077803
-0.377576 0.001008 0.100042
-0.414647 -0.037294 0.092779
-0.452566 0.098490 0.017294
0.042348 0.059934 0.080137
0.201187 0.065232 -0.075511
-0.444775 0.056472 -0.082232
0.279394 0.061566 0.078870
-0.169153 -0.011402 -0.099014
0.369551 -0.078500 0.061724
-0.027588 0.059829 0.080218
-0.201405 -0.049651 0.086741
0.191642 0.008621 -0.099299
-0.267869 -0.053410 0.084518
-0.433666 -0.081584 -0.057223
-0.152701 0.098885 -0.014440
0.385385 0.048029 -0.087458
0.074586 -0.062206 0.078193
-0.050205 0.098242 0.018861
0.409929 0.099508 0.009629
0.398093 0.008245 -0.099335
0.425678 -0.073875 0.067226
-0.082499 0.095357 0.030220
0.287120 0.089267 -0.044766
0.072538 -0.073472 0.067684
-0.124584 -0.089663 -0.043530
-0.371717 0.006722 -0.099479
-0.091362 0.068206 0.073252
0.115587 -0.079666 0.060221
0.284177 0.099901 -0.003137
-0.048773 0.031445 -0.094652
0.433416 0.093476 -0.035241
0.073520 -0.098244 -0.017009
-0.411140 0.043342 -0.089847
-0.123594 0.086123 0.050885
0.203430 0.099738 -0.006832
-0.226247 -0.087454 0.048229
0.302114 0.090326 0.043052
0.418134 -0.093955 0.033627
0.339753 -0.090564 0.042020
-0.446310 -0.099571 0.006492
0.152055 -0.094227 -0.032509
-0.245478 0.018384 -0.098009
0.339510 0.095935 -0.027869
-0.223881 -0.072208 0.069051
-0.372910 -0.099286 0.009514
-0.349507 -0.037499 -0.092327
0.273803 0.068420 0.073064
0.214785 0.021410 0.097725
-0.425578 0.050491 0.086382
-0.391023 -0.008885 -0.099252
-0.342860 0.099461 0.010131
0.157301 0.024830 0.096960
-0.406593 -0.047086 0.088183
-0.286143 -0.077648 -0.062460
0.080629 -0.079838 0.059999
0.043280 -0.097346 0.021834
-0.078321 -0.064952 0.075915
-0.288354 0.094148 0.033740
-0.268326 -0.093577 -0.034312
-0.465344 0.004676 -0.099564
0.198421 -0.082892 -0.055298
-0.160097 -0.037772 -0.092209
0.069877 0.080735 -0.058780
-0.248106 -0.058250 0.081228
-0.001780 -0.037643 0.092628
0.416708 0.014878 0.098927
0.140695 0.029110 0.095725
0.376282 -0.045483 -0.088637
0.256071 0.086459 0.050317
0.367158 -0.097411 -0.021181
-0.301680 0.099553 -0.008790
-0.460192 0.072446 -0.068683
0.267698 -0.093692 0.034356
0.214508 -0.046503 0.088480
0.220316 0.074442 -0.066485
-0.208959 0.068151 -0.072938
0.454709 -0.093447 -0.034673
-0.380972 0.065654 0.075502
0.151865 -0.064725 0.076116
-0.177224 0.096278 0.027050
-0.361130 -0.024331 -0.096657
-0.351340 -0.099748 -0.000590
0.260452 0.081424 -0.057803
-0.337581 0.062747 0.077954
-0.366940 0.066632 0.074640
0.218864 -0.022934 -0.096969
-0.296491 0.074512 0.066769
-0.014105 0.056734 -0.082054
0.202837 0.093295 -0.035744
0.005249 -0.002232 0.099996
-0.383228 -0.082052 0.056897
0.401173 -0.037358 0.092751
0.307641 0.014332 0.099014
0.216284 -0.098412 0.016312
0.272858 -0.091403 -0.039721
-0.120143 -0.002719 0.099981
-0.051842 0.004028 0.099947
-0.005234 0.041985 0.090850
0.387001 0.027173 0.096288
0.354558 -0.016966 -0.098197
0.121958 0.099272 -0.011764
0.316858 -0.080223 0.059503
-0.131305 -0.090094 0.043047
0.301030 0.063844 0.077098
0.277395 0.001095 -0.099676
-0.048350 0.047042 -0.087961
0.104068 -0.088314 0.046540
0.095960 0.023313 -0.096937
0.385597 0.025992 -0.096268
-0.424805 -0.091221 -0.040141
0.267308 -0.098302 0.017010
0.449798 0.073682 -0.067347
-0.339793 0.022168 -0.097193
-0.437661 0.059194 -0.080348
0.451233 -0.002211 -0.099634
-0.022209 0.090623 -0.042061
-0.466210 0.011962 0.099346
0.173201 0.003019 -0.099616
-0.382577 -0.048788 0.087251
-0.345175 0.001326 -0.099669
-0.276778 0.087290 -0.048548
0.358817 -0.088424 0.046326
0.204280 -0.035048 -0.093271
0.265532 -0.083315 0.055040
0.100018 0.031563 -0.094610
0.089093 0.094879 0.031709
0.232257 0.027583 0.096169
0.352094 -0.093767 -0.033787
-0.364661 -0.096898 -0.023478
-0.290244 -0.052982 -0.084408
0.103373 -0.001876 -0.099645
0.304969 0.092188 -0.038445
0.426360 0.091567 0.040242
0.464906 -0.009369 0.099569
0.025286 0.034258 -0.093640
0.291413 -0.089227 -0.044386
0.028532 -0.067773 0.073428
-0.372590 0.048729 -0.087061
0.230017 -0.012845 -0.098850
0.098196 -0.059430 0.080346
-0.417824 0.091271 0.040928
-0.244446 -0.004439 -0.099564
-0.107261 0.074997 0.066218
0.371743 0.003628 -0.099597
-0.430702 0.086841 -0.049308
-0.425859 0.058554 0.081180
0.253960 0.094371 -0.032757
-0.293953 -0.099400 -0.007945
-0.012819 -0.022715 0.097381
0.196896 0.066095 0.075113
-0.382387 -0.070265 -0.070631
-0.205059 0.099664 -0.007614
-0.344756 0.026056 -0.096250
-0.324471 0.086539 0.050182
0.401235 -0.050622 0.086167
-0.066260 -0.077203 -0.063033
-0.371821 -0.025764 0.096630
-0.333331 -0.070034 0.071225
-0.238607 0.089765 -0.043788
-0.414235 0.028971 0.095766
-0.280774 0.099849 -0.004794
0.069443 -0.071452 -0.069444
0.390654 -0.016916 0.098567
-0.345653 0.028522 0.095896
0.313462 -0.067844 -0.073002
0.274445 0.099913 -0.002756
-0.249960 0.098361 0.018110
-0.346355 0.088111 -0.047036
0.432468 0.097265 -0.022879
-0.204313 0.045599 -0.088696
-0.421011 0.082621 0.056403
-0.026653 0.029379 -0.095285
-0.307481 0.097616 0.021674
-0.465573 -0.098456 -0.015671
-0.286039 -0.078950 0.061144
-0.325559 -0.022192 0.097498
0.166334 0.018667 -0.097964
-0.281047 -0.057454 0.081769
0.048860 -0.099228 -0.009758
0.162393 -0.088394 -0.046022
0.081818 -0.099595 -0.005451
-0.109228 -0.098583 0.015232
-0.008775 -0.087751 0.047646
-0.036712 -0.094204 -0.032573
-0.094443 -0.029545 -0.095169
-0.299798 -0.056565 0.082374
-0.088124 0.035584 -0.093162
0.371753 -0.066860 -0.073870
0.274563 -0.063107 -0.077131
-0.462167 -0.099765 0.000389
-0.051853 -0.095348 -0.029086
-0.342054 0.035240 0.093649
0.003748 0.042591 0.090588
-0.296510 0.047304 0.088190
-0.002657 0.030251 0.095394
0.108472 -0.004985 0.099910
-0.248102 0.050043 -0.086284
-0.352409 0.080975 -0.058462
-0.310139 0.098471 -0.017055
-0.021427 -0.005484 -0.099531
0.243446 0.039518 0.091918
-0.222587 0.007130 -0.099440
0.388081 -0.049221 -0.086633
0.313742 0.066882 -0.074056
-0.323469 0.051341 -0.085517
-0.316362 0.099950 0.001936
0.296613 -0.099534 -0.006523
0.128999 0.078510 -0.061650
-0.154448 0.087162 0.049128
0.051739 0.015463 0.098835
0.229626 -0.015846 0.098737
0.289972 0.099689 0.007711
-0.203381 -0.098045 -0.018266
0.113996 0.081513 -0.057671
-0.089459 -0.008654 0.099637
0.428288 0.007637 0.099755
-0.434558 0.099748 -0.006728
0.200172 0.056911 -0.081934
-0.387276 0.099065 -0.013300
0.141095 -0.026920 0.096294
-0.054779 0.099911 0.003194
0.323367 0.092075 -0.038707
0.149119 0.014156 -0.098679
-0.355069 -0.033043 0.094356
-0.434443 -0.099354 0.008786
-0.184410 0.065108 -0.075621
-0.051214 -0.083427 0.054875
-0.363699 0.095147 0.030942
0.199186 0.091667 0.040012
-0.062523 -0.093667 -0.034064
-0.327912 -0.082379 -0.056054
0.227872 -0.047736 -0.087489
-0.354337 0.017071 -0.098217
0.339867 -0.034396 0.093869
-0.443293 -0.023055 -0.096942
-0.345860 0.002140 0.100006
-0.252373 -0.073176 0.068018
-0.408255 0.052678 -0.084726
0.135988 0.010686 0.099467
0.076875 -0.072539 -0.068357
0.110538 -0.067857 0.073354
0.459030 -0.090998 -0.040655
-0.452937 -0.097705 0.020232
-0.145437 -0.099500 0.007249
-0.242365 0.012771 0.099261
-0.174931 0.095885 -0.028041
-0.410739 0.093052 0.036783
0.122815 -0.071876 0.069383
0.447595 -0.093984 -0.033182
-0.447902 0.055527 0.083238
-0.466233 0.047090 0.088299
-0.038495 0.007208 0.099795
0.021837 0.051730 0.085649
0.444481 0.077244 -0.063281
-0.292407 -0.078309 0.061970
-0.082921 0.074618 -0.066285
-0.033366 -0.004095 0.099938
0.386824 -0.087507 -0.047762
-0.087576 -0.003993 -0.099578
-0.171277 -0.083647 0.054551
0.452331 -0.055147 -0.082974
-0.197560 -0.082603 -0.055724
0.235707 -0.096666 -0.024515
-0.249499 -0.058595 -0.080631
-0.017043 -0.033722 0.094111
0.143471 0.001704 0.100020
-0.033154 -0.093130 0.035917
-0.421750 0.062584 0.078081
-0.141387 0.074391 -0.066543
-0.386638 0.099389 0.010891
0.191337 0.097688 -0.020988
0.253259 -0.030441 0.095271
-0.444607 0.032301 0.094707
0.205677 0.064420 0.076590
0.120722 -0.081029 -0.058040
-0.051900 0.050295 0.086498
0.052661 -0.065167 -0.075363
0.439158 0.097446 -0.022071
0.222818 -0.079275 -0.060362
0.171752 0.070661 -0.070468
-0.349829 -0.066187 0.074826
0.046784 0.024915 -0.096579
0.308161 0.017588 -0.098135
-0.045540 0.078696 -0.061410
0.215177 0.063463 -0.077037
-0.006890 -0.019369 0.098129
0.347779 -0.096378 0.025902
-0.374203 -0.055440 -0.082775
0.342483 0.070048 -0.071081
-0.334783 0.095201 -0.030395
-0.406194 0.053382 0.084673
-0.394821 0.064666 0.076372
-0.134359 0.099868 0.004559
0.159378 -0.098661 -0.014381
0.135131 0.088808 0.046029
0.386991 0.011437 -0.099033
-0.465943 -0.043449 -0.089673
0.450380 0.099987 -0.000399
0.327460 0.000347 0.100063
-0.229850 0.083592 0.054975
-0.219497 0.029580 0.095589
-0.130377 0.006995 -0.099453
-0.271029 -0.065982 0.075007
-0.021095 0.056028 -0.082534
-0.207830 0.065414 0.075714
-0.227403 0.056311 -0.082342
-0.179562 -0.099407 -0.007866
-0.459586 0.098721 0.015836
-0.261508 0.024905 0.096944
-0.048663 0.075091 -0.065749
0.072818 0.099896 -0.003297
0.263816 0.086261 0.050651
0.309486 -0.098501 -0.015387
-0.416967 -0.094101 0.033220
-0.029225 0.039116 0.092092
0.207899 -0.088042 -0.046712
-0.458544 0.019766 -0.097730
-0.127036 -0.087038 -0.048579
-0.048973 0.094104 0.033860
0.183216 -0.063231 -0.077035
0.268825 0.054231 0.084118
-0.094023 0.084721 -0.052893
0.036727 -0.073387 -0.067417
0.314433 0.099392 -0.010497
-0.148886 -0.072547 0.068711
-0.409060 -0.088033 0.047092
0.240849 -0.098881 -0.012987
-0.033665 -0.040026 -0.091234
-0.217911 -0.045729 0.088874
0.019846 -0.039102 0.091996
0.002871 0.074380 0.066918
0.310492 -0.085736 -0.050781
-0.239480 -0.016745 0.098595
0.319428 -0.012663 -0.098878
-0.232927 -0.071873 0.069386
-0.101567 -0.090402 0.042396
-0.113996 0.095278 -0.030130
0.360059 -0.079298 0.060696
-0.439351 -0.085229 -0.051638
0.350325 0.070325 -0.070805
0.003212 -0.099663 0.003655
-0.408776 -0.062919 0.077640
-0.000230 -0.099518 -0.006694
-0.046361 -0.099615 -0.004812
-0.315401 -0.099068 0.011819
0.381043 -0.095741 0.028095
0.277278 -0.043038 -0.089882
0.098709 -0.048839 0.087221
-0.311218 -0.068158 -0.072726
-0.389268 -0.023182 -0.096914
0.203774 -0.040028 0.091596
-0.013770 -0.048566 -0.087020
-0.020575 -0.049153 -0.086673
-0.203935 -0.088630 0.045921
0.333205 -0.072389 -0.068507
0.203745 0.088190 -0.046881
0.093228 0.098409 -0.017441
-0.202576 0.082633 0.056385
-0.371129 -0.054635 0.083685
-0.393919 0.014690 0.098957
0.069473 -0.035020 -0.093281
-0.057268 -0.099735 -0.000990
0.076091 0.000573 0.100056
-0.102956 -0.031466 0.094924
0.305019 -0.012973 0.099192
-0.170690 -0.056091 -0.082333
0.171679 0.008341 0.099688
-0.031443 0.091024 0.041498
-0.028483 0.045339 -0.088829
0.076193 0.075550 -0.065228
-0.280149 0.045151 -0.088925
-0.410220 0.088038 0.047540
0.007872 -0.011680 -0.098988
0.029325 0.099208 -0.012397
-0.267809 0.028002 0.096047
-0.031468 -0.098850 0.013547
0.383597 0.083927 0.054482
-0.019548 -0.085186 -0.051712
-0.408270 -0.020627 -0.097485
0.073864 -0.068181 -0.072706
-0.311361 -0.075347 -0.065193
0.026719 0.033734 0.094191
-0.181708 0.098789 -0.015043
0.240828 0.087479 0.048591
0.051420 -0.098368 -0.016229
-0.006666 0.077046 0.063894
0.404534 0.088656 -0.045964
0.414902 -0.025964 -0.096209
0.353521 -0.035771 -0.093011
0.270916 0.017497 -0.098150
0.011789 -0.018044 0.098389
-0.459620 0.086383 0.050445
-0.400519 -0.036445 0.093131
0.023034 -0.033726 -0.093747
0.245655 0.089635 0.044406
-0.043957 -0.014817 0.098900
-0.318740 -0.084942 -0.052125
0.417326 0.096982 -0.024144
0.205958 -0.096220 0.026447
0.389406 -0.097786 -0.019505
0.305451 -0.007157 -0.099415
-0.340455 -0.081286 0.058025
0.029614 0.096784 0.025308
0.439218 -0.077110 -0.063154
0.144379 -0.039230 0.091941
-0.051248 0.077694 0.063064
-0.376305 -0.095727 -0.027780
-0.038667 0.095133 -0.030629
0.242706 -0.066767 0.074315
0.440065 0.053289 -0.084365
0.225768 -0.029334 -0.095230
-0.325657 -0.074386 -0.066283
-0.446328 0.098036 0.019795
-0.025473 0.098953 0.014373
-0.450948 -0.082110 0.056811
-0.124217 -0.003629 -0.099589
-0.030768 0.077681 0.063081
0.394795 -0.096064 -0.026620
0.119099 -0.041765 -0.090481
-0.392950 -0.099024 -0.011915
0.444078 -0.023035 0.097309
-0.067926 0.091166 0.041169
-0.166949 0.024308 0.097077
-0.052216 -0.055831 0.082872
-0.144992 0.088514 -0.046244
0.050209 -0.098621 0.014992
0.370532 0.058877 -0.080594
-0.367287 -0.045118 0.089186
-0.072841 -0.060861 0.079237
0.255961 -0.096726 -0.024246
-0.092260 -0.045139 0.089175
0.216227 -0.028793 -0.095387
0.200426 -0.026698 -0.095996
0.200986 0.082653 -0.055994
-0.109504 -0.052144 0.085266
-0.283293 -0.035996 0.093293
-0.407356 0.093814 -0.034303
0.024923 0.077770 -0.062604
0.265927 -0.097431 -0.021094
-0.410398 -0.019558 0.098087
-0.198346 -0.014199 -0.098635
0.300828 -0.011738 -0.098982
-0.460279 -0.076585 0.064152
-0.006544 -0.084935 0.052498
-0.459439 0.096353 -0.026428
-0.207760 -0.064261 0.076524
-0.325266 0.059076 0.080802
-0.429739 0.064822 0.076235
0.098544 -0.007487 -0.099384
-0.396115 -0.097278 0.022139
0.021254 0.054541 -0.083544
0.427834 -0.072622 -0.068274
0.044320 0.064820 0.076237
-0.090992 0.018368 0.098374
0.258791 -0.065555 -0.075021
0.007391 0.065362 -0.075397
0.170948 -0.095563 0.028710
0.385632 -0.003525 0.099956
0.329559 -0.091133 0.040706
0.239146 -0.095607 0.028558
-0.123460 -0.066207 -0.074446
-0.212585 0.082835 -0.055726
-0.088767 0.076928 -0.063665
0.145679 0.027399 -0.095860
-0.332430 0.097896 -0.020059
-0.075248 0.098246 -0.018474
-0.373474 0.099862 -0.004386
-0.395348 -0.099738 0.001274
-0.236555 0.098328 0.018316
-0.367659 -0.071383 0.069875
0.075047 -0.055762 0.082919
-0.023539 -0.079843 -0.059630
0.340850 0.097415 0.022570
-0.083069 0.099903 0.003426
-0.192347 0.067383 0.073978
0.158846 0.072606 0.068887
0.046772 0.076576 -0.064065
0.423934 -0.093008 0.036256
-0.237456 0.086497 -0.049889
-0.345620 0.065833 0.075344
-0.358754 -0.099765 0.000393
-0.021735 -0.035292 -0.093183
0.338788 -0.022992 0.097319
0.431380 0.027767 0.096116
0.084528 0.074411 0.066883
0.095721 -0.035656 0.093415
0.033654 -0.084106 0.053875
-0.321023 0.099411 -0.010291
0.442888 0.099571 -0.008602
-0.111127 -0.084974 0.052433
0.087456 0.030910 0.095203
0.321518 0.045919 0.088896
-0.200952 -0.099302 0.009335
-0.256378 -0.081280 -0.057671
-0.227877 0.030033 -0.095094
0.208946 0.010204 0.099512
-0.335951 0.015904 -0.098402
-0.156336 0.042878 -0.090083
-0.028091 0.091404 -0.040258
-0.207690 -0.093750 0.034196
0.383479 0.032494 -0.094275
-0.001894 -0.060438 -0.079202
0.314148 -0.065102 0.075782
0.063872 -0.074690 0.066302
-0.261120 -0.067130 0.073994
0.156379 -0.087099 -0.048477
-0.057022 -0.079423 0.060535
-0.273542 0.094348 -0.032820
-0.150113 0.095305 0.030400
0.027350 -0.051270 0.085784
0.401196 -0.085835 0.050977
-0.175115 0.099655 0.008077
-0.312774 -0.013074 0.099176
0.374181 -0.020381 0.097903
-0.377635 0.060637 0.079591
-0.455839 0.026227 0.096563
-0.024635 0.064562 -0.076101
0.127142 -0.094911 0.030953
-0.182544 -0.096187 -0.026199
0.463855 -0.080508 -0.058772
0.185382 0.032894 0.094493
0.255436 0.062281 0.078315
0.326740 0.056456 -0.082243
-0.273972 -0.091148 -0.040310
-0.395114 -0.087631 0.047881
0.192480 -0.056216 -0.082247
0.057464 -0.074190 -0.066505
-0.220988 0.006484 0.099864
0.383188 0.038799 0.092229
0.337577 -0.087933 -0.046927
-0.318759 -0.089983 -0.042902
0.293852 0.066277 -0.074590
0.189029 0.043809 -0.089609
-0.363059 0.037645 0.092728
0.021554 -0.099656 0.003874
-0.165200 -0.053584 -0.084036
0.234242 -0.083656 -0.054175
0.392117 0.067383 -0.073615
-0.438591 -0.065446 0.075480
-0.248035 0.080079 -0.059627
0.423506 -0.084471 -0.052921
-0.225303 0.014127 0.099046
0.120341 0.084397 -0.053428
0.244426 -0.085170 -0.051739
-0.451933 0.099099 -0.013088
0.455792 0.092443 -0.037855
-0.258303 0.019743 0.098098
0.299418 -0.023242 0.097263
0.304277 -0.006865 0.099806
-0.062924 0.057950 0.081591
0.073475 -0.043652 -0.089569
-0.120769 0.043065 -0.089988
0.037680 0.093954 -0.033913
0.104670 0.089159 -0.044979
-0.091459 -0.008720 -0.099268
0.207805 0.092167 0.038856
0.360265 -0.034749 0.093742
0.278207 0.084378 -0.053455
0.191143 -0.089205 -0.044430
0.443216 0.098355 0.018150
-0.439473 -0.002790 0.099979
-0.214649 -0.095215 0.029905
0.410438 -0.086341 -0.049758
0.217928 -0.017082 -0.098178
-0.464814 -0.058223 -0.080884
-0.093019 0.093305 -0.035717
-0.182515 0.099880 0.004160
0.253661 0.035408 -0.093226
-0.342501 -0.090706 0.041693
-0.410351 0.003259 0.099971
0.367492 -0.086105 0.050521
0.440929 0.099995 -0.000157
0.109412 0.045744 0.088985
0.463674 -0.069045 0.072214
-0.166592 -0.066680 -0.074029
-0.041978 -0.076552 0.064189
-0.246054 0.029432 -0.095269
-0.262338 -0.053886 -0.083831
0.441878 0.095051 0.031231
-0.375981 -0.032731 0.094468
0.222475 0.082585 -0.056094
0.426251 0.086980 -0.049073
0.197276 0.072748 -0.068382
0.442248 -0.056881 -0.081796
0.016866 0.015808 -0.098417
0.212165 -0.039268 -0.091562
-0.099890 0.040857 -0.090975
-0.314692 0.048305 -0.087312
-0.417873 0.012378 0.099307
0.015422 0.008984 -0.099265
0.355643 -0.059890 -0.079627
0.228772 0.099442 -0.009968
0.369231 0.012352 -0.098946
-0.320237 0.002046 0.100009
0.357911 0.066342 -0.074532
0.101750 -0.079331 -0.060290
-0.045927 -0.025586 0.096682
0.430903 0.089073 -0.045147
-0.261668 -0.017905 -0.098048
0.237600 -0.088630 0.045921
0.165135 0.095294 0.030438
-0.241210 0.027006 0.096337
-0.392655 -0.071622 -0.069275
-0.249639 -0.031082 0.095062
-0.112587 0.006931 0.099822
-0.203867 0.043707 0.090023
0.162485 0.046007 0.088851
-0.465071 -0.064137 0.076633
-0.223138 -0.095350 -0.029079
-0.456133 -0.069146 0.072113
0.302752 0.038845 -0.091846
0.318253 -0.087772 0.047605
-0.320728 -0.096565 -0.024895
-0.163525 0.094305 -0.032940
0.275328 0.053152 -0.084446
-0.214100 0.092157 0.038879
0.216592 0.027986 0.096052
0.024433 0.010000 0.099531
-0.120836 -0.058782 0.080849
-0.424280 -0.025190 0.096797
0.169116 -0.074956 -0.065637
0.080147 -0.089093 0.045012
-0.159103 -0.085569 0.051427
0.023231 0.096900 0.024875
-0.205791 0.020727 -0.097515
-0.386976 0.048318 0.087668
0.318767 0.090288 -0.042762
0.444336 -0.009757 -0.099170
0.260804 -0.041235 0.091073
-0.293327 -0.036717 0.093028
0.195370 0.038972 -0.091791
-0.284486 0.018116 0.098414
0.257197 0.099443 -0.009956
0.383870 -0.099298 0.009380
-0.055826 -0.084234 -0.053321
0.363339 0.097582 0.021825
-0.084769 0.093505 0.035524
0.370157 -0.098446 0.016097
-0.126772 0.060937 -0.078996
-0.124704 0.055003 -0.083231
0.291396 -0.096773 0.024398
-0.357014 0.074889 -0.065978
-0.140390 0.099194 -0.012487
-0.358643 0.085543 0.051866
-0.366657 0.069075 -0.072054
-0.447852 -0.062416 -0.077668
0.095417 -0.090856 -0.040984
0.203088 0.043848 -0.089589
0.161596 0.037354 0.092854
0.191371 0.050118 0.086603
-0.007580 -0.029936 -0.095055
0.323625 -0.083133 -0.054944
-0.248348 0.011544 0.099386
0.033151 0.073525 -0.067525
-0.452580 0.085186 0.052470
-0.075972 -0.085621 -0.050977
-0.419523 0.046599 0.088550
-0.373578 0.090784 0.042051
0.146983 -0.024239 0.097040
-0.116350 0.090800 0.042015
0.178965 0.083243 -0.055126
-0.092963 -0.002683 0.099982
0.327070 -0.039071 0.092010
-0.029991 0.094402 -0.032670
0.268654 -0.099336 -0.008618
0.035747 -0.068928 -0.071968
0.286758 -0.095621 -0.028145
-0.225425 -0.074082 -0.066629
0.066063 -0.096991 -0.023063
0.137709 -0.089251 -0.044339
0.430076 -0.012703 -0.098872
-0.120078 -0.091022 0.040964
0.267490 -0.003678 0.099951
0.133331 0.099914 -0.002715
0.356327 -0.082302 -0.056167
-0.344723 -0.099653 0.003950
-0.232630 -0.099169 -0.010385
0.022839 0.069895 0.071598
0.077242 0.067218 -0.073760
-0.227256 -0.093522 0.034830
-0.391954 0.025754 0.096700
-0.129227 -0.029259 0.095614
-0.030129 0.068232 -0.072866
-0.002039 -0.079421 -0.060174
-0.336549 -0.093451 0.035027
0.442894 0.090670 0.042317
0.347681 0.089588 -0.044137
-0.088236 -0.059159 -0.080194
0.371902 -0.082304 0.056526
-0.160661 0.038146 0.092511
0.299789 0.041522 0.091050
0.462723 0.047300 -0.087830
0.147391 -0.092607 -0.036938
-0.203004 -0.029555 0.095528
-0.280844 -0.018514 -0.097952
-0.107081 0.095961 -0.027779
0.010296 -0.024051 0.097082
0.071586 -0.021099 0.097742
0.422107 0.009599 0.099569
0.086272 0.004538 0.099931
0.188159 0.095003 -0.031001
0.210156 -0.061608 0.078657
0.356545 0.027635 0.096154
0.107598 -0.095988 0.027245
0.020294 -0.096296 0.026187
0.336665 0.099810 -0.006043
-0.098295 -0.042106 0.090696
0.372840 0.098102 0.019497
-0.185557 0.094234 0.033500
0.293060 0.056343 -0.082320
0.014682 0.076934 0.064020
-0.273065 -0.087784 0.047581
0.073669 -0.087574 -0.047630
0.019246 -0.057831 0.081513
-0.454361 0.011948 0.099347
-0.381189 -0.040473 0.091403
0.118367 -0.091357 -0.039825
0.182117 0.090535 -0.042264
0.407048 0.071259 0.070233
-0.459976 -0.088639 0.045903
0.161442 -0.083938 -0.053759
-0.189636 -0.017303 0.098506
-0.170347 -0.099300 0.009363
-0.178846 0.094607 0.032465
-0.259510 0.031473 0.095005
-0.120550 0.088538 0.046560
0.439084 0.046295 -0.088342
-0.302154 0.023292 0.097304
-0.355407 0.027041 -0.095964
-0.466938 0.071606 0.069887
0.021196 -0.049192 -0.086650
-0.032719 0.000700 -0.099689
0.377946 0.099013 -0.013628
-0.410378 -0.049833 -0.086271
-0.409810 0.096912 0.024822
-0.297510 -0.084585 0.053091
-0.291484 0.096683 -0.025293
-0.103800 -0.043437 -0.089679
0.194522 0.094983 0.031420
-0.358726 -0.092434 -0.037338
-0.033439 -0.023528 0.097199
-0.007089 0.035879 -0.093056
-0.117580 0.029230 -0.095328
-0.204635 -0.098482 0.015872
-0.018554 -0.063031 0.077553
-0.116221 -0.089194 -0.044452
0.151639 -0.094760 0.031391
-0.209083 -0.091373 -0.039789
0.054579 0.093412 0.035784
-0.161603 -0.094934 0.030873
0.245708 -0.093674 -0.034045
-0.129207 -0.075419 0.065474
-0.186202 -0.078514 -0.061343
0.303202 0.026231 -0.096199
-0.438786 -0.008797 0.099623
0.249689 0.097750 0.021073
-0.331602 0.018247 0.098394
-0.369600 -0.098086 -0.018010
0.291405 0.097210 0.023490
-0.136867 0.031271 0.095078
-0.006154 0.045571 -0.088711
-0.150868 -0.068312 0.072947
-0.113314 0.079753 0.060409
0.036383 -0.029088 -0.095301
-0.433766 -0.048397 -0.087120
-0.379968 0.002354 -0.099637
0.250826 0.074429 0.066863
0.266011 0.074538 0.066739
0.322466 -0.006016 0.099877
-0.351919 -0.015414 -0.098443
0.211541 0.096439 0.026496
0.289459 -0.008015 -0.099334
-0.147848 -0.097719 -0.019807
0.257747 0.099661 0.008010
0.297884 0.005973 0.099886
0.055265 0.003414 -0.099604
0.167957 0.011616 -0.099016
-0.177331 -0.003919 0.099943
-0.345628 -0.056874 0.082163
0.002484 0.084394 -0.053433
-0.101510 -0.096390 0.025860
0.362936 -0.025941 -0.096216
-0.166122 -0.093029 0.036199
0.457736 -0.003599 -0.099590
-0.416844 -0.018136 0.098374
0.417825 0.044790 0.089471
-0.000694 0.099723 0.007351
-0.112743 0.088777 -0.045728
0.376008 -0.090800 0.041475
-0.068442 0.012571 0.099288
-0.253884 -0.099671 0.003398
-0.259442 0.046793 -0.088088
0.026052 0.097076 -0.023727
0.299877 0.058164 0.081445
-0.130630 0.095550 -0.029195
0.063848 -0.015139 -0.098486
-0.208066 0.007246 0.099792
-0.145630 -0.086387 0.050044
-0.283401 0.099013 0.013995
0.162860 -0.018610 0.098299
0.013821 -0.098945 0.012951
0.187469 -0.051711 0.085523
0.125630 -0.021645 0.097620
-0.087987 0.097779 -0.020581
0.399933 0.081332 0.058300
0.271446 0.099377 -0.010653
0.200343 -0.039016 -0.091671
0.400370 0.071515 0.069977
0.067691 0.081924 0.057430
-0.064655 -0.003896 -0.099581
0.234221 -0.062678 -0.077464
-0.170316 0.082266 -0.056564
0.125200 -0.086288 0.050212
-0.447152 -0.062859 0.077687
0.387444 -0.015732 -0.098392
-0.307829 0.003222 0.099972
-0.001963 -0.095504 0.028913
-0.034227 0.090964 -0.041275
0.044388 0.048942 0.087298
0.276668 -0.031924 0.094758
-0.316884 -0.050189 0.086423
0.255454 0.092503 0.038080
0.457297 -0.095240 -0.029456
-0.057507 -0.056622 -0.081972
0.182585 -0.093743 0.034215
-0.358680 0.086258 -0.050293
0.429050 0.099981 0.000950
0.092852 -0.022442 0.097442
0.355218 -0.099743 -0.000753
0.022076 -0.081171 -0.057831
0.096247 -0.080457 0.059201
0.400243 0.098271 0.018675
-0.028598 -0.086572 -0.049367
-0.452765 0.043766 -0.089630
0.092588 0.072729 -0.068401
0.256716 0.077860 0.062851
-0.232086 0.086793 0.049752
0.399761 0.029247 -0.095323
0.083535 0.091419 -0.040223
-0.353626 -0.074831 0.066141
0.411690 -0.096045 -0.026688
0.431907 0.014406 0.099002
-0.336185 0.077950 0.062734
-0.360797 -0.086165 0.050419
0.323845 0.093377 0.035879
-0.311442 0.099827 -0.005487
-0.428290 0.045359 -0.088819
-0.422115 -0.067029 -0.073721
-0.097320 -0.011628 -0.098993
0.020396 -0.021838 0.097577
0.312956 -0.031144 -0.094677
-0.370514 0.099942 0.002208
0.059844 0.091810 0.039682
0.347487 -0.079390 0.060577
0.188712 0.099493 -0.009421
0.032944 0.080297 -0.059345
-0.243536 -0.003890 0.099944
0.440447 0.066964 0.074347
0.358203 0.094358 0.033156
-0.336589 -0.008094 -0.099327
0.387572 0.081585 -0.057565
0.156477 0.042530 -0.090251
0.012739 -0.049012 -0.086756
0.408396 -0.073831 -0.066913
0.350658 0.023424 0.097275
-0.131997 0.099816 -0.005840
0.134733 0.098122 0.019408
-0.455180 0.075027 -0.065822
0.129017 0.099431 0.010438
0.312944 -0.041234 0.091074
-0.067106 0.071552 0.069941
0.416580 -0.051451 -0.085314
0.267082 -0.028054 -0.095602
0.044432 0.065133 -0.075598
0.098068 -0.030445 -0.094907
0.252485 -0.044731 -0.089020
0.372688 0.096712 0.025556
0.255366 0.041160 0.091207
-0.086079 0.039796 0.091797
0.270418 -0.099651 0.004041
0.049479 -0.091851 0.039046
-0.312614 -0.040307 -0.091112
-0.200427 -0.024341 0.097017
0.444831 -0.097626 0.020582
-0.456615 -0.099612 0.005266
0.077532 -0.066583 0.074477
0.275516 -0.074425 -0.066239
-0.296300 -0.094105 0.033210
0.216880 -0.007884 -0.099347
0.455614 0.046630 -0.088171
-0.190207 0.029571 0.095592
-0.177928 0.032461 -0.094287
-0.268590 -0.058047 -0.081004
-0.006976 -0.099173 0.010700
0.376276 0.078079 -0.062205
-0.111273 -0.070860 -0.070036
-0.021515 -0.097339 0.021868
-0.386247 -0.099218 -0.009862
-0.282299 -0.046645 0.088407
0.439452 0.065292 -0.075458
0.414686 -0.034437 0.093854
-0.142046 -0.099293 -0.009070
0.290567 0.081900 -0.057102
0.435054 -0.085982 -0.050365
-0.179855 0.099928 -0.002265
0.094746 -0.096881 0.023917
0.385724 0.033660 0.094218
-0.379560 -0.077186 -0.063055
-0.161591 0.099461 -0.009765
-0.071935 -0.043386 0.090068
0.460718 -0.099472 -0.007181
0.277425 0.099560 -0.008712
0.209018 0.072238 -0.068891
0.371235 0.086935 -0.049149
-0.360350 0.030236 0.095398
-0.034248 0.099850 -0.004754
0.113998 0.058501 0.081216
-0.012742 -0.054152 0.084013
0.307318 -0.072433 0.068825
-0.004217 -0.056588 0.082358
