-0.466955 -0.068518 -0.051829
-0.466955 -0.082370 -0.051187
-0.466955 -0.006331 0.088252
-0.466955 -0.035574 -0.036790
-0.466955 0.028773 -0.027334
-0.466955 0.084775 -0.030934
-0.466955 -0.046613 -0.067604
-0.466955 0.043953 0.059440
-0.466955 0.074469 -0.033640
-0.466955 -0.082391 -0.022465
-0.466955 0.062444 0.013477
-0.466955 0.063909 0.002268
-0.466955 0.088614 0.042237
-0.466955 -0.020834 0.037943
-0.466955 0.013841 0.077962
-0.466955 -0.024598 0.021019
-0.466955 -0.034265 0.019380
-0.466955 0.080263 0.003342
-0.466955 -0.016757 -0.048055
-0.466955 -0.070838 -0.058480
-0.466955 -0.018546 0.060572
-0.466955 -0.004652 -0.043352
-0.466955 0.012703 -0.072322
-0.466955 -0.069083 0.047993
-0.466955 -0.002382 0.061301
-0.466955 -0.010700 0.051404
-0.466955 -0.077549 0.006902
-0.466955 0.076274 0.064282
-0.466955 -0.030886 0.033762
-0.466955 -0.029482 0.026387
-0.466955 0.078179 -0.047164
-0.466955 -0.015710 -0.067057
-0.466955 -0.025365 0.043311
-0.466955 -0.064847 0.026112
-0.466955 0.037147 -0.004818
-0.466955 0.047654 -0.082559
-0.466955 0.072477 0.037924
-0.466955 0.027375 0.045960
-0.466955 -0.087740 0.041507
-0.466955 -0.075233 0.017844
-0.466955 0.023859 0.035868
-0.466955 -0.036758 -0.053071
-0.466955 -0.047921 0.056690
-0.466955 0.087848 0.035746
-0.466955 0.024405 0.082694
-0.466955 -0.012985 0.070679
-0.466955 -0.082639 -0.006706
-0.466955 0.043284 0.085543
-0.466955 0.060856 0.031756
-0.466955 -0.059850 -0.024961
-0.466955 -0.048010 -0.075770
-0.466955 0.023563 -0.040004
-0.466955 0.056870 -0.066145
-0.466955 -0.043766 -0.027846
-0.466955 0.008716 -0.065079
-0.466955 0.043031 -0.066474
-0.466955 0.069234 0.027574
-0.466955 -0.004814 0.004481
-0.466955 0.022417 -0.071446
-0.466955 0.070219 -0.049481
-0.466955 -0.018764 -0.069893
-0.466955 0.006362 -0.036048
-0.466955 0.064034 0.000130
-0.466955 0.050380 0.065862
-0.466955 -0.026506 -0.018468
-0.466955 0.006687 0.054138
-0.466955 0.050283 -0.045838
-0.466955 -0.034016 0.028007
-0.466955 -0.048958 0.041001
-0.466955 -0.040197 -0.069033
-0.466955 -0.053788 0.067863
-0.466955 -0.065837 -0.054972
-0.466955 0.079797 -0.022633
-0.466955 -0.019650 -0.007075
-0.466955 0.014998 -0.015785
-0.466955 0.012309 0.077670
-0.466955 0.025299 -0.079218
-0.466955 -0.074230 -0.058946
-0.466955 0.088750 0.033641
-0.466955 0.028972 -0.007994
-0.466955 0.043625 0.020855
-0.466955 -0.053156 -0.005375
-0.466955 -0.007552 -0.003564
-0.466955 0.018326 -0.017891
-0.466955 -0.063413 -0.042636
-0.466955 0.059551 -0.052526
-0.466955 0.063287 -0.072410
-0.466955 0.029636 0.035202
-0.466955 0.047514 0.040080
-0.466955 -0.026659 0.095848
-0.466955 0.033811 0.039118
-0.466955 -0.009077 -0.090954
-0.466955 -0.017983 -0.066999
-0.466955 -0.068828 -0.007995
-0.466955 0.090325 -0.012544
-0.466955 -0.097976 0.004226
-0.466955 0.077872 0.031936
-0.466955 -0.069533 -0.017971
-0.466955 -0.080058 -0.013309
-0.466955 0.057264 0.013412
-0.466955 -0.093803 -0.024252
-0.466955 -0.023369 0.078107
-0.466955 0.058131 0.068623
-0.466955 -0.038045 0.028503
-0.466955 0.086770 -0.016564
-0.466955 0.052730 0.010581
-0.466955 0.082915 0.007055
-0.466955 -0.085933 0.038618
-0.466955 -0.029831 -0.031543
-0.466955 -0.073753 0.037546
-0.466955 0.073971 0.047865
-0.466955 0.062834 0.044343
-0.466955 -0.072169 -0.046873
-0.466955 0.033812 0.076335
-0.466955 0.049939 0.002143
-0.466955 -0.067252 0.007931
-0.466955 0.048070 0.002174
-0.466955 -0.050736 0.006908
-0.466955 -0.059827 -0.011178
-0.466955 -0.031635 -0.012733
-0.466955 -0.068470 -0.019529
-0.466955 -0.065065 -0.033542
-0.466955 -0.067976 -0.036412
-0.466955 -0.018408 0.052243
-0.466955 0.020424 -0.053566
-0.466955 -0.029057 -0.020808
-0.466955 0.025497 0.088413
-0.466955 -0.012974 -0.036913
-0.466955 0.056074 0.030975
-0.466955 0.029839 0.092531
-0.466955 0.065567 -0.074951
-0.466955 -0.016907 0.066293
-0.466955 0.061462 -0.033256
-0.466955 -0.004582 0.087070
-0.466955 -0.025542 -0.028075
-0.466955 0.074726 0.065434
-0.466955 0.084378 0.027529
-0.466955 0.014226 -0.030846
-0.466955 0.077721 0.023577
-0.466955 0.066809 0.008730
-0.466955 0.026543 0.052529
-0.466955 0.063168 -0.065103
-0.466955 -0.028356 -0.061663
-0.466955 0.043950 -0.011346
-0.466955 0.054149 -0.065419
-0.466955 0.011392 0.058149
-0.466955 0.046639 -0.056940
-0.466955 -0.031868 0.076441
-0.466955 0.068854 0.022043
-0.466955 -0.053923 0.033021
-0.466955 0.038946 0.058738
-0.466955 -0.013511 -0.078666
-0.466955 0.061643 -0.074144
-0.466955 -0.068169 -0.026666
-0.466955 -0.054959 0.016876
-0.466955 0.090242 0.028183
-0.466955 -0.052399 -0.043437
-0.466955 -0.025636 -0.015753
-0.466955 0.061405 0.060106
-0.466955 -0.074864 0.043516
-0.466955 0.056466 -0.073958
-0.466955 0.067783 0.048076
-0.466955 -0.057089 -0.045463
-0.466955 -0.066789 -0.033093
-0.466955 -0.076757 0.051854
-0.466955 -0.009206 -0.059685
-0.466955 -0.089056 -0.029055
-0.466955 0.020623 0.054344
-0.466955 -0.034705 -0.079869
-0.466955 -0.003563 0.062658
-0.466955 -0.022632 -0.076121
-0.466955 -0.042888 0.079438
-0.466955 0.004040 -0.022954
-0.466955 0.035077 -0.049326
-0.466955 -0.038335 -0.059954
-0.466955 -0.068620 0.027093
-0.466955 -0.060186 0.073868
-0.466955 0.025600 0.076508
-0.466955 -0.034483 0.059017
-0.466955 0.020405 -0.059876
-0.466955 0.073569 0.046351
-0.466955 -0.060297 -0.038430
-0.466955 -0.021700 -0.021528
-0.466955 -0.012347 0.085754
-0.466955 0.008189 -0.000051
-0.466955 -0.014737 -0.044036
-0.466955 0.058336 0.005594
-0.466955 -0.082771 0.036048
-0.466955 -0.005298 0.045137
-0.466955 -0.038432 -0.073162
-0.466955 -0.011478 -0.001901
-0.466955 0.077493 0.007333
-0.466955 0.007458 -0.053967
-0.466955 0.042479 0.035684
-0.466955 0.086157 -0.015206
-0.466955 0.086542 -0.030284
-0.466955 0.041004 0.036524
-0.466955 0.053424 0.037581
-0.466955 -0.028367 -0.084424
-0.466955 -0.066149 0.043528
-0.466955 -0.003148 -0.095093
-0.466955 -0.041068 -0.057926
-0.466955 -0.048725 -0.062940
-0.466955 0.077450 -0.029419
-0.466955 -0.070417 0.063384
-0.466955 -0.049156 0.057502
-0.466955 0.024621 0.026823
-0.466955 -0.039496 0.080706
-0.466955 -0.035483 -0.071333
-0.466955 -0.001527 0.058511
-0.466955 -0.004974 -0.003777
-0.466955 -0.027869 -0.029371
-0.466955 -0.007483 -0.026805
-0.466955 0.011612 -0.043457
-0.466955 0.053368 0.084179
-0.466955 -0.049976 0.083639
-0.466955 -0.036345 0.073039
-0.466955 0.047344 0.013130
-0.466955 0.077479 0.063265
-0.466955 0.040782 0.034046
-0.466955 -0.014863 -0.017778
-0.466955 -0.068091 0.065752
-0.466955 0.057501 -0.017555
-0.466955 0.000659 -0.016086
-0.466955 -0.032344 -0.073206
-0.466955 -0.030042 0.063955
-0.466955 0.072881 -0.017232
-0.466955 -0.015077 0.061737
-0.466955 0.051957 -0.021104
-0.466955 -0.007107 0.095129
-0.466955 -0.095737 -0.010995
-0.466955 -0.018331 -0.037783
-0.466955 -0.049212 0.080409
-0.466955 0.055505 -0.015607
-0.466955 0.059053 -0.000360
-0.466955 0.014712 0.052603
-0.466955 0.063736 0.048810
-0.466955 0.023437 0.010870
-0.466955 -0.044548 0.024573
-0.466955 -0.023253 0.019405
-0.466955 -0.037583 0.075044
-0.466955 0.018011 -0.013489
-0.466955 -0.029785 -0.080098
-0.466955 -0.002724 -0.085903
-0.466955 -0.061633 0.028418
-0.466955 0.064807 0.057088
-0.466955 -0.021463 -0.055995
-0.466955 0.026229 -0.091119
-0.466955 0.076851 0.030669
-0.466955 0.008555 0.018032
-0.466955 -0.087710 -0.030038
-0.466955 -0.076454 -0.026874
-0.466955 0.090214 -0.035784
-0.466955 -0.025543 0.062321
-0.466955 0.041580 -0.044683
-0.466955 -0.050029 -0.026158
-0.466955 -0.028701 -0.025335
-0.466955 0.033330 -0.004164
-0.466955 -0.061852 0.036346
-0.466955 -0.031287 -0.030232
-0.466955 0.030397 0.006195
-0.466955 -0.074237 -0.008736
-0.466955 0.071280 0.008247
-0.466955 -0.003501 -0.051750
-0.466955 0.018508 0.001971
-0.466955 -0.009488 -0.074217
-0.466955 0.079153 0.056519
-0.466955 0.049653 0.056557
-0.466955 0.027674 -0.046153
-0.466955 -0.075239 -0.007203
-0.466955 -0.038904 0.026252
-0.466955 0.026926 -0.042667
-0.466955 -0.095897 -0.027056
-0.466955 0.009257 -0.061943
-0.466955 0.043966 -0.070145
-0.466955 0.005245 -0.032450
-0.466955 0.043175 -0.067967
-0.466955 0.078440 -0.023256
-0.466955 0.007146 0.042561
-0.466955 0.060994 0.063423
-0.466955 0.030470 -0.092710
-0.466955 -0.081095 0.045997
-0.466955 -0.049706 -0.074606
-0.466955 0.087483 -0.031432
-0.466955 0.038775 0.036169
-0.466955 -0.092179 -0.011222
-0.466955 0.065098 -0.054059
-0.466955 0.047475 -0.033386
-0.466955 0.017700 0.029863
-0.466955 -0.069273 0.013926
-0.466955 -0.048929 0.015568
-0.466955 0.029709 -0.035721
-0.466955 0.003176 -0.085209
-0.466955 -0.027717 0.001339
-0.466955 0.007069 0.011714
-0.466955 -0.018433 -0.096274
-0.466955 -0.062018 -0.046979
-0.466955 -0.057878 0.072368
-0.466955 -0.092166 -0.035441
-0.466955 -0.069979 0.009068
-0.466955 0.014654 0.039047
-0.466955 0.079137 0.020219
-0.466955 0.030131 -0.070289
-0.466955 0.093350 -0.011081
-0.466955 -0.064183 -0.062806
-0.466955 0.072242 -0.045707
-0.466955 -0.012681 0.058384
-0.466955 -0.079464 -0.044980
-0.466955 -0.023950 -0.024836
-0.466955 0.034501 0.087626
-0.466955 0.024958 0.048953
-0.466955 0.003224 -0.068831
-0.466955 -0.014057 0.097629
-0.466955 0.076152 -0.051575
-0.466955 -0.011092 0.076756
-0.466955 0.031866 -0.001811
-0.466955 -0.012159 -0.048893
-0.466955 0.006126 -0.082211
-0.466955 -0.018589 0.084178
-0.466955 -0.026914 0.003049
-0.466955 -0.088099 -0.033290
-0.466955 0.013230 0.056908
-0.466955 -0.055811 0.076184
-0.466955 0.079576 -0.013648
-0.466955 -0.078728 0.002560
-0.466955 -0.053649 -0.061575
-0.466955 0.032584 -0.020922
-0.466955 -0.074179 -0.010098
-0.466955 -0.074277 0.066744
-0.466955 0.040394 -0.048878
-0.466955 -0.040033 -0.021179
-0.466955 -0.048684 0.024588
-0.466955 -0.031858 -0.065218
-0.466955 0.070503 0.064149
-0.466955 -0.047680 0.016645
-0.466955 -0.019632 0.096365
-0.466955 -0.031219 -0.060563
-0.466955 0.013206 0.079445
-0.466955 -0.038775 -0.065658
-0.466955 -0.038643 0.008229
-0.466955 -0.010612 0.087640
-0.466955 -0.055127 -0.082846
-0.466955 -0.024273 -0.060616
-0.466955 0.004626 0.060881
-0.466955 -0.044997 -0.073640
-0.466955 0.009409 -0.048226
-0.466955 -0.014277 -0.034509
-0.466955 0.096045 0.014164
-0.466955 0.023348 -0.057575
-0.466955 0.005772 0.032350
-0.466955 0.054791 -0.036093
-0.466955 0.011070 -0.097098
-0.466955 -0.039637 0.076830
-0.466955 -0.005873 0.040398
-0.466955 0.030113 0.030828
-0.466955 -0.039077 0.091282
-0.466955 0.018705 -0.066924
-0.466955 0.009921 0.036026
-0.466955 -0.043564 0.019158
-0.466955 -0.040944 0.028881
-0.466955 0.011641 0.007151
-0.466955 0.012669 -0.026136
-0.466955 -0.003569 0.069994
-0.466955 0.031169 -0.089426
-0.466955 0.049291 0.022246
-0.466955 -0.080686 0.037932
-0.466955 0.061207 0.077177
-0.466955 -0.022491 -0.059294
-0.466955 -0.022533 0.001661
-0.466955 0.060395 0.000525
-0.466955 -0.006165 -0.034758
-0.466955 -0.029809 -0.017090
-0.466955 -0.001256 0.069550
-0.466955 0.091736 -0.015475
-0.466955 0.045195 -0.058906
-0.466955 0.065417 -0.025178
-0.466955 0.052283 -0.030907
-0.466955 -0.076146 -0.012862
-0.466955 -0.027107 0.016225
-0.466955 0.048461 -0.027090
-0.466955 -0.088164 0.038488
-0.466955 -0.064447 0.011386
-0.466955 0.039365 0.083971
-0.466955 -0.006131 0.091437
-0.466955 -0.004212 0.077859
-0.466955 0.080597 0.040603
-0.466955 -0.061821 -0.003687
-0.466955 0.006594 -0.009564
-0.466955 0.005075 -0.002128
-0.466955 0.058590 0.012584
-0.466955 0.029965 0.029038
-0.466955 -0.054282 0.083690
-0.466955 0.007994 -0.056565
-0.466955 -0.042006 -0.039923
-0.466955 -0.024427 0.028719
-0.466955 -0.084809 -0.019486
-0.466955 -0.055511 0.011254
-0.466955 0.052788 0.046969
-0.466955 -0.038879 0.048348
-0.466955 -0.039636 0.053960
-0.466955 -0.000013 0.037520
-0.466955 0.040179 -0.069515
-0.466955 -0.066345 0.074261
-0.466955 -0.077291 0.045663
-0.466955 0.075346 0.045585
-0.466955 -0.013182 0.011827
-0.466955 0.016163 0.097759
-0.466955 0.003883 0.059479
-0.466955 -0.056432 -0.081870
-0.466955 -0.056645 -0.042640
-0.466955 -0.052990 -0.073681
-0.466955 -0.045569 0.049987
-0.466955 -0.040296 -0.002948
-0.466955 0.033626 -0.002565
-0.466955 -0.025874 0.084644
-0.466955 -0.095467 0.002022
-0.466955 0.043829 0.070725
-0.466955 -0.015755 -0.083103
-0.466955 -0.092835 0.002013
-0.466955 0.039958 -0.052698
-0.466955 -0.049445 -0.055348
-0.466955 0.055581 0.079944
-0.466955 -0.003195 -0.054732
-0.466955 -0.040973 0.053960
-0.466955 0.024488 -0.038582
-0.466955 -0.028178 -0.072912
-0.466955 0.025897 -0.096233
-0.466955 -0.099304 -0.005451
-0.466955 0.006057 -0.077947
-0.466955 0.045702 -0.076776
-0.466955 0.069412 0.035725
-0.466955 -0.000182 0.031406
-0.466955 0.039799 0.002520
-0.466955 0.048013 0.028728
-0.466955 -0.019296 -0.077669
-0.466955 0.082559 0.022434
-0.466955 0.038943 -0.090147
-0.466955 -0.066990 -0.048762
-0.466955 0.033783 0.074954
-0.466955 -0.071561 0.000803
-0.466955 0.043756 0.036622
-0.466955 -0.006871 0.078303
-0.466955 0.060534 0.049593
-0.466955 0.014862 0.096933
-0.466955 0.066131 -0.066597
-0.466955 -0.005042 -0.055413
-0.466955 0.073039 -0.052041
-0.466955 -0.087461 0.008574
-0.466955 -0.059132 -0.034153
-0.466955 -0.010043 0.053351
-0.466955 0.049624 0.031685
-0.466955 0.074822 -0.063069
-0.466955 0.090368 -0.023539
-0.466955 -0.002586 -0.025418
-0.466955 0.014824 0.054634
-0.466955 0.039905 0.035207
-0.466955 0.008005 -0.080030
-0.466955 0.019677 -0.032486
-0.466955 -0.023885 0.042228
-0.466955 0.054161 -0.042164
-0.466955 0.041123 0.089947
-0.466955 0.026283 0.082100
-0.466955 -0.030955 0.008813
-0.466955 -0.083748 -0.024551
-0.466955 0.010055 0.067031
-0.466955 0.013994 0.091816
-0.466955 -0.087698 -0.036147
-0.466955 0.017585 0.021101
-0.466955 0.017252 -0.071804
-0.466955 0.024193 -0.048099
-0.466955 -0.018786 -0.032099
-0.466955 -0.053480 -0.068092
-0.466955 0.060790 -0.019513
-0.466955 -0.027283 -0.069345
-0.466955 0.024181 0.074891
-0.466955 0.088758 -0.001236
-0.466955 0.080645 0.033877
-0.466955 -0.098112 -0.006513
-0.466955 -0.003948 0.013296
-0.466955 0.068154 -0.060688
-0.466955 -0.030008 -0.077095
-0.466955 -0.006051 0.042019
-0.466955 0.020378 0.044834
-0.466955 0.044898 -0.049933
-0.466955 0.049299 -0.009449
-0.466955 0.052927 0.079865
-0.466955 0.062263 0.052196
-0.466955 -0.047531 -0.061396
-0.466955 0.034883 -0.012651
-0.466955 -0.062776 0.013805
-0.466955 0.040476 -0.091017
-0.466955 -0.008370 0.010675
-0.466955 -0.084081 -0.051751
-0.466955 -0.030096 -0.047676
-0.466955 -0.039650 -0.001569
-0.466955 0.072806 0.039802
-0.466955 -0.077484 0.033714
-0.466955 0.038793 0.087647
-0.466955 -0.041421 -0.046948
-0.466955 -0.091499 -0.001071
-0.466955 0.059584 0.051559
-0.466955 0.052966 -0.055057
-0.466955 -0.013598 -0.003555
-0.466955 -0.033707 -0.034388
-0.466955 -0.005347 0.075746
-0.466955 -0.010067 -0.088819
-0.466955 -0.045815 -0.024586
-0.466955 0.031521 0.087936
-0.466955 -0.035327 0.024271
-0.466955 0.049725 0.018033
-0.466955 0.047081 0.062697
-0.466955 -0.007900 0.084540
-0.466955 -0.008575 -0.036929
-0.466955 -0.031147 0.035630
-0.466955 -0.006930 0.028750
-0.466955 0.034809 -0.069164
-0.466955 0.080631 -0.051477
-0.466955 0.038271 -0.091549
-0.466955 -0.004779 0.058809
-0.466955 -0.037443 -0.004103
-0.466955 -0.045546 0.074027
-0.466955 0.039159 -0.088699
-0.466955 -0.077053 0.014494
-0.466955 -0.046621 0.044591
-0.466955 0.002386 0.020072
-0.466955 -0.017770 -0.030007
-0.466955 0.020402 -0.072778
-0.466955 -0.050407 -0.072838
-0.466955 -0.016743 0.074181
-0.466955 -0.045146 0.015034
-0.466955 0.020956 0.025762
-0.466955 0.050905 0.026114
-0.466955 0.042506 0.086682
-0.466955 -0.040963 -0.016726
-0.466955 0.062960 0.068188
-0.466955 -0.003738 0.053357
-0.466955 -0.005416 -0.032167
-0.466955 0.026685 0.043827
-0.466955 -0.010597 0.014574
-0.466955 -0.016809 0.079858
-0.466955 -0.001850 0.072167
-0.466955 0.003435 -0.047002
-0.466955 0.084676 0.010484
-0.466955 0.039856 -0.029605
-0.466955 0.058885 0.053838
-0.466955 -0.078829 -0.046541
-0.466955 0.010983 -0.088864
-0.466955 -0.034639 0.049399
-0.466955 -0.016145 0.064540
-0.466955 -0.043025 0.035280
-0.466955 0.049792 -0.084655
-0.466955 0.010267 -0.038345
-0.466955 0.070001 -0.037662
-0.466955 -0.044498 -0.037187
-0.466955 -0.020092 -0.001945
-0.466955 -0.072671 -0.036412
-0.466955 -0.058578 0.047125
-0.466955 -0.040287 0.023371
-0.466955 -0.042204 0.067752
-0.466955 -0.000495 0.050020
-0.466955 0.040451 -0.002902
-0.466955 -0.014730 -0.056885
-0.466955 -0.037193 -0.063057
-0.466955 0.017627 0.044226
-0.466955 -0.021849 -0.029563
-0.466955 0.016742 0.050828
-0.466955 -0.057617 0.056592
-0.466955 0.089312 -0.003996
-0.466955 0.039287 -0.041548
-0.466955 -0.072842 -0.061244
-0.466955 0.003058 0.003891
-0.466955 0.048938 -0.032132
-0.466955 0.026410 -0.050801
-0.466955 -0.006041 0.073925
-0.466955 -0.067645 0.071383
-0.466955 0.003897 -0.040047
-0.466955 0.051895 0.036448
-0.466955 -0.067451 0.060255
-0.466955 -0.091573 0.021398
-0.466955 0.043697 -0.001348
-0.466955 -0.090349 -0.006704
-0.466955 0.081882 0.035899
-0.466955 -0.021147 0.051935
-0.466955 -0.073573 0.056046
-0.466955 -0.042949 0.005940
-0.466955 -0.037504 -0.084809
-0.466955 -0.001180 -0.071519
-0.466955 0.065498 0.034831
-0.466955 -0.056480 -0.016457
-0.466955 -0.017122 -0.025819
-0.466955 0.055633 -0.039442
-0.466955 0.096039 0.011933
-0.466955 0.022071 -0.086123
-0.466955 0.001674 0.004282
-0.466955 0.075246 -0.053801
-0.466955 -0.080434 0.001619
-0.466955 -0.062796 -0.062610
-0.466955 -0.041567 -0.072654
-0.466955 -0.066351 -0.019489
-0.466955 -0.029958 -0.039997
-0.466955 0.074730 -0.052196
-0.466955 0.030178 0.091103
-0.466955 -0.077305 0.000742
-0.466955 -0.039628 -0.057681
-0.466955 -0.040782 0.044046
-0.466955 -0.068721 0.045834
-0.466955 0.059163 -0.056281
-0.466955 -0.019633 -0.091809
-0.466955 0.072850 0.049865
-0.466955 0.026726 -0.089480
-0.466955 0.030071 -0.018701
-0.466955 -0.057025 0.033523
-0.466955 -0.077351 -0.054036
-0.466955 -0.044264 -0.029289
-0.466955 0.051061 0.022159
-0.466955 0.050081 -0.000827
-0.466955 0.013412 -0.018556
-0.466955 0.021915 -0.075129
-0.466955 -0.030952 0.088479
-0.466955 -0.067788 -0.057041
-0.466955 0.029351 0.075289
-0.466955 -0.043836 -0.068335
-0.466955 -0.050794 0.058082
-0.466955 0.000649 0.045452
-0.466955 -0.027546 0.067007
-0.466955 -0.061548 0.076620
-0.466955 0.092582 0.008499
-0.466955 0.053460 0.069095
-0.466955 -0.008887 0.038518
-0.466955 0.033380 0.020496
-0.466955 0.069892 -0.064469
-0.466955 -0.045538 -0.068857
-0.466955 0.044592 0.087009
-0.466955 -0.041136 0.013656
-0.466955 0.028385 0.083156
-0.466955 0.014459 0.007407
-0.466955 0.023476 -0.060247
-0.466955 0.006799 -0.057170
-0.466955 -0.018149 -0.088598
-0.466955 0.017303 -0.055482
-0.466955 0.045409 0.077443
-0.466955 -0.057515 0.037401
-0.466955 -0.060887 0.019512
-0.466955 0.056313 -0.054739
-0.466955 -0.049638 0.025643
-0.466955 -0.055345 0.073256
-0.466955 0.097399 -0.020864
-0.466955 -0.056533 -0.062276
-0.466955 -0.035723 0.021027
-0.466955 -0.086824 0.048400
-0.466955 0.007310 0.018753
-0.466955 -0.015806 0.031190
-0.466955 -0.034303 -0.029820
-0.466955 -0.066108 -0.022637
-0.466955 0.038704 0.009620
-0.466955 -0.001261 0.084146
-0.466955 -0.028840 0.022387
-0.466955 0.049398 -0.033560
-0.466955 -0.030656 0.083429
-0.466955 -0.078138 -0.045031
-0.466955 -0.073758 -0.003337
-0.466955 -0.043427 0.081128
-0.466955 -0.031757 0.029788
-0.466955 0.052830 0.070506
-0.466955 0.068287 0.042181
-0.466955 -0.046638 -0.074529
-0.466955 0.017140 0.085009
-0.466955 0.060658 0.047371
-0.466955 0.030088 -0.043300
-0.466955 -0.036894 0.032957
-0.466955 -0.048456 0.063105
-0.466955 -0.049256 0.053206
-0.466955 0.017999 -0.005066
-0.466955 -0.053018 -0.010866
-0.466955 -0.016378 -0.018089
-0.466955 0.036688 0.058392
-0.466955 -0.064261 -0.064570
-0.466955 -0.052171 0.044913
-0.466955 0.022456 -0.007831
-0.466955 -0.023148 -0.020079
-0.466955 0.024528 0.053615
-0.466955 0.000415 -0.041892
-0.466955 0.001033 0.002186
-0.466955 0.054394 0.001700
-0.466955 -0.019926 0.045390
-0.466955 0.023161 -0.089358
-0.466955 0.025372 0.001420
-0.466955 -0.033526 0.067420
-0.466955 0.002597 -0.025534
-0.466955 0.086450 -0.028074
-0.466955 -0.099028 -0.009240
-0.466955 -0.039550 -0.063853
-0.466955 -0.090178 -0.008478
-0.466955 -0.092268 0.018309
-0.466955 -0.016471 0.025776
-0.466955 0.041069 0.084118
-0.466955 0.010912 0.080246
-0.466955 0.086680 -0.040838
-0.466955 0.012312 0.072208
-0.466955 -0.007986 0.086012
-0.466955 0.015222 -0.079256
-0.466955 0.026082 0.037807
-0.466955 0.000582 0.095750
-0.466955 0.045810 0.021031
-0.466955 0.009305 0.076174
-0.466955 -0.035593 -0.006771
-0.466955 -0.070481 -0.032054
-0.466955 0.002282 0.035985
-0.466955 0.077651 -0.035513
-0.466955 -0.087776 -0.016950
-0.466955 0.079179 0.012680
-0.466955 -0.046124 -0.020267
-0.466955 -0.039905 -0.006244
-0.466955 -0.057035 0.024041
-0.466955 -0.058481 -0.024886
-0.466955 -0.006892 -0.023939
-0.466955 -0.003990 -0.081563
-0.466955 0.049927 -0.027620
-0.466955 0.018945 -0.024415
-0.466955 -0.027225 -0.078361
-0.466955 0.005814 -0.083846
-0.466955 0.010745 0.041054
-0.466955 0.048136 0.021057
-0.466955 0.093495 -0.025336
-0.466955 -0.066694 -0.010345
-0.466955 -0.056046 -0.001031
-0.466955 0.009166 0.061037
-0.466955 0.061088 -0.000682
-0.466955 -0.012834 0.050687
-0.466955 -0.049048 0.038121
-0.466955 -0.015123 0.004149
-0.466955 -0.031952 -0.076740
-0.466955 -0.032620 0.050694
-0.466955 -0.024358 -0.056950
-0.466955 -0.071544 -0.037676
-0.466955 -0.030534 0.022501
-0.466955 0.002371 0.059101
-0.466955 -0.034175 0.000918
-0.466955 0.066580 0.053891
-0.466955 0.005369 -0.092490
-0.466955 0.082030 0.039925
-0.466955 -0.026703 -0.020818
-0.466955 -0.076765 -0.014850
-0.466955 0.013906 0.015319
-0.466955 -0.093587 -0.010788
-0.466955 -0.006230 0.059551
-0.466955 -0.087936 -0.040328
-0.466955 0.060039 0.012433
-0.466955 -0.037501 0.064826
-0.466955 -0.071864 0.056124
-0.466955 -0.003685 -0.072503
-0.466955 0.067416 -0.063743
-0.466955 0.026380 0.015359
-0.466955 0.048152 0.017594
-0.466955 0.031571 0.070725
-0.466955 0.091314 -0.016926
-0.466955 -0.016323 -0.031275
-0.466955 -0.040348 0.015071
-0.466955 -0.009501 0.095417
-0.466955 0.035440 0.045378
-0.466955 0.031664 -0.079136
-0.466955 -0.079797 0.017428
-0.466955 0.095072 -0.003393
-0.466955 0.069226 0.006114
-0.466955 0.019752 -0.004542
-0.466955 0.034876 0.001652
-0.466955 0.085524 -0.026630
-0.466955 -0.063522 -0.011197
-0.466955 0.020888 -0.058120
-0.466955 -0.064478 -0.075958
-0.466955 0.057172 0.057090
-0.466955 0.040403 0.008628
-0.466955 0.052206 0.085281
-0.466955 -0.013066 -0.035457
-0.466955 0.015816 -0.065731
-0.466955 -0.073603 0.020384
-0.466955 0.004143 0.089889
-0.466955 0.055448 -0.010458
-0.466955 0.044251 0.042260
-0.466955 0.080626 -0.034531
-0.466955 0.074387 0.008261
-0.466955 -0.094161 0.001043
-0.466955 0.032058 -0.087892
-0.466955 -0.053229 0.035137
-0.466955 0.066837 -0.070586
-0.466955 0.028158 0.002633
-0.466955 -0.063017 0.070038
-0.466955 -0.017456 0.000301
-0.466955 0.003951 -0.048543
-0.466955 0.048960 0.065817
-0.466955 -0.027599 0.021344
-0.466955 -0.089512 -0.023456
-0.466955 -0.004703 -0.009882
-0.466955 -0.057342 -0.072912
-0.466955 0.025741 0.058125
-0.466955 -0.037504 -0.027379
-0.466955 0.050526 0.058131
-0.466955 0.079173 -0.029521
-0.466955 -0.015173 0.098483
-0.466955 0.045328 0.019349
-0.466955 0.037559 0.031812
-0.466955 0.045319 0.012957
-0.466955 -0.048486 -0.001776
-0.466955 0.017873 0.068090
-0.466955 0.031911 -0.084707
-0.466955 -0.005242 -0.071229
-0.466955 0.075617 -0.020168
-0.466955 -0.015375 0.006914
-0.466955 -0.021704 -0.068659
-0.466955 0.056761 0.041640
-0.466955 0.053151 -0.036811
-0.466955 0.058610 -0.031023
-0.466955 0.008868 0.093139
-0.466955 0.034135 0.027465
-0.466955 -0.026269 -0.029473
-0.466955 -0.064866 -0.019752
-0.466955 0.058562 -0.074282
-0.466955 -0.070531 0.042780
-0.466955 0.076907 0.046073
-0.466955 0.050064 0.011080
-0.466955 -0.022302 -0.036627
-0.466955 -0.020009 0.013114
-0.466955 0.061902 0.049995
-0.466955 -0.041150 -0.020058
-0.466955 0.070838 -0.031751
-0.466955 0.015139 0.078320
-0.466955 -0.062573 -0.031890
-0.466955 0.069014 -0.030601
-0.466955 0.061169 0.061760
-0.466955 -0.055045 -0.079978
-0.466955 -0.028667 0.015412
-0.466955 -0.005022 0.028707
-0.466955 -0.010855 -0.068036
-0.466955 0.022402 -0.045596
-0.466955 -0.040893 -0.090764
-0.466955 0.033100 0.000176
-0.466955 0.025239 0.070628
-0.466955 -0.062851 0.066869
-0.466955 0.092536 0.001420
-0.466955 -0.038130 0.020585
-0.466955 -0.023668 -0.027458
-0.466955 -0.040357 -0.035424
-0.466955 0.026796 0.001799
-0.466955 0.048058 0.030306
-0.466955 0.018269 -0.052158
-0.466955 -0.008777 0.073726
-0.466955 -0.071817 0.045559
-0.466955 -0.011094 -0.045405
-0.466955 -0.044487 0.079390
-0.466955 0.052023 0.081036
-0.466955 -0.086104 0.011586
-0.466955 0.025162 0.014182
-0.466955 0.047986 0.043344
-0.466955 0.037480 -0.074146
-0.466955 -0.033881 0.043792
-0.466955 0.040422 -0.010858
-0.466955 -0.081747 -0.056672
-0.466955 0.093740 0.020083
-0.466955 -0.038677 0.071218
-0.466955 0.013277 0.009093
-0.466955 -0.035779 0.082825
-0.466955 0.027274 -0.027323
-0.466955 0.036451 -0.011695
-0.466955 0.031790 -0.027729
-0.466955 0.016987 0.071844
-0.466955 -0.065629 -0.063566
-0.466955 -0.075721 -0.004026
-0.466955 0.098529 0.005379
-0.466955 0.081765 -0.011077
-0.466955 -0.092935 0.011468
-0.466955 -0.029069 0.011741
-0.466955 0.087098 0.003282
-0.466955 0.014336 0.045937
-0.466955 -0.050305 -0.049035
-0.466955 0.081814 -0.037590
-0.466955 -0.096829 -0.021224
-0.466955 0.025078 0.020591
-0.466955 -0.029944 -0.044542
-0.466955 -0.046546 -0.012349
-0.466955 0.064360 -0.009916
-0.466955 0.032743 -0.011760
-0.466955 0.005469 0.005115
-0.466955 -0.064609 0.021586
-0.466955 0.082859 0.028295
-0.466955 -0.052338 -0.055669
-0.466955 0.066316 -0.003293
-0.466955 0.023437 0.028341
-0.466955 0.070404 0.003259
-0.466955 -0.005018 0.052575
-0.466955 -0.071343 -0.027466
-0.466955 -0.009133 -0.027887
-0.466955 0.062800 0.036388
-0.466955 -0.031947 0.093211
-0.466955 0.055617 0.048210
-0.466955 0.071425 -0.025851
-0.466955 0.032900 -0.064523
-0.466955 0.053650 -0.052065
-0.466955 -0.061525 -0.073352
-0.466955 0.032424 0.047494
-0.466955 0.033810 0.029124
-0.466955 0.013416 0.049789
-0.466955 -0.026886 -0.092697
-0.466955 0.033514 -0.058850
-0.466955 0.010768 -0.094491
-0.466955 -0.050460 0.004056
-0.466955 -0.007032 -0.065416
-0.466955 -0.024726 -0.007306
-0.466955 0.067682 0.032662
-0.466955 0.076109 0.056387
-0.466955 -0.010478 -0.032925
-0.466955 0.039306 0.056269
-0.466955 -0.060987 0.009213
-0.466955 -0.086150 -0.019129
-0.466955 0.081353 0.057836
-0.466955 0.015012 0.086716
-0.466955 -0.054228 -0.076150
-0.466955 -0.029087 0.019584
-0.466955 0.024743 -0.026844
-0.466955 0.098911 0.009518
-0.466955 -0.053770 0.009482
-0.466955 -0.006777 -0.013179
-0.466955 0.023221 0.018723
-0.466955 -0.031262 -0.017029
-0.466955 0.027670 -0.065601
-0.466955 0.041397 0.054998
-0.466955 -0.083963 -0.053620
-0.466955 -0.047048 -0.069695
-0.466955 -0.039660 -0.055829
-0.466955 0.090137 0.017026
-0.466955 -0.017655 -0.061546
-0.466955 0.081041 0.022551
-0.466955 0.011149 -0.036270
-0.466955 -0.066201 0.020821
-0.466955 0.076421 -0.006454
-0.466955 -0.028050 -0.035458
-0.466955 0.001801 -0.079936
-0.466955 0.009139 -0.059967
-0.466955 -0.009533 -0.015157
-0.466955 0.062635 -0.057456
-0.466955 -0.015502 0.056955
-0.466955 0.059200 -0.061710
-0.466955 -0.009110 -0.095033
-0.466955 -0.016425 -0.041422
-0.466955 0.073085 0.026840
-0.466955 0.012036 -0.060169
-0.466955 0.045647 -0.021002
-0.466955 0.013204 0.098377
-0.466955 -0.013232 0.045435
-0.466955 0.013210 0.042376
-0.466955 -0.010449 -0.090379
-0.466955 0.071553 -0.052673
-0.466955 -0.072291 0.068904
-0.466955 0.036206 0.084840
-0.466955 0.034369 -0.078687
-0.466955 0.060835 -0.049817
-0.466955 0.010992 0.029277
-0.466955 0.056378 -0.001208
-0.466955 0.011622 0.066079
-0.466955 -0.006488 -0.094847
-0.466955 -0.070725 0.016106
-0.466955 -0.001758 -0.006851
-0.466955 0.022090 0.088965
-0.466955 0.015943 0.079668
-0.466955 0.003109 0.006539
-0.466955 -0.084633 -0.029565
-0.466955 -0.035414 -0.049620
-0.466955 0.073302 -0.021817
-0.466955 -0.015263 0.029960
-0.466955 0.079961 -0.057286
-0.466955 -0.092117 0.003955
-0.466955 -0.012848 0.003127
-0.466955 0.043615 0.082066
-0.466955 0.044253 -0.031835
-0.466955 0.061783 -0.062396
-0.466955 -0.056824 0.000182
-0.466955 0.093343 -0.008281
-0.466955 0.087122 0.032972
-0.466955 -0.008439 -0.065778
-0.466955 0.048006 0.004793
-0.466955 -0.054710 -0.077634
-0.466955 0.058548 0.038204
-0.466955 0.075530 -0.055265
-0.466955 0.005367 -0.064052
-0.466955 -0.082443 -0.013736
-0.466955 -0.024635 0.073382
-0.466955 -0.063684 -0.068066
-0.466955 0.096643 -0.009141
-0.466955 -0.039527 0.083998
-0.466955 -0.042113 -0.065020
-0.466955 -0.064014 0.004035
-0.466955 -0.077519 -0.013334
-0.466955 -0.039640 0.035064
-0.466955 -0.029407 -0.010333
-0.466955 0.011162 -0.072546
-0.466955 -0.062810 0.038754
-0.466955 0.076599 -0.038665
-0.466955 0.062866 -0.010013
-0.466955 0.020761 -0.020413
-0.466955 0.083318 -0.036346
-0.466955 0.011678 -0.002019
-0.466955 -0.026202 0.088025
-0.466955 -0.042563 -0.085548
-0.466955 0.086396 0.019456
-0.466955 -0.013695 -0.032925
-0.466955 -0.077709 0.050617
-0.466955 -0.084368 0.038393
-0.466955 0.053961 -0.063812
-0.466955 0.067438 0.051005
-0.466955 0.025639 0.061935
-0.466955 0.032683 -0.089507
-0.466955 0.042132 -0.001359
-0.466955 -0.062246 0.053385
-0.466955 -0.010838 0.079971
-0.466955 0.041761 -0.006831
-0.466955 -0.050538 -0.029061
-0.466955 -0.006884 -0.050972
-0.466955 -0.043512 0.038537
-0.466955 0.015615 -0.057516
-0.466955 0.059495 -0.015948
-0.466955 0.034417 -0.010726
-0.466955 -0.044413 0.058748
-0.466955 0.021824 -0.096982
-0.466955 0.067860 -0.012340
-0.466955 0.023979 -0.061970
-0.466955 0.046232 -0.087737
-0.466955 0.069348 0.041085
-0.466955 0.074242 0.039784
-0.466955 0.037159 -0.075472
-0.466955 0.082312 0.026472
-0.466955 -0.052278 0.039030
-0.466955 -0.004238 -0.028542
-0.466955 0.008732 -0.026238
-0.466955 -0.012666 0.007309
-0.466955 -0.078827 0.042785
-0.466955 -0.073587 0.042599
-0.466955 -0.027546 -0.054356
-0.466955 -0.016978 0.030241
-0.466955 0.057590 0.000310
-0.466955 0.060020 0.076202
-0.466955 0.071806 0.034983
-0.466955 -0.087471 -0.011866
-0.466955 0.089482 0.013800
-0.466955 -0.042898 -0.034716
-0.466955 0.038096 -0.087359
-0.466955 -0.028275 -0.004900
-0.466955 0.055113 -0.030103
-0.466955 -0.048789 0.049543
-0.466955 -0.086864 -0.004872
-0.466955 0.023678 -0.086460
-0.466955 0.014031 0.024645
-0.466955 0.010196 -0.030383
-0.466955 -0.025581 0.086286
-0.466955 0.056603 -0.075847
-0.466955 -0.093565 0.003513
-0.466955 -0.032582 0.069438
-0.466955 0.013216 -0.087914
-0.466955 0.015070 -0.089474
-0.466955 0.063393 -0.070171
-0.466955 0.009814 -0.087948
-0.466955 -0.012064 0.054628
-0.466955 0.053423 -0.069612
-0.466955 0.045914 0.056285
-0.466955 0.012255 -0.078949
-0.466955 0.026835 -0.070943
-0.466955 -0.037278 -0.014485
-0.466955 0.028093 0.029154
-0.466955 -0.025336 -0.055456
-0.466955 0.029190 -0.093251
-0.466955 0.043257 0.015768
-0.466955 -0.090174 -0.020157
-0.466955 0.008379 -0.099066
-0.466955 0.081514 0.004462
-0.466955 -0.037931 0.052866
-0.466955 -0.044608 0.056302
-0.466955 -0.009625 -0.010206
-0.466955 -0.035924 0.039590
-0.466955 -0.082786 0.003441
-0.466955 0.030325 0.012919
-0.466955 0.053533 0.026383
-0.466955 -0.040779 -0.032354
-0.466955 -0.055538 -0.075176
-0.466955 -0.002029 0.029590
-0.466955 -0.023870 -0.074868
-0.466955 -0.056311 0.067433
-0.466955 -0.068934 -0.010027
-0.466955 -0.082741 0.031170
-0.466955 0.019587 0.097043
-0.466955 0.010952 -0.080012
-0.466955 0.074971 -0.049320
-0.466955 0.003484 0.026412
-0.466955 -0.060561 0.025448
-0.466955 -0.031072 -0.023018
-0.466955 -0.054296 0.051664
-0.466955 -0.078696 -0.005678
-0.466955 -0.021651 0.065177
-0.466955 0.053742 0.056804
-0.466955 -0.078967 0.000960
-0.466955 -0.081494 0.009055
-0.466955 0.007670 0.052170
-0.466955 -0.011174 -0.051857
-0.466955 0.001078 -0.050509
-0.466955 0.005044 0.054335
-0.466955 0.028472 -0.054703
-0.466955 0.068536 -0.067676
-0.466955 0.005660 -0.024940
-0.466955 0.045231 -0.003796
-0.466955 -0.052059 0.054935
-0.466955 0.038569 -0.032672
-0.466955 0.065939 -0.046340
-0.466955 0.004481 -0.057225
-0.466955 0.024487 -0.058993
-0.466955 0.080457 0.059313
-0.466955 0.000128 -0.064453
-0.466955 0.069077 -0.006012
-0.466955 0.042898 -0.014525
-0.466955 -0.001018 0.020548
-0.466955 -0.038794 -0.003019
-0.466955 -0.088667 -0.012907
-0.466955 -0.005950 -0.025273
-0.466955 0.029092 0.043332
-0.466955 0.070549 -0.051041
-0.466955 -0.001493 0.075537
-0.466955 0.024801 -0.092665
-0.466955 0.038238 0.076424
-0.466955 -0.021652 -0.072345
-0.466955 0.062374 0.026829
-0.466955 0.054851 0.063043
-0.466955 -0.050163 -0.051605
-0.466955 -0.063248 -0.017541
-0.466955 0.008809 -0.038842
-0.466955 -0.086911 -0.044283
-0.466955 -0.001391 0.064339
-0.466955 -0.018741 -0.020113
-0.466955 -0.076363 0.005912
-0.466955 0.083411 0.021244
-0.466955 0.010375 -0.052714
-0.466955 -0.012801 -0.051558
-0.466955 0.047433 0.026697
-0.466955 -0.049276 -0.014302
-0.466955 -0.042193 0.075872
-0.466955 0.048944 -0.060513
-0.466955 0.005859 -0.058379
-0.466955 0.024778 0.077732
-0.466955 -0.000517 -0.025604
-0.466955 0.076501 0.010964
-0.466955 0.004559 0.029526
-0.466955 -0.068364 0.017061
-0.466955 0.002399 -0.022083
-0.466955 -0.092433 0.027139
-0.466955 0.051840 -0.053957
-0.466955 0.073702 -0.053351
-0.466955 0.008485 -0.091994
-0.466955 0.043630 -0.087659
-0.466955 0.064698 -0.019767
-0.466955 0.032233 0.039069
-0.466955 -0.080944 0.012960
-0.466955 0.029981 -0.016778
-0.466955 -0.019242 0.054395
-0.466955 0.059547 0.041884
-0.466955 -0.027612 0.058002
-0.466955 0.072561 -0.062720
-0.466955 0.006546 0.087514
-0.466955 0.004833 0.082075
-0.466955 -0.097897 -0.000595
-0.466955 0.030329 -0.048853
-0.466955 0.050838 0.047468
-0.466955 -0.067195 0.034232
-0.466955 0.084168 0.044235
-0.466955 -0.050467 -0.068526
-0.466955 0.010680 0.070790
-0.466955 0.089626 0.011204
-0.466955 0.038554 -0.021581
-0.466955 0.061433 -0.015256
-0.466955 0.094118 0.023853
-0.466955 0.075026 0.026621
-0.466955 -0.082705 -0.008787
-0.466955 -0.018208 0.012822
-0.466955 -0.072586 -0.015405
-0.466955 -0.006455 -0.062761
-0.466955 -0.051731 0.080738
-0.466955 0.052295 0.021257
-0.466955 -0.037465 0.056321
-0.466955 0.058692 0.011083
-0.466955 -0.033828 -0.063393
-0.466955 0.002698 -0.072961
-0.466955 -0.089438 0.002922
-0.466955 -0.003901 -0.008708
-0.466955 0.038035 0.015676
-0.466955 -0.052902 -0.060170
-0.466955 0.023782 -0.028085
-0.466955 -0.019128 0.007445
-0.466955 0.013143 -0.058610
-0.466955 0.043089 0.065535
-0.466955 -0.024752 -0.062567
-0.466955 0.072363 -0.001988
-0.466955 0.049600 -0.070193
-0.466955 0.067880 0.007242
-0.466955 0.045674 0.088734
-0.466955 -0.022820 0.022233
-0.466955 -0.001628 -0.055915
-0.466955 -0.008466 0.045077
-0.466955 -0.001882 0.037003
-0.466955 0.010871 -0.033354
-0.466955 -0.028890 0.062837
-0.466955 0.082737 -0.049662
-0.466955 -0.045221 0.004826
-0.466955 -0.066083 -0.017213
-0.466955 -0.042816 0.009625
-0.466955 -0.064526 -0.057962
-0.466955 0.088561 -0.025900
-0.466955 -0.044562 0.034908
-0.466955 0.038461 0.038609
-0.466955 -0.025746 0.064670
-0.466955 0.047641 -0.054264
-0.466955 -0.017968 -0.092506
-0.466955 0.032694 0.042192
-0.466955 0.086922 -0.008445
-0.466955 0.077162 -0.043262
-0.466955 0.077748 -0.001391
-0.466955 0.022188 0.046334
-0.466955 -0.030886 -0.067305
-0.466955 0.044903 0.072921
-0.466955 -0.012507 -0.081630
-0.466955 0.007237 -0.038017
-0.466955 -0.094566 -0.009721
-0.466955 0.033039 0.081229
-0.466955 -0.070208 0.017480
-0.466955 -0.033716 -0.053262
-0.466955 0.066357 0.017664
-0.466955 -0.017754 -0.068832
-0.466955 0.072868 0.017006
-0.466955 0.049723 0.009533
-0.466955 0.026744 0.023538
-0.466955 0.039581 -0.044938
-0.466955 0.006331 0.048618
-0.466955 -0.087149 0.019593
-0.466955 0.061424 0.054846
-0.466955 0.046336 -0.022962
-0.466955 0.007379 0.069931
-0.466955 0.022771 -0.094598
-0.466955 0.063732 -0.075018
-0.466955 -0.055530 -0.002782
-0.466955 -0.042770 0.031312
-0.466955 -0.086249 0.001300
-0.466955 -0.036758 -0.065671
-0.466955 -0.029575 0.032163
-0.466955 -0.015425 -0.049995
-0.466955 -0.016925 0.050443
-0.466955 0.059880 -0.043895
-0.466955 -0.093120 0.005924
-0.466955 -0.046488 0.043073
-0.466955 -0.087577 0.025882
-0.466955 -0.014941 -0.060033
-0.466955 -0.008875 0.032546
-0.466955 -0.056995 0.003414
-0.466955 -0.033370 0.040832
-0.466955 -0.068340 -0.032585
-0.466955 0.053664 0.067339
-0.466955 0.017954 -0.032798
-0.466955 0.087509 0.008309
-0.466955 -0.062152 -0.051708
-0.466955 0.086651 0.016907
-0.466955 -0.007302 0.019258
-0.466955 0.073153 0.002167
-0.466955 0.012318 0.017860
-0.466955 0.058467 0.049905
-0.466955 0.023823 0.084372
-0.466955 -0.015560 -0.084919
-0.466955 -0.041302 0.031873
-0.466955 -0.044891 -0.013468
-0.466955 0.007684 0.040797
-0.466955 -0.005377 -0.022263
-0.466955 0.037616 -0.026594
-0.466955 -0.061500 -0.053205
-0.466955 0.053178 0.064571
-0.466955 -0.031358 -0.044254
-0.466955 0.022438 0.085193
-0.466955 -0.004776 -0.056883
-0.466955 0.004081 -0.093909
-0.466955 -0.079441 0.041384
-0.466955 0.065026 -0.004254
-0.466955 0.048510 -0.055938
-0.466955 -0.016415 0.052071
-0.466955 -0.047041 -0.077516
-0.466955 0.030451 -0.015178
-0.466955 0.092846 -0.017017
-0.466955 0.013302 0.054128
-0.466955 -0.008844 -0.025055
-0.466955 0.001183 -0.062923
-0.466955 0.073423 0.030316
-0.466955 -0.045089 0.007195
-0.466955 -0.043364 -0.039917
-0.466955 -0.000861 0.025560
-0.466955 0.042997 -0.039096
-0.466955 -0.001680 -0.016288
-0.466955 0.026670 -0.063985
-0.466955 0.004253 -0.052052
-0.466955 0.053131 0.016005
-0.466955 -0.053715 -0.053095
-0.466955 0.005031 0.041276
-0.466955 -0.015596 0.020664
-0.466955 -0.027656 0.019906
-0.466955 -0.040963 0.006880
-0.466955 -0.018791 0.044185
-0.466955 -0.021695 0.020066
-0.466955 -0.094946 -0.006761
-0.466955 -0.046330 0.079677
-0.466955 0.024482 0.019239
-0.466955 -0.008543 0.021312
-0.466955 -0.001214 -0.066211
-0.466955 0.037144 -0.066866
-0.466955 0.068196 -0.045139
-0.466955 -0.004729 -0.065908
-0.466955 0.025103 0.043593
-0.466955 -0.057516 0.008690
-0.466955 0.032355 -0.026325
-0.466955 0.023653 0.052089
-0.466955 0.096431 -0.013577
-0.466955 -0.023909 0.010583
-0.466955 -0.042766 -0.019412
-0.466955 -0.020908 0.035408
-0.466955 0.006296 0.063828
-0.466955 -0.009331 -0.077356
-0.466955 0.049273 -0.038464
-0.466955 0.079028 0.042817
-0.466955 -0.009831 0.070757
-0.466955 -0.060135 0.039172
-0.466955 0.026250 0.033596
-0.466955 0.024824 -0.008417
-0.466955 -0.004764 0.017512
-0.466955 0.027300 0.084721
-0.466955 -0.040234 0.030426
-0.466955 0.055197 0.067269
-0.466955 0.059922 0.060277
-0.466955 -0.028705 -0.092892
-0.466955 -0.048867 -0.012797
-0.466955 0.032170 0.078960
-0.466955 0.073422 0.060660
-0.466955 0.073017 0.009103
-0.466955 -0.059268 0.018565
-0.466955 -0.021792 0.074181
-0.466955 -0.060162 -0.074902
-0.466955 -0.063344 -0.038327
-0.466955 -0.081038 -0.008761
-0.466955 0.007125 -0.081325
-0.466955 -0.034779 0.086713
-0.466955 -0.081578 -0.005390
-0.466955 -0.074880 0.010325
-0.466955 -0.012689 -0.068255
-0.466955 -0.038760 -0.050580
-0.466955 0.057586 0.044127
-0.466955 0.007633 -0.061130
-0.466955 -0.065277 -0.061863
-0.466955 0.046140 0.087414
-0.466955 -0.008077 0.016081
-0.466955 0.017339 0.054167
-0.466955 -0.054552 0.015402
-0.466955 0.062826 -0.020492
-0.466955 -0.006751 0.006871
-0.466955 0.014512 -0.006405
-0.466955 0.075909 -0.011593
-0.466955 -0.030986 -0.053161
-0.466955 -0.007216 -0.083462
-0.466955 0.049732 -0.042738
-0.466955 -0.052057 -0.061436
-0.466955 -0.051433 -0.027513
-0.466955 0.047220 -0.040241
-0.466955 -0.003692 0.049818
-0.466955 -0.068513 -0.063745
-0.466955 -0.092248 -0.025187
-0.466955 0.052948 0.042047
-0.466955 -0.026811 -0.045815
-0.466955 -0.025145 0.030575
-0.466955 -0.041674 0.059937
-0.466955 -0.025484 0.079846
-0.466955 -0.019990 0.006282
-0.466955 -0.075835 0.020796
-0.466955 -0.093258 0.025937
-0.466955 -0.094073 -0.021089
-0.466955 -0.017558 -0.053792
-0.466955 -0.014830 0.038606
-0.466955 -0.001591 -0.049258
-0.466955 0.073979 -0.046092
-0.466955 0.031105 -0.047560
-0.466955 -0.014497 -0.038720
-0.466955 -0.049631 0.031630
-0.466955 0.002807 0.098339
-0.466955 -0.021423 -0.039082
-0.466955 -0.034469 -0.070418
-0.466955 -0.021588 0.061449
-0.466955 -0.079570 -0.009763
-0.466955 0.092001 -0.026042
-0.466955 0.059273 -0.005490
-0.466955 -0.056150 -0.072048
-0.466955 0.029965 0.017695
-0.466955 -0.047893 0.023376
-0.466955 -0.056661 -0.028928
-0.466955 0.022602 0.036796
-0.466955 -0.078185 -0.019626
-0.466955 0.041056 0.074544
-0.466955 0.052986 -0.022915
-0.466955 -0.050778 -0.057201
-0.466955 0.040883 0.019575
-0.466955 0.032396 -0.035837
-0.466955 -0.025472 -0.008580
-0.466955 0.030979 -0.039596
-0.466955 0.055562 0.083096
-0.466955 -0.004955 -0.062214
-0.466955 0.078063 0.037189
-0.466955 0.089612 0.041053
-0.466955 0.027796 0.015714
-0.466955 -0.048572 -0.007678
-0.466955 -0.066745 0.038576
-0.466955 0.024385 -0.080382
-0.466955 -0.075165 0.005045
-0.466955 0.062061 0.035051
-0.466955 -0.025716 0.009808
-0.466955 0.078352 -0.003030
-0.466955 -0.001140 0.017384
-0.466955 -0.070925 -0.020060
-0.466955 -0.076519 0.032539
-0.466955 0.064344 0.067568
-0.466955 -0.023261 0.082615
-0.466955 -0.053534 0.071073
-0.466955 0.023459 0.092287
-0.466955 -0.005385 -0.064241
-0.466955 -0.077244 -0.001376
-0.466955 -0.014746 -0.079299
-0.466955 0.037652 0.052283
-0.466955 0.051291 0.039638
-0.466955 0.003883 0.002207
-0.466955 0.001875 0.085665
-0.466955 -0.023880 0.050606
-0.466955 -0.045893 -0.075994
-0.466955 0.081997 -0.029829
-0.466955 0.059528 0.006797
-0.466955 -0.084925 0.048555
-0.466955 -0.051864 0.060481
-0.466955 -0.099070 0.007133
-0.466955 -0.061119 0.054808
-0.466955 -0.027812 0.026626
-0.466955 -0.022881 -0.035206
-0.466955 -0.015825 -0.096471
-0.466955 0.043129 0.072130
-0.466955 -0.075946 -0.036001
-0.466955 0.038857 -0.051354
-0.466955 -0.003055 -0.066882
-0.466955 0.040306 -0.084030
-0.466955 -0.042122 -0.061113
-0.466955 0.096762 0.016788
-0.466955 -0.036671 0.078039
-0.466955 -0.044222 -0.033651
-0.466955 0.037091 -0.029930
-0.466955 0.062716 -0.050163
-0.466955 0.005282 -0.060409
-0.466955 0.085374 -0.043841
-0.466955 -0.054907 -0.060228
-0.466955 0.024996 0.008051
-0.466955 0.055073 0.056774
-0.466955 0.020423 0.042064
-0.466955 0.039552 0.043558
-0.466955 0.013510 -0.096984
-0.466955 -0.086498 0.043307
-0.466955 0.025301 -0.060714
-0.466955 -0.007242 -0.061426
-0.466955 -0.007108 0.057746
-0.466955 -0.011936 -0.061948
-0.466955 -0.097644 0.002634
-0.466955 -0.030846 0.007059
-0.466955 0.011778 0.014485
-0.466955 0.026336 -0.054099
-0.466955 0.010801 0.017098
-0.466955 -0.059075 -0.040566
-0.466955 -0.074292 -0.029498
-0.466955 0.071824 -0.021878
-0.466955 -0.018959 0.021725
-0.466955 -0.024267 -0.013287
-0.466955 0.034758 -0.017436
-0.466955 0.007051 -0.087030
-0.466955 0.026155 0.086811
-0.466955 -0.052805 0.082425
-0.466955 0.006668 0.006635
-0.466955 0.052752 -0.078318
-0.466955 0.020008 0.087481
-0.466955 0.028051 -0.016208
-0.466955 -0.017464 0.027008
-0.466955 -0.008612 -0.072852
-0.466955 -0.025176 0.023710
-0.466955 0.058332 -0.006715
-0.466955 0.091896 -0.035610
-0.466955 0.054321 0.061604
-0.466955 0.084165 -0.002616
-0.466955 -0.045921 -0.043520
-0.466955 -0.049783 0.061718
-0.466955 -0.004608 -0.036308
-0.466955 0.033731 0.065129
-0.466955 -0.083250 -0.010105
-0.466955 -0.035586 0.010010
-0.466955 0.001309 0.014981
-0.466955 0.005644 -0.041701
-0.466955 -0.085890 -0.010816
-0.466955 -0.001398 0.032997
-0.466955 0.010479 0.022636
-0.466955 0.044476 0.060943
-0.466955 -0.002161 0.031832
-0.466955 0.039999 -0.080188
-0.466955 0.027776 0.088811
-0.466955 0.004606 -0.075446
-0.466955 0.074947 -0.021606
-0.466955 -0.044204 -0.026299
-0.466955 -0.061950 0.000985
-0.466955 -0.011458 -0.063880
-0.466955 0.024405 -0.016577
-0.466955 -0.017217 0.004851
-0.466955 0.026140 -0.086540
-0.466955 0.020202 0.071152
-0.466955 -0.055185 -0.071043
-0.466955 0.021713 0.095270
-0.466955 0.057263 -0.039561
-0.466955 -0.089892 -0.041441
-0.466955 -0.024899 -0.064580
-0.466955 -0.032255 -0.051640
-0.466955 0.036826 -0.051762
-0.466955 0.063112 -0.011410
-0.466955 0.018624 -0.070079
-0.466955 0.069643 -0.061790
-0.466955 -0.047838 -0.000211
-0.466955 -0.054491 -0.018997
-0.466955 -0.032805 -0.016013
-0.466955 -0.077767 0.005163
-0.466955 0.029325 -0.060328
-0.466955 0.068078 -0.020713
-0.466955 -0.027601 0.007063
-0.466955 0.045497 -0.068553
-0.466955 -0.045421 0.083685
-0.466955 0.049645 -0.066031
-0.466955 -0.050833 -0.034260
-0.466955 0.009863 -0.084027
-0.466955 -0.034084 0.039333
-0.466955 -0.058312 0.077121
-0.466955 -0.097300 0.011503
-0.466955 0.071272 0.032526
-0.466955 0.069336 0.004219
-0.466955 -0.006357 -0.001250
-0.466955 0.069093 -0.057197
-0.466955 0.072576 -0.023253
-0.466955 0.034685 -0.014788
-0.466955 -0.026736 0.050202
-0.466955 0.096234 0.002408
-0.466955 0.045638 0.079095
-0.466955 -0.032198 -0.074800
-0.466955 0.053777 -0.011409
-0.466955 0.065637 0.036601
-0.466955 -0.025385 -0.082416
-0.466955 0.080275 0.019391
-0.466955 0.018274 0.034086
-0.466955 -0.027336 0.059703
-0.466955 0.012864 0.074690
-0.466955 -0.008799 0.029242
-0.466955 -0.046866 0.086760
-0.466955 0.071206 0.048423
-0.466955 0.003543 0.053386
-0.466955 0.042138 0.042029
-0.466955 -0.072544 -0.034258
-0.466955 -0.055824 -0.031306
-0.466955 0.076612 -0.027884
-0.466955 -0.035906 -0.067111
-0.466955 -0.017817 0.070835
-0.466955 -0.050804 0.002386
-0.466955 -0.023884 -0.083017
-0.466955 -0.060807 -0.040825
-0.466955 -0.030875 -0.071003
-0.466955 0.014375 -0.067352
-0.466955 -0.088426 -0.043999
-0.466955 -0.094568 -0.016286
-0.466955 -0.062116 0.030219
-0.466955 -0.019544 0.071309
-0.466955 -0.019836 0.032794
-0.466955 -0.017826 -0.033535
-0.466955 -0.041267 0.057616
-0.466955 0.079358 -0.059841
-0.466955 -0.048892 -0.048218
-0.466955 -0.032554 -0.017642
-0.466955 -0.022547 -0.091895
-0.466955 0.085325 0.005471
-0.466955 0.043169 0.006499
-0.466955 0.018450 0.004017
-0.466955 0.044644 0.008927
-0.466955 -0.072615 -0.058978
-0.466955 -0.012531 0.018082
-0.466955 0.027994 -0.067272
-0.466955 -0.018380 -0.056510
-0.466955 0.041117 -0.026196
-0.466955 -0.050148 -0.004547
-0.466955 0.069412 -0.024299
-0.466955 0.021532 0.004872
-0.466955 0.048373 0.038744
-0.466955 -0.084633 0.031230
-0.466955 -0.058805 0.007405
-0.466955 0.011357 -0.054148
-0.466955 0.017622 0.096648
-0.466955 -0.030694 -0.003622
-0.466955 0.075034 0.060700
-0.466955 -0.051513 0.028880
-0.466955 -0.097175 -0.001735
-0.466955 -0.000196 -0.052401
-0.466955 -0.012676 -0.063188
-0.466955 0.064668 -0.037903
-0.466955 -0.065506 -0.038415
-0.466955 -0.062005 0.049209
-0.466955 -0.089591 -0.027465
-0.466955 0.021779 0.064847
-0.466955 -0.021907 0.092016
-0.466955 -0.033854 0.083607
-0.466955 0.031157 0.009770
-0.466955 -0.010076 -0.098908
-0.466955 0.072109 0.055086
-0.466955 0.070361 -0.070626
-0.466955 -0.050704 -0.071160
-0.466955 0.092338 0.034069
-0.466955 -0.035564 0.018633
-0.466955 -0.001095 -0.085276
-0.466955 0.040169 -0.035249
-0.466955 -0.008463 -0.033806
-0.466955 -0.051792 0.012635
-0.466955 0.070555 -0.033208
-0.466955 -0.080774 -0.036115
-0.466955 -0.057966 0.015995
-0.466955 0.013546 0.064563
-0.466955 0.083855 0.037192
-0.466955 -0.091535 -0.015504
-0.466955 0.076239 0.004137
-0.466955 0.026237 -0.073143
-0.466955 0.008237 -0.020133
-0.466955 0.068753 -0.055669
-0.466955 -0.005006 -0.033892
-0.466955 -0.085149 -0.042699
-0.466955 -0.028561 0.071248
-0.466955 0.053054 0.024393
-0.466955 0.006825 -0.091830
-0.466955 0.005964 0.017753
-0.466955 -0.076082 -0.030309
-0.466955 0.056600 -0.005179
-0.466955 0.012819 -0.061882
-0.466955 0.099611 0.004194
-0.466955 -0.019381 -0.076198
-0.466955 -0.066627 0.036848
-0.466955 0.078632 0.055161
-0.466955 0.012908 0.062870
-0.466955 0.004595 0.043842
-0.466955 0.024394 -0.043138
-0.466955 0.055138 -0.052136
-0.466955 -0.062054 0.010162
-0.466955 -0.008483 -0.053820
