0.078675 -0.096306 0.026152
0.065329 0.094943 -0.031167
0.353118 0.099973 0.001220
0.068812 0.099423 0.010524
0.110460 0.070904 -0.070226
0.079605 0.060217 0.079917
-0.305695 -0.074210 -0.066483
-0.179591 0.034749 -0.093463
0.372128 -0.064156 0.076617
0.061054 0.082530 -0.056174
0.338454 0.099851 -0.004725
-0.365580 -0.099660 0.003752
0.044468 -0.091470 0.039928
0.185916 -0.095638 0.028449
-0.057492 -0.062025 -0.077970
-0.116151 0.062041 -0.078139
-0.313821 0.029077 -0.095372
-0.349948 0.087252 0.048975
-0.013038 0.045726 -0.088632
-0.459762 0.065920 0.075267
-0.282577 0.007126 0.099803
-0.106055 -0.019805 -0.097669
-0.024697 0.000098 0.100069
-0.155091 -0.093015 0.036237
0.127998 -0.017201 -0.098160
0.216792 0.051358 -0.085507
-0.239692 -0.078047 -0.061946
-0.159598 0.088471 0.046690
-0.206420 -0.058375 -0.080780
-0.060421 0.097853 -0.020249
0.004729 -0.031525 0.094902
-0.172826 0.098945 0.014423
0.309978 0.058002 -0.081192
-0.167867 0.069526 0.071967
-0.333982 -0.096248 0.026350
-0.143029 0.037066 0.092979
-0.416470 0.096289 0.027011
0.258774 -0.080691 -0.058537
0.050327 -0.098286 0.017106
0.242365 -0.010206 0.099490
0.195547 -0.099758 -0.000249
0.119722 -0.077561 -0.062572
0.409618 0.096575 0.026029
-0.347923 0.094938 -0.031182
-0.395691 -0.058417 -0.080752
0.098418 -0.076509 0.064238
0.212701 -0.007386 0.099757
-0.078621 0.078425 0.062122
-0.183633 0.099874 0.004356
-0.176145 0.085394 -0.051754
-0.070076 0.034402 -0.093588
-0.344577 0.098837 -0.014742
-0.260963 0.099915 -0.002686
-0.069434 -0.097389 -0.021279
-0.107010 0.076833 -0.063773
0.416591 -0.090886 0.041276
-0.314345 0.086911 -0.049190
-0.205555 -0.036673 0.093047
0.421933 -0.095671 0.028335
0.212179 -0.099689 -0.002458
-0.377577 0.024588 0.097015
-0.243624 0.006636 0.099849
0.145161 0.000892 0.100046
-0.273875 0.095879 -0.028060
-0.458877 0.081416 0.058176
-0.056425 -0.089344 0.044519
0.024203 0.043607 -0.089711
0.408373 -0.076933 0.063744
-0.320175 0.074718 -0.066172
-0.084074 0.087306 0.048885
0.448520 -0.025199 0.096794
0.068148 -0.087029 0.048958
-0.085642 0.091072 -0.041025
0.343519 0.061807 -0.078320
-0.235773 -0.097870 0.019493
-0.421154 0.067376 -0.073621
-0.047069 0.099880 0.004170
-0.103985 -0.025797 0.096620
0.327879 0.066425 0.074822
-0.296871 0.066130 -0.074719
-0.376551 0.069982 0.071510
0.454985 -0.092438 0.037690
-0.141081 0.044311 0.089716
-0.436552 0.023389 0.097283
0.022077 0.081326 -0.057947
0.323634 -0.087680 -0.047422
-0.106599 -0.066406 0.074633
-0.037217 -0.079421 -0.060174
-0.168927 -0.046527 -0.088105
0.180172 0.088051 -0.047152
-0.182638 0.015761 0.098787
-0.230384 -0.061707 0.078580
-0.052272 0.017652 -0.098125
0.038792 -0.095003 -0.030273
-0.307307 -0.055503 0.083095
0.362275 0.035186 0.093668
-0.409196 0.099822 -0.005660
0.252758 -0.006284 -0.099498
0.443065 -0.004898 0.099912
0.051783 -0.099607 0.005425
-0.054946 0.096435 0.026510
0.412790 -0.096532 -0.025011
0.158219 -0.077022 -0.063267
-0.170707 0.059677 0.080335
0.393946 0.005683 -0.099532
0.183214 0.064010 -0.076588
0.268295 -0.010606 0.099452
0.075048 -0.059036 0.080652
0.061792 0.049872 -0.086386
0.002955 -0.090124 0.042988
0.457456 0.061243 -0.078759
-0.250606 0.095595 -0.029039
-0.114337 -0.013449 0.099117
-0.397413 0.024320 0.097074
-0.013138 -0.043655 0.089931
-0.290688 0.071080 -0.070050
0.374936 0.027010 0.096336
0.193651 0.055824 0.083036
0.388296 0.058280 0.081366
0.057853 -0.097765 -0.019600
0.168687 -0.038249 0.092366
-0.303931 -0.005369 -0.099535
-0.243562 -0.038250 0.092365
0.322495 0.099562 0.009059
-0.372037 -0.058399 -0.080764
0.233389 0.050165 0.086575
-0.071161 0.099902 -0.003100
-0.026088 -0.099203 -0.010020
0.193565 -0.099608 0.005392
-0.352482 -0.049084 0.087076
0.245347 -0.054645 -0.083315
0.003001 0.042329 0.090701
-0.255547 0.007181 0.099798
0.201555 -0.034623 0.093787
-0.055902 0.036444 -0.092853
0.453485 -0.001474 0.100020
-0.072914 -0.090220 0.042801
0.298489 -0.077500 0.063013
0.355677 -0.031045 0.095075
-0.403175 -0.078730 -0.061065
0.404223 -0.099499 -0.006893
-0.250367 0.094663 0.032309
-0.022444 -0.095060 -0.030076
-0.397380 -0.027269 0.096193
-0.241822 -0.093326 -0.035012
-0.337222 0.098628 -0.016060
0.114638 0.053517 -0.084230
0.112398 0.065510 0.075629
0.238068 -0.038614 -0.091845
0.081282 0.078448 -0.061730
0.319330 -0.061226 -0.078590
-0.054130 -0.099259 0.009795
0.292924 0.083932 0.054474
0.172216 -0.065530 -0.075043
-0.413089 0.087808 0.047993
0.113995 -0.072828 -0.068051
0.436950 -0.031127 0.095045
-0.453325 0.094212 -0.033199
0.187411 -0.099645 0.004221
0.085481 -0.096080 -0.026564
0.285882 -0.045861 -0.088444
0.254956 0.069185 -0.071944
-0.107797 0.031579 -0.094604
-0.372816 0.082678 0.056320
-0.312466 -0.027826 -0.095668
-0.192842 -0.091839 -0.038711
-0.223177 0.084916 0.052925
0.126761 -0.078601 0.061594
0.310456 -0.091521 -0.039448
0.111475 0.037038 0.092991
-0.087664 0.088490 -0.046291
-0.230500 -0.078608 -0.061222
0.266433 -0.031849 -0.094423
-0.068224 0.096608 0.025914
-0.243044 0.090086 -0.043159
-0.453233 -0.087552 -0.047674
-0.324518 -0.099189 0.010530
-0.021331 0.087111 -0.048852
0.161881 0.028140 -0.095645
-0.123492 0.095738 0.028911
-0.087806 -0.047900 -0.087405
-0.003896 0.044761 0.089486
0.382845 0.040866 -0.090971
-0.180826 0.097019 -0.023978
0.315593 0.097603 0.021733
0.404211 -0.093877 0.033844
-0.042397 -0.060075 0.079846
-0.463898 0.008169 -0.099342
0.418440 0.095371 0.030171
0.045876 -0.063719 -0.076639
-0.235622 0.091416 0.040592
0.449794 -0.049558 0.086796
0.386765 0.094607 -0.032101
0.107612 0.089116 0.045425
0.028604 0.029579 -0.095227
-0.189611 0.096355 0.026787
0.310261 -0.002493 -0.099625
-0.064644 0.086756 -0.049452
-0.150140 0.033417 -0.093942
0.199148 -0.052105 -0.084927
0.249226 -0.049661 0.086735
-0.378396 0.063197 -0.077243
-0.404554 -0.098460 0.016009
-0.464732 -0.049753 0.086681
0.061629 0.029396 0.095642
0.084283 -0.087502 0.048135
0.241524 -0.031995 -0.094370
-0.375669 0.095344 0.030266
0.239250 -0.096702 -0.024354
0.222020 -0.090683 -0.041384
0.162017 0.005382 0.099905
-0.307674 -0.048983 0.087136
-0.183190 0.056137 -0.082460
0.446607 -0.098554 -0.015054
0.097190 -0.041394 -0.090642
0.173729 -0.086314 -0.049804
0.117487 -0.087355 0.048407
0.340260 -0.012141 -0.098944
-0.429263 0.099805 0.006485
-0.290206 0.067623 0.073766
-0.427526 -0.093454 0.035019
0.423956 0.079125 0.061219
-0.465851 0.032840 0.094513
-0.051527 0.054020 -0.083899
-0.445192 -0.019203 -0.097803
-0.292608 0.047347 0.088168
0.392858 0.085963 0.051155
-0.208072 -0.095422 -0.028832
-0.140014 0.045207 -0.088896
0.037492 0.079739 0.060427
0.005902 -0.097208 0.022452
-0.435253 0.084700 -0.052929
-0.120331 -0.099462 -0.007286
0.090527 0.058741 -0.080691
0.266054 -0.099199 -0.010071
-0.287903 -0.021379 0.097680
0.099682 -0.044830 0.089332
0.426740 0.065139 -0.075593
0.267739 0.069005 -0.072124
0.028152 0.009096 -0.099254
-0.351189 0.066692 -0.074224
0.394070 -0.032917 -0.094038
-0.283204 -0.037203 0.092818
0.181216 -0.077164 -0.063084
-0.031998 -0.045391 0.089046
0.356875 0.095571 0.029483
-0.007864 0.080776 0.059091
0.074107 0.017586 -0.098136
0.419566 0.057365 -0.081625
-0.303873 0.017998 0.098433
-0.236263 -0.015429 -0.098440
0.316196 0.038182 -0.092133
-0.078863 0.010514 0.099483
-0.377226 -0.096619 0.025073
-0.227160 -0.083987 0.054050
-0.287269 0.000737 0.100050
0.418550 0.080249 -0.059408
0.125424 0.093301 0.036090
0.060539 0.097161 -0.023344
0.383755 0.053320 0.084709
0.248337 0.098510 -0.016806
-0.327103 0.076317 0.064721
-0.439333 0.098617 -0.016130
-0.372532 -0.073049 0.068163
0.052811 0.091254 0.040967
0.281323 -0.072337 -0.068559
0.032291 -0.097436 0.021431
0.163397 0.093804 0.034693
-0.431893 -0.068194 -0.072694
-0.227184 0.002183 -0.099642
0.355041 0.099280 -0.011678
0.041839 -0.098690 0.014558
-0.349302 0.085105 -0.052243
-0.195021 0.013096 0.099209
0.201709 0.094961 0.031480
-0.322726 -0.099693 -0.002336
0.131109 0.054746 -0.083406
-0.173325 -0.079336 -0.060284
0.241264 -0.074844 -0.065764
-0.188500 0.058905 -0.080572
0.128409 -0.027011 0.096268
-0.024452 0.053314 -0.084350
0.026026 -0.038969 -0.091691
-0.359039 0.067249 -0.073733
0.278541 -0.051209 0.085819
-0.092519 0.087864 0.047883
-0.006686 -0.010786 -0.099072
-0.128213 0.017012 -0.098226
0.198791 0.087490 -0.048210
-0.284878 -0.066010 0.074982
-0.156700 0.044815 -0.089096
0.422639 0.057093 0.082174
-0.289916 -0.071403 0.069856
0.414133 -0.046011 0.088731
-0.319459 -0.009281 0.099577
-0.048011 -0.084735 0.052837
0.125724 0.036530 -0.092822
0.305078 0.004884 0.099920
0.451855 0.099522 -0.009121
0.038908 0.099159 -0.012707
0.428178 0.092121 0.038962
0.191685 -0.044508 0.089496
-0.157669 -0.097302 0.022033
-0.329817 0.060630 0.079597
-0.314835 0.024511 0.097032
0.026026 -0.081308 -0.057630
0.431712 -0.004450 0.099926
-0.305820 -0.065086 -0.075434
-0.174400 0.006560 -0.099494
-0.265440 0.099969 0.001332
0.180983 -0.097014 -0.022960
0.465254 0.021459 0.097714
-0.156971 -0.072486 -0.068410
0.247320 0.066938 0.074370
0.087478 -0.025039 0.096840
0.344353 0.023542 0.097248
0.055248 -0.009240 -0.099219
0.245651 -0.025909 0.096588
0.335755 0.050788 -0.085844
-0.157000 -0.097053 -0.022785
-0.311320 -0.014339 -0.098613
0.404055 0.064501 0.076518
0.295388 0.099923 0.002804
0.047929 0.098859 0.014964
-0.119960 0.001670 0.100021
-0.308620 0.094683 0.032252
0.364032 -0.091295 0.040333
0.096334 -0.072703 -0.068192
-0.308654 -0.091854 0.039041
0.434825 0.003765 -0.099593
-0.093328 0.043587 -0.089721
-0.157966 -0.060827 0.079262
0.377893 -0.007075 0.099786
-0.185092 0.089777 0.044128
-0.207047 -0.049151 -0.086674
0.179599 -0.047524 -0.087597
-0.165645 -0.096791 0.024317
-0.402944 -0.013083 0.099175
-0.458899 -0.050115 0.086466
-0.056632 0.023669 -0.096857
-0.431508 -0.095594 0.028603
0.154622 0.011667 0.099374
0.385298 -0.006671 0.099824
-0.234322 -0.056725 0.082265
-0.369283 0.087981 0.047652
-0.401863 0.039041 -0.091761
0.441880 0.099668 -0.007569
0.114520 -0.035255 -0.093196
0.185743 -0.006848 0.099807
-0.369583 0.092335 -0.038107
-0.157397 0.086420 -0.050020
0.252866 -0.008215 0.099678
0.421632 -0.021566 -0.097275
0.174242 0.025998 -0.096267
-0.456709 -0.053190 -0.084285
-0.112354 -0.086012 -0.050315
0.334572 -0.039112 -0.091629
0.383489 -0.099696 -0.002241
-0.466091 0.099678 -0.007471
0.246722 -0.064803 -0.075683
0.355183 0.055413 -0.082953
-0.164994 0.099913 0.003119
0.088999 -0.090141 0.042956
0.284975 -0.066401 -0.074275
-0.353186 0.054661 -0.083463
0.256535 -0.010996 -0.099053
-0.270607 0.052366 0.085273
0.359563 0.020386 -0.097591
0.189962 -0.093727 -0.033896
-0.334739 -0.075580 -0.064930
0.405291 -0.081640 -0.057141
-0.098711 0.027412 0.096219
-0.154813 -0.096081 0.026926
-0.022100 0.087975 0.047665
0.040446 0.045250 0.089237
0.432949 0.098738 -0.015366
-0.400067 -0.099666 0.003542
0.011592 0.099911 -0.002829
-0.404525 -0.055854 0.082856
0.237074 0.091624 -0.039748
0.031128 -0.095450 0.029097
-0.007136 -0.049845 -0.086264
0.190480 -0.085014 0.052366
-0.009213 -0.089720 0.043781
0.416801 -0.078889 0.061223
0.409326 0.039465 0.091940
-0.444450 0.003610 0.099960
-0.357543 -0.095772 -0.027626
-0.203772 0.083702 0.054813
0.418621 0.097055 -0.023819
0.307061 0.099941 -0.001851
0.272426 -0.059143 -0.080206
-0.348390 0.099988 -0.000372
-0.053882 0.099620 -0.008081
-0.246834 0.091351 0.040742
-0.179824 0.009734 -0.099194
-0.197770 -0.087501 -0.047774
-0.175358 0.063329 -0.077140
0.395957 -0.097592 -0.020370
-0.423411 -0.069423 -0.071473
0.033628 0.099264 0.012208
0.342603 0.052419 -0.084879
0.207809 0.017780 0.098468
-0.075120 0.095531 0.029623
0.074247 -0.091760 0.039258
0.242847 0.038010 -0.092207
-0.431315 0.070377 -0.070752
0.135274 0.043303 -0.089866
-0.337738 0.026269 -0.096188
-0.273359 -0.034061 0.093989
0.067539 -0.059405 0.080366
-0.431035 -0.098800 -0.013500
-0.413653 -0.092679 -0.036772
0.162404 0.098117 -0.019069
-0.100044 -0.011482 0.099369
-0.238888 0.071811 0.069682
0.366069 -0.075534 0.065345
0.122612 -0.083189 -0.054861
0.217796 0.075060 -0.065784
0.400413 -0.004633 0.099921
-0.157018 0.010814 -0.099092
0.223758 -0.087486 0.048166
0.030877 0.032866 0.094503
0.247644 -0.099638 -0.004094
-0.274916 0.025219 0.096856
0.223375 -0.040287 0.091483
-0.465365 0.099611 0.008534
0.125622 0.083472 0.055152
0.427850 -0.009308 0.099575
-0.145478 0.027896 0.096078
0.239895 -0.066154 0.074855
-0.360656 -0.083991 0.054045
-0.085850 0.099104 -0.013058
-0.100116 0.041417 -0.090733
-0.242294 -0.097196 -0.022143
-0.233374 -0.092913 0.036520
-0.037581 0.098937 -0.014110
0.306163 -0.002645 0.099983
-0.397026 -0.020507 -0.097512
0.428489 -0.090115 0.043007
-0.102902 -0.007629 -0.099371
0.342522 -0.092633 -0.036878
0.014006 -0.060584 -0.079088
0.399211 -0.042943 -0.089931
0.158338 0.053360 -0.084323
-0.357742 0.043471 0.090144
0.362302 0.099407 0.010701
-0.071813 -0.062869 -0.077316
-0.329984 -0.099663 0.003640
-0.077201 0.099898 0.003589
-0.169245 0.091698 -0.039578
0.388514 0.083462 -0.054804
0.329431 -0.099683 -0.002633
0.310490 -0.083238 -0.054790
0.340134 -0.028141 -0.095577
-0.007992 0.099961 -0.001223
0.035019 0.041765 -0.090582
0.264239 -0.088209 -0.046384
0.431317 0.096182 -0.027017
0.398778 0.099485 0.009868
-0.117473 -0.094055 0.033347
0.046985 -0.098599 -0.014771
0.415347 0.041080 0.091241
-0.271820 -0.025903 -0.096227
0.115116 0.051360 0.085868
-0.129978 -0.050568 -0.085836
0.446940 -0.010671 -0.099083
-0.312425 0.097194 -0.023199
-0.290380 0.065157 -0.075577
-0.444864 -0.095399 0.029274
-0.436426 0.024524 -0.096666
-0.052043 -0.011272 0.099389
-0.183961 -0.026022 0.096555
0.305470 -0.037871 0.092529
0.416855 0.068897 -0.072232
-0.152679 -0.001586 0.100016
-0.105352 0.092778 0.037445
-0.093522 0.023234 0.097317
-0.363168 -0.075194 -0.065367
-0.354486 0.094388 -0.032709
-0.279795 -0.053322 0.084570
-0.103090 -0.042414 0.090563
0.347237 -0.014619 0.098931
0.283174 -0.004520 0.099924
-0.253028 0.048575 0.087515
-0.043056 0.018650 0.098330
-0.390219 0.099588 -0.008420
0.171268 -0.060145 -0.079429
-0.040849 -0.099030 0.012218
0.030452 -0.046603 0.088429
-0.323183 0.003604 0.099960
0.255980 -0.047736 -0.087489
-0.016345 -0.096609 -0.024745
-0.268035 -0.078578 -0.061261
-0.335673 0.093347 0.035963
-0.383720 0.038772 -0.091877
-0.367544 0.074368 0.066932
-0.091725 -0.091169 -0.040260
-0.462656 -0.053564 -0.084050
0.219740 0.088822 0.046002
0.286625 -0.036988 0.092911
-0.441196 0.028313 0.095957
-0.444836 0.047920 0.087877
0.064528 0.098293 -0.018176
0.363486 0.094044 0.034028
0.423141 -0.029918 -0.095060
0.115597 0.043922 -0.089551
-0.072896 -0.022954 -0.096965
-0.293356 0.094549 0.032624
-0.167610 0.097268 -0.022868
0.012431 0.007333 -0.099421
-0.278216 0.035313 0.093622
-0.021737 0.011127 0.099425
-0.056544 -0.015344 0.098816
-0.267105 0.099600 -0.008289
0.293528 0.022052 0.097581
0.040078 0.094218 0.033544
-0.201897 0.077273 -0.063244
0.423515 0.025059 -0.096540
0.235476 -0.092801 0.036833
0.432595 0.050015 -0.086301
-0.161498 0.015131 -0.098524
-0.155118 -0.098896 0.013258
0.045505 -0.090760 -0.041205
-0.257608 -0.078332 0.061941
0.187752 0.088340 -0.046585
0.267652 -0.073159 -0.067675
0.125790 -0.047833 0.087802
0.408992 0.070473 0.071020
-0.147106 -0.027047 0.096257
-0.409776 0.012783 0.099259
0.348321 -0.095132 0.030192
-0.210953 -0.077913 0.062481
-0.149574 -0.051477 0.085661
-0.028176 0.008232 0.099699
0.453124 0.090489 -0.042369
-0.228693 -0.093716 -0.033927
-0.284957 -0.034162 -0.093590
0.128925 -0.094375 0.032459
0.256617 0.082162 0.057079
-0.098758 0.054978 0.083610
0.324364 -0.091087 -0.040450
0.132361 0.011872 0.099355
-0.358035 -0.034583 -0.093438
-0.339620 0.099601 -0.008282
0.393638 0.097095 0.024005
0.274558 0.099963 -0.001171
-0.342042 -0.098464 -0.015625
-0.017815 0.042296 -0.090353
-0.363483 -0.099066 0.011836
-0.190788 -0.084350 -0.053126
-0.234545 0.051070 -0.085677
0.357532 -0.097320 -0.021589
0.303771 0.002347 -0.099637
-0.073908 -0.057545 -0.081345
0.188981 0.007399 0.099777
0.123864 0.010693 -0.099103
-0.017733 0.100003 0.000110
-0.232825 0.051859 0.085573
-0.353650 0.033579 -0.093884
-0.141499 0.063176 0.077622
-0.417041 0.080340 0.059652
-0.297040 0.099022 0.013935
-0.278904 -0.043045 -0.089879
-0.309878 -0.006166 0.099872
-0.398317 0.099221 0.012660
0.347129 0.056824 -0.081993
0.330163 -0.096639 0.024998
-0.404328 -0.000297 0.100057
0.302624 -0.091283 -0.039998
0.169748 0.063460 -0.077039
-0.290644 0.051805 -0.085243
0.179610 0.076906 -0.063690
0.249032 -0.032329 0.094613
0.283937 0.099089 0.013510
-0.142082 -0.038571 0.092226
0.062558 0.066023 -0.074814
0.410222 -0.072730 0.068525
0.111103 0.075812 -0.064930
-0.172292 0.079342 0.060940
-0.284246 0.057258 0.082061
-0.351415 -0.064042 0.076717
-0.341554 0.081923 -0.057068
0.163668 0.054172 0.084158
-0.019990 -0.099457 -0.007335
-0.064080 0.078711 0.061753
0.296225 -0.097038 -0.022849
0.419160 -0.095948 -0.027020
-0.466330 -0.070058 0.071201
0.034869 -0.011020 -0.099050
0.070661 0.097329 0.022955
-0.270623 -0.086390 -0.049676
-0.130323 -0.036189 -0.092860
-0.257267 0.051196 -0.085603
0.151090 0.064975 0.076100
0.214146 0.087715 0.048175
-0.316698 -0.021205 -0.097356
0.261368 -0.094297 0.032676
0.143830 -0.097357 0.021788
0.103270 -0.049222 0.086995
-0.343008 0.085373 -0.051790
-0.260790 0.029896 0.095497
-0.408880 0.056219 0.082767
-0.276158 0.048209 0.087730
0.397379 -0.097480 0.021235
-0.411100 -0.022016 -0.097174
-0.203750 -0.072657 0.068601
0.318397 -0.092264 0.038093
0.304022 -0.094449 -0.031891
-0.365765 -0.080441 -0.058859
-0.239423 0.037901 0.092617
-0.350960 -0.099423 -0.007692
0.161462 0.018849 0.098297
0.399932 -0.034940 -0.093310
0.244563 -0.091052 -0.040532
-0.128681 -0.081103 0.058293
0.193314 -0.098387 -0.016110
0.085550 0.049877 0.086745
-0.028245 -0.052411 0.085109
0.142517 0.031763 -0.094538
-0.311858 0.096340 0.026836
0.123035 -0.023944 -0.096744
0.071954 -0.025041 0.096840
-0.155490 -0.070103 0.071156
0.061428 -0.023727 0.097155
0.302043 -0.083241 0.055148
0.438639 -0.027475 -0.095770
0.286233 -0.021560 0.097639
-0.056328 0.060492 -0.079340
-0.224939 -0.044516 0.089492
-0.347978 -0.098922 -0.012728
-0.190018 -0.094505 0.032098
-0.377151 0.099536 -0.008971
-0.421382 0.050810 -0.085831
-0.099455 -0.073888 0.067212
0.388723 0.099133 0.013233
0.364745 0.064690 -0.075989
-0.216365 -0.096478 -0.025196
-0.378474 0.090220 -0.042896
0.068523 0.029065 0.095739
-0.289139 -0.029966 -0.095046
-0.098736 -0.049396 -0.086529
0.249057 -0.023941 -0.096744
0.155905 -0.096486 0.025532
0.455430 0.076584 -0.064055
-0.285010 0.085814 0.051408
0.458797 -0.025682 0.096654
0.141784 -0.070966 -0.069930
0.290828 0.067708 -0.073328
-0.288943 -0.097646 -0.020131
-0.133805 0.099416 0.010597
0.197476 0.079717 0.060457
-0.184375 0.068136 -0.072951
0.129032 -0.063019 0.077562
-0.375273 0.097910 -0.019996
0.445469 -0.035972 -0.092938
0.128708 0.014789 -0.098579
0.079641 -0.060930 -0.078820
0.380037 0.035375 0.093600
-0.280829 0.091565 -0.039885
-0.265404 0.066460 0.074792
0.359313 -0.025419 0.096730
0.308524 -0.028850 0.095733
-0.294276 -0.020596 0.097855
-0.018658 -0.080987 -0.058102
0.403452 0.092043 0.039143
-0.291413 0.058287 0.081361
0.323636 -0.076659 -0.063705
0.411119 0.069765 -0.071365
-0.340831 0.032856 0.094507
0.227178 0.019812 0.098082
0.239885 -0.064173 -0.076239
0.420071 -0.017752 0.098435
0.373621 -0.050180 -0.086066
-0.119445 -0.086849 -0.048899
0.021116 -0.037580 0.092655
-0.000269 -0.097567 0.020847
0.284561 0.042248 0.090736
-0.051289 0.099567 0.009006
0.343557 -0.038454 0.092277
-0.215459 0.026479 -0.096127
-0.428806 0.027014 0.096334
-0.453836 0.078209 0.062400
-0.128018 0.072392 0.069100
-0.143914 0.024510 -0.096669
-0.244436 -0.069987 -0.070909
0.224948 -0.099754 0.000755
0.104681 0.009335 -0.099232
0.391847 -0.089114 -0.044608
0.438651 -0.062767 0.077758
-0.444329 0.095191 0.030791
0.305149 0.067309 -0.073680
0.351644 0.097907 0.020372
0.448887 0.097923 -0.019937
0.087406 -0.054019 -0.083741
-0.412747 0.029030 0.095749
-0.295177 0.078023 -0.062278
-0.045091 -0.040544 -0.091009
0.297730 -0.060324 -0.079290
-0.278991 -0.093227 -0.035286
0.250539 0.047187 -0.087887
-0.059862 -0.077205 -0.063030
-0.052881 0.029102 -0.095365
-0.077716 -0.088952 -0.044927
-0.456808 -0.047021 -0.087853
0.407389 0.050217 0.086544
0.072294 0.095832 -0.028222
0.013381 -0.001964 -0.099642
0.419743 -0.088452 -0.045908
0.158735 -0.093932 -0.033327
-0.322404 -0.063626 0.077084
-0.209794 0.082807 -0.055767
0.229348 -0.049847 0.086625
-0.231205 -0.076515 0.064231
0.365157 0.002228 -0.099641
0.056376 -0.001711 -0.099650
0.023578 -0.049751 0.086682
0.165271 -0.092796 -0.036482
-0.201682 0.094680 0.032261
0.380951 -0.098764 0.014091
-0.350258 -0.021674 0.097614
-0.351626 0.004657 0.099927
-0.376127 -0.071760 -0.069136
0.065542 0.023719 0.097209
0.347444 0.088230 0.047165
-0.232615 0.063291 -0.077169
-0.038886 0.084920 -0.052556
0.177913 -0.027759 -0.095687
-0.366380 0.014470 0.098992
-0.363050 -0.013230 0.099151
-0.256993 0.093441 0.035704
0.391940 -0.048827 0.087228
-0.108177 0.088944 -0.045400
-0.110444 0.038945 0.092165
-0.379417 -0.048002 -0.087353
0.293091 0.085233 -0.052027
0.314684 0.081434 -0.057788
0.042769 -0.000952 -0.099674
0.319598 -0.045039 -0.088863
0.206849 0.098645 -0.015953
0.037389 0.035250 0.093645
0.285390 0.044987 -0.089008
0.460307 0.094295 -0.032967
0.275234 0.079803 0.060345
0.103304 0.051266 0.085924
-0.127394 -0.041813 -0.090460
0.275881 0.052488 -0.084839
-0.277978 -0.066467 -0.074217
-0.319593 0.066138 0.075075
0.344797 0.014932 0.098919
-0.304994 -0.081700 0.057416
0.055695 0.020315 -0.097607
0.391300 -0.030085 0.095374
-0.455314 -0.099500 -0.006885
0.426049 0.056939 -0.081915
-0.006507 -0.026998 0.096271
-0.464469 0.001945 -0.099650
0.273583 0.089082 0.045492
-0.227923 0.010967 -0.099077
-0.029129 0.024651 0.097000
0.097543 -0.092852 0.036689
0.365624 -0.082223 -0.056283
0.127321 -0.047460 -0.087629
0.090665 -0.097429 -0.021103
0.187790 0.092298 0.038553
0.174157 0.094328 0.033240
0.329862 0.098616 -0.016137
-0.212017 -0.014406 -0.098602
0.381682 0.099125 -0.012921
0.076934 -0.097948 0.019141
-0.177911 0.098244 -0.018487
-0.098813 0.020929 -0.097470
-0.219206 0.098797 -0.014992
0.024278 -0.098496 0.015780
0.119433 0.064245 -0.076382
-0.357780 0.063982 0.076976
-0.409723 -0.097283 0.022117
-0.153379 -0.003871 -0.099582
0.112742 -0.019757 -0.097679
0.356899 -0.054928 -0.083123
-0.260197 0.099372 -0.010709
0.086629 0.010608 -0.099111
-0.465623 0.063453 0.077406
0.142294 -0.064532 -0.075922
-0.357619 0.003257 0.099971
0.464708 0.082950 0.055920
-0.331452 0.031645 -0.094580
0.363475 -0.095901 0.027545
-0.417080 0.016712 0.098637
-0.255524 0.099779 -0.006403
0.266739 -0.065473 0.075456
0.041793 0.015636 0.098807
-0.309700 -0.069996 -0.070900
0.329092 0.077624 -0.062791
0.333700 0.089582 0.044510
0.115151 -0.097691 0.020295
0.420723 0.013805 -0.098734
-0.127504 -0.069089 -0.071807
-0.285439 0.040347 0.091559
0.117582 0.093143 -0.036167
0.186418 0.099382 0.010959
-0.102593 0.098422 -0.017364
0.227612 -0.009943 0.099515
0.161205 0.059759 -0.079909
0.154974 -0.099735 0.001350
-0.215383 0.039589 -0.091524
-0.232615 0.088963 0.045725
-0.178612 0.089103 0.045452
0.032640 0.024260 0.097088
0.376063 0.095958 -0.027788
-0.340957 0.075209 0.065977
0.188290 0.019432 0.098167
-0.359778 0.095365 -0.029830
0.227801 -0.074426 -0.066238
-0.456578 0.063640 -0.076899
0.161653 0.099938 -0.001971
-0.320501 -0.082843 -0.055370
-0.165726 0.093535 -0.035079
0.199924 0.092928 0.037098
0.357856 0.097447 0.022429
0.348830 0.059885 0.080175
0.337392 0.067689 -0.073345
0.338778 0.031736 -0.094548
0.347653 -0.074913 -0.065686
0.179718 -0.090604 -0.041565
0.159000 0.069314 -0.071816
-0.275777 0.053716 -0.084106
-0.017125 -0.089064 -0.044706
-0.451320 0.003180 0.099974
-0.124784 0.076388 0.064640
-0.305584 -0.069736 0.071523
0.197619 0.093013 -0.036529
-0.045251 0.097956 -0.019790
0.313591 0.066031 0.075170
0.287208 0.057522 0.081882
0.290220 -0.070893 0.070366
-0.010798 -0.045284 -0.088738
0.132694 -0.095862 0.027679
-0.193288 0.099003 0.014054
0.117568 -0.094103 0.033216
-0.203796 -0.093396 -0.034817
0.309070 -0.075380 -0.065156
-0.300400 0.037561 0.092764
0.309968 0.078081 -0.062203
-0.247830 -0.040659 -0.090960
0.012859 -0.075338 0.065566
0.039214 0.083842 0.054606
0.402355 0.018648 -0.097967
-0.169112 0.086418 0.050386
0.392748 -0.063033 0.077551
-0.156999 -0.091173 -0.040250
-0.235333 -0.033389 0.094231
0.326444 -0.002052 0.100002
0.463229 -0.042640 0.090448
0.158151 0.049100 0.087205
-0.030291 -0.078647 0.061534
-0.340740 0.072257 -0.068873
0.398072 0.077518 0.063291
-0.250449 0.031435 0.095019
0.409767 0.055887 0.082993
-0.149043 0.053570 -0.084198
-0.092730 -0.017381 -0.098131
0.291603 -0.049484 -0.086477
-0.367253 0.055124 0.083511
0.288167 -0.090876 0.041300
-0.331135 0.099565 0.009026
-0.303043 -0.098097 -0.017940
0.142733 0.099131 -0.012883
-0.254560 -0.056116 0.082679
-0.307447 -0.080882 -0.058256
-0.466809 -0.099062 -0.011513
0.259209 -0.016288 -0.098304
-0.167026 0.047965 -0.087491
-0.044935 -0.034803 -0.093359
-0.013272 -0.086593 0.049696
-0.188993 -0.075699 0.065157
0.377056 -0.026247 0.096489
-0.396298 -0.057772 0.081553
-0.225893 0.089199 -0.044900
0.446746 -0.095477 -0.028642
0.306433 -0.095006 0.030626
0.305016 0.032969 0.094466
-0.062884 0.064804 -0.075888
0.356890 -0.093237 0.035621
-0.130418 -0.030462 -0.094902
0.232765 -0.046696 -0.088019
-0.312099 0.098583 -0.016347
-0.365352 -0.025309 0.096762
-0.177205 -0.016191 -0.098320
-0.438869 -0.056863 0.082171
0.170545 -0.031992 0.094734
0.016140 0.017786 0.098467
0.464163 0.012186 -0.098962
-0.399568 -0.065700 0.075256
0.229557 -0.094134 0.033129
0.319883 -0.038122 -0.092058
0.138142 0.075215 0.065971
0.241422 -0.037600 0.092646
0.386134 0.045540 -0.088727
-0.133035 -0.093797 0.034065
0.324757 0.057154 -0.081769
0.125913 -0.041427 -0.090628
0.266892 -0.095241 -0.029455
0.229041 0.078153 0.062472
0.453596 -0.059918 -0.079605
0.264422 -0.055269 -0.082892
-0.141654 0.014318 0.099016
-0.416750 -0.036657 0.093055
-0.079193 -0.039263 0.091927
-0.321473 -0.073163 -0.067670
0.369963 0.062623 -0.077687
-0.163485 0.020555 0.097916
0.319725 0.006284 0.099876
-0.283462 -0.058003 0.081396
-0.240714 -0.082623 -0.055695
0.248905 0.098767 0.015548
-0.342891 -0.073910 -0.066823
-0.034648 0.089877 -0.043569
-0.196636 0.088064 0.047490
-0.146635 0.099651 -0.007757
0.036631 -0.099187 0.010553
0.189057 -0.099600 -0.005298
0.100171 0.017251 0.098551
0.403574 -0.013043 0.099181
-0.310460 0.086422 0.050379
0.385721 -0.041881 -0.090431
0.102062 0.097015 0.024362
0.460625 0.098700 -0.015607
0.186785 -0.035579 0.093443
-0.025619 0.019608 0.098128
-0.050217 -0.055474 -0.082752
-0.203096 0.041604 0.091015
0.457842 0.089392 0.044885
-0.427763 0.086456 0.050322
0.370243 0.088024 -0.047206
0.277974 0.094981 0.031424
0.291958 0.043117 0.090324
-0.373977 -0.051977 -0.085002
0.306048 0.039081 -0.091744
0.253465 0.096742 -0.025092
0.305045 0.075215 -0.065608
0.165261 0.054134 -0.083821
-0.253564 -0.067630 0.073554
0.296349 0.093033 0.036834
0.460012 -0.094285 0.032710
-0.447521 -0.099753 -0.000426
-0.392554 -0.096915 -0.023401
0.334739 -0.051197 -0.085464
0.240219 0.025490 0.096777
-0.381664 0.045947 -0.088519
-0.412270 -0.043125 0.090201
-0.069695 -0.045439 -0.088659
0.417755 -0.010705 0.099443
-0.239920 -0.073649 -0.067120
-0.261255 -0.021399 0.097675
0.206606 -0.091481 -0.039540
-0.061002 0.089812 -0.043696
0.176661 0.064224 -0.076400
-0.241232 0.048376 0.087633
0.151393 0.073752 -0.067268
-0.189024 -0.097974 0.019028
0.017929 0.094837 0.031824
0.063191 -0.079881 -0.059581
-0.463511 -0.014945 0.098880
0.376774 -0.071884 -0.069012
0.190077 0.068285 0.073182
0.415901 -0.099764 -0.000057
0.270518 0.098447 0.017569
0.148933 -0.094250 0.032807
0.257060 -0.014183 0.099000
-0.271311 0.099926 0.002708
-0.019535 0.075996 0.065085
-0.316696 -0.038861 0.092101
0.445121 -0.004890 -0.099550
-0.415676 -0.053519 0.084444
-0.024443 -0.014685 -0.098558
0.266722 0.074355 -0.066583
0.233182 0.068047 -0.073030
0.162101 0.082965 0.055897
0.464821 -0.088007 0.047144
-0.057982 0.042125 -0.090427
-0.246126 0.099817 0.006182
-0.162316 0.099486 -0.009497
0.443954 0.033184 -0.094026
-0.440192 0.052851 -0.084624
-0.395530 -0.083044 0.055438
0.362736 -0.004460 -0.099563
0.173148 -0.078236 0.062065
0.190987 -0.012642 0.099244
0.321725 0.063958 0.076997
0.258545 0.087841 -0.047565
-0.053085 0.099938 -0.001972
0.435801 0.081546 -0.057622
-0.321648 0.011442 0.099395
-0.136026 0.097980 -0.019681
0.208992 -0.081625 0.057526
-0.187071 -0.097653 -0.020101
-0.070594 0.055648 -0.082793
0.416135 0.099384 0.010942
-0.142897 -0.081219 -0.057760
-0.364743 -0.046148 -0.088298
0.148510 -0.073365 -0.067442
0.272429 -0.084918 0.052528
0.084512 0.068304 -0.072803
-0.100277 0.079378 -0.060531
-0.367812 -0.054252 -0.083583
-0.251172 -0.090872 0.041309
-0.205698 0.099752 -0.006689
0.180573 -0.093970 0.033584
0.080802 0.072766 -0.068363
0.373646 0.098275 -0.018289
0.409554 -0.097695 -0.019911
-0.251471 0.000612 0.100054
0.118528 -0.057923 0.081451
0.098805 0.058932 0.080914
-0.115414 0.094342 -0.032837
0.384232 -0.096256 0.026322
-0.050941 0.013712 0.099112
0.131753 -0.074178 -0.066519
-0.055952 0.008969 0.099629
-0.101918 -0.098658 -0.014396
0.361965 0.044237 -0.089391
0.112610 0.082674 0.056326
0.458843 -0.041002 -0.090811
0.327531 0.067357 -0.073638
0.068231 -0.014894 0.098888
0.344251 -0.099159 -0.010486
-0.264486 -0.098042 0.018649
-0.059646 -0.033007 0.094369
0.087752 0.071229 0.070263
0.408992 -0.010045 0.099505
0.441640 -0.022591 -0.097046
-0.420511 0.016238 -0.098349
-0.378054 -0.075833 0.065005
0.329730 -0.055938 -0.082437
-0.401491 0.053831 0.084390
0.039621 -0.037635 0.092631
0.302305 -0.078278 -0.061647
-0.024825 0.083955 -0.054078
-0.098143 0.099975 -0.000783
-0.339003 0.083365 0.055308
0.385876 0.078300 -0.061920
-0.035127 0.093954 0.034279
-0.426552 0.099225 -0.012255
-0.085806 -0.066484 0.074564
0.013390 -0.079477 0.060465
-0.134718 0.049758 0.086816
-0.177395 -0.042000 -0.090379
0.382271 0.090426 -0.042491
-0.024458 0.079146 0.061193
-0.229201 -0.038170 -0.092037
-0.127678 -0.043593 0.089962
0.455452 -0.085529 -0.051132
0.157117 -0.053628 0.084370
0.001497 -0.099599 0.005671
0.158703 0.021271 -0.097393
-0.162331 -0.093014 -0.035876
0.374500 0.073536 -0.067513
0.045042 -0.066748 0.074331
0.103037 0.099100 0.013445
0.238716 0.086260 0.050654
-0.058902 0.033571 0.094250
-0.417697 -0.015840 0.098738
-0.098750 0.059571 -0.080055
-0.029272 0.099821 0.006040
-0.466371 -0.008636 0.099638
-0.064557 0.056327 -0.082331
0.182511 -0.075093 0.065844
-0.071395 -0.093985 0.033542
0.310156 0.090780 0.042062
0.203997 -0.028953 -0.095341
0.280304 0.038135 0.092516
0.224153 -0.057119 -0.081634
-0.133835 -0.025440 -0.096361
-0.360746 -0.040828 -0.090887
-0.170397 0.079534 -0.060329
0.041310 -0.030409 -0.094918
-0.062265 0.100003 0.000100
-0.413608 -0.048633 0.087343
-0.060271 0.095873 -0.028080
0.335432 -0.058801 0.080834
-0.156236 -0.010140 -0.099133
0.405269 0.099196 0.012836
0.311515 -0.079793 -0.059694
-0.224956 0.024774 -0.096610
0.383252 -0.059919 -0.079604
-0.283892 0.028012 -0.095682
-0.407186 -0.028290 -0.095533
-0.262729 -0.015349 0.098816
-0.374942 -0.025037 -0.096478
-0.434762 0.062667 0.078016
-0.429223 0.083826 -0.054267
0.368586 -0.095677 -0.027952
-0.300820 -0.085778 0.051073
-0.393900 0.031217 0.095097
0.054276 -0.092578 -0.037005
-0.216872 0.097394 -0.022303
0.436810 0.054859 -0.083328
0.297505 -0.000822 -0.099678
0.389298 -0.044117 0.089696
-0.266683 -0.082879 0.055681
0.299571 0.044966 0.089382
-0.459398 -0.096410 0.025794
0.253647 0.028131 -0.095647
0.137651 0.099763 -0.006567
0.006419 -0.059531 -0.079905
0.155552 -0.028106 0.095949
-0.252548 -0.025029 -0.096481
-0.038359 -0.012641 -0.098882
0.112404 -0.073031 0.068184
-0.442246 0.074154 0.067174
0.109954 -0.064440 -0.076004
0.109887 -0.027475 0.096133
0.136835 -0.022729 -0.097015
-0.241647 0.018927 -0.097917
-0.421509 0.009076 -0.099256
0.363403 0.095516 -0.029312
-0.191506 0.098723 -0.015462
0.208834 0.076016 0.065062
0.057806 -0.059065 -0.080267
-0.422562 0.024159 0.097110
-0.275642 0.059992 -0.079729
0.200189 -0.092500 -0.037185
-0.354268 -0.078195 0.062117
0.324900 -0.087227 0.048624
0.462260 -0.078759 0.061390
0.088423 -0.059673 0.080158
0.071530 -0.096794 0.024305
-0.081839 0.011081 -0.099067
0.138667 -0.074529 -0.066121
0.134430 -0.098789 0.013931
-0.421271 0.088356 -0.046554
-0.034639 0.045529 -0.088732
0.116106 0.098347 0.018201
0.425789 0.097721 -0.020840
0.287512 -0.008824 0.099621
-0.242778 -0.073107 0.068097
-0.362440 0.009489 -0.099217
0.115930 0.084768 -0.052813
0.149965 0.099350 -0.010940
0.109709 0.093402 0.035811
0.214012 0.064891 -0.075811
0.063695 -0.054351 0.083878
0.228103 -0.026173 -0.096148
0.164083 0.098271 0.018678
-0.089343 -0.097500 0.021148
0.422122 0.005292 -0.099545
-0.441388 0.099493 -0.009419
0.070771 -0.099659 -0.003403
0.213015 0.098683 0.016077
-0.177624 0.017510 -0.098148
-0.349547 -0.058234 0.081239
0.004584 0.097135 -0.023463
0.320443 -0.062916 0.077642
0.063863 0.096356 0.026781
-0.399809 0.031392 -0.094671
-0.080685 -0.090513 0.042138
0.061179 -0.019497 -0.097738
0.280794 0.067006 0.074310
-0.022660 0.057593 0.081834
-0.004840 -0.048998 0.087127
-0.191030 0.071613 -0.069516
0.154288 0.079543 0.060680
-0.450563 -0.093353 0.035299
-0.290921 0.029959 0.095479
-0.064955 0.044325 0.089709
-0.265819 0.038090 -0.092173
-0.420277 -0.093189 -0.035390
0.014273 0.071561 0.069931
-0.189488 0.005197 -0.099548
0.134308 0.096638 0.025810
-0.255912 -0.096483 -0.025177
0.005393 -0.000398 -0.099691
0.065447 -0.046631 -0.088052
0.335462 0.078081 0.062565
0.304143 -0.079609 0.060294
-0.369501 -0.075180 -0.065383
0.099473 -0.090891 -0.040902
0.175592 -0.034685 -0.093402
-0.032475 0.029128 -0.095358
-0.040413 0.088082 -0.047091
-0.196084 0.060000 -0.079723
0.302602 0.057424 -0.081585
-0.114634 0.048149 -0.087397
-0.219042 0.077089 0.063844
0.022338 0.011036 -0.099071
-0.067611 0.097227 -0.023052
-0.378255 -0.094177 -0.032648
-0.140501 -0.066414 -0.074263
-0.220951 0.013075 0.099213
0.334763 0.092922 -0.036748
-0.384535 0.028332 0.095952
-0.404011 0.065445 0.075686
0.225375 -0.090019 0.043195
-0.293673 -0.004264 -0.099570
0.010219 0.097957 0.020148
-0.249932 -0.078117 -0.061855
-0.346166 -0.094956 0.030796
-0.270686 -0.005818 -0.099521
0.047003 0.008138 -0.099345
0.040495 0.014103 -0.098687
-0.293439 0.091912 -0.039083
0.135587 -0.099739 0.001243
-0.300717 0.072695 0.068797
-0.466116 0.041483 0.091067
0.084523 0.096814 -0.024843
-0.017769 -0.084788 -0.052384
0.140693 -0.098330 0.016830
-0.020038 0.023472 0.097264
-0.286086 -0.048057 0.087684
-0.330782 0.099895 -0.003317
-0.334894 0.099876 0.004288
0.459259 0.066638 -0.074271
0.137643 -0.009558 0.099551
0.276408 0.042896 -0.090074
-0.192629 -0.079423 0.060534
0.451122 0.079370 -0.060541
-0.037409 0.081058 0.058704
-0.130026 -0.088651 0.045880
-0.157553 0.084402 0.053783
0.203660 -0.006379 0.099852
-0.095187 -0.080210 0.059520
0.247370 0.089770 -0.043779
0.305351 -0.055706 0.082957
0.061939 -0.014818 0.098900
-0.359899 0.028540 -0.095528
-0.367856 -0.031985 0.094737
0.096027 -0.003617 -0.099590
-0.397772 -0.042033 -0.090365
-0.270809 0.099427 0.010480
-0.391979 -0.080343 0.059348
-0.178917 -0.064439 -0.076005
-0.169651 0.083140 -0.055277
-0.317687 -0.088329 0.046511
0.349059 0.095993 0.028030
0.447938 -0.099577 0.006398
0.188757 -0.061795 0.078512
0.035095 0.058935 0.080911
-0.161498 -0.012791 -0.098858
-0.339803 -0.001251 0.100027
-0.112162 0.099345 0.011350
0.052156 0.081419 0.058172
0.321971 -0.096402 0.025819
-0.106216 -0.025979 -0.096205
-0.222488 0.059922 0.080145
0.380354 -0.082371 0.056428
0.421359 -0.064483 -0.075966
-0.172253 -0.082261 0.056590
0.040987 0.056220 0.082767
0.290827 0.019384 -0.097815
-0.407234 -0.067384 0.073771
-0.091415 -0.002022 0.100003
0.250773 -0.099094 0.011541
0.279176 0.005660 -0.099533
-0.142127 0.091920 -0.039065
0.361847 -0.058620 -0.080612
-0.130470 0.099949 0.001972
0.208082 0.095173 0.030854
0.268210 0.079556 -0.060300
-0.428973 -0.085716 0.051177
0.376850 0.083435 -0.054843
-0.074270 0.060182 -0.079581
0.057244 -0.067174 -0.073593
-0.267902 0.080803 -0.058694
-0.006709 0.088619 0.046402
0.319697 -0.093370 -0.034887
-0.149143 -0.006625 0.099828
0.390336 0.040925 -0.090946
0.019726 0.030995 0.095177
-0.345028 -0.088691 -0.045439
0.297903 -0.086069 0.050581
0.318983 0.098579 0.016734
-0.025694 0.095949 0.028182
0.364032 -0.016071 -0.098339
0.126729 0.091432 -0.040193
0.255978 0.095526 0.029637
0.304550 -0.092610 0.037294
0.274726 0.099721 -0.007013
0.222978 -0.071040 -0.069856
0.006452 0.065604 -0.075183
-0.343028 0.097726 -0.020817
-0.362415 -0.083348 -0.054628
-0.155876 0.025386 0.096808
0.274507 0.072800 -0.068329
-0.166667 -0.069858 0.071401
-0.036091 0.099694 -0.007298
-0.294729 -0.084835 0.052668
-0.041689 0.071116 0.070376
-0.365532 0.021768 -0.097282
0.052715 0.083185 -0.055211
-0.240758 0.041960 -0.090498
-0.009694 0.099788 0.006661
0.335073 -0.070925 0.070334
-0.000651 0.079590 -0.060257
-0.147120 -0.099731 -0.001114
-0.184752 0.016783 -0.098263
-0.184733 -0.053926 0.084167
-0.198649 -0.037204 -0.092455
0.295538 -0.019244 0.098157
-0.244079 0.026482 0.096489
-0.416817 0.074181 -0.066781
0.050366 0.078445 -0.061733
0.157419 0.096869 0.025016
-0.270484 -0.099635 0.004547
-0.232255 -0.002633 0.099984
-0.466288 -0.040481 0.091399
-0.168595 -0.064646 0.076184
0.464086 0.095755 -0.028488
0.448478 -0.097126 -0.022459
-0.059333 0.041302 0.091145
-0.284479 -0.098702 -0.014121
-0.112293 0.008033 -0.099355
0.031006 0.081458 0.058115
-0.286257 0.025278 0.096839
-0.427903 0.045922 0.088895
0.063766 -0.073718 0.067404
0.317416 0.084927 0.052906
0.056798 0.009433 0.099585
0.260401 0.023849 0.097180
0.316691 -0.046094 0.088688
0.356276 -0.005663 -0.099526
-0.078261 0.054648 -0.083472
-0.296249 -0.005749 0.099886
-0.202368 -0.090682 0.041748
0.092049 0.031324 0.095059
0.343397 -0.001765 0.100011
0.135145 0.026533 -0.096111
0.001412 -0.026965 0.096281
-0.275071 -0.091170 -0.040258
0.326308 -0.072713 -0.068181
0.253008 -0.091836 0.039083
0.171363 0.098772 0.015515
0.021936 -0.033774 -0.093730
0.263642 -0.083337 -0.054644
-0.192467 -0.071188 0.070071
0.086391 -0.074114 0.066955
0.458736 0.036102 -0.092976
-0.177703 0.023537 -0.096887
0.426481 0.049993 -0.086314
-0.143862 -0.092598 -0.036959
-0.381549 -0.096602 -0.024768
0.258945 0.022310 -0.097161
-0.160501 0.092511 -0.037699
-0.382732 -0.032948 -0.094027
-0.458147 0.049245 -0.086756
-0.224262 0.085071 -0.052301
-0.253614 0.060702 -0.079178
-0.266629 0.088465 -0.046340
0.189801 0.082177 -0.056694
-0.388903 0.015123 -0.098526
0.087033 0.084667 -0.052984
-0.333671 0.086229 0.050705
-0.325844 0.032393 0.094674
0.008347 -0.012781 0.099222
-0.028229 0.072948 0.068542
-0.198636 -0.099414 -0.007787
-0.131754 0.091740 0.039842
-0.000392 -0.096510 -0.025086
-0.107212 -0.007329 0.099762
0.011099 0.090646 0.042371
-0.181481 -0.070896 -0.070000
-0.147202 -0.021022 0.097759
-0.327797 0.004266 -0.099577
0.431562 -0.084349 0.053490
-0.072337 -0.083434 -0.054502
-0.076066 -0.078982 0.061103
-0.116776 0.051504 0.085783
-0.415127 -0.092712 0.037059
0.254129 0.053348 0.084693
0.315837 0.010668 0.099468
0.255653 0.058656 0.081111
0.267106 -0.067656 -0.073169
0.296539 -0.091363 0.040175
-0.210423 -0.096963 -0.023188
0.208195 -0.099079 0.011693
0.340612 0.093982 -0.033836
-0.451746 -0.091235 0.040470
0.020257 -0.090925 0.041187
0.081005 -0.092990 0.036306
-0.382560 -0.092532 -0.037111
0.330035 0.048793 -0.087024
0.394101 -0.057546 -0.081344
0.263079 0.081682 0.057785
0.334925 -0.062759 -0.077402
-0.389354 0.017759 0.098471
0.181788 -0.081134 -0.057885
-0.073340 0.015788 0.098783
-0.378936 -0.014569 -0.098576
-0.216607 -0.096960 0.023563
0.062623 -0.052571 -0.084652
0.036867 0.087661 0.048281
0.118464 0.021658 0.097669
0.434479 -0.099644 0.004247
0.296731 0.097660 0.021474
-0.278383 0.074059 0.067282
-0.000299 -0.061427 -0.078434
0.023086 -0.096769 0.024415
-0.120976 -0.038100 -0.092067
0.349566 0.026344 0.096529
0.168168 0.031497 0.094997
0.290323 -0.095909 -0.027156
0.363394 -0.099375 0.008570
-0.181375 0.060980 -0.078962
-0.040513 0.052123 0.085417
-0.137445 -0.009543 0.099553
-0.464891 -0.099628 -0.004412
0.038838 -0.099669 0.003458
-0.104051 -0.071045 0.070214
-0.457784 -0.015473 -0.098433
0.224252 -0.076992 0.063668
-0.414914 0.012837 -0.098888
-0.060392 -0.070796 0.070462
-0.224070 0.069172 -0.071958
0.041257 -0.044519 0.089491
0.212486 -0.089788 0.043647
-0.067811 -0.021545 0.097642
0.049104 0.044310 -0.089353
-0.363098 -0.000934 0.100037
-0.460065 0.055463 -0.082919
-0.064736 -0.099342 0.008913
-0.438069 -0.067304 0.073842
-0.174262 -0.074338 0.066701
0.403177 -0.009808 -0.099165
0.382964 0.074326 0.066979
0.213239 -0.094570 0.031919
-0.310260 0.050754 0.086227
-0.256107 -0.036157 -0.092872
-0.112895 0.083983 0.054399
0.020900 -0.001848 -0.099645
0.398912 -0.099148 -0.010609
-0.080577 0.017362 -0.098171
0.031768 -0.077088 -0.063182
0.009718 -0.098285 0.017118
0.423209 0.071500 -0.069629
0.001807 0.092114 -0.038617
-0.273945 -0.064510 0.076305
0.336087 -0.017656 -0.098087
-0.308278 0.022351 0.097515
-0.042937 0.094533 0.032670
-0.034244 0.052739 0.085053
0.161719 0.078537 0.061977
-0.026981 0.089890 -0.043543
-0.406495 0.044593 -0.089209
-0.104426 0.096325 -0.026524
0.218673 -0.066503 0.074548
-0.103934 -0.082088 0.056844
-0.054237 -0.063277 0.077362
0.004250 0.083389 -0.054911
0.252994 0.064068 -0.076537
0.246584 0.097236 -0.023011
0.146861 0.041929 0.090874
0.401781 -0.056181 0.082635
0.401169 0.086516 -0.049858
-0.385717 -0.019392 -0.097761
0.055787 -0.091974 0.038764
-0.373487 0.098871 -0.014527
0.456251 0.097865 0.020557
0.426557 -0.099628 -0.004401
-0.118921 0.090810 -0.041630
-0.132414 -0.052908 0.084815
0.385461 0.097881 -0.020124
0.239846 0.003216 0.099973
-0.097133 0.099652 0.008110
-0.460130 -0.024295 -0.096665
0.059482 0.025304 -0.096469
-0.366567 -0.090989 -0.040675
-0.181829 -0.058565 0.081014
-0.051759 -0.098292 -0.016710
-0.432652 0.099840 -0.005075
-0.086998 -0.087641 0.047861
-0.157262 0.076129 -0.064572
-0.250054 -0.099613 -0.004866
0.403876 -0.065946 -0.074676
0.280640 0.099809 -0.006048
0.301105 -0.073214 -0.067613
0.168742 0.087675 -0.047891
-0.010469 -0.077318 0.063248
0.148535 -0.098415 0.016297
0.315194 0.002527 -0.099631
-0.188340 0.022326 -0.097157
-0.339347 -0.036557 0.093090
-0.383243 0.099823 -0.005611
-0.214966 0.015218 0.098873
0.451961 0.093274 -0.035804
0.433051 0.024782 0.096971
-0.081485 0.025430 0.096795
0.442425 -0.044036 -0.089374
0.045019 0.029968 0.095476
0.248363 -0.096087 0.026903
0.403053 0.063528 -0.076985
0.118155 -0.037579 0.092655
0.034504 0.010941 0.099443
0.445205 0.007343 0.099783
-0.229488 -0.070138 -0.070758
-0.149226 0.099080 -0.013207
-0.193379 -0.098018 -0.018436
-0.307088 0.001330 0.100032
0.120696 0.061467 0.078947
0.338762 0.019174 0.098225
0.286456 0.098231 -0.018560
-0.012245 -0.097945 -0.018793
0.414926 0.047454 -0.087751
-0.043415 0.070013 -0.071117
0.155059 -0.072825 -0.068054
-0.008355 -0.035320 0.093536
0.030365 0.038409 0.092397
0.084114 -0.090403 -0.042030
0.433890 -0.087697 0.047753
-0.261560 -0.089802 -0.043258
0.094672 -0.096698 0.024734
-0.442105 -0.091179 0.040599
0.235907 -0.088271 -0.046263
-0.191194 -0.040539 -0.091012
-0.126529 0.081080 0.058671
-0.215902 -0.095160 0.030094
0.312526 -0.058016 -0.081025
-0.364826 0.052874 -0.084610
0.272383 -0.028900 -0.095356
0.356463 -0.095284 0.029669
-0.196323 0.044585 0.089576
-0.014815 0.061624 -0.078463
0.220198 0.094135 0.033774
-0.002583 0.099346 0.011345
-0.014056 0.068179 -0.072913
-0.214864 0.009388 -0.099227
-0.370980 0.048008 -0.087469
-0.191227 -0.001870 -0.099645
0.173825 -0.083003 -0.055135
0.143751 -0.099753 0.000787
0.387217 0.082990 0.055861
0.109914 -0.005615 -0.099527
0.004470 -0.091699 -0.039036
0.017131 -0.072160 0.069099
0.151113 0.067770 -0.073273
-0.074455 0.059780 0.080256
0.073033 0.048712 -0.087072
0.177948 -0.016000 0.098713
0.267808 -0.099393 0.008376
0.208474 0.063061 -0.077348
-0.091955 0.059279 -0.080282
0.041128 -0.081352 -0.057565
0.120034 0.097125 0.023869
-0.053422 0.082608 0.056423
-0.437800 -0.085406 0.051703
0.144598 -0.008180 0.099682
-0.218934 -0.069260 0.071999
0.009216 -0.028543 -0.095460
0.260215 -0.026988 0.096274
-0.319632 -0.043810 0.089852
0.008500 -0.025040 0.096840
-0.257216 0.006104 -0.099519
-0.105051 0.084059 0.054288
-0.207239 0.080052 0.060024
0.005690 0.099951 0.001902
-0.127501 -0.017742 -0.098074
0.031382 -0.098739 0.014251
-0.042375 -0.037375 0.092744
0.429556 0.073472 -0.067585
0.048877 -0.035721 0.093392
-0.393359 -0.082918 -0.055261
-0.328687 0.098812 -0.014897
0.088479 0.098337 0.018261
-0.052475 -0.092453 0.037656
-0.051509 -0.053840 0.084225
0.010429 0.048027 0.087822
-0.108255 0.097676 0.021404
-0.030238 -0.038143 -0.092049
-0.314970 0.004481 0.099933
0.107918 -0.045657 0.088911
-0.002114 0.049845 0.086764
0.385879 0.072500 -0.068630
-0.120702 0.098261 -0.018379
-0.240545 -0.056647 0.082318
0.102447 -0.069884 -0.071012
-0.050696 0.098870 -0.014534
-0.455367 0.013060 -0.098852
-0.206315 -0.061270 0.078919
0.184927 0.044871 -0.089067
0.308158 0.099491 0.009813
-0.173084 0.037809 -0.092294
-0.417102 -0.090157 0.042925
-0.053489 0.048607 0.087497
0.051893 0.098004 0.019937
-0.041382 -0.063542 -0.076794
-0.273329 -0.098704 -0.014106
0.438506 -0.087334 -0.048080
0.104298 0.091591 0.040189
0.442973 0.069668 0.071824
-0.345304 0.088676 -0.045926
-0.159928 -0.091194 0.040566
0.026791 -0.026558 0.096399
0.029188 0.087021 -0.049003
-0.007096 -0.041753 0.090849
0.091364 -0.066353 -0.074317
0.043183 -0.013624 -0.098726
-0.203572 -0.073832 -0.066912
-0.372200 0.017795 -0.098102
0.298762 -0.040094 0.091567
-0.272715 0.081438 0.058145
-0.351089 -0.086324 -0.049787
0.098487 -0.053243 0.084616
-0.395262 -0.091473 -0.039559
0.320907 -0.027058 -0.095891
0.319919 0.069974 0.071518
0.207468 -0.063451 -0.076865
-0.228394 0.099843 -0.004985
0.384137 0.099689 0.007718
0.083267 -0.072546 -0.068350
-0.110737 -0.059704 -0.079771
-0.256721 -0.071515 0.069744
-0.321892 -0.004276 -0.099569
0.209667 0.099906 0.003335
-0.345884 0.097594 0.021772
0.189777 -0.004962 -0.099548
0.438014 0.083637 0.054909
-0.293874 -0.077502 -0.062647
-0.151715 -0.046874 -0.087928
0.354296 -0.098128 0.018108
0.079718 0.099760 -0.006600
0.237145 0.035082 -0.093343
0.068530 -0.092880 0.036611
-0.252987 -0.084894 -0.052205
0.243190 0.099956 0.001753
0.313031 -0.093937 -0.033312
-0.121030 -0.042312 0.090607
0.127262 0.042008 0.090840
-0.430082 -0.028945 0.095706
0.105660 0.064370 0.076634
0.456210 -0.047534 0.087954
0.056833 0.099506 0.009650
0.339046 -0.098902 0.013223
0.102142 -0.064958 0.075909
-0.400833 -0.089729 0.043763
-0.317905 0.021214 -0.097406
-0.271799 0.068969 -0.072161
-0.150255 0.046913 -0.088027
0.399658 0.097792 0.020886
0.361668 0.013637 0.099124
-0.423072 -0.088736 -0.045350
-0.153677 -0.040194 0.091524
-0.171098 -0.075378 -0.065158
0.082379 0.077825 0.062895
-0.269631 0.098462 0.017475
-0.162301 0.063649 0.077255
0.371113 0.035684 0.093489
0.016172 0.011570 0.099383
0.292359 -0.094675 0.031626
0.398367 -0.050268 0.086376
0.004863 -0.079503 -0.060069
0.404291 -0.097240 0.022310
0.221625 0.098086 0.019568
0.370831 0.077794 -0.062573
0.312667 0.003206 0.099973
-0.285665 -0.045475 -0.088641
0.043605 0.076797 0.064176
0.463459 0.001812 0.100017
-0.189164 -0.020061 -0.097611
-0.011166 -0.086778 -0.049019
0.465224 0.065349 0.075771
-0.335881 0.014401 -0.098640
0.183134 0.013744 0.099107
-0.090269 -0.078366 -0.061533
0.069288 0.099986 -0.000417
0.385918 -0.093151 -0.035496
0.038770 0.092206 -0.038403
0.216133 0.097627 0.021624
-0.224046 0.038778 -0.091875
-0.059801 0.001836 -0.099653
0.392106 0.048775 0.087397
-0.092425 -0.008354 0.099665
0.070518 -0.008294 0.099671
0.021892 -0.075336 0.065569
-0.084127 -0.032727 0.094470
-0.244577 0.095945 -0.027835
0.433940 -0.095292 -0.029280
-0.023297 0.098744 0.015691
0.156066 -0.097927 0.019237
0.239875 0.099859 -0.004467
-0.137035 -0.006948 -0.099435
-0.100416 0.097892 0.020439
0.128202 -0.086383 0.050050
-0.155016 0.096035 -0.027525
0.032733 0.098939 -0.014098
-0.341729 -0.057235 0.081918
0.258473 0.097602 -0.021374
