-0.466955 0.089718 -0.035442
-0.466955 -0.011164 -0.069926
-0.466955 -0.048114 -0.032378
-0.466955 0.000493 0.026811
-0.466955 0.067058 -0.025943
-0.466955 -0.057531 0.067352
-0.466955 0.068867 -0.051979
-0.466955 -0.001907 0.051531
-0.466955 -0.067077 -0.020536
-0.466955 0.039735 -0.073273
-0.466955 0.031653 -0.094207
-0.466955 0.037993 0.013086
-0.466955 -0.008127 -0.048181
-0.466955 -0.033398 0.066905
-0.466955 0.026032 0.057499
-0.466955 0.082952 -0.000040
-0.466955 -0.045204 0.072072
-0.466955 0.046651 -0.029863
-0.466955 0.021016 -0.044629
-0.466955 -0.060880 0.047347
-0.466955 0.021489 0.061586
-0.466955 -0.017175 -0.051246
-0.466955 -0.033009 0.021368
-0.466955 -0.034843 0.017771
-0.466955 -0.081840 0.011233
-0.466955 -0.076634 -0.024640
-0.466955 -0.007793 0.082316
-0.466955 0.016186 0.065850
-0.466955 0.086911 -0.044378
-0.466955 0.017699 0.013539
-0.466955 -0.043658 -0.017308
-0.466955 -0.073032 -0.009515
-0.466955 0.036194 -0.007704
-0.466955 0.000809 -0.053940
-0.466955 -0.088480 -0.009039
-0.466955 0.035587 0.047877
-0.466955 -0.010557 0.062995
-0.466955 0.017536 0.058008
-0.466955 -0.036344 0.042219
-0.466955 0.013021 0.075059
-0.466955 0.058144 -0.036482
-0.466955 0.005064 -0.032892
-0.466955 0.015194 -0.001591
-0.466955 -0.021475 -0.071948
-0.466955 0.086082 -0.030558
-0.466955 -0.044831 -0.056059
-0.466955 0.047300 0.020463
-0.466955 0.050529 -0.007999
-0.466955 0.048312 0.038734
-0.466955 0.047145 0.055010
-0.466955 -0.009677 -0.087460
-0.466955 -0.009404 -0.065584
-0.466955 -0.093868 -0.032981
-0.466955 0.086023 0.016391
-0.466955 -0.051190 0.065214
-0.466955 0.003233 -0.017823
-0.466955 -0.043518 -0.003653
-0.466955 0.038109 -0.039591
-0.466955 -0.057764 -0.079313
-0.466955 0.001021 0.028362
-0.466955 0.058141 -0.056580
-0.466955 -0.001350 -0.044809
-0.466955 0.028894 0.060060
-0.466955 0.090369 0.028702
-0.466955 0.004931 -0.087488
-0.466955 -0.022336 0.091087
-0.466955 -0.064640 -0.070235
-0.466955 -0.084331 0.049878
-0.466955 0.060543 -0.079109
-0.466955 -0.059486 -0.052992
-0.466955 0.014786 -0.081990
-0.466955 -0.055790 0.064737
-0.466955 -0.016198 0.098230
-0.466955 -0.017217 0.032135
-0.466955 -0.065110 0.072528
-0.466955 0.005196 0.028022
-0.466955 -0.021243 -0.003702
-0.466955 0.012665 -0.085138
-0.466955 -0.060956 -0.050297
-0.466955 -0.035139 -0.015290
-0.466955 0.018175 -0.071615
-0.466955 -0.027363 -0.015148
-0.466955 -0.074644 -0.029595
-0.466955 -0.036829 0.019519
-0.466955 -0.039941 -0.066592
-0.466955 0.077631 -0.011291
-0.466955 0.000551 0.037972
-0.466955 0.051225 -0.073306
-0.466955 -0.064323 0.027012
-0.466955 0.018366 -0.015366
-0.466955 0.043985 -0.006881
-0.466955 0.001652 -0.013528
-0.466955 -0.012622 -0.047571
-0.466955 0.054363 -0.062704
-0.466955 -0.088729 0.015942
-0.466955 0.062868 -0.033437
-0.466955 0.006972 -0.014950
-0.466955 -0.031265 0.071435
-0.466955 -0.000795 0.062163
-0.466955 0.069232 -0.044117
-0.466955 0.016272 -0.020472
-0.466955 -0.020462 -0.024422
-0.466955 0.045722 -0.027053
-0.466955 -0.027037 -0.087967
-0.466955 -0.001807 -0.032875
-0.466955 0.015622 0.068709
-0.466955 -0.041991 -0.040882
-0.466955 0.041561 0.007934
-0.466955 0.039042 0.019125
-0.466955 0.063702 -0.029520
-0.466955 0.098377 -0.014402
-0.466955 0.040473 -0.037459
-0.466955 -0.083914 -0.011193
-0.466955 -0.036354 0.078283
-0.466955 -0.013828 -0.003565
-0.466955 -0.057576 -0.071404
-0.466955 -0.032208 0.035613
-0.466955 0.088952 -0.043031
-0.466955 -0.030238 0.022473
-0.466955 -0.079513 -0.034204
-0.466955 -0.068171 -0.057479
-0.466955 -0.008032 -0.032120
-0.466955 -0.066588 0.017300
-0.466955 0.080311 -0.020757
-0.466955 -0.077764 0.008701
-0.466955 0.024992 -0.039203
-0.466955 -0.028072 -0.035641
-0.466955 0.035664 -0.090557
-0.466955 0.018616 0.051196
-0.466955 -0.097114 0.012765
-0.466955 -0.014869 -0.027275
-0.466955 -0.055799 0.002577
-0.466955 0.040615 0.085652
-0.466955 0.093979 -0.028664
-0.466955 0.015771 -0.091418
-0.466955 -0.031698 0.003066
-0.466955 -0.059876 0.027725
-0.466955 0.028650 0.073097
-0.466955 0.075954 -0.021101
-0.466955 0.044231 -0.011815
-0.466955 0.083337 0.017102
-0.466955 0.058275 0.067821
-0.466955 -0.052332 0.026669
-0.466955 -0.072158 -0.012975
-0.466955 0.023355 0.016361
-0.466955 -0.034674 -0.069999
-0.466955 0.063757 -0.058680
-0.466955 -0.012148 0.006447
-0.466955 0.033032 0.071317
-0.466955 0.058704 0.027995
-0.466955 0.091434 -0.009024
-0.466955 -0.049405 0.023826
-0.466955 0.054678 0.018101
-0.466955 0.028103 0.006559
-0.466955 -0.048057 0.012071
-0.466955 0.080737 -0.015371
-0.466955 0.050887 0.072586
-0.466955 -0.002865 0.059652
-0.466955 -0.027421 -0.095477
-0.466955 0.033667 -0.051921
-0.466955 0.043128 0.062782
-0.466955 0.064828 0.014660
-0.466955 0.010022 0.019199
-0.466955 0.012854 0.055883
-0.466955 -0.031027 0.010238
-0.466955 -0.042669 0.066552
-0.466955 -0.030005 0.016627
-0.466955 0.068136 0.005313
-0.466955 -0.053567 0.044265
-0.466955 0.015486 -0.055670
-0.466955 0.013528 -0.071476
-0.466955 0.096477 0.023906
-0.466955 -0.012058 0.063419
-0.466955 -0.015954 0.016611
-0.466955 0.097261 0.013604
-0.466955 -0.033476 0.023005
-0.466955 0.046240 -0.010895
-0.466955 -0.039698 0.006099
-0.466955 -0.065883 -0.040009
-0.466955 0.083328 0.029864
-0.466955 -0.079294 0.008798
-0.466955 0.030791 0.034706
-0.466955 0.040528 0.018492
-0.466955 -0.000649 -0.043439
-0.466955 0.050265 0.082704
-0.466955 -0.062833 0.054035
-0.466955 -0.028459 0.064995
-0.466955 -0.037722 0.042728
-0.466955 0.007561 -0.029570
-0.466955 -0.062218 -0.036949
-0.466955 -0.008377 0.024770
-0.466955 0.046463 -0.051090
-0.466955 0.033371 -0.081903
-0.466955 -0.025084 -0.065698
-0.466955 -0.075041 0.039640
-0.466955 -0.037171 0.087916
-0.466955 -0.024808 0.081342
-0.466955 -0.041227 0.024511
-0.466955 -0.057466 0.038271
-0.466955 0.000298 -0.074510
-0.466955 0.063773 -0.045863
-0.466955 -0.025720 -0.017821
-0.466955 -0.066308 0.000598
-0.466955 0.059746 -0.036019
-0.466955 0.094711 0.023040
-0.466955 -0.088203 0.038821
-0.466955 0.042344 0.020772
-0.466955 0.033575 0.034620
-0.466955 -0.082121 -0.024577
-0.466955 0.015850 0.044271
-0.466955 0.077389 -0.063075
-0.466955 -0.040824 0.055359
-0.466955 0.038597 0.082098
-0.466955 0.007155 -0.043629
-0.466955 0.023958 -0.051663
-0.466955 0.021027 -0.005452
-0.466955 0.037900 -0.019832
-0.466955 0.072397 -0.022612
-0.466955 -0.029397 -0.074474
-0.466955 -0.077664 0.060037
-0.466955 0.037026 -0.071716
-0.466955 -0.052320 0.002150
-0.466955 0.046105 -0.080907
-0.466955 0.030821 0.051442
-0.466955 -0.067201 -0.025490
-0.466955 0.002115 0.031124
-0.466955 -0.005113 -0.058449
-0.466955 0.013451 -0.074843
-0.466955 -0.024351 0.082694
-0.466955 0.049650 -0.041272
-0.466955 -0.004020 0.082832
-0.466955 0.066625 -0.019096
-0.466955 -0.000253 -0.083023
-0.466955 0.057728 0.026325
-0.466955 -0.038314 0.012175
-0.466955 -0.011224 0.078735
-0.466955 -0.054045 0.013227
-0.466955 -0.018975 -0.006734
-0.466955 0.060145 -0.044837
-0.466955 0.048119 -0.033806
-0.466955 -0.028887 -0.048115
-0.466955 0.018984 -0.038951
-0.466955 -0.069776 -0.037699
-0.466955 0.002285 -0.072068
-0.466955 0.036056 0.066935
-0.466955 0.000848 -0.097158
-0.466955 -0.047768 0.081753
-0.466955 -0.031810 -0.088076
-0.466955 0.064266 0.063634
-0.466955 0.048767 0.074893
-0.466955 0.022694 0.072675
-0.466955 0.092250 -0.026317
-0.466955 0.035437 -0.050609
-0.466955 -0.050343 0.022466
-0.466955 -0.043438 -0.066530
-0.466955 0.021830 -0.001256
-0.466955 0.049709 0.002921
-0.466955 -0.058322 0.060170
-0.466955 -0.094307 0.019598
-0.466955 -0.027922 -0.060645
-0.466955 0.050472 0.027299
-0.466955 -0.057388 0.011651
-0.466955 0.061539 0.018056
-0.466955 -0.007598 -0.025487
-0.466955 -0.001522 -0.016499
-0.466955 -0.058772 -0.077692
-0.466955 -0.016163 -0.036781
-0.466955 -0.036728 -0.000213
-0.466955 0.055460 -0.038374
-0.466955 -0.004827 -0.033522
-0.466955 -0.027241 0.085135
-0.466955 0.007855 -0.058761
-0.466955 -0.068702 0.032173
-0.466955 -0.004546 -0.005311
-0.466955 0.006538 0.005319
-0.466955 -0.044188 0.063324
-0.466955 0.010166 -0.072187
-0.466955 0.097596 -0.008755
-0.466955 -0.035383 -0.057943
-0.466955 0.096905 0.003866
-0.466955 -0.074448 -0.031665
-0.466955 0.018544 0.026354
-0.466955 -0.084071 0.015101
-0.466955 -0.046880 0.015095
-0.466955 0.022664 -0.076546
-0.466955 0.047277 -0.041278
-0.466955 0.005300 0.092441
-0.466955 0.027558 -0.092871
-0.466955 -0.023559 0.000108
-0.466955 0.031146 0.022074
-0.466955 0.005045 0.077492
-0.466955 0.081414 0.040454
-0.466955 -0.009994 0.089463
-0.466955 -0.052283 0.062522
-0.466955 0.085111 0.023343
-0.466955 -0.019503 0.063581
-0.466955 -0.032333 0.090306
-0.466955 -0.005227 0.087623
-0.466955 0.037494 0.046882
-0.466955 0.051907 0.024422
-0.466955 -0.001763 -0.014204
-0.466955 -0.091533 0.038819
-0.466955 -0.080027 -0.011925
-0.466955 -0.054722 0.074553
-0.466955 -0.057901 -0.059108
-0.466955 0.042166 -0.017322
-0.466955 0.009691 0.011553
-0.466955 0.015025 -0.037393
-0.466955 -0.048381 0.034617
-0.466955 -0.020337 0.006116
-0.466955 -0.036645 0.023756
-0.466955 0.079579 -0.000114
-0.466955 -0.022051 0.050636
-0.466955 0.058095 0.010828
-0.466955 -0.023334 -0.053104
-0.466955 0.002601 -0.032587
-0.466955 -0.004889 -0.003162
-0.466955 0.034574 -0.087241
-0.466955 -0.052459 0.035715
-0.466955 0.068801 0.016920
-0.466955 0.084402 0.030859
-0.466955 -0.054794 0.027471
-0.466955 -0.029621 0.057882
-0.466955 0.046836 -0.075009
-0.466955 0.065282 -0.065629
-0.466955 0.053484 -0.055381
-0.466955 0.023980 -0.013362
-0.466955 0.014724 -0.044030
-0.466955 0.085469 0.007058
-0.466955 -0.081266 -0.048072
-0.466955 0.006526 -0.065445
-0.466955 0.009080 0.047984
-0.466955 -0.007124 -0.085803
-0.466955 -0.020422 -0.002568
-0.466955 -0.010670 -0.077845
-0.466955 -0.058080 0.014558
-0.466955 -0.069783 0.027532
-0.466955 0.087632 -0.001457
-0.466955 0.032197 -0.045754
-0.466955 0.028919 -0.060191
-0.466955 0.053355 0.067629
-0.466955 0.053831 -0.061191
-0.466955 -0.007214 -0.057133
-0.466955 0.025315 -0.051828
-0.466955 0.061735 -0.059333
-0.466955 0.058791 -0.040631
-0.466955 -0.089850 0.034034
-0.466955 -0.085344 0.018578
-0.466955 -0.024610 -0.040769
-0.466955 0.048366 -0.057228
-0.466955 0.055135 -0.064007
-0.466955 -0.007391 0.059018
-0.466955 0.058763 0.007633
-0.466955 -0.085111 -0.032033
-0.466955 0.041339 0.041899
-0.466955 0.059912 -0.030854
-0.466955 -0.050336 -0.019689
-0.466955 0.036107 -0.064045
-0.466955 -0.085046 -0.003535
-0.466955 -0.042140 -0.029291
-0.466955 0.026546 -0.016417
-0.466955 0.008524 -0.027923
-0.466955 -0.040636 -0.002930
-0.466955 0.018996 0.002205
-0.466955 0.070510 0.035141
-0.466955 -0.023566 -0.066610
-0.466955 0.065940 0.029104
-0.466955 -0.008049 -0.012607
-0.466955 0.041278 0.077209
-0.466955 -0.055225 -0.066907
-0.466955 -0.001783 -0.061091
-0.466955 0.005053 0.052575
-0.466955 -0.055747 -0.006522
-0.466955 -0.015608 0.004571
-0.466955 -0.084323 -0.033920
-0.466955 -0.032045 -0.074404
-0.466955 -0.004408 -0.011322
-0.466955 0.049813 -0.031206
-0.466955 -0.035989 -0.082340
-0.466955 0.041890 0.086583
-0.466955 -0.021053 0.070570
-0.466955 -0.009598 0.057449
-0.466955 -0.027346 0.092447
-0.466955 -0.088869 0.045290
-0.466955 0.080247 -0.036253
-0.466955 0.080982 -0.026267
-0.466955 -0.091929 -0.011789
-0.466955 0.028592 -0.018337
-0.466955 0.034433 0.075988
-0.466955 -0.083586 0.035188
-0.466955 -0.003508 -0.049935
-0.466955 0.005037 -0.043851
-0.466955 0.081118 -0.004936
-0.466955 -0.064446 -0.002701
-0.466955 -0.015878 -0.039668
-0.466955 0.039178 0.058620
-0.466955 -0.086312 0.011169
-0.466955 0.020027 -0.029464
-0.466955 0.047658 0.058934
-0.466955 -0.067107 0.031387
-0.466955 -0.093267 -0.028217
-0.466955 -0.020849 0.009107
-0.466955 0.009656 0.099048
-0.466955 0.019639 -0.047863
-0.466955 0.035129 -0.021369
-0.466955 -0.070767 0.026283
-0.466955 0.027137 -0.052904
-0.466955 -0.057108 0.050919
-0.466955 0.063070 0.006625
-0.466955 0.076046 0.014208
-0.466955 -0.063204 0.000527
-0.466955 -0.073283 0.051774
-0.466955 -0.031302 -0.022030
-0.466955 0.092142 -0.017914
-0.466955 -0.079110 0.032480
-0.466955 0.010243 -0.098662
-0.466955 -0.003612 -0.057984
-0.466955 -0.072481 0.065896
-0.466955 -0.047289 0.039652
-0.466955 0.081853 0.011946
-0.466955 -0.007542 0.095730
-0.466955 0.063513 -0.065400
-0.466955 0.066771 0.052816
-0.466955 -0.044267 -0.020160
-0.466955 0.054421 0.049804
-0.466955 -0.019115 -0.035802
-0.466955 0.031605 -0.017517
-0.466955 0.040249 0.070942
-0.466955 -0.006126 -0.049392
-0.466955 0.063584 0.002007
-0.466955 -0.049632 0.020919
-0.466955 0.025657 -0.002034
-0.466955 -0.062110 0.023611
-0.466955 0.027221 -0.008763
-0.466955 0.044964 0.010361
-0.466955 0.010097 0.026350
-0.466955 -0.044263 -0.038538
-0.466955 0.026989 -0.034232
-0.466955 0.026687 -0.066406
-0.466955 0.078541 -0.013564
-0.466955 -0.014993 -0.013233
-0.466955 -0.088267 0.002746
-0.466955 -0.006513 -0.023832
-0.466955 0.083355 0.043976
-0.466955 -0.065669 0.031998
-0.466955 0.083106 -0.007590
-0.466955 -0.045724 -0.010098
-0.466955 -0.065119 0.044832
-0.466955 -0.007703 -0.049787
-0.466955 -0.001720 0.085095
-0.466955 0.018346 0.033294
-0.466955 0.067894 0.046570
-0.466955 -0.046780 0.029805
-0.466955 -0.043827 0.046170
-0.466955 0.025665 0.030109
-0.466955 -0.018598 0.084216
-0.466955 0.055901 -0.017007
-0.466955 -0.044132 0.066852
-0.466955 -0.091790 -0.033009
-0.466955 0.037935 0.066294
-0.466955 0.035978 0.010797
-0.466955 -0.030872 -0.089308
-0.466955 -0.009126 0.062775
-0.466955 -0.018634 -0.090222
-0.466955 -0.024717 0.063823
-0.466955 -0.052949 -0.038600
-0.466955 -0.060112 0.055695
-0.466955 -0.012953 -0.020049
-0.466955 -0.074411 0.057767
-0.466955 0.005691 -0.061523
-0.466955 -0.040120 -0.013840
-0.466955 -0.057545 0.010332
-0.466955 0.038113 0.016570
-0.466955 0.017642 -0.050367
-0.466955 0.014750 -0.015449
-0.466955 -0.023166 0.057398
-0.466955 0.021395 0.029016
-0.466955 -0.054247 -0.040735
-0.466955 0.091457 -0.002539
-0.466955 -0.044944 -0.077007
-0.466955 0.054255 -0.031850
-0.466955 -0.015808 -0.029074
-0.466955 -0.066902 -0.048905
-0.466955 -0.019184 0.014161
-0.466955 0.009108 0.090090
-0.466955 -0.014399 0.046486
-0.466955 -0.061907 -0.013006
-0.466955 0.013736 0.009022
-0.466955 -0.077202 -0.031311
-0.466955 0.001828 0.006144
-0.466955 0.053020 -0.005922
-0.466955 -0.058693 0.007105
-0.466955 0.026914 0.046804
-0.466955 -0.016187 0.087364
-0.466955 0.035650 0.078449
-0.466955 0.060293 -0.037527
-0.466955 0.029307 0.029317
-0.466955 0.057102 0.081342
-0.466955 -0.026689 -0.021989
-0.466955 -0.014907 0.091790
-0.466955 0.079397 -0.054388
-0.466955 0.024924 -0.050373
-0.466955 -0.071136 -0.038307
-0.466955 -0.079488 -0.042622
-0.466955 0.060307 -0.017328
-0.466955 0.025786 -0.072188
-0.466955 -0.069468 -0.018268
-0.466955 0.056787 0.070049
-0.466955 -0.063908 0.054941
-0.466955 -0.079599 -0.029086
-0.466955 -0.075432 -0.038329
-0.466955 0.091295 0.040700
-0.466955 0.073739 0.067494
-0.466955 0.024201 -0.021567
-0.466955 -0.082478 0.044122
-0.466955 0.077528 0.010942
-0.466955 -0.027079 0.070178
-0.466955 -0.084547 0.005712
-0.466955 0.009104 0.094477
-0.466955 -0.036684 -0.018207
-0.466955 0.057183 0.027855
-0.466955 0.078763 -0.058322
-0.466955 -0.029167 -0.068861
-0.466955 -0.005091 -0.054873
-0.466955 -0.048026 -0.076414
-0.466955 -0.055633 0.063041
-0.466955 0.026159 0.048184
-0.466955 0.052945 0.053279
-0.466955 0.064455 0.027775
-0.466955 -0.014681 0.056545
-0.466955 0.002849 0.067790
-0.466955 0.081283 0.009411
-0.466955 -0.034064 0.010329
-0.466955 0.053244 -0.058112
-0.466955 0.082078 0.019484
-0.466955 -0.011744 -0.055759
-0.466955 0.024280 0.003717
-0.466955 0.006166 -0.038389
-0.466955 -0.026219 0.081145
-0.466955 -0.014858 -0.015311
-0.466955 -0.004735 -0.000038
-0.466955 -0.007839 0.001641
-0.466955 0.036924 -0.018362
-0.466955 -0.057323 -0.049502
-0.466955 0.049449 -0.045174
-0.466955 0.059724 -0.059179
-0.466955 0.036895 -0.022198
-0.466955 0.075865 -0.028963
-0.466955 -0.037695 -0.022795
-0.466955 -0.069170 -0.049892
-0.466955 0.027614 -0.027130
-0.466955 -0.071109 0.034804
-0.466955 0.058171 0.062808
-0.466955 -0.032261 0.055156
-0.466955 -0.021150 0.004011
-0.466955 -0.059767 0.046459
-0.466955 0.088490 0.024682
-0.466955 0.070275 -0.033352
-0.466955 -0.059184 -0.064091
-0.466955 -0.003332 -0.090639
-0.466955 0.054807 0.011725
-0.466955 0.042523 -0.002131
-0.466955 0.032076 0.073028
-0.466955 -0.052974 0.054167
-0.466955 0.024150 -0.064951
-0.466955 -0.012282 -0.026804
-0.466955 -0.014832 0.087874
-0.466955 0.017487 0.046364
-0.466955 0.081671 -0.046874
-0.466955 -0.063903 -0.000842
-0.466955 -0.011515 0.000585
-0.466955 -0.005445 0.041025
-0.466955 0.052157 0.050643
-0.466955 0.033928 -0.036983
-0.466955 0.038468 0.055503
-0.466955 0.035764 0.028997
-0.466955 -0.035883 0.087119
-0.466955 -0.044926 0.079134
-0.466955 0.020348 -0.057703
-0.466955 -0.011431 -0.064381
-0.466955 -0.042822 -0.073049
-0.466955 0.051866 -0.012025
-0.466955 -0.040941 -0.065610
-0.466955 0.029306 0.076928
-0.466955 0.084456 -0.001050
-0.466955 -0.057591 0.077311
-0.466955 -0.014473 0.028374
-0.466955 0.049798 -0.082791
-0.466955 -0.045079 -0.007250
-0.466955 0.017819 0.089959
-0.466955 -0.053192 0.075653
-0.466955 0.019888 0.066145
-0.466955 -0.095523 0.027824
-0.466955 0.078266 -0.000803
-0.466955 -0.057430 -0.003613
-0.466955 -0.017979 0.085621
-0.466955 -0.063720 -0.061301
-0.466955 0.021083 0.031362
-0.466955 -0.035224 -0.034911
-0.466955 -0.062634 -0.060381
-0.466955 -0.039175 0.061839
-0.466955 -0.046421 -0.063974
-0.466955 0.051653 -0.069503
-0.466955 0.031227 0.004219
-0.466955 0.056894 0.047452
-0.466955 0.003713 0.076581
-0.466955 0.027242 -0.005574
-0.466955 0.024773 -0.048807
-0.466955 -0.093366 0.032930
-0.466955 0.066762 0.011966
-0.466955 -0.037289 -0.085063
-0.466955 -0.081616 -0.029571
-0.466955 0.071469 0.000179
-0.466955 0.024731 -0.019288
-0.466955 -0.002675 -0.041285
-0.466955 0.052522 -0.076565
-0.466955 0.016703 0.073717
-0.466955 0.089069 0.035609
-0.466955 0.069515 -0.055127
-0.466955 0.080396 -0.011227
-0.466955 -0.039223 -0.065049
-0.466955 -0.070863 -0.047737
-0.466955 0.007876 0.044102
-0.466955 -0.085454 -0.038555
-0.466955 -0.074139 0.056321
-0.466955 -0.083573 0.013800
-0.466955 0.012549 0.044370
-0.466955 0.004029 0.080426
-0.466955 -0.051431 0.018635
-0.466955 -0.030515 0.032142
-0.466955 0.052926 -0.009468
-0.466955 -0.024451 0.091030
-0.466955 0.025995 0.026893
-0.466955 0.004335 -0.012972
-0.466955 0.043789 -0.052154
-0.466955 0.087265 0.028270
-0.466955 0.071088 -0.038971
-0.466955 0.043508 0.054200
-0.466955 0.070573 0.041872
-0.466955 -0.036773 -0.035817
-0.466955 0.070803 0.013772
-0.466955 0.002120 -0.023575
-0.466955 -0.011878 -0.076017
-0.466955 0.070692 0.010082
-0.466955 0.085952 0.030066
-0.466955 0.037228 0.060976
-0.466955 0.081594 0.050377
-0.466955 0.062650 0.050454
-0.466955 0.012209 -0.046254
-0.466955 0.056901 -0.029968
-0.466955 -0.092580 0.023167
-0.466955 -0.027049 0.049025
-0.466955 0.039211 0.088282
-0.466955 -0.045750 -0.080701
-0.466955 0.009537 0.062416
-0.466955 0.063307 -0.020248
-0.466955 -0.043443 0.078981
-0.466955 -0.005811 0.094868
-0.466955 -0.012498 0.054883
-0.466955 0.073978 0.062629
-0.466955 0.054733 -0.035169
-0.466955 -0.098386 -0.000712
-0.466955 0.091973 0.014631
-0.466955 -0.015601 -0.011263
-0.466955 -0.031163 0.045959
-0.466955 0.027932 -0.007424
-0.466955 0.021663 0.070820
-0.466955 0.007543 -0.090122
-0.466955 -0.080651 0.012429
-0.466955 0.072149 -0.031435
-0.466955 -0.081736 0.042651
-0.466955 0.003568 0.029212
-0.466955 -0.063423 0.056794
-0.466955 -0.016776 0.009267
-0.466955 0.009731 0.064994
-0.466955 -0.056091 -0.054484
-0.466955 0.068835 -0.061764
-0.466955 -0.012283 0.047115
-0.466955 -0.002529 0.010568
-0.466955 0.029028 -0.071202
-0.466955 0.064278 -0.031497
-0.466955 -0.071634 0.004526
-0.466955 -0.034814 0.052639
-0.466955 0.007185 0.094250
-0.466955 -0.033299 -0.033110
-0.466955 -0.015502 0.057920
-0.466955 0.026089 0.052092
-0.466955 -0.008694 0.092814
-0.466955 0.068512 -0.010700
-0.466955 0.040049 -0.062234
-0.466955 0.014600 0.017598
-0.466955 -0.044462 0.057599
-0.466955 0.010528 0.012897
-0.466955 0.018619 -0.085059
-0.466955 0.057412 0.077734
-0.466955 -0.085020 0.036037
-0.466955 -0.038307 0.057957
-0.466955 -0.028900 0.070812
-0.466955 -0.010880 -0.036495
-0.466955 0.047622 0.049602
-0.466955 -0.045919 0.087806
-0.466955 -0.000165 0.007621
-0.466955 -0.009928 0.045797
-0.466955 -0.041906 -0.003684
-0.466955 0.079291 -0.021892
-0.466955 0.005926 -0.025491
-0.466955 -0.019232 -0.093487
-0.466955 -0.068497 0.018037
-0.466955 -0.088016 0.022406
-0.466955 -0.000610 0.018077
-0.466955 -0.023644 -0.001611
-0.466955 0.033513 -0.018534
-0.466955 0.035032 -0.075358
-0.466955 0.008809 -0.043657
-0.466955 0.043836 -0.019586
-0.466955 0.026675 -0.021754
-0.466955 -0.003747 0.053790
-0.466955 -0.002169 -0.034975
-0.466955 -0.005930 -0.040671
-0.466955 -0.071728 -0.011653
-0.466955 0.011227 -0.026677
-0.466955 0.056131 0.025102
-0.466955 -0.039393 -0.026160
-0.466955 -0.050426 -0.038665
-0.466955 -0.081117 0.022072
-0.466955 -0.021140 -0.010121
-0.466955 0.010788 -0.058689
-0.466955 0.035509 -0.077791
-0.466955 -0.047625 0.078237
-0.466955 -0.050475 -0.036955
-0.466955 0.036376 0.015889
-0.466955 -0.030897 0.076346
-0.466955 0.058014 -0.039291
-0.466955 -0.037845 -0.088433
-0.466955 -0.023085 -0.072010
-0.466955 0.022858 -0.030942
-0.466955 -0.002577 0.021475
-0.466955 0.095084 0.028968
-0.466955 -0.057091 0.081392
-0.466955 -0.038709 -0.013711
-0.466955 -0.037245 -0.089866
-0.466955 0.067099 -0.072669
-0.466955 -0.061696 0.040158
-0.466955 -0.097906 0.001320
-0.466955 -0.068312 -0.026455
-0.466955 0.090980 0.030791
-0.466955 0.026769 0.043318
-0.466955 -0.050161 0.042071
-0.466955 -0.012618 0.031749
-0.466955 0.004098 0.040074
-0.466955 0.035999 -0.084402
-0.466955 -0.028367 0.034009
-0.466955 -0.059514 -0.019360
-0.466955 0.070407 -0.008051
-0.466955 -0.020303 -0.048808
-0.466955 0.036417 -0.075914
-0.466955 -0.014737 0.048287
-0.466955 -0.023613 -0.030905
-0.466955 -0.021356 0.063709
-0.466955 0.064867 0.056665
-0.466955 -0.049883 0.034102
-0.466955 0.020715 -0.023442
-0.466955 -0.053199 0.049138
-0.466955 -0.036690 -0.056635
-0.466955 0.084415 -0.038869
-0.466955 0.028734 -0.058411
-0.466955 0.054126 0.015942
-0.466955 -0.089731 0.001905
-0.466955 -0.088373 0.026766
-0.466955 0.033979 0.039872
-0.466955 -0.093032 -0.020398
-0.466955 0.066343 0.067546
-0.466955 -0.076367 0.031157
-0.466955 -0.084251 -0.026022
-0.466955 0.063540 0.011860
-0.466955 0.092107 -0.024782
-0.466955 0.014904 -0.072059
-0.466955 -0.058630 0.029586
-0.466955 0.070710 0.056672
-0.466955 -0.015866 -0.098254
-0.466955 0.063308 -0.013581
-0.466955 0.057302 -0.016658
-0.466955 -0.078781 0.029253
-0.466955 0.003809 -0.022860
-0.466955 0.023808 -0.062103
-0.466955 0.001567 -0.068644
-0.466955 -0.043298 -0.036990
-0.466955 0.040828 -0.078265
-0.466955 0.018894 0.016570
-0.466955 0.068965 0.029716
-0.466955 -0.028518 0.037230
-0.466955 0.006408 -0.088547
-0.466955 -0.032982 0.068432
-0.466955 0.024686 0.074243
-0.466955 0.056365 0.019481
-0.466955 0.036006 -0.027080
-0.466955 0.044018 0.074217
-0.466955 -0.029331 -0.039120
-0.466955 0.094777 -0.007569
-0.466955 -0.081078 0.027192
-0.466955 0.023339 0.032329
-0.466955 0.006548 -0.050419
-0.466955 0.014838 -0.075152
-0.466955 0.053445 -0.047184
-0.466955 -0.007164 -0.020837
-0.466955 -0.036547 0.068292
-0.466955 0.089361 0.017137
-0.466955 0.028425 0.090372
-0.466955 0.041982 0.055952
-0.466955 -0.024637 -0.090272
-0.466955 0.011890 -0.022292
-0.466955 0.069586 0.044561
-0.466955 -0.011168 0.024821
-0.466955 -0.007538 0.004483
-0.466955 0.098740 0.008422
-0.466955 -0.039362 0.073474
-0.466955 -0.047861 -0.087221
-0.466955 0.037490 -0.085459
-0.466955 0.048090 0.045722
-0.466955 -0.015162 0.043973
-0.466955 0.023049 0.090270
-0.466955 0.060285 0.055221
-0.466955 0.072422 -0.041058
-0.466955 -0.028105 0.066709
-0.466955 -0.007313 0.022295
-0.466955 0.013514 -0.021546
-0.466955 0.005700 -0.045339
-0.466955 -0.024626 -0.002936
-0.466955 0.086733 0.009948
-0.466955 0.064629 0.045770
-0.466955 -0.017223 -0.035342
-0.466955 0.054554 0.008466
-0.466955 0.079714 0.046168
-0.466955 -0.013198 0.018876
-0.466955 0.012142 0.078522
-0.466955 0.029416 -0.037962
-0.466955 -0.003755 -0.076221
-0.466955 -0.017931 -0.069576
-0.466955 0.052629 -0.021611
-0.466955 -0.071726 0.024289
-0.466955 -0.028738 0.087719
-0.466955 -0.033093 -0.025141
-0.466955 -0.001718 0.001466
-0.466955 -0.073321 0.016622
-0.466955 -0.001747 0.012461
-0.466955 -0.034743 -0.010736
-0.466955 -0.048222 -0.046617
-0.466955 0.024657 0.044270
-0.466955 0.004936 -0.041906
-0.466955 0.021191 0.067519
-0.466955 0.050637 0.050732
-0.466955 -0.065191 0.005522
-0.466955 0.082991 -0.009345
-0.466955 0.006658 -0.032016
-0.466955 -0.014778 0.010253
-0.466955 0.025178 -0.055084
-0.466955 -0.002016 0.066845
-0.466955 -0.034333 -0.004506
-0.466955 0.060944 0.029989
-0.466955 0.048280 -0.060052
-0.466955 0.037396 0.001011
-0.466955 -0.010679 -0.026315
-0.466955 -0.036835 -0.058255
-0.466955 -0.018814 0.095305
-0.466955 -0.008793 0.060141
-0.466955 -0.011451 -0.071301
-0.466955 -0.048750 -0.023326
-0.466955 -0.050439 -0.078483
-0.466955 -0.075828 -0.036808
-0.466955 -0.064998 0.017253
-0.466955 -0.066782 -0.043217
-0.466955 -0.014988 0.074031
-0.466955 0.057321 -0.008343
-0.466955 -0.054091 -0.021693
-0.466955 -0.027225 -0.067555
-0.466955 -0.054348 -0.009109
-0.466955 -0.086664 0.009403
-0.466955 0.002356 0.027968
-0.466955 -0.025402 0.004389
-0.466955 0.000602 0.031486
-0.466955 0.006915 0.075553
-0.466955 -0.021252 0.054878
-0.466955 0.079653 -0.046495
-0.466955 -0.011111 0.039298
-0.466955 0.010144 -0.043403
-0.466955 -0.066099 0.019565
-0.466955 0.066112 -0.000853
-0.466955 -0.054473 -0.055058
-0.466955 -0.053505 -0.052664
-0.466955 -0.041584 0.027985
-0.466955 0.056780 0.034815
-0.466955 -0.006610 -0.032998
-0.466955 0.045258 0.018033
-0.466955 -0.035136 -0.063616
-0.466955 0.039537 -0.041371
-0.466955 0.027950 0.069457
-0.466955 0.003555 -0.031043
-0.466955 0.030835 -0.030514
-0.466955 -0.052306 0.074199
-0.466955 -0.040364 0.083261
-0.466955 -0.009124 0.007784
-0.466955 -0.018201 0.020563
-0.466955 -0.029110 0.032268
-0.466955 -0.059676 0.064278
-0.466955 -0.048336 -0.033916
-0.466955 -0.013649 0.007235
-0.466955 0.048121 0.060314
-0.466955 0.000745 -0.059752
-0.466955 0.048585 0.085407
-0.466955 -0.027344 0.032970
-0.466955 0.004598 -0.066251
-0.466955 -0.096896 0.006677
-0.466955 0.067420 -0.008625
-0.466955 0.014191 0.050772
-0.466955 -0.020500 -0.067039
-0.466955 -0.017958 -0.045420
-0.466955 -0.006375 -0.013176
-0.466955 -0.003327 -0.001573
-0.466955 -0.091558 -0.016501
-0.466955 0.054299 0.033149
-0.466955 0.060001 0.071015
-0.466955 0.037552 -0.014121
-0.466955 0.040055 0.060242
-0.466955 -0.037159 -0.007218
-0.466955 -0.020882 0.049631
-0.466955 0.003168 -0.043684
-0.466955 -0.050460 0.085680
-0.466955 -0.013961 0.036009
-0.466955 -0.078879 0.022976
-0.466955 -0.014944 -0.020154
-0.466955 -0.070881 -0.018311
-0.466955 0.053392 0.078338
-0.466955 -0.001538 -0.000427
-0.466955 -0.029013 -0.080671
-0.466955 -0.027340 0.087316
-0.466955 -0.044757 0.027701
-0.466955 0.010639 0.056306
-0.466955 -0.085457 -0.010708
-0.466955 -0.091584 0.018631
-0.466955 -0.050914 0.052430
-0.466955 -0.009527 -0.092091
-0.466955 0.073517 0.033803
-0.466955 -0.048856 -0.069308
-0.466955 -0.081721 0.035053
-0.466955 0.057062 0.045398
-0.466955 -0.018843 0.075451
-0.466955 -0.046161 -0.030341
-0.466955 0.054833 -0.073694
-0.466955 -0.059063 -0.016668
-0.466955 0.086972 0.033719
-0.466955 -0.012210 0.053570
-0.466955 0.003972 -0.071857
-0.466955 -0.068276 0.058124
-0.466955 -0.000372 -0.032076
-0.466955 -0.064725 -0.064534
-0.466955 0.005986 0.068534
-0.466955 -0.074789 -0.001491
-0.466955 -0.041913 -0.062210
-0.466955 -0.075106 0.003259
-0.466955 0.041385 -0.059280
-0.466955 0.077336 -0.014560
-0.466955 -0.067977 0.040748
-0.466955 0.069832 0.037557
-0.466955 0.002131 -0.095860
-0.466955 -0.060861 0.026673
-0.466955 -0.082201 0.007199
-0.466955 0.010448 0.089524
-0.466955 -0.011882 -0.025194
-0.466955 -0.001565 0.047612
-0.466955 0.058693 0.055335
-0.466955 -0.018014 -0.048963
-0.466955 -0.042134 -0.020287
-0.466955 0.056558 -0.060657
-0.466955 -0.008234 0.031833
-0.466955 -0.078320 -0.001006
-0.466955 0.048220 0.083210
-0.466955 -0.022208 -0.079936
-0.466955 -0.046279 -0.079245
-0.466955 -0.065488 -0.033404
-0.466955 0.065784 0.042944
-0.466955 0.013316 0.033987
-0.466955 0.061011 0.023744
-0.466955 0.059510 0.075220
-0.466955 0.026657 -0.084239
-0.466955 0.019589 0.038676
-0.466955 0.024120 0.033943
-0.466955 -0.028318 -0.030521
-0.466955 -0.034882 -0.006030
-0.466955 -0.062392 -0.043803
-0.466955 -0.012149 0.026386
-0.466955 -0.026876 0.042589
-0.466955 0.098960 -0.012695
-0.466955 -0.016925 -0.006698
-0.466955 0.065044 -0.041330
-0.466955 -0.013337 -0.058039
-0.466955 0.034315 -0.002700
-0.466955 -0.067631 0.001327
-0.466955 -0.030729 -0.031008
-0.466955 -0.029580 -0.035598
-0.466955 0.011811 -0.086603
-0.466955 0.013620 -0.008927
-0.466955 0.025103 0.032513
-0.466955 -0.068916 -0.071972
-0.466955 0.009811 -0.013460
-0.466955 -0.008777 -0.030440
-0.466955 -0.090822 -0.040304
-0.466955 -0.092206 0.014374
-0.466955 0.062912 0.056706
-0.466955 -0.035705 -0.054088
-0.466955 0.031328 0.029438
-0.466955 -0.024128 -0.074785
-0.466955 0.043704 -0.055969
-0.466955 0.079204 0.036475
-0.466955 -0.061875 0.055222
-0.466955 0.067599 0.029155
-0.466955 0.079068 -0.020016
-0.466955 -0.016507 0.052118
-0.466955 0.060480 0.001400
-0.466955 0.053809 0.000729
-0.466955 0.066590 0.065678
-0.466955 -0.078300 0.055287
-0.466955 -0.048833 0.053431
-0.466955 -0.058624 0.017583
-0.466955 -0.026214 0.075828
-0.466955 0.024612 0.075941
-0.466955 -0.041516 -0.068111
-0.466955 0.000666 0.035236
-0.466955 -0.004548 0.093864
-0.466955 -0.060604 0.070652
-0.466955 0.029908 0.063487
-0.466955 -0.060589 0.022529
-0.466955 0.034136 0.010789
-0.466955 0.087381 0.035618
-0.466955 0.065346 -0.057986
-0.466955 -0.029850 0.092066
-0.466955 0.073728 0.060525
-0.466955 0.078541 0.023623
-0.466955 0.055720 0.004267
-0.466955 -0.014392 -0.056733
-0.466955 0.005433 -0.077188
-0.466955 0.019770 0.005440
-0.466955 0.034472 -0.026936
-0.466955 -0.085837 0.013304
-0.466955 -0.000046 -0.004552
-0.466955 -0.006088 0.051388
-0.466955 -0.079644 0.013961
-0.466955 -0.010865 0.005573
-0.466955 0.049897 -0.074628
-0.466955 -0.054379 -0.026391
-0.466955 0.049262 -0.061013
-0.466955 0.016241 0.075297
-0.466955 0.058781 -0.079831
-0.466955 0.006731 -0.083836
-0.466955 -0.074077 -0.008088
-0.466955 -0.033144 0.091658
-0.466955 0.090236 0.000107
-0.466955 -0.028683 -0.055976
-0.466955 -0.059911 -0.068663
-0.466955 -0.037555 0.014975
-0.466955 -0.070541 0.056363
-0.466955 -0.051904 -0.075848
-0.466955 0.056261 0.011307
-0.466955 0.097232 0.001488
-0.466955 -0.051376 0.068441
-0.466955 0.067994 -0.020095
-0.466955 0.056201 -0.046360
-0.466955 0.042624 0.006589
-0.466955 -0.015279 0.024245
-0.466955 0.039355 0.008934
-0.466955 -0.042885 -0.013793
-0.466955 -0.049168 -0.008536
-0.466955 -0.072373 -0.022166
-0.466955 0.064571 0.005549
-0.466955 -0.058071 -0.043701
-0.466955 0.008687 -0.067434
-0.466955 -0.041948 0.084064
-0.466955 0.051796 0.082294
-0.466955 0.087781 -0.034411
-0.466955 0.062915 -0.005822
-0.466955 -0.034602 0.092461
-0.466955 -0.015860 0.032721
-0.466955 0.068825 -0.056404
-0.466955 -0.052391 -0.032255
-0.466955 -0.000732 -0.088713
-0.466955 -0.035258 -0.000868
-0.466955 -0.012791 -0.010137
-0.466955 -0.020260 0.092581
-0.466955 -0.050160 0.071733
-0.466955 -0.020824 0.046969
-0.466955 0.075761 -0.019607
-0.466955 -0.040742 -0.034752
-0.466955 -0.068987 0.049327
-0.466955 -0.043544 -0.010842
-0.466955 -0.038586 -0.000099
-0.466955 -0.009563 0.082842
-0.466955 0.050781 0.006135
-0.466955 0.008596 0.045630
-0.466955 0.040717 0.033327
-0.466955 0.000280 -0.037400
-0.466955 0.060481 0.074258
-0.466955 -0.038622 -0.075482
-0.466955 0.074118 0.008164
-0.466955 -0.071182 0.057776
-0.466955 0.039872 -0.056710
-0.466955 0.012118 -0.002111
-0.466955 0.023735 0.062695
-0.466955 -0.002895 0.007174
-0.466955 0.038347 -0.024713
-0.466955 0.042010 -0.000342
-0.466955 0.017619 -0.096308
-0.466955 -0.019721 0.021026
-0.466955 -0.072653 0.011456
-0.466955 0.019380 0.075071
-0.466955 -0.025965 -0.088943
-0.466955 -0.058373 0.049921
-0.466955 -0.077290 0.002238
-0.466955 0.039472 0.023149
-0.466955 -0.037820 -0.055360
-0.466955 0.041717 0.075861
-0.466955 0.004021 0.047540
-0.466955 -0.058963 0.054977
-0.466955 0.030189 -0.061472
-0.466955 -0.058990 0.048074
-0.466955 0.029091 0.068251
-0.466955 0.065712 0.059862
-0.466955 -0.023464 -0.078541
-0.466955 0.042224 0.005102
-0.466955 0.008102 0.067403
-0.466955 -0.019070 -0.057991
-0.466955 0.013258 0.090973
-0.466955 0.043935 -0.034189
-0.466955 -0.068581 -0.020992
-0.466955 0.063422 0.015782
-0.466955 0.013943 -0.061285
-0.466955 -0.073074 -0.061768
-0.466955 -0.030522 0.090485
-0.466955 -0.023127 0.015529
-0.466955 0.034635 0.032915
-0.466955 0.058666 -0.052163
-0.466955 -0.018714 0.082159
-0.466955 -0.022698 -0.088505
-0.466955 -0.033070 -0.011672
-0.466955 0.046518 -0.044017
-0.466955 -0.028829 -0.037618
-0.466955 0.092567 -0.012769
-0.466955 -0.026912 -0.008972
-0.466955 -0.045389 0.018988
-0.466955 0.088840 -0.015164
-0.466955 -0.013624 -0.037550
-0.466955 -0.013416 0.021185
-0.466955 0.022409 0.085005
-0.466955 -0.057487 0.004760
-0.466955 -0.000045 0.096463
-0.466955 0.026019 -0.081802
-0.466955 -0.070833 0.038300
-0.466955 -0.056355 -0.047762
-0.466955 0.061442 -0.015878
-0.466955 0.091130 -0.032725
-0.466955 -0.038837 0.079822
-0.466955 -0.017163 -0.075327
-0.466955 0.005809 -0.010862
-0.466955 0.013664 -0.016690
-0.466955 -0.046836 -0.073177
-0.466955 0.049616 -0.032975
-0.466955 0.077228 -0.017604
-0.466955 -0.009942 -0.005658
-0.466955 -0.018146 -0.011714
-0.466955 -0.068473 0.033737
-0.466955 0.089357 -0.039119
-0.466955 -0.007913 0.053013
-0.466955 0.023175 0.057656
-0.466955 -0.050683 0.025665
-0.466955 0.028186 0.033928
-0.466955 -0.007037 -0.054297
-0.466955 0.073711 0.053092
-0.466955 0.012985 0.014897
-0.466955 0.038433 -0.053002
-0.466955 -0.014362 -0.006920
-0.466955 0.016519 -0.061489
-0.466955 -0.069967 -0.042886
-0.466955 -0.070296 -0.006303
-0.466955 -0.070242 -0.025369
-0.466955 -0.074573 0.013862
-0.466955 -0.005052 -0.066357
-0.466955 -0.005349 -0.070597
-0.466955 -0.086079 0.029576
-0.466955 0.026456 -0.075449
-0.466955 0.018134 0.030857
-0.466955 0.032976 0.063407
-0.466955 -0.075950 -0.018866
-0.466955 -0.054084 0.067316
-0.466955 -0.029460 0.023950
-0.466955 0.043982 -0.018032
-0.466955 0.002760 0.066243
-0.466955 -0.067583 0.022804
-0.466955 0.088223 0.040161
-0.466955 -0.004890 -0.047527
-0.466955 0.055167 0.065894
-0.466955 -0.021792 -0.000542
-0.466955 0.011363 -0.035362
-0.466955 -0.069602 0.043834
-0.466955 -0.015502 -0.053689
-0.466955 -0.023280 0.014074
-0.466955 0.094103 0.033787
-0.466955 0.016713 -0.031654
-0.466955 0.097503 0.007403
-0.466955 0.038485 0.048348
-0.466955 0.014473 -0.010190
-0.466955 0.053091 0.034240
-0.466955 -0.044372 -0.058673
-0.466955 0.045512 -0.046349
-0.466955 -0.016754 0.083169
-0.466955 -0.004077 -0.030658
-0.466955 0.003381 0.043608
-0.466955 -0.066380 -0.069198
-0.466955 0.057325 0.079471
-0.466955 0.061473 -0.074471
-0.466955 -0.060834 0.049049
-0.466955 -0.047874 0.069910
-0.466955 -0.020039 0.089464
-0.466955 0.054807 0.053426
-0.466955 0.055472 -0.020678
-0.466955 -0.033570 0.011654
-0.466955 -0.012028 0.011205
-0.466955 -0.010316 -0.079127
-0.466955 0.073316 -0.053999
-0.466955 0.016199 -0.012374
-0.466955 0.015192 0.002791
-0.466955 0.001195 0.094069
-0.466955 -0.053332 -0.047772
-0.466955 0.041881 -0.084861
-0.466955 -0.057943 0.070499
-0.466955 -0.094034 -0.003009
-0.466955 0.094086 0.014356
-0.466955 0.020181 -0.001730
-0.466955 0.009613 0.072453
-0.466955 -0.074353 -0.050428
-0.466955 -0.013534 -0.051438
-0.466955 0.064081 0.018202
-0.466955 -0.064960 0.073970
-0.466955 0.022942 0.007340
-0.466955 0.017467 -0.081209
-0.466955 -0.085466 -0.046232
-0.466955 0.013346 -0.056715
-0.466955 0.074919 -0.033921
-0.466955 0.043867 -0.062433
-0.466955 0.005191 -0.004524
-0.466955 -0.067177 0.025833
-0.466955 -0.069096 -0.068538
-0.466955 -0.039159 -0.005173
-0.466955 -0.066376 0.068876
-0.466955 0.005285 0.090302
-0.466955 -0.059608 0.013980
-0.466955 0.016691 -0.048046
-0.466955 -0.004749 -0.077622
-0.466955 0.005441 -0.007654
-0.466955 -0.073494 0.001146
-0.466955 -0.048387 0.031381
-0.466955 0.012710 -0.062131
-0.466955 0.020687 -0.056166
-0.466955 0.069521 -0.006870
-0.466955 -0.024964 0.011805
-0.466955 0.069194 -0.018504
-0.466955 -0.000942 0.074927
-0.466955 -0.033846 0.013220
-0.466955 0.030312 0.054724
-0.466955 0.015775 -0.053989
-0.466955 -0.042614 0.059735
-0.466955 -0.024472 0.068864
-0.466955 -0.068115 -0.024373
-0.466955 -0.077346 -0.035264
-0.466955 0.004814 -0.014725
-0.466955 0.048969 -0.007432
-0.466955 0.001062 -0.003444
-0.466955 0.046792 0.048002
-0.466955 0.009338 0.017757
-0.466955 0.091562 -0.027955
-0.466955 0.090974 0.038562
-0.466955 0.020707 0.002781
-0.466955 0.030262 -0.049926
-0.466955 0.028900 0.004297
-0.466955 -0.022607 0.019280
-0.466955 0.064803 -0.024619
-0.466955 -0.034034 -0.008414
-0.466955 -0.035933 -0.092807
-0.466955 0.031103 0.087168
-0.466955 -0.041500 -0.039045
-0.466955 0.010556 0.024001
-0.466955 -0.012074 -0.000977
-0.466955 -0.043036 -0.021611
-0.466955 0.015986 0.022327
-0.466955 -0.064730 -0.062806
-0.466955 0.033967 -0.000368
-0.466955 0.030545 0.069169
-0.466955 -0.016333 -0.025338
-0.466955 -0.086147 0.037182
-0.466955 0.011869 -0.031739
-0.466955 -0.070672 -0.012998
-0.466955 -0.054512 -0.019046
-0.466955 -0.027222 0.019008
-0.466955 0.066177 -0.071514
-0.466955 0.035916 0.031229
-0.466955 0.074561 -0.004736
-0.466955 -0.028022 -0.025903
-0.466955 -0.097119 -0.021293
-0.466955 -0.012492 0.069621
-0.466955 0.088341 0.010961
-0.466955 0.070848 0.027485
-0.466955 -0.095966 0.001727
-0.466955 0.070997 -0.043852
-0.466955 -0.058636 -0.023918
-0.466955 -0.024586 -0.015719
-0.466955 -0.036252 -0.046351
-0.466955 -0.070391 0.047778
-0.466955 0.064003 0.074266
-0.466955 -0.033617 0.037237
-0.466955 0.036218 -0.092751
-0.466955 -0.083953 -0.017294
-0.466955 0.063757 0.033673
-0.466955 0.064558 0.000148
-0.466955 -0.021882 0.010812
-0.466955 -0.029974 -0.079532
-0.466955 0.037563 0.052596
-0.466955 -0.076333 -0.043679
-0.466955 -0.018575 0.059723
-0.466955 -0.005805 -0.039232
-0.466955 -0.014662 -0.059070
-0.466955 -0.004645 -0.094597
-0.466955 0.018089 0.011587
-0.466955 -0.059634 -0.029091
-0.466955 -0.006096 -0.072963
-0.466955 0.068532 0.006862
-0.466955 -0.080363 0.036386
-0.466955 0.058054 0.020089
-0.466955 -0.026982 -0.031429
-0.466955 -0.079179 0.001276
-0.466955 0.074653 -0.057584
-0.466955 0.007499 -0.018465
-0.466955 0.073018 0.006763
-0.466955 0.057650 -0.065412
-0.466955 -0.032568 -0.070280
-0.466955 0.031009 0.038184
-0.466955 -0.079400 0.042791
-0.466955 -0.003590 -0.023774
-0.466955 -0.067118 -0.007880
-0.466955 0.019874 -0.022234
-0.466955 0.006442 0.045421
-0.466955 -0.070508 0.044926
-0.466955 0.031010 -0.010365
-0.466955 0.045397 -0.040042
-0.466955 0.069975 -0.036710
-0.466955 -0.083354 0.024016
-0.466955 0.019178 0.061175
-0.466955 0.025946 0.044643
-0.466955 -0.027062 0.065563
-0.466955 0.062922 0.022898
-0.466955 -0.088977 0.000338
-0.466955 0.039505 0.000973
-0.466955 -0.026415 0.016545
-0.466955 -0.038507 -0.016769
-0.466955 0.086593 -0.029020
-0.466955 -0.079034 0.046409
-0.466955 -0.071531 -0.034326
-0.466955 -0.058304 0.051783
-0.466955 0.034613 0.035618
-0.466955 0.040829 0.053213
-0.466955 0.067646 0.017928
-0.466955 -0.023926 0.078595
-0.466955 0.017413 0.092466
-0.466955 0.039969 -0.010455
-0.466955 0.014135 -0.059669
-0.466955 -0.074911 0.006551
-0.466955 0.008147 -0.020136
-0.466955 -0.005796 0.029838
-0.466955 0.020155 0.091737
-0.466955 0.002562 0.020799
-0.466955 0.029287 -0.091102
-0.466955 0.003026 0.016878
-0.466955 0.028078 -0.086865
-0.466955 0.045206 -0.067562
-0.466955 -0.002918 0.013250
-0.466955 0.027078 0.090076
-0.466955 -0.089772 -0.043157
-0.466955 -0.083817 0.019541
-0.466955 0.026327 -0.028219
-0.466955 -0.082738 -0.045950
-0.466955 -0.016422 0.011033
-0.466955 0.087811 0.047519
-0.466955 0.001452 -0.055334
-0.466955 -0.006612 -0.058791
-0.466955 -0.030728 -0.092381
-0.466955 -0.012060 0.073880
-0.466955 -0.071975 -0.040388
-0.466955 0.085445 -0.042422
-0.466955 -0.002831 0.087163
-0.466955 -0.003828 0.072616
-0.466955 -0.057185 0.003317
-0.466955 -0.042599 -0.071431
-0.466955 0.039978 0.021344
-0.466955 -0.047291 -0.052475
-0.466955 -0.082373 0.015825
-0.466955 -0.072150 0.020244
-0.466955 0.001406 -0.046171
-0.466955 -0.053057 0.011863
-0.466955 0.075735 0.020977
-0.466955 -0.002563 0.031091
-0.466955 0.083780 0.023711
-0.466955 -0.058078 0.013099
-0.466955 -0.089162 -0.010580
-0.466955 0.028914 0.031247
-0.466955 0.043329 -0.050530
-0.466955 0.045121 -0.038300
-0.466955 0.029840 -0.039588
-0.466955 -0.053336 0.014575
-0.466955 -0.021779 0.095269
-0.466955 0.080005 0.024059
-0.466955 -0.098158 -0.015463
-0.466955 -0.020376 0.083057
-0.466955 0.001346 0.063168
-0.466955 0.038731 0.005893
-0.466955 -0.029572 0.000854
-0.466955 -0.018057 -0.018487
-0.466955 -0.022400 -0.018472
-0.466955 -0.000451 -0.068975
-0.466955 -0.082154 -0.034462
-0.466955 0.045785 0.068595
-0.466955 -0.063090 -0.018961
-0.466955 -0.084832 -0.001331
-0.466955 -0.019627 0.070660
-0.466955 0.014098 0.093554
-0.466955 0.062215 -0.063913
-0.466955 0.089401 -0.010780
-0.466955 -0.090052 -0.008250
-0.466955 0.003845 0.082542
-0.466955 -0.087350 0.001676
-0.466955 0.014396 -0.012041
-0.466955 0.062002 -0.000831
-0.466955 0.051976 0.069921
-0.466955 -0.008002 0.006447
-0.466955 0.035496 0.000123
-0.466955 -0.087849 -0.004680
-0.466955 0.037424 -0.041044
-0.466955 -0.050085 0.070172
-0.466955 0.066527 0.037668
-0.466955 -0.022813 -0.006159
-0.466955 -0.035687 -0.090029
-0.466955 0.009539 -0.018315
-0.466955 0.023909 0.002297
-0.466955 0.019535 0.068404
-0.466955 -0.014941 0.034494
-0.466955 -0.054861 -0.078767
-0.466955 0.054747 0.010198
-0.466955 0.060480 -0.051206
-0.466955 0.093904 0.011177
-0.466955 -0.079182 0.057119
-0.466955 0.079118 0.019150
-0.466955 -0.035316 -0.062070
-0.466955 0.076790 0.056898
-0.466955 0.024942 0.050182
-0.466955 0.062939 -0.040005
-0.466955 -0.074002 -0.053297
-0.466955 -0.028295 0.055415
-0.466955 0.053951 0.013426
-0.466955 -0.046244 0.060548
-0.466955 0.013225 0.073388
-0.466955 0.047081 0.008029
-0.466955 -0.006624 -0.050845
-0.466955 -0.034585 -0.047747
-0.466955 -0.093591 -0.011420
-0.466955 0.009872 -0.041676
-0.466955 0.073685 0.032003
-0.466955 0.005214 -0.054007
-0.466955 -0.000580 -0.097394
-0.466955 -0.064303 0.058443
-0.466955 0.048892 -0.026735
-0.466955 0.016273 0.018097
-0.466955 -0.005060 0.025450
-0.466955 0.003443 -0.058036
-0.466955 0.029984 -0.008979
-0.466955 -0.004314 0.012793
-0.466955 -0.066233 0.046800
-0.466955 0.016985 -0.014696
-0.466955 -0.027718 -0.011005
-0.466955 0.026240 -0.077539
-0.466955 0.019963 -0.016149
-0.466955 -0.012073 0.048517
-0.466955 0.095409 -0.015845
-0.466955 -0.051692 -0.012605
-0.466955 0.054021 -0.077834
-0.466955 0.044274 0.014318
-0.466955 -0.050744 0.008215
-0.466955 0.025572 0.085566
-0.466955 -0.091447 0.024850
-0.466955 0.000237 -0.027391
-0.466955 0.014914 -0.068330
-0.466955 0.041960 -0.037341
-0.466955 0.054064 0.051524
-0.466955 0.023176 -0.060159
-0.466955 -0.083998 0.051480
-0.466955 0.067692 -0.029839
-0.466955 0.022044 -0.009190
-0.466955 0.065018 0.030627
-0.466955 0.037418 0.027675
-0.466955 -0.002495 -0.091881
-0.466955 -0.091479 0.033641
-0.466955 -0.052594 0.008389
-0.466955 -0.038611 -0.049981
-0.466955 0.048682 -0.077228
-0.466955 -0.099018 -0.010309
-0.466955 0.055467 0.067940
-0.466955 -0.025236 -0.011446
-0.466955 0.014506 -0.006228
-0.466955 0.065298 0.040572
-0.466955 -0.084888 -0.029841
-0.466955 -0.014761 -0.096104
-0.466955 0.017964 -0.018130
-0.466955 0.074118 0.012557
-0.466955 0.057921 -0.067309
-0.466955 0.012062 -0.074170
-0.466955 0.048947 -0.071570
-0.466955 -0.037593 -0.080782
-0.466955 -0.006900 0.063896
-0.466955 0.013062 0.024846
-0.466955 0.056354 0.032915
-0.466955 -0.085913 -0.006613
-0.466955 -0.060408 0.057884
-0.466955 0.007894 0.015001
-0.466955 0.041540 0.060587
-0.466955 0.093298 0.003811
-0.466955 -0.078001 0.030944
-0.466955 -0.065828 0.027684
-0.466955 -0.051948 0.080071
-0.466955 0.052977 0.020654
-0.466955 0.038700 -0.055926
-0.466955 -0.057391 -0.005749
-0.466955 -0.026387 0.005497
-0.466955 0.027744 0.023237
-0.466955 0.046553 -0.055256
-0.466955 -0.024752 -0.093137
-0.466955 -0.017263 -0.080009
-0.466955 0.022456 -0.086889
-0.466955 0.051044 -0.065049
-0.466955 -0.037694 -0.021269
-0.466955 -0.086874 -0.007996
-0.466955 -0.050420 0.063915
-0.466955 -0.040763 0.047140
-0.466955 -0.012851 -0.040844
-0.466955 0.051618 -0.034178
-0.466955 0.027277 -0.073609
-0.466955 0.038066 -0.027344
-0.466955 0.037654 0.037896
-0.466955 0.010893 -0.038170
-0.466955 -0.049897 0.000762
-0.466955 -0.087818 -0.040436
-0.466955 -0.076005 0.059586
-0.466955 0.064584 0.038586
-0.466955 0.025778 0.090778
-0.466955 0.052251 -0.061463
-0.466955 -0.003217 -0.066526
-0.466955 0.016582 0.080798
-0.466955 0.017490 -0.042357
-0.466955 -0.022398 0.062262
-0.466955 0.014135 0.001542
-0.466955 -0.046905 -0.058588
-0.466955 0.009190 -0.051199
-0.466955 0.016811 -0.086241
-0.466955 -0.048247 0.016154
-0.466955 0.019770 -0.097605
-0.466955 -0.025044 0.030875
-0.466955 0.048004 -0.010426
-0.466955 -0.007062 0.055396
-0.466955 0.034505 0.020742
-0.466955 0.014973 0.058719
-0.466955 0.085742 0.021336
-0.466955 -0.079974 -0.050185
-0.466955 0.069277 -0.001610
-0.466955 -0.055623 0.076427
-0.466955 -0.007967 -0.064345
-0.466955 -0.084520 -0.036904
-0.466955 -0.052585 -0.034532
-0.466955 0.095358 0.018101
-0.466955 0.007699 0.068897
-0.466955 0.023241 -0.016362
-0.466955 0.018240 -0.080102
-0.466955 -0.084045 0.031267
-0.466955 -0.048580 0.063839
-0.466955 0.012773 0.030755
-0.466955 0.043903 -0.075508
-0.466955 0.054049 0.064607
-0.466955 -0.009698 0.078640
-0.466955 -0.050477 -0.076544
-0.466955 0.038503 -0.021267
-0.466955 0.033964 -0.078494
-0.466955 -0.012079 -0.021835
-0.466955 -0.054759 0.039546
-0.466955 -0.005572 -0.020799
-0.466955 0.008720 0.081601
-0.466955 0.033873 0.031757
-0.466955 -0.054040 -0.059018
-0.466955 -0.071806 0.030489
-0.466955 -0.054266 0.077321
-0.466955 -0.076186 -0.009738
-0.466955 0.042185 -0.048473
-0.466955 -0.090911 0.030464
-0.466955 0.025013 -0.053592
-0.466955 0.086511 0.008147
-0.466955 -0.030148 -0.050336
-0.466955 -0.091388 -0.009179
-0.466955 -0.032864 -0.078376
-0.466955 0.082357 -0.043575
-0.466955 -0.040221 0.080431
-0.466955 -0.058787 -0.046252
-0.466955 0.056381 -0.055437
-0.466955 -0.044741 0.005029
-0.466955 0.039843 0.079258
-0.466955 0.073858 -0.019347
-0.466955 0.073955 -0.007428
-0.466955 0.086587 -0.033728
-0.466955 -0.098385 0.010025
-0.466955 -0.030963 -0.043432
-0.466955 -0.059772 0.025412
-0.466955 0.019792 -0.026430
-0.466955 -0.009116 0.030306
-0.466955 -0.045682 0.064066
-0.466955 0.003974 0.085960
-0.466955 -0.075156 -0.024479
-0.466955 0.063608 -0.018483
-0.466955 0.005863 0.097741
-0.466955 -0.033978 0.046221
-0.466955 -0.071738 0.001389
-0.466955 0.009836 0.002697
-0.466955 -0.075816 -0.027740
-0.466955 0.068604 -0.031003
-0.466955 0.064630 -0.015045
-0.466955 -0.007048 0.091899
-0.466955 0.093455 0.007994
-0.466955 -0.025480 -0.031321
-0.466955 -0.020581 -0.046980
-0.466955 -0.082147 -0.002571
-0.466955 0.007453 -0.041810
-0.466955 0.014929 0.041910
-0.466955 -0.060592 0.019399
-0.466955 -0.004787 0.033950
-0.466955 -0.022505 -0.004428
-0.466955 -0.034916 -0.036265
-0.466955 -0.031087 -0.039836
-0.466955 -0.027750 0.071892
-0.466955 -0.045272 -0.021615
-0.466955 -0.037366 0.028638
-0.466955 0.020358 -0.053380
-0.466955 -0.057091 -0.007444
-0.466955 0.030603 -0.058661
-0.466955 0.031737 -0.088345
-0.466955 0.023067 -0.012090
