-0.301068 -0.094422 0.032329
0.277329 -0.022849 -0.096988
0.259387 -0.045778 -0.088486
-0.071463 0.022278 0.097531
0.129637 -0.002740 0.099980
0.096922 0.092592 -0.037511
0.060048 0.022923 -0.097024
-0.161850 -0.012328 -0.098927
-0.311851 0.014184 0.099037
-0.358138 -0.054407 -0.083477
-0.075695 -0.069606 -0.071290
-0.111466 -0.097869 0.019497
0.207039 0.053237 -0.084395
-0.081531 -0.020769 -0.097453
0.052219 -0.000027 0.100065
-0.240770 0.098704 0.015945
0.430448 0.096959 0.024612
0.241389 -0.060467 0.079542
-0.313959 0.070604 -0.070526
-0.315787 -0.099634 -0.004194
-0.325092 -0.069170 0.072089
-0.284559 0.083326 0.055366
0.225297 -0.014342 0.098975
-0.029150 0.079450 0.060801
-0.367974 -0.063559 -0.076780
-0.313272 0.082645 -0.056005
-0.336606 0.004411 0.099935
-0.082194 0.095006 0.031355
0.406558 -0.079003 0.061075
-0.060752 0.080141 0.059909
0.200211 -0.041524 0.090948
-0.278257 0.006994 0.099816
0.416203 0.092766 0.037472
-0.179863 0.083646 0.054896
0.171907 0.019170 -0.097863
0.229229 0.054308 0.084066
-0.407180 -0.016336 -0.098297
-0.223246 -0.034408 -0.093502
-0.431164 0.073434 -0.067628
-0.381529 -0.089425 0.044361
-0.002811 -0.043643 -0.089574
-0.029756 -0.061964 -0.078018
-0.083171 -0.093542 -0.034409
0.261053 0.087802 -0.047642
0.386778 -0.099653 -0.003610
-0.115811 -0.044945 -0.088911
-0.349798 0.012871 0.099245
-0.432782 0.063570 -0.076953
0.248775 0.011937 -0.098986
-0.417245 0.044760 0.089487
-0.084125 -0.067961 -0.072899
-0.069960 -0.008231 -0.099314
0.298470 -0.026174 -0.096148
-0.192724 0.018785 -0.097946
-0.329469 -0.014652 -0.098563
0.164486 -0.096335 -0.025687
-0.066488 0.099922 -0.002454
0.337930 -0.070198 0.071061
-0.165326 -0.090602 -0.041572
0.228362 0.061812 -0.078317
-0.353888 -0.097670 0.020387
-0.448757 -0.045888 -0.088430
0.034928 -0.059541 -0.079897
0.209468 0.086571 0.050126
0.339075 -0.046921 -0.087904
0.239056 -0.081366 -0.057545
-0.281593 0.087181 0.049096
0.170541 0.092198 -0.038422
-0.114372 0.082397 0.056733
0.100348 -0.058032 0.081377
-0.004869 -0.098967 0.012812
-0.155786 0.088890 0.045869
0.087263 -0.060847 0.079247
-0.386401 -0.070382 0.070877
0.343204 -0.019721 0.098050
0.405113 -0.096232 0.026407
0.445895 0.062037 -0.078142
0.337249 0.089936 0.043816
-0.331085 0.038862 -0.091838
-0.414730 0.084195 -0.053724
0.216177 0.085357 0.052180
-0.297356 -0.040899 -0.090856
0.224714 0.050638 -0.085932
-0.326688 0.093628 0.035184
-0.354600 0.092840 -0.036939
0.361907 -0.088651 0.045879
0.203897 -0.013183 0.099159
0.185487 0.099052 -0.013386
0.159714 0.034899 -0.093409
0.136517 -0.095198 -0.029600
-0.398031 0.056531 -0.082192
0.392940 -0.088820 0.045548
0.235955 0.085576 0.051810
-0.335426 0.010155 -0.099154
-0.317698 0.000620 0.100054
0.407080 0.045149 -0.088926
0.177719 -0.074831 0.066141
-0.419259 0.050900 -0.085778
0.309849 0.099877 0.004264
-0.130506 0.092757 -0.037130
0.052507 0.098673 -0.015774
0.391120 -0.077367 -0.062822
-0.276610 -0.096028 0.027108
-0.310483 -0.045972 0.088750
0.170492 0.084627 -0.053051
-0.358366 0.094684 -0.031886
-0.186247 -0.093177 0.035788
0.333370 -0.088817 0.045553
0.046225 -0.087843 0.047466
-0.232686 -0.081304 -0.057635
0.452220 -0.036075 0.093264
-0.357374 -0.007954 -0.099340
-0.426406 -0.071136 -0.069760
-0.128164 0.000640 -0.099691
0.319014 -0.096293 0.026194
-0.004373 -0.095392 -0.028933
0.227743 -0.084320 -0.053177
-0.164211 0.097542 -0.021642
-0.097789 0.099893 -0.003376
-0.154781 0.074950 -0.065909
-0.437300 0.010197 -0.099150
0.263800 -0.099735 -0.001009
-0.259500 0.075336 0.065834
0.278403 -0.095310 -0.029218
0.189562 -0.097125 -0.022463
0.187755 0.067767 0.073639
0.331862 -0.033184 -0.093942
0.192781 -0.046169 0.088650
-0.304261 -0.089459 -0.043931
0.444105 0.037975 0.092585
-0.288515 -0.099512 -0.006757
0.463789 -0.054114 -0.083676
0.127153 -0.098865 0.013454
-0.255178 0.080016 0.060071
-0.169624 -0.099284 0.009535
-0.181744 0.099826 0.005870
0.360049 0.099675 0.007859
-0.402107 0.089301 -0.044700
0.449206 0.097851 0.020623
-0.066675 -0.052301 -0.084811
-0.466248 0.014095 0.099051
0.305997 -0.097018 0.023302
0.333711 -0.010832 0.099431
-0.367615 0.015528 0.098824
-0.151983 0.090938 -0.041334
0.201984 0.089595 0.044485
-0.349226 -0.085476 0.051584
0.351285 0.073252 -0.067835
0.227369 -0.061013 -0.078755
-0.297633 -0.092020 -0.038294
-0.086056 -0.042132 0.090685
0.177900 0.099933 0.002476
-0.184735 -0.037354 -0.092390
-0.460141 0.093610 -0.034870
0.126271 0.088803 -0.045677
-0.003570 -0.004268 0.099932
0.125649 0.086943 0.049499
-0.309701 -0.061861 0.078461
0.022036 0.058513 0.081208
-0.454697 -0.061010 -0.078758
0.001346 -0.056895 -0.081786
-0.003570 0.074910 0.066317
-0.369085 -0.082954 -0.055207
-0.440280 0.079287 -0.060648
0.234167 -0.087975 -0.046844
-0.118550 0.037098 0.092965
0.287351 -0.055649 -0.082633
0.331681 -0.038775 0.092138
0.154981 0.060888 -0.079033
-0.091839 0.013396 -0.098799
-0.420827 -0.097052 -0.022788
-0.053537 -0.095159 0.030098
-0.465960 -0.085107 -0.051845
-0.044249 -0.096277 -0.025887
0.126624 0.095177 0.030838
0.393303 -0.094428 0.032312
0.158178 0.048884 0.087333
-0.017977 -0.099769 0.000092
0.043371 -0.095555 0.028735
0.047539 -0.097214 0.022427
-0.433380 0.068384 -0.072732
0.322032 0.088163 -0.046933
-0.159913 0.099856 -0.004577
-0.067131 0.032296 0.094709
0.258798 -0.052643 -0.084609
0.110919 0.045082 0.089323
-0.027652 -0.096891 0.023870
-0.000307 0.093141 -0.036172
-0.176633 0.080241 -0.059418
-0.374783 0.080223 0.059804
-0.291376 0.089303 -0.044696
0.172253 0.094798 -0.031570
0.323775 0.079058 -0.060943
-0.141665 0.002008 -0.099648
-0.389841 0.048841 0.087358
-0.390891 -0.062743 -0.077414
-0.132136 0.040831 0.091349
-0.064473 -0.069920 -0.070976
-0.250062 0.026231 0.096562
-0.266195 -0.086535 0.049793
0.194117 0.076132 0.064930
-0.046657 -0.074290 -0.066393
-0.038681 -0.086268 -0.049882
0.297261 0.052370 0.085271
0.209805 -0.048177 -0.087250
-0.297106 0.001255 0.100034
0.392320 0.076607 0.064392
0.419140 -0.039638 -0.091402
-0.111263 0.046698 -0.088136
0.007469 -0.020058 -0.097612
0.345553 -0.096524 0.025402
-0.074554 -0.086574 0.049727
-0.186233 -0.079074 0.060984
-0.114842 0.060393 0.079780
0.124547 0.020651 0.097895
-0.229471 0.091614 -0.039772
0.105674 -0.081929 0.057078
-0.063096 -0.022032 0.097534
0.433487 0.058114 -0.081117
0.396013 0.095195 0.030778
-0.068776 -0.087929 -0.046934
0.049306 -0.007337 0.099761
-0.414030 0.008520 0.099671
-0.122644 0.095914 0.028304
0.398447 -0.099393 -0.008010
0.088661 0.097075 -0.023732
-0.397653 -0.099666 0.003541
-0.058739 -0.083841 -0.053902
-0.167061 -0.098468 0.015961
0.160784 0.028141 0.096007
-0.059855 0.099889 -0.003524
-0.093711 0.093375 -0.035524
-0.453247 0.087149 -0.048787
0.381114 0.046743 -0.088114
0.273101 0.099086 0.013534
0.377962 -0.066886 0.074210
-0.185377 0.088003 -0.047247
-0.091326 -0.089482 -0.043886
-0.107552 -0.036094 -0.092895
0.443411 -0.070395 0.070864
0.216034 0.040635 -0.091071
-0.367914 0.063712 0.077206
0.053861 -0.099047 -0.011675
-0.222038 -0.012852 0.099211
-0.112860 0.097999 -0.019598
-0.163332 0.079496 -0.060378
0.408961 -0.050367 0.086318
0.135756 0.044169 0.089788
-0.412189 0.089501 -0.044307
-0.367679 -0.028302 0.095893
-0.233275 0.021379 0.097732
-0.033090 -0.023086 -0.096935
0.315188 0.042152 -0.090415
0.086675 0.032627 0.094589
0.132752 0.096174 0.027408
0.022964 0.098074 0.019622
0.252603 0.097175 0.023643
-0.034886 0.078756 -0.061332
0.284861 0.098959 0.014332
-0.333675 0.079420 -0.060476
-0.125210 0.082473 0.056621
0.021569 0.084288 0.053951
0.144267 -0.091099 -0.040423
-0.112233 -0.002945 -0.099611
-0.189120 -0.042917 -0.089944
0.234276 0.018158 0.098408
0.119577 -0.030637 0.095214
-0.356073 0.068823 0.072670
0.464680 -0.033540 0.094177
0.038183 0.034962 -0.093386
-0.305331 0.047167 -0.087898
-0.141280 0.003632 0.099959
-0.259528 0.068887 -0.072243
-0.426821 0.044919 0.089406
-0.026584 0.055267 -0.083051
-0.360918 0.083305 0.055397
0.341409 -0.092761 -0.036580
-0.270785 -0.052286 -0.084820
0.372748 -0.094519 -0.031697
-0.177880 -0.061133 0.079026
0.168254 0.096846 0.025095
-0.373971 0.015994 0.098750
-0.250754 -0.075562 0.065313
-0.413860 -0.069966 -0.070930
0.328629 0.044263 -0.089377
-0.226274 -0.095602 0.028573
0.443489 -0.051504 -0.085282
-0.312805 0.011764 -0.099002
-0.347895 0.050522 -0.086001
0.257748 0.082579 -0.056102
-0.285319 -0.098013 -0.018469
0.234007 -0.093742 -0.033855
-0.428869 -0.080734 -0.058475
0.064648 -0.077538 0.062964
0.031077 -0.089809 0.043608
-0.258301 0.064075 -0.076531
0.087975 0.082524 -0.056184
-0.403341 -0.091928 0.038870
-0.267429 0.066871 0.074429
-0.288349 0.010998 -0.099074
0.226149 -0.088299 -0.046208
0.411155 -0.067561 -0.073252
0.077205 -0.095899 0.027551
0.090368 -0.001610 -0.099653
0.127173 -0.030712 -0.094830
-0.085402 0.080592 -0.058966
0.325033 -0.089208 -0.044424
-0.164059 0.098563 0.016831
-0.136301 0.090632 0.042403
0.392574 0.099960 -0.001248
0.301402 0.008280 -0.099331
-0.326370 0.099891 -0.003468
0.019096 0.027668 0.096144
0.022361 0.099538 -0.008944
-0.320595 -0.047993 -0.087358
-0.133639 -0.015413 0.098805
-0.072823 0.056533 -0.082191
0.353187 -0.083176 -0.054880
-0.438365 0.010571 0.099477
0.092497 0.014234 0.099029
-0.095651 -0.094834 0.031186
-0.444427 -0.000903 0.100038
0.243242 0.097012 -0.024011
0.101185 0.087596 -0.048032
-0.088833 0.051779 -0.085258
0.301235 0.099638 0.008251
-0.035942 -0.083042 -0.055078
-0.303446 -0.073887 0.067212
-0.251816 0.094908 0.031628
-0.187191 0.049622 0.086896
0.317769 0.047311 -0.087824
-0.019138 0.037279 -0.092524
-0.025795 -0.098239 0.017403
-0.433962 -0.013469 -0.098751
-0.442425 -0.073318 -0.067495
-0.400853 -0.067688 -0.073140
0.206908 0.050043 0.086647
0.369749 -0.039209 0.091950
-0.435274 0.034407 0.093949
0.065850 0.007697 0.099749
-0.198444 -0.050383 -0.085946
0.221396 0.099914 0.003089
-0.138767 0.093024 0.036861
0.240980 0.086725 -0.049504
-0.312212 -0.077886 -0.062153
-0.208497 0.033999 0.094096
-0.188609 0.030779 -0.094878
-0.465669 -0.006690 0.099822
0.243755 0.027092 0.096312
-0.022307 -0.057958 -0.081064
-0.172716 -0.089421 0.044368
-0.390711 -0.099430 0.007985
-0.278211 -0.047857 -0.087427
-0.096820 0.070794 0.070698
0.423957 0.027961 -0.095697
0.046669 0.004609 -0.099566
0.240021 0.003743 0.099956
0.399482 0.099920 -0.002540
0.395318 0.097047 0.024218
0.081669 -0.009537 -0.099190
0.463859 -0.092854 0.036684
-0.434186 0.079417 -0.060480
-0.243017 -0.005398 -0.099534
-0.136985 0.089417 -0.044472
0.229411 0.091416 -0.040228
-0.287085 -0.096223 0.026438
-0.064836 -0.060181 0.079764
0.224312 -0.047097 0.088177
0.341656 -0.076742 -0.063611
0.347035 -0.098625 -0.014604
-0.397314 -0.079197 0.060826
-0.306745 0.078850 -0.061211
0.033838 0.096423 -0.026187
-0.382738 -0.065307 0.075602
0.112991 -0.025570 0.096686
0.042265 0.004988 0.099917
-0.197487 0.018830 0.098301
-0.097832 0.058212 0.081413
-0.194663 0.080858 0.058984
0.196756 -0.038564 -0.091866
0.071413 -0.025169 -0.096440
0.446700 -0.086993 0.049019
-0.009108 -0.065906 0.075074
0.377014 0.091616 -0.039767
0.404692 0.061259 0.079109
0.455666 0.009414 0.099587
0.151542 0.099880 -0.003797
0.326624 0.080298 0.059707
0.125689 -0.099770 0.000243
0.171366 -0.006919 -0.099438
-0.369480 -0.090470 0.042239
-0.338778 0.096776 -0.024972
0.225597 0.097777 -0.020588
-0.281367 0.036949 -0.092667
-0.150428 -0.099486 0.007393
0.141598 -0.018244 -0.097994
-0.455521 -0.051148 -0.085493
0.351621 0.096345 -0.026459
-0.458863 0.078016 0.062650
0.250279 -0.024114 -0.096706
-0.448851 -0.086355 0.050097
0.359602 0.064598 -0.076070
0.322134 -0.035103 -0.093251
-0.018942 0.017081 -0.098215
-0.007977 -0.028230 0.095913
-0.466008 0.099986 -0.000416
-0.466640 0.074161 -0.066804
0.134035 0.069666 0.071826
-0.073081 -0.089475 0.044263
0.013135 0.074019 0.067327
-0.429146 0.096978 0.024527
0.231111 0.000193 0.100068
0.370742 -0.099193 -0.010129
0.224484 -0.056230 -0.082238
0.030004 -0.069605 -0.071291
-0.072992 -0.092949 0.036421
0.051527 -0.072901 0.068330
0.227477 0.094078 -0.033569
0.275424 -0.099061 -0.011529
-0.063188 -0.059096 -0.080243
0.371355 -0.099354 0.008791
0.249756 0.059218 0.080692
-0.164525 -0.072325 0.068934
0.426194 -0.099048 0.012022
0.090234 0.095407 -0.029686
0.007138 -0.064294 -0.076132
-0.160621 0.097307 0.023053
0.446992 -0.072371 -0.068525
0.213950 -0.068066 0.073170
-0.421121 -0.086376 -0.049699
0.121284 0.091534 -0.039955
0.386642 0.094215 -0.033190
-0.316643 -0.099231 0.010092
0.300409 0.012417 0.099303
-0.006241 -0.022071 -0.097162
-0.303139 -0.070508 -0.070388
0.090932 0.030357 -0.095000
0.231522 -0.099734 -0.001025
-0.044192 -0.026204 0.096502
0.165512 -0.092449 -0.037303
-0.109303 0.041285 -0.090790
0.257705 -0.080962 0.058502
-0.241064 -0.098031 0.018718
-0.118608 0.043925 -0.089549
0.031722 0.083598 -0.054603
0.446859 -0.097610 0.020656
-0.080326 -0.013342 0.099134
-0.302481 0.088782 0.046080
-0.240117 -0.044725 -0.089023
-0.056757 -0.099615 0.005166
0.042785 -0.029918 -0.095060
-0.132708 0.038294 -0.092084
0.289894 -0.057585 0.081680
0.243450 -0.098420 -0.015900
-0.231065 0.027242 0.096268
-0.440022 -0.082578 0.056124
0.372557 -0.097356 0.021793
0.295681 -0.094738 0.031453
0.039404 0.049396 0.087030
-0.217643 0.081213 0.058476
0.340082 0.085386 0.052130
-0.287025 0.014093 0.099051
0.339722 0.009084 0.099618
-0.291292 0.017716 -0.098115
-0.127317 0.087646 0.048310
-0.444032 -0.098046 0.018626
-0.179482 -0.060633 -0.079050
0.368345 -0.049466 -0.086488
0.020441 -0.085987 0.050721
-0.266200 -0.071391 0.069868
0.373187 -0.069566 -0.071330
-0.052035 -0.090765 0.041556
-0.376632 -0.056899 -0.081783
-0.222342 -0.071612 0.069647
-0.068536 -0.079891 0.059931
0.268396 0.098188 0.019113
0.247237 -0.079104 -0.060583
0.150516 0.093257 -0.035849
-0.027509 0.099285 0.011987
0.221097 0.098990 0.014138
0.230766 -0.092787 0.036871
-0.137275 -0.098331 -0.016465
0.419084 -0.094911 -0.030589
0.285554 0.046407 -0.088285
0.422411 -0.083142 -0.054931
-0.156009 -0.088837 0.045515
-0.195140 -0.073410 -0.067390
-0.231044 -0.067618 -0.073202
-0.446886 0.006788 0.099835
0.254072 -0.039203 0.091953
0.316649 -0.094188 0.032979
-0.419438 0.069428 -0.071701
-0.205129 -0.099259 -0.009434
0.015540 -0.095251 0.029782
-0.061992 -0.007455 -0.099387
0.040541 -0.061245 0.078939
0.096613 0.075351 0.065816
-0.275861 0.099926 0.002704
-0.383720 0.009033 0.099623
-0.287775 0.099382 0.010958
0.393068 -0.085411 -0.051331
-0.089071 -0.077031 -0.063255
0.308146 -0.098794 -0.013541
0.037948 0.055107 -0.083160
0.038391 0.092517 0.038049
0.086598 0.099606 0.008591
-0.099123 0.089028 -0.045235
0.448265 -0.042235 0.090641
0.199755 -0.052381 -0.084764
-0.433169 0.098937 0.014473
0.411977 0.013417 0.099159
-0.196784 0.095665 -0.028798
0.194508 0.063891 -0.076693
0.372216 0.099981 0.000945
0.268725 -0.018820 0.098252
-0.184072 0.095882 0.028415
-0.137082 -0.029210 0.095629
0.292391 0.095770 0.028797
0.306693 -0.001923 -0.099643
0.104322 0.039908 0.091748
0.295406 -0.099666 0.003565
-0.144436 -0.098272 -0.016833
-0.160836 0.005989 0.099885
-0.016935 0.090528 0.042643
0.021435 -0.060375 0.079613
-0.105767 0.036210 -0.092937
-0.310297 -0.091851 -0.038685
0.315850 -0.033186 -0.093942
0.299143 -0.010610 -0.099089
-0.428293 0.038389 0.092406
-0.153799 0.077150 0.063765
0.078660 0.060654 -0.079215
0.371501 0.062953 -0.077432
-0.258979 -0.072117 0.069142
0.021602 -0.094097 0.033231
-0.430256 -0.088079 0.047003
-0.038092 0.040378 -0.091182
0.454970 0.000468 -0.099696
-0.369984 0.037661 0.092721
0.046277 -0.088252 -0.046301
0.372461 0.011618 0.099379
-0.050656 -0.096814 0.024216
-0.406229 0.041120 -0.090861
-0.318883 0.091417 0.040590
-0.365458 -0.034058 -0.093627
-0.224101 0.098769 0.015532
-0.247220 -0.071066 0.070193
-0.372617 0.021675 -0.097303
-0.010237 0.031060 -0.094791
-0.061646 0.073416 -0.067648
-0.303181 0.099868 -0.004188
0.361650 0.087087 -0.048892
-0.437136 0.083015 0.055824
0.044432 0.026856 0.096380
-0.000430 -0.085886 -0.050528
-0.150070 0.090513 0.042679
-0.294765 -0.086329 -0.049779
-0.006249 0.036077 -0.092985
-0.327656 -0.022193 -0.097135
0.401863 0.022704 -0.097073
0.269218 0.090851 0.041898
-0.345773 0.099946 -0.001703
-0.104873 0.088137 0.047347
0.274706 0.079104 -0.060883
-0.439865 -0.054890 -0.083149
-0.459384 -0.049667 0.086732
0.420212 -0.050753 0.086089
-0.454999 -0.034350 0.093885
0.214651 -0.060099 -0.079465
0.108896 0.095395 -0.029727
-0.453139 0.096134 0.027545
-0.400300 -0.024914 0.096877
-0.302661 -0.031448 0.094930
0.219240 -0.015482 0.098795
0.233119 -0.094686 0.031596
-0.163335 0.099406 0.010702
0.128444 -0.072751 0.068501
0.072186 -0.034309 -0.093537
0.426611 -0.093827 -0.033620
-0.465463 0.006761 0.099838
-0.246198 -0.068449 -0.072447
-0.019320 -0.037865 -0.092169
-0.038380 0.094948 0.031516
-0.222313 0.097708 -0.020900
-0.435960 -0.062707 0.077804
0.463973 -0.099636 -0.004137
-0.360024 -0.093757 -0.033814
-0.437389 -0.078684 0.061487
-0.244808 0.037960 0.092591
-0.154662 -0.003378 0.099960
0.334069 -0.048433 0.087461
-0.236098 -0.098701 -0.014126
0.215217 0.099961 0.001592
-0.062311 0.098534 -0.016655
0.096302 0.099584 -0.008458
0.358337 0.056046 0.082885
0.181925 -0.095095 -0.029957
-0.345287 0.039823 -0.091423
-0.372167 -0.097241 0.022308
0.173000 -0.072478 0.068781
0.418471 0.099931 0.002558
0.228275 0.018709 -0.097958
-0.022500 -0.071323 -0.069573
-0.033619 0.035681 -0.093127
0.160408 0.093568 0.035349
0.401975 -0.030631 0.095216
0.208249 -0.098302 0.017006
-0.261405 -0.009621 -0.099183
0.343140 0.092623 -0.037441
0.067253 -0.016961 0.098560
-0.140373 0.078206 0.062404
-0.287557 0.035151 0.093681
-0.070894 -0.043915 0.089798
-0.019391 0.043579 -0.089726
-0.327204 -0.054802 0.083571
-0.087174 0.052394 0.085257
0.278348 0.098338 -0.017893
-0.079714 -0.006258 0.099863
-0.282498 -0.032881 -0.094051
-0.466942 -0.096698 -0.024371
0.305426 0.087673 0.048257
0.441518 0.016953 -0.098236
-0.142091 0.046379 -0.088299
-0.083689 -0.093645 0.034489
0.433206 0.034338 0.093973
-0.434248 -0.073256 -0.067565
-0.200014 0.058019 -0.081182
0.004987 -0.081764 0.057322
-0.203373 -0.080723 -0.058490
-0.260586 0.076817 -0.063791
0.162757 -0.098540 0.015504
-0.035943 -0.040192 0.091525
-0.011947 -0.007430 -0.099390
0.173998 0.087181 -0.048732
-0.318574 -0.088928 -0.044974
-0.221281 -0.059625 -0.079832
-0.186132 0.098667 -0.015812
0.194303 0.037349 -0.092493
-0.408949 0.097698 -0.020944
0.226832 -0.063085 0.077511
0.465266 -0.023626 0.097177
-0.182438 0.044631 0.089552
0.283597 0.051506 -0.085419
0.330414 -0.002795 -0.099616
0.139989 -0.066729 -0.073986
0.390650 -0.098914 -0.012782
-0.005964 0.025925 -0.096288
0.345603 0.017612 -0.098131
0.080704 -0.035386 -0.093149
0.275236 0.046856 -0.088056
-0.086966 -0.088130 0.046902
-0.390915 -0.081042 0.058383
0.445320 -0.039105 -0.091632
0.418809 -0.096674 0.024842
0.307267 0.044473 0.089633
-0.352401 0.072144 0.069348
-0.334901 -0.097345 -0.021476
0.413231 -0.049622 -0.086396
0.399852 -0.028362 -0.095512
0.126275 0.073242 0.068209
0.428073 0.077724 0.063025
-0.264899 0.098936 0.014480
0.358804 -0.042722 0.090406
0.283375 0.056823 -0.081994
-0.389792 0.027672 0.096143
-0.247870 -0.066446 0.074598
0.249530 0.064043 0.076922
0.086384 0.020137 0.098009
0.132087 -0.093568 -0.034340
-0.134902 -0.040263 0.091494
-0.013417 0.012163 -0.098964
-0.271277 -0.036632 -0.092701
-0.139637 -0.077499 -0.062652
-0.243186 0.089541 -0.044228
-0.215306 0.099622 -0.008055
-0.188549 0.014643 0.098964
0.360260 0.008282 0.099694
-0.146871 0.070110 0.071382
0.241854 0.013082 -0.098849
0.188096 0.038887 -0.091828
0.111870 -0.071042 0.070217
-0.309856 -0.084362 -0.053104
-0.024767 -0.088243 -0.046319
0.155391 0.091532 0.040324
-0.062421 0.029435 -0.095268
-0.138818 0.094593 -0.032138
-0.194802 0.098174 -0.018813
-0.098612 0.030466 0.095332
0.167915 0.041725 -0.090600
0.220245 -0.063487 -0.076837
0.294527 0.031142 0.095124
-0.453864 0.071223 0.070269
0.021641 0.094021 0.034090
-0.323634 0.079418 0.060841
-0.202118 -0.059541 0.080260
-0.217020 -0.064170 0.076605
0.145926 -0.001984 -0.099641
0.397216 0.070702 -0.070427
0.288139 0.061303 0.079074
-0.403869 -0.074809 0.066166
-0.412326 0.070058 0.071434
0.343480 -0.053827 -0.083872
-0.253707 -0.097778 -0.019540
-0.106235 -0.098068 -0.018124
-0.209689 -0.073159 -0.067676
0.057760 -0.085639 0.051309
-0.446589 0.059897 -0.079802
0.077016 0.033470 -0.093923
-0.199586 0.071596 -0.069534
-0.274829 -0.079461 0.060485
0.050075 0.091397 -0.040274
-0.233679 0.008119 -0.099347
-0.152306 -0.076060 0.064748
0.240021 0.096889 0.024924
0.211691 -0.092247 0.038133
-0.396001 -0.084543 -0.052799
-0.076826 0.091770 0.039773
0.400808 -0.079852 0.059980
0.122231 -0.094422 0.032329
0.108786 0.081248 0.058425
0.346523 -0.029983 -0.095041
-0.161124 0.091958 -0.038976
0.021979 -0.011385 -0.099016
-0.074437 -0.081599 0.057565
-0.136274 -0.039364 -0.091520
-0.227194 -0.065132 0.075757
0.340562 0.057657 -0.081427
-0.110625 -0.087128 -0.048428
-0.150951 0.073505 0.067910
-0.393209 -0.021286 -0.097338
0.463777 -0.013232 -0.098788
-0.454212 -0.099720 -0.001487
-0.123619 0.049320 0.087075
-0.010709 0.062400 -0.077861
-0.200427 0.098845 0.015055
-0.089786 -0.015272 0.098828
-0.013906 0.018369 0.098374
-0.387952 0.099964 0.001495
-0.305402 0.032160 -0.094395
-0.205368 0.090620 -0.042069
0.187942 -0.050090 0.086482
-0.121402 -0.016005 0.098712
-0.234335 0.084617 0.053430
-0.302791 -0.054341 0.083885
0.282623 0.097100 -0.023616
0.344116 -0.096802 -0.023906
0.259017 0.043761 -0.089633
-0.056782 -0.031263 0.094996
-0.030108 -0.037387 0.092738
-0.105657 -0.072631 -0.068265
0.180213 0.040921 -0.090947
-0.451121 -0.090435 -0.041957
0.140569 0.021228 0.097765
-0.014240 0.094106 -0.033492
-0.005795 0.016545 0.098663
-0.030228 0.039347 0.091991
0.145520 -0.083383 -0.054576
0.186068 -0.046941 -0.087894
0.407506 -0.098360 -0.016280
-0.312951 0.049893 0.086736
0.011806 -0.030558 -0.094874
0.231231 0.076968 0.063982
-0.153980 0.058251 -0.081024
-0.122993 0.032038 -0.094439
-0.131214 -0.026864 -0.095947
0.366667 -0.006452 -0.099482
0.008495 -0.023505 0.097204
-0.230682 -0.012975 -0.098829
0.227751 -0.099296 -0.009037
-0.447980 0.096607 -0.025554
-0.034233 0.026305 -0.096178
-0.341059 -0.021001 -0.097401
0.300131 0.074809 0.066431
0.132289 0.011230 -0.099052
0.362757 -0.081788 -0.056923
-0.179191 -0.043386 0.090068
-0.101536 -0.041183 -0.090733
-0.223255 -0.093666 -0.034066
-0.205276 -0.011330 -0.099021
0.264319 -0.092070 -0.038179
0.317148 -0.098557 -0.015036
-0.038972 0.082396 0.056734
0.458163 -0.095776 -0.027612
0.389866 -0.015901 0.098728
-0.013341 -0.081887 -0.056777
-0.121209 0.089157 0.045344
-0.184552 -0.095352 0.029435
0.095219 0.023753 -0.096838
0.090234 0.082766 0.056191
-0.104517 -0.080914 -0.058210
-0.428525 0.093798 0.034711
-0.361013 0.096708 0.025570
-0.034432 0.098827 0.015167
0.143213 0.048167 -0.087388
0.315942 0.075493 -0.065293
0.271195 0.064734 0.076313
0.217766 0.099660 0.008021
0.105363 0.032261 -0.094359
-0.393970 -0.093839 -0.033587
-0.384081 -0.062724 -0.077428
0.042051 0.080259 0.059757
0.154538 -0.097387 -0.021288
-0.092119 -0.035990 0.093295
-0.242330 0.098646 -0.015946
-0.105518 0.043665 0.090045
0.122906 0.098127 -0.019022
0.401398 0.055984 -0.082564
0.113284 0.099385 0.010931
0.100765 0.099122 0.013307
0.304694 0.060440 -0.079381
-0.251488 0.088630 -0.046016
-0.069269 0.080494 0.059455
-0.118012 -0.054881 -0.083155
-0.006122 -0.021949 0.097552
0.460553 0.054352 -0.083673
0.009886 0.077854 0.062858
0.255762 0.085874 -0.050943
-0.143337 -0.010299 0.099481
0.347036 0.010424 -0.099129
-0.082432 0.089106 0.045445
0.269967 -0.099292 0.009447
0.424501 -0.027791 0.096041
-0.292668 0.039337 0.091996
0.417384 0.097973 0.020074
0.379218 0.004617 0.099929
0.196632 0.011302 0.099408
-0.060846 -0.081210 0.058136
0.024076 -0.016120 0.098693
-0.114242 0.041637 0.091000
-0.262163 0.096455 0.026440
-0.243394 -0.021458 -0.097299
-0.162542 -0.099208 0.010336
0.049475 -0.082429 -0.055979
-0.176360 0.052073 0.085447
-0.222340 0.004155 0.099943
0.381843 -0.090024 -0.042822
0.464779 0.076513 0.064499
-0.436894 -0.088786 0.045614
0.378271 0.099618 0.008464
0.036995 0.092483 -0.037764
0.289350 0.092982 -0.036611
-0.409091 0.021228 0.097766
0.369559 0.098031 -0.019453
-0.027865 0.085962 0.051156
-0.228317 -0.099099 0.011490
0.354299 0.074069 0.067270
-0.403609 -0.009031 0.099601
-0.248028 0.086583 0.050107
0.404892 -0.094906 -0.030607
0.398807 0.077431 0.063403
-0.131526 -0.099625 -0.004493
-0.246803 0.027824 -0.095736
0.056095 0.069333 -0.071797
-0.095171 -0.065298 -0.075248
0.387009 0.010370 -0.099134
0.076566 0.087754 -0.047736
-0.140824 -0.085643 0.051301
0.091771 -0.057794 0.081538
-0.368613 -0.098868 -0.013074
0.087727 -0.099048 -0.011665
-0.204258 0.095525 -0.029278
0.101216 -0.061393 -0.078461
-0.459659 0.003986 0.099948
0.391076 -0.046625 -0.088055
-0.182855 0.091534 -0.039957
-0.053617 0.005676 -0.099533
-0.114022 0.052187 0.085379
-0.444672 0.081980 -0.056984
-0.294746 -0.095414 0.029219
-0.169908 -0.068738 -0.072158
-0.336072 0.093269 0.036179
-0.230265 -0.054773 0.083591
0.019398 0.021841 0.097628
-0.153914 -0.047277 0.088085
-0.006622 0.048474 -0.087212
-0.213523 -0.077665 -0.062438
0.298238 0.039283 -0.091656
0.196911 0.090662 -0.041971
-0.321949 0.057266 -0.081693
0.436888 0.045465 0.089128
0.376622 -0.056904 0.082143
-0.218440 0.089726 -0.043866
0.210304 0.099750 0.007071
-0.042016 -0.090587 -0.041606
-0.303257 0.084210 0.054065
0.426150 -0.061511 0.078733
0.449309 -0.097342 -0.021492
-0.068919 0.030770 -0.094880
0.158187 -0.079804 0.060042
0.419700 -0.047332 -0.087694
0.276354 0.093254 -0.035859
-0.285067 0.093100 0.036650
0.086042 0.097412 0.022584
0.016280 -0.070792 -0.070104
0.178350 -0.026216 0.096499
0.262770 -0.089355 -0.044136
0.138109 -0.099123 0.011231
-0.270419 -0.057724 -0.081223
0.145762 -0.071507 -0.069389
0.252682 0.080443 -0.059157
0.167686 -0.049630 0.086754
-0.252185 0.018904 0.098285
-0.235774 -0.058468 0.081080
-0.295918 0.099884 -0.003671
-0.234397 -0.012046 0.099316
-0.394748 0.092878 0.037214
0.190556 -0.034084 -0.093618
-0.195879 -0.028829 -0.095377
0.374729 0.029987 0.095471
-0.315502 0.057862 -0.081288
-0.086014 -0.032016 -0.094363
0.464558 -0.014090 0.099015
0.439722 -0.098082 0.018398
-0.139612 0.029748 0.095540
-0.466576 -0.059751 -0.079735
-0.135985 0.052511 0.085188
-0.184073 -0.010911 -0.099061
0.314809 0.099502 0.009691
0.166379 0.095136 0.030981
0.342202 -0.026075 0.096540
0.073517 -0.010522 0.099460
-0.361463 -0.078831 -0.060935
-0.291938 -0.096306 -0.025787
0.268001 0.099908 -0.002928
0.191500 0.013881 0.099085
-0.047633 -0.023039 -0.096946
0.035958 -0.084594 -0.052712
0.207182 0.058988 -0.080507
-0.453093 0.057227 0.082082
-0.021150 -0.030402 0.095282
-0.195619 0.013176 0.099197
-0.381317 0.072924 0.068569
0.312509 -0.097642 -0.020148
-0.059080 -0.072804 -0.068078
-0.273217 0.094053 -0.033639
-0.341594 0.079049 -0.060955
0.310330 -0.064561 -0.075897
0.294442 0.077512 0.063298
-0.404250 0.009341 0.099594
0.014201 0.030965 0.095187
-0.103659 -0.095714 0.028187
0.094865 0.000144 0.100069
-0.030917 -0.099156 0.010886
-0.216889 -0.011839 -0.098973
-0.346765 -0.013974 0.099033
-0.061640 0.080643 -0.058899
0.465283 -0.060246 -0.079350
0.464151 0.060424 -0.079393
0.093297 -0.050611 0.086173
0.244669 -0.016767 0.098591
-0.369772 -0.068752 0.072507
-0.396740 -0.088006 0.047146
0.067589 0.060350 0.079814
-0.074178 -0.080570 -0.058693
-0.194652 0.076874 0.064089
0.409885 0.058608 0.081144
0.015427 0.093901 0.034423
-0.031671 -0.044243 -0.089269
0.201650 -0.092733 0.037010
-0.251946 -0.014454 0.098957
-0.078421 0.029044 0.095745
0.386646 -0.065650 -0.074936
0.389022 -0.007883 0.099710
0.095872 -0.029699 0.095487
-0.147619 -0.097172 0.022615
0.399112 0.098461 -0.017117
0.260591 -0.017384 0.098493
-0.317410 0.099500 0.009717
0.195121 -0.028991 0.095692
-0.250725 -0.099697 0.002580
0.222476 -0.081673 0.057455
0.257828 -0.033834 0.094071
-0.451613 -0.098995 -0.012219
-0.115058 0.056431 -0.082260
-0.207535 0.060162 0.079960
0.061091 -0.069880 0.071379
-0.145565 0.093491 0.035562
-0.033100 -0.074717 -0.065908
-0.339659 -0.068400 -0.072496
-0.036224 0.099968 0.001367
-0.308319 0.025119 -0.096522
0.016084 0.005210 -0.099547
0.010977 0.095305 -0.030038
0.160046 0.067865 -0.073190
-0.199722 0.097101 -0.023614
-0.347319 -0.098592 -0.014813
0.384590 -0.099275 -0.009258
-0.390011 0.028745 -0.095469
0.050170 -0.094601 -0.031468
0.320374 0.024814 0.096964
-0.029125 0.091013 0.041524
-0.255234 -0.089527 0.044161
-0.045603 -0.097617 0.020623
0.360139 0.011819 -0.098997
0.108001 0.099528 -0.009058
0.242571 0.091716 0.039898
0.283115 -0.055813 0.082885
-0.455768 0.083451 0.055182
0.411331 0.025900 0.096658
-0.296731 -0.026244 0.096490
-0.360172 -0.069922 -0.070974
-0.464664 -0.079264 0.060739
0.239165 -0.005760 -0.099523
0.365656 0.022497 0.097482
0.229670 -0.095567 -0.028330
-0.289902 -0.009750 -0.099170
0.195229 0.090508 0.042691
0.101916 -0.090527 -0.041745
0.211428 0.014259 0.099025
-0.411838 -0.044076 0.089716
0.411956 0.011256 -0.099050
0.419463 -0.077964 -0.062052
0.274056 -0.003801 0.099947
0.242857 0.044415 0.089662
0.047353 -0.066502 -0.074186
0.411268 -0.097179 0.022583
-0.023251 0.071837 0.069655
0.363934 0.078764 -0.061322
-0.159242 0.048301 -0.087315
0.437402 -0.034419 -0.093498
0.442366 -0.077453 0.063074
0.411697 0.077671 -0.062731
0.034733 0.073433 -0.067630
0.292877 0.083355 0.055324
0.005348 0.084881 -0.052622
-0.148882 0.045937 0.088887
-0.157040 -0.099596 0.005791
-0.168509 0.077522 -0.062922
0.337683 0.098476 -0.017018
-0.041629 -0.080560 -0.058705
-0.318143 -0.028245 0.095909
-0.181571 0.097880 0.020491
-0.333087 -0.097845 0.019602
-0.425261 -0.079729 0.060140
-0.073720 -0.078084 0.062261
-0.422156 0.045621 -0.088685
0.363000 -0.047424 0.088011
0.243608 0.088898 0.045852
-0.140456 0.097557 -0.021572
0.064677 -0.058896 0.080761
0.011476 0.014643 -0.098602
0.000040 -0.011043 0.099411
-0.452212 0.020696 0.097884
0.361988 0.099095 -0.013111
0.151634 -0.045963 0.088755
0.201397 0.012456 -0.098937
0.376940 -0.098443 -0.015755
0.203691 0.092426 -0.037896
-0.382973 0.069058 -0.072071
0.298012 0.084999 0.052785
-0.257037 0.087348 -0.048450
-0.070936 0.072958 0.068530
-0.175394 0.063807 0.077130
-0.160959 0.061373 -0.078657
-0.109898 0.053278 -0.084372
0.078085 -0.092350 -0.037531
0.266178 -0.071798 0.069460
-0.202479 -0.054557 -0.083375
-0.248002 -0.094081 0.033277
-0.445676 0.099872 -0.004049
-0.176251 0.068761 0.072731
-0.329745 -0.063720 0.077001
-0.193916 0.061511 0.078913
0.087790 -0.075544 0.065333
0.153868 0.042394 -0.090310
0.312806 0.093632 -0.034808
-0.264746 0.031826 0.094878
-0.273412 -0.065737 0.075223
0.002933 -0.089492 0.044230
0.148293 0.056755 0.082403
-0.090847 0.070678 -0.070451
0.129912 0.032336 0.094694
-0.153495 -0.061547 -0.078341
-0.423383 0.006779 0.099836
-0.279164 0.000600 0.100055
0.352678 0.007654 -0.099390
-0.132287 0.085231 -0.052030
0.440578 0.098329 -0.017952
-0.206451 0.091498 0.040403
0.147222 -0.020878 -0.097429
0.171794 -0.083580 -0.054286
0.438803 -0.098033 -0.018346
-0.296193 -0.050091 0.086481
-0.112135 -0.098168 -0.017489
0.123943 -0.041277 -0.090693
0.156134 -0.036303 -0.092819
-0.462746 0.024158 0.097110
0.201613 -0.081406 -0.057486
-0.271028 -0.055345 0.083202
0.014740 -0.015628 0.098772
0.056502 -0.044611 0.089444
-0.057965 -0.042797 0.090368
0.364422 0.060931 -0.079000
0.292332 -0.029516 -0.095177
-0.459198 0.087137 -0.048807
0.181394 -0.070625 0.070634
-0.321570 0.043246 -0.089895
0.094157 0.056596 -0.082148
0.194117 -0.067533 0.073640
0.064351 0.099453 -0.009850
-0.200508 0.088816 0.046015
-0.002138 -0.071320 0.069939
0.169833 0.092178 0.038831
-0.223017 0.085611 -0.051388
-0.059262 -0.076737 -0.063617
-0.465779 0.081010 -0.058412
-0.238595 0.049443 -0.086639
0.254449 -0.099706 0.002294
-0.010330 0.087568 0.048441
-0.237080 0.078109 -0.062166
0.365116 0.091853 -0.039220
-0.214710 0.097877 -0.020143
0.382602 -0.031656 0.094855
-0.236500 -0.034329 -0.093530
0.200466 0.029261 0.095682
0.346452 -0.099385 -0.008104
-0.321746 0.074814 0.066426
0.159446 0.056406 -0.082277
-0.118901 0.060593 -0.079263
0.177734 -0.094793 0.031299
0.300426 0.096861 0.025042
0.169920 0.051570 -0.085381
0.372311 -0.065103 0.075782
-0.411150 0.064262 -0.076367
-0.159546 0.086271 -0.050272
0.380009 -0.020341 0.097912
0.158464 0.015055 -0.098536
0.454226 0.083303 -0.055038
-0.066335 -0.001278 -0.099663
-0.083485 0.098450 0.017545
0.130947 -0.070080 -0.070816
0.405762 0.012834 -0.098888
0.262736 0.086595 0.050087
0.223215 0.085314 0.052252
-0.445969 -0.077183 0.063422
-0.378605 -0.013113 0.099170
-0.416315 0.041126 -0.090859
0.276069 0.059379 -0.080204
0.309452 0.055560 0.083215
-0.206295 0.067625 -0.073401
0.146757 -0.023069 0.097302
-0.227778 0.090328 0.043047
0.015977 0.072460 -0.068670
0.174632 -0.089759 0.043705
0.114095 0.092419 -0.037912
-0.219160 0.025625 0.096738
0.432487 -0.062432 0.078017
-0.252598 0.075817 0.065288
0.039881 0.023427 0.097274
0.117578 0.018692 0.098323
0.314393 0.025532 0.096765
-0.047014 -0.093018 0.036230
-0.012957 0.099929 -0.002249
0.157924 0.042644 0.090565
-0.236313 0.062328 -0.077917
0.054134 0.042032 0.090829
0.054184 -0.078807 -0.060965
0.021026 -0.077452 0.063076
0.079977 0.078716 0.061747
-0.214462 0.069801 0.071692
-0.242552 0.062937 -0.077444
-0.041442 -0.035412 -0.093140
-0.078518 0.095662 -0.028808
0.392665 0.035054 -0.093353
-0.324418 0.034466 -0.093565
0.060612 -0.095791 0.027922
0.119416 0.074734 -0.066153
0.377569 -0.066217 -0.074437
0.278197 -0.095079 0.030375
-0.445360 0.089598 -0.044116
-0.189024 -0.031701 -0.094476
0.042391 -0.009801 0.099528
-0.217180 -0.036296 -0.092822
0.256981 -0.025077 0.096830
0.238988 -0.056964 -0.081739
0.160185 0.029260 -0.095319
0.453914 -0.038086 -0.092073
-0.172265 0.008414 0.099681
0.118186 -0.043018 -0.089893
0.424735 -0.034401 -0.093504
-0.184942 0.025507 -0.096409
-0.092673 0.031201 -0.094740
-0.229145 -0.005319 -0.099536
-0.409239 0.096201 -0.026953
0.108128 0.053093 0.084843
-0.201972 0.093578 0.035323
0.287989 -0.034899 -0.093325
-0.106977 0.028465 -0.095550
-0.015907 -0.098875 0.013390
-0.074432 0.005200 0.099910
0.205948 -0.024839 0.096899
-0.196564 -0.036500 0.093111
0.051387 0.095319 0.030351
0.123531 -0.008166 0.099683
0.137619 0.078783 -0.061298
0.251697 -0.088737 -0.045348
-0.429744 -0.044967 0.089263
-0.278537 0.073895 0.067468
0.352752 0.004459 0.099934
-0.059953 -0.087648 0.047849
0.288073 0.004165 0.099943
0.335712 -0.099060 -0.011533
0.145195 0.013652 -0.098759
-0.365211 -0.054808 0.083567
-0.212115 0.089013 -0.045265
-0.251299 0.055431 -0.082940
-0.118315 -0.099433 0.007950
0.450764 -0.051160 -0.085486
0.072851 0.079899 -0.059859
0.125803 -0.086913 0.049154
-0.209369 -0.099685 0.002945
-0.425358 0.099165 0.013031
-0.071335 0.052861 0.084981
-0.012991 0.024378 -0.096699
0.457043 -0.064774 0.076072
-0.368354 -0.099474 0.007518
-0.169791 -0.092244 -0.037777
0.143262 0.059733 -0.079930
0.187703 -0.032120 0.094688
0.104393 0.090748 0.042136
-0.309402 -0.084243 0.053669
0.312609 0.002899 0.099983
-0.197230 -0.096833 -0.023769
0.186883 0.084864 0.053014
0.457098 -0.099583 -0.005824
-0.056022 -0.085071 0.052269
-0.127066 0.021358 -0.097374
0.002319 0.055935 0.082961
-0.208952 -0.097966 0.019060
-0.342598 -0.059357 -0.080040
-0.058533 -0.069336 0.071923
0.390979 0.090153 -0.043027
0.367354 -0.084577 -0.052742
-0.343299 0.074721 -0.066168
-0.374777 0.060483 0.079710
-0.401439 -0.066282 0.074743
-0.315426 -0.099117 -0.010935
0.400425 0.099881 0.004123
0.006296 -0.026698 -0.095996
0.109498 0.099878 0.004215
0.108466 0.095550 0.029555
0.238099 0.064748 -0.075938
0.303167 0.025864 -0.096306
0.301397 -0.085859 -0.050574
0.432459 0.089674 -0.043968
-0.043224 0.035480 0.093562
0.460993 0.086215 -0.050366
0.014156 -0.024720 -0.096570
0.161525 0.009174 -0.099247
0.165723 0.064443 -0.076207
0.127278 -0.044700 0.089399
0.256776 0.099600 -0.008295
-0.118390 -0.052749 0.084909
0.172234 -0.025344 0.096752
0.263676 0.014261 0.099025
0.099597 0.092501 0.038085
-0.007859 -0.047099 -0.087813
0.117819 0.038040 0.092557
0.072450 -0.069608 0.071651
0.132889 -0.037772 0.092572
0.293461 -0.062254 0.078156
-0.181883 0.012245 0.099319
-0.397330 -0.096105 0.026842
0.142194 0.098032 -0.019450
0.446293 -0.045906 -0.088421
0.303665 0.047694 -0.087629
-0.223631 0.099454 -0.009840
0.269092 0.051744 -0.085279
-0.310166 -0.096680 0.024816
0.244208 0.072857 -0.068272
-0.319932 -0.085862 0.050931
-0.324975 -0.092803 -0.036463
-0.202722 -0.029922 0.095422
0.050945 -0.048783 -0.086892
-0.314448 0.036349 0.093249
-0.095103 0.002455 -0.099634
0.193022 -0.020327 0.097915
-0.294552 -0.012146 0.099307
0.032659 0.059732 -0.079930
0.455376 -0.015382 -0.098448
-0.266771 -0.030760 0.095178
0.125704 0.081030 -0.058383
-0.020763 0.009569 -0.099209
0.424291 0.061909 -0.078241
-0.051991 -0.069599 0.071660
0.003393 0.099137 0.013212
0.186941 0.003286 0.099970
0.105925 0.014722 0.098952
-0.329910 -0.033181 -0.093943
0.320736 -0.091971 0.038769
-0.229990 -0.035271 -0.093191
0.005487 -0.074759 0.066223
-0.416166 0.099904 0.003403
0.299521 0.099823 -0.005626
-0.010365 0.080858 -0.058622
-0.270763 0.032227 -0.094371
-0.062637 -0.027945 0.095996
0.213038 -0.073127 0.068075
0.412603 0.088571 0.046496
-0.269873 0.020439 0.097942
0.446441 0.092038 -0.038793
0.148673 0.019045 -0.097891
-0.111994 0.074704 -0.066188
-0.135097 -0.099172 0.010719
-0.090049 0.037370 0.092847
-0.463834 0.097981 0.020040
0.013490 -0.068177 0.073072
0.397185 -0.098654 -0.014422
-0.012404 -0.049431 0.086871
0.359391 -0.003353 -0.099598
-0.054314 0.071513 -0.069617
0.456496 -0.099090 0.011587
0.178133 -0.007740 -0.099360
0.087688 -0.036205 -0.092855
0.274836 -0.089145 -0.044547
0.222113 -0.040466 -0.091043
-0.081981 -0.091234 0.040472
0.389355 0.054148 0.084175
0.153581 0.088103 -0.047050
-0.199619 -0.097985 0.018978
0.147699 -0.005084 0.099907
0.359520 -0.023772 0.097145
-0.034926 -0.002277 0.099995
-0.176909 -0.065667 -0.074922
0.282849 0.092689 -0.037288
-0.375699 -0.081734 -0.057002
0.218549 -0.085207 0.052038
-0.100033 0.030451 -0.094973
-0.305893 0.009331 0.099595
-0.306005 -0.087588 0.047965
-0.021145 -0.099398 -0.007958
0.030427 -0.079688 0.060192
-0.082788 0.054035 -0.083888
-0.381552 0.058207 0.081416
-0.344931 -0.026728 -0.095987
-0.374421 -0.075303 -0.065244
0.135184 -0.088892 0.045407
-0.061498 -0.090705 -0.041333
-0.356271 -0.096302 0.026164
-0.458984 0.099900 -0.003154
0.239341 -0.082780 0.055826
-0.351753 0.060239 0.079900
-0.466475 0.090322 -0.042696
-0.098556 -0.075729 0.065123
-0.441944 -0.099001 -0.012165
-0.315915 -0.097640 0.020519
0.347391 -0.032055 0.094712
0.037693 0.094808 -0.031541
-0.165068 -0.074505 -0.066149
-0.284256 0.097786 -0.020548
-0.269486 0.052878 0.084971
0.114870 0.099994 -0.000161
-0.298811 0.069404 -0.071726
-0.457272 -0.099061 0.011885
0.364274 0.061514 0.078911
0.307100 0.096080 0.027732
-0.076092 -0.013273 -0.098782
-0.464502 -0.095693 0.028260
-0.255283 0.070222 0.071270
0.220978 -0.097836 0.019642
0.324763 -0.096995 0.023407
-0.045052 -0.094178 -0.032645
0.276160 0.099849 -0.004806
-0.035016 0.066836 0.074460
0.344717 -0.014283 -0.098622
0.186896 -0.099623 0.004931
0.240423 0.070856 0.070637
0.233753 -0.096359 0.025967
0.045574 0.069447 0.072046
-0.349442 0.092528 0.038021
-0.187930 -0.028789 0.095751
-0.155925 0.056916 0.082293
0.346991 -0.011247 0.099392
0.214796 0.007922 0.099728
-0.060542 -0.025269 -0.096411
0.356697 0.077736 -0.062647
-0.015891 0.002235 0.100003
0.230178 -0.073686 0.067440
-0.366624 0.099506 -0.009291
-0.190832 0.053845 0.084380
-0.030332 0.021714 0.097657
0.420661 0.066193 -0.074664
-0.181228 -0.078837 -0.060926
0.335755 -0.025845 0.096606
-0.198173 0.067272 -0.073712
0.195389 0.083463 0.055164
0.419660 -0.020526 0.097870
-0.010695 -0.099747 0.000981
0.172892 -0.093136 -0.035537
-0.258281 -0.050040 -0.086148
-0.195162 -0.086551 -0.049404
-0.222399 0.086748 0.049827
0.137530 -0.077613 -0.062505
0.339629 0.051713 0.085659
0.356352 -0.049298 -0.086587
0.239483 -0.099059 -0.011550
-0.050472 -0.027511 0.096122
-0.384449 0.064658 -0.076017
-0.312240 0.018417 -0.098004
-0.260739 -0.005260 0.099901
-0.133631 -0.061771 -0.078167
0.270437 -0.082567 -0.055776
0.107868 -0.049560 0.086795
-0.001408 0.089386 0.044895
0.428686 0.072079 0.069414
0.422687 0.098544 0.016951
0.256826 -0.078909 -0.060834
-0.355597 -0.067384 0.073771
0.150390 -0.098872 -0.013049
0.356133 -0.079960 -0.059479
0.367210 0.035682 0.093490
-0.395128 0.099990 0.000661
0.297644 0.003020 -0.099616
0.218817 0.026740 0.096414
-0.286395 -0.084383 0.053432
0.376726 -0.099420 -0.007732
-0.179580 0.052763 -0.084676
-0.413221 0.050666 -0.085916
0.404940 0.048823 0.087369
-0.103280 0.068288 0.073180
0.416491 -0.064892 -0.075605
0.059727 -0.064766 -0.075716
0.387336 -0.080438 0.059226
0.463317 0.014768 0.098945
-0.260953 0.081352 -0.057908
0.438906 0.089222 0.045216
-0.016922 -0.016403 0.098649
-0.261631 0.036288 -0.092909
0.011635 0.037632 -0.092371
0.452024 -0.095920 -0.027116
0.042545 -0.050821 -0.085686
0.427623 0.093066 -0.036382
0.020138 -0.076697 -0.063662
-0.266749 -0.067017 -0.073732
-0.276917 0.018041 0.098426
-0.439074 -0.095709 -0.027844
0.416609 0.096415 -0.026217
0.156020 -0.098445 -0.015740
0.415323 0.094806 0.031910
0.031883 0.066718 -0.074201
0.457570 0.047862 -0.087544
-0.055168 -0.019243 -0.097794
-0.311520 -0.092390 0.037801
-0.100281 -0.047592 -0.087562
0.281460 -0.045786 -0.088482
0.048020 -0.098752 0.014168
0.059690 -0.037856 0.092535
-0.391465 0.095250 0.030589
-0.250979 0.014023 -0.098700
0.390835 0.099603 -0.008256
0.160021 0.073912 -0.067086
0.093822 -0.027426 -0.095784
0.137197 -0.084813 -0.052343
0.303140 -0.004773 0.099916
0.251184 -0.098461 0.016005
-0.320469 -0.073917 0.067179
0.005992 0.091717 0.039895
-0.350261 -0.031108 -0.094690
0.393061 0.017388 0.098530
-0.213180 0.067941 -0.073123
-0.001269 0.007846 0.099735
-0.038982 -0.092870 -0.036277
0.089924 0.051278 0.085917
-0.294905 -0.029251 -0.095254
0.329421 0.070805 0.070687
-0.337664 0.016108 -0.098370
0.150912 -0.028900 0.095719
-0.405754 0.001359 -0.099668
-0.434340 -0.030659 -0.094845
0.079722 0.084338 0.053877
0.207663 -0.066197 0.074817
0.023226 0.005235 -0.099546
-0.425229 0.083304 0.055399
-0.036818 -0.014625 0.098930
-0.457509 0.057731 -0.081377
0.024663 0.091433 -0.040191
0.093545 0.088537 0.046561
-0.391345 0.079728 -0.060079
-0.382565 -0.018445 0.098325
-0.405023 0.065768 -0.075039
0.215428 -0.098764 -0.013730
-0.422781 0.000132 -0.099707
0.092341 0.044832 -0.089087
-0.213961 0.038839 0.092211
0.093033 -0.091782 0.039207
0.089581 0.067196 0.074142
-0.137949 -0.047810 -0.087451
0.392337 -0.032165 0.094672
0.265799 0.033010 0.094452
0.104421 0.096474 -0.026014
-0.165199 -0.055924 -0.082447
-0.015340 -0.092179 0.038289
-0.193163 -0.017279 -0.098147
0.168400 -0.094917 -0.030571
0.006052 0.093610 -0.034870
0.143723 0.098664 0.016197
-0.073032 0.012591 -0.098924
-0.125124 -0.099762 0.000509
0.300026 -0.073974 0.067113
0.017777 -0.099590 0.005980
-0.161288 0.023228 0.097319
-0.390547 -0.085957 -0.050407
-0.323579 0.069636 0.071856
0.189818 -0.098781 0.013983
-0.095211 0.098755 -0.015259
-0.244549 -0.096476 -0.025204
0.084606 0.063266 0.077552
0.333581 -0.069133 -0.071763
-0.388192 0.099654 0.008081
-0.356301 -0.012500 0.099267
0.127529 -0.007178 -0.099413
0.203038 0.065354 0.075766
-0.289938 -0.041667 0.090887
-0.064742 -0.099247 -0.009555
-0.423736 -0.029924 0.095421
0.376452 -0.001563 -0.099654
0.261519 -0.095505 -0.028545
-0.230455 -0.053369 -0.084180
0.099387 -0.052595 0.085000
0.339958 0.039614 0.091876
-0.310075 0.067733 0.073669
-0.010130 0.096403 0.026622
0.084327 0.048870 0.087341
0.462426 0.075441 -0.065352
-0.121449 0.049985 -0.086319
0.314761 0.009716 0.099558
-0.023872 -0.071492 0.069767
-0.302074 0.064578 0.076450
0.345879 0.050173 0.086570
0.431943 0.100003 0.000117
0.337479 0.063589 0.077301
-0.203392 0.035888 -0.093053
0.280379 0.096860 0.025049
-0.445071 -0.025864 -0.096238
-0.168425 0.071157 0.070335
0.446492 0.084731 0.053238
-0.236204 -0.085401 -0.051348
0.035142 0.015243 -0.098507
0.215930 0.098504 -0.016846
-0.083886 -0.071043 0.070216
0.211509 -0.011964 0.099324
-0.153920 0.098966 -0.013925
-0.360966 -0.013804 -0.098698
0.208002 -0.096491 0.025512
0.222566 0.009777 -0.099190
0.230940 0.037721 -0.092332
0.078335 0.062844 0.077879
0.453976 -0.059873 0.080003
0.440275 0.047840 -0.087554
0.120545 -0.099610 0.005345
-0.260823 -0.014081 0.099016
0.225921 -0.076886 -0.063443
-0.400951 -0.044635 -0.089069
0.076273 -0.099016 0.012365
-0.001434 -0.001278 -0.099663
0.080031 0.093038 -0.036458
0.191886 -0.060238 -0.079357
0.414087 -0.098636 0.014899
0.185829 0.075779 0.065331
-0.418695 -0.097229 0.022358
0.292405 0.073482 -0.067574
-0.311787 -0.076573 0.064165
0.133990 0.023293 0.097304
0.447503 0.093812 0.034672
0.359407 -0.096764 -0.024077
-0.062379 0.039290 0.092016
0.356377 -0.077731 0.062715
0.239212 0.032201 0.094743
-0.379687 -0.092906 -0.036178
0.157800 0.096096 -0.027313
0.182927 0.098067 -0.019293
0.067011 0.085459 0.052007
-0.057303 0.000780 0.100049
0.414947 0.042111 0.090795
0.046282 -0.025484 0.096711
0.191898 -0.078689 -0.061117
-0.275427 -0.077036 -0.063249
0.429616 -0.094124 0.033156
-0.305443 -0.098345 -0.016372
-0.414600 -0.099556 0.006648
0.463370 0.010318 -0.099139
-0.263504 0.051808 0.085603
-0.260198 -0.081298 -0.057644
0.365809 -0.062647 0.077851
-0.329850 0.019421 0.098169
0.394789 0.051117 0.086012
-0.154436 -0.013649 -0.098722
-0.180898 0.060900 0.079387
-0.385969 -0.008198 0.099680
-0.412698 -0.074921 -0.065677
-0.293956 0.093432 -0.035364
-0.366398 0.023119 -0.096980
-0.068004 0.006963 -0.099456
0.306999 -0.093005 -0.035902
0.395920 0.039575 -0.091530
0.007144 0.021315 -0.097383
0.334412 -0.003956 0.099942
0.183446 0.060013 0.080075
0.096655 -0.096912 0.023776
-0.293887 0.046575 0.088562
0.286631 0.019816 -0.097718
0.014719 -0.055380 0.083178
0.340719 0.096889 0.024923
0.252183 0.071228 -0.069902
0.185558 0.024485 0.097038
-0.377375 -0.082716 0.055920
0.129767 0.097276 -0.022832
0.394488 -0.080848 0.058670
-0.094838 -0.010707 0.099443
0.106402 -0.073581 -0.067196
-0.398360 -0.098529 -0.015210
0.391169 0.098892 -0.014396
0.057257 -0.028038 0.095969
-0.040223 -0.052742 -0.084550
-0.026001 -0.007583 0.099738
-0.196934 0.006096 0.099882
-0.182781 -0.099683 0.002999
-0.360684 0.044959 0.089385
0.136447 -0.099699 0.002518
-0.424519 0.022000 0.097593
-0.361490 -0.085212 0.052030
-0.226481 0.016235 -0.098349
0.141146 -0.039806 0.091692
-0.014479 -0.099411 -0.007820
0.442106 -0.096762 -0.024086
-0.062697 0.064351 -0.076287
-0.142647 0.023746 0.097203
-0.441356 0.039679 -0.091485
-0.311332 0.046097 -0.088443
-0.135094 0.007522 0.099766
-0.184280 -0.089211 -0.044418
0.066014 0.006742 -0.099477
0.056673 0.036591 0.093162
0.194866 0.069845 -0.071284
0.078421 -0.098108 0.018231
0.241520 -0.099762 0.000488
-0.408008 0.010879 -0.099086
0.321423 0.099285 0.011983
0.186609 -0.073042 0.068171
0.441478 -0.088663 0.045856
-0.098640 -0.078949 -0.060783
-0.373170 -0.043656 0.089930
-0.279994 -0.098969 0.012800
-0.125293 0.077132 0.063789
0.289493 -0.027107 0.096240
0.108850 0.028351 0.095946
0.383488 0.091355 -0.040370
-0.149800 -0.044669 -0.089051
0.388366 0.048229 -0.087357
0.387530 -0.023714 0.097158
-0.016627 -0.034163 0.093953
0.151321 0.005857 0.099890
0.329184 -0.095401 0.029266
0.011579 -0.085608 -0.050998
0.223546 0.096286 -0.026660
0.292224 -0.087534 0.048073
0.439113 0.092683 -0.037300
0.083934 -0.099600 -0.005296
-0.385182 -0.021108 -0.097377
0.436902 0.097145 -0.023419
-0.032232 0.057258 -0.081698
-0.031159 0.095805 0.028679
0.026773 -0.007964 -0.099339
0.117704 -0.098173 0.017819
0.048350 -0.077171 -0.063074
0.103221 0.076354 -0.064316
-0.118537 0.094787 -0.031600
0.123689 -0.098035 0.018695
-0.059904 -0.096115 -0.026447
0.314376 0.082942 -0.055568
-0.346861 -0.092609 0.037297
-0.072370 -0.084924 -0.052154
0.182903 0.053194 -0.084421
0.144388 0.009079 0.099619
-0.438904 -0.019855 -0.097657
-0.204569 0.053232 -0.084398
-0.350887 0.013264 -0.098820
0.220147 -0.093891 0.033804
0.462054 0.098702 -0.015590
0.128647 -0.093607 0.034594
-0.186015 -0.044321 0.089592
0.297794 -0.004397 -0.099565
0.137812 -0.071175 -0.069721
0.126757 -0.083527 0.054728
