0.465339 -0.027646 0.061985
0.465339 -0.076371 -0.041693
0.465339 -0.034741 0.076289
0.465339 -0.002810 0.040979
0.465339 0.032247 -0.054011
0.465339 -0.026778 -0.046850
0.465339 0.021614 -0.064426
0.465339 0.079217 -0.037505
0.465339 0.051175 0.064946
0.465339 -0.004984 0.018771
0.465339 -0.073920 0.028064
0.465339 0.035803 0.072557
0.465339 -0.019328 0.020128
0.465339 -0.095517 0.011949
0.465339 0.000398 0.035997
0.465339 -0.016234 0.007003
0.465339 0.076224 -0.051207
0.465339 0.079201 -0.013794
0.465339 -0.087789 0.026465
0.465339 0.003431 -0.063686
0.465339 -0.083622 0.054118
0.465339 -0.009043 0.004903
0.465339 -0.008141 -0.093584
0.465339 0.068625 0.016177
0.465339 0.047595 -0.030587
0.465339 -0.020679 -0.058260
0.465339 0.071411 -0.059065
0.465339 0.007859 -0.027692
0.465339 0.056220 0.003797
0.465339 -0.050021 0.002924
0.465339 -0.024207 -0.052811
0.465339 0.050364 -0.053034
0.465339 0.059915 0.070350
0.465339 0.055004 0.045562
0.465339 0.039114 0.010394
0.465339 0.038641 0.023207
0.465339 0.078390 -0.017932
0.465339 -0.072680 -0.009320
0.465339 -0.032304 -0.029117
0.465339 0.032707 -0.080032
0.465339 0.049105 -0.043076
0.465339 0.021646 0.015109
0.465339 -0.074353 0.017075
0.465339 -0.018919 -0.013004
0.465339 0.090028 -0.009646
0.465339 0.036333 -0.018450
0.465339 -0.023159 -0.089623
0.465339 0.084214 -0.053066
0.465339 -0.034459 -0.041326
0.465339 -0.056883 -0.035343
0.465339 -0.056025 -0.081223
0.465339 -0.058954 0.005239
0.465339 -0.031652 0.030317
0.465339 -0.068829 0.066939
0.465339 0.062316 0.051186
0.465339 0.057065 -0.062146
0.465339 0.099639 -0.003924
0.465339 -0.091582 -0.032577
0.465339 0.034823 -0.032380
0.465339 -0.023985 -0.028328
0.465339 0.035177 -0.016457
0.465339 -0.016803 0.060282
0.465339 -0.032813 -0.076039
0.465339 0.051982 0.024947
0.465339 -0.022070 -0.026541
0.465339 0.055456 0.050052
0.465339 0.067155 -0.056423
0.465339 -0.018843 -0.088600
0.465339 0.058424 -0.070873
0.465339 -0.000759 -0.055346
0.465339 0.025760 0.031535
0.465339 0.051121 -0.027933
0.465339 -0.083916 -0.036326
0.465339 -0.062875 0.003406
0.465339 -0.019702 0.039551
0.465339 0.042681 0.030323
0.465339 -0.043186 -0.066183
0.465339 0.044199 0.049976
0.465339 0.025500 -0.059996
0.465339 -0.023455 0.085829
0.465339 0.037451 -0.070144
0.465339 -0.048454 -0.061591
0.465339 -0.077019 -0.012137
0.465339 0.057711 0.042519
0.465339 -0.082547 -0.036711
0.465339 -0.044422 -0.070477
0.465339 0.059019 -0.002247
0.465339 -0.006964 -0.007670
0.465339 -0.073606 0.049042
0.465339 0.070991 -0.039852
0.465339 0.075850 -0.021563
0.465339 0.041543 0.052752
0.465339 -0.071610 -0.049721
0.465339 -0.020663 0.012320
0.465339 -0.001097 -0.045526
0.465339 0.029223 0.019921
0.465339 -0.079050 0.028979
0.465339 0.032219 -0.025628
0.465339 -0.077273 0.022292
0.465339 0.022732 -0.011022
0.465339 0.057282 -0.053592
0.465339 0.015178 -0.041285
0.465339 -0.086859 -0.015599
0.465339 -0.015700 0.046499
0.465339 0.045551 -0.067526
0.465339 0.020089 0.032511
0.465339 0.036434 0.055161
0.465339 -0.055432 -0.030862
0.465339 -0.095194 0.024702
0.465339 0.030320 0.049479
0.465339 0.078890 0.056202
0.465339 -0.029559 -0.028165
0.465339 -0.018310 0.088935
0.465339 0.052862 -0.034643
0.465339 -0.026368 0.089359
0.465339 -0.094910 -0.027901
0.465339 0.054773 0.029404
0.465339 -0.067059 -0.042084
0.465339 -0.002790 -0.062872
0.465339 0.069093 0.063681
0.465339 0.068853 0.071370
0.465339 -0.000819 -0.040862
0.465339 -0.045352 -0.008213
0.465339 0.000056 0.045342
0.465339 0.031457 0.083416
0.465339 -0.072380 0.011749
0.465339 0.036686 0.043530
0.465339 -0.002543 -0.066101
0.465339 0.073478 -0.048210
0.465339 0.017763 0.088734
0.465339 0.044655 0.026976
0.465339 0.081599 -0.008113
0.465339 0.074710 0.042615
0.465339 0.040741 0.040385
0.465339 0.028567 -0.080517
0.465339 0.000295 0.023659
0.465339 0.015528 0.081182
0.465339 0.003963 0.052886
0.465339 -0.088411 0.021053
0.465339 -0.047518 0.044317
0.465339 0.070606 0.014289
0.465339 -0.089654 0.015432
0.465339 -0.038198 -0.007233
0.465339 -0.035360 -0.068735
0.465339 0.027164 -0.020453
0.465339 -0.090380 0.029042
0.465339 -0.019349 0.087693
0.465339 0.021554 -0.001028
0.465339 -0.036030 0.044628
0.465339 -0.022776 0.094278
0.465339 -0.097408 0.002866
0.465339 -0.095840 -0.011941
0.465339 -0.068314 -0.026089
0.465339 0.068201 0.029789
0.465339 -0.045389 0.003494
0.465339 -0.008238 0.075433
0.465339 0.009357 0.004764
0.465339 0.069336 0.037128
0.465339 0.089663 0.036482
0.465339 -0.036674 0.019522
0.465339 -0.031250 -0.001224
0.465339 -0.015846 0.051746
0.465339 -0.026719 -0.077088
0.465339 -0.049227 0.027620
0.465339 0.087132 -0.021004
0.465339 -0.050193 0.065426
0.465339 0.029645 0.051531
0.465339 -0.071410 -0.045876
0.465339 -0.051757 -0.084954
0.465339 0.024811 0.034497
0.465339 -0.025110 0.090124
0.465339 -0.024276 -0.060757
0.465339 -0.066910 -0.064575
0.465339 0.035379 0.000318
0.465339 -0.080451 -0.057368
0.465339 0.052324 0.013980
0.465339 0.031904 0.064024
0.465339 -0.045466 0.000679
0.465339 -0.034233 -0.014664
0.465339 -0.003017 0.085890
0.465339 0.049138 -0.072475
0.465339 0.058345 -0.016932
0.465339 -0.027561 -0.043876
0.465339 -0.086491 0.031602
0.465339 0.006131 -0.055828
0.465339 0.052005 -0.019270
0.465339 0.022207 0.095444
0.465339 -0.042901 0.083468
0.465339 0.033368 -0.043027
0.465339 -0.033730 0.093712
0.465339 0.071868 -0.024091
0.465339 -0.032927 -0.001035
0.465339 -0.038457 0.028724
0.465339 -0.007660 0.079712
0.465339 0.013323 0.022059
0.465339 -0.076087 0.008582
0.465339 0.069629 -0.062246
0.465339 0.042570 -0.001201
0.465339 -0.056414 -0.004404
0.465339 0.061591 -0.047570
0.465339 0.034956 -0.074922
0.465339 0.034584 -0.008226
0.465339 -0.005943 -0.082179
0.465339 0.046920 -0.078679
0.465339 -0.087512 0.007755
0.465339 0.007846 0.050884
0.465339 0.045321 -0.025660
0.465339 0.047340 0.038658
0.465339 0.093735 0.034407
0.465339 -0.018344 -0.054277
0.465339 0.052684 -0.038387
0.465339 -0.024920 0.084002
0.465339 0.055452 -0.017019
0.465339 -0.051923 -0.056874
0.465339 -0.093177 0.000878
0.465339 0.050038 0.040173
0.465339 -0.048643 0.081281
0.465339 0.076866 0.063814
0.465339 0.039446 0.077012
0.465339 0.043249 -0.059289
0.465339 0.083380 -0.032450
0.465339 0.068544 -0.020736
0.465339 0.091138 -0.016135
0.465339 0.005183 -0.041729
0.465339 0.020940 -0.004455
0.465339 -0.004777 -0.031029
0.465339 0.031588 0.029584
0.465339 -0.023176 0.011111
0.465339 -0.017975 0.034302
0.465339 0.004364 0.057156
0.465339 -0.045208 -0.050883
0.465339 0.057124 -0.077442
0.465339 0.062915 -0.050689
0.465339 0.030071 -0.077764
0.465339 -0.083536 -0.053428
0.465339 0.044043 0.003387
0.465339 0.032681 -0.063320
0.465339 -0.084352 0.000794
0.465339 -0.086304 0.026195
0.465339 -0.052189 0.083869
0.465339 -0.026834 0.092355
0.465339 -0.068465 -0.044442
0.465339 0.005763 -0.005959
0.465339 -0.018732 -0.055728
0.465339 0.004033 -0.031063
0.465339 -0.008798 -0.081403
0.465339 -0.031932 0.000140
0.465339 -0.063517 0.050918
0.465339 -0.009756 0.057853
0.465339 -0.051879 -0.045232
0.465339 -0.084342 -0.038807
0.465339 -0.039280 0.037927
0.465339 0.022849 -0.018191
0.465339 -0.043179 -0.044732
0.465339 -0.089939 0.030705
0.465339 -0.007983 0.064456
0.465339 -0.010567 -0.017457
0.465339 -0.055145 0.070213
0.465339 -0.095615 0.028121
0.465339 -0.065319 -0.022287
0.465339 -0.058576 -0.066904
0.465339 -0.031132 -0.019382
0.465339 0.026706 0.024245
0.465339 -0.012916 0.071227
0.465339 0.076508 -0.046489
0.465339 -0.007206 -0.027887
0.465339 -0.087799 -0.006169
0.465339 -0.071062 -0.024968
0.465339 -0.053167 0.069997
0.465339 0.073418 -0.020280
0.465339 -0.013737 -0.043484
0.465339 -0.074917 0.053453
0.465339 0.037691 0.011084
0.465339 0.044644 0.074640
0.465339 0.011053 -0.030066
0.465339 0.050710 0.075148
0.465339 -0.053925 0.056461
0.465339 0.023416 -0.083614
0.465339 -0.003662 -0.028362
0.465339 0.087110 0.049103
0.465339 0.088052 0.003855
0.465339 0.017971 -0.071296
0.465339 0.013437 -0.012546
0.465339 0.088292 0.019301
0.465339 0.008927 0.024308
0.465339 -0.041545 0.062103
0.465339 0.017107 -0.055881
0.465339 0.020623 0.000913
0.465339 -0.011900 0.043311
0.465339 0.095936 -0.007087
0.465339 -0.041010 0.006658
0.465339 -0.034639 0.034027
0.465339 -0.070296 0.006799
0.465339 0.045707 -0.023948
0.465339 0.089602 0.037879
0.465339 0.044393 0.054205
0.465339 -0.058400 -0.046188
0.465339 -0.085129 0.051744
0.465339 -0.093660 0.019719
0.465339 0.061568 -0.055184
0.465339 -0.071514 0.023607
0.465339 0.073151 -0.012639
0.465339 0.032957 0.059208
0.465339 -0.050967 -0.051234
0.465339 0.016374 0.033880
0.465339 -0.067329 -0.054196
0.465339 0.000646 -0.097799
0.465339 0.061017 0.028071
0.465339 0.008363 -0.086032
0.465339 0.074343 0.021257
0.465339 0.042437 0.026693
0.465339 -0.029318 -0.030917
0.465339 -0.000696 -0.080177
0.465339 -0.019464 0.022851
0.465339 0.043857 0.008763
0.465339 -0.067458 0.070068
0.465339 0.075607 0.000649
0.465339 0.005967 0.079629
0.465339 0.061354 -0.052467
0.465339 -0.004060 -0.061697
0.465339 0.000793 0.070310
0.465339 0.051619 -0.058266
0.465339 -0.002682 0.043399
0.465339 -0.019401 0.081561
0.465339 -0.022816 -0.030290
0.465339 -0.024592 -0.018084
0.465339 -0.014042 0.017193
0.465339 -0.090666 -0.011963
0.465339 0.040259 0.074183
0.465339 -0.037159 0.085305
0.465339 -0.013067 -0.009435
0.465339 0.053983 0.008159
0.465339 0.058662 0.020002
0.465339 -0.035315 -0.047668
0.465339 -0.061703 0.055979
0.465339 -0.044187 -0.058236
0.465339 -0.068992 -0.029843
0.465339 0.063224 0.046460
0.465339 0.091424 -0.007808
0.465339 -0.090870 -0.002694
0.465339 0.055849 -0.039556
0.465339 0.018584 0.047554
0.465339 0.074465 0.032570
0.465339 0.005686 -0.079332
0.465339 0.049388 0.023741
0.465339 -0.078417 -0.012557
0.465339 0.033829 0.061128
0.465339 -0.024617 -0.033820
0.465339 0.085687 0.044058
0.465339 -0.096205 0.000028
0.465339 0.001966 -0.059425
0.465339 0.009463 0.032712
0.465339 -0.002880 -0.017110
0.465339 0.024512 -0.011280
0.465339 -0.090125 -0.016266
0.465339 -0.068494 0.019416
0.465339 0.040682 0.018215
0.465339 -0.045131 -0.039477
0.465339 -0.096942 -0.004359
0.465339 -0.045581 -0.073507
0.465339 -0.076304 -0.025335
0.465339 -0.070952 0.049745
0.465339 0.059244 -0.012187
0.465339 -0.011436 -0.029342
0.465339 -0.056289 0.065852
0.465339 0.050883 0.036076
0.465339 0.025239 0.046199
0.465339 0.036715 0.061829
0.465339 -0.080526 -0.009535
0.465339 -0.008853 -0.017761
0.465339 -0.079281 -0.040162
0.465339 0.049481 0.032972
0.465339 -0.039910 -0.045585
0.465339 -0.069735 -0.050123
0.465339 0.018467 -0.002894
0.465339 0.031421 -0.036549
0.465339 0.072757 -0.010858
0.465339 0.054021 -0.001186
0.465339 -0.010171 -0.077256
0.465339 0.038430 -0.058914
0.465339 0.055903 0.057030
0.465339 -0.078055 0.041675
0.465339 -0.022260 0.032728
0.465339 -0.038809 -0.053212
0.465339 -0.048135 0.026730
0.465339 0.022490 0.037625
0.465339 -0.076360 0.053165
0.465339 0.000418 -0.010626
0.465339 -0.049912 0.077836
0.465339 -0.007153 0.027417
0.465339 0.074969 0.031023
0.465339 -0.072416 0.049650
0.465339 0.093262 0.028034
0.465339 -0.032747 -0.039807
0.465339 -0.002202 -0.085884
0.465339 0.001386 0.022671
0.465339 -0.082405 -0.014170
0.465339 -0.096462 0.019006
0.465339 0.001299 -0.022304
0.465339 -0.029910 -0.053882
0.465339 -0.007673 -0.020168
0.465339 0.070481 -0.067261
0.465339 0.031808 -0.022508
0.465339 0.024058 -0.085000
0.465339 0.045747 0.055224
0.465339 0.011582 -0.096386
0.465339 -0.078633 0.022818
0.465339 0.038109 -0.088447
0.465339 0.015786 -0.033020
0.465339 0.039178 -0.048723
0.465339 0.077547 -0.000323
0.465339 0.019796 0.022042
0.465339 0.054474 0.048857
0.465339 0.085847 0.030092
0.465339 0.032794 0.073620
0.465339 0.020623 0.081788
0.465339 0.028480 0.001563
0.465339 -0.000891 0.065928
0.465339 0.053892 -0.031797
0.465339 0.078799 0.016173
0.465339 -0.043124 -0.068975
0.465339 0.039929 0.054795
0.465339 0.042229 0.085700
0.465339 0.075668 0.024617
0.465339 0.045672 0.049421
0.465339 -0.036115 -0.007646
0.465339 -0.047837 -0.005626
0.465339 -0.075725 -0.034815
0.465339 0.076442 -0.007994
0.465339 -0.031128 0.014814
0.465339 -0.045142 -0.036806
0.465339 -0.038561 -0.028868
0.465339 -0.045805 0.074958
0.465339 0.002221 -0.092598
0.465339 0.009621 0.026881
0.465339 -0.013267 -0.018042
0.465339 -0.081043 0.050104
0.465339 0.073682 -0.058933
0.465339 -0.036378 -0.092204
0.465339 0.012071 -0.074762
0.465339 -0.023455 0.080988
0.465339 -0.010975 0.011779
0.465339 -0.043877 0.071675
0.465339 0.009885 0.062836
0.465339 0.008581 -0.064330
0.465339 -0.057945 -0.038434
0.465339 -0.039110 -0.035477
0.465339 -0.011218 0.098481
0.465339 0.048257 0.002820
0.465339 -0.038561 -0.085274
0.465339 0.011608 -0.009435
0.465339 0.015508 -0.021048
0.465339 0.065889 -0.032771
0.465339 -0.041191 -0.079419
0.465339 -0.077310 -0.034744
0.465339 -0.082362 -0.047586
0.465339 0.072685 0.043928
0.465339 -0.049628 0.059746
0.465339 -0.011966 -0.054432
0.465339 0.003643 0.031883
0.465339 -0.061081 0.078589
0.465339 -0.077435 -0.022917
0.465339 0.085339 0.004720
0.465339 -0.054755 0.073941
0.465339 0.022835 0.029901
0.465339 -0.020413 0.064588
0.465339 -0.004710 -0.047528
0.465339 -0.060750 -0.030093
0.465339 0.013696 -0.083800
0.465339 -0.029765 -0.000929
0.465339 -0.024426 0.041875
0.465339 -0.054792 -0.042212
0.465339 -0.045515 0.025543
0.465339 0.060625 0.074952
0.465339 0.016757 -0.087683
0.465339 0.038008 -0.074252
0.465339 0.020387 -0.041958
0.465339 0.018479 0.007621
0.465339 -0.087615 -0.037638
0.465339 0.027761 0.013912
0.465339 0.004844 -0.097157
0.465339 -0.016375 0.061606
0.465339 0.033598 -0.075149
0.465339 0.068050 0.062481
0.465339 0.060236 -0.016859
0.465339 -0.033575 -0.050860
0.465339 0.052945 -0.024178
0.465339 0.013795 -0.081653
0.465339 0.032627 0.071872
0.465339 0.022287 -0.076107
0.465339 -0.006667 0.078261
0.465339 -0.028075 -0.084651
0.465339 0.048420 -0.010329
0.465339 0.008230 -0.062673
0.465339 0.020491 0.042962
0.465339 0.045771 0.033239
0.465339 -0.062117 -0.018617
0.465339 0.008331 0.047198
0.465339 0.007148 0.063992
0.465339 0.040866 0.020280
0.465339 -0.062161 -0.052347
0.465339 -0.083149 -0.005058
0.465339 -0.074730 0.021554
0.465339 -0.045782 -0.029879
0.465339 0.004447 -0.007772
0.465339 -0.094910 0.022661
0.465339 -0.041287 -0.073632
0.465339 0.079074 0.025828
0.465339 -0.097917 -0.003278
0.465339 0.051489 -0.008342
0.465339 -0.094150 -0.011076
0.465339 -0.008559 0.000239
0.465339 0.046830 -0.040531
0.465339 0.006651 -0.015327
0.465339 -0.034688 0.088570
0.465339 0.072954 -0.065160
0.465339 0.013862 -0.095792
0.465339 0.011829 -0.079326
0.465339 -0.035577 0.056211
0.465339 -0.011131 -0.038333
0.465339 0.045297 0.080789
0.465339 -0.036168 -0.070395
0.465339 -0.075398 0.045199
0.465339 -0.068004 -0.018947
0.465339 -0.052694 0.037490
0.465339 0.024729 0.028473
0.465339 -0.022281 -0.002440
0.465339 0.018048 0.071019
0.465339 0.009553 0.065119
0.465339 -0.015003 -0.075468
0.465339 0.025821 -0.001698
0.465339 0.006260 -0.067935
0.465339 0.036012 0.048781
0.465339 0.097225 0.009624
0.465339 -0.006951 0.032665
0.465339 -0.019378 -0.068623
0.465339 0.020985 0.020932
0.465339 -0.055886 -0.075050
0.465339 -0.085699 -0.043055
0.465339 -0.006063 0.053038
0.465339 -0.034777 0.071480
0.465339 -0.090133 -0.028246
0.465339 -0.011616 0.025545
0.465339 -0.096918 -0.014691
0.465339 0.031214 0.022263
0.465339 0.056986 -0.021758
0.465339 -0.028713 0.022340
0.465339 0.033470 0.049882
0.465339 -0.059468 0.077115
0.465339 0.057611 0.003475
0.465339 0.030471 0.016902
0.465339 -0.022327 -0.029022
0.465339 0.067145 0.069550
0.465339 -0.022438 -0.092970
0.465339 0.069351 -0.050490
0.465339 0.037402 -0.054902
0.465339 -0.013099 0.038198
0.465339 -0.034586 0.059281
0.465339 -0.068945 0.037843
0.465339 0.055133 -0.040986
0.465339 0.060356 0.039443
0.465339 0.069915 -0.029258
0.465339 0.054327 -0.052202
0.465339 -0.008706 -0.014150
0.465339 -0.096160 -0.007109
0.465339 -0.089685 -0.043091
0.465339 -0.071895 0.010188
0.465339 -0.028694 0.052845
0.465339 -0.047083 0.050037
0.465339 -0.023477 0.065485
0.465339 0.050474 0.086390
0.465339 0.009989 -0.063113
0.465339 -0.053619 0.071532
0.465339 0.049368 0.026140
0.465339 0.007743 0.088290
0.465339 0.064951 -0.075634
0.465339 -0.002594 0.028838
0.465339 0.047810 0.058298
0.465339 0.062207 0.003354
0.465339 0.033885 -0.019099
0.465339 0.017900 0.001016
0.465339 -0.045201 0.042355
0.465339 0.063502 0.038284
0.465339 0.089918 0.026273
0.465339 0.019364 -0.025469
0.465339 0.009834 -0.054706
0.465339 -0.076608 0.057685
0.465339 -0.034034 -0.010958
0.465339 0.045849 -0.068936
0.465339 -0.029357 -0.083749
0.465339 -0.045409 0.050142
0.465339 -0.049357 0.006000
0.465339 -0.017087 0.077063
0.465339 -0.042929 -0.028528
0.465339 -0.061443 -0.003200
0.465339 -0.053193 0.001248
0.465339 0.045869 0.023551
0.465339 0.026447 0.009280
0.465339 -0.044257 -0.076728
0.465339 -0.044884 0.085059
0.465339 0.004520 -0.034603
0.465339 -0.092026 0.016961
0.465339 -0.000823 -0.093812
0.465339 0.029859 -0.072083
0.465339 -0.083636 -0.003447
0.465339 -0.075146 0.057977
0.465339 0.024006 0.014858
0.465339 -0.050186 -0.082510
0.465339 0.016018 0.094640
0.465339 0.059498 0.010921
0.465339 -0.062256 0.029288
0.465339 -0.038268 0.019407
0.465339 0.092267 -0.018297
0.465339 0.023217 -0.027564
0.465339 0.054754 0.054416
0.465339 -0.006394 -0.059079
0.465339 0.023188 0.048425
0.465339 -0.070560 0.042802
0.465339 0.013320 -0.065081
0.465339 0.014793 0.043058
0.465339 -0.032821 0.065669
0.465339 -0.083336 0.021782
0.465339 -0.042763 -0.077888
0.465339 0.014103 -0.074683
0.465339 -0.048156 -0.044314
0.465339 0.068058 -0.007517
0.465339 -0.087952 -0.030551
0.465339 0.061517 0.036698
0.465339 0.025626 -0.018924
0.465339 -0.025463 0.052219
0.465339 0.020471 0.050023
0.465339 0.033032 -0.032057
0.465339 -0.068089 -0.013632
0.465339 -0.078802 0.005992
0.465339 0.048704 -0.062214
0.465339 0.003834 -0.049122
0.465339 -0.048455 0.022280
0.465339 0.046054 0.057806
0.465339 -0.051836 -0.072986
0.465339 0.072355 0.004556
0.465339 0.007131 0.062601
0.465339 -0.053768 0.022908
0.465339 -0.094118 -0.024482
0.465339 0.015264 0.060378
0.465339 0.099210 -0.005373
0.465339 -0.032576 -0.031467
0.465339 -0.073420 0.002396
0.465339 0.008619 -0.012523
0.465339 -0.049857 -0.007170
0.465339 -0.016088 -0.084745
0.465339 -0.011756 0.049168
0.465339 0.069962 -0.071071
0.465339 0.010140 0.047126
0.465339 0.082879 -0.043900
0.465339 -0.015527 -0.063662
0.465339 0.004698 0.072201
0.465339 -0.042686 -0.024364
0.465339 -0.015809 0.004392
0.465339 0.029728 0.003091
0.465339 0.015863 0.017149
0.465339 0.084128 0.029580
0.465339 0.008611 -0.037007
0.465339 0.054944 0.027703
0.465339 -0.032953 -0.079484
0.465339 -0.005602 -0.035327
0.465339 -0.015905 -0.065888
0.465339 0.035474 -0.045165
0.465339 -0.039956 -0.067297
0.465339 0.041017 -0.054338
0.465339 -0.064116 -0.068344
0.465339 0.027095 -0.040651
0.465339 0.052119 0.043272
0.465339 0.027650 -0.007459
0.465339 0.053704 0.033030
0.465339 -0.047447 -0.001548
0.465339 0.027656 0.095835
0.465339 0.057943 -0.015174
0.465339 -0.073094 -0.007595
0.465339 -0.002601 -0.020563
0.465339 -0.023493 -0.086888
0.465339 0.042946 0.001864
0.465339 0.084343 0.047424
0.465339 -0.060218 -0.077272
0.465339 -0.028209 -0.088087
0.465339 -0.046451 -0.083838
0.465339 -0.075562 0.018096
0.465339 -0.041269 -0.038829
0.465339 0.015580 0.083615
0.465339 0.000620 0.026545
0.465339 0.077457 0.039744
0.465339 -0.070241 0.039024
0.465339 0.053253 0.084064
0.465339 0.070653 -0.026326
0.465339 0.090976 0.003809
0.465339 -0.011894 -0.013690
0.465339 0.050456 0.079411
0.465339 0.088170 -0.035947
0.465339 -0.048742 0.087173
0.465339 0.052858 0.051794
0.465339 0.075528 -0.015862
0.465339 -0.073538 0.059721
0.465339 0.048872 -0.022608
0.465339 -0.060015 0.029195
0.465339 0.046260 -0.038811
0.465339 -0.049043 -0.080731
0.465339 0.007928 -0.008505
0.465339 -0.006083 0.015753
0.465339 -0.079529 0.050394
0.465339 -0.073637 -0.000301
0.465339 0.055282 -0.070578
0.465339 -0.019726 -0.082107
0.465339 0.093838 -0.019951
0.465339 -0.074020 -0.051294
0.465339 -0.079241 -0.016022
0.465339 0.012003 0.029808
0.465339 0.027465 0.010349
0.465339 0.028771 0.004761
0.465339 -0.045892 -0.053836
0.465339 -0.058306 -0.027638
0.465339 0.020147 0.026832
0.465339 -0.081907 -0.024400
0.465339 -0.058862 -0.011929
0.465339 0.032919 -0.064706
0.465339 -0.061573 -0.077563
0.465339 0.031441 0.050715
0.465339 -0.028934 0.056220
0.465339 0.028971 -0.059291
0.465339 -0.097557 0.000991
0.465339 -0.048761 -0.022660
0.465339 -0.053935 0.010579
0.465339 -0.025665 -0.006369
0.465339 -0.058011 -0.009997
0.465339 -0.036822 -0.038679
0.465339 -0.050374 -0.005697
0.465339 0.004052 -0.004182
0.465339 -0.059045 -0.005524
0.465339 0.004115 -0.091187
0.465339 0.016083 0.061723
0.465339 -0.041757 -0.053926
0.465339 0.083961 0.011900
0.465339 0.090523 0.033912
0.465339 0.042069 -0.064893
0.465339 0.008644 -0.093562
0.465339 -0.055428 0.014897
0.465339 0.006487 0.041019
0.465339 -0.024018 -0.043859
0.465339 -0.094175 -0.009627
0.465339 -0.057580 0.021368
0.465339 -0.063207 -0.071100
0.465339 0.087147 0.018200
0.465339 0.060822 0.005000
0.465339 0.048661 0.004680
0.465339 -0.068903 0.054783
0.465339 0.081800 -0.032657
0.465339 -0.046197 -0.009771
0.465339 0.079926 -0.010763
0.465339 0.026886 0.080797
0.465339 -0.003273 0.016084
0.465339 0.002239 0.063172
0.465339 0.059654 0.064294
0.465339 0.067250 -0.050354
0.465339 0.057897 0.063465
0.465339 0.084078 0.022270
0.465339 -0.054276 0.037574
0.465339 -0.055810 -0.057392
0.465339 -0.049172 -0.017102
0.465339 -0.038628 0.091375
0.465339 -0.098568 -0.004621
0.465339 0.059062 0.080710
0.465339 -0.085282 -0.044742
0.465339 0.003455 0.061887
0.465339 0.087358 -0.001593
0.465339 -0.045686 0.016151
0.465339 0.074731 0.065782
0.465339 0.034816 -0.014692
0.465339 0.061205 0.002393
0.465339 -0.011193 -0.035320
0.465339 0.042937 -0.026946
0.465339 0.022090 -0.032202
0.465339 0.033184 0.014686
0.465339 0.068225 0.054224
0.465339 0.010095 0.061183
0.465339 -0.058449 0.053900
0.465339 0.020427 -0.086578
0.465339 -0.060584 -0.024786
0.465339 -0.045037 -0.088057
0.465339 0.071182 0.044709
0.465339 0.055564 -0.059482
0.465339 0.072730 -0.018230
0.465339 -0.003651 -0.060365
0.465339 -0.010616 0.044215
0.465339 0.053477 0.068291
0.465339 -0.070656 0.002653
0.465339 0.053446 -0.009481
0.465339 -0.076485 -0.053686
0.465339 0.074955 0.013317
0.465339 -0.053716 -0.031511
0.465339 0.048012 -0.059501
0.465339 0.060967 0.065180
0.465339 -0.034266 -0.024999
0.465339 0.009656 0.016223
0.465339 -0.073197 -0.041273
0.465339 -0.017827 0.018040
0.465339 0.063132 -0.045131
0.465339 0.063973 -0.027405
0.465339 0.059348 -0.049880
0.465339 -0.003299 0.057099
0.465339 -0.061820 -0.041208
0.465339 -0.077487 0.006976
0.465339 -0.003527 -0.067176
0.465339 0.012822 -0.031983
0.465339 -0.052682 -0.066755
0.465339 0.002011 0.046382
0.465339 0.066827 0.046532
0.465339 0.017644 0.044357
0.465339 0.046770 0.043612
0.465339 0.016330 0.079935
0.465339 0.013359 0.063563
0.465339 0.078216 0.031854
0.465339 0.023519 0.094903
0.465339 -0.004254 -0.097139
0.465339 -0.012557 -0.096248
0.465339 0.074754 -0.001469
0.465339 0.028958 0.073189
0.465339 -0.065635 0.032529
0.465339 0.005830 0.061003
0.465339 -0.054736 -0.046388
0.465339 -0.022688 0.020757
0.465339 0.042967 0.076217
0.465339 0.076824 0.035511
0.465339 0.055179 0.040057
0.465339 0.043457 0.034861
0.465339 -0.006209 -0.072497
0.465339 -0.030270 0.054986
0.465339 0.060064 0.035490
0.465339 0.040470 0.007964
0.465339 -0.070521 -0.031409
0.465339 -0.087239 0.003305
0.465339 0.054567 -0.006529
0.465339 -0.056769 0.026761
0.465339 -0.007665 0.098969
0.465339 0.018147 -0.092821
0.465339 -0.046941 0.061573
0.465339 0.068161 -0.035277
0.465339 -0.024331 0.016738
0.465339 0.031504 -0.020793
0.465339 0.087503 0.020499
0.465339 -0.038746 -0.030408
0.465339 -0.025940 0.060948
0.465339 0.044075 -0.086487
0.465339 -0.013033 0.080214
0.465339 0.033267 0.016358
0.465339 0.026712 0.027404
0.465339 -0.014899 0.040899
0.465339 0.023113 -0.029536
0.465339 0.049817 0.042327
0.465339 -0.080650 0.004075
0.465339 -0.086922 -0.036494
0.465339 0.031458 -0.050113
0.465339 -0.002251 -0.069010
0.465339 -0.052115 0.059129
0.465339 0.091784 0.022395
0.465339 0.003562 0.015813
0.465339 0.036863 -0.061620
0.465339 -0.039875 -0.060368
0.465339 0.044549 0.028448
0.465339 -0.017423 -0.085694
0.465339 -0.079794 -0.021749
0.465339 -0.087163 0.011519
0.465339 0.041150 -0.066041
0.465339 0.036675 -0.024407
0.465339 -0.003753 -0.083951
0.465339 0.035329 -0.020049
0.465339 0.007861 -0.096783
0.465339 0.065924 0.034398
0.465339 -0.085810 0.000179
0.465339 -0.020008 0.059938
0.465339 -0.070826 0.056867
0.465339 -0.090050 0.021012
0.465339 0.048289 -0.069952
0.465339 -0.018299 -0.028211
0.465339 0.041535 0.074840
0.465339 0.055661 -0.032828
0.465339 0.065583 -0.001045
0.465339 0.024451 -0.044971
0.465339 0.024204 0.096735
0.465339 0.073422 0.052776
0.465339 -0.030560 0.072454
0.465339 -0.044469 -0.005781
0.465339 -0.074391 0.050381
0.465339 0.040697 -0.052606
0.465339 0.040769 -0.049181
0.465339 -0.019775 -0.089779
0.465339 -0.036083 -0.016997
0.465339 0.025147 0.092565
0.465339 0.063589 -0.028981
0.465339 -0.042944 0.053194
0.465339 0.052378 -0.061811
0.465339 -0.026819 -0.079585
0.465339 0.049028 -0.013163
0.465339 -0.022030 -0.003778
0.465339 -0.007908 0.007765
0.465339 -0.033878 -0.037769
0.465339 0.006685 -0.082260
0.465339 -0.060377 0.013952
0.465339 -0.012961 -0.011127
0.465339 -0.095481 0.013309
0.465339 -0.046839 0.012850
0.465339 0.022850 -0.081022
0.465339 0.018195 -0.001107
0.465339 0.032512 0.040743
0.465339 -0.093977 -0.003399
0.465339 -0.065504 -0.058136
0.465339 -0.037015 -0.067192
0.465339 0.063587 0.016277
0.465339 0.060400 -0.072461
0.465339 0.002935 -0.039921
0.465339 -0.015638 -0.094296
0.465339 -0.087835 -0.040623
0.465339 0.002348 -0.052667
0.465339 -0.054312 -0.057602
0.465339 0.006049 -0.070888
0.465339 -0.082703 -0.055539
0.465339 -0.028708 0.079876
0.465339 -0.046117 -0.065493
0.465339 0.010657 -0.011318
0.465339 -0.009453 0.095109
0.465339 -0.032342 0.042696
0.465339 0.039671 -0.065033
0.465339 -0.087633 -0.009783
0.465339 0.063702 -0.047153
0.465339 -0.046294 -0.063757
0.465339 -0.055972 0.050075
0.465339 0.063782 0.062213
0.465339 -0.058335 0.018824
0.465339 -0.037656 0.034040
0.465339 -0.034612 -0.076401
0.465339 -0.061082 0.077206
0.465339 -0.046803 0.045940
0.465339 0.074478 -0.028920
0.465339 -0.034806 -0.056964
0.465339 0.041636 0.044713
0.465339 0.022430 -0.005126
0.465339 0.034255 0.018222
0.465339 0.081177 0.001983
0.465339 -0.001408 -0.039611
0.465339 -0.033792 -0.004205
0.465339 -0.051859 0.054038
0.465339 0.030818 -0.057663
0.465339 0.062572 -0.043284
0.465339 0.033622 0.085782
0.465339 0.015771 -0.049524
0.465339 -0.016675 -0.064616
0.465339 0.002408 0.057514
0.465339 0.091769 -0.024584
0.465339 0.024724 -0.080348
0.465339 -0.003645 -0.080912
0.465339 -0.019806 -0.046303
0.465339 0.041830 0.028809
0.465339 0.017170 0.032518
0.465339 -0.048855 0.039599
0.465339 0.020474 -0.010437
0.465339 -0.045732 0.068677
0.465339 0.071896 0.036204
0.465339 -0.006012 0.003274
0.465339 -0.022334 -0.023205
0.465339 0.061427 0.052736
0.465339 -0.022148 0.007268
0.465339 -0.059912 -0.002605
0.465339 -0.081679 0.036182
0.465339 -0.074750 0.014092
0.465339 0.069923 -0.048437
0.465339 -0.011327 -0.098677
0.465339 -0.079411 0.043173
0.465339 -0.011932 -0.094604
0.465339 -0.015249 -0.043020
0.465339 -0.052039 -0.070999
0.465339 -0.063123 -0.048627
0.465339 -0.069766 0.055833
0.465339 -0.062234 -0.064310
0.465339 -0.004039 0.004041
0.465339 -0.068848 0.031926
0.465339 0.048314 0.087199
0.465339 0.022274 0.083761
0.465339 0.057919 -0.050956
0.465339 -0.013460 -0.084808
0.465339 0.039634 0.047987
0.465339 0.010741 0.044017
0.465339 0.045126 -0.056120
0.465339 0.080509 -0.048419
0.465339 0.057458 0.027973
0.465339 0.095356 0.001280
0.465339 -0.032966 -0.025310
0.465339 -0.022948 -0.066699
0.465339 -0.081532 0.044909
0.465339 0.067890 -0.037244
0.465339 0.025950 -0.021299
0.465339 -0.077765 0.049992
0.465339 -0.063373 -0.063497
0.465339 -0.047083 0.032643
0.465339 -0.044919 -0.043136
0.465339 -0.003179 -0.047859
0.465339 0.013088 -0.073245
0.465339 -0.033011 0.002866
0.465339 0.035365 0.050340
0.465339 0.043631 0.090012
0.465339 -0.019049 0.062762
0.465339 0.033241 0.089800
0.465339 -0.075706 0.004293
0.465339 0.067332 0.045137
0.465339 -0.029676 -0.009276
0.465339 0.004386 -0.094166
0.465339 -0.054702 0.017076
0.465339 -0.029770 0.064618
0.465339 -0.020425 0.007482
0.465339 -0.020973 -0.038018
0.465339 -0.040937 -0.085894
0.465339 0.070661 -0.069733
0.465339 -0.057352 0.039275
0.465339 -0.034157 0.047280
0.465339 -0.061421 -0.050985
0.465339 -0.014447 0.073240
0.465339 0.019013 -0.019821
0.465339 0.091806 -0.003714
0.465339 0.035671 -0.087143
0.465339 -0.029809 -0.087544
0.465339 -0.027877 0.048352
0.465339 -0.006687 0.030996
0.465339 -0.052987 -0.008282
0.465339 -0.045520 -0.057682
0.465339 -0.013377 -0.083113
0.465339 0.081345 0.009860
0.465339 0.019916 0.076142
0.465339 -0.012814 -0.029421
0.465339 -0.006653 -0.042113
0.465339 0.014848 0.007025
0.465339 -0.058713 0.061806
0.465339 -0.063500 0.045186
0.465339 0.008464 0.072765
0.465339 -0.078668 -0.030937
0.465339 -0.023138 -0.032456
0.465339 -0.020629 -0.044835
0.465339 -0.060692 -0.001486
0.465339 -0.027897 -0.093491
0.465339 0.026094 0.096434
0.465339 0.091358 0.012143
0.465339 -0.073707 -0.028811
0.465339 0.007152 0.080617
0.465339 -0.021135 -0.067553
0.465339 -0.028449 0.015320
0.465339 -0.001505 -0.017251
0.465339 0.068351 0.035402
0.465339 0.088564 -0.024699
0.465339 -0.069382 0.051908
0.465339 0.044389 -0.022863
0.465339 -0.072980 -0.016796
0.465339 0.018827 -0.042048
0.465339 0.007949 -0.016607
0.465339 -0.027915 0.034453
0.465339 0.073222 -0.051820
0.465339 0.008196 -0.067684
0.465339 0.065238 -0.069976
0.465339 0.025364 -0.061549
0.465339 -0.010181 -0.096176
0.465339 0.063240 0.007564
0.465339 0.017169 0.064056
0.465339 0.006605 -0.057739
0.465339 0.073425 0.015183
0.465339 0.065013 -0.059891
0.465339 0.038927 -0.039640
0.465339 0.024183 0.032555
0.465339 0.014115 0.083630
0.465339 -0.054490 0.059753
0.465339 0.024971 0.075888
0.465339 -0.067520 0.042176
0.465339 0.023071 0.031305
0.465339 0.091222 0.018534
0.465339 0.049529 0.063679
0.465339 -0.082016 0.039028
0.465339 0.017411 -0.074862
0.465339 0.008330 0.029020
0.465339 0.074427 -0.044606
0.465339 -0.025067 0.078628
0.465339 -0.086734 -0.047706
0.465339 -0.064368 -0.003908
0.465339 0.089564 -0.043388
0.465339 -0.080638 -0.026061
0.465339 0.002819 0.071311
0.465339 0.049991 0.047004
0.465339 0.002474 0.082742
0.465339 -0.063802 0.025093
0.465339 0.010407 -0.024378
0.465339 -0.029190 -0.012198
0.465339 -0.019396 0.017349
0.465339 0.037059 -0.013555
0.465339 0.049256 0.036493
0.465339 0.089445 -0.040714
0.465339 -0.013043 -0.063703
0.465339 -0.062860 0.073297
0.465339 -0.016654 -0.078748
0.465339 0.024731 0.021399
0.465339 0.009153 -0.097809
0.465339 -0.016362 -0.090780
0.465339 0.061827 -0.067310
0.465339 0.093668 -0.028472
0.465339 0.020384 -0.062591
0.465339 0.015193 -0.031776
0.465339 -0.041261 -0.019794
0.465339 0.054037 0.071737
0.465339 0.004904 0.026851
0.465339 0.004423 -0.068427
0.465339 0.013057 -0.044601
0.465339 0.030685 0.063349
0.465339 0.072235 -0.068520
0.465339 0.055030 0.068571
0.465339 -0.086669 0.010113
0.465339 0.062651 -0.022321
0.465339 0.034015 -0.029128
0.465339 -0.011125 -0.049789
0.465339 0.014181 -0.093155
0.465339 0.058706 -0.061711
0.465339 -0.012826 -0.098321
0.465339 0.087525 0.040373
0.465339 -0.031434 0.088921
0.465339 0.057105 0.045137
0.465339 0.027742 -0.086273
0.465339 -0.033747 0.030375
0.465339 -0.048419 -0.033653
0.465339 -0.064085 0.011989
0.465339 -0.074338 -0.014089
0.465339 0.007327 0.079023
0.465339 0.025497 0.058394
0.465339 0.018814 0.095200
0.465339 -0.018995 0.082915
0.465339 0.053325 -0.065418
0.465339 -0.053355 0.012217
0.465339 -0.037068 -0.013887
0.465339 0.030368 -0.064753
0.465339 -0.011013 -0.060874
0.465339 0.000702 0.001368
0.465339 0.036670 0.080814
0.465339 -0.044356 -0.080517
0.465339 0.093032 -0.004718
0.465339 -0.002023 0.050686
0.465339 0.068586 0.019191
0.465339 -0.069276 0.043651
0.465339 -0.051809 -0.037535
0.465339 -0.028358 0.073620
0.465339 -0.049691 -0.008759
0.465339 -0.078540 -0.054251
0.465339 -0.071590 0.046389
0.465339 0.015032 -0.024385
0.465339 0.065841 0.038915
0.465339 -0.071940 -0.030591
0.465339 0.057730 0.061474
0.465339 -0.039686 -0.012904
0.465339 -0.054586 -0.061606
0.465339 -0.060613 0.011916
0.465339 0.035344 -0.003088
0.465339 -0.024167 0.059659
0.465339 -0.061786 0.064638
0.465339 0.097389 0.011376
0.465339 -0.028783 -0.038229
0.465339 -0.045052 0.006199
0.465339 0.010338 -0.053001
0.465339 -0.021394 -0.005088
0.465339 0.019418 0.083122
0.465339 0.009721 0.093835
0.465339 0.034613 -0.076988
0.465339 -0.063979 0.023284
0.465339 0.008063 -0.050983
0.465339 0.052209 0.039179
0.465339 -0.048647 -0.079303
0.465339 0.001211 0.080848
0.465339 0.050955 0.078070
0.465339 0.063957 0.034075
0.465339 0.077571 0.004134
0.465339 0.040609 -0.030795
0.465339 -0.026069 0.085326
0.465339 -0.049477 0.066734
0.465339 0.048861 -0.073927
0.465339 -0.011286 0.039712
0.465339 -0.032728 0.023483
0.465339 0.088982 0.034998
0.465339 -0.025574 -0.066653
0.465339 -0.010692 -0.080984
0.465339 -0.066101 0.026497
0.465339 -0.055191 -0.010612
0.465339 -0.056122 -0.070434
0.465339 0.008819 0.096234
0.465339 0.020194 -0.084127
0.465339 0.042641 -0.076379
0.465339 0.028355 0.064424
0.465339 0.020237 0.071915
0.465339 0.063367 -0.033039
0.465339 -0.023253 0.033842
0.465339 0.094203 0.032896
0.465339 0.023675 0.000804
0.465339 -0.083060 -0.010363
0.465339 -0.065612 0.065269
0.465339 -0.031769 0.028592
0.465339 0.050545 -0.019339
0.465339 0.094664 0.008614
0.465339 0.097078 -0.021181
0.465339 0.042002 0.039511
0.465339 -0.001538 -0.050036
0.465339 -0.086227 -0.021581
0.465339 -0.011823 0.032008
0.465339 0.019121 -0.052090
0.465339 0.064803 -0.020956
0.465339 -0.011174 -0.088661
0.465339 -0.002174 0.071954
0.465339 -0.002917 0.030742
0.465339 -0.061699 0.002432
0.465339 -0.030678 -0.084636
0.465339 0.038680 -0.061682
0.465339 0.076369 0.050372
0.465339 -0.063393 -0.030196
0.465339 0.065357 0.065179
0.465339 -0.001639 -0.063654
0.465339 0.025315 -0.065071
0.465339 -0.006295 0.061290
0.465339 -0.015016 -0.079487
0.465339 -0.025158 -0.087646
0.465339 -0.037830 -0.034435
0.465339 -0.033895 0.063935
0.465339 0.064338 0.070451
0.465339 0.033514 -0.010203
0.465339 -0.002808 -0.076908
0.465339 -0.068238 -0.036471
0.465339 0.003289 -0.005377
0.465339 0.062072 0.030011
0.465339 -0.063753 0.008573
0.465339 -0.078281 0.037654
0.465339 0.020135 -0.016722
0.465339 -0.024159 0.018650
0.465339 0.016872 0.013869
0.465339 0.084280 0.040011
0.465339 -0.039542 0.083575
0.465339 -0.025832 0.045413
0.465339 0.038300 0.042337
0.465339 0.063317 0.068259
0.465339 0.027552 0.020253
0.465339 -0.027678 -0.092005
0.465339 -0.027347 -0.033240
0.465339 -0.022681 0.090824
0.465339 -0.058697 -0.076197
0.465339 0.035967 0.022316
0.465339 0.005621 0.000514
0.465339 -0.066084 0.034397
0.465339 0.068311 -0.040103
0.465339 -0.064236 0.039681
0.465339 0.084004 0.050841
0.465339 0.064445 0.059185
0.465339 -0.066902 -0.062981
0.465339 0.047124 -0.016577
0.465339 -0.004696 -0.049134
0.465339 0.082088 -0.038322
0.465339 0.045328 0.002203
0.465339 -0.056543 -0.009616
0.465339 -0.066192 -0.074129
0.465339 -0.061591 -0.048538
0.465339 -0.007501 -0.079113
0.465339 0.092836 -0.015858
0.465339 0.036904 0.020673
0.465339 -0.045738 -0.086641
0.465339 -0.021092 -0.025338
0.465339 -0.011800 0.045530
0.465339 0.042266 0.006400
0.465339 -0.039630 0.009945
0.465339 -0.010957 0.002937
0.465339 -0.014827 0.010518
0.465339 0.047316 0.060227
0.465339 0.031127 0.034086
0.465339 -0.020987 0.036719
0.465339 0.015463 0.071805
0.465339 -0.036646 -0.087658
0.465339 -0.049651 -0.021140
0.465339 -0.022251 0.048201
0.465339 0.028785 0.029972
0.465339 -0.029264 0.000631
0.465339 0.076415 0.002634
0.465339 -0.002487 -0.005226
0.465339 -0.028488 0.024925
0.465339 -0.025878 -0.063107
0.465339 0.076847 0.012635
0.465339 0.011711 -0.076326
0.465339 0.003086 -0.033384
0.465339 0.060460 0.019195
0.465339 -0.031499 -0.069796
0.465339 0.027897 -0.058077
0.465339 -0.065924 0.011500
0.465339 0.000267 -0.049066
0.465339 -0.041614 -0.063241
0.465339 0.018017 0.005078
0.465339 -0.071103 -0.033736
0.465339 0.029735 -0.021040
0.465339 -0.003255 0.075450
0.465339 -0.009778 0.033720
0.465339 -0.004037 -0.089637
0.465339 -0.051674 0.023020
0.465339 -0.022058 -0.086179
0.465339 0.037082 -0.043879
0.465339 -0.029417 -0.068027
0.465339 0.025148 0.024650
0.465339 -0.042815 -0.079482
0.465339 0.056278 0.063550
0.465339 -0.031227 -0.081933
0.465339 0.024254 -0.066540
0.465339 -0.028141 0.026774
0.465339 0.046164 0.020157
0.465339 -0.024776 -0.094316
0.465339 -0.035036 0.068436
0.465339 0.087506 0.010495
0.465339 0.019482 0.070054
0.465339 0.028523 -0.020199
0.465339 -0.083204 -0.023381
0.465339 -0.005582 -0.036796
0.465339 -0.003296 -0.050669
0.465339 -0.074280 -0.005396
0.465339 -0.046787 -0.011642
0.465339 -0.065742 -0.000055
0.465339 0.085490 -0.019295
0.465339 0.032480 0.053505
0.465339 -0.016628 -0.095265
0.465339 -0.006959 -0.000316
0.465339 0.006482 0.020397
0.465339 -0.019013 -0.085117
0.465339 0.015090 -0.048280
0.465339 -0.045239 -0.001876
0.465339 -0.005883 -0.075353
0.465339 0.002715 -0.047069
0.465339 0.029405 0.087291
0.465339 0.065777 -0.043926
0.465339 -0.007194 -0.056624
0.465339 0.005504 0.059424
0.465339 -0.017462 0.087570
0.465339 0.014243 -0.000945
0.465339 -0.014883 -0.050299
0.465339 0.031399 -0.076038
0.465339 -0.003256 0.060336
0.465339 0.034456 -0.080411
0.465339 0.056434 -0.072679
0.465339 -0.018068 0.006060
0.465339 0.085876 -0.038083
0.465339 -0.027277 0.016184
0.465339 0.046552 -0.059345
0.465339 -0.060488 -0.072160
0.465339 -0.082646 0.049644
0.465339 -0.049046 -0.041687
0.465339 0.027807 0.078339
0.465339 -0.014982 -0.015648
0.465339 0.085989 0.020800
0.465339 -0.033548 0.091439
0.465339 0.006541 -0.016790
0.465339 0.069603 -0.036226
0.465339 -0.002544 0.037055
0.465339 0.069221 0.025716
0.465339 0.051615 -0.080638
0.465339 -0.023933 -0.054810
0.465339 -0.064522 0.033629
0.465339 -0.028976 -0.010793
0.465339 -0.064527 0.047796
0.465339 0.009769 -0.027803
0.465339 0.081979 -0.014114
0.465339 -0.009378 -0.075445
0.465339 -0.003197 0.062887
0.465339 -0.010071 -0.085070
0.465339 -0.042276 -0.074646
0.465339 -0.083928 0.045701
0.465339 0.083112 0.009333
0.465339 0.004103 -0.065306
0.465339 0.017904 0.035132
0.465339 0.011993 0.068706
0.465339 -0.004996 -0.071782
0.465339 0.001562 -0.006456
0.465339 -0.009220 0.003291
0.465339 -0.082956 0.027327
0.465339 0.056426 0.046919
0.465339 -0.069644 -0.042969
0.465339 0.030754 -0.014316
0.465339 -0.088876 0.006307
0.465339 0.067879 -0.041727
0.465339 -0.052924 0.032925
0.465339 -0.086082 -0.029874
0.465339 0.057134 -0.045735
0.465339 -0.024943 0.025524
0.465339 -0.088360 -0.027480
0.465339 -0.036666 0.046159
0.465339 0.011914 0.006424
0.465339 -0.000885 -0.076699
0.465339 0.048280 -0.050167
0.465339 0.073870 0.019299
0.465339 0.048866 -0.002817
0.465339 0.008114 0.032965
0.465339 0.000108 -0.054127
0.465339 -0.091075 -0.021068
0.465339 0.004116 -0.043931
0.465339 -0.031771 0.024977
0.465339 -0.014963 -0.090350
0.465339 0.013687 0.098863
0.465339 0.025468 0.071412
0.465339 -0.026730 -0.073388
0.465339 0.042904 -0.039447
0.465339 -0.037860 -0.002682
0.465339 -0.072064 0.025178
0.465339 -0.013109 -0.086657
0.465339 0.034376 0.004859
0.465339 -0.000560 -0.086611
0.465339 -0.085048 -0.025478
0.465339 -0.000800 0.063395
0.465339 0.049014 0.075906
0.465339 -0.065405 -0.060942
0.465339 0.076013 0.020424
0.465339 0.023266 -0.040993
0.465339 -0.031440 0.069004
0.465339 -0.003353 -0.082601
0.465339 0.091152 -0.040032
0.465339 -0.037810 0.010824
0.465339 -0.051799 0.008363
0.465339 -0.031944 -0.066054
0.465339 0.013681 0.075409
0.465339 -0.004761 -0.003544
0.465339 0.007348 0.059306
0.465339 -0.029284 0.045898
0.465339 -0.031617 0.070784
0.465339 0.009646 0.023097
0.465339 -0.024947 -0.031619
0.465339 -0.020483 -0.072069
0.465339 -0.042441 -0.047991
0.465339 -0.023726 -0.051405
0.465339 -0.066929 -0.006179
0.465339 -0.000963 0.059183
0.465339 0.046348 0.066777
0.465339 -0.016443 -0.033007
0.465339 0.081359 0.034300
0.465339 -0.006710 -0.034576
0.465339 -0.029882 0.032820
0.465339 0.041989 -0.081917
0.465339 0.001551 -0.054215
0.465339 0.064173 -0.051771
0.465339 0.073337 -0.024931
0.465339 0.046109 0.030971
0.465339 0.013415 0.025410
0.465339 -0.080478 -0.047192
0.465339 -0.004177 -0.069291
0.465339 -0.010617 0.041264
0.465339 -0.059354 0.015181
0.465339 -0.027603 0.087912
0.465339 0.003307 0.094507
0.465339 0.012934 -0.006497
0.465339 -0.028399 0.038518
0.465339 0.062070 -0.063653
0.465339 -0.062960 -0.019910
0.465339 0.005766 -0.087487
0.465339 -0.084809 -0.011414
0.465339 -0.001175 0.033487
0.465339 -0.031435 0.026295
0.465339 0.003479 -0.024173
0.465339 0.042469 -0.060895
0.465339 -0.016070 0.009689
0.465339 -0.086828 -0.003751
0.465339 0.051814 0.049949
0.465339 0.029952 -0.061921
0.465339 -0.050460 0.075257
0.465339 0.009308 0.084306
0.465339 -0.051812 0.063237
0.465339 -0.009346 0.087990
0.465339 -0.009017 -0.083902
0.465339 0.028035 -0.088833
0.465339 0.064003 -0.034728
0.465339 -0.087252 -0.012294
0.465339 -0.077954 0.061157
0.465339 0.081826 0.043036
0.465339 -0.043363 -0.089420
0.465339 0.022736 -0.095821
0.465339 0.021819 -0.006845
0.465339 0.020180 -0.020470
0.465339 0.045415 -0.062012
0.465339 0.033858 -0.013549
0.465339 0.084469 -0.044666
0.465339 -0.085536 -0.032974
0.465339 -0.003753 0.076839
0.465339 0.068340 -0.069005
0.465339 0.062252 0.020835
0.465339 0.000242 0.090711
0.465339 0.058612 -0.069017
0.465339 -0.068207 -0.016937
0.465339 -0.054938 0.035969
0.465339 -0.020898 -0.073595
0.465339 -0.033554 0.056905
0.465339 0.021043 -0.021627
0.465339 -0.011704 -0.064492
0.465339 0.077757 -0.011206
0.465339 0.086640 -0.035490
0.465339 -0.028360 -0.025849
0.465339 0.047287 -0.062538
0.465339 0.003771 0.035060
0.465339 0.056591 -0.013156
0.465339 -0.090665 0.009672
0.465339 0.001834 -0.077942
0.465339 -0.056991 0.054580
0.465339 0.037344 0.060550
0.465339 -0.072079 0.040063
0.465339 -0.013335 -0.061817
0.465339 0.036555 -0.005818
0.465339 0.065933 0.024191
0.465339 -0.024663 0.011697
0.465339 0.006431 -0.059183
0.465339 0.095736 -0.001405
0.465339 -0.001182 0.018892
0.465339 -0.063364 -0.074786
0.465339 0.025437 0.033092
0.465339 0.034170 0.029354
0.465339 -0.004723 0.002133
0.465339 -0.050024 0.056383
0.465339 0.003128 -0.010649
0.465339 0.081098 0.018930
0.465339 -0.005550 0.000560
0.465339 0.016659 -0.021883
0.465339 -0.069615 -0.037460
0.465339 0.071115 0.009431
0.465339 -0.063921 -0.053651
0.465339 0.049651 -0.069039
0.465339 0.029426 0.071360
0.465339 0.005456 -0.009610
0.465339 -0.038616 0.085115
0.465339 0.021746 -0.057538
0.465339 0.068696 0.011864
0.465339 -0.065088 0.004640
0.465339 -0.007655 -0.065200
0.465339 -0.046311 -0.035526
0.465339 -0.070117 0.067960
0.465339 0.007136 0.069724
0.465339 -0.001504 0.034935
0.465339 -0.025617 -0.044380
0.465339 -0.065251 0.006224
0.465339 -0.007743 0.003159
0.465339 0.021043 -0.013936
0.465339 0.027030 0.031032
0.465339 0.001933 -0.045593
0.465339 -0.026251 0.090917
0.465339 -0.064741 -0.070991
0.465339 0.016289 -0.073511
0.465339 0.016070 -0.036185
0.465339 0.006538 0.022213
0.465339 0.049484 -0.035829
0.465339 -0.026595 -0.088767
0.465339 0.045946 0.063222
0.465339 -0.017833 -0.096365
0.465339 -0.054961 0.051252
0.465339 -0.046383 0.019995
0.465339 -0.038107 -0.088137
0.465339 -0.049308 0.037038
0.465339 -0.000290 -0.068422
0.465339 -0.024273 -0.014318
0.465339 -0.040763 0.019068
0.465339 -0.055005 0.046666
0.465339 -0.085275 0.009713
0.465339 0.017221 -0.027094
0.465339 0.004606 -0.015863
0.465339 -0.030248 -0.075302
0.465339 0.037440 0.022276
0.465339 0.063371 -0.020890
0.465339 0.028076 0.033226
0.465339 -0.063435 -0.031902
0.465339 0.078906 0.001159
0.465339 -0.058078 -0.018112
0.465339 0.071414 0.041024
0.465339 -0.048011 -0.051232
0.465339 -0.026275 -0.059130
0.465339 0.019276 -0.045432
0.465339 -0.043722 0.015440
0.465339 0.002628 0.023973
0.465339 -0.027255 0.070594
0.465339 -0.059311 0.041530
0.465339 -0.062027 0.007519
0.465339 0.019713 -0.029568
0.465339 -0.089723 -0.014455
0.465339 -0.085566 -0.046685
0.465339 0.023853 -0.060231
0.465339 -0.083806 -0.048177
0.465339 -0.061986 0.017593
0.465339 0.064079 0.011705
0.465339 0.005471 -0.045891
0.465339 0.005856 0.087927
0.465339 0.052040 0.075638
0.465339 -0.005231 -0.042370
0.465339 0.085753 0.050567
0.465339 -0.015593 -0.096624
0.465339 0.004023 0.030161
0.465339 0.004972 0.036752
0.465339 -0.057596 -0.012590
0.465339 0.002071 -0.085869
0.465339 0.031899 -0.003643
0.465339 0.023345 -0.057803
0.465339 -0.038196 0.032083
0.465339 0.050533 -0.003536
0.465339 0.027530 0.036330
0.465339 -0.008149 -0.089708
0.465339 0.058828 0.006032
0.465339 -0.024673 0.031927
0.465339 0.066464 0.060086
0.465339 0.065077 0.075876
0.465339 0.068607 0.014636
0.465339 0.069389 0.070143
0.465339 -0.016732 -0.034712
0.465339 -0.012261 0.036721
0.465339 -0.061546 -0.031630
0.465339 0.072766 -0.044435
0.465339 -0.033937 -0.085165
0.465339 -0.040421 0.080908
0.465339 0.019033 0.063536
0.465339 -0.081394 -0.030517
0.465339 -0.067237 0.065329
0.465339 -0.022968 0.027550
0.465339 -0.028427 -0.074785
0.465339 0.046326 -0.019678
0.465339 -0.004363 0.053983
0.465339 0.073704 0.028000
0.465339 -0.084549 0.038307
0.465339 0.064437 -0.071291
0.465339 -0.057066 -0.000603
0.465339 -0.018290 0.049495
0.465339 -0.002281 -0.036601
0.465339 -0.014762 -0.085647
0.465339 0.069216 -0.052426
0.465339 -0.055393 -0.049736
0.465339 -0.024401 0.069347
0.465339 -0.012364 -0.053144
0.465339 -0.045447 0.088207
0.465339 0.037963 -0.023589
0.465339 0.064022 -0.019679
0.465339 0.043286 -0.063587
0.465339 0.012059 0.020984
0.465339 0.095862 0.016095
0.465339 0.039941 -0.006003
0.465339 -0.099025 -0.007481
0.465339 -0.046234 -0.031365
0.465339 0.066667 -0.012697
0.465339 -0.039673 0.023183
0.465339 -0.050238 0.062418
0.465339 0.013566 0.020338
0.465339 -0.088415 -0.035932
0.465339 -0.062068 0.061220
0.465339 0.024382 -0.001589
0.465339 -0.046175 0.009494
0.465339 0.032846 0.005858
0.465339 0.097750 0.003073
0.465339 -0.036478 -0.028700
0.465339 0.017897 -0.051025
0.465339 -0.082506 -0.044160
0.465339 0.056691 0.035944
0.465339 0.054354 -0.030310
0.465339 -0.022369 -0.087662
0.465339 0.017349 -0.094662
0.465339 -0.030077 -0.015164
0.465339 0.026217 -0.045626
0.465339 0.041721 0.035260
0.465339 -0.017481 0.009723
0.465339 0.062836 0.004675
0.465339 -0.018685 -0.094219
0.465339 0.023500 -0.075339
0.465339 0.077756 0.014959
0.465339 0.022514 0.061028
0.465339 -0.071996 0.041703
0.465339 -0.038244 0.055544
0.465339 0.085129 -0.028554
0.465339 -0.043662 0.006363
0.465339 -0.049516 0.035022
0.465339 -0.031770 -0.063123
0.465339 -0.072438 0.008383
0.465339 0.003052 0.081454
0.465339 -0.012388 -0.043977
0.465339 -0.033263 -0.035640
0.465339 -0.020355 -0.035995
0.465339 0.072114 0.054023
0.465339 -0.091510 -0.036057
0.465339 -0.011007 -0.067724
0.465339 -0.043514 0.009013
0.465339 0.041317 -0.083170
0.465339 -0.090066 0.034732
0.465339 0.066532 -0.059872
0.465339 0.039568 0.033811
0.465339 -0.010647 0.088859
0.465339 -0.019574 -0.053002
0.465339 0.056400 -0.035590
0.465339 -0.057931 0.050284
0.465339 -0.027055 0.017905
0.465339 -0.088279 -0.029037
0.465339 0.021489 -0.019687
0.465339 0.028131 -0.071506
0.465339 0.082314 0.051382
0.465339 -0.008150 0.081005
0.465339 0.037843 -0.060541
0.465339 -0.049593 0.070186
0.465339 0.048178 0.015741
0.465339 0.005663 -0.065863
0.465339 0.052866 0.003503
0.465339 -0.025788 -0.019040
0.465339 -0.028563 -0.034153
0.465339 0.045075 -0.008825
0.465339 -0.046287 0.051228
0.465339 -0.063028 0.046620
0.465339 0.093604 0.003898
0.465339 0.011766 -0.039416
0.465339 -0.006251 0.080646
0.465339 0.021873 0.097387
0.465339 -0.006424 -0.048318
0.465339 0.052014 -0.042884
0.465339 0.012549 0.035775
0.465339 0.022728 -0.030927
