-0.466955 0.071927 0.040583
-0.466955 0.024377 -0.034953
-0.466955 -0.001848 0.001281
-0.466955 -0.049374 -0.038005
-0.466955 -0.034431 0.075732
-0.466955 -0.009459 0.056142
-0.466955 -0.024927 -0.021684
-0.466955 -0.058797 -0.039784
-0.466955 -0.036487 -0.030810
-0.466955 -0.042836 -0.089928
-0.466955 -0.093196 -0.013016
-0.466955 -0.000027 -0.004108
-0.466955 -0.040826 0.045259
-0.466955 0.057673 0.069531
-0.466955 -0.098497 0.014982
-0.466955 -0.023348 -0.026172
-0.466955 0.078340 -0.052376
-0.466955 -0.065033 0.004758
-0.466955 -0.000177 0.085555
-0.466955 -0.054759 -0.061012
-0.466955 -0.087068 0.042082
-0.466955 0.084942 0.018021
-0.466955 -0.034919 -0.014524
-0.466955 0.001637 0.087913
-0.466955 -0.094010 -0.027034
-0.466955 -0.021123 -0.012948
-0.466955 0.011659 0.011677
-0.466955 0.027629 0.067044
-0.466955 0.053911 -0.002342
-0.466955 -0.071994 0.010248
-0.466955 0.081244 -0.009881
-0.466955 0.062519 0.053614
-0.466955 0.042227 0.048847
-0.466955 0.068821 -0.018541
-0.466955 0.022209 0.093457
-0.466955 0.043907 0.087484
-0.466955 0.070265 -0.032103
-0.466955 -0.066466 -0.011088
-0.466955 -0.010352 -0.012268
-0.466955 0.007645 0.040659
-0.466955 -0.084452 -0.029337
-0.466955 0.027311 -0.010678
-0.466955 -0.041328 -0.039263
-0.466955 0.079014 0.015540
-0.466955 -0.038156 0.059804
-0.466955 -0.009582 0.016917
-0.466955 -0.058522 0.003752
-0.466955 -0.006245 0.097236
-0.466955 0.003509 0.096294
-0.466955 -0.029023 -0.062282
-0.466955 -0.097726 -0.018448
-0.466955 -0.028947 -0.082454
-0.466955 0.075151 0.016696
-0.466955 0.051653 0.075397
-0.466955 0.054038 0.029231
-0.466955 -0.020979 0.059311
-0.466955 -0.020286 0.014351
-0.466955 -0.002085 -0.059898
-0.466955 0.029083 0.080956
-0.466955 0.003721 0.087196
-0.466955 0.054881 0.034007
-0.466955 0.088607 -0.009264
-0.466955 0.009694 0.038036
-0.466955 0.024112 -0.038880
-0.466955 -0.037500 0.055061
-0.466955 0.043724 -0.045342
-0.466955 0.059360 -0.038973
-0.466955 0.032428 -0.054232
-0.466955 0.083593 0.003403
-0.466955 -0.030081 0.009079
-0.466955 0.028375 0.061651
-0.466955 0.015991 -0.049501
-0.466955 -0.033163 -0.033279
-0.466955 0.009677 0.054658
-0.466955 0.002474 -0.000419
-0.466955 -0.043285 0.056011
-0.466955 -0.055704 0.067652
-0.466955 -0.064891 -0.059795
-0.466955 -0.031130 0.053952
-0.466955 0.033575 0.003669
-0.466955 -0.044767 -0.050520
-0.466955 0.022726 -0.017496
-0.466955 0.016422 -0.091748
-0.466955 0.000894 0.039668
-0.466955 -0.022160 -0.074427
-0.466955 0.006841 -0.029677
-0.466955 -0.065112 0.052226
-0.466955 0.000322 0.090347
-0.466955 -0.030765 -0.061746
-0.466955 0.036753 0.053291
-0.466955 0.066585 0.010522
-0.466955 0.061086 0.067887
-0.466955 0.039890 0.020553
-0.466955 0.006519 -0.094828
-0.466955 -0.026012 -0.036288
-0.466955 -0.016292 0.037406
-0.466955 -0.073411 -0.037353
-0.466955 0.003124 -0.018790
-0.466955 0.063439 -0.021023
-0.466955 0.053151 0.003783
-0.466955 0.025221 -0.044729
-0.466955 0.025814 -0.030855
-0.466955 0.018197 0.083869
-0.466955 0.045733 -0.080826
-0.466955 -0.013988 -0.098636
-0.466955 -0.031199 -0.094558
-0.466955 -0.011625 -0.054945
-0.466955 -0.081583 0.023246
-0.466955 -0.028571 -0.034942
-0.466955 0.007283 -0.045113
-0.466955 -0.075368 -0.032685
-0.466955 -0.021562 0.083220
-0.466955 -0.034045 -0.004617
-0.466955 -0.020941 -0.039965
-0.466955 -0.031807 -0.041282
-0.466955 -0.088841 0.035020
-0.466955 0.002161 -0.039402
-0.466955 -0.078270 -0.034129
-0.466955 0.072772 -0.018343
-0.466955 0.095601 0.025326
-0.466955 0.009771 0.034594
-0.466955 0.033039 -0.047394
-0.466955 -0.013834 0.007778
-0.466955 0.044212 -0.016791
-0.466955 -0.038902 0.011252
-0.466955 0.065242 -0.029076
-0.466955 -0.063028 -0.012282
-0.466955 0.012809 0.001283
-0.466955 -0.025257 -0.026360
-0.466955 0.000427 0.046265
-0.466955 -0.030775 -0.043786
-0.466955 0.028842 0.070574
-0.466955 -0.024337 0.051524
-0.466955 0.087666 0.013152
-0.466955 0.063033 0.067874
-0.466955 -0.067574 -0.066982
-0.466955 0.047086 0.067051
-0.466955 -0.004770 0.055608
-0.466955 -0.095384 -0.010353
-0.466955 0.032269 0.033456
-0.466955 -0.032287 0.078152
-0.466955 0.003454 0.084963
-0.466955 0.064191 -0.005685
-0.466955 -0.084414 -0.032177
-0.466955 -0.010804 -0.062555
-0.466955 -0.065178 0.007858
-0.466955 0.080735 0.041179
-0.466955 0.057164 0.067810
-0.466955 0.082993 0.012395
-0.466955 0.013607 -0.050857
-0.466955 -0.006857 -0.028323
-0.466955 0.009947 -0.060176
-0.466955 0.046786 -0.015085
-0.466955 0.039426 -0.054052
-0.466955 0.075822 -0.026419
-0.466955 0.013816 -0.027057
-0.466955 -0.023540 0.018691
-0.466955 -0.055815 0.079772
-0.466955 -0.011331 0.056001
-0.466955 0.021234 -0.021167
-0.466955 -0.033595 -0.013054
-0.466955 0.032751 0.007070
-0.466955 -0.049547 -0.049069
-0.466955 0.048151 0.038215
-0.466955 0.026570 0.040378
-0.466955 0.024011 0.062725
-0.466955 0.053575 -0.069476
-0.466955 -0.028708 0.003761
-0.466955 -0.036118 0.070475
-0.466955 -0.099099 0.002692
-0.466955 0.028962 -0.064541
-0.466955 -0.008913 0.058177
-0.466955 -0.093604 -0.008571
-0.466955 0.015982 -0.075615
-0.466955 0.072153 0.034950
-0.466955 0.049425 0.008574
-0.466955 -0.036825 0.011269
-0.466955 0.057462 -0.010165
-0.466955 -0.049806 0.056644
-0.466955 0.068324 0.035210
-0.466955 -0.043296 0.025774
-0.466955 0.007868 -0.003921
-0.466955 -0.082573 0.044905
-0.466955 0.022134 -0.053815
-0.466955 -0.078217 -0.040729
-0.466955 -0.029836 -0.002672
-0.466955 0.001045 -0.094774
-0.466955 -0.005954 -0.088686
-0.466955 0.043429 -0.060090
-0.466955 0.053568 -0.007210
-0.466955 -0.054804 -0.052311
-0.466955 0.018199 0.018315
-0.466955 -0.025480 -0.001523
-0.466955 -0.054728 0.037190
-0.466955 0.071795 0.057310
-0.466955 -0.051085 0.018240
-0.466955 0.041162 0.044466
-0.466955 -0.059443 0.054660
-0.466955 0.039348 0.088121
-0.466955 0.002638 -0.025846
-0.466955 -0.017296 -0.022726
-0.466955 -0.002250 -0.007311
-0.466955 -0.071576 0.052466
-0.466955 -0.068448 0.058264
-0.466955 0.020154 -0.082418
-0.466955 0.029050 -0.088362
-0.466955 -0.026399 0.086797
-0.466955 0.052974 0.077046
-0.466955 -0.090317 0.007928
-0.466955 0.066964 0.043668
-0.466955 -0.035128 -0.046681
-0.466955 0.065078 -0.015184
-0.466955 -0.065182 -0.007615
-0.466955 -0.035039 0.090242
-0.466955 -0.041014 0.028900
-0.466955 -0.041699 -0.081182
-0.466955 -0.001073 -0.062817
-0.466955 0.098582 -0.001689
-0.466955 0.047586 -0.012624
-0.466955 -0.025746 -0.037621
-0.466955 0.010940 -0.025867
-0.466955 -0.089062 0.007155
-0.466955 -0.033736 -0.000719
-0.466955 0.041592 0.039413
-0.466955 -0.056722 -0.022185
-0.466955 -0.071043 -0.052160
-0.466955 -0.014105 -0.078156
-0.466955 0.079654 0.054393
-0.466955 0.024267 -0.021390
-0.466955 0.034040 0.033693
-0.466955 0.033213 0.073217
-0.466955 0.017486 0.025040
-0.466955 -0.040725 0.004929
-0.466955 0.010123 -0.082788
-0.466955 -0.063372 0.021254
-0.466955 0.080771 0.008206
-0.466955 0.033802 0.018515
-0.466955 -0.022233 0.031441
-0.466955 0.071931 0.068843
-0.466955 -0.070800 0.035319
-0.466955 -0.009079 0.093869
-0.466955 -0.019006 0.020250
-0.466955 0.076917 -0.044539
-0.466955 0.051949 0.041073
-0.466955 -0.097958 0.018980
-0.466955 0.072855 -0.021123
-0.466955 0.085033 -0.045358
-0.466955 -0.084389 -0.046031
-0.466955 0.026747 0.029521
-0.466955 0.083096 -0.047307
-0.466955 0.095720 -0.028213
-0.466955 -0.063072 -0.010600
-0.466955 -0.028332 0.067652
-0.466955 0.002239 0.083122
-0.466955 0.008004 -0.051830
-0.466955 0.033259 0.089037
-0.466955 0.075368 -0.013074
-0.466955 0.050613 0.041854
-0.466955 0.017104 0.092877
-0.466955 0.019521 -0.077568
-0.466955 -0.082621 0.022389
-0.466955 0.004592 0.055769
-0.466955 0.040634 -0.081860
-0.466955 0.062312 -0.035257
-0.466955 -0.047287 0.048761
-0.466955 -0.007146 0.021588
-0.466955 -0.076565 -0.030961
-0.466955 0.058810 0.010414
-0.466955 0.074658 -0.031231
-0.466955 0.034710 0.055498
-0.466955 0.092641 -0.007071
-0.466955 -0.047330 0.066241
-0.466955 0.012719 -0.004799
-0.466955 -0.076738 -0.041932
-0.466955 0.064201 0.012512
-0.466955 -0.002098 -0.014186
-0.466955 -0.061148 -0.046098
-0.466955 -0.004069 0.088997
-0.466955 -0.013820 -0.035704
-0.466955 0.041040 -0.080280
-0.466955 -0.093015 0.003859
-0.466955 -0.055136 0.030160
-0.466955 0.019718 0.069107
-0.466955 -0.033372 0.036398
-0.466955 -0.052394 -0.054764
-0.466955 0.002667 -0.063020
-0.466955 0.018727 -0.060640
-0.466955 -0.093229 -0.015233
-0.466955 -0.085837 -0.037601
-0.466955 -0.008968 -0.058374
-0.466955 0.015575 0.011921
-0.466955 0.055656 -0.078696
-0.466955 -0.062335 0.067446
-0.466955 -0.020220 0.094062
-0.466955 -0.063751 0.035564
-0.466955 0.065369 -0.072993
-0.466955 0.019515 -0.050788
-0.466955 0.024586 -0.076996
-0.466955 0.018199 -0.082318
-0.466955 0.084684 -0.046645
-0.466955 -0.017235 -0.026064
-0.466955 0.032361 -0.006524
-0.466955 -0.001792 0.017322
-0.466955 -0.082922 -0.018615
-0.466955 -0.035494 0.054923
-0.466955 -0.039910 0.074344
-0.466955 -0.023517 -0.011561
-0.466955 -0.074215 0.001386
-0.466955 -0.019883 -0.019090
-0.466955 0.064581 0.019049
-0.466955 -0.007620 0.014329
-0.466955 0.008915 -0.069337
-0.466955 -0.024139 -0.093599
-0.466955 0.000181 0.050908
-0.466955 0.062086 0.037408
-0.466955 -0.051806 -0.018313
-0.466955 -0.035918 0.035532
-0.466955 0.030972 0.006647
-0.466955 0.014551 -0.045872
-0.466955 0.065825 0.013124
-0.466955 0.048754 0.044849
-0.466955 -0.086006 -0.019917
-0.466955 0.067744 -0.010843
-0.466955 -0.018406 -0.051552
-0.466955 -0.058952 0.031276
-0.466955 0.015102 0.092455
-0.466955 -0.033330 0.006073
-0.466955 -0.082628 -0.004812
-0.466955 0.087090 -0.018024
-0.466955 0.037073 0.082594
-0.466955 -0.006718 0.081767
-0.466955 0.053279 -0.034466
-0.466955 0.065840 -0.065381
-0.466955 -0.077466 -0.008542
-0.466955 0.089619 -0.021850
-0.466955 -0.045149 -0.078901
-0.466955 0.045684 -0.056546
-0.466955 0.065966 -0.055213
-0.466955 0.075017 0.021759
-0.466955 -0.008567 -0.035871
-0.466955 0.053706 0.017126
-0.466955 -0.010070 0.051343
-0.466955 -0.085458 0.022215
-0.466955 -0.061546 -0.007916
-0.466955 0.027632 0.007988
-0.466955 0.037761 0.084056
-0.466955 0.064913 -0.068937
-0.466955 -0.054992 -0.081478
-0.466955 -0.030557 0.019826
-0.466955 -0.022460 -0.017457
-0.466955 0.028324 -0.054220
-0.466955 0.068499 -0.007887
-0.466955 -0.029243 -0.039581
-0.466955 0.092065 -0.018387
-0.466955 -0.051446 0.039567
-0.466955 -0.002549 -0.048775
-0.466955 -0.014104 0.089733
-0.466955 -0.078138 -0.006159
-0.466955 0.037605 0.006522
-0.466955 -0.025610 0.007774
-0.466955 -0.019974 0.037136
-0.466955 -0.082471 -0.009445
-0.466955 -0.002137 0.096644
-0.466955 -0.060988 -0.036423
-0.466955 -0.042728 0.031547
-0.466955 0.054709 0.024794
-0.466955 0.080364 -0.026502
-0.466955 0.083792 0.041980
-0.466955 -0.000356 -0.047939
-0.466955 -0.054298 0.082643
-0.466955 -0.026761 -0.058756
-0.466955 -0.061794 0.025497
-0.466955 -0.002862 0.015628
-0.466955 0.009904 0.079882
-0.466955 -0.035327 0.008167
-0.466955 0.016219 -0.070093
-0.466955 -0.021386 0.062843
-0.466955 0.033116 -0.039475
-0.466955 -0.031483 -0.091151
-0.466955 0.002720 0.011559
-0.466955 -0.042262 0.079321
-0.466955 0.006791 -0.008023
-0.466955 -0.046528 -0.032510
-0.466955 0.021494 0.036603
-0.466955 0.060887 -0.059324
-0.466955 -0.053780 -0.012017
-0.466955 0.032780 0.038318
-0.466955 0.060150 0.025573
-0.466955 0.054792 -0.039538
-0.466955 -0.021950 -0.036774
-0.466955 0.044165 -0.061895
-0.466955 -0.038772 -0.010437
-0.466955 0.025234 -0.053026
-0.466955 -0.017162 0.063183
-0.466955 0.022089 0.087755
-0.466955 -0.085640 -0.004651
-0.466955 0.008409 -0.055304
-0.466955 -0.007887 -0.020275
-0.466955 0.059878 -0.078093
-0.466955 0.039437 -0.052399
-0.466955 0.073700 -0.044820
-0.466955 -0.025618 -0.045672
-0.466955 0.086966 -0.013266
-0.466955 -0.081636 0.004025
-0.466955 -0.064844 -0.038166
-0.466955 -0.098333 0.009688
-0.466955 -0.049368 0.053382
-0.466955 -0.023665 -0.087947
-0.466955 0.084700 -0.031890
-0.466955 -0.041887 0.065083
-0.466955 0.028089 -0.058852
-0.466955 -0.066705 0.001505
-0.466955 0.010565 -0.015137
-0.466955 0.016084 -0.024779
-0.466955 -0.037050 -0.092497
-0.466955 -0.089730 -0.014358
-0.466955 -0.040154 -0.080244
-0.466955 0.022561 -0.063933
-0.466955 0.081970 0.035785
-0.466955 0.037740 0.023628
-0.466955 -0.064835 -0.058332
-0.466955 -0.016816 0.049831
-0.466955 0.080155 0.001818
-0.466955 -0.069581 -0.041421
-0.466955 0.036780 0.018556
-0.466955 -0.036387 0.013053
-0.466955 0.061476 0.039879
-0.466955 -0.046870 -0.057361
-0.466955 -0.030008 0.046177
-0.466955 -0.075748 0.060786
-0.466955 -0.029880 -0.084781
-0.466955 -0.031028 0.095043
-0.466955 0.038842 0.036127
-0.466955 0.041615 -0.022490
-0.466955 0.084994 -0.040778
-0.466955 0.066180 -0.012387
-0.466955 0.085583 0.042401
-0.466955 -0.056681 -0.009014
-0.466955 -0.079757 -0.041042
-0.466955 -0.085499 -0.007635
-0.466955 0.064672 -0.023572
-0.466955 0.004775 0.032620
-0.466955 0.012943 0.096853
-0.466955 -0.045225 -0.057176
-0.466955 -0.058286 -0.026027
-0.466955 -0.031198 0.072792
-0.466955 -0.037350 0.009058
-0.466955 -0.040973 0.034858
-0.466955 -0.016372 -0.089891
-0.466955 -0.007417 0.037325
-0.466955 -0.005241 -0.074349
-0.466955 -0.018519 0.082508
-0.466955 -0.059300 0.026297
-0.466955 0.057643 -0.081360
-0.466955 0.049268 -0.031913
-0.466955 -0.016988 0.070272
-0.466955 -0.025337 -0.040875
-0.466955 0.030658 0.030748
-0.466955 -0.015862 -0.044115
-0.466955 -0.050142 0.022249
-0.466955 0.022645 -0.022069
-0.466955 -0.039455 0.036299
-0.466955 0.063644 0.047787
-0.466955 0.000384 0.020361
-0.466955 0.064761 -0.018852
-0.466955 -0.067137 -0.034560
-0.466955 -0.007709 0.023369
-0.466955 0.011891 0.022393
-0.466955 0.061001 0.077728
-0.466955 0.031301 -0.062468
-0.466955 0.013399 -0.071185
-0.466955 -0.002244 0.077242
-0.466955 -0.012260 0.083468
-0.466955 0.031705 0.015664
-0.466955 -0.048139 -0.016886
-0.466955 0.050510 0.079516
-0.466955 -0.030956 0.078302
-0.466955 0.097493 0.004320
-0.466955 -0.006466 0.074314
-0.466955 -0.019654 0.012405
-0.466955 0.071198 0.024236
-0.466955 0.005660 0.027454
-0.466955 0.065338 -0.002176
-0.466955 0.005790 0.048837
-0.466955 0.071460 0.019395
-0.466955 -0.047043 0.007870
-0.466955 0.062364 -0.018304
-0.466955 -0.011555 0.050955
-0.466955 0.084328 -0.023995
-0.466955 -0.009553 0.038195
-0.466955 -0.010895 -0.068608
-0.466955 0.014135 0.017544
-0.466955 -0.015436 0.024116
-0.466955 0.054286 0.032481
-0.466955 0.038173 0.048610
-0.466955 -0.058577 0.021521
-0.466955 0.060248 -0.054301
-0.466955 -0.069087 0.044799
-0.466955 -0.014394 -0.039585
-0.466955 -0.023886 -0.017361
-0.466955 -0.081887 -0.046341
-0.466955 -0.000975 -0.093838
-0.466955 -0.012432 0.052379
-0.466955 -0.009060 0.067244
-0.466955 -0.042678 0.076608
-0.466955 -0.052832 0.082534
-0.466955 -0.038189 0.047662
-0.466955 -0.004478 0.023072
-0.466955 -0.017188 0.041398
-0.466955 -0.007271 0.062866
-0.466955 0.058503 0.026155
-0.466955 -0.071997 -0.018347
-0.466955 -0.018409 0.038621
-0.466955 0.006253 0.055678
-0.466955 -0.037447 -0.040530
-0.466955 -0.008768 -0.030401
-0.466955 -0.030250 0.017791
-0.466955 -0.087667 -0.023732
-0.466955 0.075262 -0.018090
-0.466955 -0.073200 -0.025618
-0.466955 0.059529 -0.045522
-0.466955 0.055703 -0.074923
-0.466955 0.015480 0.039177
-0.466955 0.046789 0.078158
-0.466955 0.087910 0.010601
-0.466955 0.030021 -0.026054
-0.466955 -0.028548 0.087460
-0.466955 -0.065392 0.037798
-0.466955 -0.000739 0.039698
-0.466955 -0.029529 -0.086421
-0.466955 0.049638 0.076632
-0.466955 0.028346 -0.009409
-0.466955 -0.031829 0.020970
-0.466955 0.024660 -0.054522
-0.466955 -0.025340 -0.079850
-0.466955 0.014341 -0.031224
-0.466955 0.090855 0.024281
-0.466955 0.073309 0.015584
-0.466955 0.055138 -0.081282
-0.466955 0.014880 0.076053
-0.466955 0.059082 0.073486
-0.466955 0.067965 -0.006662
-0.466955 0.024900 -0.085776
-0.466955 -0.027400 -0.016591
-0.466955 -0.032442 0.042880
-0.466955 -0.062424 -0.036240
-0.466955 0.070549 -0.019471
-0.466955 0.053537 0.051731
-0.466955 -0.093776 -0.020110
-0.466955 -0.006034 0.084488
-0.466955 -0.048108 0.033382
-0.466955 -0.039014 -0.055468
-0.466955 0.015060 0.077721
-0.466955 -0.034770 -0.040360
-0.466955 -0.069517 0.038317
-0.466955 -0.001050 -0.061142
-0.466955 0.038017 -0.052959
-0.466955 -0.086105 0.018496
-0.466955 -0.056977 0.075217
-0.466955 0.012601 0.043608
-0.466955 0.015159 0.093903
-0.466955 0.047576 0.072593
-0.466955 -0.000059 -0.075895
-0.466955 0.057573 -0.074134
-0.466955 -0.017747 -0.071288
-0.466955 0.006320 0.073193
-0.466955 -0.045180 -0.068356
-0.466955 0.059308 0.062114
-0.466955 0.006374 0.095219
-0.466955 0.028744 -0.049328
-0.466955 0.034378 -0.064336
-0.466955 0.022736 0.070095
-0.466955 -0.084805 -0.023022
-0.466955 0.055394 -0.041023
-0.466955 -0.036355 -0.025743
-0.466955 0.044611 -0.002497
-0.466955 0.059466 0.070275
-0.466955 -0.017666 -0.050148
-0.466955 0.010373 0.042831
-0.466955 -0.082565 0.007416
-0.466955 0.058931 0.033062
-0.466955 0.032113 0.084213
-0.466955 -0.053522 0.011337
-0.466955 -0.035149 -0.045205
-0.466955 -0.059188 0.028227
-0.466955 0.010466 0.008018
-0.466955 -0.082715 -0.055109
-0.466955 0.036171 -0.081536
-0.466955 0.006330 -0.039401
-0.466955 0.097129 0.002719
-0.466955 0.045616 -0.041198
-0.466955 0.000696 -0.024088
-0.466955 0.024554 -0.000705
-0.466955 0.047595 -0.053859
-0.466955 0.098501 0.014758
-0.466955 0.057278 0.055271
-0.466955 0.017415 0.086564
-0.466955 -0.077182 0.060735
-0.466955 0.069289 0.020482
-0.466955 0.011517 -0.008544
-0.466955 0.027838 -0.038151
-0.466955 0.048760 -0.074002
-0.466955 0.015177 -0.047891
-0.466955 0.009876 0.084770
-0.466955 0.079762 0.031585
-0.466955 0.027979 0.074491
-0.466955 0.090431 0.025691
-0.466955 -0.018312 0.040432
-0.466955 -0.082579 -0.027992
-0.466955 -0.032731 -0.015832
-0.466955 -0.071677 -0.022656
-0.466955 -0.075464 -0.058777
-0.466955 0.032214 0.042706
-0.466955 -0.058368 0.024923
-0.466955 0.018670 -0.041151
-0.466955 -0.025000 -0.074388
-0.466955 0.006311 0.060511
-0.466955 -0.002839 -0.029740
-0.466955 -0.030010 0.012358
-0.466955 0.056052 0.037775
-0.466955 0.020868 0.026539
-0.466955 -0.099201 -0.003065
-0.466955 0.012801 0.021164
-0.466955 -0.000535 -0.056972
-0.466955 0.092791 0.029314
-0.466955 0.030349 0.016129
-0.466955 0.023640 0.005348
-0.466955 -0.012081 0.068394
-0.466955 0.067241 0.055640
-0.466955 -0.039722 -0.057478
-0.466955 -0.025388 -0.088787
-0.466955 0.082545 0.028743
-0.466955 -0.005848 0.070999
-0.466955 -0.090070 0.023741
-0.466955 -0.022212 -0.055415
-0.466955 -0.059898 0.064729
-0.466955 -0.047996 0.057066
-0.466955 0.005398 0.016756
-0.466955 -0.010823 -0.020673
-0.466955 0.047410 -0.034290
-0.466955 0.052793 0.055301
-0.466955 0.085032 -0.034782
-0.466955 -0.017254 0.081377
-0.466955 0.037956 -0.006037
-0.466955 0.031311 -0.024752
-0.466955 -0.059147 0.048345
-0.466955 0.068344 -0.020359
-0.466955 -0.010568 0.082303
-0.466955 0.056510 -0.006532
-0.466955 -0.064584 0.032212
-0.466955 0.060311 0.048793
-0.466955 -0.011445 0.076569
-0.466955 -0.027999 -0.077512
-0.466955 -0.053744 0.072116
-0.466955 0.017559 0.020946
-0.466955 -0.076564 0.059425
-0.466955 -0.033793 0.054013
-0.466955 -0.070070 -0.056568
-0.466955 -0.018755 -0.012606
-0.466955 -0.045762 0.043298
-0.466955 0.012338 -0.014583
-0.466955 0.031956 -0.041728
-0.466955 -0.053037 -0.023355
-0.466955 0.014890 0.087717
-0.466955 -0.028903 0.034551
-0.466955 -0.035115 0.064691
-0.466955 -0.000972 -0.096669
-0.466955 -0.062104 -0.027341
-0.466955 -0.054419 0.054028
-0.466955 -0.066206 0.011150
-0.466955 0.010032 -0.003666
-0.466955 0.005399 -0.018569
-0.466955 -0.070962 0.000342
-0.466955 -0.021497 -0.021865
-0.466955 -0.069281 0.034283
-0.466955 0.034287 0.069338
-0.466955 -0.050927 -0.011282
-0.466955 0.080976 0.017982
-0.466955 -0.042873 0.042553
-0.466955 -0.014380 0.072353
-0.466955 -0.030487 0.071143
-0.466955 0.012057 -0.020133
-0.466955 0.076541 -0.028611
-0.466955 0.086638 -0.048903
-0.466955 0.083399 0.007385
-0.466955 -0.013780 0.042321
-0.466955 0.072121 0.022470
-0.466955 -0.019093 -0.004661
-0.466955 0.027225 -0.049914
-0.466955 -0.033011 -0.017893
-0.466955 0.020712 -0.010813
-0.466955 0.054032 0.005082
-0.466955 0.069078 0.050355
-0.466955 -0.019440 -0.030613
-0.466955 -0.089302 0.015321
-0.466955 -0.059463 0.015061
-0.466955 0.043173 0.047603
-0.466955 0.023388 -0.092164
-0.466955 0.076264 -0.050062
-0.466955 -0.058399 -0.071229
-0.466955 -0.003409 -0.076810
-0.466955 0.089236 -0.014733
-0.466955 0.026765 0.054183
-0.466955 -0.076602 0.022274
-0.466955 0.010489 0.003887
-0.466955 0.038314 -0.023578
-0.466955 0.054554 -0.073325
-0.466955 0.025434 -0.061773
-0.466955 -0.028344 0.048644
-0.466955 -0.054918 0.019864
-0.466955 0.054032 -0.022678
-0.466955 -0.042788 0.059605
-0.466955 0.062888 0.060222
-0.466955 -0.075423 0.012162
-0.466955 0.076763 -0.000451
-0.466955 0.016308 0.007674
-0.466955 -0.057283 0.054265
-0.466955 -0.096049 -0.018577
-0.466955 -0.098254 0.011280
-0.466955 -0.035967 -0.073480
-0.466955 0.063836 -0.040573
-0.466955 0.021001 0.003389
-0.466955 -0.076982 -0.056149
-0.466955 0.064358 0.072533
-0.466955 0.080111 -0.056498
-0.466955 0.073995 0.060684
-0.466955 0.026890 -0.016799
-0.466955 0.042850 -0.065906
-0.466955 -0.096198 0.017818
-0.466955 -0.001934 -0.003919
-0.466955 0.053198 0.072500
-0.466955 -0.095841 0.003394
-0.466955 -0.011213 -0.070148
-0.466955 0.033956 -0.020560
-0.466955 0.008464 -0.019305
-0.466955 -0.017494 -0.037890
-0.466955 -0.040736 0.080341
-0.466955 0.068417 -0.064211
-0.466955 -0.051289 0.046387
-0.466955 0.043835 -0.043778
-0.466955 0.039248 -0.075524
-0.466955 0.017449 -0.048750
-0.466955 0.006871 -0.024458
-0.466955 0.001650 0.047806
-0.466955 -0.055361 -0.037731
-0.466955 0.031619 0.045184
-0.466955 0.014320 0.082150
-0.466955 -0.016271 0.080207
-0.466955 0.047869 -0.078784
-0.466955 -0.006876 0.095484
-0.466955 -0.026405 -0.057126
-0.466955 -0.057051 0.003917
-0.466955 -0.078809 0.001290
-0.466955 0.022117 0.050022
-0.466955 -0.010129 -0.092356
-0.466955 0.077748 -0.010162
-0.466955 0.041985 -0.090093
-0.466955 0.001956 0.014529
-0.466955 0.077100 -0.015308
-0.466955 0.005639 -0.093330
-0.466955 0.063507 -0.033189
-0.466955 -0.081291 0.014822
-0.466955 -0.074222 -0.005743
-0.466955 -0.068191 0.046058
-0.466955 0.041010 0.041003
-0.466955 -0.022977 0.023389
-0.466955 -0.080184 0.044394
-0.466955 -0.057038 -0.012706
-0.466955 -0.037245 -0.050168
-0.466955 0.027961 0.040476
-0.466955 0.037839 -0.063186
-0.466955 -0.036874 -0.053805
-0.466955 0.008872 -0.098146
-0.466955 0.035038 -0.035135
-0.466955 -0.045609 -0.035687
-0.466955 -0.020038 -0.011864
-0.466955 0.089001 0.026688
-0.466955 -0.057718 0.046084
-0.466955 0.092295 -0.019715
-0.466955 0.070744 0.064725
-0.466955 0.042926 0.042563
-0.466955 -0.023127 0.087502
-0.466955 0.058612 -0.080223
-0.466955 -0.019823 0.050186
-0.466955 -0.042995 0.087319
-0.466955 -0.065444 0.046795
-0.466955 -0.023809 0.048101
-0.466955 -0.024249 0.060845
-0.466955 -0.000809 0.081811
-0.466955 0.030973 -0.060690
-0.466955 -0.091627 -0.039102
-0.466955 -0.012714 -0.089202
-0.466955 -0.013797 0.031042
-0.466955 0.001930 -0.006123
-0.466955 -0.058591 0.074512
-0.466955 -0.034701 0.066187
-0.466955 -0.070865 -0.037025
-0.466955 -0.018987 0.060648
-0.466955 -0.020559 -0.087203
-0.466955 0.014232 0.011528
-0.466955 -0.063266 -0.067489
-0.466955 0.036940 -0.021552
-0.466955 -0.010444 -0.008602
-0.466955 0.063592 -0.062372
-0.466955 -0.075213 -0.042035
-0.466955 0.038599 0.046695
-0.466955 0.079619 0.039544
-0.466955 -0.031153 -0.046752
-0.466955 0.015559 0.085647
-0.466955 0.003533 -0.097033
-0.466955 -0.003466 -0.059368
-0.466955 -0.053631 0.016444
-0.466955 0.090212 0.031576
-0.466955 0.029249 0.063025
-0.466955 0.054323 -0.019543
-0.466955 0.081449 -0.033494
-0.466955 -0.023597 -0.068932
-0.466955 0.066226 -0.018130
-0.466955 0.055622 -0.048386
-0.466955 -0.014839 0.046762
-0.466955 0.038988 0.034370
-0.466955 0.025486 0.021403
-0.466955 0.049339 0.025346
-0.466955 -0.013083 -0.005087
-0.466955 0.007915 0.042481
-0.466955 0.039751 0.009600
-0.466955 0.084599 -0.005737
-0.466955 0.090998 -0.004830
-0.466955 0.023022 0.043209
-0.466955 0.041389 0.001798
-0.466955 0.022064 0.073362
-0.466955 0.034423 0.022579
-0.466955 0.069261 -0.027241
-0.466955 -0.007594 -0.013635
-0.466955 -0.034040 0.048607
-0.466955 0.091359 -0.020924
-0.466955 0.020907 -0.076761
-0.466955 -0.048172 -0.063794
-0.466955 -0.028254 0.077305
-0.466955 0.031067 -0.090550
-0.466955 0.068951 -0.048728
-0.466955 0.021228 0.091502
-0.466955 -0.019159 0.054735
-0.466955 0.025673 -0.020673
-0.466955 -0.086586 0.025217
-0.466955 -0.022020 -0.006462
-0.466955 -0.009956 -0.049734
-0.466955 -0.049922 -0.079318
-0.466955 -0.084154 -0.049264
-0.466955 0.041512 0.008571
-0.466955 0.027867 -0.069069
-0.466955 -0.004476 -0.033651
-0.466955 0.008305 -0.006267
-0.466955 -0.053288 -0.018068
-0.466955 -0.008388 0.063890
-0.466955 0.072147 0.008155
-0.466955 -0.037900 0.086236
-0.466955 -0.086098 -0.041050
-0.466955 -0.040234 0.025388
-0.466955 0.053224 0.024597
-0.466955 0.079601 0.034590
-0.466955 -0.020733 0.089888
-0.466955 0.036189 0.071753
-0.466955 0.027512 -0.001728
-0.466955 0.054179 0.080881
-0.466955 0.027200 -0.024866
-0.466955 0.041189 -0.076619
-0.466955 -0.043704 -0.003934
-0.466955 -0.073908 -0.013338
-0.466955 -0.066266 -0.067953
-0.466955 0.058757 -0.065148
-0.466955 -0.060786 0.072234
-0.466955 0.091312 0.032782
-0.466955 0.023775 -0.082612
-0.466955 0.022216 0.090444
-0.466955 -0.095025 0.010086
-0.466955 -0.017719 0.079920
-0.466955 -0.030094 -0.092953
-0.466955 -0.015017 -0.048280
-0.466955 0.018047 -0.085942
-0.466955 -0.058764 0.065762
-0.466955 -0.031974 -0.044704
-0.466955 0.081117 -0.007005
-0.466955 -0.088425 -0.000747
-0.466955 -0.000913 -0.002224
-0.466955 -0.000655 0.025972
-0.466955 -0.002137 -0.097595
-0.466955 0.057550 0.032846
-0.466955 0.007494 0.071078
-0.466955 0.004349 0.058039
-0.466955 -0.005541 0.078543
-0.466955 -0.050980 -0.025619
-0.466955 -0.073813 -0.000066
-0.466955 0.003547 0.045300
-0.466955 -0.061529 0.052297
-0.466955 -0.039677 -0.069114
-0.466955 0.013794 0.034092
-0.466955 -0.087907 0.009949
-0.466955 -0.037327 -0.068467
-0.466955 -0.024014 0.094084
-0.466955 -0.055949 0.044978
-0.466955 -0.024937 -0.072641
-0.466955 -0.003900 -0.021679
-0.466955 0.021016 0.039378
-0.466955 -0.083458 0.011670
-0.466955 0.041608 0.050902
-0.466955 0.037831 -0.039361
-0.466955 -0.035086 0.047416
-0.466955 -0.006302 0.000054
-0.466955 0.006187 0.035891
-0.466955 -0.023833 0.014354
-0.466955 -0.025073 0.052953
-0.466955 -0.064938 0.028306
-0.466955 0.079953 -0.029631
-0.466955 -0.093917 -0.022489
-0.466955 -0.093030 0.023895
-0.466955 -0.051295 0.033700
-0.466955 0.021827 0.009919
-0.466955 -0.008908 0.044896
-0.466955 0.088324 0.024920
-0.466955 -0.036608 0.088031
-0.466955 0.073468 -0.051950
-0.466955 0.077513 0.054691
-0.466955 0.062649 -0.019660
-0.466955 0.062214 0.006231
-0.466955 0.030050 -0.000390
-0.466955 0.041795 0.068517
-0.466955 0.041692 -0.073611
-0.466955 0.046950 0.079980
-0.466955 -0.011638 -0.090947
-0.466955 0.092522 0.012680
-0.466955 0.025567 0.033366
-0.466955 -0.047041 -0.038920
-0.466955 0.036277 0.040582
-0.466955 -0.067477 0.043142
-0.466955 0.028213 -0.014466
-0.466955 -0.065538 0.055806
-0.466955 -0.090047 -0.019767
-0.466955 -0.068764 -0.067580
-0.466955 -0.041927 -0.057433
-0.466955 0.055099 0.014140
-0.466955 -0.045501 0.058330
-0.466955 0.010968 0.044276
-0.466955 -0.012428 -0.083230
-0.466955 0.032653 0.081593
-0.466955 0.064083 -0.037131
-0.466955 0.079456 0.036218
-0.466955 0.021718 -0.060649
-0.466955 -0.058478 -0.004464
-0.466955 -0.072447 -0.048079
-0.466955 0.065122 0.068685
-0.466955 -0.048789 -0.018966
-0.466955 -0.064195 0.019908
-0.466955 -0.070328 0.010456
-0.466955 0.022323 0.031587
-0.466955 -0.037279 0.063530
-0.466955 -0.086488 -0.029871
-0.466955 -0.065610 -0.041611
-0.466955 -0.084695 0.013911
-0.466955 -0.050072 -0.046481
-0.466955 0.051410 0.065533
-0.466955 -0.027910 0.071776
-0.466955 -0.020432 0.018904
-0.466955 -0.093721 0.002560
-0.466955 -0.011600 -0.066933
-0.466955 0.003626 0.075933
-0.466955 0.067814 0.037979
-0.466955 0.037728 0.091560
-0.466955 0.001148 0.034187
-0.466955 0.030214 0.092623
-0.466955 -0.018503 -0.058991
-0.466955 -0.045188 0.035980
-0.466955 -0.072817 -0.051974
-0.466955 0.070266 -0.012596
-0.466955 -0.014882 -0.070458
-0.466955 -0.074796 0.045605
-0.466955 -0.061611 0.017962
-0.466955 0.086384 0.018949
-0.466955 0.025786 -0.033527
-0.466955 -0.012411 0.059766
-0.466955 0.086769 -0.022282
-0.466955 0.078266 0.024691
-0.466955 -0.048487 -0.006840
-0.466955 -0.072870 0.003515
-0.466955 -0.012649 0.010469
-0.466955 0.007744 -0.074094
-0.466955 0.083396 0.027192
-0.466955 -0.042977 -0.014564
-0.466955 -0.061924 -0.013129
-0.466955 -0.014131 -0.055900
-0.466955 0.031189 -0.050587
-0.466955 -0.018570 0.000778
-0.466955 0.010548 0.040186
-0.466955 -0.084303 -0.043484
-0.466955 -0.004087 -0.024459
-0.466955 -0.046500 0.015129
-0.466955 0.005323 -0.029620
-0.466955 -0.084212 -0.017899
-0.466955 -0.032702 -0.048212
-0.466955 -0.054663 -0.022972
-0.466955 0.012523 0.089088
-0.466955 -0.067735 0.005863
-0.466955 -0.032457 0.022352
-0.466955 -0.015721 0.028499
-0.466955 -0.094517 -0.024261
-0.466955 -0.032415 -0.093577
-0.466955 -0.052749 0.076350
-0.466955 0.046189 0.011316
-0.466955 0.003001 -0.020339
-0.466955 -0.035012 -0.055922
-0.466955 -0.038916 -0.012645
-0.466955 -0.067938 -0.041585
-0.466955 -0.055413 0.071096
-0.466955 0.005356 -0.044855
-0.466955 0.035177 0.078680
-0.466955 0.007443 0.027044
-0.466955 -0.008988 -0.088838
-0.466955 -0.045257 0.039333
-0.466955 0.095466 0.006168
-0.466955 -0.065160 -0.002873
-0.466955 -0.072995 0.043466
-0.466955 0.098394 -0.017339
-0.466955 -0.020179 0.038710
-0.466955 0.052327 -0.081070
-0.466955 0.088274 0.016547
-0.466955 -0.009100 -0.057028
-0.466955 -0.081222 -0.040960
-0.466955 0.008420 0.058182
-0.466955 -0.010490 0.048054
-0.466955 0.090156 -0.009088
-0.466955 -0.055268 -0.072977
-0.466955 -0.026047 0.017418
-0.466955 -0.029620 0.049504
-0.466955 0.065898 -0.019978
-0.466955 0.028248 -0.089686
-0.466955 -0.006457 -0.064985
-0.466955 0.043134 -0.088888
-0.466955 0.066439 0.025845
-0.466955 -0.069581 -0.025344
-0.466955 0.074520 0.053890
-0.466955 -0.010492 0.097738
-0.466955 -0.040243 -0.029850
-0.466955 -0.037262 0.025267
-0.466955 -0.023443 0.066935
-0.466955 -0.006239 -0.032310
-0.466955 0.021822 -0.062375
-0.466955 -0.034756 0.058929
-0.466955 0.014575 -0.032986
-0.466955 -0.040412 -0.002961
-0.466955 0.063931 0.007067
-0.466955 -0.054081 0.018427
-0.466955 0.069946 0.013465
-0.466955 0.068681 -0.023927
-0.466955 -0.023069 -0.064859
-0.466955 0.046907 -0.070039
-0.466955 -0.064884 0.067479
-0.466955 0.016793 -0.039794
-0.466955 0.028932 0.042088
-0.466955 -0.049867 0.000374
-0.466955 -0.031724 0.088460
-0.466955 -0.056337 -0.023936
-0.466955 -0.027709 0.090392
-0.466955 0.035668 -0.069250
-0.466955 -0.013403 0.034331
-0.466955 0.063632 -0.043809
-0.466955 -0.027817 0.081731
-0.466955 0.026440 0.068382
-0.466955 -0.050192 -0.031910
-0.466955 -0.087608 -0.031158
-0.466955 0.016434 0.037449
-0.466955 0.069114 -0.011565
-0.466955 -0.053794 -0.009580
-0.466955 -0.013497 -0.067365
-0.466955 0.053447 0.021191
-0.466955 -0.066206 0.067906
-0.466955 0.030640 -0.079653
-0.466955 -0.094071 0.025289
-0.466955 -0.037730 0.040134
-0.466955 0.047350 0.074779
-0.466955 0.084933 0.052804
-0.466955 0.072028 0.032831
-0.466955 0.049061 -0.022861
-0.466955 0.049539 0.048473
-0.466955 0.014365 -0.068706
-0.466955 0.012559 0.072539
-0.466955 -0.003778 -0.065205
-0.466955 0.045831 -0.067202
-0.466955 -0.035738 -0.063562
-0.466955 -0.070230 0.001853
-0.466955 -0.020618 -0.050552
-0.466955 -0.001990 0.010213
-0.466955 0.013502 0.088117
-0.466955 -0.015478 0.010509
-0.466955 0.002690 0.046611
-0.466955 -0.009015 0.001475
-0.466955 0.022518 0.038160
-0.466955 -0.093841 0.028574
-0.466955 -0.016721 0.025032
-0.466955 -0.012382 0.041911
-0.466955 -0.070538 -0.028557
-0.466955 -0.026504 0.054812
-0.466955 -0.031316 -0.089461
-0.466955 0.004381 -0.056542
-0.466955 -0.024951 -0.010024
-0.466955 -0.047741 0.081881
-0.466955 -0.068770 0.042373
-0.466955 0.006847 -0.084452
-0.466955 -0.044360 0.086504
-0.466955 -0.034774 -0.033894
-0.466955 -0.062745 0.000374
-0.466955 0.069975 -0.044387
-0.466955 -0.002025 -0.017940
-0.466955 -0.092055 -0.020105
-0.466955 -0.087267 0.029249
-0.466955 0.057489 0.009709
-0.466955 0.007258 0.002552
-0.466955 -0.005903 -0.017669
-0.466955 0.007164 -0.048225
-0.466955 -0.013009 0.049443
-0.466955 0.049430 -0.027200
-0.466955 0.002658 -0.069112
-0.466955 -0.096510 -0.005454
-0.466955 0.035190 0.016303
-0.466955 0.052568 -0.060760
-0.466955 0.047916 0.062864
-0.466955 -0.006722 -0.079517
-0.466955 0.049241 -0.060154
-0.466955 0.040347 -0.032003
-0.466955 0.033718 -0.001351
-0.466955 -0.025589 0.045145
-0.466955 -0.075545 -0.017343
-0.466955 0.026782 -0.073669
-0.466955 0.018201 -0.039826
-0.466955 0.049547 -0.006555
-0.466955 0.090746 0.004463
-0.466955 -0.031186 0.044110
-0.466955 -0.011505 -0.041881
-0.466955 -0.065670 -0.043757
-0.466955 0.098066 0.018706
-0.466955 -0.066886 -0.065369
-0.466955 0.020141 -0.047093
-0.466955 -0.024847 0.072556
-0.466955 0.051725 0.005608
-0.466955 0.057323 0.073235
-0.466955 0.076543 0.063063
-0.466955 -0.021849 0.088612
-0.466955 0.047794 0.029652
-0.466955 0.047579 -0.003582
-0.466955 0.001354 0.055611
-0.466955 -0.028111 0.039930
-0.466955 0.003781 -0.060623
-0.466955 0.010400 0.065794
-0.466955 0.055163 -0.063522
-0.466955 -0.069292 -0.020361
-0.466955 0.067729 -0.032648
-0.466955 0.022306 0.026133
-0.466955 0.004228 0.092612
-0.466955 0.092903 0.006865
-0.466955 -0.014522 0.061514
-0.466955 -0.044372 0.012655
-0.466955 0.055233 0.051690
-0.466955 -0.062062 -0.050343
-0.466955 -0.087019 0.014147
-0.466955 -0.077037 0.029471
-0.466955 0.077361 0.026318
-0.466955 0.030441 -0.015281
-0.466955 -0.011152 0.057802
-0.466955 -0.001220 0.015168
-0.466955 -0.011924 -0.014862
-0.466955 0.086011 -0.001982
-0.466955 -0.085585 -0.049876
-0.466955 0.029524 -0.019386
-0.466955 0.039149 0.050227
-0.466955 0.021559 -0.022963
-0.466955 -0.056514 0.041709
-0.466955 0.042429 -0.055976
-0.466955 0.047901 0.054087
-0.466955 0.029201 -0.081519
-0.466955 0.067288 -0.018937
-0.466955 -0.011989 -0.092633
-0.466955 0.045239 0.081858
-0.466955 -0.008917 0.069501
-0.466955 0.009849 0.010081
-0.466955 0.027575 -0.041803
-0.466955 0.053399 0.078548
-0.466955 -0.009864 0.022835
-0.466955 0.016190 0.098712
-0.466955 0.026731 0.047040
-0.466955 0.029265 0.004247
-0.466955 -0.065166 0.057549
-0.466955 0.053197 0.058850
-0.466955 -0.054338 0.044517
-0.466955 -0.063636 -0.071634
-0.466955 -0.021326 -0.046157
-0.466955 -0.038256 0.088534
-0.466955 0.034416 0.042566
-0.466955 -0.023277 0.024890
-0.466955 0.017375 -0.014256
-0.466955 0.008123 -0.015773
-0.466955 -0.072413 -0.008630
-0.466955 0.014175 -0.075985
-0.466955 0.034189 0.035860
-0.466955 0.066310 -0.051050
-0.466955 -0.015550 -0.057569
-0.466955 0.031408 -0.017888
-0.466955 0.078780 0.042986
-0.466955 0.088498 -0.004269
-0.466955 -0.091019 0.001349
-0.466955 -0.042659 0.051923
-0.466955 0.046828 -0.061923
-0.466955 0.044246 -0.022839
-0.466955 -0.079500 -0.002754
-0.466955 0.045404 0.051316
-0.466955 -0.044135 0.017644
-0.466955 -0.023737 -0.036644
-0.466955 -0.007195 0.058676
-0.466955 -0.015777 0.074529
-0.466955 -0.064148 -0.065155
-0.466955 -0.087087 0.026630
-0.466955 0.036302 0.005394
-0.466955 -0.053275 -0.039443
-0.466955 0.079401 -0.003092
-0.466955 -0.065341 0.036199
-0.466955 0.005101 -0.024213
-0.466955 -0.009267 -0.085401
-0.466955 -0.052219 -0.084429
-0.466955 0.076379 0.020399
-0.466955 -0.068704 -0.002665
-0.466955 0.052238 0.000939
-0.466955 -0.091066 -0.034564
-0.466955 -0.046228 0.081991
-0.466955 -0.000672 0.007642
-0.466955 -0.090815 0.038510
-0.466955 0.000133 0.066469
-0.466955 -0.070933 0.067079
-0.466955 -0.011989 0.032805
-0.466955 0.022990 0.082815
-0.466955 -0.034056 -0.070428
-0.466955 -0.035644 -0.065845
-0.466955 -0.051266 -0.029987
-0.466955 0.001387 0.079318
-0.466955 -0.017968 0.086028
-0.466955 0.022141 -0.004691
-0.466955 0.049650 0.047072
-0.466955 0.082703 -0.031262
-0.466955 0.075731 0.055358
-0.466955 -0.021277 -0.034853
-0.466955 0.013844 0.054285
-0.466955 0.022251 -0.042216
-0.466955 -0.075813 -0.008093
-0.466955 0.010874 0.099179
-0.466955 -0.084844 0.025948
-0.466955 0.024914 -0.029121
-0.466955 0.059584 -0.022180
-0.466955 0.003665 0.037598
-0.466955 0.061269 -0.074044
-0.466955 0.018629 0.098248
-0.466955 0.049576 -0.024533
-0.466955 -0.095405 0.008501
-0.466955 0.077431 0.036139
-0.466955 -0.039541 -0.087635
-0.466955 0.078686 -0.055819
-0.466955 0.064492 0.029254
-0.466955 0.070947 0.037670
-0.466955 -0.022038 -0.025659
-0.466955 -0.007367 0.068137
-0.466955 -0.010557 0.059364
-0.466955 0.027035 0.078891
-0.466955 0.090626 0.014081
-0.466955 0.034004 0.074666
-0.466955 0.080139 0.055721
-0.466955 0.037584 -0.086715
-0.466955 0.044519 0.079104
-0.466955 0.007479 0.012721
-0.466955 -0.038631 -0.090364
-0.466955 -0.015894 0.033662
-0.466955 -0.003994 -0.056518
-0.466955 0.038184 -0.050773
-0.466955 -0.085081 -0.021582
-0.466955 0.043594 0.009650
-0.466955 0.000215 -0.020403
-0.466955 -0.067035 0.062617
-0.466955 -0.062248 -0.076109
-0.466955 -0.031215 0.074970
-0.466955 -0.005145 -0.049875
-0.466955 -0.005291 0.044801
-0.466955 -0.071843 -0.053379
-0.466955 0.061766 0.023792
-0.466955 0.031838 -0.067446
-0.466955 -0.007114 -0.069629
-0.466955 -0.029873 0.032353
-0.466955 0.008689 -0.011003
-0.466955 0.092047 -0.038459
-0.466955 -0.008142 0.074170
-0.466955 -0.029723 -0.066109
-0.466955 0.016580 -0.046864
-0.466955 -0.079487 0.050385
-0.466955 -0.048094 0.087574
-0.466955 0.005189 0.042942
-0.466955 -0.070702 0.030641
-0.466955 0.055054 0.022751
-0.466955 0.039534 -0.050446
-0.466955 0.062721 0.065304
-0.466955 0.062993 -0.061003
-0.466955 -0.050091 -0.059403
-0.466955 -0.084227 0.043745
-0.466955 0.092114 -0.009534
-0.466955 -0.019914 -0.010353
-0.466955 0.096415 -0.011346
-0.466955 -0.049642 0.014262
-0.466955 0.059991 -0.079561
-0.466955 -0.022741 0.051740
-0.466955 0.070714 0.032224
-0.466955 0.069385 0.041984
-0.466955 0.019848 -0.006581
-0.466955 0.051738 -0.065822
-0.466955 -0.005716 -0.060883
-0.466955 -0.037226 -0.062496
-0.466955 0.084136 0.034199
-0.466955 0.075294 0.005006
-0.466955 0.025751 0.017863
-0.466955 -0.028498 -0.087723
-0.466955 0.012098 -0.040466
-0.466955 0.046669 -0.087732
-0.466955 -0.011134 0.004067
-0.466955 0.000666 -0.063967
-0.466955 -0.001813 0.087069
-0.466955 -0.021815 -0.038490
-0.466955 -0.023137 0.044759
-0.466955 -0.023164 0.092804
-0.466955 0.066516 0.074356
-0.466955 0.039673 0.089884
-0.466955 0.060658 0.064757
-0.466955 -0.029103 -0.091170
-0.466955 -0.011251 -0.005433
-0.466955 0.078803 0.027853
-0.466955 0.004676 -0.087738
-0.466955 -0.092506 0.001331
-0.466955 -0.013251 0.004510
-0.466955 0.031918 -0.086004
-0.466955 -0.063126 0.008031
-0.466955 -0.036614 -0.042225
-0.466955 0.097140 -0.014940
-0.466955 0.044326 0.044698
-0.466955 0.033167 -0.049630
-0.466955 0.005488 -0.062278
-0.466955 0.024821 -0.081378
-0.466955 0.079661 -0.038145
-0.466955 0.019398 0.065655
-0.466955 -0.036261 0.026431
-0.466955 0.002485 -0.064770
-0.466955 -0.043035 -0.011318
-0.466955 -0.024471 -0.048473
-0.466955 0.027834 0.038916
-0.466955 -0.057841 0.042813
-0.466955 0.008898 -0.045579
-0.466955 0.038795 -0.085492
-0.466955 -0.092601 -0.003050
-0.466955 -0.069277 0.026025
-0.466955 -0.072225 0.042262
-0.466955 -0.037050 0.084084
-0.466955 0.025303 0.094691
-0.466955 -0.020196 -0.003228
-0.466955 0.064881 -0.021741
-0.466955 0.048858 0.055229
-0.466955 -0.092591 -0.026991
-0.466955 0.026108 0.038882
-0.466955 -0.054485 0.045941
-0.466955 -0.067875 -0.019614
-0.466955 -0.024593 0.079616
-0.466955 -0.081044 0.029444
-0.466955 0.076511 0.047517
-0.466955 -0.073688 -0.040814
-0.466955 -0.028141 0.074582
-0.466955 -0.036237 -0.088026
-0.466955 0.033788 -0.034076
-0.466955 0.024782 0.083507
-0.466955 -0.080388 0.004800
-0.466955 -0.002812 -0.043433
-0.466955 -0.028435 -0.058956
-0.466955 0.092657 0.001875
-0.466955 0.025712 0.034962
-0.466955 0.090717 0.034301
-0.466955 -0.026457 -0.077733
-0.466955 0.061500 -0.070080
-0.466955 0.004278 -0.089380
-0.466955 0.017824 -0.042845
-0.466955 -0.069438 0.062693
-0.466955 -0.039691 -0.044896
-0.466955 0.038971 -0.032200
-0.466955 0.044542 -0.072713
-0.466955 0.030010 0.057913
-0.466955 -0.017510 -0.054232
-0.466955 -0.037831 0.078475
-0.466955 -0.095909 -0.001753
-0.466955 0.068950 -0.053179
-0.466955 0.088335 0.034566
-0.466955 -0.031505 0.079801
-0.466955 -0.003611 0.034897
-0.466955 -0.085732 0.015480
-0.466955 0.030496 0.062449
-0.466955 -0.035764 0.079679
-0.466955 -0.031094 0.023487
-0.466955 0.028655 -0.095451
-0.466955 0.038119 0.071822
-0.466955 0.045760 -0.063214
-0.466955 -0.012159 0.066186
-0.466955 0.018461 -0.006399
-0.466955 -0.060132 0.056255
-0.466955 0.076365 -0.057559
-0.466955 -0.082838 0.013256
-0.466955 0.086908 -0.038998
-0.466955 0.068918 -0.071739
-0.466955 -0.061668 0.078350
-0.466955 -0.096625 -0.009532
-0.466955 0.015916 -0.097476
-0.466955 -0.061622 0.009270
-0.466955 0.026042 0.058545
-0.466955 0.023365 -0.047364
-0.466955 -0.076388 -0.010593
-0.466955 -0.026896 -0.089465
-0.466955 0.074455 -0.027967
-0.466955 0.061004 -0.022620
-0.466955 0.027664 0.024803
-0.466955 0.033277 0.062156
-0.466955 0.087613 0.014689
-0.466955 0.001652 -0.085924
-0.466955 0.060972 -0.015036
-0.466955 0.028637 -0.000775
-0.466955 -0.089120 -0.015663
-0.466955 -0.034847 -0.032190
-0.466955 -0.072176 0.056964
-0.466955 0.000209 0.063130
-0.466955 0.017415 0.043569
-0.466955 0.066433 -0.057197
-0.466955 -0.012167 -0.085826
-0.466955 -0.007430 0.047468
-0.466955 -0.033192 0.032338
-0.466955 -0.010384 -0.080263
-0.466955 -0.072504 -0.046564
-0.466955 0.014027 -0.094603
-0.466955 0.025919 0.063586
-0.466955 -0.061112 0.007835
-0.466955 0.067413 0.018938
-0.466955 0.016898 -0.036221
-0.466955 0.019949 0.057938
-0.466955 0.079130 -0.018092
-0.466955 -0.050875 -0.041723
-0.466955 0.076737 -0.039144
-0.466955 0.016568 -0.004025
-0.466955 -0.083268 0.000761
-0.466955 -0.084292 0.016402
-0.466955 0.079105 -0.008910
-0.466955 0.025222 -0.069684
-0.466955 0.030006 -0.022072
-0.466955 0.011982 0.071117
-0.466955 0.043499 0.000530
-0.466955 -0.013956 0.054032
-0.466955 0.022620 0.020238
-0.466955 0.028478 0.023431
-0.466955 -0.003113 0.017101
-0.466955 0.064459 0.063387
-0.466955 0.029050 -0.086763
-0.466955 0.044665 0.054417
-0.466955 -0.002642 -0.094370
-0.466955 -0.003428 -0.083865
-0.466955 -0.044746 -0.063713
-0.466955 0.083464 -0.026097
-0.466955 -0.040929 -0.067920
-0.466955 -0.026014 -0.068435
-0.466955 0.070536 -0.035587
-0.466955 0.068522 0.059648
-0.466955 -0.002556 0.029112
-0.466955 0.094452 -0.003055
-0.466955 0.014624 0.063057
-0.466955 -0.047474 -0.083941
-0.466955 0.053212 0.030479
-0.466955 0.053333 -0.082049
-0.466955 -0.022108 0.040708
-0.466955 0.054651 0.003498
-0.466955 -0.046637 -0.016201
-0.466955 -0.072192 -0.036233
-0.466955 0.034743 -0.039331
-0.466955 0.002350 -0.007775
-0.466955 0.024563 0.061310
-0.466955 -0.045606 0.060332
-0.466955 0.060324 -0.010301
-0.466955 -0.074012 0.035585
-0.466955 0.052349 0.036048
-0.466955 0.044884 0.038632
-0.466955 0.077042 0.009758
-0.466955 0.090249 -0.038981
-0.466955 0.002390 -0.092072
-0.466955 0.038453 -0.068818
-0.466955 -0.060245 0.067254
-0.466955 0.042268 0.056494
-0.466955 0.065894 -0.046363
-0.466955 -0.031519 -0.053373
-0.466955 0.075786 -0.030426
-0.466955 -0.018659 0.041816
-0.466955 -0.050038 0.057989
-0.466955 0.054338 -0.047576
-0.466955 -0.065933 -0.036843
-0.466955 0.017348 -0.078100
-0.466955 0.083173 0.052182
-0.466955 0.015698 -0.017450
-0.466955 0.056534 0.050919
-0.466955 0.090162 0.029068
-0.466955 0.007289 0.025252
-0.466955 -0.038446 -0.060679
-0.466955 0.098857 0.002066
-0.466955 -0.051312 -0.013042
-0.466955 -0.054362 -0.006735
-0.466955 0.058601 -0.048208
-0.466955 0.048487 -0.030292
-0.466955 -0.038801 0.064286
-0.466955 0.013948 -0.035255
-0.466955 -0.028602 0.045400
-0.466955 -0.031625 0.048766
-0.466955 0.018438 0.064494
-0.466955 -0.021270 0.009505
-0.466955 -0.053231 0.020303
-0.466955 -0.079595 -0.032186
-0.466955 0.020531 -0.068513
-0.466955 -0.005428 -0.085718
-0.466955 -0.087131 0.002048
-0.466955 0.069057 0.054762
-0.466955 -0.025386 -0.011575
-0.466955 0.037554 0.080949
-0.466955 -0.068976 -0.007500
-0.466955 -0.095605 0.021988
-0.466955 -0.033933 -0.093323
-0.466955 0.042229 -0.020451
-0.466955 0.083261 -0.033117
-0.466955 0.018316 0.061417
-0.466955 0.075701 0.048736
-0.466955 0.020510 -0.093052
-0.466955 0.056062 -0.056054
-0.466955 -0.081636 0.050007
-0.466955 -0.027244 0.057701
-0.466955 0.088406 0.040103
-0.466955 -0.078390 0.035801
-0.466955 0.028740 0.010284
-0.466955 -0.001555 0.013771
-0.466955 0.054890 -0.032775
-0.466955 0.020080 -0.023595
-0.466955 -0.033422 0.029327
-0.466955 0.019063 -0.004958
-0.466955 -0.070681 -0.020173
-0.466955 -0.021401 -0.054188
-0.466955 0.032373 0.066560
-0.466955 -0.060824 -0.078684
-0.466955 0.086277 -0.025920
-0.466955 0.083268 0.037808
-0.466955 -0.023815 0.016110
-0.466955 -0.023592 -0.007437
-0.466955 0.022063 -0.010563
-0.466955 -0.080231 0.054332
-0.466955 -0.014916 0.098369
-0.466955 0.067103 -0.069560
-0.466955 0.001417 0.000589
-0.466955 0.003244 -0.058301
-0.466955 0.018357 0.028053
-0.466955 -0.002813 -0.068832
-0.466955 0.036236 -0.042038
-0.466955 0.020054 0.006288
-0.466955 0.037829 0.058927
-0.466955 -0.039421 0.027673
-0.466955 -0.031814 0.068192
-0.466955 -0.087469 0.015432
-0.466955 0.097067 -0.000497
-0.466955 0.061321 0.043403
-0.466955 -0.038279 0.050518
-0.466955 -0.062129 -0.024348
-0.466955 0.079224 -0.031686
-0.466955 -0.054101 -0.054655
-0.466955 0.029375 0.038479
-0.466955 -0.093892 -0.028771
-0.466955 0.002749 -0.033915
-0.466955 0.028715 0.089913
-0.466955 0.070387 -0.057427
-0.466955 -0.028344 0.089081
-0.466955 0.002654 -0.043500
-0.466955 -0.067608 -0.012664
-0.466955 0.021772 -0.049540
-0.466955 0.038584 -0.021616
-0.466955 -0.009125 -0.065305
-0.466955 -0.008446 0.070976
-0.466955 0.001014 0.009814
-0.466955 0.026669 0.032527
-0.466955 0.023186 -0.076423
-0.466955 0.024764 0.009821
-0.466955 -0.077220 0.000257
-0.466955 0.014761 -0.006815
-0.466955 -0.014929 -0.008301
-0.466955 -0.029014 0.078710
-0.466955 -0.063923 0.015455
-0.466955 -0.013868 0.012003
-0.466955 0.066026 -0.026022
-0.466955 0.083246 0.025670
-0.466955 0.045375 -0.069975
-0.466955 -0.000278 0.034818
-0.466955 0.075477 0.040036
-0.466955 -0.047680 0.026258
-0.466955 0.050950 -0.070307
-0.466955 0.069979 0.058347
-0.466955 -0.012717 -0.032782
-0.466955 0.054029 -0.079997
-0.466955 -0.006205 -0.054789
-0.466955 -0.012650 0.087034
-0.466955 -0.095666 0.028315
-0.466955 0.028434 -0.035855
-0.466955 0.091586 0.036139
-0.466955 0.071104 0.009178
-0.466955 -0.041895 -0.031140
-0.466955 -0.047466 0.063197
-0.466955 0.023423 -0.031842
-0.466955 -0.059808 -0.070392
-0.466955 0.017520 0.058085
-0.466955 0.046880 0.071320
-0.466955 -0.090258 -0.017759
-0.466955 -0.046179 -0.080897
-0.466955 -0.008786 0.015407
-0.466955 -0.043973 -0.051703
-0.466955 0.073969 -0.059668
-0.466955 0.032062 0.060448
-0.466955 -0.003421 0.056708
-0.466955 0.011944 -0.024282
-0.466955 0.037496 0.039835
-0.466955 0.004830 0.054358
-0.466955 0.013554 -0.056815
-0.466955 0.040794 0.006578
-0.466955 0.009486 0.060069
-0.466955 0.062631 -0.075124
-0.466955 0.055411 -0.001352
-0.466955 -0.053432 0.061333
-0.466955 -0.034975 -0.080656
-0.466955 0.011639 -0.044321
-0.466955 -0.025087 -0.024741
-0.466955 0.028306 0.087640
-0.466955 -0.006060 -0.096106
-0.466955 -0.005385 -0.008314
-0.466955 0.016643 0.066270
-0.466955 -0.083164 0.047109
-0.466955 -0.040546 0.018441
-0.466955 0.017359 -0.062412
-0.466955 0.016692 -0.021843
-0.466955 -0.003424 0.090768
-0.466955 -0.044085 0.051694
-0.466955 -0.043632 0.070223
-0.466955 -0.006859 -0.008641
-0.466955 0.023062 -0.029619
-0.466955 0.024536 -0.003489
-0.466955 0.073630 -0.043430
-0.466955 -0.044191 -0.019622
