0.465339 0.072073 -0.020510
0.465339 -0.049532 0.020591
0.465339 0.092125 0.008548
0.465339 0.008920 -0.035423
0.465339 -0.046905 -0.086346
0.465339 -0.054881 0.045398
0.465339 -0.046659 0.059512
0.465339 -0.045122 -0.009769
0.465339 -0.007505 0.089598
0.465339 -0.091755 -0.029865
0.465339 0.055904 -0.080168
0.465339 -0.033988 -0.022820
0.465339 -0.084167 0.027667
0.465339 0.037757 -0.055062
0.465339 0.056438 0.011105
0.465339 0.054282 -0.054740
0.465339 0.041935 -0.064198
0.465339 0.039604 0.063149
0.465339 0.086335 0.006783
0.465339 0.015595 -0.011499
0.465339 0.034727 -0.064675
0.465339 0.089087 0.019262
0.465339 0.008027 0.053444
0.465339 -0.039836 0.012517
0.465339 -0.032964 0.013148
0.465339 -0.076235 -0.038668
0.465339 0.012344 -0.063167
0.465339 0.035885 -0.034270
0.465339 0.073591 -0.030683
0.465339 0.093313 -0.034146
0.465339 0.018860 0.035430
0.465339 -0.070899 0.029282
0.465339 0.061888 0.002259
0.465339 0.024026 -0.045032
0.465339 0.046485 0.056854
0.465339 -0.056646 -0.075406
0.465339 -0.028980 0.057703
0.465339 -0.006293 0.095064
0.465339 -0.033481 -0.037940
0.465339 -0.067124 -0.073077
0.465339 -0.093408 0.029182
0.465339 -0.038512 0.047698
0.465339 -0.047989 0.065945
0.465339 -0.063183 0.048465
0.465339 0.022107 0.015643
0.465339 -0.086131 0.030597
0.465339 -0.076237 -0.031463
0.465339 -0.045076 -0.080019
0.465339 -0.052876 -0.030432
0.465339 -0.082665 0.049176
0.465339 0.077995 -0.037884
0.465339 0.041709 0.030750
0.465339 -0.067031 0.065317
0.465339 0.059147 -0.063273
0.465339 -0.050441 -0.030372
0.465339 -0.061020 -0.037598
0.465339 -0.009544 -0.020575
0.465339 0.057457 0.021997
0.465339 -0.003643 -0.059884
0.465339 -0.020388 0.055089
0.465339 -0.085862 0.027445
0.465339 -0.013175 0.006305
0.465339 -0.078066 0.020005
0.465339 -0.057617 0.060549
0.465339 -0.039230 -0.050192
0.465339 0.060734 -0.006425
0.465339 0.094304 -0.012959
0.465339 -0.033669 -0.055863
0.465339 -0.043759 0.019151
0.465339 0.092998 0.015922
0.465339 0.059216 0.045429
0.465339 -0.021127 0.021657
0.465339 0.063760 -0.051254
0.465339 0.061909 0.062274
0.465339 -0.065192 -0.025055
0.465339 0.011193 -0.006928
0.465339 0.024395 -0.062050
0.465339 0.055995 0.021345
0.465339 -0.065936 0.045760
0.465339 -0.006338 0.098404
0.465339 0.055344 0.037836
0.465339 0.048060 -0.077464
0.465339 -0.041577 -0.052456
0.465339 -0.048444 0.037065
0.465339 0.036115 0.070703
0.465339 -0.070076 0.052403
0.465339 -0.039877 0.022644
0.465339 0.074940 -0.053869
0.465339 -0.017900 0.037628
0.465339 -0.018760 0.002754
0.465339 0.032634 -0.058961
0.465339 0.015950 0.068574
0.465339 0.042928 0.012372
0.465339 -0.011691 0.086174
0.465339 -0.016085 -0.048225
0.465339 -0.025381 0.084150
0.465339 -0.039968 0.040882
0.465339 -0.059250 -0.073927
0.465339 -0.045768 0.006015
0.465339 -0.071802 -0.027060
0.465339 0.000958 -0.092058
0.465339 0.081713 -0.020790
0.465339 -0.053952 -0.029158
0.465339 -0.066159 -0.005079
0.465339 0.056105 -0.057110
0.465339 0.029631 0.073821
0.465339 0.082005 0.051816
0.465339 -0.043211 0.042255
0.465339 -0.079548 0.042425
0.465339 -0.062308 0.036491
0.465339 0.012080 0.080844
0.465339 -0.061658 0.028448
0.465339 0.035148 -0.069204
0.465339 0.065553 0.021853
0.465339 0.003003 0.018295
0.465339 -0.033922 0.049992
0.465339 -0.012732 -0.002513
0.465339 -0.059817 0.011446
0.465339 -0.020256 0.039981
0.465339 0.044575 0.087871
0.465339 -0.015559 0.002956
0.465339 0.016749 0.007476
0.465339 0.002507 0.086784
0.465339 -0.059178 0.055249
0.465339 -0.008902 0.018756
0.465339 0.070003 -0.046276
0.465339 0.063819 0.027165
0.465339 0.041625 0.040086
0.465339 0.021554 -0.063481
0.465339 0.052363 0.020464
0.465339 0.063869 -0.076351
0.465339 -0.023873 0.072930
0.465339 0.019046 0.019363
0.465339 0.080469 0.024488
0.465339 -0.094495 0.030575
0.465339 -0.028514 0.026039
0.465339 -0.090680 0.020059
0.465339 -0.015559 -0.022799
0.465339 -0.015532 0.047331
0.465339 -0.002925 0.094855
0.465339 0.000261 -0.036720
0.465339 0.022614 0.057647
0.465339 0.052287 -0.036351
0.465339 -0.041824 -0.041456
0.465339 0.039679 0.048447
0.465339 0.039683 -0.068430
0.465339 -0.088295 -0.014341
0.465339 0.038020 -0.071714
0.465339 0.022532 0.001272
0.465339 -0.024960 0.080143
0.465339 0.005716 0.009194
0.465339 0.014937 -0.086446
0.465339 -0.041737 -0.069044
0.465339 0.050204 0.023660
0.465339 0.078315 -0.039368
0.465339 -0.028419 -0.060798
0.465339 -0.025097 0.061244
0.465339 0.063608 -0.011769
0.465339 0.083245 -0.033632
0.465339 0.066347 -0.051182
0.465339 0.048342 -0.026734
0.465339 -0.060409 0.034154
0.465339 -0.027881 -0.072640
0.465339 -0.026520 -0.024220
0.465339 0.003119 -0.001909
0.465339 0.001819 -0.074060
0.465339 0.069105 -0.057004
0.465339 -0.041175 -0.019039
0.465339 -0.075994 0.040838
0.465339 0.017929 0.029222
0.465339 -0.068687 -0.004003
0.465339 -0.023552 0.018996
0.465339 -0.036226 0.037158
0.465339 0.087536 0.011291
0.465339 -0.072836 0.029900
0.465339 -0.062221 -0.033985
0.465339 -0.030282 0.009112
0.465339 -0.032054 -0.046644
0.465339 -0.015724 -0.005681
0.465339 0.052042 -0.034463
0.465339 0.059283 0.051859
0.465339 0.054728 0.052176
0.465339 -0.057691 -0.071530
0.465339 -0.072665 -0.003676
0.465339 0.093500 -0.018676
0.465339 0.031499 -0.009050
0.465339 -0.077315 -0.043106
0.465339 -0.025063 0.009349
0.465339 -0.012196 0.047202
0.465339 -0.012033 -0.094113
0.465339 0.079383 0.058543
0.465339 0.076232 -0.058309
0.465339 0.053941 0.000665
0.465339 0.009534 0.087708
0.465339 -0.014682 0.041225
0.465339 0.041650 0.081208
0.465339 0.044954 -0.084341
0.465339 0.069196 -0.042901
0.465339 0.060777 -0.071248
0.465339 0.036486 0.035316
0.465339 0.006625 0.034649
0.465339 0.092958 0.023201
0.465339 -0.043208 0.065226
0.465339 -0.054339 -0.014450
0.465339 0.019409 0.084395
0.465339 -0.093981 -0.027044
0.465339 -0.003385 -0.017518
0.465339 0.078964 -0.060801
0.465339 -0.050788 -0.018378
0.465339 -0.056280 -0.009580
0.465339 -0.057613 0.068806
0.465339 -0.047069 -0.022387
0.465339 -0.019033 -0.084997
0.465339 -0.052152 -0.054510
0.465339 -0.007689 0.078272
0.465339 -0.054650 0.074916
0.465339 0.058142 -0.066388
0.465339 -0.094096 0.026068
0.465339 0.058510 0.007373
0.465339 -0.051541 0.047982
0.465339 -0.034114 0.071703
0.465339 0.048272 0.065536
0.465339 -0.088639 -0.010391
0.465339 0.051970 -0.043093
0.465339 -0.079165 0.001068
0.465339 0.042756 0.029270
0.465339 -0.016811 0.085955
0.465339 -0.058748 -0.066423
0.465339 0.030586 -0.042418
0.465339 0.076649 0.050369
0.465339 -0.029210 0.017399
0.465339 -0.029972 -0.029886
0.465339 -0.043925 0.069098
0.465339 -0.003681 -0.028306
0.465339 -0.044756 0.017801
0.465339 0.023204 -0.021548
0.465339 -0.007235 0.050163
0.465339 0.040774 -0.057454
0.465339 0.084336 -0.047468
0.465339 0.042241 0.005078
0.465339 -0.009224 -0.077024
0.465339 -0.077413 0.035465
0.465339 -0.093430 -0.032537
0.465339 0.033854 -0.082581
0.465339 0.049201 -0.078620
0.465339 0.022482 -0.034574
0.465339 0.003074 0.080736
0.465339 -0.039713 -0.044862
0.465339 -0.079802 -0.044597
0.465339 0.050017 -0.074807
0.465339 0.046140 -0.030081
0.465339 0.015293 0.016236
0.465339 -0.001915 -0.016373
0.465339 0.030928 0.076673
0.465339 -0.048437 -0.060802
0.465339 0.061544 -0.043620
0.465339 0.024421 0.068850
0.465339 0.046204 -0.067375
0.465339 -0.000002 -0.022024
0.465339 -0.019028 0.033310
0.465339 -0.030082 0.081506
0.465339 0.003975 -0.078015
0.465339 0.019409 -0.013474
0.465339 -0.078474 -0.023563
0.465339 -0.012915 -0.067387
0.465339 0.004795 0.037095
0.465339 -0.002038 -0.023813
0.465339 -0.028079 -0.078761
0.465339 -0.005385 0.035447
0.465339 0.021503 -0.080721
0.465339 0.096525 0.020464
0.465339 0.075627 -0.006398
0.465339 -0.044872 0.052216
0.465339 -0.029355 -0.070014
0.465339 -0.007727 -0.025272
0.465339 0.013626 -0.036575
0.465339 -0.059033 -0.077252
0.465339 -0.028187 -0.070991
0.465339 -0.017054 0.045416
0.465339 0.032285 0.003365
0.465339 -0.053482 -0.009538
0.465339 -0.029948 0.086350
0.465339 -0.010508 -0.050689
0.465339 -0.032059 0.015606
0.465339 -0.018962 0.067557
0.465339 0.047369 0.047966
0.465339 0.039790 -0.042163
0.465339 -0.041069 -0.047673
0.465339 0.057255 0.071497
0.465339 -0.070732 0.013450
0.465339 -0.083518 0.054557
0.465339 0.041418 0.071934
0.465339 0.037022 -0.056366
0.465339 -0.056518 0.057741
0.465339 -0.078101 0.021723
0.465339 0.078369 0.034064
0.465339 -0.041126 0.045484
0.465339 -0.063588 0.019853
0.465339 0.045223 -0.080436
0.465339 -0.036570 0.027762
0.465339 -0.053553 0.053476
0.465339 0.014371 0.047132
0.465339 0.000608 0.014350
0.465339 0.003899 0.025656
0.465339 0.037413 -0.064258
0.465339 0.084501 0.025613
0.465339 -0.059541 -0.079617
0.465339 0.043144 -0.063038
0.465339 -0.054712 0.083467
0.465339 -0.029154 -0.038099
0.465339 0.036757 -0.067152
0.465339 -0.043052 0.039817
0.465339 -0.058492 0.063415
0.465339 -0.080495 0.029321
0.465339 -0.079976 -0.035745
0.465339 -0.029625 -0.054412
0.465339 -0.022453 -0.057005
0.465339 0.071793 0.042164
0.465339 -0.091412 0.029961
0.465339 0.016647 -0.018160
0.465339 0.009995 0.044196
0.465339 0.031926 -0.062764
0.465339 0.043403 -0.086847
0.465339 -0.052698 0.027202
0.465339 -0.069724 -0.063219
0.465339 -0.011365 0.044906
0.465339 0.068897 -0.064021
0.465339 0.063338 -0.072999
0.465339 -0.030669 0.046777
0.465339 0.033142 0.085400
0.465339 0.023067 0.082731
0.465339 -0.064780 -0.019862
0.465339 -0.040477 0.043272
0.465339 0.035164 0.068206
0.465339 -0.011927 -0.022099
0.465339 0.057559 0.056826
0.465339 0.024387 -0.093599
0.465339 -0.085377 -0.015616
0.465339 -0.056573 0.037869
0.465339 -0.003416 0.028605
0.465339 -0.068365 0.054788
0.465339 0.035162 0.046479
0.465339 -0.044911 0.047605
0.465339 0.064708 0.034546
0.465339 0.014673 -0.034157
0.465339 0.018712 -0.066671
0.465339 0.074119 0.012012
0.465339 -0.037081 -0.063636
0.465339 0.044484 -0.063589
0.465339 0.013029 0.082002
0.465339 0.068331 0.014832
0.465339 -0.053535 -0.041040
0.465339 -0.001471 0.071340
0.465339 0.051108 0.014527
0.465339 0.036168 -0.050105
0.465339 0.022186 -0.079018
0.465339 0.017627 0.094828
0.465339 0.026198 0.015108
0.465339 0.075016 0.043289
0.465339 0.022528 -0.046249
0.465339 0.005149 -0.073385
0.465339 0.060196 0.054020
0.465339 0.062580 0.072559
0.465339 -0.058281 -0.021562
0.465339 -0.054936 -0.025769
0.465339 -0.029906 -0.019916
0.465339 -0.007266 0.081870
0.465339 -0.050573 0.011071
0.465339 0.074784 0.034507
0.465339 0.079938 0.046255
0.465339 -0.036196 0.076065
0.465339 -0.011507 0.056871
0.465339 -0.038174 -0.019978
0.465339 0.060774 0.000883
0.465339 -0.015823 -0.020012
0.465339 -0.001837 0.015735
0.465339 0.038148 -0.077594
0.465339 -0.071641 0.042354
0.465339 0.082471 -0.019635
0.465339 0.070557 0.030529
0.465339 0.080557 -0.006713
0.465339 0.062540 0.041270
0.465339 -0.004800 0.073257
0.465339 0.027361 0.016279
0.465339 -0.009865 -0.005267
0.465339 0.001892 -0.083668
0.465339 0.018095 -0.063958
0.465339 0.079662 -0.026247
0.465339 -0.075177 0.025894
0.465339 -0.081693 -0.048208
0.465339 0.034724 -0.087836
0.465339 0.002344 -0.097447
0.465339 0.000197 0.079316
0.465339 0.039084 -0.064917
0.465339 0.093168 0.031619
0.465339 0.030262 -0.060077
0.465339 0.084536 -0.027578
0.465339 0.029588 0.089816
0.465339 -0.044395 -0.037200
0.465339 -0.070298 -0.070523
0.465339 -0.022730 -0.087817
0.465339 -0.093534 0.018727
0.465339 -0.032276 -0.068331
0.465339 -0.087886 0.033610
0.465339 0.007142 -0.058433
0.465339 -0.010400 0.023722
0.465339 -0.019100 -0.011660
0.465339 0.033905 0.053060
0.465339 -0.044523 -0.035517
0.465339 0.022488 0.026197
0.465339 0.023181 0.020886
0.465339 -0.006432 0.067666
0.465339 0.071922 -0.066431
0.465339 -0.083663 0.031900
0.465339 -0.090198 0.015418
0.465339 0.069795 -0.052380
0.465339 -0.047377 -0.026249
0.465339 0.074096 0.032841
0.465339 -0.079979 0.043849
0.465339 -0.034697 0.047511
0.465339 -0.094909 -0.010376
0.465339 0.000356 -0.000075
0.465339 -0.009393 0.068995
0.465339 -0.011147 -0.064007
0.465339 0.072716 0.019444
0.465339 0.006372 0.021439
0.465339 0.066114 0.033177
0.465339 0.047575 0.078075
0.465339 0.032795 0.010582
0.465339 -0.002027 -0.072571
0.465339 -0.023371 0.086478
0.465339 0.009508 -0.021572
0.465339 -0.017465 -0.088602
0.465339 -0.023186 -0.067216
0.465339 0.019380 -0.046278
0.465339 0.093303 0.006814
0.465339 -0.058227 -0.050236
0.465339 0.027791 -0.017991
0.465339 -0.041663 -0.043671
0.465339 0.014750 0.054109
0.465339 -0.092784 -0.014188
0.465339 -0.089460 0.021135
0.465339 -0.043870 -0.032479
0.465339 0.034150 -0.079075
0.465339 0.074396 0.064045
0.465339 -0.078465 -0.017743
0.465339 -0.060284 -0.036098
0.465339 -0.014871 -0.006974
0.465339 0.007990 0.035462
0.465339 -0.062195 -0.041488
0.465339 0.055984 -0.021098
0.465339 0.061682 0.078178
0.465339 0.096119 -0.026722
0.465339 -0.050641 -0.043869
0.465339 -0.011463 -0.088175
0.465339 -0.067020 -0.060987
0.465339 0.091612 0.025990
0.465339 0.068012 0.019330
0.465339 -0.015246 -0.074489
0.465339 0.017075 -0.067844
0.465339 -0.059530 -0.000857
0.465339 0.056005 0.046036
0.465339 0.021215 -0.066382
0.465339 -0.052850 0.084205
0.465339 0.054928 -0.030618
0.465339 0.063963 0.040114
0.465339 0.075570 -0.035003
0.465339 0.012102 0.042275
0.465339 -0.066744 0.007035
0.465339 0.046059 0.028245
0.465339 -0.045295 -0.075425
0.465339 0.064379 0.013454
0.465339 0.075813 0.016248
0.465339 -0.004187 0.036725
0.465339 -0.053138 0.046087
0.465339 0.056414 -0.045459
0.465339 -0.043825 -0.045843
0.465339 0.079052 -0.029374
0.465339 0.026602 0.011146
0.465339 0.050953 0.082491
0.465339 0.038151 0.069609
0.465339 -0.044121 0.083756
0.465339 -0.038033 0.023379
0.465339 -0.030622 -0.076143
0.465339 0.086090 0.047355
0.465339 0.069232 0.011361
0.465339 0.032006 -0.002063
0.465339 -0.089724 0.023328
0.465339 0.017891 -0.077998
0.465339 0.034330 0.088510
0.465339 -0.012385 0.018369
0.465339 0.042618 -0.070431
0.465339 -0.022437 0.032372
0.465339 -0.016603 -0.026633
0.465339 -0.004832 -0.014964
0.465339 0.057880 0.017065
0.465339 0.082433 0.018438
0.465339 -0.002316 -0.041844
0.465339 -0.078549 0.055424
0.465339 -0.068061 0.000363
0.465339 -0.022032 -0.075539
0.465339 0.049040 -0.030982
0.465339 0.029646 0.047380
0.465339 0.034650 0.090299
0.465339 0.015736 0.005063
0.465339 -0.051375 0.063473
0.465339 0.000184 -0.096760
0.465339 0.001212 0.077194
0.465339 -0.058658 0.047026
0.465339 -0.044023 0.035408
0.465339 0.032885 -0.044875
0.465339 -0.076247 0.053370
0.465339 0.038028 0.044859
0.465339 -0.084201 -0.046842
0.465339 0.024175 -0.003814
0.465339 -0.017542 -0.031538
0.465339 -0.024522 -0.078323
0.465339 0.093337 -0.002115
0.465339 0.018402 0.037121
0.465339 -0.073146 0.045793
0.465339 -0.002661 0.075185
0.465339 -0.013932 -0.080418
0.465339 -0.073164 -0.050164
0.465339 0.054827 0.010219
0.465339 -0.076333 -0.025608
0.465339 0.052840 -0.000337
0.465339 0.032833 0.069071
0.465339 -0.037689 -0.073769
0.465339 -0.007842 -0.075592
0.465339 -0.054559 -0.058101
0.465339 -0.075325 -0.050156
0.465339 -0.048511 -0.058251
0.465339 -0.093690 -0.028916
0.465339 0.036245 -0.015386
0.465339 -0.056376 0.069848
0.465339 -0.077415 0.062645
0.465339 0.051314 -0.011312
0.465339 0.015482 -0.048977
0.465339 -0.036079 -0.082037
0.465339 0.016302 -0.081765
0.465339 -0.044380 -0.040362
0.465339 -0.063873 0.058952
0.465339 0.047587 -0.073202
0.465339 -0.028999 0.007756
0.465339 -0.076182 0.026968
0.465339 -0.081813 -0.025369
0.465339 -0.041297 0.027006
0.465339 0.028822 -0.000424
0.465339 -0.057638 -0.073344
0.465339 -0.042247 0.077816
0.465339 -0.014211 0.007930
0.465339 -0.038384 -0.068962
0.465339 0.036163 -0.029427
0.465339 -0.063359 -0.004460
0.465339 -0.064725 0.060369
0.465339 0.007591 0.057855
0.465339 -0.014071 -0.098530
0.465339 0.027643 0.060676
0.465339 -0.030899 -0.034927
0.465339 0.090250 0.031431
0.465339 -0.033073 -0.062321
0.465339 0.036294 -0.027230
0.465339 -0.035682 0.033836
0.465339 0.064393 -0.045130
0.465339 -0.054992 0.080183
0.465339 0.067403 0.052182
0.465339 0.017788 0.089605
0.465339 -0.000117 0.010219
0.465339 -0.068823 0.033916
0.465339 -0.048670 -0.013912
0.465339 -0.039258 -0.042655
0.465339 0.041651 0.075608
0.465339 0.000559 -0.093603
0.465339 0.057689 -0.062502
0.465339 0.017019 -0.000279
0.465339 0.075874 -0.038723
0.465339 0.017869 -0.041616
0.465339 -0.003606 0.086248
0.465339 -0.052076 0.031349
0.465339 0.024986 -0.040389
0.465339 0.062286 -0.041835
0.465339 0.027079 0.023592
0.465339 -0.000840 0.087117
0.465339 -0.064925 0.049060
0.465339 0.070775 -0.003241
0.465339 0.071325 0.029265
0.465339 0.071337 0.066624
0.465339 0.062964 0.034930
0.465339 -0.026583 0.005384
0.465339 -0.017004 0.066834
0.465339 -0.029191 -0.027636
0.465339 0.025297 0.065926
0.465339 0.044407 0.012272
0.465339 -0.072148 0.017892
0.465339 -0.074406 -0.062143
0.465339 0.050706 0.049045
0.465339 -0.021696 0.011191
0.465339 0.026305 -0.062553
0.465339 -0.007333 -0.047221
0.465339 0.005437 -0.086015
0.465339 0.043617 -0.018414
0.465339 -0.001524 0.019041
0.465339 -0.065882 0.034491
0.465339 0.013623 -0.090514
0.465339 0.051509 0.064300
0.465339 0.096591 -0.004194
0.465339 0.038384 0.009140
0.465339 0.033553 -0.041694
0.465339 0.011686 0.002986
0.465339 0.012965 -0.007374
0.465339 -0.026368 -0.078462
0.465339 -0.038728 0.011464
0.465339 0.096197 0.000076
0.465339 0.024929 0.010795
0.465339 0.000394 -0.038558
0.465339 -0.069599 -0.012996
0.465339 -0.074918 0.041666
0.465339 0.005019 0.067839
0.465339 0.046088 0.055578
0.465339 0.044286 0.024338
0.465339 0.023383 0.063841
0.465339 -0.014803 0.020558
0.465339 -0.078420 0.053510
0.465339 -0.031231 -0.022686
0.465339 -0.063900 -0.050528
0.465339 -0.010352 0.041595
0.465339 -0.027886 -0.028857
0.465339 0.016195 0.056329
0.465339 0.012842 0.056198
0.465339 0.060783 0.033570
0.465339 -0.084583 0.033091
0.465339 -0.001183 -0.043411
0.465339 0.047530 -0.033748
0.465339 0.039610 -0.055539
0.465339 0.036644 -0.060770
0.465339 -0.081161 0.020749
0.465339 -0.048786 -0.016233
0.465339 -0.091802 -0.000879
0.465339 -0.045354 -0.030685
0.465339 -0.013687 0.057417
0.465339 -0.054652 0.003255
0.465339 -0.091211 0.014121
0.465339 -0.037107 0.056899
0.465339 -0.026233 -0.072872
0.465339 0.088202 -0.040065
0.465339 0.053555 -0.022060
0.465339 -0.018548 -0.059771
0.465339 -0.008491 -0.043919
0.465339 -0.036615 0.038838
0.465339 0.027897 -0.072309
0.465339 -0.010037 0.034654
0.465339 -0.085040 -0.027097
0.465339 -0.021649 -0.003324
0.465339 0.008347 -0.013317
0.465339 0.011857 -0.095932
0.465339 0.060118 0.034977
0.465339 -0.004812 -0.060987
0.465339 0.003416 -0.096398
0.465339 0.018717 -0.090194
0.465339 0.019748 -0.082617
0.465339 0.013400 -0.021161
0.465339 -0.033563 -0.091490
0.465339 -0.096783 0.000331
0.465339 0.030881 -0.033827
0.465339 -0.022799 0.030358
0.465339 0.063896 0.028659
0.465339 0.010370 -0.083993
0.465339 -0.031715 -0.033174
0.465339 -0.048194 0.038843
0.465339 0.013473 -0.044640
0.465339 -0.043954 -0.064807
0.465339 0.024716 0.028524
0.465339 0.059334 0.078221
0.465339 -0.010926 0.028263
0.465339 -0.057309 0.020724
0.465339 -0.095654 0.022728
0.465339 0.053833 0.047883
0.465339 -0.072501 0.016398
0.465339 -0.084614 -0.030384
0.465339 -0.008588 0.026192
0.465339 -0.059967 0.053908
0.465339 -0.020791 0.066997
0.465339 0.024431 0.017811
0.465339 0.062647 -0.010757
0.465339 0.070773 -0.007431
0.465339 -0.025398 -0.062956
0.465339 -0.008131 0.028429
0.465339 0.007749 -0.063565
0.465339 0.012890 -0.085655
0.465339 -0.033346 0.092962
0.465339 -0.010138 0.091174
0.465339 -0.087863 -0.015762
0.465339 0.038706 -0.018767
0.465339 -0.020902 -0.077376
0.465339 -0.026080 -0.026621
0.465339 0.035304 0.005343
0.465339 0.052736 -0.055816
0.465339 -0.045403 -0.060267
0.465339 0.055287 0.012287
0.465339 0.010175 0.015850
0.465339 -0.035330 0.085845
0.465339 0.058203 0.011700
0.465339 0.033771 0.062972
0.465339 0.050240 -0.000054
0.465339 0.045592 -0.003829
0.465339 0.075365 0.041588
0.465339 0.083952 -0.042771
0.465339 0.000095 -0.029606
0.465339 0.020502 -0.012571
0.465339 0.052572 0.004151
0.465339 0.002092 0.030600
0.465339 -0.081381 -0.042692
0.465339 -0.027697 0.064317
0.465339 0.040272 -0.059948
0.465339 -0.023344 -0.043486
0.465339 -0.080580 0.031149
0.465339 0.004099 0.062646
0.465339 -0.086585 -0.033694
0.465339 0.047005 -0.064312
0.465339 0.074743 0.028688
0.465339 0.069791 0.022241
0.465339 0.072613 -0.050261
0.465339 0.020881 0.086843
0.465339 0.052572 0.030493
0.465339 0.031961 -0.032437
0.465339 0.010948 0.004539
0.465339 0.012552 0.009506
0.465339 -0.064292 -0.041579
0.465339 0.052853 -0.011598
0.465339 -0.038785 0.033147
0.465339 -0.061115 0.063442
0.465339 -0.071807 -0.008412
0.465339 0.050074 -0.019008
0.465339 -0.001478 -0.002493
0.465339 -0.050140 0.015752
0.465339 -0.009358 -0.093137
0.465339 0.067678 0.013151
0.465339 -0.035038 -0.045839
0.465339 -0.045032 -0.011816
0.465339 0.045413 0.018863
0.465339 0.030294 0.049546
0.465339 0.020081 0.082968
0.465339 -0.013248 0.015284
0.465339 0.052413 0.076264
0.465339 0.056467 -0.022394
0.465339 0.021240 0.029213
0.465339 0.029701 -0.086182
0.465339 -0.007810 0.087851
0.465339 -0.037987 0.005996
0.465339 0.004877 -0.000823
0.465339 0.088756 0.041041
0.465339 -0.024370 -0.002843
0.465339 -0.084119 -0.045332
0.465339 -0.011746 0.016050
0.465339 0.055767 -0.024462
0.465339 -0.026133 -0.042694
0.465339 -0.005820 -0.025422
0.465339 -0.064702 -0.026587
0.465339 0.000260 0.063841
0.465339 -0.035060 -0.040116
0.465339 0.095723 0.014360
0.465339 -0.038578 0.017988
0.465339 -0.019062 -0.001330
0.465339 -0.024547 0.065269
0.465339 -0.057489 -0.059443
0.465339 0.022861 -0.095332
0.465339 0.075502 0.032167
0.465339 0.054195 0.067842
0.465339 0.022764 0.018017
0.465339 -0.097784 0.012737
0.465339 -0.043668 -0.056490
0.465339 -0.083656 -0.001847
0.465339 0.041655 0.011518
0.465339 -0.016506 -0.062501
0.465339 0.040454 0.067087
0.465339 0.010293 0.079809
0.465339 0.035098 -0.023909
0.465339 -0.076152 -0.051787
0.465339 0.004029 0.004555
0.465339 0.050658 -0.055767
0.465339 -0.020746 -0.095919
0.465339 0.034708 0.047835
0.465339 0.022096 0.013978
0.465339 0.036291 0.052150
0.465339 0.001396 -0.010432
0.465339 0.046495 0.050732
0.465339 -0.061956 0.060772
0.465339 -0.024870 0.035906
0.465339 0.022488 -0.004260
0.465339 0.013673 0.089954
0.465339 -0.032032 0.009172
0.465339 0.047609 -0.065758
0.465339 -0.008721 -0.090765
0.465339 0.064650 -0.020264
0.465339 -0.050829 -0.052842
0.465339 0.080854 0.030434
0.465339 0.010811 -0.023291
0.465339 0.000569 0.067345
0.465339 0.056764 -0.052986
0.465339 -0.004003 0.034809
0.465339 0.071711 -0.058261
0.465339 -0.022743 0.005418
0.465339 -0.001086 -0.062425
0.465339 -0.027486 0.051710
0.465339 -0.028435 -0.024362
0.465339 -0.055728 -0.063095
0.465339 -0.073227 0.059855
0.465339 0.087275 -0.014995
0.465339 0.023833 0.002185
0.465339 0.034567 0.041539
0.465339 0.075811 -0.019358
0.465339 -0.082393 0.016406
0.465339 0.016376 0.027659
0.465339 -0.001498 0.081408
0.465339 0.061720 0.042505
0.465339 0.012746 -0.053853
0.465339 0.089572 -0.023575
0.465339 -0.008108 -0.054951
0.465339 -0.020844 -0.081248
0.465339 -0.005992 -0.063317
0.465339 -0.043626 0.087567
0.465339 0.018635 -0.072830
0.465339 -0.008102 0.045051
0.465339 0.077717 -0.050667
0.465339 -0.020718 -0.001488
0.465339 0.051100 0.069362
0.465339 0.060891 0.003674
0.465339 0.013601 0.034145
0.465339 -0.066512 -0.066656
0.465339 -0.016053 0.006402
0.465339 -0.041627 -0.009753
0.465339 0.067373 -0.044851
0.465339 -0.009682 0.060816
0.465339 -0.071184 0.058590
0.465339 0.013504 -0.025080
0.465339 -0.055565 -0.029771
0.465339 -0.074141 0.034681
0.465339 -0.035204 0.003336
0.465339 -0.045523 -0.054673
0.465339 0.000704 0.008221
0.465339 0.062887 0.025342
0.465339 -0.080154 0.058992
0.465339 -0.039667 0.060600
0.465339 -0.077309 0.051441
0.465339 0.036019 0.085187
0.465339 -0.039652 0.068889
0.465339 -0.085136 -0.044155
0.465339 -0.006664 0.011028
0.465339 0.037039 -0.045929
0.465339 -0.059672 -0.063087
0.465339 0.042756 -0.032818
0.465339 0.007686 0.004412
0.465339 0.095792 -0.028311
0.465339 0.013685 0.058490
0.465339 -0.002243 -0.085132
0.465339 0.083983 0.037305
0.465339 -0.037855 -0.076865
0.465339 -0.070815 -0.045070
0.465339 -0.096938 -0.018613
0.465339 -0.023852 0.034525
0.465339 0.014559 0.086328
0.465339 0.059727 0.073741
0.465339 0.008108 -0.000507
0.465339 -0.021349 -0.025512
0.465339 0.081787 -0.010754
0.465339 -0.037756 -0.083025
0.465339 -0.015832 0.059529
0.465339 -0.006428 -0.002396
0.465339 -0.028289 0.022804
0.465339 0.083472 -0.054778
0.465339 0.030544 -0.019599
0.465339 0.073026 0.005679
0.465339 -0.020606 0.033297
0.465339 -0.031454 0.035570
0.465339 -0.050842 -0.076769
0.465339 0.036604 -0.006425
0.465339 0.016049 -0.084698
0.465339 0.066244 0.056338
0.465339 -0.030958 0.003086
0.465339 -0.044735 -0.073923
0.465339 0.062297 0.064772
0.465339 -0.043755 0.046908
0.465339 -0.037360 -0.001751
0.465339 -0.045051 -0.071504
0.465339 -0.055645 0.022061
0.465339 -0.038509 -0.017218
0.465339 0.019259 -0.087687
0.465339 -0.055239 0.041652
0.465339 0.014188 0.002481
0.465339 -0.055157 0.038188
0.465339 0.047287 0.016593
0.465339 0.091906 0.005456
0.465339 -0.015858 0.015597
0.465339 -0.040811 0.000290
0.465339 -0.002520 -0.062265
0.465339 -0.044300 -0.061975
0.465339 -0.060081 -0.006703
0.465339 0.063783 0.010563
0.465339 -0.048000 -0.024464
0.465339 -0.024584 0.011320
0.465339 -0.056846 -0.012866
0.465339 -0.034558 -0.042925
0.465339 -0.033064 0.085635
0.465339 0.038969 -0.016844
0.465339 0.052010 -0.028685
0.465339 -0.012984 0.098799
0.465339 0.085272 -0.050591
0.465339 0.089460 0.022244
0.465339 0.009356 -0.036860
0.465339 -0.064415 0.074089
0.465339 0.025978 -0.001323
0.465339 0.081321 -0.045325
0.465339 0.038079 -0.052673
0.465339 0.056263 -0.072978
0.465339 -0.051050 -0.023184
0.465339 -0.055166 0.053695
0.465339 -0.068903 -0.056905
0.465339 0.033808 0.068086
0.465339 0.093553 0.020591
0.465339 0.073731 -0.044925
0.465339 -0.029198 -0.072050
0.465339 0.036827 0.058290
0.465339 0.009961 0.028263
0.465339 0.005025 -0.068199
0.465339 0.010533 0.006385
0.465339 0.035807 -0.093008
0.465339 -0.075755 0.015683
0.465339 -0.004351 0.011952
0.465339 0.033097 0.046096
0.465339 -0.083160 -0.009800
0.465339 0.086375 0.031811
0.465339 -0.031791 0.053549
0.465339 -0.013754 -0.094661
0.465339 0.033401 -0.063841
0.465339 0.075339 -0.013365
0.465339 0.077055 0.022593
0.465339 0.032485 0.076443
0.465339 -0.093012 -0.004791
0.465339 0.060103 0.007213
0.465339 -0.063765 -0.030531
0.465339 -0.094147 -0.021614
0.465339 -0.011048 -0.002915
0.465339 -0.060683 0.015590
0.465339 -0.035817 -0.010653
0.465339 -0.057021 0.047481
0.465339 -0.032406 0.062167
0.465339 0.024577 -0.038609
0.465339 0.012852 0.037270
0.465339 -0.006509 0.087280
0.465339 -0.057719 0.080993
0.465339 0.013271 0.053234
0.465339 -0.028438 -0.005718
0.465339 -0.041210 0.037030
0.465339 0.006653 0.048925
0.465339 0.079151 -0.009498
0.465339 -0.015292 0.033721
0.465339 -0.075922 0.036005
0.465339 -0.014880 0.075896
0.465339 0.087520 -0.013640
0.465339 0.002808 -0.084803
0.465339 0.015619 0.066402
0.465339 -0.040657 0.086915
0.465339 0.059959 -0.051687
0.465339 0.031882 -0.038340
0.465339 0.005865 0.079585
0.465339 -0.023396 0.050441
0.465339 -0.031295 -0.012879
0.465339 -0.010757 0.094230
0.465339 -0.026914 0.079153
0.465339 -0.013832 -0.083704
0.465339 -0.037037 -0.021491
0.465339 -0.007282 0.061943
0.465339 0.053381 0.064277
0.465339 -0.022891 0.060750
0.465339 -0.003625 0.005051
0.465339 -0.057245 -0.033286
0.465339 -0.042993 -0.010985
0.465339 -0.027364 -0.038161
0.465339 0.040097 0.056971
0.465339 -0.027351 0.010086
0.465339 -0.012631 0.053734
0.465339 -0.007440 -0.042680
0.465339 0.055126 -0.022732
0.465339 0.033661 -0.003543
0.465339 0.010416 0.082892
0.465339 0.035240 -0.030545
0.465339 -0.062370 0.021553
0.465339 0.026676 0.013505
0.465339 0.015240 0.000317
0.465339 -0.027270 0.057763
0.465339 -0.004536 -0.030844
0.465339 0.082348 -0.048409
0.465339 -0.001994 0.043231
0.465339 -0.039607 0.015876
0.465339 0.028783 -0.035814
0.465339 -0.056425 -0.046838
0.465339 0.037448 0.021924
0.465339 -0.098114 -0.017630
0.465339 0.062906 -0.046215
0.465339 -0.069134 -0.048496
0.465339 0.039705 0.078076
0.465339 -0.031269 -0.082700
0.465339 -0.000907 0.072918
0.465339 0.088288 0.021512
0.465339 0.003645 0.050515
0.465339 0.090314 0.025067
0.465339 -0.008626 -0.062272
0.465339 0.047470 0.069619
0.465339 0.079904 -0.013018
0.465339 -0.062735 0.075719
0.465339 -0.012482 0.033671
0.465339 0.087149 0.018765
0.465339 0.020438 0.080293
0.465339 0.082610 0.041552
0.465339 -0.057618 0.065028
0.465339 0.047132 -0.043599
0.465339 -0.019526 0.088536
0.465339 -0.039533 -0.006861
0.465339 -0.014856 -0.024249
0.465339 -0.001275 0.026044
0.465339 0.000874 0.073334
0.465339 0.008334 0.023434
0.465339 0.053032 0.002374
0.465339 0.022857 -0.054639
0.465339 -0.005843 0.016739
0.465339 -0.001794 0.011777
0.465339 0.040941 -0.078765
0.465339 -0.077095 -0.020465
0.465339 0.007932 -0.004329
0.465339 -0.006346 -0.049426
0.465339 -0.030813 0.022292
0.465339 -0.046994 0.035605
0.465339 -0.052083 0.053456
0.465339 0.048901 0.012173
0.465339 0.004330 0.098575
0.465339 0.061372 0.050104
0.465339 0.050865 0.067743
0.465339 0.012669 -0.072458
0.465339 -0.050267 0.034675
0.465339 0.047418 0.021232
0.465339 0.017234 0.017426
0.465339 0.005221 -0.059824
0.465339 0.023882 0.058214
0.465339 0.068640 0.072200
0.465339 -0.000860 -0.039246
0.465339 0.081472 0.031923
0.465339 -0.083468 0.008953
0.465339 0.017397 -0.083505
0.465339 -0.025935 0.076769
0.465339 0.010158 -0.018101
0.465339 0.051046 -0.039597
0.465339 -0.031281 -0.071899
0.465339 -0.054819 -0.064911
0.465339 -0.056271 -0.020030
0.465339 0.050599 0.060334
0.465339 -0.069825 -0.060267
0.465339 -0.006796 -0.095495
0.465339 0.003618 -0.058477
0.465339 0.048469 0.040690
0.465339 0.038543 -0.033379
0.465339 -0.096108 0.025434
0.465339 0.045416 -0.036702
0.465339 0.049979 -0.007075
0.465339 0.049066 -0.086634
0.465339 0.009309 0.004522
0.465339 0.010141 0.048383
0.465339 0.052891 -0.032766
0.465339 0.065607 -0.048005
0.465339 0.061880 -0.067210
0.465339 -0.048553 -0.021000
0.465339 0.003100 0.029398
0.465339 -0.058324 -0.004877
0.465339 -0.054756 0.014863
0.465339 -0.025127 -0.006201
0.465339 -0.072724 -0.009708
0.465339 -0.019710 -0.056358
0.465339 0.040821 0.049294
0.465339 -0.042689 0.066606
0.465339 -0.076492 0.000064
0.465339 -0.084237 0.052925
0.465339 0.004125 -0.009213
0.465339 -0.027884 0.082537
0.465339 -0.017940 -0.072405
0.465339 -0.009616 -0.027123
0.465339 -0.017818 -0.009584
0.465339 -0.057970 0.008374
0.465339 0.008344 -0.007631
0.465339 -0.063955 -0.037658
0.465339 -0.039922 0.038182
0.465339 -0.035834 0.020645
0.465339 -0.040494 -0.059052
0.465339 -0.058825 0.073676
0.465339 0.010964 -0.087344
0.465339 -0.019822 0.038245
0.465339 0.031250 0.090704
0.465339 0.020597 -0.048763
0.465339 0.025064 0.027014
0.465339 -0.014746 0.005334
0.465339 0.052855 0.059001
0.465339 -0.000495 -0.060901
0.465339 0.040746 0.023764
0.465339 0.094925 -0.020580
0.465339 -0.038285 0.074268
0.465339 0.041243 0.077707
0.465339 -0.022390 -0.078525
0.465339 0.029330 0.044493
0.465339 -0.061915 -0.063810
0.465339 0.039348 0.065360
0.465339 -0.053961 0.016347
0.465339 -0.043162 0.080567
0.465339 -0.044985 -0.047265
0.465339 0.024456 -0.001506
0.465339 -0.003382 -0.020529
0.465339 0.012841 0.098845
0.465339 -0.037920 0.015999
0.465339 0.000420 -0.024835
0.465339 0.054034 0.038969
0.465339 -0.016260 0.075718
0.465339 -0.072044 -0.060146
0.465339 -0.011882 0.078354
0.465339 -0.061234 -0.053007
0.465339 0.077827 -0.036457
0.465339 -0.076728 -0.016707
0.465339 -0.053871 -0.011745
0.465339 -0.088971 -0.032609
0.465339 -0.025297 0.073943
0.465339 0.069514 -0.026607
0.465339 0.056451 -0.063785
0.465339 -0.055243 0.043517
0.465339 0.057324 0.081486
0.465339 -0.078308 -0.040187
0.465339 0.036554 0.048272
0.465339 0.042599 0.034073
0.465339 -0.026007 0.010823
0.465339 -0.076943 -0.040441
0.465339 -0.020614 -0.069322
0.465339 0.058277 0.073183
0.465339 -0.008559 0.085416
0.465339 -0.052658 -0.047350
0.465339 -0.059647 0.049476
0.465339 0.012129 0.010907
0.465339 -0.007945 -0.013453
0.465339 0.033588 -0.051804
0.465339 0.019308 0.008765
0.465339 -0.055015 0.081805
0.465339 -0.069766 0.009982
0.465339 0.000849 -0.004819
0.465339 0.045668 -0.040464
0.465339 -0.016562 0.063194
0.465339 0.074986 -0.048728
0.465339 -0.088666 0.015855
0.465339 0.064649 0.030768
0.465339 0.094111 -0.021855
0.465339 0.094984 0.023648
0.465339 -0.048902 -0.048150
0.465339 0.066472 0.041664
0.465339 0.074148 -0.010500
0.465339 0.056305 0.014818
0.465339 0.021820 -0.051369
0.465339 -0.009884 0.025179
0.465339 -0.004591 -0.029399
0.465339 0.050942 0.002084
0.465339 -0.047230 -0.083105
0.465339 -0.020049 -0.094708
0.465339 0.007095 0.005738
0.465339 -0.058532 0.006609
0.465339 0.014685 -0.006175
0.465339 0.028556 -0.038872
0.465339 0.021849 -0.012126
0.465339 -0.041229 0.079207
0.465339 -0.061131 -0.032736
0.465339 0.013865 -0.048961
0.465339 0.003858 0.053410
0.465339 -0.052974 0.002223
0.465339 -0.039112 -0.074627
0.465339 -0.030051 -0.039204
0.465339 0.051321 0.051708
0.465339 -0.037417 -0.065547
0.465339 0.048002 -0.000229
0.465339 0.028122 -0.090029
0.465339 -0.026137 -0.056066
0.465339 -0.033216 0.022747
0.465339 -0.024910 0.058731
0.465339 -0.092484 0.037568
0.465339 0.016326 0.080976
0.465339 -0.060004 -0.039964
0.465339 0.045841 0.024226
0.465339 0.005618 0.025195
0.465339 -0.023127 0.016213
0.465339 -0.052902 0.064062
0.465339 -0.041448 0.008974
0.465339 0.000578 0.094435
0.465339 -0.006678 -0.057826
0.465339 -0.041892 -0.023997
0.465339 -0.033453 0.056075
0.465339 0.067753 0.058373
0.465339 0.056458 0.062701
0.465339 0.007946 0.014114
0.465339 0.075688 -0.041611
0.465339 -0.058363 0.010624
0.465339 -0.056720 0.079927
0.465339 0.038528 0.081378
0.465339 0.015607 -0.044155
0.465339 0.030505 -0.079478
0.465339 0.019403 0.028372
0.465339 0.030456 0.066144
0.465339 0.049394 -0.058956
0.465339 0.052712 -0.020495
0.465339 0.039144 -0.037882
0.465339 -0.020777 0.020051
0.465339 0.041710 -0.035363
0.465339 0.036955 0.008997
0.465339 -0.015594 0.054882
0.465339 -0.044134 -0.067564
0.465339 0.075479 0.022971
0.465339 0.015336 -0.065297
0.465339 -0.062656 0.052903
0.465339 0.001331 -0.090218
0.465339 -0.044384 -0.081589
0.465339 -0.036024 -0.076832
0.465339 -0.091950 0.033720
0.465339 0.053483 0.072624
0.465339 0.059481 0.062167
0.465339 0.033765 -0.080692
0.465339 0.014860 0.032302
0.465339 0.016779 0.053324
0.465339 -0.053192 0.059158
0.465339 0.001476 0.080382
0.465339 -0.023578 0.036410
0.465339 -0.049680 0.068165
0.465339 -0.065192 -0.021980
0.465339 -0.059851 0.079843
0.465339 0.057621 -0.026056
0.465339 -0.006668 -0.060323
0.465339 -0.030495 0.069253
0.465339 -0.038053 -0.045382
0.465339 -0.060009 0.057302
0.465339 0.024542 0.077157
0.465339 0.011686 0.022125
0.465339 0.081664 0.045237
0.465339 0.022756 -0.047643
0.465339 0.069260 0.023582
0.465339 -0.075921 -0.007473
0.465339 0.024689 -0.085814
0.465339 0.023224 -0.092643
0.465339 -0.006571 -0.034086
0.465339 -0.044911 0.060956
0.465339 -0.006172 -0.084826
0.465339 0.033519 -0.005182
0.465339 -0.023045 0.040994
0.465339 0.064078 -0.001222
0.465339 0.053085 0.074261
0.465339 -0.098211 0.002252
0.465339 0.025705 0.061185
0.465339 -0.049959 -0.045217
0.465339 0.011795 -0.032968
0.465339 -0.058505 -0.027964
0.465339 0.009454 0.072119
0.465339 0.004061 0.099892
0.465339 -0.009153 -0.029753
0.465339 -0.005414 -0.069858
0.465339 0.077331 0.042028
0.465339 0.052762 0.043577
0.465339 -0.039482 -0.048797
0.465339 0.025535 -0.035152
0.465339 0.028905 0.037823
0.465339 -0.066911 0.033027
0.465339 0.011853 0.067419
0.465339 -0.081770 0.012314
0.465339 0.035851 0.022402
0.465339 0.033287 -0.087956
0.465339 0.040316 0.006758
0.465339 0.037216 0.030164
0.465339 0.003219 -0.045556
0.465339 0.005620 -0.055659
0.465339 -0.002637 -0.025306
0.465339 -0.046349 0.047875
0.465339 0.061655 0.012813
0.465339 -0.042524 -0.050931
0.465339 0.000099 0.065453
0.465339 -0.048942 -0.035009
0.465339 0.002051 0.017089
0.465339 -0.053197 0.015177
0.465339 0.035877 0.088222
0.465339 -0.035683 0.064265
0.465339 -0.009952 -0.058089
0.465339 -0.033967 0.086953
0.465339 0.079602 -0.055528
0.465339 -0.054028 -0.032654
0.465339 0.023466 0.059751
0.465339 0.066298 0.031478
0.465339 -0.070939 -0.067364
0.465339 0.035479 -0.065988
0.465339 -0.006876 0.001010
0.465339 0.041192 -0.006100
0.465339 0.043225 0.003399
0.465339 0.051224 0.031526
0.465339 -0.006105 -0.007977
0.465339 0.002922 0.078395
0.465339 -0.033952 0.084588
0.465339 -0.080520 -0.022187
0.465339 0.006306 0.020002
0.465339 0.013221 -0.075779
0.465339 0.007963 0.087720
0.465339 -0.059881 -0.048753
0.465339 0.071646 -0.062139
0.465339 -0.059157 -0.075404
0.465339 0.001300 -0.001997
0.465339 -0.036976 0.014485
0.465339 -0.064613 0.046728
0.465339 0.006580 0.064768
0.465339 -0.035186 -0.091458
0.465339 0.002535 -0.043886
0.465339 0.014108 0.015072
0.465339 0.028645 -0.093920
0.465339 -0.061860 -0.061073
0.465339 -0.037808 -0.005226
0.465339 -0.027435 -0.066632
0.465339 -0.010597 0.098224
0.465339 -0.056313 -0.023507
0.465339 0.016020 0.070122
0.465339 0.055648 -0.038169
0.465339 0.000279 -0.099331
0.465339 -0.040740 0.004232
0.465339 0.035066 -0.036288
0.465339 0.008769 0.027463
0.465339 0.003516 -0.060144
0.465339 0.028479 0.072643
0.465339 0.030363 0.008308
0.465339 -0.023945 0.074460
0.465339 -0.053278 0.007750
0.465339 0.033772 -0.010025
0.465339 -0.034072 0.024169
0.465339 -0.056836 -0.018546
0.465339 0.044453 -0.055529
0.465339 -0.022451 -0.068726
0.465339 0.022143 -0.043618
0.465339 -0.005491 0.055361
0.465339 0.021092 -0.075960
0.465339 -0.081034 0.042832
0.465339 -0.028398 -0.019351
0.465339 0.039032 0.079439
0.465339 0.076957 0.055554
0.465339 0.086926 0.009962
0.465339 -0.051969 -0.000676
0.465339 0.008823 0.015246
0.465339 -0.077100 -0.035231
0.465339 -0.039699 0.026432
0.465339 -0.021127 0.088650
0.465339 -0.060518 0.055820
0.465339 0.042643 0.070665
0.465339 0.070837 -0.022722
0.465339 -0.012459 0.043691
0.465339 -0.057787 0.070194
0.465339 0.050545 0.072177
0.465339 0.024696 0.085206
0.465339 -0.069947 0.007766
0.465339 -0.026777 0.028325
0.465339 -0.012537 -0.040046
0.465339 0.083013 0.050274
0.465339 0.008677 0.070425
0.465339 0.025608 0.002037
0.465339 -0.057171 0.022250
0.465339 0.031757 0.079246
0.465339 0.033195 0.014369
0.465339 0.004144 0.015350
0.465339 0.005340 0.072909
0.465339 -0.075540 0.050093
0.465339 0.040050 -0.070780
0.465339 0.053416 0.045780
0.465339 -0.052575 -0.051239
0.465339 -0.042214 -0.039188
0.465339 0.047296 -0.009267
0.465339 0.021092 -0.052625
0.465339 0.084192 0.018629
0.465339 0.058200 0.003041
0.465339 -0.013021 -0.011767
0.465339 0.029963 -0.018248
0.465339 0.053950 0.027287
0.465339 -0.030998 -0.002178
0.465339 0.078333 -0.024807
0.465339 -0.018886 0.031916
0.465339 0.028780 0.032402
0.465339 0.016244 -0.015022
0.465339 0.013221 0.076640
0.465339 -0.006523 0.038744
0.465339 -0.048395 -0.003759
0.465339 -0.029215 -0.017287
0.465339 0.084777 -0.013674
0.465339 -0.007220 0.006399
0.465339 0.096303 -0.008968
0.465339 -0.000432 -0.092421
0.465339 0.002053 -0.000277
0.465339 -0.025930 -0.033991
0.465339 0.044784 -0.089070
0.465339 0.013001 -0.081935
0.465339 0.042241 0.009595
0.465339 -0.036965 -0.030462
0.465339 0.057773 0.049563
0.465339 -0.013076 -0.065945
0.465339 -0.017921 0.086975
0.465339 -0.081988 0.014394
0.465339 0.026306 0.038553
0.465339 0.053223 -0.078760
0.465339 0.007020 -0.025433
0.465339 0.035458 -0.042806
0.465339 0.066175 -0.059921
0.465339 -0.019289 0.007182
0.465339 -0.070546 -0.064958
0.465339 -0.059409 -0.010576
0.465339 0.004764 -0.016749
0.465339 -0.032055 -0.094253
0.465339 0.051023 -0.020474
0.465339 0.022368 0.053098
0.465339 0.020774 0.092592
0.465339 -0.043883 0.089438
0.465339 -0.003314 0.091853
0.465339 0.043972 0.056616
0.465339 -0.035956 0.023095
0.465339 0.075981 0.054240
0.465339 0.084451 -0.009384
0.465339 -0.079605 -0.030041
0.465339 -0.060665 -0.041513
0.465339 0.038125 -0.046967
0.465339 0.082618 -0.035203
0.465339 -0.024113 -0.068415
0.465339 -0.008418 -0.057889
0.465339 0.086673 -0.016331
0.465339 -0.060607 0.035671
0.465339 0.063717 -0.064149
0.465339 -0.090854 -0.020008
0.465339 0.009101 -0.059206
0.465339 0.020755 -0.043805
0.465339 0.014659 0.037004
0.465339 -0.069606 -0.021966
0.465339 0.063604 0.037328
0.465339 0.029027 -0.037452
0.465339 -0.087191 -0.047774
0.465339 0.079999 -0.008173
0.465339 0.050684 -0.044601
0.465339 0.079468 -0.037576
0.465339 -0.050223 -0.012713
0.465339 -0.072195 -0.032164
0.465339 -0.013342 -0.033895
0.465339 0.071563 0.044764
0.465339 0.067938 0.059942
0.465339 -0.054705 0.061872
0.465339 0.055281 0.004919
0.465339 0.087989 -0.021469
0.465339 -0.098037 0.016917
0.465339 0.029605 0.057884
0.465339 0.049268 0.056787
0.465339 -0.010916 0.014127
0.465339 0.074802 0.037673
0.465339 0.009834 0.023427
0.465339 0.038225 0.039998
0.465339 0.053428 -0.013060
0.465339 0.041741 0.058591
0.465339 0.032982 0.023097
0.465339 0.088005 -0.000075
0.465339 -0.023143 0.023978
0.465339 -0.031812 0.068916
0.465339 0.089992 -0.021857
0.465339 -0.060683 -0.051101
0.465339 -0.036847 0.044027
0.465339 0.067889 0.017688
0.465339 -0.037427 0.040407
0.465339 -0.022040 -0.089094
0.465339 -0.059141 0.072108
0.465339 -0.005549 0.022259
0.465339 0.061677 -0.060660
0.465339 0.002298 0.008573
0.465339 -0.015800 -0.068736
0.465339 -0.013734 0.047158
0.465339 0.094697 -0.000934
0.465339 -0.004327 0.061085
0.465339 -0.048765 -0.050992
0.465339 0.087990 -0.044366
0.465339 0.080823 -0.023206
0.465339 0.052781 -0.068580
0.465339 0.035442 -0.010434
0.465339 0.016003 0.035153
0.465339 0.057308 -0.049891
0.465339 0.021448 -0.089944
0.465339 0.065906 -0.052929
0.465339 -0.023643 -0.021312
0.465339 0.067155 0.067003
0.465339 0.000378 0.016648
0.465339 -0.040249 0.019290
0.465339 0.075267 0.000086
0.465339 -0.046672 0.021775
0.465339 -0.005580 0.009839
0.465339 -0.012780 0.070905
0.465339 0.011071 -0.016808
0.465339 -0.013564 0.004264
0.465339 0.035934 -0.003060
0.465339 0.017362 -0.051812
0.465339 -0.045992 0.008129
0.465339 0.024983 0.041826
0.465339 0.011605 -0.001685
0.465339 0.062122 0.000553
0.465339 0.035254 -0.005977
0.465339 0.055444 -0.071352
0.465339 -0.050361 0.081747
0.465339 0.002315 -0.082114
0.465339 0.012523 -0.070645
0.465339 -0.031828 0.031031
0.465339 -0.066491 -0.019069
0.465339 -0.045519 -0.083486
0.465339 0.060314 0.030149
0.465339 0.073560 0.036598
0.465339 0.029837 0.028577
0.465339 0.032182 -0.086408
0.465339 0.007752 0.019122
0.465339 -0.075435 -0.040471
0.465339 0.057820 0.014484
0.465339 0.018493 -0.001198
0.465339 0.062916 -0.049132
0.465339 0.039600 0.037995
0.465339 0.008249 0.086311
0.465339 0.054176 -0.045122
0.465339 0.040102 -0.088883
0.465339 -0.031415 -0.084380
0.465339 0.047254 0.018470
0.465339 -0.067835 -0.043073
0.465339 0.004011 -0.033030
0.465339 -0.005295 0.006024
0.465339 0.063403 0.046433
0.465339 0.015559 -0.002903
0.465339 0.044727 0.003729
0.465339 0.037751 0.091911
0.465339 0.020347 -0.001527
0.465339 -0.022791 0.027342
0.465339 -0.016787 0.013508
0.465339 0.012645 0.066020
0.465339 -0.038435 0.009082
0.465339 -0.086410 0.002375
0.465339 0.014116 -0.010104
0.465339 0.053391 0.037236
0.465339 -0.002649 0.096400
0.465339 0.027744 -0.088520
0.465339 0.094953 0.006201
0.465339 -0.001089 0.005815
0.465339 -0.022669 0.051844
0.465339 0.024876 -0.068665
0.465339 -0.000632 0.039669
0.465339 0.053589 -0.007159
0.465339 -0.091562 -0.038464
0.465339 -0.096075 -0.022209
0.465339 0.078638 -0.027890
0.465339 0.033104 -0.046623
0.465339 -0.032080 0.060510
0.465339 0.009046 0.058318
0.465339 0.002391 0.010364
0.465339 0.060342 -0.036637
0.465339 -0.033378 0.043994
0.465339 -0.004894 -0.002210
0.465339 -0.030339 0.067861
0.465339 0.015540 -0.072445
0.465339 0.019798 0.055330
0.465339 -0.007155 0.022557
0.465339 -0.007239 0.025176
0.465339 -0.021952 -0.006501
0.465339 -0.052580 0.033005
0.465339 -0.024765 0.000113
0.465339 -0.011188 0.071758
0.465339 -0.098230 0.015310
0.465339 -0.027850 0.032155
0.465339 0.044702 -0.029743
0.465339 -0.017376 -0.000279
0.465339 -0.019771 0.034909
0.465339 -0.058634 -0.067923
0.465339 -0.029764 0.055535
0.465339 -0.045924 0.086894
0.465339 0.010553 0.088883
0.465339 0.051008 -0.009139
0.465339 0.076679 0.057080
0.465339 0.022954 -0.056573
0.465339 0.060856 0.055620
0.465339 0.049190 0.050054
0.465339 -0.077429 0.003734
0.465339 -0.060230 0.069252
0.465339 -0.008791 0.074738
0.465339 0.070598 0.043488
0.465339 -0.045394 -0.034422
0.465339 0.032620 0.015579
0.465339 -0.049474 -0.028678
0.465339 0.032404 0.005134
0.465339 -0.030253 0.053597
0.465339 -0.022516 -0.071536
0.465339 0.046687 -0.001055
0.465339 -0.023344 0.090413
0.465339 0.009450 -0.038241
0.465339 -0.027787 -0.011216
0.465339 0.028268 0.002899
0.465339 0.055735 -0.010753
0.465339 0.012167 0.040626
0.465339 -0.053215 -0.036017
0.465339 -0.025078 -0.092605
0.465339 0.050734 -0.017430
0.465339 -0.065126 0.036242
0.465339 -0.039290 0.076882
0.465339 -0.018077 0.041813
0.465339 -0.037263 0.011947
0.465339 0.046102 0.022512
0.465339 -0.067518 0.017830
0.465339 0.057105 0.004537
0.465339 -0.047135 -0.002210
0.465339 0.070008 -0.037496
0.465339 -0.036059 0.042851
0.465339 0.045075 0.085729
0.465339 0.012765 -0.029153
0.465339 0.035893 -0.074522
0.465339 -0.046073 -0.025732
0.465339 -0.029122 -0.025980
0.465339 0.001200 -0.017830
0.465339 0.073122 -0.022720
0.465339 0.003997 0.042468
0.465339 -0.017450 -0.032945
0.465339 0.059470 0.024594
0.465339 -0.081206 -0.057008
0.465339 -0.036373 -0.005747
0.465339 0.065174 0.051596
0.465339 -0.018426 -0.049749
0.465339 0.097800 0.000020
0.465339 -0.004402 0.019932
0.465339 0.027191 -0.076679
0.465339 0.037057 -0.033497
0.465339 0.022745 -0.052512
0.465339 -0.037259 0.008239
0.465339 0.002876 0.083505
0.465339 0.040140 -0.008982
0.465339 0.091039 0.001826
0.465339 -0.036942 -0.022976
0.465339 -0.093572 0.024580
0.465339 -0.034948 0.076734
0.465339 -0.042735 0.070216
0.465339 -0.008985 0.029566
0.465339 -0.007161 -0.037398
0.465339 0.012208 0.029141
0.465339 0.094878 0.019585
0.465339 0.018869 -0.025348
0.465339 -0.017418 -0.092275
0.465339 0.015856 0.050171
0.465339 0.044872 -0.023652
0.465339 -0.010967 -0.076917
0.465339 -0.033859 -0.068996
0.465339 -0.046718 0.003448
0.465339 -0.069810 0.061360
0.465339 0.043154 -0.071964
0.465339 -0.029193 0.031773
0.465339 -0.018274 0.060940
0.465339 -0.012810 -0.031188
0.465339 -0.017964 0.026393
0.465339 0.071671 0.052384
0.465339 -0.017793 0.024280
0.465339 0.047376 -0.038305
0.465339 0.011057 -0.040866
0.465339 0.071161 0.019555
0.465339 -0.066107 0.038187
0.465339 0.034974 -0.028245
0.465339 -0.006698 -0.014559
0.465339 0.015922 -0.056640
0.465339 0.060414 0.041116
0.465339 0.048285 0.010603
0.465339 0.078453 0.062058
0.465339 -0.037420 0.071408
0.465339 0.012414 0.084737
0.465339 -0.007000 -0.050682
0.465339 -0.037851 -0.071339
0.465339 0.043117 -0.015745
0.465339 0.074104 0.023817
0.465339 -0.023951 -0.071677
0.465339 -0.088885 -0.036911
0.465339 -0.044104 0.029174
0.465339 0.008512 -0.014982
0.465339 -0.089075 0.027886
0.465339 0.017532 0.069795
0.465339 0.035556 0.049700
0.465339 0.069652 -0.053876
0.465339 -0.042724 0.026929
0.465339 -0.017099 0.019321
0.465339 -0.063623 0.072661
0.465339 -0.025195 0.048691
0.465339 0.018262 -0.012458
0.465339 0.065398 -0.032836
0.465339 0.039999 0.072087
0.465339 -0.024817 -0.051184
0.465339 0.040505 0.032576
0.465339 0.020238 0.068645
0.465339 -0.079670 0.021389
0.465339 -0.007707 -0.008752
0.465339 -0.046936 -0.049546
0.465339 -0.056299 -0.060713
0.465339 0.078317 0.052285
0.465339 -0.000780 -0.005745
0.465339 -0.058174 -0.063451
0.465339 -0.020311 -0.040058
0.465339 0.072901 -0.004573
0.465339 0.013576 0.060004
0.465339 -0.056368 0.075987
0.465339 -0.038473 0.082170
0.465339 -0.003606 0.031818
0.465339 -0.022203 -0.041059
0.465339 -0.075821 0.009341
0.465339 -0.028280 0.005963
0.465339 -0.010163 0.017184
0.465339 -0.061965 0.056076
0.465339 0.033346 -0.031415
0.465339 -0.080179 -0.026235
0.465339 -0.021604 0.059183
0.465339 -0.057627 0.045023
0.465339 0.082583 0.014065
0.465339 -0.093428 -0.007251
0.465339 -0.005093 -0.071438
