-0.285954 0.021415 -0.097361
0.341757 -0.024314 -0.096661
-0.223541 -0.021373 0.097681
-0.267113 0.053261 0.084744
-0.074380 0.055583 -0.082837
-0.244493 -0.095158 -0.029740
0.345427 0.072451 0.069042
0.101003 -0.036800 -0.092630
0.194697 -0.097938 0.019190
-0.439681 -0.089691 0.043839
0.392304 -0.034695 -0.093398
0.391435 -0.051253 -0.085431
-0.339024 -0.054425 -0.083465
-0.030839 -0.094141 -0.032746
-0.286405 -0.041239 -0.090709
0.235995 0.082416 -0.056342
0.357374 0.065952 0.075240
-0.115438 0.099874 0.004359
0.412609 0.042036 0.090828
0.235144 -0.097061 0.023110
-0.456149 -0.058181 -0.080913
0.281504 0.097923 0.020300
0.045033 -0.061953 -0.078027
0.083321 -0.086051 -0.050249
0.462737 0.055425 0.083307
-0.117386 -0.080152 -0.059231
0.305860 0.032663 -0.094214
-0.048232 -0.074552 -0.066095
-0.017403 0.050278 -0.086146
-0.123302 -0.063304 -0.076979
0.056019 -0.024446 -0.096631
-0.258909 0.023202 0.097324
0.309478 -0.058875 0.080777
0.154962 -0.077829 0.062589
0.416105 0.099969 0.001340
-0.438550 0.087666 -0.047909
0.371366 0.087184 0.049090
0.259733 0.099203 -0.012428
0.034585 -0.087663 0.047819
-0.040167 -0.086741 0.049445
-0.358062 -0.011002 -0.099052
-0.379998 0.099700 -0.007236
-0.432664 -0.002497 -0.099625
0.376551 0.075963 0.065123
-0.210622 0.078248 -0.061987
-0.329410 -0.099632 -0.004286
0.232603 0.020825 -0.097493
-0.045018 -0.005868 0.099882
-0.456493 -0.085483 -0.051210
0.033346 -0.012077 0.099313
-0.465480 0.099164 0.013036
0.251032 0.098230 -0.018561
-0.371821 0.047761 0.087957
-0.443981 0.027744 -0.095760
0.074253 -0.027719 -0.095699
-0.409176 -0.081346 0.057936
0.272348 0.039114 -0.091730
-0.452028 0.010343 -0.099136
-0.041846 -0.092948 -0.036061
-0.151634 -0.074049 0.067028
0.100871 -0.055687 -0.082607
0.147713 0.071476 -0.069653
-0.074829 0.055526 0.083238
-0.227657 -0.061177 0.078991
-0.239234 0.080199 -0.059472
0.006631 0.035640 -0.093142
-0.245378 0.004447 0.099934
-0.228594 -0.080329 -0.059003
-0.019998 -0.075692 0.065165
-0.077921 0.073015 0.068466
-0.452227 -0.031220 -0.094649
-0.090461 0.015748 0.098789
0.000240 0.055813 -0.082680
0.215090 0.067847 0.073568
0.159470 -0.097515 0.021080
-0.333610 0.094558 -0.032236
0.249366 0.010330 -0.099138
-0.079517 0.098676 -0.015759
-0.320085 0.059714 0.080307
0.260424 0.091750 0.039821
0.451176 0.049261 -0.086747
0.030045 0.014867 0.098929
0.426230 0.070660 -0.070470
0.255553 0.081118 -0.058252
-0.435853 -0.093689 0.034365
-0.124531 -0.044248 0.089629
-0.155980 0.086151 -0.050475
0.434852 -0.095036 -0.030158
0.216770 -0.023279 -0.096892
0.382775 -0.053062 -0.084361
0.352452 0.012147 0.099329
0.422446 -0.062268 0.078145
-0.134906 -0.096055 0.027016
-0.425096 0.096611 0.025905
-0.248753 -0.036245 0.093203
-0.075781 0.044805 -0.089101
0.436517 0.093059 -0.036400
-0.168824 -0.054690 0.083648
0.287760 0.086008 -0.050716
0.122540 0.098210 -0.018650
-0.026507 0.033170 0.094394
0.237034 -0.078673 0.061501
0.319352 0.020389 -0.097590
-0.369706 -0.060023 -0.079524
0.165379 -0.056737 -0.081893
0.105377 -0.091273 -0.040021
0.039798 -0.051177 -0.085476
0.148726 -0.020814 -0.097443
0.311720 -0.028222 0.095916
0.214484 0.096616 0.025886
-0.193341 -0.080011 0.059776
-0.185261 -0.057052 0.082043
-0.092303 -0.087207 -0.048294
0.463917 0.077558 0.063239
0.286190 -0.098590 -0.014825
0.445975 -0.096406 -0.025444
-0.173335 0.028552 0.095888
-0.054053 0.004329 0.099938
-0.074251 -0.057400 0.081806
0.157016 -0.099460 0.007673
0.225317 -0.084127 0.053845
0.132192 -0.036091 -0.092895
0.373182 -0.022759 0.097371
-0.382493 0.065931 -0.074895
-0.083288 0.035505 -0.093191
-0.306437 -0.070754 0.070505
-0.387613 -0.096468 0.025593
-0.207308 0.032373 0.094681
0.230632 0.046382 0.088660
0.445501 0.022490 0.097483
-0.077572 0.069557 -0.071573
-0.379576 0.005194 -0.099548
-0.158365 -0.076076 0.064729
0.344289 -0.018039 -0.098027
-0.113313 -0.098998 0.012560
-0.085071 0.089801 -0.043718
-0.457098 -0.038529 0.092244
-0.161042 0.046391 -0.088293
0.310080 0.084735 -0.052869
0.077882 -0.022788 0.097365
0.093968 0.047390 -0.087784
-0.368335 -0.066297 0.074730
0.422557 0.030468 -0.094968
0.240795 -0.056441 -0.082095
0.256378 0.038665 -0.091924
0.103678 -0.079950 -0.059491
0.193989 0.097693 0.021326
0.196088 -0.079115 -0.060568
0.152295 -0.011679 -0.098988
0.130340 -0.000023 0.100066
-0.262792 -0.096836 -0.023756
0.076652 -0.072713 -0.068181
-0.310382 -0.046376 -0.088181
0.349760 -0.098922 -0.012730
-0.366513 0.098294 -0.018169
0.126959 0.060594 0.079625
0.284536 0.093915 -0.034023
-0.431079 0.099933 -0.002129
-0.338923 -0.027346 0.096170
-0.331217 -0.098318 -0.016545
-0.387978 -0.047049 -0.087839
0.110258 0.072025 -0.069104
0.393520 0.021377 -0.097369
0.269551 -0.092353 -0.037525
0.433520 -0.099219 -0.009854
0.244935 -0.099118 -0.010923
-0.094747 -0.094664 -0.031295
0.068939 -0.099497 -0.006912
-0.400108 -0.075688 0.065170
0.108583 -0.046280 -0.088231
-0.465616 0.024118 -0.096757
0.008167 -0.038684 -0.091815
0.289590 -0.002985 0.099973
0.367902 -0.046824 0.088316
0.269685 -0.006779 -0.099451
0.319090 -0.094524 0.032046
0.238006 -0.070250 -0.070646
0.304539 0.041329 0.091134
-0.135126 0.099906 0.003332
-0.441075 0.014901 0.098924
-0.190373 -0.074336 -0.066340
0.173685 -0.087877 0.047399
-0.265326 0.076430 0.064593
0.427650 -0.096715 0.024657
0.032388 -0.075639 0.065225
-0.040975 0.083608 -0.054588
-0.076209 -0.030223 0.095334
-0.004957 -0.037472 -0.092339
-0.235427 -0.041822 -0.090456
-0.191313 0.034337 0.093974
0.317566 -0.044277 0.089614
0.204522 0.031952 0.094833
0.464940 -0.091448 0.039978
0.166358 -0.073788 0.067324
0.032862 0.094815 0.031887
0.289844 0.059568 -0.080058
0.085662 -0.080398 -0.058915
0.183872 0.045585 0.089067
-0.466348 0.020844 0.097851
-0.203171 -0.097041 0.023199
-0.261362 -0.062697 0.077812
0.226436 0.098227 -0.018578
-0.326722 -0.002487 0.099988
0.312221 0.033346 -0.093968
-0.001255 0.055624 0.083171
-0.021425 0.080062 -0.059648
-0.353338 -0.086405 0.050013
-0.050649 0.026365 -0.096160
0.272948 0.020595 -0.097544
0.257190 -0.012411 0.099281
0.032309 -0.031148 0.095038
-0.159334 -0.022241 -0.097124
-0.340698 -0.027934 -0.095637
0.335161 -0.065855 0.075119
0.161912 -0.099610 -0.004959
-0.064294 0.016227 0.098714
-0.414169 -0.088263 -0.046279
-0.203533 0.076412 -0.064250
0.253834 -0.085895 -0.050512
-0.292898 -0.006914 -0.099438
-0.434179 0.097312 -0.022672
0.015499 -0.004984 0.099910
-0.379450 0.098785 0.015431
0.147647 -0.085724 -0.050803
0.267232 0.049041 -0.086877
0.340051 0.038881 -0.091830
0.145650 0.088640 -0.045997
-0.312567 -0.041037 -0.090796
0.011239 0.095477 0.029807
0.456167 0.044802 0.089466
-0.093497 0.091119 -0.040915
-0.221624 -0.031421 -0.094577
0.083178 -0.057431 0.081785
0.056734 -0.067497 0.073672
0.424198 0.042318 -0.090343
0.078599 -0.095128 0.030204
0.122481 0.063490 -0.077015
0.236581 0.048758 0.087407
0.108695 -0.003882 0.099944
-0.407301 0.094339 -0.032846
0.206041 0.045776 0.088969
0.301028 0.068585 0.072907
0.359949 -0.099248 0.009910
-0.092362 -0.099298 -0.009015
-0.027160 0.074431 0.066860
-0.300148 -0.042498 0.090520
0.082759 0.057112 -0.081797
0.146897 -0.096938 -0.023300
-0.307733 0.046128 -0.088427
-0.173274 -0.080714 0.058866
-0.197158 -0.099644 -0.003890
0.037869 0.093523 -0.035112
0.098037 -0.095802 -0.027521
-0.174976 0.090200 -0.042934
-0.036835 -0.027989 0.095983
0.237331 -0.045726 0.088876
-0.313165 0.096925 0.024765
-0.435893 0.044715 -0.089147
0.078375 0.002249 0.100003
0.398959 -0.071573 0.069686
0.353358 -0.024417 0.097001
-0.393004 0.097604 -0.021364
0.169437 0.062208 -0.078010
-0.229065 0.086203 -0.050387
0.116580 0.099848 -0.004819
0.087836 0.088398 0.046835
0.275345 0.094938 -0.031182
0.417684 0.094807 -0.031544
-0.428565 -0.045656 -0.088548
-0.144469 0.086444 0.050342
-0.067315 -0.094075 0.033293
-0.416826 0.027465 -0.095841
0.145961 -0.092938 0.036451
0.225539 0.073829 -0.067181
-0.101414 0.056635 -0.082122
0.309941 0.094790 0.031956
0.438476 0.066680 0.074598
-0.320629 -0.081023 0.058412
-0.077589 -0.003595 -0.099591
0.303155 -0.096225 -0.026068
0.021452 -0.094712 0.031524
-0.014399 -0.084421 -0.053006
0.369597 0.075931 0.065159
-0.428734 0.093068 0.036737
-0.409528 -0.097215 0.022424
-0.183871 -0.049793 -0.086294
-0.235559 0.055244 -0.083067
0.105995 -0.040485 -0.091035
-0.190379 -0.097931 -0.018856
-0.206155 0.041387 0.091109
0.257658 0.006106 0.099882
-0.323726 0.002500 0.099995
-0.059594 0.098354 0.018154
-0.049660 0.085153 -0.052163
-0.153759 0.058581 -0.080799
0.416710 -0.060103 0.079824
0.291303 -0.063440 0.077236
0.261242 0.019230 0.098212
0.301079 0.036879 0.093059
0.304719 -0.069183 -0.071713
-0.130208 -0.099481 0.007444
0.327722 -0.088925 0.045341
-0.147778 0.099577 0.008898
-0.161438 -0.023493 0.097207
-0.096321 0.073957 0.067397
0.286464 0.020978 0.097821
-0.061319 -0.020418 0.097894
0.440223 0.087467 0.048613
0.345956 -0.097643 -0.020145
-0.103440 0.074307 0.067001
0.176942 0.065991 0.075205
-0.409845 0.090367 0.042971
0.280630 0.020003 -0.097677
0.264908 -0.075453 0.065436
0.169701 -0.081220 -0.057759
-0.337670 -0.016658 -0.098246
-0.291841 0.053239 0.084757
-0.010709 0.089495 0.044682
0.305042 -0.039034 0.092026
0.192628 -0.003809 0.099947
-0.359945 0.092702 0.037619
0.304393 0.073215 -0.067877
-0.114773 -0.090357 -0.042136
0.293441 -0.063347 -0.076945
0.445102 0.093954 -0.033915
0.306858 -0.024440 0.096995
-0.455786 -0.074331 -0.066346
-0.364778 0.045108 -0.088947
-0.355237 -0.098876 -0.013024
0.329153 -0.082605 -0.055721
-0.149092 -0.097578 -0.020433
-0.214018 0.023124 0.097342
-0.068652 -0.066974 0.074132
0.337946 0.044620 -0.089195
0.048700 -0.099655 -0.003541
-0.457295 0.055918 0.082972
0.239303 0.027474 0.096201
0.070476 -0.067129 0.073995
-0.039889 0.032342 0.094692
0.339506 0.095663 0.029167
0.194517 -0.095059 0.030444
0.021282 -0.099724 0.001711
-0.173152 -0.089063 0.045071
0.017955 -0.091393 0.040106
0.159073 0.087860 0.047890
0.275203 -0.086838 0.049282
-0.350236 0.088159 -0.046941
0.388219 -0.086159 0.050430
0.140188 0.099871 -0.004080
0.015512 0.056343 0.082683
-0.254857 -0.070800 0.070458
-0.105318 0.085787 0.051453
0.359080 -0.031364 -0.094597
-0.309035 0.078579 -0.061560
0.075646 -0.093688 -0.034006
0.435188 0.006832 -0.099468
0.094082 -0.099514 -0.006735
-0.425980 0.072259 -0.068870
0.301767 -0.083442 0.054853
0.035652 -0.084381 0.053435
0.402274 0.034302 0.093987
0.059070 -0.055160 0.083328
-0.362266 0.099071 0.013625
0.373577 -0.094204 0.032934
-0.279664 0.069798 0.071694
-0.296511 0.092924 0.037108
0.000784 0.038496 0.092360
-0.333845 0.019962 -0.097686
-0.423865 -0.077591 0.062896
0.446655 0.050943 0.086115
-0.358935 -0.096133 -0.026383
-0.112831 0.092584 0.037892
0.282959 0.098590 -0.016299
-0.372369 0.069949 -0.071181
0.017019 -0.070288 0.070971
-0.465264 0.089399 -0.044508
0.029706 -0.097419 -0.021149
0.464097 0.019455 -0.097799
0.269623 0.072600 0.068893
0.353251 -0.032092 0.094698
-0.068920 0.007207 -0.099433
-0.280445 0.096557 0.026090
0.223923 -0.098314 0.016934
-0.040738 0.062385 0.078235
0.119526 -0.080422 0.059247
0.366655 0.089799 0.044086
-0.423672 0.066725 -0.074195
0.280914 -0.094483 -0.031796
-0.466182 0.097291 0.023124
0.384810 0.053935 -0.083957
0.315297 0.091109 -0.040937
0.067153 0.085006 -0.052411
-0.047484 -0.041671 -0.090522
0.373126 -0.088408 0.046358
0.011890 -0.088875 -0.045077
0.454703 0.054107 0.084202
0.436683 -0.041231 -0.090712
-0.120900 -0.030605 -0.094861
0.373286 -0.080525 -0.058750
-0.103492 -0.077533 -0.062608
-0.323699 -0.063339 -0.076952
0.042742 -0.088444 0.046285
-0.409952 0.082888 -0.055648
-0.156125 -0.054164 0.084005
-0.144242 -0.081490 -0.057361
-0.399903 -0.018900 -0.097871
0.020627 -0.055722 0.082946
-0.076418 0.010584 -0.099113
0.061402 0.047284 0.088201
-0.283767 -0.049907 -0.086227
-0.302491 -0.079102 -0.060585
0.075902 -0.090395 -0.042048
0.311514 -0.099137 -0.010719
-0.292104 -0.098576 -0.014917
0.379310 -0.021410 0.097673
-0.430103 0.018890 -0.097925
-0.323007 0.067934 0.073491
0.134341 0.002960 -0.099618
-0.173709 0.036212 0.093299
0.138045 -0.075927 -0.064535
0.427266 0.036911 0.093045
0.006029 -0.091719 -0.038989
0.281096 0.091398 -0.040270
-0.377347 -0.020786 -0.097449
-0.004502 0.035642 -0.093141
-0.131024 0.065584 0.075564
-0.017154 0.042783 0.090494
0.140370 0.097380 0.022730
-0.370420 0.062622 -0.077688
-0.382836 -0.098435 -0.015808
-0.423732 -0.096170 -0.026254
-0.313320 0.043943 -0.089540
0.041879 -0.095649 -0.028050
-0.145099 0.020921 -0.097471
0.442319 0.008062 -0.099352
0.379165 0.099907 0.003299
-0.363185 -0.098515 -0.015298
-0.174240 0.056364 -0.082306
-0.043613 0.055867 -0.082644
-0.213745 0.051470 0.085803
0.132886 -0.098826 -0.013337
0.389829 -0.094936 -0.030502
0.247144 -0.098530 0.015571
0.152662 -0.098481 -0.015518
-0.032398 -0.099603 0.005546
0.120403 0.011877 -0.098991
0.050370 -0.098954 -0.012532
-0.182867 -0.099620 0.005003
0.074325 0.043293 -0.089871
-0.407629 -0.067337 0.073812
0.081185 -0.067614 0.073568
-0.338486 0.095886 0.028401
-0.060965 -0.072230 -0.068666
-0.218745 0.061688 0.078776
-0.355993 0.040795 0.091365
-0.294456 0.059005 0.080857
-0.259653 0.001626 0.100023
0.175008 0.055653 0.083152
0.379952 0.002784 0.099986
0.201235 0.084099 0.054230
0.464071 -0.099276 0.009618
0.140993 0.078260 0.062334
-0.261809 -0.067122 -0.073639
0.122291 -0.073189 0.068004
0.075475 -0.003154 0.099967
0.181824 -0.098902 0.013223
0.110422 -0.095587 0.028624
0.218095 0.060739 -0.079149
-0.045203 -0.099115 -0.010959
-0.409601 0.096549 -0.025756
0.459056 0.038357 -0.092057
0.047487 -0.079662 -0.059864
-0.146770 0.091997 -0.038887
-0.129600 -0.093657 -0.034092
0.020127 0.098039 -0.019415
-0.102407 0.030504 -0.094958
0.277849 -0.036360 -0.092799
0.000355 0.098563 -0.016470
0.024822 -0.082897 -0.055291
-0.276851 0.093370 -0.035537
0.067906 0.026851 -0.096019
-0.402868 0.088146 0.047329
-0.031716 0.077347 0.063512
0.029160 0.099812 0.006328
-0.215903 -0.086039 0.050632
-0.120856 0.088010 -0.047234
-0.048421 0.093122 -0.036226
0.328477 0.089717 -0.043884
0.112968 -0.057663 -0.081265
0.336928 0.030637 0.095282
0.188553 -0.098865 0.013457
0.338797 0.072275 0.069218
0.448112 -0.017105 -0.098175
-0.308739 0.057691 -0.081404
0.360749 -0.059740 -0.079743
0.278152 0.070385 -0.070745
0.132528 -0.058641 0.080959
0.145453 -0.018232 0.098359
-0.064440 -0.085047 -0.051947
0.194137 0.099939 -0.001937
-0.207941 -0.005458 -0.099532
0.400222 0.076700 0.064286
-0.046999 -0.094723 0.031494
0.161904 -0.031347 -0.094603
-0.368456 0.099424 0.010512
-0.260522 -0.092347 -0.037539
-0.152996 -0.078069 0.062280
0.224060 -0.051997 -0.084991
-0.036701 0.094510 0.032733
0.258783 0.056515 0.082566
0.235746 -0.063149 0.077461
-0.143424 0.093865 -0.034161
-0.202622 -0.099353 -0.008432
0.101043 0.006850 0.099829
0.204513 0.070759 -0.070371
0.160484 0.017026 -0.098224
-0.441570 0.099541 0.009275
-0.369346 0.028632 -0.095502
0.346312 -0.043428 0.090047
-0.422911 -0.021038 -0.097393
0.210755 0.030551 0.095307
0.063560 0.086093 0.050935
-0.154641 -0.037254 0.092796
0.312165 -0.079978 -0.059455
-0.201791 -0.099733 0.001416
-0.252553 -0.074405 -0.066262
0.303401 -0.048397 -0.087120
0.044103 -0.067025 -0.073725
0.144080 -0.079208 -0.060448
-0.242706 -0.013361 0.099130
0.019553 0.073832 0.067539
-0.286195 -0.030764 0.095176
0.368302 -0.065798 0.075169
0.400334 -0.032419 -0.094218
-0.442930 -0.099578 -0.006003
-0.165181 0.013631 -0.098762
0.336354 0.096620 -0.025510
-0.379777 0.089722 -0.043874
0.003807 0.083414 0.055237
0.353477 0.093694 -0.034636
-0.399704 0.002537 -0.099631
-0.157598 0.046097 0.088806
-0.289083 -0.077095 0.063535
0.297498 0.079553 0.060668
-0.265965 -0.054054 -0.083717
0.030162 -0.050027 0.086518
0.360893 0.062744 -0.077594
0.397379 0.044924 -0.089040
-0.466404 0.048579 0.087513
-0.372236 -0.045546 0.088967
-0.019892 -0.099033 0.012186
0.441202 -0.094147 0.033093
-0.390463 0.061364 0.079027
0.255335 -0.025497 -0.096345
0.152248 -0.087402 0.048327
-0.463046 -0.076648 -0.063718
-0.400312 0.016073 -0.098375
-0.452447 0.004230 0.099941
-0.011351 -0.020811 -0.097444
-0.207790 0.059174 0.080726
-0.425687 -0.096671 0.024856
0.294336 0.099711 -0.007116
-0.197631 -0.095596 0.028595
0.118556 0.090164 -0.043005
0.381716 -0.067281 0.073862
0.138176 0.038083 -0.092176
0.427524 0.002596 -0.099629
0.226609 -0.038823 0.092117
-0.353337 0.030481 0.095327
0.230453 -0.086655 -0.049228
-0.442375 0.061912 -0.078239
0.151108 0.081479 0.058084
-0.077936 0.082197 0.057028
0.354531 -0.097415 0.021529
0.449034 -0.087631 -0.047519
-0.250738 -0.089412 -0.044023
0.105791 -0.011382 -0.099016
-0.440630 0.097832 -0.020345
0.349166 0.090689 0.042272
-0.126596 0.030325 0.095372
0.384043 0.098872 -0.014521
-0.339030 -0.094703 -0.031185
-0.273387 0.089345 -0.044613
0.295783 -0.095253 0.029775
0.042957 0.099879 0.004194
-0.126201 -0.057239 0.081916
0.088924 0.099907 0.003302
-0.147333 0.087466 -0.048250
-0.424582 -0.087615 0.047914
-0.140649 0.028419 0.095926
-0.105023 -0.082938 -0.055231
0.290163 -0.080044 -0.059371
-0.315292 0.098543 0.016959
0.369857 -0.064536 -0.075919
0.116112 0.045541 0.089089
0.052310 0.065409 -0.075355
-0.271587 0.085836 0.051369
0.333188 0.035501 0.093555
0.288418 0.099811 -0.006007
-0.181953 0.074752 0.066496
-0.082078 0.086375 0.050459
-0.158259 0.099833 0.005657
0.206278 -0.041793 -0.090469
0.000359 -0.094498 -0.031755
-0.171329 -0.089594 -0.043666
0.398058 -0.083183 -0.054870
-0.066239 0.005650 0.099896
-0.422203 -0.045460 -0.088648
-0.348225 0.087017 0.049373
0.185115 0.075091 -0.065749
0.233645 -0.088692 0.045800
0.053291 -0.056182 0.082634
-0.276259 0.045798 0.088958
-0.187901 -0.008521 -0.099287
-0.405485 -0.021244 -0.097347
-0.160230 0.082770 0.056185
-0.000926 -0.096596 0.025153
0.367509 0.099936 0.002371
0.424729 -0.066783 0.074301
-0.335847 -0.098247 0.017354
-0.342305 -0.098907 -0.012823
0.191076 -0.046564 -0.088086
-0.162463 0.095276 -0.030137
-0.144926 -0.073362 0.067808
-0.445869 0.068634 0.072858
-0.311584 -0.079398 -0.060203
-0.104856 0.099903 0.003428
-0.188384 -0.075591 0.065279
-0.466677 -0.096407 -0.025440
0.364363 0.021825 0.097632
0.191803 -0.027800 0.096038
0.161483 -0.099692 0.002722
0.320777 0.041701 0.090973
-0.154418 -0.083559 0.054679
0.133835 0.079838 -0.059937
0.236853 -0.020716 -0.097465
-0.429759 -0.076348 0.064421
-0.230939 -0.079352 0.060626
-0.256747 -0.097395 -0.021255
-0.113721 0.073017 -0.068101
0.092141 -0.038754 0.092147
0.449017 0.099977 -0.000713
0.022235 0.042146 0.090780
0.440721 -0.089963 0.043305
0.013497 0.086190 -0.050409
0.414603 -0.098296 0.017046
0.032253 -0.048753 -0.086910
-0.199405 0.024406 -0.096693
-0.067204 -0.094800 -0.030918
0.283872 -0.097870 0.019493
-0.071001 -0.099248 -0.009547
-0.347047 0.002040 -0.099647
-0.353381 0.066996 -0.073956
-0.447803 0.013714 0.099112
-0.177170 0.019755 -0.097732
0.402607 -0.097818 0.019725
0.326598 0.075264 -0.065552
-0.169397 0.020213 0.097992
-0.171495 -0.077266 -0.062952
-0.108665 0.099872 -0.004071
-0.366079 -0.077209 -0.063026
0.227267 -0.007513 -0.099382
0.296334 0.060728 -0.079158
-0.438462 0.038915 0.092178
-0.107412 -0.066237 -0.074419
0.238417 -0.047795 -0.087459
-0.211086 0.037465 0.092806
-0.208079 -0.028533 -0.095463
0.408009 -0.099733 -0.001060
-0.286695 -0.098780 0.013988
-0.417119 -0.003807 0.099947
0.144427 -0.001792 0.100010
-0.241883 0.099042 -0.013447
-0.218991 0.095961 0.028140
0.211855 0.098180 -0.018788
0.005233 0.097646 -0.021177
-0.242205 0.070883 0.070609
-0.409330 -0.069351 -0.071545
0.312907 0.095170 -0.030500
0.224397 0.086509 -0.049869
-0.439069 0.077482 -0.062975
0.117351 -0.082989 -0.055156
-0.246175 -0.090786 0.041509
-0.402083 -0.054514 0.083767
0.421926 -0.099648 -0.003751
-0.466355 -0.094762 -0.031023
0.069325 0.000702 0.100052
-0.302385 0.067691 0.073706
0.082268 0.010887 0.099448
-0.285314 0.067301 0.074050
-0.323746 0.079905 0.060214
0.415271 0.082501 -0.056218
-0.136769 0.004807 0.099923
-0.395150 0.021986 0.097596
-0.260545 0.090013 -0.043302
-0.253952 0.028139 0.096008
0.283275 0.054323 -0.083693
-0.335231 -0.003549 0.099955
0.320155 0.074740 0.066509
0.153269 -0.058035 -0.081012
-0.258989 -0.027194 0.096214
-0.344186 0.099602 0.008637
0.143886 0.065564 -0.075218
-0.035082 -0.098577 -0.014907
0.280952 0.081571 -0.057585
-0.017785 -0.026713 0.096354
0.188903 -0.099612 -0.004908
0.082903 -0.090396 -0.042047
-0.409934 0.099628 0.008364
0.395982 0.040733 0.091392
0.260048 0.095589 0.029423
-0.007827 0.076257 0.064789
0.209795 -0.087219 0.048636
-0.000132 -0.027542 0.096113
-0.444951 -0.084564 -0.052763
0.405935 -0.055297 -0.082873
-0.384929 0.088236 -0.046789
0.029716 0.083036 0.055794
-0.135477 0.078139 -0.062128
0.120800 -0.068594 0.072665
-0.027216 -0.096825 0.024166
-0.273156 -0.057162 0.081968
-0.024897 -0.098155 0.017938
-0.001999 0.094094 0.033887
0.157098 0.099638 0.008255
-0.099580 -0.059701 0.080136
0.320802 0.099572 -0.008585
-0.249777 -0.081190 -0.057803
-0.315787 -0.012373 0.099285
-0.382757 0.077726 -0.062660
-0.020668 -0.046132 0.088669
-0.377755 -0.096746 -0.024157
0.360235 0.096698 0.025605
0.264684 0.067490 -0.073520
-0.373184 -0.098900 0.013233
0.390181 0.087256 -0.048605
0.072764 -0.011679 -0.098988
0.095293 -0.083342 -0.054637
-0.386659 -0.037055 0.092882
-0.147332 0.068793 -0.072336
0.176421 0.079766 0.060392
0.253298 0.044408 -0.089303
-0.041639 -0.099038 0.012130
-0.184659 0.013833 -0.098730
-0.302214 -0.036863 0.092965
-0.399874 -0.098669 -0.014329
-0.008740 -0.072865 -0.068009
0.155491 0.097447 -0.022064
-0.269904 -0.093807 -0.033676
-0.408192 0.041699 0.090973
-0.462561 0.052585 0.085144
0.438709 0.041855 0.090906
-0.121738 -0.036766 -0.092645
0.208403 0.044749 -0.089130
0.220618 0.011884 0.099353
0.021406 0.088886 -0.045515
-0.121363 0.079558 -0.060298
0.119995 0.099089 0.013512
-0.075198 0.094506 0.032745
-0.067557 0.092884 0.037199
0.055439 0.074110 -0.066862
-0.197873 0.056526 -0.082196
0.231618 -0.056114 -0.082317
-0.430640 0.083839 0.054611
-0.172921 -0.099576 -0.006041
0.063453 -0.070016 -0.070880
0.247794 0.097563 0.021909
-0.136272 -0.008164 -0.099320
-0.049760 -0.089973 0.043286
-0.378341 0.091835 0.039623
-0.296270 0.076834 0.064135
0.370362 0.014864 0.098930
-0.302058 -0.063014 -0.077204
-0.364072 -0.010538 -0.099096
-0.041189 -0.040097 -0.091203
-0.199852 -0.041164 0.091104
-0.016334 0.048380 0.087631
-0.191933 0.080448 -0.059151
0.144886 0.094978 -0.031071
0.220032 0.020691 -0.097523
0.057297 0.087908 0.047796
-0.344775 0.085921 -0.050863
0.150945 -0.072496 -0.068400
-0.260363 0.089453 0.044765
-0.407929 0.059576 0.080414
-0.081785 -0.000269 0.100058
0.181100 0.084652 0.053372
-0.461910 -0.050612 0.086173
-0.311894 -0.099189 -0.010168
0.045507 -0.094318 -0.032255
-0.260746 -0.090592 0.041956
0.075576 -0.076180 0.064611
-0.280693 -0.091798 -0.038806
-0.043357 -0.069138 -0.071758
-0.072881 -0.080637 0.058969
0.243590 -0.032062 -0.094346
-0.191336 0.099581 0.008859
0.001765 0.081236 -0.058079
0.253091 -0.072703 -0.068192
-0.235574 -0.035084 -0.093258
-0.220528 0.099310 0.011720
0.186986 0.098144 0.019311
0.337323 0.099833 -0.005309
0.168519 -0.089736 0.043749
0.125979 -0.098284 -0.016758
-0.285309 0.099899 -0.003205
-0.150937 -0.038947 -0.091701
0.362473 -0.041325 -0.090672
0.204433 -0.069584 -0.071312
0.422959 -0.051555 0.085615
-0.438125 -0.084607 -0.052691
0.193899 -0.063335 0.077317
-0.326175 0.099891 0.003820
-0.441967 0.057252 -0.081702
-0.049678 0.078129 0.062503
-0.333464 0.081477 -0.057724
-0.358321 0.068218 0.073242
0.265201 -0.090733 -0.041268
0.189104 0.080407 0.059567
0.372910 0.052644 0.085109
-0.262277 0.068992 0.072500
-0.261286 0.040528 -0.091117
-0.384713 0.062927 0.077815
0.269652 -0.045382 -0.088688
0.306186 -0.095428 0.029174
-0.127655 -0.081091 -0.057949
-0.116370 0.033193 -0.094023
0.225741 0.099634 -0.007935
-0.089428 0.096479 -0.025997
0.325549 -0.086215 0.050334
0.355548 -0.066232 0.074787
0.415935 0.062495 -0.077787
0.127687 -0.029140 0.095649
-0.313577 0.099610 0.008549
0.375763 0.053179 -0.084430
-0.287158 0.075262 -0.065555
0.095460 -0.013436 -0.098756
-0.458884 -0.012338 -0.098926
-0.049615 0.047482 0.088100
-0.129126 0.099937 0.002352
0.100950 -0.000923 0.100037
0.376558 -0.090168 -0.042540
0.217228 0.002813 0.099985
-0.401934 0.099969 -0.000986
0.132546 0.097232 -0.023026
-0.207720 -0.016240 0.098674
-0.323079 -0.098249 0.017340
0.124736 0.095298 0.030425
-0.115071 0.067837 0.073577
0.062622 0.063569 -0.076954
0.267726 -0.023990 0.097096
0.390100 0.098189 -0.018745
-0.038504 -0.098135 0.018062
0.305728 -0.062590 0.077895
-0.061168 0.022321 0.097521
0.323078 0.091069 -0.041031
0.237211 -0.081104 -0.057930
0.219045 -0.051464 0.085669
-0.114309 -0.076927 -0.063389
-0.070135 0.043342 0.090209
0.400781 0.059750 0.080279
0.411462 -0.092876 -0.036261
-0.141079 -0.077026 -0.063261
-0.395986 -0.037108 0.092859
-0.123781 0.092890 0.037186
0.290788 0.083397 0.055261
0.261642 -0.023865 -0.096761
-0.258336 0.062293 -0.077943
0.329047 0.047273 0.088207
0.135516 -0.087053 -0.048554
0.094109 -0.098723 -0.013988
0.353914 -0.086353 0.050101
0.289266 0.041288 0.091151
0.237392 -0.097091 -0.022612
-0.466639 0.098526 -0.016704
-0.080768 -0.086320 0.050157
-0.451690 -0.010582 0.099454
-0.048996 0.088482 -0.046306
-0.157051 -0.096761 0.024451
-0.404726 -0.099611 0.005313
0.186311 0.020735 -0.097513
-0.112634 0.088093 -0.047069
0.334496 0.084144 -0.053799
0.434422 0.085759 0.051500
-0.452322 0.067934 -0.073129
-0.422460 0.049631 0.086891
0.456254 0.013475 0.099149
0.427596 -0.095397 -0.028916
-0.237644 -0.065080 -0.075440
-0.303847 -0.094190 -0.032611
-0.131300 -0.098314 0.016933
0.444165 0.090261 -0.042815
0.299162 -0.088164 -0.046473
0.409663 -0.071710 -0.069186
-0.065370 -0.098990 -0.012282
-0.130906 -0.009507 0.099556
-0.085559 0.078803 -0.061272
0.280921 -0.070379 -0.070517
-0.430856 0.095074 0.031167
-0.207119 -0.062128 0.078254
0.109495 0.091625 0.040110
-0.426946 -0.094911 0.030953
-0.038995 -0.094652 -0.031327
-0.155528 -0.011219 0.099394
-0.088264 0.094434 -0.032582
-0.138957 0.095376 -0.029794
-0.298690 -0.092237 -0.037793
-0.112863 -0.037357 0.092752
0.118194 0.035909 -0.093045
-0.168693 -0.098634 -0.014548
-0.095088 -0.067027 -0.073723
-0.023491 -0.016020 0.098709
0.155201 0.030697 0.095265
0.053304 -0.093951 -0.033274
0.162416 -0.020862 -0.097432
-0.101270 -0.050365 -0.085956
0.237482 -0.098708 -0.014080
0.167299 0.098207 0.019028
-0.125661 0.097119 -0.023531
-0.005094 0.099018 -0.013597
0.208135 0.082722 0.056255
-0.253647 -0.098701 -0.014129
0.112336 0.080325 -0.059309
0.123327 -0.043480 0.090020
-0.341008 0.093787 -0.034379
0.225907 0.091199 -0.040731
0.195105 0.073380 -0.067689
-0.225716 0.083294 -0.055050
-0.129128 -0.048527 -0.087043
-0.049924 -0.099298 0.009382
0.073903 0.087104 0.049226
0.226068 -0.065124 -0.075401
0.175785 -0.089177 -0.044484
-0.027404 -0.091384 -0.039763
-0.007882 0.007382 -0.099416
0.156501 -0.005709 -0.099524
0.432063 -0.085027 0.052343
-0.211061 0.098168 0.019205
0.394477 -0.067177 0.073954
-0.075399 -0.056458 -0.082083
0.153675 -0.097124 -0.022466
0.172266 0.072486 -0.068644
-0.104920 -0.036010 0.093288
0.042411 0.065916 -0.074908
-0.029261 -0.093448 0.035035
-0.190663 -0.032100 0.094695
-0.460780 0.088352 0.046924
-0.318289 -0.086781 0.049377
0.124858 -0.056386 -0.082132
-0.227284 -0.097205 -0.022104
0.138315 -0.027370 -0.095800
-0.391531 0.070137 0.071355
-0.465459 0.013188 0.099195
-0.095969 0.028118 0.096014
-0.175563 0.012290 0.099315
-0.093121 -0.099250 0.009888
0.152122 0.099847 0.005215
-0.227536 0.096545 0.026133
0.029718 -0.093154 -0.035489
-0.422181 -0.035054 0.093632
0.464129 0.077398 -0.063083
-0.083942 0.056463 -0.082239
0.351500 0.044490 -0.089261
-0.108997 -0.046244 0.088612
-0.284407 0.091217 0.041052
0.166134 0.006250 0.099877
-0.045527 -0.096465 0.025603
0.432143 0.066427 -0.074457
-0.268607 -0.099029 -0.011860
-0.299465 -0.060744 0.079327
0.434554 -0.095204 0.029945
0.178532 -0.052280 -0.084823
-0.402429 0.076404 0.064622
0.315334 0.014027 -0.098699
0.258124 0.062453 0.078183
0.238729 -0.013588 -0.098732
-0.110577 0.045464 -0.088765
-0.284976 0.080100 0.059963
-0.142278 0.017231 0.098555
0.025046 -0.004176 -0.099572
-0.009398 0.097856 -0.020238
-0.272608 -0.010424 0.099469
-0.113874 0.057209 -0.081732
-0.433092 0.086087 -0.050582
0.430557 0.096538 -0.025793
0.372574 0.040145 0.091646
-0.399318 -0.099092 0.011557
-0.370159 -0.029245 0.095618
-0.302006 0.069642 -0.071487
0.211594 0.094858 -0.031404
-0.003731 -0.055010 -0.083068
0.043459 -0.097298 0.022052
0.363617 0.094649 -0.031983
0.341308 0.090009 0.043674
-0.193064 0.046525 0.088588
0.447976 -0.053909 -0.083816
-0.203279 -0.068232 -0.072661
-0.059367 -0.096383 0.025886
-0.208141 0.097883 -0.020115
-0.120661 -0.099607 -0.005058
-0.205517 -0.082954 -0.055208
0.432001 0.047779 -0.087586
0.386020 0.045151 -0.088925
0.342368 -0.047213 0.088118
0.147176 -0.066649 0.074419
0.206928 -0.009290 0.099577
0.325212 0.053222 0.084767
-0.146473 0.042069 0.090814
0.404334 -0.095391 0.029301
-0.462045 0.092727 -0.037199
0.442052 -0.099587 0.006058
0.231903 0.093235 0.036275
-0.262730 -0.099440 -0.007516
0.346074 0.050006 -0.086306
0.465166 0.009003 -0.099263
-0.319116 0.065188 -0.075550
-0.306292 -0.041778 -0.090476
0.045934 -0.048547 0.087394
0.147843 0.009718 -0.099195
-0.349704 -0.054568 0.083731
0.111526 0.049772 -0.086445
-0.086465 -0.098757 0.014133
-0.224653 0.092872 0.037227
-0.135369 -0.072183 -0.068713
-0.163352 0.052357 -0.084916
0.189177 -0.056721 -0.081904
-0.064358 0.085587 0.051790
0.067491 0.099310 -0.011364
0.269733 -0.099667 0.003519
0.246917 -0.068879 0.072380
0.073772 0.010715 0.099464
0.171493 -0.098922 -0.012731
0.189708 0.070290 -0.070840
-0.466285 0.068189 0.073267
0.182587 0.079759 0.060402
-0.296950 0.039371 0.091981
-0.148883 -0.091927 0.038871
0.131188 -0.074611 -0.066028
-0.217028 -0.094894 0.031010
-0.053811 0.099819 0.006091
-0.388124 0.043482 -0.089775
0.397961 0.069589 -0.071540
-0.079065 0.064401 -0.076244
0.190416 0.054928 -0.083282
0.127593 -0.018393 -0.097971
-0.276169 0.085240 -0.052015
-0.091825 0.078367 -0.061834
0.423422 -0.093618 -0.034200
0.062579 -0.048036 -0.087333
-0.034654 -0.092200 -0.037879
0.382932 -0.081353 -0.057563
-0.118167 0.020940 -0.097467
-0.233551 0.034341 0.093972
-0.358308 -0.042817 -0.089995
0.318706 0.087843 0.047923
0.382578 0.027136 0.096299
-0.079383 -0.097787 -0.019502
-0.380431 0.095182 0.030824
0.091124 0.039145 -0.091716
0.123687 0.099204 -0.012421
0.056896 0.099949 -0.001621
-0.175939 -0.091712 -0.039007
0.025847 0.098953 0.014371
-0.287248 0.030686 0.095268
-0.053140 0.094684 0.032251
0.211621 -0.061590 0.078671
0.375090 -0.064979 0.075892
-0.224802 -0.099000 0.012531
0.153014 0.056125 -0.082469
-0.176390 0.079020 0.061355
0.219333 0.041585 -0.090660
0.075400 0.051285 -0.085550
-0.111690 -0.038588 -0.091856
0.405436 -0.099468 -0.007216
-0.278751 0.078040 0.062618
-0.027084 -0.076938 0.063737
-0.069992 -0.022866 -0.096984
0.441504 0.027282 -0.095894
-0.374723 -0.087313 0.048477
0.000151 0.031031 -0.094801
-0.223599 -0.073351 0.067820
-0.049331 -0.029376 -0.095218
0.234341 -0.050740 0.086097
-0.389665 0.092633 -0.037417
-0.057081 0.084846 0.053044
0.391621 -0.022313 0.097471
-0.011909 0.001938 -0.099650
-0.304284 -0.056468 -0.082077
-0.413530 -0.096108 -0.026470
-0.177717 -0.099153 -0.010555
-0.352491 0.085424 -0.051704
0.088894 -0.083177 0.055241
-0.165343 -0.071567 -0.069329
-0.284079 0.042384 -0.090314
-0.096447 0.096165 0.027439
0.277688 0.089057 0.045540
0.455181 -0.088582 0.046014
-0.266286 -0.029813 0.095454
-0.196611 -0.010034 0.099506
0.384129 0.045319 0.089202
0.379139 -0.091005 0.041003
0.239659 0.078269 -0.061959
-0.278955 -0.024968 -0.096498
0.444980 -0.061687 -0.078233
0.041884 -0.086289 -0.049846
0.218901 -0.024211 0.097047
0.085997 0.082320 -0.056484
0.037663 0.053083 0.084850
0.331850 0.052316 0.085303
-0.118481 -0.054087 0.084057
-0.003002 -0.093131 0.035915
0.307093 0.053169 0.084799
0.134927 0.015669 0.098802
-0.105562 0.091443 0.040529
-0.151115 0.070404 0.071089
0.066128 0.096164 -0.027081
0.166825 0.087249 0.048980
0.280617 0.017704 0.098480
-0.405838 -0.055842 -0.082502
-0.103262 0.087803 -0.047639
0.147165 0.099900 -0.003178
-0.332040 -0.088957 -0.044916
0.342302 0.007117 -0.099441
0.338829 -0.091265 0.040402
-0.022648 -0.086877 -0.048852
-0.393872 0.000769 -0.099687
0.034614 0.080880 0.058957
-0.437710 0.003847 -0.099590
-0.330199 0.064433 -0.076215
-0.219219 -0.043354 -0.089721
0.138985 0.099271 -0.011776
-0.053643 0.013252 -0.098822
-0.082909 0.044451 0.089644
0.230629 -0.090474 -0.041867
-0.434933 0.015789 0.098783
-0.190639 0.098077 0.019612
0.224644 0.068422 -0.072698
-0.217246 -0.087925 -0.046941
-0.206691 0.099064 0.013668
-0.184405 -0.063567 0.077136
-0.271226 0.007437 -0.099411
-0.407143 -0.064494 -0.075956
-0.146185 -0.061720 0.078570
-0.465116 0.096382 -0.026328
0.264824 -0.035525 -0.093099
0.084807 0.085510 0.051921
-0.348889 -0.098275 0.017178
-0.228055 -0.041431 -0.090626
0.088211 -0.098906 -0.012830
0.333252 -0.099648 -0.003776
0.358131 0.072092 0.069400
-0.282804 -0.017346 0.098499
-0.081095 -0.059928 0.079960
-0.180983 0.005083 -0.099551
0.416729 0.014182 -0.098675
-0.148256 -0.099478 0.007472
0.353298 0.092690 0.037648
0.245129 -0.097647 -0.020129
0.409721 -0.038682 -0.091816
0.463668 0.100000 0.000011
-0.046550 -0.051084 -0.085530
0.318448 -0.051614 -0.085217
0.148120 0.029767 0.095535
0.432530 -0.099236 0.010036
-0.336591 -0.099287 0.009498
0.023633 -0.097594 -0.020364
0.364007 -0.034908 -0.093322
-0.032698 0.012019 0.099341
-0.365950 -0.042570 -0.090121
0.465203 0.002545 -0.099631
0.063574 0.009948 0.099536
0.367391 0.053211 -0.084411
0.009795 -0.099604 0.005523
-0.453127 -0.021309 0.097695
0.388914 0.051434 0.085825
0.220083 -0.099518 0.007056
0.248488 -0.002715 -0.099618
0.374434 0.036416 -0.092863
-0.099614 -0.084507 0.053223
-0.135737 -0.079572 -0.059980
-0.329096 -0.070721 0.070537
-0.450588 0.093312 0.036059
0.014067 -0.055691 0.082967
0.212832 0.055827 -0.082671
0.065002 0.048680 -0.087090
-0.006604 -0.067526 -0.073283
-0.164761 -0.094395 -0.032042
-0.169464 -0.084735 0.052837
-0.258571 -0.056280 -0.082204
-0.040439 -0.053648 0.084356
-0.137267 0.005564 -0.099536
0.322965 -0.079364 0.060610
-0.093170 -0.031088 0.095059
0.008047 0.065343 -0.075413
0.077304 -0.044431 -0.089173
-0.405557 -0.030855 -0.094781
-0.261318 0.080117 0.059940
-0.033564 -0.094938 0.030860
0.429735 -0.060905 0.079202
-0.264242 -0.051069 0.085902
0.357874 0.041173 -0.090838
-0.348173 0.035856 0.093427
-0.434972 -0.099173 0.010700
-0.362753 -0.097961 0.019083
0.096190 -0.086755 -0.049058
-0.367038 0.061295 0.079080
0.237224 0.088028 0.047561
-0.279126 -0.074521 -0.066130
0.394946 0.080491 0.059459
0.177349 0.015713 0.098795
-0.008235 0.071221 0.070271
0.303062 -0.079053 0.061011
-0.127724 0.009140 0.099613
-0.256261 -0.099489 -0.007000
-0.167208 0.078100 0.062541
0.386388 -0.099140 -0.010691
-0.142583 -0.021672 -0.097251
-0.449149 -0.016195 0.098682
-0.304896 0.010643 0.099471
-0.296076 -0.099558 -0.006271
0.287419 0.069948 -0.071182
0.380926 -0.079446 0.060505
0.215992 -0.071690 0.069569
-0.257807 -0.031428 -0.094574
0.080043 0.093589 -0.034929
0.001757 -0.012645 0.099244
0.089633 -0.034794 -0.093363
-0.348025 -0.083919 0.054151
-0.184370 0.039739 -0.091459
-0.296342 0.092950 -0.036685
-0.232177 0.078950 -0.061082
0.283335 0.027451 -0.095845
-0.074873 -0.013635 -0.098724
0.030954 0.092069 -0.038721
0.128248 0.100004 0.000236
-0.443316 0.089429 -0.044448
0.193112 -0.043974 0.089768
0.000675 -0.042696 -0.090057
0.421579 -0.060217 -0.079373
0.071961 0.096145 -0.027145
-0.426090 -0.051373 0.085722
0.189554 0.099475 -0.009619
-0.295290 0.098901 -0.014336
0.352244 -0.033676 -0.093765
-0.054547 -0.098904 0.013205
0.310392 0.061845 0.078654
-0.319288 -0.095901 -0.027183
0.317470 -0.073942 0.067150
-0.071947 0.085122 0.052577
0.349377 0.018794 0.098307
-0.013447 -0.092122 0.038421
0.295712 -0.084022 -0.053636
0.211137 0.016154 0.098725
0.238455 0.031107 -0.094774
-0.057391 -0.062402 0.078041
-0.439258 -0.087671 -0.047441
-0.213305 -0.088752 0.045682
-0.128643 0.093536 -0.035075
-0.209650 -0.074761 0.066221
-0.398382 0.086267 0.050641
0.209422 -0.016368 0.098654
0.388161 -0.097973 -0.018668
-0.237356 -0.043556 0.089981
0.414798 0.075342 -0.065464
-0.251186 -0.018884 0.098237
-0.411651 0.099382 -0.010594
-0.349237 0.008461 0.099677
0.199302 -0.028796 0.095749
-0.040251 0.008950 0.099631
0.286191 0.042089 -0.090442
-0.189999 0.084401 0.053784
0.007443 -0.094400 -0.032026
0.083396 0.028337 -0.095587
-0.441025 -0.014087 -0.098653
0.387639 0.082388 -0.056384
0.000864 0.044137 0.089804
0.462823 -0.053476 -0.084110
0.175370 -0.058617 -0.080614
0.424623 -0.095197 0.029969
-0.236016 -0.094864 0.031103
0.263522 0.085253 -0.051993
0.014388 -0.040497 0.091393
0.418889 0.043319 0.090221
-0.040071 0.028972 -0.095403
0.375149 -0.077359 0.063196
-0.233947 -0.077977 -0.062035
0.147750 0.016369 0.098691
0.090630 -0.076758 -0.063593
-0.436865 0.095654 -0.028835
-0.276342 0.095759 -0.028472
-0.092841 0.036147 0.093322
0.125046 0.033747 -0.093824
0.464076 0.081670 -0.057440
0.052405 -0.071258 -0.069638
0.291784 0.044219 -0.089399
-0.111723 0.035778 0.093455
-0.092808 0.006770 0.099837
0.396266 0.097813 -0.020430
-0.183578 0.048759 0.087407
0.239756 -0.034139 0.093961
0.436227 -0.027449 -0.095777
0.289728 0.095610 0.029350
0.278988 -0.099611 0.005299
-0.464475 0.090479 0.042750
0.048241 -0.025219 -0.096425
0.280361 -0.013375 -0.098766
0.447314 -0.074918 -0.065680
0.281400 -0.051805 -0.085105
0.363062 0.094383 0.033085
0.283031 0.058391 0.081291
0.457617 0.077271 -0.063247
0.071746 -0.091734 0.039318
-0.380136 0.083685 -0.054475
-0.015056 0.086479 -0.049919
0.265683 0.099849 0.005152
-0.458648 -0.053450 -0.084128
0.042746 -0.021718 -0.097241
-0.074459 -0.038373 -0.091949
0.270350 -0.051755 0.085497
0.242134 -0.054039 0.084090
0.176328 0.062931 -0.077449
0.072269 -0.076650 -0.063715
-0.431280 0.000050 0.100068
0.195197 -0.022535 -0.097058
0.053922 0.078185 -0.062068
0.055768 -0.002154 -0.099636
0.389771 -0.011835 -0.098973
-0.253709 -0.024921 0.096875
-0.262405 0.084606 0.053450
-0.157754 0.071182 0.070310
-0.014833 -0.085924 0.050826
-0.226567 0.050419 -0.086062
0.085481 0.095733 0.028925
0.238753 0.098828 -0.014798
-0.066230 0.089394 0.044880
-0.070082 0.026727 -0.096055
0.068247 -0.079535 -0.060026
-0.060466 -0.082509 0.056225
-0.396156 -0.025313 -0.096398
-0.385956 -0.021933 -0.097193
0.003456 -0.020423 0.097893
-0.024590 0.093646 -0.034769
0.463684 0.099592 0.008741
-0.212512 0.023990 -0.096785
-0.191481 -0.063327 0.077323
0.118712 -0.012233 0.099298
0.002155 0.067740 -0.073300
-0.375809 -0.036665 -0.092688
-0.359998 -0.096656 0.024924
0.110465 0.093361 -0.035561
-0.224407 -0.011313 -0.099023
0.412360 0.096994 0.024455
-0.079204 -0.045547 -0.088604
-0.237098 -0.089634 0.043950
-0.151125 -0.019874 0.098016
-0.121997 -0.065831 0.075140
0.243464 -0.067743 -0.073092
0.209785 -0.022576 -0.097049
-0.117532 0.099262 0.012228
-0.242966 -0.001443 -0.099658
0.365812 -0.020737 0.097823
-0.211849 -0.021320 0.097693
0.425047 -0.003521 -0.099593
-0.048433 0.099297 0.011856
-0.013838 -0.096021 0.027131
0.311885 -0.096856 -0.023664
-0.270218 0.085635 -0.051347
0.462784 0.098523 -0.016724
-0.211289 -0.044271 -0.089254
0.002696 0.098224 0.018952
0.013697 -0.024998 -0.096490
0.408245 0.031912 0.094847
0.052028 0.097544 -0.021631
0.324844 -0.001576 0.100017
-0.393082 -0.006306 -0.099496
-0.150596 0.093746 -0.034493
0.264960 -0.067792 0.073411
0.200796 0.063246 0.077567
0.255622 0.099188 0.012890
0.326020 -0.025654 0.096662
-0.195138 -0.044503 0.089499
-0.007584 0.025708 0.096714
0.078966 0.034064 -0.093709
-0.017023 0.037537 -0.092412
0.071427 -0.032959 -0.094023
0.083892 -0.076004 -0.064448
-0.300620 0.080593 -0.058964
0.038824 0.096038 0.027878
-0.137178 0.043884 0.089933
0.069221 0.084345 0.053867
-0.455557 0.048585 -0.087147
0.025153 -0.099628 -0.004411
0.121636 -0.074573 -0.066071
0.114126 -0.098117 -0.017814
-0.236414 -0.081560 -0.057258
0.005374 0.028398 0.095933
0.349387 -0.000913 0.100038
0.038586 -0.097262 -0.021847
0.291771 -0.099260 -0.009416
0.395595 0.088145 0.047332
-0.319735 0.009240 -0.099241
-0.043985 -0.057465 -0.081399
0.144297 0.048808 0.087378
0.336087 -0.075528 -0.064988
-0.465658 -0.066798 -0.073925
-0.438891 -0.091025 -0.040594
-0.354538 0.095420 0.030004
0.322849 0.006392 0.099873
0.435646 0.014653 0.098963
-0.387952 -0.049202 0.087007
0.062157 0.003084 0.099977
-0.157723 0.039216 0.092048
-0.145446 -0.099116 -0.010941
0.120009 -0.079074 -0.060622
-0.156012 0.024147 0.097113
0.266806 0.063113 -0.077307
0.089413 0.032557 0.094615
0.409351 -0.051026 0.085928
-0.395118 0.090429 -0.042485
0.071789 -0.030278 0.095318
-0.347114 0.049086 -0.086850
-0.454619 0.071806 -0.069324
-0.229170 0.082400 0.056728
0.364017 -0.085395 0.051720
-0.063466 -0.081308 -0.057629
0.206638 -0.081563 0.057617
-0.081787 0.086809 -0.049361
-0.211212 0.093221 0.036313
-0.100823 0.004422 -0.099572
0.124965 0.042657 0.090558
0.409599 -0.097090 0.022983
-0.329618 0.057470 -0.081554
0.092535 0.027116 0.096305
0.256768 -0.083190 -0.054860
-0.319181 0.084202 0.054078
-0.005384 -0.015874 0.098732
0.274423 0.093173 0.036448
0.339715 0.014506 0.098986
0.288215 0.080317 -0.059319
0.236101 0.080696 0.059194
-0.099935 -0.063442 -0.076872
-0.033012 -0.062479 0.077981
0.418895 0.016346 0.098695
-0.041291 0.071939 -0.069191
0.188314 -0.060965 0.079156
0.196677 -0.089101 0.044997
0.112968 -0.093247 -0.035229
0.318350 -0.006332 -0.099493
-0.445070 -0.010722 0.099441
-0.171746 0.029271 -0.095316
-0.304415 0.086115 0.050899
0.028416 0.057167 0.082123
-0.022997 -0.018976 -0.097854
-0.411927 -0.084863 0.052620
-0.320988 -0.092406 -0.037403
-0.028889 -0.038892 0.092087
0.179105 -0.078421 0.061826
-0.380513 -0.074809 0.066166
-0.019111 -0.063711 -0.076646
0.316921 0.003903 -0.099588
0.181453 0.013781 -0.098738
-0.426024 -0.012097 -0.098948
-0.051373 0.098387 0.017947
-0.393585 0.093388 0.035851
-0.032412 0.085053 -0.052331
-0.011916 0.039025 0.092131
0.149539 -0.062015 0.078341
-0.098809 -0.099420 -0.007725
-0.235508 0.074042 0.067301
-0.181359 0.031537 0.094982
0.406438 0.084220 0.054051
-0.371598 0.013588 0.099131
-0.399332 0.061837 -0.078297
-0.094744 0.002120 -0.099644
-0.300669 -0.028009 -0.095615
0.020624 0.061484 -0.078571
-0.342304 -0.064486 -0.075963
-0.126271 -0.013562 -0.098736
-0.054902 -0.085744 0.051130
0.240442 0.077947 0.062738
-0.038887 0.083895 0.054530
0.190070 -0.021326 0.097692
0.023493 -0.086153 0.050440
0.307002 0.065816 0.075359
-0.227646 -0.062423 -0.077662
-0.381293 0.058601 0.081149
0.412202 0.010316 0.099502
-0.240792 0.075605 -0.065166
-0.311603 -0.081468 0.057756
0.319340 -0.098977 -0.012384
-0.040561 0.088232 -0.046798
-0.140531 0.088624 0.046391
0.213128 -0.010524 -0.099097
-0.066246 -0.006276 0.099861
0.264909 -0.097192 -0.022164
0.300753 0.095622 -0.028947
-0.243753 -0.088239 0.046689
-0.055912 0.067036 0.074283
-0.391714 -0.099222 -0.009818
0.034211 -0.075642 -0.064859
-0.287136 0.098651 0.016280
0.234681 0.088772 -0.045738
0.348908 -0.099276 0.009617
0.130053 -0.068307 -0.072589
0.068896 0.063333 0.077500
0.194788 -0.009891 0.099520
-0.095573 0.031428 -0.094659
-0.335119 0.068061 0.073380
0.401307 0.053754 -0.084080
-0.211141 -0.036234 -0.092844
-0.307356 -0.098343 0.016750
0.264004 0.051457 0.085811
0.168013 0.055391 0.083330
-0.033165 -0.036144 -0.092876
0.273892 -0.096847 0.024069
0.260612 -0.089206 0.044791
0.253379 -0.067776 0.073425
-0.159921 -0.059593 0.080220
0.039675 -0.095524 0.028842
0.221003 0.027763 -0.095754
-0.296103 0.067204 -0.073773
0.309526 -0.099738 0.001256
-0.414056 -0.022073 -0.097162
-0.057344 -0.055832 0.082872
-0.322562 -0.012460 0.099273
-0.352668 -0.067285 -0.073496
-0.095903 -0.052683 0.084948
0.351834 -0.089707 -0.043444
0.414471 -0.097896 -0.019013
-0.316876 0.078027 0.062635
-0.251525 -0.085869 -0.050557
-0.024059 0.009736 0.099556
0.320430 -0.066331 -0.074337
-0.204044 0.078330 0.062244
0.416749 -0.067503 0.073666
-0.191924 -0.038920 -0.091712
0.313295 -0.032976 -0.094017
-0.455379 0.099712 0.007469
0.185808 -0.066426 0.074615
0.422679 -0.097769 -0.019578
-0.389693 -0.061609 -0.078294
0.463722 0.095125 0.031019
0.254085 -0.022198 0.097497
-0.249397 -0.043967 0.089772
-0.143721 -0.073381 -0.067423
-0.355859 -0.098100 0.018284
0.249575 0.050191 -0.086197
0.119123 -0.047213 0.088118
0.427377 0.098808 0.015290
-0.397438 -0.089389 0.044432
-0.355422 -0.017541 0.098468
-0.303888 -0.004530 0.099924
0.413519 0.079184 0.061144
0.119093 0.094513 0.032723
0.144091 0.040074 -0.091314
0.051444 0.089975 -0.043378
0.267398 -0.000831 -0.099677
0.119151 -0.029975 0.095406
-0.056894 0.047947 -0.087500
-0.171179 -0.084996 -0.052034
0.416056 0.041940 -0.090507
-0.438579 -0.023295 0.097251
0.050956 -0.037415 -0.092363
0.099467 0.074554 -0.066357
-0.151449 -0.027879 0.096015
-0.404599 0.007511 -0.099404
0.425103 0.098972 -0.013889
0.003887 -0.099734 0.001377
0.419407 -0.072330 -0.068566
0.265210 -0.062355 0.078077
0.453605 -0.089781 -0.043299
-0.098374 0.087180 0.049098
-0.205133 0.094470 0.032844
0.174333 0.083761 0.054726
-0.087173 -0.084916 -0.052169
-0.239648 0.011867 0.099355
0.115841 -0.005869 0.099882
0.060402 0.017658 -0.098124
-0.023914 -0.007771 -0.099357
-0.091494 0.023057 -0.096994
-0.223822 -0.096069 -0.026602
0.058211 0.096391 0.026661
-0.238138 0.095853 0.028512
-0.464135 0.058002 0.081555
-0.203990 0.046795 0.088450
-0.445207 -0.098875 -0.013026
-0.084514 -0.099721 -0.001437
-0.159093 0.082366 -0.056417
-0.245862 -0.099422 -0.007712
-0.188849 -0.089780 0.043664
0.345270 -0.000473 -0.099689
-0.135658 0.012655 0.099279
-0.063547 0.061072 0.079254
0.218381 0.098945 -0.014061
0.354055 -0.098105 -0.017891
-0.311679 0.081998 -0.056958
0.375581 -0.092833 -0.036381
-0.301608 -0.099653 -0.003600
-0.443361 0.092013 0.039213
0.212424 0.063883 -0.076700
0.136073 0.043549 -0.089741
-0.336275 0.085557 0.051841
-0.176530 -0.047576 -0.087570
-0.435005 -0.096552 -0.024941
0.140242 0.086652 0.049990
0.425503 0.070706 0.070786
0.042234 -0.029002 -0.095326
0.241803 -0.098015 0.018817
0.137697 -0.040780 -0.090908
-0.334706 -0.004377 -0.099566
0.258128 -0.051327 0.085750
-0.291882 -0.093186 0.035762
0.204529 -0.002880 -0.099613
0.201254 -0.062944 -0.077258
0.444993 0.077160 -0.063390
-0.023498 0.078673 0.061802
-0.299830 -0.093732 0.034245
0.415403 0.025032 -0.096548
-0.352482 -0.008289 -0.099308
0.054741 -0.050274 -0.086010
-0.046614 0.078656 -0.061461
-0.012512 -0.011799 0.099339
0.086750 -0.009380 -0.099205
-0.116148 0.082455 -0.056285
0.435671 -0.010912 0.099423
-0.362626 0.061772 -0.078348
0.158997 0.064121 0.076853
0.062010 -0.099348 -0.008494
-0.118217 -0.042896 0.090317
-0.129285 0.001446 0.100028
0.329382 -0.002973 -0.099610
-0.185064 -0.094668 -0.031284
-0.292265 0.099296 0.011870
0.183867 -0.079682 -0.059838
0.261480 -0.000086 0.100064
0.297519 0.073903 -0.067096
0.444954 -0.097693 -0.019919
-0.372092 -0.069882 0.071377
-0.203866 -0.021632 0.097623
0.099986 -0.099388 -0.008063
0.155362 0.090327 0.043048
0.108495 0.068564 0.072929
-0.207888 0.095934 -0.027871
-0.167962 -0.060107 0.079821
-0.123856 -0.071052 -0.069844
0.203412 -0.099558 0.006636
-0.105789 -0.060609 0.079432
0.325802 0.093487 -0.035211
0.032621 0.061174 -0.078812
0.198283 0.058524 0.081201
-0.286213 -0.000444 0.100052
0.268650 0.096863 -0.024674
-0.265934 0.005192 -0.099548
-0.200935 0.098376 -0.017649
-0.375137 -0.084368 0.053457
-0.019401 -0.003904 -0.099581
-0.372374 0.089019 0.045615
0.259676 -0.072109 0.069149
0.229972 -0.021043 -0.097392
-0.137687 -0.048643 0.087337
-0.276777 -0.019568 0.098084
0.417666 -0.082049 0.056901
-0.452796 0.098904 0.014681
0.232958 0.091864 -0.039195
0.307210 0.087710 -0.047821
0.182891 0.099893 0.003765
0.418713 -0.087966 -0.046862
0.195079 0.092449 -0.037842
-0.273477 0.067856 0.073560
-0.156542 -0.094104 -0.032849
0.189867 0.095459 0.029870
0.145975 0.096907 -0.024479
0.420712 -0.078714 0.061448
0.086969 0.092496 0.038096
-0.305801 -0.023460 0.097214
-0.412449 -0.037455 0.092709
0.358080 -0.093589 -0.034279
-0.025331 -0.035528 -0.093098
0.193768 0.011289 0.099410
0.222128 -0.079885 -0.059575
-0.354607 -0.050185 0.086425
-0.295396 0.041957 -0.090499
