0.465339 0.023159 0.004648
0.465339 0.000822 0.053342
0.465339 0.070522 -0.055015
0.465339 0.003351 -0.069025
0.465339 -0.016441 0.065672
0.465339 0.008418 -0.043823
0.465339 0.060747 -0.013488
0.465339 0.070116 -0.016041
0.465339 -0.069762 0.016191
0.465339 0.089428 0.020214
0.465339 0.052559 -0.057853
0.465339 -0.031218 -0.000240
0.465339 0.044163 -0.044176
0.465339 -0.048748 0.040682
0.465339 0.020939 0.064995
0.465339 0.032872 0.025167
0.465339 -0.049619 -0.072570
0.465339 0.075837 -0.001674
0.465339 -0.018190 -0.079835
0.465339 -0.061429 -0.024266
0.465339 0.036198 0.015292
0.465339 0.053710 -0.050815
0.465339 0.021761 0.073034
0.465339 0.063264 -0.016818
0.465339 0.067663 0.070185
0.465339 -0.048304 -0.018768
0.465339 0.023278 -0.040756
0.465339 0.032265 0.019678
0.465339 -0.000618 -0.003413
0.465339 0.004531 0.016992
0.465339 -0.098699 0.011760
0.465339 0.040842 0.026429
0.465339 -0.068016 0.045623
0.465339 -0.027669 -0.081392
0.465339 -0.054655 -0.083208
0.465339 -0.051871 -0.028394
0.465339 -0.016221 0.078256
0.465339 0.028928 -0.042992
0.465339 0.045351 -0.054456
0.465339 -0.080670 -0.030170
0.465339 0.051505 -0.073077
0.465339 0.020773 0.072050
0.465339 0.028436 -0.015892
0.465339 -0.025001 -0.008625
0.465339 0.037113 0.057200
0.465339 -0.049201 -0.016564
0.465339 -0.081442 0.051031
0.465339 0.002806 0.068827
0.465339 -0.027060 -0.014090
0.465339 0.082229 0.019861
0.465339 0.045339 0.073619
0.465339 -0.077268 -0.025765
0.465339 0.047272 0.050720
0.465339 0.029910 0.031489
0.465339 -0.059766 0.039859
0.465339 -0.005498 0.088463
0.465339 -0.059651 -0.079638
0.465339 -0.005598 0.085759
0.465339 0.031070 -0.035022
0.465339 0.007526 -0.034643
0.465339 0.073007 0.041568
0.465339 -0.071249 0.006047
0.465339 0.009974 0.079809
0.465339 -0.056943 -0.074816
0.465339 0.072835 0.039103
0.465339 -0.007342 -0.030957
0.465339 0.006690 -0.026370
0.465339 -0.009166 -0.015677
0.465339 -0.014232 -0.024159
0.465339 0.084608 -0.022255
0.465339 0.030877 -0.060143
0.465339 0.080389 0.030041
0.465339 0.074845 -0.058293
0.465339 0.062926 -0.052669
0.465339 -0.015093 -0.028062
0.465339 0.057490 -0.035871
0.465339 0.058704 0.067392
0.465339 -0.002610 0.054532
0.465339 0.017186 0.090436
0.465339 0.030159 0.011198
0.465339 -0.038182 -0.034632
0.465339 0.014401 -0.011615
0.465339 -0.004731 -0.020800
0.465339 0.018913 -0.093859
0.465339 -0.029462 0.048818
0.465339 0.079783 0.033407
0.465339 -0.021671 0.046945
0.465339 -0.008342 -0.039465
0.465339 0.023510 0.012852
0.465339 -0.058118 -0.076495
0.465339 0.052665 0.049551
0.465339 -0.062569 0.024832
0.465339 -0.011413 0.070787
0.465339 0.059893 -0.000507
0.465339 -0.060651 0.043124
0.465339 0.050979 0.073997
0.465339 0.013176 -0.002608
0.465339 0.056855 -0.055352
0.465339 0.008925 0.035747
0.465339 0.019699 -0.021032
0.465339 0.044482 -0.076268
0.465339 -0.022748 -0.008602
0.465339 -0.061695 -0.020931
0.465339 -0.000401 0.033725
0.465339 -0.045479 -0.084462
0.465339 -0.004024 0.015455
0.465339 -0.035123 0.049734
0.465339 0.054489 -0.072653
0.465339 0.007951 -0.079586
0.465339 -0.095143 0.007809
0.465339 0.065849 0.024659
0.465339 0.022891 -0.084775
0.465339 -0.059878 0.062177
0.465339 0.069192 -0.042017
0.465339 -0.054715 -0.013478
0.465339 0.014007 -0.037200
0.465339 0.048758 -0.059014
0.465339 -0.029313 0.035297
0.465339 0.086419 0.009034
0.465339 0.024051 -0.053022
0.465339 0.082152 0.003769
0.465339 0.026488 0.032230
0.465339 0.017593 -0.040843
0.465339 0.007843 -0.024032
0.465339 -0.036625 -0.084420
0.465339 0.047870 0.026036
0.465339 0.016011 -0.042991
0.465339 0.044691 -0.072623
0.465339 0.012507 0.082412
0.465339 0.056451 -0.075973
0.465339 0.072966 0.021732
0.465339 -0.037906 -0.013995
0.465339 0.044765 0.064730
0.465339 0.032146 0.003507
0.465339 0.016596 -0.060753
0.465339 0.010882 0.015215
0.465339 -0.031047 -0.005549
0.465339 0.079170 0.025393
0.465339 -0.041820 -0.031636
0.465339 0.070208 0.048434
0.465339 -0.005775 0.033142
0.465339 -0.046339 -0.010390
0.465339 0.003477 0.002621
0.465339 0.000319 -0.090727
0.465339 0.036752 -0.066135
0.465339 0.034476 -0.063744
0.465339 -0.041288 -0.018886
0.465339 -0.033702 -0.012694
0.465339 -0.017987 -0.011094
0.465339 -0.014835 -0.004594
0.465339 -0.012765 -0.080414
0.465339 0.040530 0.057454
0.465339 -0.064253 0.036665
0.465339 0.026597 0.025578
0.465339 0.026015 0.016457
0.465339 0.050499 -0.037406
0.465339 -0.077072 -0.024304
0.465339 0.075353 0.028371
0.465339 0.067335 0.004397
0.465339 -0.015808 0.032529
0.465339 0.049103 0.023798
0.465339 0.073351 0.046019
0.465339 0.000254 -0.007313
0.465339 -0.026491 -0.071683
0.465339 -0.001522 -0.031109
0.465339 -0.064602 0.057834
0.465339 -0.002242 0.029986
0.465339 0.016364 0.088384
0.465339 0.064686 0.000007
0.465339 -0.095357 -0.027931
0.465339 0.027940 0.058614
0.465339 0.080532 -0.038218
0.465339 0.073011 -0.017946
0.465339 0.099499 0.005327
0.465339 -0.081724 0.026979
0.465339 0.052823 0.009851
0.465339 0.006310 -0.088261
0.465339 -0.061420 0.041634
0.465339 -0.028908 0.086516
0.465339 0.031261 0.061893
0.465339 0.080168 -0.015176
0.465339 -0.086472 0.022246
0.465339 -0.044665 0.028399
0.465339 0.017490 -0.066952
0.465339 0.074542 -0.009783
0.465339 -0.026725 0.017037
0.465339 -0.025300 -0.017927
0.465339 -0.034946 0.042594
0.465339 0.071129 0.050410
0.465339 -0.056527 0.004263
0.465339 -0.052279 0.067874
0.465339 0.061000 -0.009729
0.465339 0.030645 0.069507
0.465339 -0.033641 0.002522
0.465339 0.038524 -0.060664
0.465339 -0.000908 0.048036
0.465339 0.058214 -0.020177
0.465339 -0.010294 -0.072762
0.465339 -0.025902 -0.022348
0.465339 -0.057631 -0.026184
0.465339 0.009339 0.007268
0.465339 0.024604 -0.086303
0.465339 0.038032 -0.002726
0.465339 0.073972 0.044560
0.465339 -0.095940 0.010160
0.465339 0.072668 -0.034100
0.465339 0.035851 0.006930
0.465339 -0.007232 0.063413
0.465339 -0.074107 0.022650
0.465339 0.014427 0.073399
0.465339 -0.045671 0.043246
0.465339 0.017799 0.024213
0.465339 0.029025 0.095271
0.465339 -0.029028 -0.053145
0.465339 -0.009246 0.019889
0.465339 -0.043864 -0.052376
0.465339 -0.020897 -0.038277
0.465339 -0.009287 -0.009686
0.465339 -0.028387 -0.035607
0.465339 -0.086224 0.014378
0.465339 0.014793 0.083949
0.465339 -0.016469 -0.028079
0.465339 0.067164 -0.056357
0.465339 0.027015 0.008296
0.465339 0.046550 -0.025122
0.465339 -0.015619 0.093195
0.465339 -0.051983 -0.069972
0.465339 -0.077220 0.007618
0.465339 0.065048 -0.061556
0.465339 -0.028168 0.025371
0.465339 0.061182 -0.036174
0.465339 0.061527 -0.034789
0.465339 0.004564 0.062040
0.465339 -0.074418 -0.007187
0.465339 -0.057342 0.002912
0.465339 0.074628 -0.055352
0.465339 -0.030867 -0.065367
0.465339 0.036696 0.043846
0.465339 0.055014 -0.014138
0.465339 -0.080004 -0.009996
0.465339 -0.032804 -0.069042
0.465339 -0.017341 -0.054830
0.465339 0.033131 0.049166
0.465339 -0.017950 0.095308
0.465339 -0.048955 -0.063876
0.465339 -0.019753 0.022080
0.465339 -0.068342 -0.040695
0.465339 -0.061018 0.037227
0.465339 -0.005920 -0.037678
0.465339 0.066382 0.043637
0.465339 0.084222 -0.004111
0.465339 0.048857 -0.022994
0.465339 -0.005154 0.068729
0.465339 0.092962 0.021525
0.465339 0.010398 -0.074310
0.465339 0.079752 0.031856
0.465339 0.066489 0.020582
0.465339 -0.001421 0.025698
0.465339 0.036585 -0.003431
0.465339 -0.031942 0.012260
0.465339 -0.024766 0.049916
0.465339 -0.011788 0.015600
0.465339 -0.094735 0.031391
0.465339 -0.014796 0.070599
0.465339 -0.018909 -0.000755
0.465339 0.054152 -0.004789
0.465339 -0.081324 -0.057284
0.465339 0.027051 0.001819
0.465339 0.017181 0.010542
0.465339 -0.028164 -0.071896
0.465339 0.073038 -0.052377
0.465339 0.077019 0.046669
0.465339 0.033772 0.013360
0.465339 0.026815 -0.049996
0.465339 0.006995 -0.030406
0.465339 -0.043664 -0.032617
0.465339 0.036438 0.031737
0.465339 -0.087956 0.033222
0.465339 0.041561 0.062804
0.465339 -0.074974 -0.021300
0.465339 -0.016470 0.090476
0.465339 0.094704 0.018655
0.465339 -0.035442 -0.015338
0.465339 -0.048788 -0.070731
0.465339 0.005381 0.076933
0.465339 0.047674 0.013592
0.465339 0.060566 0.062293
0.465339 0.010650 -0.033742
0.465339 -0.069606 -0.045709
0.465339 -0.086886 -0.019508
0.465339 0.092602 0.000521
0.465339 -0.000785 0.086175
0.465339 -0.075696 0.043658
0.465339 0.034516 0.093661
0.465339 -0.060657 0.074440
0.465339 -0.035503 0.011945
0.465339 -0.067829 -0.048250
0.465339 -0.088081 -0.003928
0.465339 -0.038395 -0.083983
0.465339 0.027841 -0.038034
0.465339 0.012693 0.023678
0.465339 0.016869 -0.030709
0.465339 0.019170 0.039930
0.465339 -0.031510 0.036920
0.465339 0.034411 -0.082711
0.465339 0.024394 0.031014
0.465339 -0.040179 0.064989
0.465339 0.021378 -0.057191
0.465339 0.005420 -0.080997
0.465339 -0.018075 -0.016147
0.465339 -0.025328 -0.056692
0.465339 -0.055190 -0.027045
0.465339 -0.023021 -0.029193
0.465339 -0.007216 -0.046407
0.465339 0.067813 -0.024497
0.465339 -0.002735 -0.080138
0.465339 0.084147 -0.005753
0.465339 -0.035254 0.085583
0.465339 0.070416 0.045442
0.465339 0.020182 0.094373
0.465339 -0.043786 0.003549
0.465339 0.006955 -0.041077
0.465339 -0.078458 0.002801
0.465339 0.045887 -0.075447
0.465339 -0.049805 0.070008
0.465339 -0.078697 0.022313
0.465339 -0.051004 0.023928
0.465339 -0.001829 0.004118
0.465339 -0.046839 -0.012113
0.465339 0.021121 0.062094
0.465339 0.008191 0.066556
0.465339 0.044038 0.020407
0.465339 0.076266 -0.043038
0.465339 -0.047275 -0.049268
0.465339 -0.044528 -0.006601
0.465339 0.078227 -0.050828
0.465339 0.020506 0.016649
0.465339 0.062362 -0.024029
0.465339 0.004774 -0.061247
0.465339 -0.043206 -0.018716
0.465339 0.004212 -0.038988
0.465339 -0.041585 -0.044446
0.465339 0.021409 0.032393
0.465339 -0.043560 0.082418
0.465339 0.012250 -0.071544
0.465339 0.037982 0.018235
0.465339 0.068663 -0.036715
0.465339 -0.000660 -0.021349
0.465339 -0.052757 0.062921
0.465339 0.012999 0.006082
0.465339 -0.001949 -0.004859
0.465339 0.037462 0.003158
0.465339 0.072423 0.010482
0.465339 0.018150 0.067557
0.465339 0.047142 0.083643
0.465339 0.049804 -0.030766
0.465339 0.007725 0.007905
0.465339 0.032117 -0.004402
0.465339 0.069673 0.029241
0.465339 0.045045 0.003294
0.465339 -0.080559 0.017543
0.465339 0.096869 0.010663
0.465339 0.091865 0.039491
0.465339 0.088206 -0.038250
0.465339 -0.014626 -0.017991
0.465339 0.009860 0.061451
0.465339 0.015234 -0.057889
0.465339 -0.070769 0.040384
0.465339 -0.041245 0.008954
0.465339 -0.073324 0.064635
0.465339 0.005648 0.024957
0.465339 -0.007999 0.006076
0.465339 0.083831 -0.051986
0.465339 -0.075797 -0.031638
0.465339 -0.018586 -0.060593
0.465339 -0.025369 -0.078994
0.465339 0.053918 0.036346
0.465339 0.063042 0.070976
0.465339 -0.046270 0.020447
0.465339 0.035855 -0.044275
0.465339 0.085488 0.048971
0.465339 -0.075236 0.051706
0.465339 0.020975 -0.012621
0.465339 -0.029058 -0.057223
0.465339 0.067339 0.025829
0.465339 0.046333 -0.062266
0.465339 0.086699 0.018498
0.465339 -0.024070 0.062563
0.465339 -0.053441 0.009312
0.465339 -0.056565 -0.079851
0.465339 -0.001996 0.094685
0.465339 -0.001894 -0.049902
0.465339 -0.058195 0.004198
0.465339 -0.008347 -0.089369
0.465339 -0.032258 0.046636
0.465339 0.040015 0.054608
0.465339 0.082666 -0.012645
0.465339 0.014616 0.091267
0.465339 0.012568 -0.046111
0.465339 -0.008515 0.008796
0.465339 0.082687 0.048103
0.465339 0.061908 -0.067069
0.465339 0.021491 0.001255
0.465339 -0.051218 -0.002330
0.465339 0.052372 -0.076263
0.465339 -0.030564 0.022754
0.465339 -0.027418 -0.057180
0.465339 0.046372 -0.032638
0.465339 0.078797 0.013102
0.465339 0.020070 -0.077143
0.465339 -0.007605 -0.094296
0.465339 -0.018511 -0.071947
0.465339 -0.065887 -0.060986
0.465339 -0.034674 0.079525
0.465339 -0.029835 0.047371
0.465339 -0.069489 -0.017626
0.465339 -0.009059 0.054340
0.465339 0.078313 0.026841
0.465339 -0.016151 -0.058698
0.465339 -0.037083 -0.033694
0.465339 0.082328 0.054683
0.465339 -0.066104 0.074611
0.465339 0.007951 -0.010271
0.465339 -0.057096 -0.016977
0.465339 0.026461 0.039660
0.465339 0.022987 -0.022237
0.465339 -0.052035 -0.058211
0.465339 -0.044621 0.038588
0.465339 -0.027474 0.031749
0.465339 0.007822 -0.012046
0.465339 0.071382 0.000835
0.465339 0.022004 0.071236
0.465339 0.005435 -0.031809
0.465339 0.079366 -0.048003
0.465339 -0.033555 -0.042298
0.465339 0.048021 -0.010117
0.465339 0.059916 0.026490
0.465339 0.048264 -0.086040
0.465339 -0.094707 -0.029554
0.465339 0.046773 0.002475
0.465339 0.047450 -0.026643
0.465339 -0.055745 -0.055876
0.465339 0.042887 -0.032479
0.465339 -0.074581 -0.044407
0.465339 -0.060008 -0.007296
0.465339 -0.005608 -0.068166
0.465339 0.002906 -0.031282
0.465339 -0.072030 0.050005
0.465339 0.051491 0.046778
0.465339 0.000113 0.065348
0.465339 -0.037658 0.085605
0.465339 0.036413 -0.074032
0.465339 -0.068422 -0.015906
0.465339 -0.051463 0.002513
0.465339 0.075001 0.031534
0.465339 0.053996 0.034653
0.465339 -0.081370 0.005679
0.465339 -0.028768 0.090456
0.465339 -0.022411 -0.004196
0.465339 0.081497 -0.053447
0.465339 0.032600 -0.041165
0.465339 0.085152 0.039341
0.465339 -0.009119 0.090061
0.465339 0.022173 -0.082444
0.465339 -0.039748 -0.080818
0.465339 -0.095936 -0.010764
0.465339 0.018955 0.045844
0.465339 0.067583 0.067133
0.465339 0.077866 -0.035021
0.465339 0.074575 0.039374
0.465339 -0.074405 -0.052190
0.465339 0.063190 0.023589
0.465339 0.002469 0.039301
0.465339 0.082656 0.027039
0.465339 0.010341 -0.052391
0.465339 0.000706 0.079884
0.465339 -0.085859 0.002223
0.465339 0.043577 -0.039919
0.465339 0.061455 0.037042
0.465339 -0.036984 -0.010105
0.465339 0.073965 -0.011610
0.465339 0.034219 0.078212
0.465339 0.008678 0.048378
0.465339 -0.041346 0.086577
0.465339 -0.055621 -0.060213
0.465339 0.031185 0.001639
0.465339 0.055006 0.016456
0.465339 -0.022421 0.050394
0.465339 -0.067981 -0.069215
0.465339 -0.066375 0.014736
0.465339 -0.065030 0.028858
0.465339 0.021813 -0.034380
0.465339 0.023966 0.038006
0.465339 -0.012938 -0.089769
0.465339 -0.001710 -0.047549
0.465339 0.018641 0.041366
0.465339 -0.089420 -0.020982
0.465339 -0.021113 -0.096799
0.465339 0.025040 -0.013135
0.465339 -0.046421 -0.025302
0.465339 0.008348 -0.096478
0.465339 -0.073720 -0.047247
0.465339 0.091624 -0.002209
0.465339 0.040667 0.050392
0.465339 0.023321 0.072467
0.465339 -0.030634 0.091326
0.465339 0.096191 -0.002903
0.465339 -0.053458 -0.036698
0.465339 0.053084 -0.017194
0.465339 0.066504 -0.065838
0.465339 0.034647 0.074846
0.465339 0.061494 0.061164
0.465339 0.041213 -0.036363
0.465339 0.020921 -0.086960
0.465339 -0.051170 0.068830
0.465339 0.071433 0.040112
0.465339 -0.007492 0.058742
0.465339 -0.007932 -0.014815
0.465339 0.034616 0.088741
0.465339 -0.024196 0.001233
0.465339 -0.003384 -0.045307
0.465339 -0.006040 0.025574
0.465339 0.061512 0.070343
0.465339 -0.057275 0.043923
0.465339 -0.085039 0.017743
0.465339 -0.030506 -0.037030
0.465339 0.029574 -0.095107
0.465339 0.007073 -0.089797
0.465339 -0.062343 0.066315
0.465339 0.042697 0.050198
0.465339 0.003505 -0.041467
0.465339 -0.014808 -0.077800
0.465339 -0.075748 0.045669
0.465339 -0.047955 0.031553
0.465339 0.026423 0.055706
0.465339 -0.020159 -0.050745
0.465339 0.065913 0.028733
0.465339 -0.039248 0.003915
0.465339 0.007324 0.085787
0.465339 -0.028049 -0.095545
0.465339 0.076323 -0.041304
0.465339 -0.040801 -0.005954
0.465339 -0.095108 -0.023070
0.465339 -0.012949 0.022378
0.465339 0.035132 0.013747
0.465339 -0.005334 -0.093792
0.465339 -0.041095 0.003901
0.465339 0.053779 0.013845
0.465339 0.005336 -0.096186
0.465339 0.073025 0.020236
0.465339 -0.040225 -0.038219
0.465339 -0.040003 0.032252
0.465339 0.089015 0.042279
0.465339 0.080166 0.012016
0.465339 0.064630 -0.052635
0.465339 -0.020935 -0.031584
0.465339 0.016654 -0.038092
0.465339 0.004963 -0.025765
0.465339 -0.036404 0.037109
0.465339 -0.037898 -0.044071
0.465339 0.089786 -0.039096
0.465339 0.011249 0.011021
0.465339 -0.052488 0.037834
0.465339 -0.082452 -0.027324
0.465339 0.050359 0.054398
0.465339 -0.035505 -0.033191
0.465339 0.057387 0.004010
0.465339 0.002027 0.054057
0.465339 -0.031449 0.048057
0.465339 -0.028521 0.074946
0.465339 0.000626 -0.088570
0.465339 -0.094894 -0.016105
0.465339 -0.039196 0.086105
0.465339 0.047283 0.082213
0.465339 0.023994 -0.072384
0.465339 -0.042585 -0.053442
0.465339 -0.041017 0.055728
0.465339 0.060434 0.049273
0.465339 -0.047595 0.030111
0.465339 0.076848 -0.021523
0.465339 -0.003019 -0.095349
0.465339 0.014485 0.052650
0.465339 -0.020319 0.030507
0.465339 0.065265 0.036332
0.465339 -0.016575 -0.076501
0.465339 0.066688 0.065601
0.465339 0.035164 0.033442
0.465339 0.082630 0.025588
0.465339 -0.061984 -0.050378
0.465339 -0.032291 0.018303
0.465339 0.027752 -0.063838
0.465339 -0.036554 0.026533
0.465339 0.023780 -0.024609
0.465339 0.087559 0.039852
0.465339 -0.061392 -0.040766
0.465339 -0.029273 0.052843
0.465339 -0.055245 0.015622
0.465339 -0.018533 0.008325
0.465339 0.071194 -0.035379
0.465339 0.060528 0.075442
0.465339 -0.071076 -0.001326
0.465339 0.026797 -0.067213
0.465339 -0.013966 0.002583
0.465339 0.055562 -0.080930
0.465339 -0.084610 -0.050991
0.465339 0.084005 -0.053731
0.465339 -0.004815 0.043556
0.465339 -0.004077 -0.034524
0.465339 -0.045922 0.014664
0.465339 -0.077207 0.026696
0.465339 -0.068828 0.003202
0.465339 0.054310 0.044046
0.465339 0.013014 -0.093836
0.465339 -0.026577 0.001541
0.465339 0.066260 0.053184
0.465339 0.016429 -0.051538
0.465339 -0.040933 -0.069236
0.465339 0.094679 -0.003171
0.465339 0.066092 0.041004
0.465339 -0.052467 -0.009217
0.465339 0.065630 -0.001090
0.465339 -0.026458 0.012311
0.465339 0.082781 0.051684
0.465339 -0.036521 -0.019046
0.465339 0.012859 0.095161
0.465339 0.000713 -0.012164
0.465339 -0.041302 0.062177
0.465339 -0.038636 0.058363
0.465339 0.056922 -0.080019
0.465339 0.049665 0.035011
0.465339 0.057661 0.066062
0.465339 0.067284 -0.015679
0.465339 -0.040800 -0.058633
0.465339 -0.021808 -0.001597
0.465339 -0.034775 -0.056552
0.465339 0.070568 -0.046698
0.465339 0.041783 0.086796
0.465339 -0.097309 -0.020023
0.465339 -0.054773 -0.059147
0.465339 -0.080141 -0.039600
0.465339 0.028852 -0.019001
0.465339 -0.060848 0.072720
0.465339 -0.022603 0.004850
0.465339 0.021142 -0.015895
0.465339 0.026790 -0.036765
0.465339 0.052000 0.063902
0.465339 0.033266 -0.075819
0.465339 0.070164 -0.036835
0.465339 0.001155 -0.073234
0.465339 0.020689 0.049915
0.465339 -0.046447 -0.040851
0.465339 0.046985 0.064700
0.465339 0.037935 0.048862
0.465339 0.040672 -0.009139
0.465339 0.040884 -0.004553
0.465339 0.071139 0.063750
0.465339 0.080543 -0.036759
0.465339 0.020698 0.044367
0.465339 0.045298 -0.049385
0.465339 -0.039930 -0.090594
0.465339 0.017029 0.094769
0.465339 -0.062709 0.048704
0.465339 0.029649 0.002096
0.465339 0.055246 0.010600
0.465339 0.052229 0.036964
0.465339 0.049888 -0.078081
0.465339 -0.038603 0.018003
0.465339 -0.028276 -0.013193
0.465339 0.062039 0.055073
0.465339 -0.011987 -0.066145
0.465339 -0.068957 0.049840
0.465339 0.004712 0.022741
0.465339 0.028536 0.036551
0.465339 0.019045 -0.053269
0.465339 0.074786 0.013004
0.465339 0.038412 0.085654
0.465339 0.039972 -0.022054
0.465339 -0.009866 0.052961
0.465339 -0.035482 -0.067608
0.465339 0.057180 -0.046881
0.465339 -0.003223 -0.048349
0.465339 -0.022065 -0.023370
0.465339 0.052029 0.043326
0.465339 -0.041017 -0.077165
0.465339 0.037062 -0.043344
0.465339 -0.007159 -0.034076
0.465339 0.010542 0.081091
0.465339 -0.079393 0.034217
0.465339 0.066643 0.039578
0.465339 0.036603 0.028633
0.465339 0.041812 0.028271
0.465339 0.073257 -0.026217
0.465339 0.041747 -0.012269
0.465339 -0.086515 0.004658
0.465339 -0.033534 -0.078219
0.465339 0.098414 -0.010799
0.465339 -0.001402 -0.091116
0.465339 -0.017525 -0.014548
0.465339 0.072597 -0.003702
0.465339 -0.062720 0.055650
0.465339 -0.085709 -0.007067
0.465339 -0.021334 0.044598
0.465339 -0.023465 -0.065597
0.465339 -0.050840 0.043245
0.465339 0.034403 0.004266
0.465339 0.094551 -0.016138
0.465339 -0.067071 -0.012018
0.465339 0.098461 -0.014674
0.465339 0.062201 -0.048439
0.465339 -0.032847 -0.013802
0.465339 0.084277 0.021918
0.465339 0.037998 0.019779
0.465339 0.009301 -0.019111
0.465339 0.058442 0.000376
0.465339 0.051457 0.005694
0.465339 0.049404 0.076727
0.465339 0.032796 0.005266
0.465339 -0.064246 0.018018
0.465339 -0.056898 -0.024028
0.465339 0.092444 -0.032315
0.465339 -0.039327 -0.025820
0.465339 -0.046889 0.000755
0.465339 -0.039174 0.083175
0.465339 0.039340 -0.053069
0.465339 -0.023818 0.083356
0.465339 -0.033128 -0.057788
0.465339 0.088072 -0.034694
0.465339 0.075727 0.014435
0.465339 0.011456 0.044456
0.465339 -0.010803 0.014050
0.465339 0.033899 0.054437
0.465339 -0.003466 -0.089551
0.465339 0.015641 -0.070029
0.465339 0.006656 0.054704
0.465339 -0.037775 -0.056164
0.465339 -0.082401 0.015176
0.465339 -0.049818 0.075878
0.465339 0.008128 0.006471
0.465339 0.060874 0.068232
0.465339 -0.014158 -0.034491
0.465339 0.007011 -0.093654
0.465339 -0.070496 -0.042511
0.465339 0.045462 -0.012625
0.465339 -0.025701 -0.096038
0.465339 0.045421 -0.077908
0.465339 0.034294 0.037523
0.465339 0.003113 0.005898
0.465339 0.040747 0.080559
0.465339 0.004694 -0.094033
0.465339 0.004774 0.005198
0.465339 -0.083626 0.020080
0.465339 0.022512 0.023019
0.465339 -0.080277 -0.032659
0.465339 0.029519 -0.021904
0.465339 -0.081795 -0.039247
0.465339 0.070514 0.017679
0.465339 0.056753 -0.065651
0.465339 0.019587 -0.058206
0.465339 0.021096 0.079832
0.465339 0.040617 0.073818
0.465339 0.039622 0.018663
0.465339 0.096418 -0.024474
0.465339 0.080904 -0.054658
0.465339 0.051743 -0.044006
0.465339 -0.020639 -0.049268
0.465339 0.019395 0.083879
0.465339 -0.022098 -0.082406
0.465339 0.013664 0.099039
0.465339 -0.039503 0.077601
0.465339 -0.018749 0.063736
0.465339 -0.034265 0.029589
0.465339 0.088376 -0.039778
0.465339 0.067440 0.049540
0.465339 0.043774 0.053428
0.465339 0.058073 0.062213
0.465339 0.009165 -0.009075
0.465339 -0.049359 0.028496
0.465339 -0.054310 0.062581
0.465339 -0.079575 -0.020067
0.465339 -0.045795 -0.069949
0.465339 -0.067397 -0.064190
0.465339 -0.088907 -0.034796
0.465339 -0.073332 -0.059778
0.465339 -0.048076 -0.075364
0.465339 0.043760 0.080798
0.465339 -0.034871 0.053300
0.465339 0.028484 -0.008054
0.465339 0.043171 -0.025516
0.465339 0.026706 0.019982
0.465339 -0.064967 -0.042613
0.465339 -0.047034 -0.037871
0.465339 -0.062344 -0.072863
0.465339 -0.064656 -0.057455
0.465339 -0.093743 0.025341
0.465339 -0.040259 -0.028204
0.465339 0.029433 0.016845
0.465339 0.026349 0.045411
0.465339 0.018803 0.043845
0.465339 0.022651 0.044105
0.465339 0.047819 -0.017913
0.465339 -0.021818 -0.019803
0.465339 0.007269 -0.033241
0.465339 0.015707 -0.087243
0.465339 0.075889 -0.039749
0.465339 -0.013697 0.077421
0.465339 -0.075408 0.012049
0.465339 -0.056885 -0.072671
0.465339 -0.071820 -0.064972
0.465339 0.026317 -0.038196
0.465339 0.086602 -0.024221
0.465339 -0.038324 0.006494
0.465339 -0.044057 -0.061879
0.465339 0.076405 0.054301
0.465339 0.039778 0.013416
0.465339 -0.039761 -0.082704
0.465339 -0.054843 -0.023487
0.465339 -0.057003 0.028383
0.465339 -0.023141 0.002977
0.465339 0.011404 0.036098
0.465339 0.062084 0.064946
0.465339 0.072745 -0.019775
0.465339 -0.002497 -0.006551
0.465339 -0.045896 -0.021745
0.465339 -0.033722 0.024146
0.465339 -0.009266 0.067627
0.465339 -0.055263 -0.039986
0.465339 0.006260 0.004003
0.465339 0.073127 -0.044505
0.465339 -0.093881 0.003674
0.465339 -0.011666 -0.008577
0.465339 0.066126 0.003317
0.465339 0.050161 0.071711
0.465339 -0.070777 -0.026693
0.465339 -0.000794 -0.089054
0.465339 -0.051196 0.004873
0.465339 -0.013159 -0.031965
0.465339 -0.002917 0.084665
0.465339 0.046942 0.049382
0.465339 -0.025147 -0.023969
0.465339 0.091800 0.026270
0.465339 -0.075656 -0.023786
0.465339 -0.022354 -0.058649
0.465339 0.074230 -0.022599
0.465339 0.079500 0.006291
0.465339 0.028770 0.077807
0.465339 -0.000843 -0.012007
0.465339 0.035108 -0.001456
0.465339 -0.017457 0.021163
0.465339 0.077895 -0.001484
0.465339 -0.006689 0.039391
0.465339 0.050571 0.012183
0.465339 0.006748 0.052630
0.465339 0.037401 0.010514
0.465339 0.020777 -0.048222
0.465339 -0.017426 -0.003225
0.465339 0.012986 0.001417
0.465339 -0.014005 0.021216
0.465339 0.004376 0.064136
0.465339 -0.038404 -0.009322
0.465339 -0.072656 -0.016170
0.465339 -0.068650 -0.062987
0.465339 0.072411 -0.001370
0.465339 0.065253 0.065218
0.465339 -0.006700 -0.072876
0.465339 0.007976 0.055401
0.465339 0.030798 -0.067637
0.465339 0.018411 0.087924
0.465339 0.049055 -0.029160
0.465339 -0.026633 -0.076353
0.465339 0.005443 0.040787
0.465339 0.071407 -0.026759
0.465339 0.049829 -0.041583
0.465339 -0.048016 -0.061112
0.465339 -0.013730 0.025081
0.465339 -0.014911 0.041647
0.465339 0.019743 0.030154
0.465339 0.013314 0.047334
0.465339 0.076057 -0.054750
0.465339 0.044387 0.037045
0.465339 -0.007689 0.081497
0.465339 -0.048939 -0.081553
0.465339 -0.013720 -0.065393
0.465339 -0.097364 -0.004550
0.465339 0.067112 -0.001856
0.465339 -0.010539 -0.057096
0.465339 0.059723 0.044089
0.465339 0.001156 0.043330
0.465339 -0.050428 -0.022644
0.465339 0.056655 -0.026413
0.465339 -0.021089 -0.025882
0.465339 0.027918 -0.086213
0.465339 -0.053767 0.033699
0.465339 -0.000117 0.059525
0.465339 0.063227 -0.049641
0.465339 -0.007227 -0.005064
0.465339 -0.044002 -0.004944
0.465339 0.025453 -0.031502
0.465339 -0.059544 -0.000516
0.465339 -0.083370 0.021653
0.465339 -0.081021 -0.035763
0.465339 -0.052859 -0.075234
0.465339 -0.058092 0.021575
0.465339 -0.043167 0.033410
0.465339 -0.004244 -0.061970
0.465339 0.026400 0.083408
0.465339 -0.089644 0.036539
0.465339 -0.033191 0.044652
0.465339 0.017838 0.078347
0.465339 -0.060539 -0.053170
0.465339 0.017394 0.031145
0.465339 0.037908 -0.050325
0.465339 -0.077002 0.050010
0.465339 -0.038854 -0.015635
0.465339 -0.057668 0.008995
0.465339 -0.057003 0.001248
0.465339 0.086053 -0.001917
0.465339 0.034581 -0.052868
0.465339 0.077603 0.059231
0.465339 0.018802 -0.034505
0.465339 0.015396 -0.024014
0.465339 0.045205 0.044924
0.465339 -0.024581 0.066969
0.465339 0.008418 -0.067087
0.465339 -0.036014 -0.062975
0.465339 -0.099313 -0.005535
0.465339 -0.031164 -0.034091
0.465339 -0.093455 -0.012098
0.465339 -0.022231 0.058818
0.465339 -0.028262 0.055236
0.465339 -0.010563 0.054369
0.465339 -0.021800 -0.065699
0.465339 0.053843 -0.076055
0.465339 -0.023225 -0.073424
0.465339 -0.010561 0.068682
0.465339 -0.055533 -0.075688
0.465339 -0.011176 0.061666
0.465339 -0.025304 -0.077535
0.465339 -0.092599 0.024378
0.465339 0.007632 0.076657
0.465339 0.041000 0.048970
0.465339 0.022282 0.014142
0.465339 0.046465 -0.034287
0.465339 -0.006705 0.023095
0.465339 -0.008348 -0.041233
0.465339 -0.074609 0.063683
0.465339 -0.077732 -0.003886
0.465339 0.038362 -0.078591
0.465339 -0.001448 -0.038578
0.465339 -0.037218 -0.020811
0.465339 -0.044056 -0.046374
0.465339 0.007874 -0.016822
0.465339 -0.011557 0.033768
0.465339 0.037317 0.062163
0.465339 -0.067910 -0.065690
0.465339 0.054094 0.032504
0.465339 0.037557 -0.083598
0.465339 -0.000548 0.098522
0.465339 0.093052 -0.004677
0.465339 -0.020884 0.007773
0.465339 0.018056 0.086086
0.465339 0.036944 -0.088634
0.465339 -0.044826 0.030077
0.465339 -0.040632 0.054287
0.465339 -0.048607 -0.029041
0.465339 0.028701 -0.066823
0.465339 -0.030438 0.025515
0.465339 0.084240 0.041071
0.465339 -0.052650 0.000962
0.465339 0.028232 0.032622
0.465339 0.069859 -0.024075
0.465339 0.061735 0.013601
0.465339 -0.032639 0.057896
0.465339 -0.082706 -0.036879
0.465339 0.030983 -0.055023
0.465339 -0.053113 -0.035191
0.465339 -0.044278 -0.010904
0.465339 0.053771 0.052894
0.465339 0.062442 -0.019569
0.465339 -0.031387 -0.018481
0.465339 -0.086419 -0.045614
0.465339 -0.016235 -0.045746
0.465339 -0.049196 -0.045803
0.465339 -0.008974 -0.031968
0.465339 -0.026402 -0.043582
0.465339 -0.007452 -0.068765
0.465339 -0.025380 0.064359
0.465339 -0.028523 0.002000
0.465339 0.036997 -0.062293
0.465339 0.063892 0.055760
0.465339 0.014265 -0.079246
0.465339 0.028968 0.015314
0.465339 -0.004812 -0.038738
0.465339 -0.066826 -0.037966
0.465339 -0.004195 0.032772
0.465339 0.045123 0.035310
0.465339 0.016202 0.083337
0.465339 0.030639 -0.093935
0.465339 0.037338 -0.080327
0.465339 -0.035601 -0.001652
0.465339 0.065327 0.014423
0.465339 -0.001262 0.065159
0.465339 -0.029423 -0.044256
0.465339 -0.091994 -0.001518
0.465339 0.003601 -0.077645
0.465339 0.085198 0.052220
0.465339 -0.082583 -0.040598
0.465339 -0.005941 0.048541
0.465339 0.041953 0.015620
0.465339 0.054987 -0.020402
0.465339 0.072355 -0.023624
0.465339 0.034553 0.023986
0.465339 0.041750 0.056561
0.465339 0.067168 -0.059233
0.465339 0.092537 0.011430
0.465339 0.040000 -0.015805
0.465339 -0.004359 -0.068804
0.465339 0.018060 -0.011882
0.465339 0.066777 -0.068149
0.465339 -0.014947 0.053376
0.465339 -0.055247 -0.010567
0.465339 0.095651 0.022565
0.465339 0.046675 -0.055938
0.465339 0.009630 0.013566
0.465339 -0.024574 -0.046337
0.465339 -0.089282 -0.042185
0.465339 0.044057 -0.048145
0.465339 -0.004224 -0.070736
0.465339 -0.070678 0.037973
0.465339 0.036018 -0.079815
0.465339 -0.036680 0.010617
0.465339 -0.040368 0.036780
0.465339 0.011141 0.001562
0.465339 0.073818 0.027193
0.465339 0.006525 0.048291
0.465339 -0.001586 -0.007977
0.465339 0.035810 -0.026572
0.465339 0.039542 0.081450
0.465339 0.002307 -0.036340
0.465339 0.017592 0.084308
0.465339 -0.024777 0.058374
0.465339 0.058522 0.049522
0.465339 0.067571 -0.035558
0.465339 -0.041382 0.063644
0.465339 -0.018822 0.078806
0.465339 0.031278 0.090458
0.465339 -0.046100 -0.046439
0.465339 -0.048761 -0.022060
0.465339 -0.007624 -0.009686
0.465339 -0.061311 0.056928
0.465339 -0.007755 -0.064055
0.465339 0.023101 0.048484
0.465339 0.097535 -0.003871
0.465339 0.015413 -0.066783
0.465339 0.046377 -0.080482
0.465339 0.040444 -0.023434
0.465339 0.016186 0.091460
0.465339 -0.060999 0.078519
0.465339 -0.092682 0.022234
0.465339 0.089949 0.011391
0.465339 0.071122 -0.053719
0.465339 -0.067854 0.053395
0.465339 -0.041887 0.031727
0.465339 -0.036200 -0.089465
0.465339 -0.087795 -0.032231
0.465339 0.050158 0.056427
0.465339 -0.078829 -0.054962
0.465339 0.085720 -0.021169
0.465339 0.088473 -0.010801
0.465339 0.043192 -0.081858
0.465339 -0.048853 -0.014499
0.465339 -0.015115 -0.076197
0.465339 0.010337 0.099308
0.465339 0.060701 -0.015846
0.465339 0.003940 0.073060
0.465339 0.004233 -0.054520
0.465339 0.050029 -0.039268
0.465339 0.043271 0.036018
0.465339 -0.078538 0.049195
0.465339 -0.056642 0.011851
0.465339 -0.077553 0.001189
0.465339 -0.041900 -0.015321
0.465339 0.083660 -0.010759
0.465339 -0.077152 0.057052
0.465339 -0.020035 -0.061427
0.465339 -0.072367 0.017197
0.465339 -0.049438 -0.003011
0.465339 -0.034899 -0.086740
0.465339 0.004056 0.057045
0.465339 -0.086329 0.041816
0.465339 0.068710 -0.040543
0.465339 -0.026725 0.066648
0.465339 -0.063691 -0.051690
0.465339 -0.027109 0.045828
0.465339 0.055833 -0.054298
0.465339 -0.073255 -0.003017
0.465339 -0.089378 -0.038958
0.465339 -0.065841 -0.006793
0.465339 0.045958 0.015646
0.465339 -0.087440 0.031425
0.465339 -0.070590 0.000371
0.465339 0.049745 0.009150
0.465339 0.014805 0.095196
0.465339 -0.062902 0.050271
0.465339 0.066982 0.074131
0.465339 0.064633 0.067728
0.465339 0.066986 -0.025953
0.465339 0.010406 0.008630
0.465339 -0.037537 -0.023674
0.465339 -0.008538 -0.075222
0.465339 0.015765 0.068989
0.465339 -0.030983 0.072175
0.465339 -0.035543 -0.047800
0.465339 0.050181 0.079675
0.465339 -0.000970 -0.099518
0.465339 -0.034971 0.051365
0.465339 0.047201 -0.063684
0.465339 0.006813 -0.048234
0.465339 0.076363 0.052621
0.465339 0.058792 0.027360
0.465339 -0.014974 0.069175
0.465339 -0.068915 -0.025664
0.465339 0.029439 0.073654
0.465339 -0.041417 0.038364
0.465339 -0.082626 -0.005903
0.465339 0.035799 -0.059924
0.465339 0.051302 -0.026684
0.465339 -0.010356 0.038362
0.465339 -0.063898 0.047857
0.465339 0.031778 0.053207
0.465339 0.008165 -0.072611
0.465339 -0.070648 -0.006202
0.465339 -0.041840 -0.002659
0.465339 -0.081726 -0.016975
0.465339 -0.041059 -0.061938
0.465339 0.080257 0.021718
0.465339 -0.021035 0.097361
0.465339 -0.077117 0.018871
0.465339 0.020678 -0.002659
0.465339 0.044574 -0.024346
0.465339 0.062535 -0.022675
0.465339 -0.035476 -0.069673
0.465339 -0.041365 0.027742
0.465339 -0.012479 -0.023831
0.465339 -0.000810 0.035209
0.465339 -0.011754 -0.068028
0.465339 -0.058329 -0.024608
0.465339 -0.015349 0.047351
0.465339 -0.079404 -0.042094
0.465339 0.086420 0.038036
0.465339 0.013465 -0.008417
0.465339 0.004990 -0.018638
0.465339 -0.018058 0.073615
0.465339 0.043472 0.067712
0.465339 0.009604 -0.089965
0.465339 -0.031341 0.065197
0.465339 0.037429 -0.089938
0.465339 -0.036732 -0.054668
0.465339 0.095034 -0.027105
0.465339 0.045663 0.050528
0.465339 0.001944 -0.040748
0.465339 0.026486 0.000170
0.465339 -0.024969 -0.040544
0.465339 0.076663 0.010852
0.465339 0.017865 -0.050625
0.465339 -0.065354 -0.074405
0.465339 0.053776 0.046649
0.465339 0.076903 0.043099
0.465339 -0.016347 0.038321
0.465339 0.040410 -0.085417
0.465339 -0.075667 -0.016544
0.465339 0.044946 -0.019639
0.465339 0.006252 -0.023284
0.465339 -0.067895 -0.007564
0.465339 0.031013 0.035454
0.465339 0.071206 -0.014153
0.465339 -0.056766 -0.027434
0.465339 -0.064564 0.040829
0.465339 0.017271 0.080714
0.465339 0.057061 0.070546
0.465339 -0.023716 -0.023936
0.465339 -0.076888 0.028130
0.465339 0.021964 -0.027774
0.465339 0.042829 0.075672
0.465339 -0.035196 0.024347
0.465339 0.036039 0.081595
0.465339 0.015308 -0.044229
0.465339 -0.005424 -0.066771
0.465339 -0.026933 -0.092487
0.465339 0.025626 0.053275
0.465339 0.009441 -0.062426
0.465339 0.076541 0.038263
0.465339 0.052939 -0.026237
0.465339 0.034115 0.027996
0.465339 0.029234 0.057324
0.465339 -0.022206 -0.085226
0.465339 0.025190 -0.094679
0.465339 0.028722 -0.093154
0.465339 -0.012628 0.004410
0.465339 -0.057394 -0.066568
0.465339 -0.004782 0.066654
0.465339 -0.068433 -0.003883
0.465339 0.095217 -0.017673
0.465339 0.082145 -0.030233
0.465339 0.033573 0.019378
0.465339 -0.022540 -0.079937
0.465339 0.001051 -0.064884
0.465339 -0.017739 -0.020820
0.465339 0.021545 -0.095407
0.465339 0.046990 0.009960
0.465339 0.030837 0.074694
0.465339 0.017192 -0.047204
0.465339 0.023375 -0.083321
0.465339 0.091582 0.023129
0.465339 0.026197 -0.034327
0.465339 -0.074683 0.031189
0.465339 -0.047893 0.046615
0.465339 -0.067137 0.054826
0.465339 0.023337 -0.034185
0.465339 0.067982 0.041374
0.465339 -0.068149 -0.013652
0.465339 -0.002066 -0.089612
0.465339 -0.083312 -0.033151
0.465339 -0.024216 0.024595
0.465339 0.012133 -0.090760
0.465339 0.093919 0.011323
0.465339 0.053526 -0.059564
0.465339 -0.060231 -0.016741
0.465339 0.018420 0.060756
0.465339 -0.047076 -0.064322
0.465339 -0.013030 -0.043623
0.465339 0.012847 0.078298
0.465339 -0.037356 0.072341
0.465339 -0.013071 0.029180
0.465339 0.085980 0.022196
0.465339 0.010484 -0.003526
0.465339 -0.072256 0.019040
0.465339 -0.007483 -0.091387
0.465339 -0.091081 0.018173
0.465339 -0.040654 0.068237
0.465339 0.058524 -0.066305
0.465339 0.079416 0.044979
0.465339 -0.014491 0.065850
0.465339 0.046601 -0.087640
0.465339 0.039307 0.067876
0.465339 0.019578 0.089188
0.465339 -0.020052 0.009227
0.465339 0.046031 -0.038131
0.465339 0.050745 0.023625
0.465339 -0.073086 0.010545
0.465339 0.017459 0.036355
0.465339 -0.026635 0.043943
0.465339 0.067818 0.011634
0.465339 -0.074030 0.019482
0.465339 -0.044529 0.068489
0.465339 0.029490 0.038541
0.465339 -0.038233 0.081571
0.465339 0.011669 -0.000213
0.465339 -0.028148 0.013547
0.465339 -0.093639 -0.006024
0.465339 -0.042968 0.022418
0.465339 -0.025705 0.062639
0.465339 -0.023058 -0.051351
0.465339 0.059222 0.040042
0.465339 0.028053 -0.024661
0.465339 -0.058102 0.011628
0.465339 -0.033828 -0.067713
0.465339 -0.003435 -0.000422
0.465339 -0.005205 0.094855
0.465339 0.024088 0.089262
0.465339 0.002330 0.036011
0.465339 -0.036435 0.048741
0.465339 0.077660 0.006784
0.465339 0.025440 0.096775
0.465339 0.051606 -0.020808
0.465339 -0.067448 -0.009394
0.465339 -0.000817 0.037162
0.465339 0.043140 -0.009449
0.465339 -0.084155 -0.000656
0.465339 -0.061254 -0.071221
0.465339 -0.022140 0.007038
0.465339 -0.010905 -0.090675
0.465339 0.009986 -0.042772
0.465339 -0.021134 -0.076022
0.465339 0.022283 -0.037653
0.465339 0.003364 0.074790
0.465339 -0.034020 0.074097
0.465339 0.033841 0.090625
0.465339 0.068591 -0.010396
0.465339 -0.013390 -0.051570
0.465339 0.027193 -0.001358
0.465339 -0.076931 0.012044
0.465339 -0.094576 -0.008078
0.465339 0.015678 -0.097636
0.465339 -0.060088 0.029087
0.465339 0.070447 -0.020847
0.465339 -0.073505 0.016126
0.465339 0.099088 0.013397
0.465339 0.033794 0.072847
0.465339 0.079193 -0.002582
0.465339 -0.008971 0.063301
0.465339 -0.076893 0.063306
0.465339 0.078530 -0.053787
0.465339 -0.033563 -0.087284
0.465339 0.044352 0.007558
0.465339 -0.031298 -0.088436
0.465339 0.088331 -0.045687
0.465339 0.011278 0.054995
0.465339 -0.020444 0.000201
0.465339 0.080001 0.038934
0.465339 0.096901 -0.010719
0.465339 -0.075115 0.015952
0.465339 0.027718 0.024369
0.465339 -0.080165 0.040746
0.465339 -0.043248 0.024219
0.465339 0.059125 0.073430
0.465339 0.050397 0.020106
0.465339 -0.036500 0.032230
0.465339 -0.014784 0.051631
0.465339 -0.033533 0.034388
0.465339 -0.004823 -0.028914
0.465339 -0.049959 -0.060203
0.465339 0.030808 -0.031159
0.465339 -0.090417 0.014167
0.465339 -0.012882 -0.036947
0.465339 0.009374 0.029561
0.465339 0.034376 0.042671
0.465339 -0.047603 -0.082231
0.465339 -0.089626 -0.037208
0.465339 -0.089625 0.016800
0.465339 -0.065591 0.034134
0.465339 0.030395 0.078155
0.465339 -0.093759 -0.000826
0.465339 0.037623 -0.059454
0.465339 0.016647 -0.058195
0.465339 0.040350 -0.019391
0.465339 -0.086612 -0.000996
0.465339 -0.073445 -0.066668
0.465339 -0.048007 -0.020213
0.465339 -0.027954 -0.070442
0.465339 0.083836 -0.045015
0.465339 0.069638 0.052101
0.465339 -0.046823 0.026554
0.465339 0.090376 -0.010201
0.465339 -0.059749 0.063931
0.465339 -0.051256 0.074967
0.465339 -0.077356 0.021609
0.465339 0.019942 0.061061
0.465339 0.076242 0.001865
0.465339 -0.086185 -0.035283
0.465339 0.074503 0.017339
0.465339 0.043431 0.090003
0.465339 0.015091 0.004912
0.465339 0.034956 -0.007232
0.465339 0.003418 -0.089621
0.465339 -0.027286 -0.062559
0.465339 0.005568 -0.068209
0.465339 0.040089 0.086178
0.465339 -0.018910 -0.037845
0.465339 -0.023828 0.090459
0.465339 0.028548 0.008749
0.465339 0.059826 -0.036939
0.465339 -0.054073 -0.065372
0.465339 -0.036062 -0.066056
0.465339 0.033727 -0.056024
0.465339 -0.075992 0.021071
0.465339 0.041701 -0.054029
0.465339 -0.061673 -0.027233
0.465339 0.025986 -0.017290
0.465339 0.057861 0.030346
0.465339 -0.025028 0.037666
0.465339 0.035012 -0.038234
0.465339 0.057622 -0.033303
0.465339 -0.006599 0.087287
0.465339 0.078293 0.047761
0.465339 0.043214 -0.070319
0.465339 -0.024749 -0.036513
0.465339 0.096160 0.020068
0.465339 -0.065711 -0.021920
0.465339 0.002424 0.092832
0.465339 -0.009623 -0.030495
0.465339 -0.033413 -0.015102
0.465339 -0.016237 -0.026536
0.465339 -0.073367 -0.033174
0.465339 -0.002776 -0.051373
0.465339 0.088694 -0.007719
0.465339 0.033057 0.083156
0.465339 -0.025631 0.030461
0.465339 0.023959 -0.000450
0.465339 0.002554 -0.025768
0.465339 0.092476 0.010056
0.465339 -0.065250 -0.054649
0.465339 0.059775 0.001377
0.465339 -0.018169 -0.076909
0.465339 0.077180 0.023714
0.465339 -0.087335 -0.039006
0.465339 0.058853 0.052286
0.465339 0.033832 0.092306
0.465339 0.025624 -0.071551
0.465339 -0.015379 -0.091079
0.465339 -0.037564 -0.012539
0.465339 0.011790 -0.032665
0.465339 -0.038540 -0.029442
0.465339 0.052919 -0.000299
0.465339 -0.036537 -0.005708
0.465339 0.030307 -0.026475
0.465339 0.086412 -0.034337
0.465339 -0.033611 0.078023
0.465339 -0.001818 -0.044264
0.465339 -0.090899 -0.014412
0.465339 -0.056223 0.062885
0.465339 -0.059292 0.065670
0.465339 -0.056906 0.018623
0.465339 -0.027827 -0.073500
0.465339 0.015895 0.060451
0.465339 0.026968 -0.045257
0.465339 0.046043 0.025443
0.465339 -0.013144 -0.047535
0.465339 0.041550 0.038321
0.465339 0.017968 -0.052397
0.465339 0.009745 0.010739
0.465339 -0.037468 -0.062925
0.465339 0.066565 0.035681
0.465339 0.066433 0.006583
0.465339 0.079268 -0.029397
0.465339 0.005451 0.079719
0.465339 -0.023046 -0.089423
0.465339 0.061323 0.000920
0.465339 0.058072 -0.059527
0.465339 0.053152 0.021318
0.465339 0.011420 0.013623
0.465339 0.003680 -0.064553
0.465339 -0.068665 -0.012241
0.465339 -0.068375 -0.059881
0.465339 -0.067870 0.072903
0.465339 0.043706 0.058876
0.465339 0.056793 -0.002683
0.465339 0.078083 -0.006438
0.465339 0.027349 0.087027
0.465339 -0.040492 -0.016564
0.465339 0.056842 -0.061867
0.465339 0.072265 0.013998
0.465339 0.006240 0.060562
0.465339 -0.015764 -0.011843
0.465339 0.001048 0.068470
0.465339 -0.031018 0.015584
0.465339 -0.044966 -0.027783
0.465339 0.026665 -0.032712
0.465339 0.010386 -0.028854
0.465339 -0.015504 -0.024814
0.465339 -0.075173 0.025801
0.465339 0.072818 -0.060535
0.465339 -0.037899 -0.017917
0.465339 0.021443 -0.089918
0.465339 0.038347 -0.016254
0.465339 -0.058228 -0.078282
0.465339 -0.021230 -0.021138
0.465339 -0.044355 0.035843
0.465339 -0.091474 0.004861
0.465339 -0.021832 -0.041512
0.465339 -0.009402 0.010284
0.465339 0.033685 -0.093353
0.465339 -0.039256 -0.043386
0.465339 0.007604 -0.051343
0.465339 -0.023270 0.047255
0.465339 0.032413 -0.015909
0.465339 0.002294 -0.007660
0.465339 0.094479 0.001761
0.465339 0.041583 -0.029041
0.465339 -0.036544 -0.068632
0.465339 0.029532 0.075289
0.465339 0.088223 -0.024931
0.465339 0.038431 -0.030401
0.465339 -0.039893 0.000049
0.465339 -0.007219 0.016858
0.465339 0.018435 0.053276
0.465339 -0.017952 0.004841
0.465339 0.022596 0.067917
0.465339 -0.023976 0.013890
0.465339 0.076495 -0.044862
0.465339 -0.003561 0.024468
0.465339 0.073032 0.001378
0.465339 -0.006615 0.052609
0.465339 -0.085079 0.011172
0.465339 0.037097 -0.036222
0.465339 -0.086898 -0.020994
0.465339 -0.023024 0.019456
0.465339 0.023455 -0.029497
0.465339 0.047456 0.000298
0.465339 0.083761 0.013208
0.465339 0.083927 0.019562
0.465339 -0.065540 0.036023
0.465339 0.015599 0.039898
0.465339 -0.024400 -0.015049
0.465339 -0.049744 0.052644
0.465339 -0.009881 -0.063143
0.465339 -0.044388 0.026282
0.465339 0.026806 -0.023509
0.465339 -0.006167 0.075083
0.465339 -0.064727 0.051111
0.465339 -0.034940 -0.022959
0.465339 -0.053789 -0.069894
0.465339 -0.026388 0.074463
0.465339 -0.008625 -0.034402
0.465339 0.042528 0.078487
0.465339 0.019335 -0.079458
0.465339 0.076712 0.025626
0.465339 -0.015566 -0.006467
0.465339 -0.018744 -0.081308
0.465339 -0.019801 -0.097217
0.465339 -0.072744 -0.063626
0.465339 0.069971 0.000442
0.465339 -0.031546 -0.068205
0.465339 -0.028908 0.045000
0.465339 -0.059290 0.068405
0.465339 -0.094306 0.014818
0.465339 -0.081624 -0.012802
0.465339 0.069492 -0.039107
0.465339 -0.072845 0.025591
0.465339 0.041750 -0.034825
0.465339 0.083527 -0.030773
0.465339 0.010760 -0.077048
0.465339 0.033934 -0.027620
0.465339 -0.070156 0.048598
0.465339 -0.033844 0.036713
0.465339 0.019935 0.080766
0.465339 0.001183 -0.045262
0.465339 0.058742 0.022652
0.465339 -0.089278 -0.040438
0.465339 0.021792 -0.051658
0.465339 0.028650 -0.052376
0.465339 0.042035 0.030937
0.465339 -0.054951 0.078483
0.465339 -0.047264 0.066955
0.465339 -0.007727 0.010029
0.465339 -0.016452 -0.010299
0.465339 -0.060008 -0.013201
0.465339 -0.000668 -0.051993
0.465339 0.056780 -0.007233
0.465339 0.021001 -0.014200
0.465339 -0.058998 -0.019841
0.465339 -0.049018 0.013824
0.465339 0.060544 0.003589
0.465339 0.061134 0.058415
0.465339 -0.010819 0.078259
0.465339 0.061715 0.078583
0.465339 -0.075734 -0.025815
0.465339 0.048325 -0.048554
0.465339 -0.091720 0.020252
0.465339 -0.073380 -0.055278
0.465339 0.039761 -0.044627
0.465339 -0.055937 -0.034135
0.465339 0.000984 0.017568
0.465339 -0.051925 0.054664
0.465339 -0.047623 0.063564
0.465339 0.068791 -0.053572
0.465339 -0.006489 0.066635
0.465339 0.071921 -0.051160
0.465339 -0.001894 0.017555
0.465339 -0.095049 -0.012166
0.465339 -0.052376 0.042859
0.465339 0.012343 0.090733
0.465339 0.075991 -0.024795
0.465339 -0.057766 -0.068311
0.465339 0.067772 0.044838
0.465339 -0.043306 0.027218
0.465339 0.041808 -0.067691
0.465339 0.047028 -0.044567
0.465339 0.034723 -0.084427
0.465339 -0.012013 0.064567
0.465339 0.065912 0.072624
0.465339 0.062156 0.009573
0.465339 0.077588 0.014793
0.465339 -0.060193 -0.042201
0.465339 0.015744 -0.068177
0.465339 0.045119 0.026890
0.465339 -0.062751 -0.064868
0.465339 0.069790 -0.013450
0.465339 -0.028758 -0.059150
0.465339 -0.085645 0.021000
0.465339 0.091607 0.015867
0.465339 0.069985 -0.064533
0.465339 -0.025340 -0.032031
0.465339 0.024898 0.004150
0.465339 -0.018989 0.051617
0.465339 -0.060833 -0.005874
0.465339 0.077797 0.057137
0.465339 -0.093351 -0.030312
0.465339 -0.076922 -0.062476
0.465339 0.015247 0.058726
0.465339 -0.082363 0.010260
0.465339 0.063606 0.009477
0.465339 0.023686 0.017262
0.465339 0.057536 -0.049972
0.465339 -0.067693 -0.030723
0.465339 0.089707 -0.032650
0.465339 0.051580 -0.007258
0.465339 0.074379 -0.039008
0.465339 -0.020291 0.091495
0.465339 -0.084743 -0.021666
0.465339 -0.066870 0.025393
0.465339 -0.011616 -0.005011
0.465339 -0.054468 0.021117
0.465339 0.092023 0.006001
0.465339 0.071156 -0.019413
0.465339 0.030381 0.009284
0.465339 -0.009433 -0.098219
0.465339 -0.054789 -0.049147
0.465339 0.047807 -0.080903
0.465339 -0.022424 -0.057254
0.465339 -0.016471 -0.086682
0.465339 0.012723 -0.076776
0.465339 0.050717 -0.035793
0.465339 0.004503 -0.009594
0.465339 -0.006735 0.000287
0.465339 -0.045081 -0.043603
0.465339 0.020537 0.066644
0.465339 -0.034431 -0.072620
0.465339 0.029077 -0.028250
0.465339 -0.066636 0.031455
0.465339 0.056009 -0.004288
0.465339 -0.084388 -0.016362
0.465339 0.076063 -0.057504
0.465339 -0.048616 0.065206
0.465339 -0.048758 -0.052078
0.465339 0.024185 0.059285
0.465339 -0.045078 -0.001772
0.465339 0.071567 0.020082
0.465339 0.050519 -0.006144
0.465339 0.083178 0.032268
0.465339 -0.056220 -0.040993
0.465339 -0.055421 0.031392
0.465339 0.027057 -0.025796
0.465339 0.026185 -0.085166
0.465339 -0.050477 0.047398
0.465339 -0.048722 -0.036230
0.465339 -0.021820 0.032995
0.465339 -0.064942 0.024348
0.465339 -0.065833 0.005002
0.465339 0.032329 0.036407
0.465339 0.093987 -0.031781
0.465339 -0.043864 0.016048
0.465339 0.025470 -0.024914
0.465339 0.081142 -0.016129
0.465339 0.076869 -0.048254
0.465339 0.079713 0.051677
0.465339 0.061409 0.031363
0.465339 0.030847 -0.009484
0.465339 0.038612 0.056169
0.465339 0.043085 -0.074961
0.465339 -0.003868 0.069487
0.465339 0.064482 -0.037023
0.465339 -0.039713 -0.070424
0.465339 -0.024997 0.002841
0.465339 0.075588 0.008769
0.465339 -0.011531 -0.063578
0.465339 -0.060280 -0.062820
0.465339 -0.071724 -0.002777
0.465339 -0.029531 0.009239
0.465339 -0.054454 -0.055401
0.465339 -0.012020 -0.057606
0.465339 0.095444 -0.010575
0.465339 0.029011 0.086699
0.465339 0.029315 0.018456
0.465339 0.027819 -0.059156
0.465339 -0.083523 0.014267
0.465339 0.057504 0.040253
0.465339 0.052720 0.006516
0.465339 0.007661 -0.087398
0.465339 -0.001037 -0.054113
0.465339 -0.040307 -0.026789
0.465339 0.095748 -0.008246
0.465339 0.063561 0.039441
0.465339 0.042382 -0.020914
0.465339 -0.097010 0.023078
0.465339 -0.030564 0.077069
0.465339 -0.003858 0.006887
0.465339 0.066758 -0.057859
0.465339 -0.026816 0.038102
0.465339 0.044087 0.041399
0.465339 -0.066610 -0.073668
0.465339 0.024850 0.068253
0.465339 -0.064459 -0.022700
0.465339 0.088115 -0.004727
0.465339 -0.064175 0.019756
0.465339 0.051301 -0.029499
0.465339 0.064619 0.043519
0.465339 -0.048764 0.053594
0.465339 -0.052830 0.024806
0.465339 -0.081491 0.055369
0.465339 0.098938 -0.004298
0.465339 0.014490 0.019769
0.465339 0.070289 -0.003815
0.465339 -0.035857 0.091880
0.465339 0.028170 0.007194
0.465339 0.088014 0.009728
0.465339 -0.045102 -0.012204
0.465339 0.058028 0.056793
0.465339 0.021254 0.057941
0.465339 0.062655 0.043385
0.465339 -0.025043 0.018191
0.465339 -0.072035 -0.068837
0.465339 -0.033263 0.038030
0.465339 0.018161 0.009234
0.465339 -0.083490 0.026396
0.465339 -0.016116 -0.036371
0.465339 0.091553 -0.036217
0.465339 0.027460 -0.003027
0.465339 0.059306 0.050819
0.465339 0.002057 -0.063568
0.465339 -0.028299 -0.077078
0.465339 0.000156 -0.001996
0.465339 0.001326 -0.005989
0.465339 0.054035 0.012063
0.465339 0.026352 0.041557
