0.465339 0.080836 -0.044385
0.465339 0.026844 -0.008406
0.465339 -0.082693 0.014734
0.465339 0.011728 -0.061534
0.465339 -0.025665 0.089752
0.465339 -0.079248 0.001628
0.465339 -0.030405 0.069149
0.465339 0.065167 0.013829
0.465339 0.065705 -0.020547
0.465339 0.041959 0.039247
0.465339 -0.071690 -0.015295
0.465339 0.075267 -0.031319
0.465339 0.018720 0.027666
0.465339 0.040170 0.007797
0.465339 -0.022879 -0.023206
0.465339 0.098141 0.002565
0.465339 0.088388 0.028556
0.465339 -0.033800 0.039618
0.465339 -0.067693 -0.030130
0.465339 0.059406 0.063142
0.465339 -0.008004 -0.053435
0.465339 -0.097974 -0.018217
0.465339 -0.019124 0.038873
0.465339 -0.009405 -0.013396
0.465339 0.025076 -0.007155
0.465339 0.021287 -0.007225
0.465339 -0.066182 -0.011635
0.465339 0.054299 0.059751
0.465339 0.009220 -0.049151
0.465339 -0.064213 0.016246
0.465339 -0.061351 -0.028945
0.465339 -0.055353 0.007720
0.465339 -0.091753 -0.036303
0.465339 -0.059087 -0.004196
0.465339 0.022621 0.059149
0.465339 0.060669 0.043522
0.465339 -0.086938 -0.027719
0.465339 0.083783 0.020533
0.465339 0.017880 0.062382
0.465339 0.021143 0.020540
0.465339 0.092967 -0.022795
0.465339 0.065151 -0.008347
0.465339 -0.001059 -0.044494
0.465339 0.034337 0.052188
0.465339 -0.007110 -0.098076
0.465339 -0.011416 -0.018177
0.465339 -0.055948 -0.036584
0.465339 -0.047679 0.069992
0.465339 -0.051077 -0.066773
0.465339 0.044211 0.041388
0.465339 -0.040523 0.083285
0.465339 -0.009003 -0.026281
0.465339 -0.072746 0.048151
0.465339 0.027376 0.071503
0.465339 -0.039513 0.049368
0.465339 0.067941 0.059025
0.465339 -0.056666 0.020537
0.465339 0.037914 -0.076531
0.465339 0.079234 -0.037559
0.465339 0.037720 0.011871
0.465339 -0.074694 0.022533
0.465339 0.044952 0.043922
0.465339 -0.000708 -0.070406
0.465339 0.075148 -0.065659
0.465339 0.050484 -0.034241
0.465339 -0.079276 0.010745
0.465339 -0.008053 0.019165
0.465339 -0.091330 -0.000658
0.465339 0.020212 -0.086089
0.465339 0.057915 0.003218
0.465339 -0.067566 -0.070456
0.465339 -0.040306 0.007985
0.465339 0.036946 0.009395
0.465339 -0.033900 -0.045641
0.465339 -0.015610 -0.065594
0.465339 -0.061590 -0.015182
0.465339 -0.004535 0.099889
0.465339 0.097922 0.019724
0.465339 -0.051545 0.060803
0.465339 0.064570 0.003007
0.465339 -0.000703 0.015711
0.465339 -0.044546 -0.068164
0.465339 -0.089212 0.038553
0.465339 -0.039323 -0.087229
0.465339 0.042470 0.036411
0.465339 0.020984 -0.027477
0.465339 -0.035289 -0.049046
0.465339 0.084857 -0.036165
0.465339 -0.044064 0.076987
0.465339 -0.066922 -0.038944
-0.466955 -0.007837 0.078514
-0.466955 -0.024279 -0.051275
-0.466955 0.069187 0.011405
-0.466955 -0.093338 0.009282
-0.466955 0.023126 0.003573
-0.466955 0.019318 0.038470
-0.466955 -0.045001 -0.044086
-0.466955 0.062465 -0.021953
-0.466955 -0.013987 -0.084563
-0.466955 0.089003 0.037006
-0.466955 -0.064109 0.066790
-0.466955 0.064030 0.054969
-0.466955 0.050796 -0.045000
-0.466955 0.012787 -0.025856
-0.466955 -0.004549 -0.020978
-0.466955 0.038678 0.048745
-0.466955 -0.050377 -0.006072
-0.466955 -0.038383 -0.047844
-0.466955 -0.076782 0.055950
-0.466955 0.061942 -0.017386
-0.466955 -0.020892 -0.081643
-0.466955 0.071720 0.012859
-0.466955 0.033306 0.032079
-0.466955 0.041105 0.055203
-0.466955 -0.004953 0.089132
-0.466955 -0.070572 0.025394
-0.466955 -0.028678 -0.051386
-0.466955 -0.034528 0.020547
-0.466955 0.089233 0.003621
-0.466955 -0.013862 -0.020474
-0.466955 -0.007159 -0.003576
-0.466955 -0.008885 -0.022039
-0.466955 -0.025627 0.087183
-0.466955 -0.028890 0.006307
-0.466955 0.011271 0.098571
-0.466955 -0.055305 0.004722
-0.466955 0.070459 -0.063647
-0.466955 -0.059637 0.014267
-0.466955 -0.029848 0.029897
-0.466955 0.079913 0.025578
-0.466955 -0.050402 -0.069971
-0.466955 -0.041699 -0.013558
-0.466955 0.086058 0.033716
-0.466955 -0.026328 -0.061582
-0.466955 0.007572 -0.043476
-0.466955 -0.034137 0.043495
-0.466955 -0.003652 -0.022778
-0.466955 -0.037523 -0.091337
-0.466955 0.064064 0.049636
-0.466955 -0.064136 0.024299
-0.466955 -0.062734 -0.055318
-0.466955 -0.033141 0.017275
-0.466955 -0.068792 0.022260
-0.466955 0.010358 0.034629
-0.466955 0.014463 0.006332
-0.466955 -0.032636 0.004335
-0.466955 0.053659 -0.029894
-0.466955 -0.002567 -0.065920
-0.466955 -0.024567 0.086156
-0.466955 -0.017738 0.069363
-0.466955 0.069012 -0.049335
-0.466955 0.014590 -0.054014
-0.466955 0.052503 0.019977
-0.466955 0.035750 0.004596
-0.466955 -0.042031 0.062707
-0.466955 -0.022269 -0.012541
-0.466955 0.013792 -0.063606
-0.466955 0.015318 -0.038827
-0.466955 0.026244 -0.041485
-0.466955 -0.049720 -0.009250
-0.466955 0.034816 -0.075801
-0.466955 -0.023709 -0.087748
-0.466955 0.035041 0.017340
-0.466955 -0.030259 0.056370
-0.466955 0.093350 -0.009231
-0.466955 0.023925 -0.066966
-0.466955 -0.007803 0.076802
-0.466955 0.067840 0.060027
-0.466955 0.048087 0.022150
-0.466955 -0.004382 0.001461
-0.466955 -0.098617 0.007842
-0.466955 0.045329 -0.084099
-0.466955 0.040499 -0.032624
-0.466955 -0.010955 0.095946
-0.466955 0.002999 -0.059482
-0.466955 -0.075580 -0.013490
-0.466955 0.015999 0.007084
-0.466955 0.035398 -0.073083
-0.466955 0.007570 -0.044888
-0.466955 0.081571 0.054822
-0.466955 -0.003026 -0.027306
-0.466955 0.068966 -0.038227
-0.466955 -0.027384 0.086942
-0.466955 0.034444 0.079877
-0.466955 -0.036869 0.081869
-0.466955 -0.021581 0.074947
-0.466955 -0.031143 0.004282
-0.466955 -0.049237 0.056001
-0.466955 -0.037232 0.047940
-0.466955 -0.009145 -0.012487
-0.466955 -0.085720 -0.049667
-0.466955 0.007903 -0.088104
-0.466955 -0.094115 0.012947
-0.466955 0.006430 -0.008858
-0.466955 0.034311 -0.089848
-0.466955 0.028129 -0.025431
-0.466955 0.051848 0.040957
-0.466955 0.086152 -0.019261
-0.466955 0.035115 0.058531
-0.466955 0.076145 0.006102
-0.466955 0.063769 -0.013243
-0.466955 -0.023616 0.033246
-0.466955 0.064271 -0.035336
-0.466955 0.028131 -0.054090
-0.466955 -0.055508 -0.073321
-0.466955 0.005311 0.023498
-0.466955 -0.080342 0.001253
-0.466955 0.090056 0.023364
-0.466955 0.050564 0.084756
-0.466955 0.091062 -0.010986
-0.466955 -0.051492 -0.031013
-0.466955 0.023837 0.031218
-0.466955 -0.083948 -0.038472
-0.466955 0.044471 0.043990
-0.466955 -0.048795 0.048615
-0.466955 -0.094409 -0.001782
-0.466955 0.002713 0.092633
-0.466955 0.070405 -0.065210
-0.466955 0.005652 0.043287
-0.466955 0.052457 -0.010016
-0.466955 0.064095 0.003472
-0.466955 0.042498 -0.023899
-0.466955 -0.033611 0.081206
-0.466955 -0.050873 0.085498
-0.466955 -0.001842 -0.095026
-0.466955 -0.057983 0.055190
-0.466955 -0.005752 0.000708
-0.466955 -0.029096 0.014985
-0.466955 0.011970 0.055595
-0.466955 0.081524 -0.016529
-0.466955 0.039843 -0.070416
-0.466955 0.063300 0.023667
-0.466955 -0.027045 0.011425
-0.466955 0.042604 0.061059
-0.466955 0.005727 0.016338
-0.466955 -0.007871 0.058292
-0.466955 -0.000967 0.070911
-0.466955 0.067632 -0.039197
-0.466955 -0.074004 0.059305
-0.466955 0.023204 -0.047736
-0.466955 -0.016890 -0.049799
-0.466955 -0.063238 -0.026490
-0.466955 -0.027348 -0.034223
-0.466955 -0.008449 -0.036469
-0.466955 -0.064296 0.018909
-0.466955 0.001698 0.080527
-0.466955 -0.042251 -0.044215
-0.466955 -0.004610 0.004278
-0.466955 0.006800 -0.072542
-0.466955 -0.025821 0.026795
-0.466955 -0.089537 0.032049
-0.466955 -0.069698 0.029402
-0.466955 -0.010430 -0.015063
-0.466955 0.028947 0.049349
-0.466955 0.007043 0.017393
-0.466955 0.088610 0.023242
-0.466955 0.017139 -0.020354
-0.466955 -0.081694 0.038044
-0.466955 -0.018247 0.028135
-0.466955 0.001945 -0.020193
-0.466955 -0.009628 -0.076215
-0.466955 -0.083353 0.050871
-0.466955 0.069582 0.071714
-0.466955 -0.015107 -0.092673
-0.466955 0.041998 -0.058040
-0.466955 0.005390 0.071843
-0.466955 -0.000902 0.015120
-0.466955 0.071393 0.054284
-0.466955 -0.037271 0.044754
-0.466955 0.080860 -0.023754
-0.466955 -0.036774 -0.042034
-0.466955 0.043989 0.034473
-0.466955 -0.004763 -0.041450
-0.466955 -0.012655 0.098882
-0.466955 0.001927 0.010817
-0.466955 0.045664 -0.044028
-0.466955 0.022502 -0.028110
-0.466955 -0.045485 0.034890
-0.466955 -0.030923 0.032862
-0.466955 -0.030715 -0.075422
-0.466955 0.026019 0.035309
-0.466955 0.014471 -0.028857
-0.466955 0.055382 0.000371
-0.466955 0.042487 -0.060897
-0.466955 -0.080343 -0.035600
-0.466955 0.021924 0.092012
-0.466955 -0.004790 -0.074175
-0.466955 -0.004005 -0.051373
-0.466955 -0.060042 0.063330
-0.466955 0.058478 -0.067402
-0.466955 0.005241 0.033012
-0.466955 -0.091229 0.032195
-0.466955 -0.019116 0.007878
-0.466955 -0.097441 -0.002780
-0.466955 0.047817 0.009580
-0.466955 -0.042343 -0.069757
-0.466955 -0.049628 -0.014387
-0.466955 0.020683 0.059603
-0.466955 0.066639 0.011726
-0.466955 0.035854 0.073209
-0.466955 -0.050092 -0.029881
-0.466955 0.057242 -0.061192
-0.466955 -0.035632 0.007039
-0.466955 0.078385 0.023347
-0.466955 -0.027199 -0.068319
-0.466955 0.079050 -0.020504
-0.466955 0.077804 -0.053251
-0.466955 0.032079 -0.064115
-0.466955 0.076358 0.004039
-0.466955 0.093756 0.018039
-0.466955 -0.022024 0.033089
-0.466955 -0.034931 0.010014
-0.466955 -0.011336 0.098047
-0.466955 0.058536 0.052948
-0.466955 -0.067504 0.010826
-0.466955 0.087952 -0.032124
-0.466955 0.083861 -0.024572
-0.466955 0.042320 -0.021856
-0.466955 -0.056790 -0.026623
-0.466955 0.027693 0.030984
-0.466955 0.000675 0.056495
-0.466955 -0.003251 0.086349
-0.466955 -0.003715 -0.042644
-0.466955 0.028379 -0.087937
-0.466955 -0.033112 0.022872
-0.466955 -0.073168 -0.062537
-0.466955 -0.054202 -0.029705
-0.466955 -0.046097 0.021962
-0.466955 -0.043310 -0.045234
-0.466955 -0.069142 0.068959
-0.466955 -0.036639 0.078824
-0.466955 -0.068251 -0.067892
-0.466955 0.093384 -0.011172
-0.466955 0.009827 0.008749
-0.466955 -0.077480 0.017109
-0.466955 -0.092937 -0.000557
-0.466955 -0.055350 -0.076281
-0.466955 0.062691 -0.009169
-0.466955 0.039079 -0.073713
-0.466955 0.042229 -0.064153
-0.466955 0.018922 0.048165
-0.466955 -0.054631 -0.003112
-0.466955 0.055526 0.057223
-0.466955 0.079931 -0.043900
-0.466955 0.058872 0.065839
-0.466955 -0.041362 0.048921
-0.466955 -0.048520 0.054244
-0.466955 -0.089263 -0.014105
-0.466955 -0.056711 0.076871
-0.466955 -0.087838 -0.046978
-0.466955 0.048339 -0.084820
-0.466955 -0.070245 0.045280
-0.466955 -0.046039 0.009328
-0.466955 0.009885 -0.060050
-0.466955 0.082539 -0.023537
-0.466955 0.067280 -0.022832
-0.466955 0.007941 0.082772
-0.466955 0.000022 0.043882
-0.466955 0.026182 -0.060434
-0.466955 0.037122 -0.059527
-0.466955 -0.078984 0.031902
-0.466955 0.056902 -0.008303
-0.466955 -0.052839 -0.003035
-0.466955 0.033000 -0.014034
-0.466955 0.019175 -0.039803
-0.466955 0.043560 -0.066518
-0.466955 -0.062970 0.004642
-0.466955 -0.013715 0.061337
-0.466955 -0.034910 -0.008395
-0.466955 0.031594 -0.059817
-0.466955 0.037876 -0.005278
-0.466955 0.041133 -0.087102
-0.466955 0.019872 0.007763
-0.466955 0.046756 0.043668
-0.466955 0.028105 0.061602
-0.466955 -0.083106 0.035356
-0.466955 0.065576 -0.017553
-0.466955 0.009446 -0.088562
-0.466955 -0.086213 -0.022930
-0.466955 -0.023604 -0.029922
-0.466955 -0.013948 -0.018509
-0.466955 0.025707 -0.087418
-0.466955 0.088701 -0.042217
-0.466955 -0.021049 -0.059045
-0.466955 -0.050738 -0.010298
-0.466955 -0.048744 0.059463
-0.466955 0.025738 0.020034
-0.466955 -0.018293 -0.027970
-0.466955 0.007114 0.007670
-0.466955 0.092902 0.023320
-0.466955 0.009273 -0.051127
-0.466955 -0.012450 0.070138
-0.466955 -0.023791 0.002987
-0.466955 0.072510 -0.039475
-0.466955 0.066164 -0.029409
-0.466955 -0.047893 0.034968
-0.466955 -0.005376 0.028993
-0.466955 -0.061297 0.008207
-0.466955 -0.045578 -0.079568
-0.466955 -0.033034 -0.037517
-0.466955 -0.078178 -0.014098
-0.466955 -0.054424 0.047419
-0.466955 0.026461 0.038095
-0.466955 0.055526 -0.057939
-0.466955 0.045498 -0.036053
-0.466955 0.006236 0.052015
-0.466955 0.045966 0.002951
-0.466955 0.085291 -0.042342
-0.466955 0.079700 -0.050545
-0.466955 -0.057161 -0.031133
-0.466955 0.039992 0.018072
-0.466955 -0.052295 0.058045
-0.466955 0.059832 -0.041091
-0.466955 -0.023856 0.077176
-0.466955 -0.044811 -0.083293
-0.466955 -0.052193 -0.042320
-0.466955 0.044600 0.058826
-0.466955 -0.044831 -0.032451
-0.466955 -0.010329 0.027243
-0.466955 -0.075395 -0.054866
-0.466955 0.076426 0.046294
-0.466955 0.081405 0.014858
-0.466955 0.014444 -0.095971
-0.466955 0.069228 -0.024180
-0.466955 0.087256 0.039884
-0.466955 0.033215 -0.032439
-0.466955 -0.006250 0.056139
-0.466955 0.044377 0.080670
-0.466955 -0.060679 -0.077853
-0.466955 0.059055 0.070161
-0.466955 -0.006008 0.026022
-0.466955 -0.020013 -0.033989
-0.466955 -0.038893 -0.045897
-0.466955 0.040201 0.075315
-0.466955 0.008942 -0.083355
-0.466955 -0.059567 -0.037377
-0.466955 0.085613 0.019894
-0.466955 -0.029171 -0.077987
-0.466955 0.071214 0.023060
-0.466955 0.059007 0.039697
-0.466955 0.074184 -0.034896
-0.466955 0.004009 0.079738
-0.466955 -0.028049 0.067962
-0.466955 0.096044 0.020327
-0.466955 -0.020398 -0.092941
-0.466955 0.067565 0.066428
-0.466955 0.066179 0.043121
-0.466955 0.079582 0.006225
-0.466955 -0.032448 0.067533
-0.466955 -0.013788 0.057719
-0.466955 0.061483 0.061736
-0.466955 0.019771 0.013569
-0.466955 0.000573 -0.045933
-0.466955 -0.000137 0.021990
-0.466955 0.018970 -0.030795
-0.466955 0.078315 -0.001032
-0.466955 0.060983 -0.021310
-0.466955 -0.092974 0.032137
-0.466955 0.058539 -0.053614
-0.466955 0.080717 0.009522
-0.466955 -0.022892 0.023201
-0.466955 -0.003569 -0.002921
-0.466955 0.035587 0.011364
-0.466955 0.070324 -0.050279
-0.466955 0.038718 -0.011143
-0.466955 -0.089379 -0.034387
-0.466955 -0.018602 0.014194
-0.466955 0.049610 0.047119
-0.466955 0.004446 0.067565
-0.466955 0.024512 -0.094463
-0.466955 -0.079797 -0.009334
-0.466955 0.004614 -0.099343
-0.466955 0.080985 -0.058158
-0.466955 -0.008004 0.095238
-0.466955 -0.021848 -0.085670
-0.466955 -0.044990 0.033407
-0.466955 -0.032127 0.050081
-0.466955 -0.085671 -0.010086
-0.466955 -0.083887 -0.045053
-0.466955 0.049596 0.035526
-0.466955 0.080505 0.001448
-0.466955 -0.023153 -0.084092
-0.466955 -0.056049 -0.050804
-0.466955 -0.009146 0.051384
-0.466955 0.084144 -0.044445
-0.466955 0.012208 -0.014214
-0.466955 0.071103 0.048888
-0.466955 0.043925 0.011698
-0.466955 -0.084370 -0.040228
-0.466955 -0.018047 -0.059128
-0.466955 -0.057656 0.035575
-0.466955 -0.024644 0.015572
-0.466955 -0.068091 -0.018193
-0.466955 0.017194 -0.085143
-0.466955 0.066710 -0.021207
-0.466955 -0.002564 -0.041379
-0.466955 0.051704 0.029238
-0.466955 0.039524 0.037207
-0.466955 0.084954 0.000620
-0.466955 0.044152 0.077952
-0.466955 -0.012471 -0.015131
-0.466955 -0.027398 0.064873
-0.466955 -0.049523 0.061939
-0.466955 0.016259 0.004937
-0.466955 0.000912 0.042439
-0.466955 0.057620 0.074414
-0.466955 0.056403 -0.079552
-0.466955 -0.035604 0.035334
-0.466955 0.052376 0.080084
-0.466955 -0.058761 0.068439
-0.466955 -0.016220 0.008172
-0.466955 0.055297 -0.072684
-0.466955 0.094071 -0.023032
-0.466955 0.010588 -0.019876
-0.466955 -0.044075 -0.046622
-0.466955 0.093826 0.016016
-0.466955 -0.009973 0.052775
-0.466955 -0.090852 -0.034805
-0.466955 0.042129 -0.035699
-0.466955 -0.015024 -0.046789
-0.466955 0.008431 0.030009
-0.466955 0.051124 -0.015458
-0.466955 -0.048983 0.012460
-0.466955 -0.072260 -0.023887
-0.466955 -0.053109 0.079964
-0.466955 0.000581 0.071176
-0.466955 0.082930 0.025826
-0.466955 -0.042849 -0.022546
-0.466955 0.017338 0.094767
-0.466955 -0.049321 -0.024318
-0.466955 0.016709 0.054005
-0.466955 0.065162 0.044023
-0.466955 0.071720 -0.053154
-0.466955 -0.013032 -0.034132
-0.466955 -0.033470 -0.034824
-0.466955 0.041702 0.049447
-0.466955 0.086742 -0.002838
-0.466955 -0.028935 -0.089348
-0.466955 0.013172 -0.032455
-0.466955 -0.053177 -0.083020
-0.466955 0.012159 0.044578
-0.466955 -0.017593 -0.078155
-0.466955 -0.066659 -0.016500
-0.466955 -0.029833 0.019892
-0.466955 0.035500 -0.071133
-0.466955 0.079604 0.015679
-0.466955 -0.008715 0.032542
-0.466955 -0.028683 0.095655
-0.466955 0.025076 0.086198
-0.466955 0.040970 -0.079990
-0.466955 0.064155 0.056518
-0.466955 -0.013843 0.027811
-0.466955 0.022677 0.009355
-0.466955 0.072599 -0.024593
-0.466955 0.006399 -0.036252
-0.466955 -0.074781 -0.053463
-0.466955 0.051885 0.015029
-0.466955 -0.080958 -0.020292
-0.466955 0.040829 -0.064449
-0.466955 -0.029756 -0.076731
-0.466955 -0.033786 -0.016346
-0.466955 -0.055501 0.000631
-0.466955 0.056365 -0.063295
-0.466955 0.075342 0.007772
-0.466955 0.034379 -0.010884
-0.466955 0.061103 -0.060870
-0.466955 0.065415 -0.003658
-0.466955 -0.070236 -0.028755
-0.466955 -0.075192 -0.057532
-0.466955 0.071051 -0.034424
-0.466955 0.000204 -0.055027
-0.466955 -0.055786 -0.056758
-0.466955 0.005187 -0.020104
-0.466955 -0.053831 0.000731
-0.466955 -0.086246 -0.016950
-0.466955 -0.048615 -0.004850
-0.466955 -0.073405 0.067493
-0.466955 -0.087483 -0.001945
-0.466955 0.063638 0.029242
-0.466955 -0.001923 -0.003812
-0.466955 0.020218 0.075835
-0.466955 0.034519 0.088513
-0.466955 -0.026719 -0.012050
-0.466955 0.015653 -0.031434
-0.466955 0.023360 -0.078195
-0.466955 0.055483 -0.048372
-0.466955 -0.028081 -0.061501
-0.466955 -0.008832 0.047820
-0.466955 -0.070647 -0.012403
-0.466955 -0.075548 0.058467
-0.466955 -0.082228 0.006241
-0.466955 0.029771 0.071800
-0.466955 0.055467 0.009430
-0.466955 0.035980 -0.012668
-0.466955 0.030586 0.029392
-0.466955 0.089213 -0.017987
-0.466955 -0.077443 0.023305
-0.466955 -0.059728 -0.062126
-0.466955 0.080000 0.007863
-0.466955 -0.066047 0.027896
-0.466955 -0.041833 0.037545
-0.466955 -0.034613 0.069500
-0.466955 0.012484 0.082318
-0.466955 0.022618 -0.079846
-0.466955 -0.039197 -0.038653
-0.466955 -0.046365 0.049288
-0.466955 -0.047244 -0.036823
-0.466955 0.021872 -0.082488
-0.466955 0.011500 0.029594
-0.466955 0.087791 0.000058
-0.466955 -0.048557 -0.075107
-0.466955 0.003298 -0.095970
-0.466955 0.016671 0.081345
-0.466955 0.073135 -0.059064
-0.466955 -0.042438 0.006288
-0.466955 0.026795 -0.061721
-0.466955 -0.087938 -0.044863
-0.466955 -0.041598 0.089240
-0.466955 0.070007 -0.060423
-0.466955 0.018902 -0.043460
-0.466955 0.018802 0.078260
-0.466955 0.046800 -0.056934
-0.466955 -0.070409 -0.052521
-0.466955 0.067828 0.047239
-0.466955 0.004990 -0.017837
-0.466955 -0.050421 0.079086
-0.466955 0.063848 -0.025982
-0.466955 -0.006652 0.095844
-0.466955 0.064454 -0.006411
-0.466955 -0.042506 0.036126
-0.466955 -0.009751 0.045509
-0.466955 0.073399 -0.040784
-0.466955 0.039069 0.065134
-0.466955 0.000900 0.067193
-0.466955 -0.025348 0.081341
-0.466955 0.005607 0.047505
-0.466955 0.033284 -0.050778
-0.466955 0.001986 -0.040436
-0.466955 0.026131 0.053659
-0.466955 -0.051416 -0.015434
-0.466955 -0.066423 -0.063027
-0.466955 -0.052860 0.036741
-0.466955 -0.005699 -0.079763
-0.466955 -0.086420 0.023010
-0.466955 -0.044317 0.068783
-0.466955 0.026897 -0.077464
-0.466955 -0.055316 0.056612
-0.466955 -0.011224 0.059454
-0.466955 0.057016 0.023137
-0.466955 0.052911 0.068414
-0.466955 0.029249 0.059287
-0.466955 -0.015660 0.078515
-0.466955 -0.076350 -0.049146
-0.466955 -0.032714 -0.007570
-0.466955 0.017674 -0.040097
-0.466955 -0.013169 -0.002572
-0.466955 0.070066 0.068463
-0.466955 0.090676 -0.013224
-0.466955 0.001003 0.026658
-0.466955 0.053470 0.002342
-0.466955 0.072512 0.063639
-0.466955 -0.066160 0.046175
-0.466955 -0.094143 -0.032421
-0.466955 -0.061889 -0.028279
-0.466955 -0.048704 -0.040494
-0.466955 0.065962 -0.034020
-0.466955 -0.050756 -0.001304
-0.466955 0.016463 -0.095452
-0.466955 -0.003787 -0.048603
-0.466955 -0.043524 0.086111
-0.466955 0.060956 -0.015995
-0.466955 -0.043305 0.032772
-0.466955 0.061641 -0.064247
-0.466955 -0.067327 -0.072036
-0.466955 0.041920 -0.080956
-0.466955 -0.054348 -0.018692
-0.466955 0.021557 -0.061062
-0.466955 0.072326 -0.026912
-0.466955 -0.013911 -0.044275
-0.466955 0.042113 -0.088945
-0.466955 0.039887 -0.004059
-0.466955 -0.085597 0.005207
-0.466955 0.002717 -0.083060
-0.466955 -0.011519 -0.003044
-0.466955 -0.088062 -0.011107
-0.466955 0.033258 0.012884
-0.466955 -0.018661 -0.010072
-0.466955 -0.056740 0.004839
-0.466955 0.006405 0.091100
-0.466955 0.047652 -0.025755
-0.466955 -0.065486 0.025216
-0.466955 -0.026680 0.029621
-0.466955 0.024923 0.043585
-0.466955 -0.017621 0.022996
-0.466955 0.001262 0.014809
-0.466955 -0.079478 0.008143
-0.466955 -0.008805 -0.052953
-0.466955 0.008633 -0.046490
-0.466955 0.063170 0.039911
-0.466955 -0.022802 0.019788
-0.466955 -0.062766 0.008339
-0.466955 -0.082869 -0.039648
-0.466955 -0.035452 0.027070
-0.466955 0.057089 -0.072000
-0.466955 -0.003289 0.093207
-0.466955 -0.019277 0.069289
-0.466955 0.085235 -0.038894
-0.466955 0.064166 -0.008342
-0.466955 0.004697 -0.003923
-0.466955 -0.042713 0.087245
-0.466955 0.082186 -0.044862
-0.466955 -0.064268 0.035013
-0.466955 0.033039 0.069967
-0.466955 0.022399 -0.067494
-0.466955 0.099876 0.000053
-0.466955 -0.018948 0.036614
-0.466955 0.006053 0.073272
-0.466955 0.051448 -0.085213
-0.466955 0.025646 -0.062967
-0.466955 -0.061974 0.041829
-0.466955 -0.011521 -0.072532
-0.466955 -0.081980 0.004009
-0.466955 0.025884 -0.083105
-0.466955 0.033235 0.086723
-0.466955 -0.040611 -0.004900
-0.466955 -0.023435 0.012858
-0.466955 -0.011816 0.052360
-0.466955 0.090106 -0.005611
-0.466955 0.025033 -0.017533
-0.466955 -0.040262 0.007485
-0.466955 -0.013853 0.070827
-0.466955 0.055454 0.023249
-0.466955 0.041013 -0.013034
-0.466955 -0.041939 -0.082662
-0.466955 -0.086998 -0.024420
-0.466955 0.052997 0.040133
-0.466955 0.068105 0.019161
-0.466955 -0.021536 -0.040514
-0.466955 0.079983 0.046878
-0.466955 0.062413 -0.026126
-0.466955 -0.039094 -0.015379
-0.466955 -0.085707 0.037202
-0.466955 -0.044288 -0.042764
-0.466955 0.024800 0.013565
-0.466955 -0.083979 0.005746
-0.466955 -0.008820 0.055071
-0.466955 0.096700 -0.010441
-0.466955 0.009806 -0.056761
-0.466955 -0.004211 -0.026436
-0.466955 -0.002758 0.066948
-0.466955 0.061474 0.072103
-0.466955 -0.053252 -0.060219
-0.466955 -0.074671 -0.004656
-0.466955 -0.068127 0.070076
-0.466955 -0.028209 -0.055293
-0.466955 0.020003 -0.071549
-0.466955 0.098970 -0.011523
-0.466955 0.042775 -0.087519
-0.466955 -0.097872 -0.007008
-0.466955 -0.060453 0.033075
-0.466955 -0.039185 0.034996
-0.466955 -0.091763 -0.014967
-0.466955 0.074236 0.051083
-0.466955 0.064742 -0.033362
-0.466955 0.021078 -0.093838
-0.466955 -0.012913 0.022205
-0.466955 -0.081211 -0.022128
-0.466955 0.062465 -0.067330
-0.466955 0.045601 -0.086811
-0.466955 0.005844 -0.010349
-0.466955 0.064321 0.062936
-0.466955 -0.015841 -0.004317
-0.466955 0.056412 0.058904
-0.466955 0.027077 -0.030721
-0.466955 0.068531 0.068318
-0.466955 -0.021497 -0.051470
-0.466955 0.093317 0.012741
-0.466955 -0.024400 0.093269
-0.466955 -0.086118 0.042536
-0.466955 0.018224 -0.045004
-0.466955 -0.036109 -0.090464
-0.466955 0.073736 -0.046898
-0.466955 -0.024785 -0.008479
-0.466955 0.029747 0.082629
-0.466955 -0.043413 0.078123
-0.466955 0.030902 -0.074436
-0.466955 0.074646 0.017523
-0.466955 0.001576 -0.049534
-0.466955 0.013801 -0.037075
-0.466955 0.048955 0.010829
-0.466955 0.038642 0.082155
-0.466955 0.030377 -0.057446
-0.466955 0.035651 0.027528
-0.466955 -0.052828 0.042794
-0.466955 0.022838 -0.085115
-0.466955 0.036889 -0.029159
-0.466955 -0.044739 0.040625
-0.466955 0.031813 -0.022057
-0.466955 -0.029133 -0.032626
-0.466955 0.032916 -0.006124
-0.466955 -0.024606 0.020080
-0.466955 -0.068234 0.012432
-0.466955 0.022045 0.074317
-0.466955 0.029941 0.064288
-0.466955 -0.037657 0.049777
-0.466955 0.082424 0.011377
-0.466955 -0.043737 -0.082250
-0.466955 -0.029673 0.066852
-0.466955 -0.034078 0.023883
-0.466955 -0.073267 0.027213
-0.466955 0.058816 0.073353
-0.466955 -0.068950 -0.055134
-0.466955 0.041094 -0.034190
-0.466955 0.089366 -0.037459
-0.466955 -0.028472 -0.016929
-0.466955 0.060383 -0.003246
-0.466955 -0.062198 -0.065697
-0.466955 0.050414 -0.057015
-0.466955 -0.054851 -0.049470
-0.466955 -0.017646 0.041177
-0.466955 0.031857 0.080578
-0.466955 0.000042 -0.059484
-0.466955 0.064048 -0.017136
-0.466955 -0.064528 -0.036815
-0.466955 0.049501 0.056621
-0.466955 0.040437 0.048416
-0.466955 -0.016659 0.043097
-0.466955 0.098428 -0.013155
-0.466955 -0.051739 -0.070424
-0.466955 -0.065679 0.003136
-0.466955 -0.089760 -0.009485
-0.466955 0.021013 0.035907
-0.466955 -0.031157 0.072260
-0.466955 0.065091 0.041915
-0.466955 0.008278 -0.041324
-0.466955 0.054563 0.082943
-0.466955 -0.043194 0.046609
-0.466955 0.057152 -0.006833
-0.466955 -0.006294 0.012235
-0.466955 0.078152 0.017215
-0.466955 -0.059873 0.009721
-0.466955 0.034061 -0.074134
-0.466955 0.036819 -0.037680
-0.466955 -0.014692 0.045625
-0.466955 0.092563 0.001602
-0.466955 -0.049626 -0.036540
-0.466955 -0.087063 0.014965
-0.466955 -0.071747 -0.054995
-0.466955 0.057265 0.038301
-0.466955 -0.038666 0.068998
-0.466955 -0.054745 -0.071900
-0.466955 -0.064669 0.059046
-0.466955 -0.034568 -0.064367
-0.466955 -0.046549 -0.047530
-0.466955 0.088440 0.014150
-0.466955 0.006016 0.006576
-0.466955 -0.009452 0.093213
-0.466955 -0.045390 -0.026327
-0.466955 -0.047601 0.046055
-0.466955 -0.065477 -0.042624
-0.466955 -0.025022 0.005780
-0.466955 0.012535 -0.074657
-0.466955 0.041199 0.014850
-0.466955 0.027379 0.045525
-0.466955 0.052625 -0.038808
-0.466955 0.068752 -0.031351
-0.466955 -0.063749 -0.039686
-0.466955 -0.094772 0.008654
-0.466955 0.005695 0.025066
-0.466955 -0.084115 0.046801
-0.466955 0.057184 -0.004965
-0.466955 0.010573 -0.021503
-0.466955 -0.040144 0.060435
-0.466955 -0.035987 -0.001798
-0.466955 0.021051 0.000391
-0.466955 0.013701 0.018994
-0.466955 0.058620 0.014083
-0.466955 0.034000 0.092456
-0.466955 -0.055855 -0.006204
-0.466955 0.079282 -0.055522
-0.466955 0.050051 0.012062
-0.466955 0.060824 -0.054201
-0.466955 -0.062360 0.039051
-0.466955 0.032544 0.037721
-0.466955 -0.033817 0.000450
-0.466955 -0.023526 0.021283
-0.466955 -0.038865 -0.044470
-0.466955 -0.000943 0.023425
-0.466955 -0.016302 -0.086384
-0.466955 0.029272 -0.063095
-0.466955 0.014522 -0.045974
-0.466955 -0.059810 0.049310
-0.466955 0.017112 0.037679
-0.466955 -0.006417 0.040570
-0.466955 -0.045573 -0.011702
-0.466955 -0.096183 0.012426
-0.466955 -0.045228 0.017100
-0.466955 0.025420 0.075421
-0.466955 0.043026 0.052833
-0.466955 0.019133 -0.027290
-0.466955 -0.043539 0.010597
-0.466955 -0.093267 0.035377
-0.466955 0.070334 -0.047443
-0.466955 0.075735 -0.008866
-0.466955 -0.039733 0.053991
-0.466955 0.086231 -0.011527
-0.466955 -0.092187 0.030569
-0.466955 0.009514 0.003280
-0.466955 -0.006067 -0.089692
-0.466955 0.079056 0.013350
-0.466955 -0.035724 -0.088717
-0.466955 0.042532 0.004193
-0.466955 0.064993 0.032626
-0.466955 -0.007481 -0.023654
-0.466955 0.021266 -0.084322
-0.466955 -0.044114 -0.026947
-0.466955 0.000434 0.019227
-0.466955 0.055901 -0.032024
-0.466955 -0.032687 0.040263
-0.466955 0.039993 -0.017816
-0.466955 -0.025971 0.064708
-0.466955 0.057226 -0.080836
-0.466955 -0.022285 -0.047665
-0.466955 0.038515 -0.071073
-0.466955 -0.061293 0.064232
-0.466955 0.033388 0.081175
-0.466955 0.075846 -0.061516
-0.466955 0.058194 0.051223
-0.466955 -0.078682 0.026042
-0.466955 0.041150 0.082234
-0.466955 -0.020577 0.070030
-0.466955 0.008424 -0.034033
-0.466955 0.025636 -0.053038
-0.466955 0.002789 0.098739
-0.466955 0.062662 0.017602
-0.466955 0.013476 -0.019422
-0.466955 -0.016248 0.011905
-0.466955 -0.073681 -0.011614
-0.466955 0.041799 -0.010309
-0.466955 0.070863 -0.038047
-0.466955 -0.064205 0.044001
-0.466955 0.020313 -0.073008
-0.466955 0.003048 -0.060962
-0.466955 0.049259 0.020337
-0.466955 0.057052 -0.077301
-0.466955 0.044357 0.071080
-0.466955 -0.017739 0.082242
-0.466955 0.055137 0.004250
-0.466955 -0.008175 -0.045012
-0.466955 0.019233 0.063794
-0.466955 -0.041727 -0.018155
-0.466955 -0.075242 -0.020780
-0.466955 0.023856 0.083466
-0.466955 0.022453 0.052455
-0.466955 -0.019159 0.026439
-0.466955 -0.073783 0.018830
-0.466955 -0.068352 0.043778
-0.466955 -0.051906 0.078797
-0.466955 0.032996 0.036167
-0.466955 0.008634 -0.001165
-0.466955 0.062553 0.007143
-0.466955 0.030737 -0.042085
-0.466955 0.077921 -0.058595
-0.466955 0.039429 0.038986
-0.466955 -0.032521 -0.062967
-0.466955 0.006832 -0.083725
-0.466955 0.030767 -0.002196
-0.466955 0.005376 -0.071846
-0.466955 0.083244 0.038104
-0.466955 -0.033496 0.002173
-0.466955 -0.001152 -0.090359
-0.466955 -0.023549 0.029832
-0.466955 0.007451 -0.016004
-0.466955 0.040903 -0.027048
-0.466955 -0.078054 -0.001530
-0.466955 0.002692 -0.072179
-0.466955 -0.056876 -0.070354
-0.466955 -0.067197 0.042789
-0.466955 0.039029 -0.048143
-0.466955 0.040661 -0.031105
-0.466955 -0.037014 0.020174
-0.466955 0.077655 -0.048018
-0.466955 -0.006057 0.016612
-0.466955 0.029654 0.061362
-0.466955 -0.010914 -0.027357
-0.466955 0.000496 -0.095143
-0.466955 -0.055368 0.018745
-0.466955 -0.045713 -0.087045
-0.466955 -0.078593 0.015884
-0.466955 -0.021902 0.028994
-0.466955 0.029506 -0.018911
-0.466955 0.014287 -0.014330
-0.466955 0.055411 0.030265
-0.466955 0.017321 0.079520
-0.466955 0.000110 -0.019179
-0.466955 -0.063831 -0.027933
-0.466955 0.045607 -0.023097
-0.466955 0.091629 -0.018599
-0.466955 -0.034162 -0.078386
-0.466955 0.003140 0.076599
-0.466955 -0.067498 0.005550
-0.466955 0.035648 -0.074571
-0.466955 -0.019849 -0.087931
-0.466955 -0.005114 -0.091423
-0.466955 -0.069088 0.023932
-0.466955 0.084625 0.033413
-0.466955 0.003996 -0.054413
-0.466955 -0.059203 -0.066694
-0.466955 0.025769 -0.022314
-0.466955 -0.050685 0.072753
-0.466955 0.009345 -0.073718
-0.466955 0.058416 0.015904
-0.466955 0.024251 0.036146
-0.466955 -0.082395 0.031304
-0.466955 0.013842 0.025490
-0.466955 -0.026839 0.031483
-0.466955 -0.015991 -0.093816
-0.466955 0.007323 0.071843
-0.466955 -0.006779 -0.009042
-0.466955 0.051065 0.064748
-0.466955 0.046962 -0.078973
-0.466955 -0.062622 0.046885
-0.466955 0.030675 -0.023457
-0.466955 -0.086833 0.030267
-0.466955 -0.037963 0.010618
-0.466955 -0.045852 -0.081297
-0.466955 0.034442 0.015484
-0.466955 -0.029336 -0.086247
-0.466955 -0.006311 0.033736
-0.466955 -0.060940 0.030430
-0.466955 0.003884 -0.084837
-0.466955 0.074243 0.009422
-0.466955 0.018163 -0.015251
-0.466955 0.054034 -0.083577
-0.466955 -0.049768 0.086533
-0.466955 0.025979 0.011928
-0.466955 0.037873 -0.034225
-0.466955 0.004422 0.090310
-0.466955 -0.046660 -0.082590
-0.466955 -0.007457 -0.053785
-0.466955 -0.030403 0.092968
-0.466955 -0.062999 -0.045485
-0.466955 -0.032005 0.065293
-0.466955 0.012979 0.080883
-0.466955 -0.063537 0.037438
-0.466955 0.044364 -0.061796
-0.466955 -0.027336 -0.024616
-0.466955 0.013963 -0.093357
-0.466955 -0.000756 0.077436
-0.466955 0.020774 -0.003247
-0.466955 0.010394 -0.097290
-0.466955 0.060352 0.012003
-0.466955 -0.035317 -0.061773
-0.466955 0.035699 0.031015
-0.466955 -0.003746 0.037038
-0.466955 -0.049959 -0.076456
-0.466955 0.065488 0.069113
-0.466955 0.065483 0.075344
-0.466955 -0.067900 -0.037195
-0.466955 0.006045 -0.064655
-0.466955 -0.086545 -0.027510
-0.466955 -0.045513 0.007782
-0.466955 -0.054761 -0.043871
-0.466955 -0.047437 -0.046294
-0.466955 0.064778 0.061186
-0.466955 0.025155 0.095113
-0.466955 -0.014103 0.037500
-0.466955 -0.058188 -0.015759
-0.466955 -0.005961 -0.054673
-0.466955 -0.021572 -0.096433
-0.466955 0.035740 0.037137
-0.466955 -0.051032 -0.002809
-0.466955 0.073719 0.042938
-0.466955 0.040946 0.041715
-0.466955 0.068659 0.007755
-0.466955 -0.038924 -0.073356
-0.466955 0.070486 -0.006263
-0.466955 0.027758 0.054463
-0.466955 -0.052311 0.006046
-0.466955 0.046468 -0.071934
-0.466955 -0.012044 0.087418
-0.466955 0.060952 -0.037219
-0.466955 -0.057659 -0.076515
-0.466955 0.002126 -0.051222
-0.466955 0.064687 0.016123
-0.466955 -0.012573 -0.084563
-0.466955 -0.013767 -0.048977
-0.466955 0.022791 0.035223
-0.466955 0.014318 0.026865
-0.466955 0.073192 0.030339
-0.466955 -0.081152 -0.032362
-0.466955 0.033545 0.028260
-0.466955 0.021577 0.056416
-0.466955 0.004466 0.083443
-0.466955 0.019152 0.024353
-0.466955 0.011033 -0.054042
-0.466955 0.042248 0.081183
-0.466955 0.022346 -0.002336
-0.466955 -0.006548 -0.005010
-0.466955 -0.014552 -0.001942
-0.466955 0.000551 -0.016617
-0.466955 0.045230 0.036726
-0.466955 -0.001260 -0.092126
-0.466955 0.006977 0.036318
-0.466955 -0.046394 -0.071051
-0.466955 -0.038307 0.018289
-0.466955 0.021410 0.038587
-0.466955 0.080801 0.011243
-0.466955 -0.075814 -0.046675
-0.466955 0.056291 -0.070719
-0.466955 -0.003669 -0.014536
-0.466955 -0.023761 0.024817
-0.466955 -0.056763 -0.079283
-0.466955 -0.061083 0.043454
-0.466955 -0.026252 -0.088955
-0.466955 -0.065316 0.036781
-0.466955 -0.013039 -0.031107
-0.466955 -0.063079 -0.016844
-0.466955 0.042706 0.017515
-0.466955 0.043707 -0.063485
-0.466955 0.025211 0.008215
-0.466955 -0.009348 0.077686
-0.466955 -0.003838 0.019389
-0.466955 0.031708 -0.049452
-0.466955 0.018681 -0.070781
-0.466955 -0.064414 0.056351
-0.466955 0.001725 0.004734
-0.466955 0.011725 -0.011060
-0.466955 0.006361 -0.062713
-0.466955 -0.020407 0.028977
-0.466955 0.070848 0.063300
-0.466955 0.009093 0.061257
-0.466955 -0.044005 -0.073272
-0.466955 -0.016563 -0.011896
-0.466955 0.002385 -0.004996
-0.466955 -0.001261 0.063434
-0.466955 -0.003604 -0.092082
-0.466955 0.010028 -0.062060
-0.466955 -0.029326 0.028278
-0.466955 0.059421 -0.036828
-0.466955 -0.010982 0.062464
-0.466955 -0.043853 -0.075054
-0.466955 0.020280 -0.051890
-0.466955 -0.011807 0.046227
-0.466955 -0.003523 0.030320
-0.466955 0.008896 -0.058422
-0.466955 -0.035594 -0.049294
-0.466955 -0.020343 0.059199
-0.466955 0.055192 -0.044518
-0.466955 -0.065836 0.058291
-0.466955 0.017786 -0.018752
-0.466955 -0.016398 -0.025970
-0.466955 0.006426 0.095394
-0.466955 0.096587 -0.024496
-0.466955 -0.019834 -0.021536
-0.466955 -0.080964 0.028833
-0.466955 -0.081728 -0.046353
-0.466955 0.073330 0.014260
-0.466955 -0.072328 -0.028520
-0.466955 0.015978 -0.057951
-0.466955 0.051251 -0.033946
-0.466955 -0.055904 -0.025427
-0.466955 -0.033270 -0.067369
-0.466955 -0.010634 -0.030162
-0.466955 -0.013743 -0.066533
-0.466955 0.005323 0.008484
-0.466955 0.020021 -0.050456
-0.466955 -0.062937 -0.064316
-0.466955 -0.007561 -0.070288
-0.466955 0.012580 0.042644
-0.466955 -0.054861 -0.082109
-0.466955 0.073367 0.012543
-0.466955 0.080002 -0.059295
-0.466955 -0.020634 -0.035742
-0.466955 0.070298 0.055339
-0.466955 0.065520 -0.019632
-0.466955 -0.065304 0.041007
-0.466955 -0.025060 -0.022272
-0.466955 0.080327 0.014058
-0.466955 0.031101 -0.034234
-0.466955 0.025351 -0.066381
-0.466955 -0.030247 -0.050670
-0.466955 -0.073902 0.017338
-0.466955 -0.014278 0.086658
-0.466955 0.061918 -0.014536
-0.466955 -0.077955 -0.024122
-0.466955 -0.035467 0.060303
-0.466955 -0.035603 -0.086986
-0.466955 -0.021412 0.091324
-0.466955 0.017199 0.048541
-0.466955 -0.029185 0.087800
-0.466955 0.065309 -0.065927
-0.466955 0.021012 0.016396
-0.466955 0.004536 -0.036876
-0.466955 0.033939 -0.030714
-0.466955 -0.054554 -0.050900
-0.466955 0.022839 -0.094417
-0.466955 -0.053971 -0.037735
-0.466955 0.081905 -0.019734
-0.466955 -0.041843 -0.005980
-0.466955 0.025757 -0.036082
-0.466955 -0.003097 -0.060509
-0.466955 0.085421 0.043099
-0.466955 -0.088080 -0.041530
-0.466955 0.018473 -0.093093
-0.466955 -0.087308 0.017530
-0.466955 -0.076463 0.008668
-0.466955 0.086953 0.045684
-0.466955 -0.036126 0.002238
-0.466955 -0.090918 0.002148
-0.466955 0.024726 0.061207
-0.466955 0.085287 -0.002641
-0.466955 -0.044984 -0.024757
-0.466955 0.058672 -0.076582
-0.466955 -0.011676 -0.000955
-0.466955 -0.051511 0.062244
-0.466955 -0.022889 0.053199
-0.466955 -0.004575 0.013756
-0.466955 0.030073 0.010295
-0.466955 0.033562 0.052271
-0.466955 0.039762 -0.001506
-0.466955 0.007420 -0.049193
-0.466955 -0.021873 0.013471
-0.466955 0.007822 -0.009657
-0.466955 -0.046840 0.023936
-0.466955 -0.004867 0.005839
-0.466955 -0.065994 -0.048814
-0.466955 0.021910 -0.016248
-0.466955 0.055396 0.081883
-0.466955 -0.033415 -0.091072
-0.466955 -0.026365 -0.013617
-0.466955 -0.044423 -0.033793
-0.466955 -0.062182 0.006568
-0.466955 -0.004802 0.076413
-0.466955 -0.059283 -0.022545
-0.466955 0.025860 -0.093989
-0.466955 -0.007135 -0.073201
-0.466955 -0.042059 -0.086009
-0.466955 -0.032962 -0.074596
-0.466955 0.025437 0.039073
-0.466955 -0.052455 0.077296
-0.466955 -0.014274 0.097249
-0.466955 -0.045244 0.015554
-0.466955 0.050916 -0.073980
-0.466955 0.046418 -0.020928
-0.466955 0.014644 0.085141
-0.466955 -0.045282 0.056494
-0.466955 -0.084197 -0.036407
-0.466955 -0.052413 -0.064628
-0.466955 0.043523 0.085852
-0.466955 -0.036848 0.032750
-0.466955 -0.002381 -0.036641
-0.466955 0.036696 0.014453
-0.466955 -0.029310 -0.057702
-0.466955 0.085094 -0.017080
-0.466955 -0.001865 -0.050202
-0.466955 -0.022402 0.027316
-0.466955 0.077835 -0.041525
-0.466955 -0.066123 0.035249
-0.466955 -0.065571 0.072278
-0.466955 -0.011776 -0.051765
-0.466955 -0.023903 -0.018167
-0.466955 0.070422 -0.045958
-0.466955 0.057962 0.017661
-0.466955 -0.036571 0.065826
-0.466955 0.062114 0.012560
-0.466955 0.049716 -0.055604
-0.466955 -0.052479 -0.013460
-0.466955 0.086741 -0.049008
-0.466955 0.055842 -0.061097
-0.466955 0.012877 -0.098712
-0.466955 -0.013380 0.079350
-0.466955 -0.009788 -0.035409
-0.466955 0.065716 0.062220
-0.466955 0.049685 0.060210
-0.466955 0.022200 -0.090199
-0.466955 0.011697 -0.065934
-0.466955 -0.021378 -0.054232
-0.466955 -0.080853 -0.057558
-0.466955 -0.076020 -0.034863
-0.466955 -0.089709 -0.041710
-0.466955 -0.080795 0.036419
-0.466955 0.008591 0.063104
-0.466955 0.028258 0.055898
-0.466955 -0.056560 0.055542
-0.466955 -0.069280 0.010819
-0.466955 0.021050 -0.048745
-0.466955 -0.057748 0.023374
-0.466955 0.000424 0.073559
-0.466955 0.009097 0.042605
-0.466955 0.062501 -0.045460
-0.466955 -0.029989 0.094397
-0.466955 -0.068936 -0.069450
-0.466955 0.035337 -0.024043
-0.466955 0.057841 0.021341
-0.466955 0.043206 0.039321
-0.466955 0.070916 -0.028903
-0.466955 0.050252 0.071453
-0.466955 -0.057524 0.070658
-0.466955 -0.004406 -0.069189
-0.466955 -0.059286 0.039693
-0.466955 0.021897 0.002616
-0.466955 -0.046925 -0.014175
-0.466955 -0.008884 -0.029109
-0.466955 0.008653 0.079016
-0.466955 0.001340 0.088674
-0.466955 0.052339 -0.002688
-0.466955 0.086908 0.008047
-0.466955 -0.055597 -0.037956
-0.466955 0.038129 0.053074
-0.466955 -0.019056 -0.093600
-0.466955 0.017209 0.098228
-0.466955 0.000798 0.034152
-0.466955 0.072342 0.001118
-0.466955 0.012430 -0.017830
-0.466955 -0.005378 0.090618
-0.466955 -0.000934 0.095809
-0.466955 -0.006466 0.019930
-0.466955 -0.026812 0.094976
-0.466955 -0.081385 -0.012549
-0.466955 0.067069 -0.036126
-0.466955 -0.022086 -0.075119
-0.466955 -0.070328 0.055363
-0.466955 -0.026001 0.014417
-0.466955 0.089455 0.016644
-0.466955 -0.009942 -0.086855
-0.466955 0.078789 -0.042783
-0.466955 -0.081286 0.041264
-0.466955 -0.062827 0.025087
-0.466955 -0.032392 -0.075940
-0.466955 -0.053261 -0.056578
-0.466955 -0.061624 -0.054510
-0.466955 -0.047449 -0.027300
-0.466955 0.032115 0.073595
-0.466955 0.072797 0.021968
-0.466955 -0.041302 -0.052602
-0.466955 -0.029976 -0.046053
-0.466955 0.019131 0.087262
-0.466955 -0.041241 0.014592
-0.466955 -0.021340 -0.016138
-0.466955 -0.032342 -0.006033
-0.466955 -0.002624 0.014027
-0.466955 0.049730 0.041369
-0.466955 0.087752 -0.010002
-0.466955 0.053684 -0.081293
-0.466955 -0.024207 0.053734
-0.466955 0.039583 0.072768
-0.466955 0.014953 -0.001959
-0.466955 0.018110 0.034563
-0.466955 -0.066056 -0.018746
-0.466955 0.095389 0.005478
-0.466955 -0.037220 -0.028256
-0.466955 -0.007474 -0.086618
-0.466955 -0.034423 0.074101
-0.466955 0.054198 0.041114
-0.466955 -0.062396 0.030567
-0.466955 -0.001871 -0.035224
-0.466955 -0.007397 0.090864
-0.466955 -0.043115 0.025404
-0.466955 0.093115 0.035505
-0.466955 -0.005850 -0.002536
-0.466955 -0.082344 -0.011436
-0.466955 0.006700 0.055531
-0.466955 0.032664 0.060916
-0.466955 -0.001616 -0.045500
-0.466955 0.019861 0.096296
-0.466955 0.015231 0.079640
-0.466955 0.012770 0.039346
-0.466955 0.001252 -0.099088
-0.466955 -0.059729 0.020736
-0.466955 0.096437 -0.022604
-0.466955 0.057329 -0.025330
-0.466955 0.026060 0.041362
-0.466955 -0.092197 0.037397
-0.466955 -0.001246 0.088480
-0.466955 -0.013038 0.006394
-0.466955 0.030807 0.093053
-0.466955 -0.001895 0.035670
-0.466955 -0.080574 -0.033717
-0.466955 0.020008 -0.034168
-0.466955 -0.033979 -0.080486
-0.466955 0.047741 -0.034042
-0.466955 -0.032151 0.009385
-0.466955 0.061468 -0.031229
-0.466955 0.010616 0.096069
-0.466955 0.076996 0.043462
-0.466955 -0.072125 0.046296
-0.466955 -0.079358 -0.002661
-0.466955 0.059946 -0.057496
-0.466955 0.015695 0.076620
-0.466955 -0.061411 0.073712
-0.466955 -0.015399 -0.054314
-0.466955 0.072615 -0.029014
-0.466955 -0.087340 -0.030974
-0.466955 -0.015387 -0.013004
-0.466955 -0.074452 0.052177
-0.466955 0.025163 0.065758
-0.466955 0.070137 -0.033112
-0.466955 0.020606 -0.091030
-0.466955 -0.026621 0.066980
-0.466955 0.087849 0.009188
-0.466955 -0.009611 0.000260
-0.466955 0.051776 -0.037204
-0.466955 -0.050518 0.004255
-0.466955 -0.004965 -0.082659
-0.466955 0.001568 -0.009521
-0.466955 0.075348 -0.058757
-0.466955 -0.067529 -0.059755
-0.466955 -0.040352 0.028971
-0.466955 0.029232 -0.089985
-0.466955 0.075911 0.023579
-0.466955 -0.030435 0.036763
-0.466955 0.002612 -0.032991
-0.466955 0.030576 0.053711
-0.466955 -0.014803 0.011222
-0.466955 -0.000069 0.037640
-0.466955 0.070127 0.064936
-0.466955 0.048568 -0.065212
-0.466955 -0.007275 -0.043592
-0.466955 0.060549 0.030833
-0.466955 0.014892 -0.089633
-0.466955 0.037260 0.018379
-0.466955 -0.066444 -0.011822
-0.466955 -0.019633 0.079239
-0.466955 0.050483 0.086318
-0.466955 0.006470 -0.018830
-0.466955 0.002952 0.082303
-0.466955 -0.036306 0.067381
-0.466955 -0.060306 -0.065285
-0.466955 -0.007870 0.030240
-0.466955 0.087945 -0.015071
-0.466955 -0.072212 0.050521
-0.466955 -0.029551 0.033776
-0.466955 0.056829 -0.028729
-0.466955 0.078185 0.061920
-0.466955 -0.042124 0.060222
-0.466955 -0.006261 0.027615
-0.466955 -0.023992 0.055687
-0.466955 -0.062271 -0.030814
-0.466955 0.006971 0.065978
-0.466955 -0.063333 -0.013535
-0.466955 0.082839 0.014970
-0.466955 -0.009274 -0.057461
-0.466955 -0.063297 0.014443
-0.466955 0.095537 -0.026257
-0.466955 -0.090090 0.013372
-0.466955 -0.032277 0.027803
-0.466955 0.057244 0.009336
-0.466955 -0.044601 -0.085007
-0.466955 0.026983 -0.057041
-0.466955 0.044841 -0.052745
-0.466955 0.001682 0.070163
-0.466955 0.018834 0.074941
-0.466955 0.038987 0.055560
-0.466955 -0.068456 0.033673
-0.466955 -0.034209 -0.039295
-0.466955 -0.025314 -0.039095
-0.466955 0.046003 -0.010931
-0.466955 0.081817 -0.009432
-0.466955 0.009544 -0.096067
-0.466955 0.012829 0.094219
-0.466955 0.046860 0.072021
-0.466955 0.050496 0.038473
-0.466955 0.068147 0.063548
-0.466955 -0.065035 -0.050299
-0.466955 -0.049924 0.006348
-0.466955 -0.024239 0.080311
-0.466955 -0.038019 -0.012435
-0.466955 0.028023 0.093129
-0.466955 0.003211 -0.009078
-0.466955 0.032744 -0.066697
-0.466955 0.023640 -0.062760
-0.466955 -0.086582 0.036133
-0.466955 -0.010118 -0.001137
-0.466955 -0.068779 -0.027620
-0.466955 0.049844 -0.004543
-0.466955 -0.036009 -0.063266
-0.466955 -0.005873 -0.031354
-0.466955 0.041032 -0.025584
-0.466955 0.047948 0.017580
-0.466955 0.000949 -0.002024
-0.466955 0.014231 -0.006342
-0.466955 0.089333 0.040194
-0.466955 -0.055833 0.010321
-0.466955 0.062743 0.056037
-0.466955 0.017378 -0.012877
-0.466955 0.041040 -0.008771
-0.466955 0.029674 -0.038994
-0.466955 0.056713 -0.045458
-0.466955 0.049758 -0.053781
-0.466955 -0.064060 0.010839
-0.466955 0.028928 -0.045135
-0.466955 -0.008084 0.069560
-0.466955 0.061264 0.016765
-0.466955 0.074419 -0.056240
-0.466955 -0.004377 -0.072667
-0.466955 -0.005787 0.097254
-0.466955 -0.041968 0.032931
-0.466955 -0.055871 0.014754
-0.466955 0.001578 -0.086582
-0.466955 -0.082703 -0.008320
-0.466955 0.092828 -0.015974
-0.466955 0.008090 -0.095363
-0.466955 -0.040167 -0.026759
-0.466955 0.049708 0.031824
-0.466955 -0.023746 -0.038472
-0.466955 -0.060009 0.011422
-0.466955 0.051156 0.073811
-0.466955 -0.024478 -0.094694
-0.466955 -0.018072 -0.064384
-0.466955 -0.070903 0.028184
-0.466955 0.033600 -0.003428
-0.466955 0.030652 0.012263
-0.466955 -0.033340 -0.017933
-0.466955 0.089280 0.041691
-0.466955 -0.089349 0.002435
-0.466955 -0.011398 -0.007618
-0.466955 -0.072646 0.055094
-0.466955 -0.075303 0.007382
-0.466955 -0.060308 -0.004645
-0.466955 -0.033769 0.006496
-0.466955 0.043507 -0.030514
-0.466955 0.059697 0.078621
-0.466955 0.035832 -0.069070
-0.466955 -0.017921 0.086929
-0.466955 0.023571 -0.021161
-0.466955 -0.041843 0.072458
-0.466955 -0.027313 0.049546
-0.466955 -0.060935 -0.019344
-0.466955 -0.069340 0.046833
-0.466955 0.051294 -0.019499
-0.466955 -0.022497 -0.023000
-0.466955 -0.037789 0.030635
-0.466955 0.027605 0.047269
-0.466955 -0.001100 -0.018235
-0.466955 0.038854 -0.066887
-0.466955 0.066892 0.033857
-0.466955 0.029949 -0.005953
-0.466955 0.028544 0.016976
-0.466955 -0.019342 0.021926
-0.466955 -0.028463 -0.002273
-0.466955 0.001211 0.048616
-0.466955 -0.015171 0.058261
-0.466955 -0.003859 -0.009244
-0.466955 0.038072 -0.038315
-0.466955 0.013860 -0.040098
-0.466955 0.009717 -0.009630
-0.466955 0.035276 -0.033591
-0.466955 -0.032313 -0.060860
-0.466955 -0.001947 0.047043
-0.466955 -0.031996 0.088722
-0.466955 0.055693 -0.007578
-0.466955 -0.074952 -0.016069
-0.466955 0.039050 -0.030168
-0.466955 0.021243 -0.062500
-0.466955 -0.015465 -0.066590
-0.466955 0.092878 0.019924
-0.466955 -0.003976 -0.034023
-0.466955 0.070252 0.028951
-0.466955 -0.060866 -0.012424
-0.466955 0.081692 -0.053054
-0.466955 0.000508 -0.011725
-0.466955 0.063566 -0.023258
-0.466955 -0.059319 0.017288
-0.466955 0.042780 0.019158
-0.466955 -0.079550 0.041757
-0.466955 -0.013335 0.088003
-0.466955 0.076315 -0.014089
-0.466955 -0.010039 0.017135
-0.466955 0.048655 0.026790
-0.466955 -0.066549 -0.030029
-0.466955 -0.065820 -0.035587
-0.466955 -0.074662 -0.056196
-0.466955 0.000845 -0.035803
-0.466955 -0.053326 -0.045598
-0.466955 -0.023319 -0.007652
-0.466955 -0.059976 0.051428
-0.466955 -0.026373 0.017989
-0.466955 0.054667 -0.046052
-0.466955 0.016702 0.096544
-0.466955 0.094670 -0.007523
-0.466955 -0.090259 0.022329
-0.466955 -0.012646 0.083939
-0.466955 0.058410 0.041130
-0.466955 0.038960 -0.049566
-0.466955 0.074260 0.025568
-0.466955 -0.044939 -0.005086
-0.466955 -0.052026 -0.036481
-0.466955 0.048658 0.068951
-0.466955 0.048355 -0.076867
-0.466955 -0.047530 0.065877
-0.466955 0.019631 -0.053124
-0.466955 -0.011236 -0.067983
-0.466955 -0.025238 0.043767
-0.466955 0.032708 -0.058579
-0.466955 0.014045 -0.003368
-0.466955 0.021811 0.079074
-0.466955 -0.013910 0.067148
-0.466955 0.077324 0.031144
-0.466955 0.038041 -0.036550
-0.466955 -0.049792 0.000393
-0.466955 -0.015029 -0.045296
-0.466955 0.015994 -0.074234
-0.466955 0.067687 -0.059549
-0.466955 -0.019712 0.046527
-0.466955 -0.040699 -0.081617
-0.466955 0.040277 -0.062829
-0.466955 0.012241 0.077672
-0.466955 -0.039822 -0.009422
-0.466955 -0.036774 -0.044880
-0.466955 -0.051441 0.048651
-0.466955 0.023461 0.077061
-0.466955 -0.066289 -0.032567
-0.466955 -0.034158 -0.062710
-0.466955 -0.058880 0.061432
-0.466955 0.069297 -0.068933
-0.466955 -0.044320 0.024726
-0.466955 -0.000951 0.028183
-0.466955 -0.065473 0.042558
-0.466955 0.042506 -0.017718
-0.466955 -0.071110 -0.019899
-0.466955 -0.008416 -0.000721
-0.466955 0.025172 -0.008815
-0.466955 0.045966 0.024898
-0.466955 0.028107 -0.078830
-0.466955 -0.067515 0.067767
-0.466955 -0.003796 -0.012929
-0.466955 -0.069117 0.035011
-0.466955 0.069863 -0.054420
-0.466955 0.041255 0.066363
-0.466955 -0.000598 0.009872
-0.466955 -0.096597 0.023061
-0.466955 0.062692 0.048129
-0.466955 -0.053859 0.032403
-0.466955 0.053379 -0.004592
-0.466955 -0.033352 0.077973
-0.466955 0.050918 0.046338
-0.466955 -0.005577 -0.006407
-0.466955 -0.022077 -0.001431
-0.466955 0.053429 -0.054912
-0.466955 -0.048649 -0.081814
-0.466955 0.049402 0.083215
-0.466955 0.002655 0.003210
-0.466955 0.050293 0.027908
-0.466955 -0.002860 -0.084615
-0.466955 -0.011048 0.040630
-0.466955 -0.076064 -0.026719
-0.466955 -0.075172 -0.025360
-0.466955 0.090453 -0.021214
-0.466955 -0.035225 0.011509
-0.466955 -0.027671 -0.062996
-0.466955 0.052826 0.065632
-0.466955 0.053070 0.034113
-0.466955 0.048171 0.075941
-0.466955 0.038348 0.027088
-0.466955 -0.019209 0.006351
-0.466955 0.034797 0.012490
-0.466955 -0.061790 -0.048330
