-0.466955 0.028616 0.016989
-0.466955 -0.051507 0.023179
-0.466955 -0.015369 0.090586
-0.466955 -0.026335 -0.016048
-0.466955 0.074390 -0.062585
-0.466955 0.004798 0.036763
-0.466955 -0.010733 0.006601
-0.466955 -0.036421 0.070965
-0.466955 -0.011479 -0.014359
-0.466955 -0.022862 -0.059038
-0.466955 0.059478 0.040013
-0.466955 -0.019764 -0.014820
-0.466955 -0.039132 0.041655
-0.466955 -0.015608 0.020598
-0.466955 0.071049 0.011768
-0.466955 0.077644 -0.026949
-0.466955 0.000762 -0.001250
-0.466955 -0.097564 0.008256
-0.466955 0.052220 -0.005935
-0.466955 -0.076757 0.024070
-0.466955 0.088908 0.044871
-0.466955 -0.011261 -0.063518
-0.466955 -0.010359 -0.073047
-0.466955 0.024789 -0.030982
-0.466955 -0.001930 -0.058477
-0.466955 -0.026814 0.080242
-0.466955 -0.007165 -0.054050
-0.466955 0.085353 0.022694
-0.466955 -0.037098 -0.061480
-0.466955 -0.020345 0.044880
-0.466955 -0.004666 -0.048436
-0.466955 0.051242 0.033151
-0.466955 -0.007668 0.042335
-0.466955 0.086908 0.007788
-0.466955 -0.042602 -0.072007
-0.466955 -0.013731 0.017988
-0.466955 0.071469 -0.018831
-0.466955 -0.047684 -0.033581
-0.466955 -0.047462 0.037768
-0.466955 0.017516 -0.073024
-0.466955 0.000229 0.097505
-0.466955 -0.008411 0.082151
-0.466955 -0.016343 -0.028996
-0.466955 0.024138 0.043640
-0.466955 -0.015110 0.096824
-0.466955 0.041493 0.074689
-0.466955 0.035527 -0.051453
-0.466955 0.092997 -0.029105
-0.466955 -0.082861 0.041901
-0.466955 -0.017747 -0.087205
-0.466955 -0.029451 -0.015990
-0.466955 -0.066112 -0.035862
-0.466955 0.011546 0.024641
-0.466955 0.036467 -0.000034
-0.466955 0.085267 -0.026808
-0.466955 -0.061289 -0.034580
-0.466955 0.035394 -0.040074
-0.466955 -0.088607 0.044181
-0.466955 0.063996 -0.010951
-0.466955 0.030581 -0.061903
-0.466955 -0.009263 -0.008335
-0.466955 -0.069021 -0.007349
-0.466955 -0.048015 0.071500
-0.466955 0.067338 0.043665
-0.466955 0.023113 0.056423
-0.466955 0.027645 0.015833
-0.466955 0.050473 -0.033114
-0.466955 -0.082286 0.004313
-0.466955 0.038082 -0.058677
-0.466955 -0.050288 -0.077032
-0.466955 0.080623 0.012628
-0.466955 -0.039751 -0.010596
-0.466955 -0.050534 -0.001325
-0.466955 -0.079337 -0.002887
-0.466955 0.079486 0.001590
-0.466955 -0.010156 0.038046
-0.466955 0.029425 -0.076069
-0.466955 0.034281 -0.042603
-0.466955 0.041751 0.064837
-0.466955 0.062132 -0.051266
-0.466955 -0.009143 0.058526
-0.466955 -0.037605 0.083115
-0.466955 0.002304 -0.057836
-0.466955 0.050146 -0.020905
-0.466955 0.033657 0.089079
-0.466955 0.078649 0.059679
-0.466955 -0.079773 -0.000699
-0.466955 -0.066997 0.064030
-0.466955 0.028173 0.047875
-0.466955 0.004243 0.060262
-0.466955 0.095110 -0.001665
-0.466955 0.068645 -0.000381
-0.466955 -0.033756 -0.082042
-0.466955 0.052605 0.008274
-0.466955 0.042437 0.007084
-0.466955 0.025748 -0.088976
-0.466955 -0.050457 -0.061471
-0.466955 -0.093686 0.012744
-0.466955 -0.005598 -0.081949
-0.466955 -0.024255 0.059126
-0.466955 0.061953 -0.062758
-0.466955 0.077526 -0.016488
-0.466955 -0.018745 -0.021379
-0.466955 -0.036788 -0.031742
-0.466955 0.023338 0.044942
-0.466955 -0.018756 0.091674
-0.466955 0.012447 -0.059485
-0.466955 0.012810 0.091238
-0.466955 -0.049095 -0.024474
-0.466955 0.080308 0.010122
-0.466955 -0.022160 0.020795
-0.466955 -0.053493 0.078865
-0.466955 0.022127 -0.043543
-0.466955 -0.014247 -0.014314
-0.466955 -0.004856 -0.074323
-0.466955 -0.074997 0.019779
-0.466955 -0.055007 0.039903
-0.466955 0.003374 -0.097742
-0.466955 -0.063904 0.048896
-0.466955 -0.006651 0.034826
-0.466955 0.033429 0.087123
-0.466955 0.030170 0.015688
-0.466955 -0.023105 0.084656
-0.466955 0.028266 0.028905
-0.466955 0.057287 0.032545
-0.466955 -0.028919 0.007175
-0.466955 -0.003638 0.082701
-0.466955 -0.014235 0.058545
-0.466955 -0.060334 -0.014394
-0.466955 -0.081282 0.021370
-0.466955 -0.031562 -0.056180
-0.466955 0.065963 0.034733
-0.466955 -0.048077 -0.083755
-0.466955 -0.036990 -0.066625
-0.466955 0.032979 -0.056428
-0.466955 -0.050731 -0.057452
-0.466955 -0.017071 0.086128
-0.466955 -0.017189 0.077930
-0.466955 -0.026934 -0.006047
-0.466955 0.076650 -0.011410
-0.466955 0.075073 -0.044315
-0.466955 -0.069355 -0.015930
-0.466955 0.022007 0.012886
-0.466955 0.059172 -0.047722
-0.466955 0.084612 0.026269
-0.466955 -0.081353 -0.035645
-0.466955 0.096257 -0.020006
-0.466955 0.006555 -0.078928
-0.466955 -0.091883 0.022720
-0.466955 -0.000313 0.019049
-0.466955 0.053182 0.045988
-0.466955 0.031685 0.081216
-0.466955 0.032554 -0.020348
-0.466955 0.014927 0.041946
-0.466955 0.023777 -0.071748
-0.466955 -0.039452 0.010613
-0.466955 0.071369 -0.045626
-0.466955 -0.014212 -0.062181
-0.466955 -0.073990 -0.003662
-0.466955 0.072020 -0.050586
-0.466955 -0.023661 -0.016655
-0.466955 0.053681 0.030017
-0.466955 0.075882 0.042766
-0.466955 0.032648 -0.060980
-0.466955 0.014428 0.089833
-0.466955 -0.041009 0.075836
-0.466955 -0.077928 -0.045316
-0.466955 -0.002092 0.007683
-0.466955 0.052073 0.073204
-0.466955 0.035681 -0.043339
-0.466955 -0.061939 -0.064075
-0.466955 0.021492 -0.055410
-0.466955 0.010954 0.087702
-0.466955 0.093588 0.004637
-0.466955 0.036168 0.083191
-0.466955 -0.056648 0.077692
-0.466955 0.003026 0.096134
-0.466955 0.041819 0.053378
-0.466955 0.070660 -0.015035
-0.466955 -0.064010 0.031504
-0.466955 0.007142 0.066760
-0.466955 0.052720 0.026020
-0.466955 0.061231 -0.076464
-0.466955 -0.025791 -0.000073
-0.466955 0.065296 -0.059326
-0.466955 0.038818 0.069001
-0.466955 -0.043566 0.011465
-0.466955 -0.069495 0.008162
-0.466955 -0.015857 0.078564
-0.466955 -0.000462 0.002228
-0.466955 0.045964 -0.068785
-0.466955 -0.000924 -0.029201
-0.466955 -0.012919 0.057504
-0.466955 -0.029542 0.057867
-0.466955 0.031771 0.028472
-0.466955 0.099784 -0.005250
-0.466955 0.008469 -0.020720
-0.466955 0.086211 -0.048380
-0.466955 0.018740 0.069424
-0.466955 -0.044865 -0.075665
-0.466955 0.052717 0.047612
-0.466955 -0.051468 0.037380
-0.466955 0.056016 -0.007921
-0.466955 0.045498 -0.057380
-0.466955 0.008223 0.035124
-0.466955 0.005469 -0.066438
-0.466955 0.025314 -0.065921
-0.466955 0.046358 -0.082094
-0.466955 0.045910 0.077083
-0.466955 0.071667 0.022911
-0.466955 -0.051772 0.058233
-0.466955 0.089142 -0.007620
-0.466955 -0.075792 0.044611
-0.466955 -0.059374 -0.064152
-0.466955 -0.080374 0.029001
-0.466955 -0.044974 -0.066902
-0.466955 -0.009139 0.036635
-0.466955 -0.000029 -0.070434
-0.466955 -0.006739 0.083980
-0.466955 -0.081891 -0.055845
-0.466955 -0.060978 0.020635
-0.466955 -0.025279 0.083496
-0.466955 0.035303 0.030566
-0.466955 0.010256 -0.031313
-0.466955 0.011421 -0.080656
-0.466955 -0.084072 -0.024759
-0.466955 -0.010212 0.012892
-0.466955 0.074649 -0.052583
-0.466955 -0.002027 -0.049859
-0.466955 0.030375 -0.006397
-0.466955 0.060978 -0.046457
-0.466955 0.059509 -0.038975
-0.466955 0.033911 -0.005236
-0.466955 -0.008611 -0.040749
-0.466955 -0.022340 0.052887
-0.466955 0.055956 -0.004703
-0.466955 -0.027172 0.038391
-0.466955 0.036367 -0.085557
-0.466955 -0.037484 0.023931
-0.466955 0.004101 0.046378
-0.466955 -0.017774 -0.049476
-0.466955 -0.011660 0.027486
-0.466955 0.067157 -0.027691
-0.466955 0.012286 -0.074761
-0.466955 0.030251 -0.064709
-0.466955 0.023181 0.073328
-0.466955 0.040036 -0.008702
-0.466955 -0.063027 0.071794
-0.466955 -0.011424 -0.033947
-0.466955 0.000670 0.004274
-0.466955 0.069529 0.004917
-0.466955 -0.002434 -0.025752
-0.466955 -0.055421 -0.017493
-0.466955 0.049487 -0.034399
-0.466955 0.024939 0.095041
-0.466955 0.020373 0.080951
-0.466955 0.040245 0.062504
-0.466955 -0.011968 -0.039413
-0.466955 -0.046760 0.076814
-0.466955 -0.069758 0.065562
-0.466955 0.075330 -0.033593
-0.466955 -0.074538 -0.013157
-0.466955 -0.010663 0.017537
-0.466955 -0.083925 -0.039236
-0.466955 -0.033997 -0.019991
-0.466955 0.007361 0.088672
-0.466955 0.076508 0.030608
-0.466955 0.006460 -0.090352
-0.466955 -0.068828 0.028401
-0.466955 0.017613 0.016223
-0.466955 0.000552 -0.060438
-0.466955 0.013134 -0.038514
-0.466955 -0.029249 -0.049484
-0.466955 -0.022340 0.065996
-0.466955 -0.067630 0.072886
-0.466955 0.037656 0.063378
-0.466955 -0.051706 0.079418
-0.466955 -0.002307 -0.053520
-0.466955 -0.007406 0.024109
-0.466955 0.035641 -0.022928
-0.466955 -0.054991 -0.007078
-0.466955 0.076010 -0.052743
-0.466955 0.058349 -0.071087
-0.466955 0.087773 0.018635
-0.466955 0.003937 -0.053288
-0.466955 -0.014995 0.042303
-0.466955 0.052095 0.045097
-0.466955 0.056152 -0.062952
-0.466955 0.048942 -0.006959
-0.466955 -0.081702 -0.046837
-0.466955 0.045884 -0.001623
-0.466955 0.013935 0.026410
-0.466955 0.060170 -0.028216
-0.466955 0.018973 0.082211
-0.466955 -0.055446 0.022452
-0.466955 0.007811 -0.085613
-0.466955 0.090898 -0.038342
-0.466955 -0.088556 -0.019184
-0.466955 0.012283 -0.056021
-0.466955 0.040787 -0.022712
-0.466955 -0.011091 0.072956
-0.466955 0.048575 -0.012964
-0.466955 -0.048577 0.048888
-0.466955 -0.084316 0.020843
-0.466955 0.046386 0.017143
-0.466955 0.074130 -0.024811
-0.466955 0.006564 0.012535
-0.466955 0.077135 -0.035083
-0.466955 -0.090911 -0.018947
-0.466955 0.017483 0.071223
-0.466955 -0.027496 -0.069012
-0.466955 0.094495 -0.031770
-0.466955 0.019205 0.091629
-0.466955 -0.047240 0.000634
-0.466955 0.067326 0.004476
-0.466955 -0.064617 -0.054913
-0.466955 -0.029326 0.087807
-0.466955 -0.001748 0.080854
-0.466955 -0.066192 -0.044946
-0.466955 -0.014596 0.065960
-0.466955 -0.059131 0.008645
-0.466955 -0.060495 0.064100
-0.466955 0.060093 -0.033582
-0.466955 0.056055 -0.031515
-0.466955 0.024921 -0.064503
-0.466955 -0.053747 -0.007735
-0.466955 -0.071137 0.003310
-0.466955 0.013880 0.037331
-0.466955 0.062702 0.063824
-0.466955 0.085304 -0.025103
-0.466955 -0.005622 -0.080164
-0.466955 -0.061799 -0.028813
-0.466955 -0.076888 0.022556
-0.466955 0.023841 -0.012025
-0.466955 -0.009279 0.054554
-0.466955 -0.027204 0.055767
-0.466955 -0.022843 -0.092325
-0.466955 0.011344 0.059225
-0.466955 -0.012798 0.095319
-0.466955 -0.042345 -0.069484
-0.466955 -0.037344 -0.064921
-0.466955 0.059071 0.026662
-0.466955 0.087989 -0.025211
-0.466955 -0.068650 -0.057459
-0.466955 0.035037 0.089391
-0.466955 0.018270 -0.015169
-0.466955 0.067488 0.062142
-0.466955 0.054920 0.003368
-0.466955 0.077997 -0.004545
-0.466955 0.068357 0.072123
-0.466955 -0.007560 -0.097150
-0.466955 0.029561 0.070106
-0.466955 -0.052673 0.036563
-0.466955 0.029041 -0.062139
-0.466955 -0.060093 -0.055669
-0.466955 -0.022495 0.026907
-0.466955 0.091979 -0.033262
-0.466955 -0.045530 -0.016340
-0.466955 0.063452 -0.003586
-0.466955 0.009193 0.016851
-0.466955 0.031780 0.086891
-0.466955 -0.000837 -0.041934
-0.466955 -0.084102 -0.012349
-0.466955 -0.048478 -0.058447
-0.466955 -0.074159 -0.065179
-0.466955 0.042187 -0.042874
-0.466955 0.007267 0.064853
-0.466955 -0.048072 0.047518
-0.466955 -0.058202 0.038758
-0.466955 -0.024026 0.004260
-0.466955 0.025291 0.036287
-0.466955 -0.005068 -0.027540
-0.466955 -0.072180 0.018119
-0.466955 0.003435 -0.065494
-0.466955 0.003406 0.007354
-0.466955 -0.059238 -0.011845
-0.466955 -0.051274 -0.082464
-0.466955 -0.049011 0.003211
-0.466955 0.035543 0.044594
-0.466955 0.035124 -0.090756
-0.466955 0.065553 0.050679
-0.466955 -0.012499 0.016857
-0.466955 0.022353 -0.086204
-0.466955 0.064603 0.008052
-0.466955 0.094268 0.014361
-0.466955 0.063090 -0.046501
-0.466955 0.055059 -0.050066
-0.466955 0.033461 -0.086661
-0.466955 -0.027254 0.062776
-0.466955 0.011801 0.037221
-0.466955 0.087447 -0.034596
-0.466955 -0.018973 0.031070
-0.466955 -0.054568 0.080508
-0.466955 0.001022 0.038609
-0.466955 -0.070146 -0.039852
-0.466955 -0.037773 -0.091966
-0.466955 0.054429 0.011737
-0.466955 -0.053113 0.002053
-0.466955 0.065476 0.053284
-0.466955 0.075195 -0.027313
-0.466955 0.049870 -0.076874
-0.466955 -0.064276 0.045641
-0.466955 -0.060058 0.037272
-0.466955 0.025862 0.083766
-0.466955 -0.053868 -0.050157
-0.466955 0.076088 0.048703
-0.466955 -0.030741 0.085276
-0.466955 0.055285 -0.073299
-0.466955 0.097984 0.018523
-0.466955 0.079738 -0.035497
-0.466955 0.053900 -0.037689
-0.466955 0.027436 -0.043399
-0.466955 0.079855 0.032705
-0.466955 0.082660 -0.010610
-0.466955 -0.037619 0.060207
-0.466955 0.066344 0.058974
-0.466955 0.048500 0.030684
-0.466955 0.047474 0.068739
-0.466955 -0.029097 0.062869
-0.466955 -0.001685 -0.083059
-0.466955 0.083297 -0.005840
-0.466955 -0.010952 0.008505
-0.466955 -0.064016 -0.003431
-0.466955 -0.031768 -0.086890
-0.466955 -0.039159 0.028615
-0.466955 -0.069424 0.000770
-0.466955 -0.068195 0.065541
-0.466955 0.071807 -0.022276
-0.466955 0.079838 -0.053341
-0.466955 0.067003 -0.050412
-0.466955 0.005338 -0.037460
-0.466955 -0.037036 0.012439
-0.466955 0.052084 -0.049174
-0.466955 -0.063008 0.036039
-0.466955 -0.056622 -0.007073
-0.466955 0.075739 0.054924
-0.466955 -0.055491 -0.038059
-0.466955 -0.000273 -0.072890
-0.466955 -0.041118 -0.023037
-0.466955 -0.059401 0.034999
-0.466955 0.070746 -0.027052
-0.466955 0.044504 -0.037354
-0.466955 -0.000464 0.069403
-0.466955 -0.069329 0.067020
-0.466955 -0.042288 0.087079
-0.466955 0.083340 -0.021451
-0.466955 -0.048885 -0.063836
-0.466955 -0.047711 -0.062265
-0.466955 -0.065210 -0.023258
-0.466955 0.008678 -0.015884
-0.466955 -0.030998 -0.025358
-0.466955 0.019788 0.024560
-0.466955 -0.032332 0.012867
-0.466955 0.013685 0.070676
-0.466955 0.015358 -0.013717
-0.466955 -0.000442 0.042683
-0.466955 -0.006965 -0.063657
-0.466955 -0.049729 -0.065654
-0.466955 -0.075359 0.009293
-0.466955 -0.020672 0.054236
-0.466955 -0.005987 0.065349
-0.466955 -0.047138 -0.039672
-0.466955 0.017664 -0.084380
-0.466955 -0.035788 -0.041317
-0.466955 -0.020819 0.064824
-0.466955 0.014239 0.095179
-0.466955 -0.005027 -0.057741
-0.466955 0.000784 0.062261
-0.466955 -0.012058 -0.040824
-0.466955 0.043118 0.057756
-0.466955 0.007753 0.038544
-0.466955 -0.046001 -0.047480
-0.466955 -0.032888 -0.064419
-0.466955 0.078128 0.022964
-0.466955 -0.035435 0.072150
-0.466955 -0.009704 -0.098414
-0.466955 0.026384 -0.083875
-0.466955 -0.078419 -0.039970
-0.466955 -0.013561 0.026304
-0.466955 0.059085 0.054068
-0.466955 -0.083197 0.005561
-0.466955 -0.014407 0.072805
-0.466955 -0.043741 0.046020
-0.466955 0.002718 -0.090039
-0.466955 -0.075588 -0.003418
-0.466955 0.000755 -0.057164
-0.466955 0.063038 0.036284
-0.466955 0.030841 0.011601
-0.466955 -0.088881 -0.024009
-0.466955 0.003113 0.017836
-0.466955 -0.041648 -0.034054
-0.466955 0.040569 -0.064478
-0.466955 -0.015738 -0.036876
-0.466955 0.072887 0.027753
-0.466955 0.032289 -0.074333
-0.466955 -0.047307 -0.018706
-0.466955 -0.083036 0.054871
-0.466955 0.024853 0.009699
-0.466955 0.045791 0.068435
-0.466955 -0.032195 0.066536
-0.466955 0.033753 0.036902
-0.466955 -0.017840 0.016501
-0.466955 -0.074584 -0.058697
-0.466955 -0.052813 -0.042065
-0.466955 -0.066446 -0.074213
-0.466955 -0.030494 0.023356
-0.466955 0.064502 0.035939
-0.466955 -0.000625 0.066605
-0.466955 0.071717 0.061530
-0.466955 0.037348 -0.064431
-0.466955 0.002569 -0.052871
-0.466955 -0.021182 -0.084791
-0.466955 -0.025137 0.017436
-0.466955 0.088047 0.043550
-0.466955 -0.006118 0.053622
-0.466955 0.025522 0.008415
-0.466955 0.073273 -0.021540
-0.466955 -0.047679 0.069792
-0.466955 -0.040232 0.040289
-0.466955 -0.028945 0.028504
-0.466955 0.032448 0.063273
-0.466955 0.005229 0.026755
-0.466955 0.073017 0.041605
-0.466955 -0.087819 -0.038516
-0.466955 0.061243 0.040354
-0.466955 -0.010094 -0.041388
-0.466955 0.021393 0.056534
-0.466955 -0.061911 -0.061896
-0.466955 0.014093 -0.060840
-0.466955 -0.012279 0.009669
-0.466955 -0.085273 0.040594
-0.466955 -0.033623 0.080864
-0.466955 0.081119 0.055710
-0.466955 -0.044973 0.042678
-0.466955 -0.021727 -0.050138
-0.466955 0.096832 0.000713
-0.466955 0.057592 0.043277
-0.466955 0.041211 -0.015234
-0.466955 0.015144 -0.042665
-0.466955 -0.061558 -0.045134
-0.466955 -0.026078 -0.057465
-0.466955 0.013039 0.016800
-0.466955 -0.018530 0.037216
-0.466955 0.056937 -0.079437
-0.466955 -0.090044 0.018815
-0.466955 -0.001619 -0.081510
-0.466955 0.050924 -0.046258
-0.466955 0.025213 0.072834
-0.466955 0.020295 0.042537
-0.466955 -0.048825 0.066094
-0.466955 -0.022290 -0.073725
-0.466955 -0.091296 0.017866
-0.466955 -0.006845 -0.055956
-0.466955 0.052734 0.043816
-0.466955 -0.068334 0.052286
-0.466955 0.079788 0.051964
-0.466955 -0.068987 -0.028046
-0.466955 -0.094115 -0.011566
-0.466955 -0.076840 0.012073
-0.466955 0.019993 -0.028557
-0.466955 0.002653 -0.017611
-0.466955 -0.008370 0.017821
-0.466955 0.006956 0.090837
-0.466955 0.066730 -0.019262
-0.466955 -0.081316 0.041259
-0.466955 0.056208 0.068843
-0.466955 -0.044319 0.071869
-0.466955 0.070324 -0.056859
-0.466955 0.052978 0.033164
-0.466955 0.013700 0.020755
-0.466955 -0.081686 0.010280
-0.466955 0.093584 -0.010189
-0.466955 0.037828 0.008154
-0.466955 -0.032545 0.044134
-0.466955 -0.067215 -0.058070
-0.466955 -0.016625 0.017584
-0.466955 0.001698 -0.071076
-0.466955 -0.008964 0.085949
-0.466955 -0.077859 0.021389
-0.466955 0.032380 -0.022168
-0.466955 0.012479 0.002199
-0.466955 -0.056098 -0.016313
-0.466955 -0.009687 0.014985
-0.466955 -0.033506 0.042311
-0.466955 0.027763 -0.079687
-0.466955 0.025567 0.059499
-0.466955 -0.039039 -0.076974
-0.466955 -0.025022 -0.076186
-0.466955 -0.001230 -0.044750
-0.466955 0.053999 0.032218
-0.466955 -0.005851 -0.072242
-0.466955 0.040928 0.076721
-0.466955 -0.024316 -0.084824
-0.466955 0.054171 0.044569
-0.466955 0.049846 -0.031538
-0.466955 -0.007382 0.075699
-0.466955 -0.059939 -0.022406
-0.466955 0.023304 -0.064245
-0.466955 -0.079061 -0.046730
-0.466955 0.096428 -0.012792
-0.466955 0.034983 0.091911
-0.466955 -0.071658 0.042025
-0.466955 0.010148 -0.064922
-0.466955 0.037117 -0.049629
-0.466955 0.020884 0.036668
-0.466955 0.022764 0.064130
-0.466955 -0.057866 0.023629
-0.466955 0.066016 -0.053695
-0.466955 0.003362 0.056245
-0.466955 0.080673 -0.040310
-0.466955 -0.013968 -0.007023
-0.466955 -0.015881 0.057255
-0.466955 0.050054 -0.004510
-0.466955 0.083704 -0.024360
-0.466955 -0.064370 0.044104
-0.466955 -0.015224 -0.098194
-0.466955 -0.014841 -0.024971
-0.466955 0.042393 -0.007850
-0.466955 0.043336 0.050670
-0.466955 -0.000465 -0.002293
-0.466955 0.005824 0.050384
-0.466955 0.021397 -0.035801
-0.466955 0.063600 0.019180
-0.466955 -0.039142 0.044437
-0.466955 -0.039906 0.062403
-0.466955 -0.007085 -0.041790
-0.466955 -0.039161 0.065039
-0.466955 0.071866 0.018777
-0.466955 0.006070 -0.076690
-0.466955 0.010857 -0.000552
-0.466955 0.018662 0.065168
-0.466955 -0.062012 -0.005827
-0.466955 -0.049630 0.063106
-0.466955 0.003800 -0.058674
-0.466955 0.056399 0.025172
-0.466955 0.072650 0.066075
-0.466955 0.026312 0.094233
-0.466955 -0.016411 0.066254
-0.466955 0.041836 0.085784
-0.466955 -0.037623 0.056947
-0.466955 -0.061761 -0.041823
-0.466955 0.029117 0.025066
-0.466955 0.018984 0.062968
-0.466955 0.037497 0.053283
-0.466955 0.034830 0.043424
-0.466955 -0.059794 0.029185
-0.466955 0.007856 -0.037969
-0.466955 0.043733 0.023729
-0.466955 0.078314 -0.013534
-0.466955 -0.079338 0.003900
-0.466955 0.053360 0.051528
-0.466955 -0.045906 -0.003362
-0.466955 0.040521 -0.042766
-0.466955 0.054126 -0.041023
-0.466955 -0.000362 0.092493
-0.466955 -0.027347 -0.012459
-0.466955 -0.033570 -0.051551
-0.466955 0.019365 -0.092336
-0.466955 -0.029328 -0.029886
-0.466955 -0.051738 -0.039414
-0.466955 0.041829 0.040273
-0.466955 0.057897 0.076248
-0.466955 -0.036908 0.073448
-0.466955 -0.078206 -0.001323
-0.466955 0.030540 -0.066106
-0.466955 0.041278 0.060350
-0.466955 -0.049919 0.044347
-0.466955 0.084425 -0.045838
-0.466955 -0.065850 -0.038950
-0.466955 -0.013147 -0.011389
-0.466955 -0.056359 0.023719
-0.466955 0.051472 -0.035040
-0.466955 0.040200 -0.089549
-0.466955 0.078006 0.026038
-0.466955 0.001898 0.055357
-0.466955 -0.028394 0.092177
-0.466955 0.081060 0.025482
-0.466955 0.039940 -0.072773
-0.466955 0.016678 -0.038663
-0.466955 0.010917 -0.075219
-0.466955 -0.025468 0.094007
-0.466955 -0.015308 0.030873
-0.466955 0.057242 0.023661
-0.466955 0.080633 0.008807
-0.466955 0.084819 0.039171
-0.466955 0.000140 -0.075559
-0.466955 -0.093642 -0.009329
-0.466955 -0.088475 -0.030194
-0.466955 0.078340 -0.034020
-0.466955 -0.061052 0.051300
-0.466955 0.083054 0.038776
-0.466955 -0.061837 -0.012529
-0.466955 0.074407 -0.066126
-0.466955 0.029575 -0.095105
-0.466955 -0.005703 -0.017168
-0.466955 0.033130 -0.079758
-0.466955 -0.091525 0.002610
-0.466955 0.060747 -0.024937
-0.466955 -0.031692 0.035966
-0.466955 -0.020067 0.038521
-0.466955 0.078735 -0.010284
-0.466955 0.050551 0.015966
-0.466955 0.082200 0.016202
-0.466955 -0.021518 0.085607
-0.466955 0.050672 -0.010974
-0.466955 0.066294 0.036305
-0.466955 0.027705 0.064493
-0.466955 -0.035119 -0.010199
-0.466955 -0.014637 -0.023351
-0.466955 0.000127 -0.094712
-0.466955 -0.082772 0.007102
-0.466955 0.014959 0.006809
-0.466955 -0.002529 0.010606
-0.466955 -0.015286 0.017093
-0.466955 0.016083 0.066688
-0.466955 -0.046037 0.067056
-0.466955 0.062063 0.016197
-0.466955 0.063371 0.062476
-0.466955 -0.042388 -0.079525
-0.466955 -0.023816 -0.018172
-0.466955 0.043550 0.015775
-0.466955 0.064583 -0.046457
-0.466955 -0.027212 -0.080586
-0.466955 -0.026942 0.083189
-0.466955 -0.047455 -0.022094
-0.466955 0.097609 0.004200
-0.466955 -0.022764 0.034615
-0.466955 0.054154 -0.071499
-0.466955 -0.062989 -0.017898
-0.466955 -0.076904 -0.029738
-0.466955 0.072495 0.057104
-0.466955 0.095127 -0.007332
-0.466955 0.044870 -0.049059
-0.466955 0.024133 0.038201
-0.466955 0.018451 0.023987
-0.466955 0.011862 0.035545
-0.466955 -0.070617 0.018231
-0.466955 0.041874 0.000775
-0.466955 -0.096357 0.007478
-0.466955 0.023029 0.002156
-0.466955 0.003803 -0.008391
-0.466955 -0.050339 0.074042
-0.466955 0.064511 -0.006182
-0.466955 0.041368 -0.083007
-0.466955 0.043811 0.027553
-0.466955 -0.054989 0.038071
-0.466955 -0.081047 0.005553
-0.466955 0.072746 0.024104
-0.466955 -0.095150 0.023795
-0.466955 -0.086839 -0.027582
-0.466955 -0.080581 -0.054831
-0.466955 -0.009642 0.094853
-0.466955 0.080309 0.028315
-0.466955 0.027488 -0.095826
-0.466955 0.071027 -0.055401
-0.466955 -0.029276 0.040718
-0.466955 -0.026194 -0.041278
-0.466955 0.076136 -0.000178
-0.466955 0.035608 0.078455
-0.466955 0.065144 0.009739
-0.466955 -0.046739 0.008656
-0.466955 0.004983 0.095711
-0.466955 0.047359 -0.068846
-0.466955 0.013133 0.036138
-0.466955 -0.020969 0.027071
-0.466955 0.082125 -0.041486
-0.466955 -0.027620 0.061060
-0.466955 -0.072707 0.022734
-0.466955 -0.033755 0.010306
-0.466955 0.081925 0.044117
-0.466955 0.008066 -0.054032
-0.466955 0.078747 -0.012123
-0.466955 -0.033082 0.074854
-0.466955 0.028085 -0.065090
-0.466955 0.028502 0.083209
-0.466955 0.042225 0.014753
-0.466955 0.031942 -0.005680
-0.466955 -0.032436 -0.058035
-0.466955 0.037416 0.033497
-0.466955 -0.038638 0.012112
-0.466955 0.064031 0.039652
-0.466955 -0.010963 0.099020
-0.466955 -0.051688 -0.026956
-0.466955 -0.010567 0.089628
-0.466955 0.016068 0.062235
-0.466955 -0.004156 0.089743
-0.466955 -0.007061 0.090035
-0.466955 -0.081585 -0.012566
-0.466955 0.015216 0.083060
-0.466955 0.038622 0.032773
-0.466955 0.025911 -0.032268
-0.466955 0.065509 -0.026644
-0.466955 0.051533 -0.058107
-0.466955 -0.032307 0.027118
-0.466955 -0.004026 -0.036533
-0.466955 -0.019177 0.073600
-0.466955 -0.009678 -0.033517
-0.466955 -0.039487 -0.033103
-0.466955 -0.041703 -0.020541
-0.466955 0.057868 -0.006559
-0.466955 -0.010802 -0.051384
-0.466955 -0.034883 -0.014571
-0.466955 -0.022560 0.058762
-0.466955 -0.048512 0.081445
-0.466955 0.052601 0.067925
-0.466955 0.011962 -0.002007
-0.466955 0.055196 -0.065378
-0.466955 0.031408 0.078173
-0.466955 0.070302 0.066053
-0.466955 0.074729 0.045955
-0.466955 0.070966 -0.069078
-0.466955 0.056554 0.056849
-0.466955 0.044706 -0.055449
-0.466955 -0.006307 0.025430
-0.466955 0.036413 0.064357
-0.466955 0.000769 -0.091294
-0.466955 -0.041903 0.073519
-0.466955 0.009899 0.080103
-0.466955 0.062237 0.021377
-0.466955 -0.032014 -0.037378
-0.466955 0.064940 0.064487
-0.466955 -0.002932 0.026225
-0.466955 0.046781 -0.077826
-0.466955 -0.093137 0.021197
-0.466955 -0.055131 -0.042290
-0.466955 0.010597 0.074346
-0.466955 -0.060425 -0.044076
-0.466955 -0.014943 0.093712
-0.466955 0.053668 -0.054024
-0.466955 0.075061 0.021437
-0.466955 -0.080945 -0.026748
-0.466955 -0.005734 -0.085462
-0.466955 -0.096538 0.002118
-0.466955 -0.032317 -0.067431
-0.466955 -0.020021 -0.091204
-0.466955 -0.078153 -0.012095
-0.466955 -0.064732 -0.031202
-0.466955 -0.038783 -0.014228
-0.466955 -0.005676 0.077675
-0.466955 -0.075113 0.065745
-0.466955 -0.063011 -0.045822
-0.466955 -0.049903 -0.058682
-0.466955 0.062947 -0.070169
-0.466955 -0.074154 -0.047586
-0.466955 0.003228 0.051731
-0.466955 -0.027481 0.036850
-0.466955 0.024670 0.090642
-0.466955 0.030919 -0.067727
-0.466955 0.035327 0.070102
-0.466955 0.038316 -0.050349
-0.466955 0.008098 0.055576
-0.466955 0.080153 -0.056253
-0.466955 -0.014024 -0.037438
-0.466955 -0.073315 0.052556
-0.466955 -0.070946 0.060308
-0.466955 0.063554 0.041252
-0.466955 0.033115 0.042892
-0.466955 0.036420 -0.045655
-0.466955 0.080205 -0.000520
-0.466955 -0.074797 0.007618
-0.466955 -0.009235 -0.038804
-0.466955 -0.016684 -0.077658
-0.466955 0.038422 0.002082
-0.466955 0.010026 -0.098859
-0.466955 0.011145 0.044505
-0.466955 0.029015 -0.030694
-0.466955 0.000232 0.028566
-0.466955 0.020812 0.082929
-0.466955 -0.060818 -0.062923
-0.466955 0.095417 -0.024364
-0.466955 -0.086271 0.001591
-0.466955 0.045170 -0.005701
-0.466955 0.001351 0.052193
-0.466955 0.067371 -0.042421
-0.466955 0.012785 0.031284
-0.466955 0.005817 0.028623
-0.466955 -0.001685 0.097918
-0.466955 0.038786 0.092006
-0.466955 -0.019935 0.056993
-0.466955 0.042388 0.073393
-0.466955 0.030499 0.001816
-0.466955 -0.006743 -0.008666
-0.466955 0.056430 -0.081308
-0.466955 -0.006722 0.046397
-0.466955 0.004217 -0.077295
-0.466955 0.013338 0.086866
-0.466955 0.085037 0.028005
-0.466955 -0.033065 0.039275
-0.466955 0.069690 -0.047516
-0.466955 -0.014223 -0.038992
-0.466955 0.054544 -0.003086
-0.466955 -0.082768 -0.000048
-0.466955 -0.017714 0.062029
-0.466955 0.090461 0.037819
-0.466955 -0.001912 -0.046633
-0.466955 0.073953 0.048017
-0.466955 0.017490 0.068286
-0.466955 0.014194 -0.012600
-0.466955 0.079377 0.019293
-0.466955 0.034647 0.061896
-0.466955 0.007878 -0.074078
-0.466955 0.090562 0.041727
-0.466955 -0.075960 -0.054187
-0.466955 -0.031690 0.022234
-0.466955 -0.040970 -0.049403
-0.466955 -0.051189 0.000156
-0.466955 -0.069736 -0.052248
-0.466955 -0.024468 -0.003003
-0.466955 -0.058100 0.049955
-0.466955 0.015058 -0.049947
-0.466955 -0.013851 0.047480
-0.466955 0.012386 -0.094679
-0.466955 -0.010129 0.001069
-0.466955 0.052893 -0.004534
-0.466955 0.076068 -0.054337
-0.466955 -0.051061 0.008427
-0.466955 0.002915 -0.088664
-0.466955 -0.056915 0.061432
-0.466955 0.025628 -0.018119
-0.466955 0.020702 0.027892
-0.466955 -0.024020 0.032809
-0.466955 0.018105 0.054186
-0.466955 0.003638 0.084329
-0.466955 0.030487 -0.052638
-0.466955 0.026230 0.041113
-0.466955 0.047450 0.055537
-0.466955 0.008080 -0.093340
-0.466955 -0.026046 0.011478
-0.466955 0.031907 -0.064654
-0.466955 -0.020226 -0.064916
-0.466955 -0.042546 -0.084825
-0.466955 0.025842 -0.012449
-0.466955 -0.058407 0.011331
-0.466955 0.054288 -0.069924
-0.466955 0.000181 0.000177
-0.466955 -0.085582 -0.024381
-0.466955 0.071967 -0.028400
-0.466955 -0.044022 -0.068042
-0.466955 0.032005 -0.036531
-0.466955 -0.054495 0.049854
-0.466955 -0.057998 0.081238
-0.466955 0.004819 0.018367
-0.466955 -0.058869 -0.056251
-0.466955 0.050062 0.071306
-0.466955 0.024958 -0.021436
-0.466955 -0.084625 -0.052609
-0.466955 -0.093474 0.026957
-0.466955 -0.039645 0.014620
-0.466955 -0.078322 0.042715
-0.466955 -0.023266 -0.049093
-0.466955 -0.083016 0.037496
-0.466955 -0.011113 0.088196
-0.466955 0.081315 0.031207
-0.466955 0.069955 -0.028674
-0.466955 -0.022848 0.046798
-0.466955 -0.010208 0.026806
-0.466955 -0.019380 -0.081992
-0.466955 0.049975 -0.050934
-0.466955 -0.041214 0.016682
-0.466955 0.061595 0.064701
-0.466955 0.004449 0.053215
-0.466955 -0.047608 0.040812
-0.466955 -0.062265 0.004646
-0.466955 -0.083361 -0.002696
-0.466955 -0.004406 -0.051751
-0.466955 -0.053225 0.000469
-0.466955 0.022664 -0.060031
-0.466955 -0.013616 0.031392
-0.466955 -0.054376 0.024741
-0.466955 0.015467 -0.017150
-0.466955 -0.005178 -0.004687
-0.466955 -0.007376 -0.011471
-0.466955 0.010067 0.084828
-0.466955 0.041827 0.012705
-0.466955 -0.032364 0.031748
-0.466955 -0.013766 0.019546
-0.466955 0.019228 -0.093809
-0.466955 -0.015461 0.046433
-0.466955 0.036772 0.028524
-0.466955 0.019633 -0.020506
-0.466955 -0.047638 0.011753
-0.466955 0.042263 0.011197
-0.466955 -0.028482 0.094855
-0.466955 0.048465 -0.078216
-0.466955 -0.004224 -0.005962
-0.466955 -0.018536 -0.083401
-0.466955 0.092035 0.037560
-0.466955 -0.035807 -0.020477
-0.466955 0.017992 -0.089715
-0.466955 -0.019719 -0.049407
-0.466955 -0.046750 -0.001179
-0.466955 0.064403 -0.047909
-0.466955 0.060759 -0.001104
-0.466955 -0.053735 -0.043592
-0.466955 -0.009554 0.087435
-0.466955 0.008317 0.025381
-0.466955 0.050477 -0.007768
-0.466955 0.046902 -0.022005
-0.466955 0.068892 0.042997
-0.466955 0.029620 -0.056276
-0.466955 -0.026345 -0.094143
-0.466955 -0.004610 0.076129
-0.466955 -0.031572 -0.000271
-0.466955 -0.073081 0.065730
-0.466955 0.071384 -0.067702
-0.466955 -0.046092 -0.054515
-0.466955 -0.084102 -0.042535
-0.466955 -0.014228 -0.041049
-0.466955 0.035827 0.086183
-0.466955 0.026689 0.042683
-0.466955 0.063463 0.037683
-0.466955 0.049930 0.037339
-0.466955 -0.013161 0.062142
-0.466955 -0.005499 -0.064569
-0.466955 -0.018363 0.050669
-0.466955 0.027027 0.030384
-0.466955 -0.098358 0.010674
-0.466955 -0.019907 -0.078892
-0.466955 0.069758 -0.018599
-0.466955 0.025786 -0.002403
-0.466955 -0.012949 0.006693
-0.466955 -0.028798 0.045631
-0.466955 0.076991 0.037613
-0.466955 0.035304 0.053765
-0.466955 0.002426 0.022457
-0.466955 0.067917 0.031733
-0.466955 0.048423 -0.049526
-0.466955 -0.050352 -0.003959
-0.466955 0.005970 -0.001951
-0.466955 0.024496 -0.076104
-0.466955 0.021197 -0.016176
-0.466955 0.024550 -0.016332
-0.466955 -0.021536 0.080058
-0.466955 -0.030676 0.040381
-0.466955 -0.005980 -0.092687
-0.466955 0.006415 -0.085728
-0.466955 0.086662 -0.024526
-0.466955 -0.013718 -0.044115
-0.466955 -0.001225 0.027267
-0.466955 0.082967 -0.039642
-0.466955 0.055237 -0.083017
-0.466955 0.000424 -0.051913
-0.466955 -0.079501 0.047906
-0.466955 0.011238 -0.096161
-0.466955 0.019743 -0.087866
-0.466955 -0.040575 0.044349
-0.466955 -0.067087 0.043078
-0.466955 -0.016040 0.001176
-0.466955 0.031142 -0.038149
-0.466955 -0.069752 -0.059084
-0.466955 0.070902 0.014237
-0.466955 0.029149 -0.010683
-0.466955 0.024642 -0.053925
-0.466955 0.083878 0.024613
-0.466955 -0.035779 0.033034
-0.466955 0.034150 0.073175
-0.466955 -0.013049 0.076225
-0.466955 0.055348 0.069977
-0.466955 -0.036453 0.002868
-0.466955 -0.053457 0.021502
-0.466955 0.012916 -0.048225
-0.466955 0.023607 0.080202
-0.466955 0.004099 0.074674
-0.466955 -0.050324 0.066240
-0.466955 -0.021883 0.045599
-0.466955 0.000210 0.051014
-0.466955 -0.041653 0.021972
-0.466955 -0.003992 -0.092165
-0.466955 0.041313 0.088816
-0.466955 -0.087071 -0.015614
-0.466955 0.070648 0.042108
-0.466955 0.032755 0.073868
-0.466955 -0.004855 0.015552
-0.466955 -0.041163 -0.037721
-0.466955 0.046950 -0.013471
-0.466955 -0.066675 -0.067862
-0.466955 0.031370 -0.080798
-0.466955 -0.048938 0.001737
-0.466955 0.012583 0.062282
-0.466955 -0.000227 -0.008752
-0.466955 -0.019241 -0.043249
-0.466955 0.071772 -0.000077
-0.466955 0.058013 -0.069153
-0.466955 0.058187 0.005625
-0.466955 0.062888 0.002266
-0.466955 -0.063200 0.002555
-0.466955 0.097035 -0.021465
-0.466955 -0.060390 -0.039824
-0.466955 0.004848 -0.030914
-0.466955 0.020304 0.074693
-0.466955 0.028018 -0.034188
-0.466955 -0.029301 -0.047949
-0.466955 -0.028815 -0.002515
-0.466955 -0.004328 -0.099054
-0.466955 0.024216 -0.051934
-0.466955 0.006686 -0.017678
-0.466955 -0.038288 -0.080334
-0.466955 0.059393 -0.007494
-0.466955 -0.075318 0.023369
-0.466955 -0.020517 -0.070487
-0.466955 -0.027106 -0.025914
-0.466955 0.031881 -0.087396
-0.466955 -0.030764 0.066904
-0.466955 -0.055772 0.043169
-0.466955 -0.026687 -0.008733
-0.466955 0.009279 0.077166
-0.466955 0.080503 -0.026450
-0.466955 0.011600 0.029475
-0.466955 0.003177 -0.029965
-0.466955 0.041331 0.078366
-0.466955 -0.066104 -0.058968
-0.466955 0.064536 0.051804
-0.466955 -0.096447 0.005925
-0.466955 -0.087173 -0.003621
-0.466955 0.017548 0.011346
-0.466955 -0.073335 -0.011652
-0.466955 -0.077244 0.036684
-0.466955 -0.018407 0.015140
-0.466955 -0.045359 -0.030762
-0.466955 0.020001 -0.030436
-0.466955 0.058177 0.013706
-0.466955 -0.008855 -0.030613
-0.466955 0.095781 -0.018606
-0.466955 -0.089087 -0.031881
-0.466955 0.013436 -0.001788
-0.466955 0.046348 -0.063558
-0.466955 0.037987 0.013083
-0.466955 0.080049 -0.033826
-0.466955 -0.021349 0.089488
-0.466955 0.011338 -0.071004
-0.466955 -0.032910 0.082717
-0.466955 -0.059012 -0.019042
-0.466955 0.075377 0.018138
-0.466955 -0.080374 -0.047854
-0.466955 0.056710 0.070600
-0.466955 -0.045652 -0.068351
-0.466955 -0.051569 -0.047739
-0.466955 0.041704 0.056294
-0.466955 -0.065122 -0.034137
-0.466955 0.012542 0.078437
-0.466955 0.046653 -0.049263
-0.466955 0.052262 0.065872
-0.466955 -0.001858 -0.078705
-0.466955 -0.048362 -0.027771
-0.466955 -0.019890 -0.044874
-0.466955 -0.049442 0.072704
-0.466955 -0.048831 0.027785
-0.466955 0.078372 0.056099
-0.466955 -0.053061 -0.015030
-0.466955 -0.067538 0.002815
-0.466955 0.007451 0.085505
-0.466955 -0.039571 -0.022707
-0.466955 0.058088 0.002192
-0.466955 0.040488 0.042975
-0.466955 0.019746 0.018959
-0.466955 -0.047290 -0.008365
-0.466955 0.020011 0.030752
-0.466955 -0.043324 0.088006
-0.466955 -0.030170 0.026760
-0.466955 0.003237 -0.087178
-0.466955 -0.088034 0.017139
-0.466955 -0.066287 0.070675
-0.466955 0.042518 0.018706
-0.466955 0.032215 -0.076055
-0.466955 -0.080349 0.000800
-0.466955 -0.035421 -0.027914
-0.466955 0.023099 0.005061
-0.466955 -0.021655 -0.008098
-0.466955 -0.097200 0.017933
-0.466955 -0.085400 0.027915
-0.466955 -0.056975 0.008011
-0.466955 -0.087618 0.026160
-0.466955 0.031984 -0.072809
-0.466955 -0.068976 0.037559
-0.466955 0.049227 0.011833
-0.466955 -0.001068 -0.084765
-0.466955 0.051672 -0.050959
-0.466955 -0.028339 -0.006190
-0.466955 -0.031983 0.037773
-0.466955 -0.043665 0.049114
-0.466955 -0.082322 -0.026291
-0.466955 -0.034298 0.060874
-0.466955 0.090911 0.018834
-0.466955 -0.045172 -0.023791
-0.466955 -0.054109 -0.041408
-0.466955 0.023047 0.060390
-0.466955 -0.047775 -0.042025
-0.466955 -0.013114 0.048998
-0.466955 0.040160 0.068335
-0.466955 0.061224 -0.065854
-0.466955 -0.003425 -0.039911
-0.466955 0.017983 0.080503
-0.466955 -0.040283 -0.014490
-0.466955 0.013703 -0.045242
-0.466955 -0.033653 0.055271
-0.466955 -0.036567 -0.049013
-0.466955 -0.035177 -0.052810
-0.466955 -0.021464 -0.012094
-0.466955 -0.062377 0.030094
-0.466955 0.037895 -0.019250
-0.466955 -0.056506 0.034672
-0.466955 0.000236 0.040074
-0.466955 -0.064812 0.067830
-0.466955 -0.094640 -0.017425
-0.466955 -0.066651 -0.005840
-0.466955 -0.009408 0.033213
-0.466955 -0.004182 0.029970
-0.466955 -0.017593 0.039873
-0.466955 -0.088228 -0.022482
-0.466955 0.000014 0.083429
-0.466955 -0.029009 0.005159
-0.466955 0.085367 0.003006
-0.466955 -0.079504 0.034824
-0.466955 -0.078737 0.050570
-0.466955 0.043104 -0.025022
-0.466955 -0.056775 0.046587
-0.466955 -0.051821 0.011435
-0.466955 0.047663 -0.001570
-0.466955 0.005925 0.007338
-0.466955 -0.053361 0.072684
-0.466955 -0.084794 0.036965
-0.466955 0.078851 0.042235
-0.466955 0.068430 0.025480
-0.466955 0.021062 0.091334
-0.466955 0.062300 -0.013870
-0.466955 0.078531 -0.032564
-0.466955 0.039709 -0.056771
-0.466955 -0.001461 -0.093796
-0.466955 -0.073672 -0.057065
-0.466955 0.024549 -0.046036
-0.466955 0.065650 0.003924
-0.466955 0.070769 0.054696
-0.466955 0.084307 0.021786
-0.466955 -0.003910 -0.058938
-0.466955 -0.092184 -0.022959
-0.466955 -0.047193 -0.035249
-0.466955 -0.008501 0.070394
-0.466955 0.056535 -0.051181
-0.466955 -0.011690 0.046018
-0.466955 -0.027265 -0.067637
-0.466955 0.052523 0.069537
-0.466955 -0.003462 -0.027389
-0.466955 0.020537 0.039359
-0.466955 0.025764 -0.055988
-0.466955 0.090681 -0.009391
-0.466955 -0.074476 0.036734
-0.466955 0.045248 -0.030499
-0.466955 -0.055416 0.014942
-0.466955 -0.037684 -0.018057
-0.466955 -0.034882 0.066761
-0.466955 -0.008148 0.009049
-0.466955 0.068292 -0.062561
-0.466955 0.040375 -0.021213
-0.466955 0.050211 0.038952
-0.466955 -0.019076 -0.009893
-0.466955 -0.064237 0.012285
-0.466955 -0.056766 -0.009938
-0.466955 0.073501 0.020763
-0.466955 0.035881 -0.077309
-0.466955 -0.044136 0.001103
-0.466955 0.036564 0.027087
-0.466955 -0.064480 0.017730
-0.466955 0.070386 0.060594
-0.466955 -0.083876 -0.021250
-0.466955 0.073174 -0.041669
-0.466955 -0.039899 0.016176
-0.466955 -0.041140 -0.047883
-0.466955 0.052279 0.016904
-0.466955 0.071415 -0.047331
-0.466955 0.086548 0.017248
-0.466955 0.045362 0.004487
-0.466955 0.024126 0.065091
-0.466955 0.002964 -0.022726
-0.466955 -0.061822 -0.078115
-0.466955 -0.012414 0.063668
-0.466955 0.092026 -0.009760
-0.466955 -0.022959 0.060111
-0.466955 -0.008411 -0.094848
-0.466955 -0.071051 0.019753
-0.466955 0.034716 -0.018038
-0.466955 -0.058226 -0.029635
-0.466955 0.014207 0.092921
-0.466955 -0.059979 -0.017556
-0.466955 -0.002546 -0.041462
-0.466955 -0.017273 0.080431
-0.466955 -0.051388 0.070269
-0.466955 -0.072744 -0.013203
-0.466955 -0.085898 -0.042190
-0.466955 -0.057243 -0.051767
-0.466955 -0.008191 -0.021159
-0.466955 -0.084375 0.029125
-0.466955 0.005545 -0.074229
-0.466955 -0.023211 0.007765
-0.466955 0.067809 0.026810
-0.466955 0.011058 0.095832
-0.466955 0.038860 -0.088690
-0.466955 -0.025903 0.018746
-0.466955 0.043683 0.074644
-0.466955 -0.030592 -0.019328
-0.466955 0.071396 0.025948
-0.466955 0.048529 0.071247
-0.466955 -0.017881 0.028694
-0.466955 -0.075075 -0.015433
-0.466955 0.084931 0.006982
-0.466955 0.072565 0.008966
-0.466955 -0.028152 -0.091839
-0.466955 0.050847 0.048431
-0.466955 0.011668 0.010292
-0.466955 -0.011764 -0.016001
-0.466955 -0.024646 -0.029734
-0.466955 -0.063041 0.017944
-0.466955 0.038324 0.003450
-0.466955 0.080251 -0.011776
-0.466955 0.052866 -0.072287
-0.466955 -0.078615 -0.032114
-0.466955 0.068772 -0.071741
-0.466955 -0.011037 0.011525
-0.466955 0.066611 -0.021178
-0.466955 0.083739 0.042015
-0.466955 0.086592 0.039072
-0.466955 0.026361 0.074551
-0.466955 0.004953 -0.091404
-0.466955 0.016390 -0.056345
-0.466955 -0.034644 -0.084880
-0.466955 0.004729 -0.070695
-0.466955 -0.049777 0.014026
-0.466955 -0.024566 -0.091623
-0.466955 -0.012594 0.000938
-0.466955 -0.025506 0.029496
-0.466955 -0.067560 0.047748
-0.466955 -0.029461 0.032260
-0.466955 -0.073814 0.023938
-0.466955 0.080472 -0.022449
-0.466955 0.054458 -0.077734
-0.466955 -0.080107 0.051297
-0.466955 0.001002 -0.042003
-0.466955 -0.019315 0.096891
-0.466955 0.094399 -0.015547
-0.466955 -0.073565 0.048328
-0.466955 -0.019612 -0.035992
-0.466955 -0.027843 0.050940
-0.466955 -0.002957 -0.048421
-0.466955 0.057893 -0.051966
-0.466955 -0.036262 0.030182
-0.466955 0.034741 -0.029871
-0.466955 -0.023952 0.097045
-0.466955 0.056455 -0.003303
-0.466955 0.021655 0.014713
-0.466955 -0.033066 0.079397
-0.466955 -0.013262 -0.094424
-0.466955 0.063625 0.052806
-0.466955 -0.031052 0.019729
-0.466955 -0.040607 -0.069377
-0.466955 -0.032905 0.077970
-0.466955 -0.017423 0.030148
-0.466955 -0.018798 0.034188
-0.466955 -0.052690 -0.084465
-0.466955 0.085005 0.032356
-0.466955 0.051142 0.012125
-0.466955 0.093562 -0.014331
-0.466955 -0.016988 0.075177
-0.466955 -0.052953 -0.019945
-0.466955 -0.067130 -0.065296
-0.466955 0.084912 0.008798
-0.466955 -0.023321 -0.076958
-0.466955 0.002935 -0.037387
-0.466955 -0.013642 -0.005572
-0.466955 -0.065746 0.060938
-0.466955 -0.093977 -0.015408
-0.466955 -0.062129 0.054576
-0.466955 0.021669 0.005061
-0.466955 -0.000080 -0.040535
-0.466955 0.033593 -0.000565
-0.466955 0.056665 0.016997
-0.466955 0.063608 0.069885
-0.466955 0.013655 0.013391
-0.466955 0.093416 -0.018182
-0.466955 0.025667 0.018453
-0.466955 -0.059061 0.051167
-0.466955 0.013457 -0.090757
-0.466955 0.054612 -0.044623
-0.466955 -0.058494 -0.054829
-0.466955 0.009927 -0.014099
-0.466955 -0.015224 0.022457
-0.466955 -0.050511 0.012806
-0.466955 0.088471 0.020050
-0.466955 -0.013945 -0.052024
-0.466955 -0.019373 0.054758
-0.466955 -0.064237 0.034000
-0.466955 -0.068321 -0.018723
-0.466955 0.018910 0.008310
-0.466955 -0.058068 0.032414
-0.466955 -0.012886 0.055364
-0.466955 0.033331 0.065260
-0.466955 0.040586 0.039204
-0.466955 -0.003442 0.001442
-0.466955 0.003477 0.082429
-0.466955 -0.029304 -0.053591
-0.466955 -0.006286 0.037904
-0.466955 -0.018069 0.006800
-0.466955 0.010488 0.053086
-0.466955 -0.033557 -0.031069
-0.466955 -0.074859 -0.011762
-0.466955 -0.091107 0.040023
-0.466955 0.050777 0.083811
-0.466955 -0.046590 -0.041284
-0.466955 -0.022474 0.005006
-0.466955 0.025595 -0.060092
-0.466955 -0.038090 -0.011562
-0.466955 -0.011537 -0.089891
-0.466955 -0.005563 0.089774
-0.466955 -0.058241 -0.072388
-0.466955 0.061644 -0.028949
-0.466955 0.082254 -0.026667
-0.466955 0.006303 -0.053604
-0.466955 0.009479 0.046704
-0.466955 -0.024325 0.018634
-0.466955 0.004025 0.044869
-0.466955 -0.049374 -0.019546
-0.466955 0.061510 0.030984
-0.466955 -0.001589 -0.071705
-0.466955 0.058558 0.062436
-0.466955 0.041980 -0.004446
-0.466955 -0.026360 0.033993
-0.466955 -0.017677 0.004874
-0.466955 0.040790 -0.071111
-0.466955 -0.021800 -0.034498
-0.466955 0.000833 -0.034764
-0.466955 0.050548 -0.067303
-0.466955 -0.055877 0.079147
-0.466955 -0.007580 0.015077
-0.466955 0.081213 0.021316
-0.466955 0.047797 0.000061
-0.466955 -0.016482 -0.076188
-0.466955 -0.090645 -0.011386
-0.466955 -0.060269 0.009565
-0.466955 -0.083497 0.027880
-0.466955 0.089032 -0.035570
-0.466955 0.084394 0.018429
-0.466955 -0.065008 0.005404
-0.466955 0.025807 0.069719
-0.466955 -0.059757 0.071659
-0.466955 0.055486 0.008414
-0.466955 -0.044791 -0.048699
-0.466955 0.051350 0.056232
-0.466955 -0.011684 0.049955
-0.466955 -0.001615 0.076271
-0.466955 -0.091093 -0.028393
-0.466955 0.005731 0.061065
-0.466955 0.043479 -0.056376
-0.466955 0.004994 0.048243
-0.466955 0.007870 -0.087143
-0.466955 -0.006736 -0.073444
-0.466955 -0.013186 0.037341
-0.466955 0.026724 -0.021164
-0.466955 -0.048184 0.084214
-0.466955 0.083131 -0.050018
-0.466955 0.068045 0.013549
-0.466955 -0.054684 -0.018876
-0.466955 0.039451 0.077845
-0.466955 0.043203 -0.075455
-0.466955 -0.065580 0.037941
-0.466955 0.073757 -0.012588
-0.466955 -0.055540 0.045312
-0.466955 -0.074266 0.057573
-0.466955 -0.042861 0.072538
-0.466955 0.032042 -0.068658
-0.466955 -0.036692 -0.070471
-0.466955 -0.027039 -0.001530
-0.466955 -0.066306 -0.061938
-0.466955 -0.066390 -0.072372
-0.466955 -0.042200 -0.089913
-0.466955 0.059809 -0.054139
-0.466955 -0.044468 0.017719
-0.466955 0.053316 -0.045303
-0.466955 0.042626 -0.057707
-0.466955 0.006109 -0.082013
-0.466955 0.036334 0.038013
-0.466955 -0.082445 0.015388
-0.466955 0.061127 -0.072562
-0.466955 0.042892 -0.021720
-0.466955 -0.090119 0.012039
-0.466955 0.080827 -0.041975
-0.466955 -0.022324 0.030895
-0.466955 -0.033763 0.071157
-0.466955 -0.011253 0.039324
-0.466955 -0.048970 0.056464
-0.466955 0.048001 -0.065868
-0.466955 -0.052455 0.024277
-0.466955 -0.030893 0.088923
-0.466955 -0.039758 -0.027315
-0.466955 0.012450 -0.036813
-0.466955 -0.043817 -0.018235
-0.466955 -0.057085 -0.021987
-0.466955 0.074435 0.055992
-0.466955 0.054509 0.037652
-0.466955 -0.056202 -0.071914
-0.466955 -0.061263 0.067170
-0.466955 -0.055455 -0.059190
-0.466955 -0.045835 -0.035824
-0.466955 -0.065973 -0.054572
-0.466955 -0.058554 0.003499
-0.466955 0.010849 0.001107
-0.466955 0.029223 0.040421
-0.466955 -0.017822 -0.023838
-0.466955 -0.025056 -0.031865
-0.466955 -0.039714 -0.060797
-0.466955 -0.060985 0.016275
-0.466955 -0.008889 -0.003856
-0.466955 0.026362 -0.085520
-0.466955 -0.018345 -0.000206
-0.466955 -0.067761 0.039867
-0.466955 -0.016367 -0.060457
-0.466955 -0.009826 -0.087758
-0.466955 0.089846 0.022181
-0.466955 -0.019224 0.081912
-0.466955 0.004812 -0.059904
-0.466955 0.084688 0.010356
-0.466955 -0.049355 0.070686
-0.466955 0.075002 0.009720
-0.466955 -0.017432 -0.003693
-0.466955 0.066520 0.031903
-0.466955 -0.048568 0.043806
-0.466955 0.033977 -0.068156
-0.466955 0.067347 0.024490
-0.466955 -0.067401 -0.019916
-0.466955 -0.040063 0.012014
-0.466955 0.015560 -0.026466
-0.466955 0.019651 0.037320
-0.466955 0.026820 -0.082297
-0.466955 0.015485 -0.061840
-0.466955 -0.046250 -0.042635
-0.466955 0.010932 -0.082182
-0.466955 0.037812 0.026339
-0.466955 0.021223 -0.081066
-0.466955 -0.038712 -0.046460
-0.466955 0.039799 -0.050496
-0.466955 -0.007167 -0.052199
-0.466955 0.004965 0.064289
-0.466955 -0.039423 0.067687
-0.466955 -0.007657 0.040961
-0.466955 -0.025603 -0.039117
-0.466955 0.045335 0.051111
-0.466955 -0.020509 0.005921
-0.466955 0.019084 -0.039593
-0.466955 -0.037931 0.068017
-0.466955 0.057054 0.001285
-0.466955 -0.060246 -0.035697
-0.466955 -0.046575 -0.026009
-0.466955 0.096794 0.021900
-0.466955 -0.041904 0.012713
-0.466955 0.045879 -0.011545
-0.466955 0.072876 0.063698
-0.466955 -0.046209 -0.057497
-0.466955 -0.075938 0.058541
-0.466955 -0.009199 0.042874
-0.466955 0.038350 0.088206
-0.466955 -0.072331 0.029038
-0.466955 0.002562 -0.009072
-0.466955 0.018513 -0.057954
-0.466955 -0.025092 -0.028102
-0.466955 -0.044782 0.066418
-0.466955 -0.025055 -0.044696
-0.466955 0.034490 -0.049337
-0.466955 0.036426 0.041146
-0.466955 -0.063821 0.058555
-0.466955 0.046397 -0.024996
-0.466955 0.035115 0.006449
-0.466955 0.042901 0.066805
-0.466955 0.048426 -0.086233
-0.466955 -0.005475 -0.078736
-0.466955 0.027041 0.059703
-0.466955 0.039790 0.021261
-0.466955 0.033871 -0.052611
-0.466955 0.059484 -0.016307
-0.466955 0.013269 0.009889
-0.466955 0.038573 0.014548
-0.466955 0.031985 0.001806
-0.466955 0.027500 -0.015137
-0.466955 0.088699 -0.033645
-0.466955 -0.007536 -0.000805
-0.466955 0.028610 0.054894
-0.466955 -0.026212 0.049191
-0.466955 0.023576 0.095145
-0.466955 -0.019172 -0.080263
-0.466955 0.068729 0.009160
-0.466955 -0.025457 0.006666
-0.466955 0.085753 -0.030051
-0.466955 -0.078518 -0.056251
-0.466955 0.056423 -0.067826
-0.466955 0.044489 0.003161
-0.466955 0.075242 -0.025616
-0.466955 0.007206 -0.056010
-0.466955 0.013909 -0.084813
-0.466955 -0.033422 0.003888
-0.466955 0.021040 -0.027694
-0.466955 0.013034 0.064227
-0.466955 -0.064269 -0.024585
-0.466955 -0.021910 -0.060887
-0.466955 0.032902 -0.027298
-0.466955 0.076689 -0.033090
-0.466955 0.061985 0.074645
-0.466955 0.011455 0.057448
-0.466955 -0.008679 -0.056326
-0.466955 -0.052694 -0.048827
-0.466955 -0.068791 0.009987
-0.466955 0.060819 0.075740
-0.466955 -0.089876 0.038421
-0.466955 0.053962 0.035349
-0.466955 0.036566 0.015515
-0.466955 0.025996 -0.037969
-0.466955 -0.005572 -0.098407
-0.466955 -0.056773 0.053939
-0.466955 0.018109 -0.082411
-0.466955 -0.004887 0.051246
-0.466955 -0.049152 0.005653
-0.466955 0.000124 0.046213
-0.466955 -0.031583 -0.080999
-0.466955 -0.017067 -0.079817
-0.466955 -0.014709 0.029057
-0.466955 -0.017820 -0.006960
-0.466955 -0.017314 -0.030405
-0.466955 -0.029079 -0.086206
-0.466955 -0.051230 0.071882
-0.466955 0.047150 0.063095
-0.466955 0.065742 -0.013673
-0.466955 -0.036324 -0.051973
-0.466955 0.018818 0.040280
-0.466955 -0.008625 -0.028348
-0.466955 0.002754 -0.014261
-0.466955 0.040906 -0.045372
-0.466955 0.052982 -0.055547
-0.466955 -0.090956 -0.015839
-0.466955 -0.036734 -0.036160
-0.466955 0.052520 0.062098
-0.466955 0.002860 0.073678
-0.466955 0.075447 -0.059197
-0.466955 0.001987 -0.050402
-0.466955 0.010569 -0.061244
-0.466955 -0.091308 0.004449
-0.466955 0.000199 0.072580
-0.466955 0.061131 -0.023024
-0.466955 0.030551 -0.069355
-0.466955 0.041466 0.002703
-0.466955 -0.036397 0.049661
-0.466955 -0.028880 0.008718
-0.466955 0.027434 -0.000661
-0.466955 -0.060249 -0.053851
-0.466955 -0.011250 0.041843
-0.466955 -0.035001 -0.001796
-0.466955 0.006896 0.002817
-0.466955 -0.058383 0.067538
-0.466955 0.064983 -0.022838
-0.466955 -0.063261 -0.065367
-0.466955 -0.014288 -0.082357
-0.466955 -0.046020 -0.022569
