0.465339 0.052144 0.070613
0.465339 0.016839 0.093012
0.465339 -0.007125 -0.037939
0.465339 -0.088459 0.010191
0.465339 -0.064663 -0.064875
0.465339 -0.014425 0.074267
0.465339 0.008871 -0.076573
0.465339 -0.028786 -0.079863
0.465339 0.007258 -0.060456
0.465339 0.017028 -0.031867
0.465339 0.011692 -0.006570
0.465339 -0.060057 -0.029050
0.465339 0.019642 -0.096229
0.465339 -0.000467 0.077118
0.465339 0.035392 -0.008240
0.465339 0.086493 0.034795
0.465339 -0.024568 -0.061595
0.465339 -0.054979 0.025184
0.465339 -0.088529 -0.043829
0.465339 0.071543 -0.000986
0.465339 -0.003070 0.031932
0.465339 0.006490 -0.010350
0.465339 -0.074227 0.050830
0.465339 0.012875 -0.077921
0.465339 -0.041701 -0.039200
0.465339 0.074516 -0.006401
0.465339 -0.054223 -0.010593
0.465339 0.046968 -0.070642
0.465339 0.005160 0.081722
0.465339 -0.036256 -0.032968
0.465339 -0.023536 -0.034577
0.465339 -0.046136 -0.083641
0.465339 0.083549 0.030531
0.465339 -0.045765 0.018186
0.465339 -0.052146 -0.068248
0.465339 0.039628 -0.010633
0.465339 -0.044477 -0.016170
0.465339 -0.091359 -0.019073
0.465339 0.043949 0.002293
0.465339 -0.012853 0.009791
0.465339 0.002059 -0.064832
0.465339 0.047143 0.071430
0.465339 0.034817 -0.015076
0.465339 0.070894 0.035262
0.465339 -0.040057 0.027020
0.465339 -0.043416 0.017280
0.465339 -0.047737 -0.012891
0.465339 0.013680 0.031072
0.465339 -0.022842 0.036262
0.465339 -0.037590 -0.079098
0.465339 -0.024671 -0.024359
0.465339 0.054251 0.057287
0.465339 0.060422 0.009138
0.465339 0.036485 0.003429
0.465339 -0.048961 0.028871
0.465339 -0.030378 0.021972
0.465339 -0.058240 0.032493
0.465339 -0.038207 0.019138
0.465339 -0.020293 0.018326
0.465339 0.007851 -0.008955
0.465339 0.018245 0.038418
0.465339 0.080222 0.016495
0.465339 -0.055124 -0.002806
0.465339 -0.007055 -0.028268
0.465339 0.064920 -0.009590
0.465339 -0.064543 -0.002054
0.465339 0.087638 0.026815
0.465339 -0.023636 -0.069396
0.465339 0.076206 0.027403
0.465339 0.045810 0.008638
0.465339 0.084283 0.017060
0.465339 0.078742 -0.035879
0.465339 -0.026336 0.078775
0.465339 0.028967 -0.079671
0.465339 0.054331 0.060537
0.465339 0.024778 -0.055714
0.465339 -0.037361 -0.062409
0.465339 -0.034479 -0.009541
0.465339 -0.042436 0.083727
0.465339 0.036721 -0.092387
0.465339 0.033834 0.043233
0.465339 -0.006614 0.045609
0.465339 0.011509 0.027167
0.465339 0.063167 0.004849
0.465339 0.074366 0.061648
0.465339 0.029844 0.083269
0.465339 -0.024480 0.076643
0.465339 -0.047358 -0.072992
0.465339 -0.007400 -0.072894
0.465339 0.035948 0.020799
0.465339 0.032026 0.036602
0.465339 0.045600 0.040767
0.465339 0.039970 0.060137
0.465339 -0.028785 -0.086609
0.465339 0.070707 0.051810
0.465339 0.054472 0.000243
0.465339 -0.080776 -0.010044
0.465339 0.046113 -0.006978
0.465339 0.040973 -0.073067
0.465339 0.001488 0.019304
0.465339 -0.037686 -0.021969
0.465339 0.062441 -0.062181
0.465339 -0.027677 -0.070376
0.465339 -0.019757 0.092482
0.465339 -0.031116 -0.039911
0.465339 -0.007747 -0.006729
0.465339 -0.076780 -0.028459
0.465339 -0.002445 -0.020649
0.465339 -0.027347 -0.067329
0.465339 0.060846 -0.034890
0.465339 0.009443 0.032270
0.465339 0.008662 -0.082939
0.465339 0.055463 0.018436
0.465339 -0.011377 -0.064210
0.465339 -0.034579 0.007929
0.465339 -0.059240 0.002574
0.465339 -0.065118 -0.047056
0.465339 0.019495 -0.015675
0.465339 -0.041797 0.046845
0.465339 0.074412 0.047478
0.465339 0.080127 0.018210
0.465339 -0.009179 0.084352
0.465339 0.054054 0.068655
0.465339 0.016173 0.023807
0.465339 0.069466 0.046442
0.465339 -0.057596 -0.060138
0.465339 -0.063704 0.063840
0.465339 0.090480 -0.017042
0.465339 0.063905 -0.017046
0.465339 0.081091 -0.044885
0.465339 0.058631 0.010701
0.465339 -0.068795 0.013773
0.465339 -0.059120 -0.052977
0.465339 -0.000107 0.040302
0.465339 0.016689 0.074786
0.465339 -0.051540 0.081984
0.465339 0.006096 -0.090806
0.465339 0.082275 -0.051438
0.465339 -0.068595 -0.018151
0.465339 -0.026021 0.025959
0.465339 0.014097 0.096370
0.465339 -0.063552 -0.017195
0.465339 -0.097048 -0.000456
0.465339 0.017097 0.007820
0.465339 0.094126 -0.022189
0.465339 0.022700 -0.016228
0.465339 0.006402 0.065907
0.465339 -0.003518 -0.084098
0.465339 -0.040231 0.087518
0.465339 0.024337 -0.079576
0.465339 -0.059951 0.016578
0.465339 0.026976 -0.091890
0.465339 -0.008067 -0.017557
0.465339 -0.008229 0.054593
0.465339 0.026777 0.045776
0.465339 0.046407 -0.023426
0.465339 -0.042601 -0.041127
0.465339 -0.010976 0.057308
0.465339 0.066043 -0.033230
0.465339 0.057355 -0.075849
0.465339 0.063498 0.017509
0.465339 -0.007353 0.084592
0.465339 0.054118 -0.017300
0.465339 -0.073299 -0.059949
0.465339 0.088036 -0.023297
0.465339 0.027719 0.008252
0.465339 0.033976 0.035179
0.465339 0.035478 -0.069651
0.465339 -0.002003 0.061832
0.465339 -0.058493 -0.021373
0.465339 0.007843 -0.006954
0.465339 0.011326 0.020044
0.465339 -0.002372 -0.078913
0.465339 -0.032884 -0.019141
0.465339 0.018067 -0.011290
0.465339 0.030555 -0.070464
0.465339 -0.055047 0.050674
0.465339 0.071980 -0.037667
0.465339 -0.016462 0.048185
0.465339 0.034057 0.060833
0.465339 -0.071408 -0.056621
0.465339 -0.037548 -0.039864
0.465339 -0.015363 0.030827
0.465339 0.077647 0.059509
0.465339 -0.081824 0.027996
0.465339 0.002219 -0.038450
0.465339 -0.033883 -0.006872
0.465339 -0.034251 0.010332
0.465339 0.086210 0.048768
0.465339 -0.059201 -0.018926
0.465339 -0.015486 0.005970
0.465339 0.052691 -0.069573
0.465339 -0.010643 0.093377
0.465339 -0.061389 -0.075512
0.465339 -0.066323 -0.054000
0.465339 0.081193 0.009392
0.465339 -0.075859 -0.039461
0.465339 0.016178 0.068917
0.465339 0.007581 0.046836
0.465339 0.026678 0.068248
0.465339 -0.002776 -0.060735
0.465339 -0.039566 0.059187
0.465339 0.078019 -0.017967
0.465339 -0.077315 -0.036751
0.465339 -0.049826 0.035485
0.465339 -0.043876 -0.006933
0.465339 -0.084833 0.013503
0.465339 -0.051819 0.034004
0.465339 -0.059229 0.018154
0.465339 0.059282 -0.034520
0.465339 0.018226 0.066545
0.465339 -0.037829 -0.064607
0.465339 0.013375 -0.020075
0.465339 -0.020557 0.010418
0.465339 -0.049334 -0.080500
0.465339 -0.081534 0.002199
0.465339 0.067917 -0.067435
0.465339 -0.055669 -0.040199
0.465339 -0.055942 0.002961
0.465339 0.052509 -0.041068
0.465339 0.092767 -0.020761
0.465339 0.051493 -0.072612
0.465339 -0.010321 -0.038333
0.465339 0.075226 0.016524
0.465339 0.025641 0.077680
0.465339 -0.046675 -0.040402
0.465339 0.061659 -0.053587
0.465339 -0.035749 0.031392
0.465339 0.003800 -0.021266
0.465339 -0.086320 -0.028669
0.465339 -0.054705 -0.028494
0.465339 0.035562 0.090054
0.465339 0.061963 -0.003134
0.465339 -0.076540 -0.004315
0.465339 0.079870 -0.051978
0.465339 0.064975 -0.013851
0.465339 0.022249 0.049791
0.465339 -0.092025 0.003675
0.465339 0.072242 0.008385
0.465339 -0.064548 -0.037259
0.465339 0.097026 0.009739
0.465339 -0.023031 0.000064
0.465339 0.056854 -0.044526
0.465339 -0.059174 0.054974
0.465339 -0.002725 0.028407
0.465339 -0.022607 0.070865
0.465339 -0.068303 0.066449
0.465339 0.059997 0.060685
0.465339 0.059194 0.037372
0.465339 -0.093172 0.014887
0.465339 0.007678 0.051297
0.465339 0.098232 0.016741
0.465339 0.043729 0.058758
0.465339 0.046654 -0.069303
0.465339 0.089059 -0.029940
0.465339 -0.079006 -0.042947
0.465339 0.022393 -0.008497
0.465339 -0.055817 -0.046847
0.465339 -0.007525 -0.053060
0.465339 0.003690 -0.008632
0.465339 -0.023148 -0.013453
0.465339 0.090386 -0.035107
0.465339 -0.002974 -0.043011
0.465339 -0.060021 -0.079380
0.465339 -0.044164 0.041592
0.465339 -0.019370 -0.033716
0.465339 -0.050472 -0.068042
0.465339 -0.001125 -0.070110
0.465339 -0.094281 -0.021118
0.465339 0.069402 0.013533
0.465339 -0.041921 0.008917
0.465339 0.042281 0.025632
0.465339 -0.021621 -0.066303
0.465339 0.029743 0.002550
0.465339 -0.046880 0.066268
0.465339 -0.015680 0.076969
0.465339 -0.075639 0.039329
0.465339 0.062890 0.060902
0.465339 -0.081766 -0.024742
0.465339 -0.035169 -0.072410
0.465339 -0.054002 -0.078374
0.465339 -0.061553 0.007809
0.465339 -0.029043 0.000803
0.465339 0.064990 0.072967
0.465339 0.076844 0.037964
0.465339 -0.056582 0.050148
0.465339 -0.002850 -0.007617
0.465339 -0.060763 0.063486
0.465339 -0.051179 0.062686
0.465339 0.018608 -0.045519
0.465339 0.000989 0.033085
0.465339 0.020116 0.097654
0.465339 -0.045040 -0.065125
0.465339 0.075658 0.054148
0.465339 0.001440 0.079925
0.465339 0.016579 -0.074524
0.465339 0.082408 0.045769
0.465339 -0.058077 -0.061834
0.465339 0.019022 -0.020226
0.465339 0.021973 -0.048458
0.465339 0.096835 -0.000399
0.465339 0.018161 0.053576
0.465339 0.051166 0.045715
0.465339 -0.026292 0.028927
0.465339 0.045333 0.024946
0.465339 -0.046601 -0.060891
0.465339 -0.044871 0.088816
0.465339 0.042606 -0.077201
0.465339 -0.081671 0.029732
0.465339 0.094444 0.016797
0.465339 0.029565 0.060583
0.465339 -0.022636 0.016491
0.465339 0.053680 0.075593
0.465339 0.033457 -0.080728
0.465339 -0.030324 0.050401
0.465339 0.021411 -0.043074
0.465339 -0.047684 -0.083579
0.465339 -0.049329 -0.043886
0.465339 0.001937 -0.090751
0.465339 0.014874 0.076990
0.465339 0.066075 0.024977
0.465339 0.001798 -0.061517
0.465339 -0.028412 -0.052249
0.465339 -0.059221 0.024810
0.465339 0.038535 -0.057709
0.465339 0.006178 -0.031872
0.465339 -0.037594 0.068988
0.465339 -0.093597 -0.028689
0.465339 -0.010009 -0.035964
0.465339 -0.055175 -0.048279
0.465339 -0.051083 -0.022033
0.465339 0.058084 0.048040
0.465339 -0.002786 -0.093565
0.465339 -0.069907 -0.036645
0.465339 -0.052133 0.025325
0.465339 0.075850 0.028845
0.465339 -0.032875 0.056635
0.465339 0.007874 0.054119
0.465339 0.065334 0.000008
0.465339 0.036865 -0.030960
0.465339 -0.030672 -0.047555
0.465339 -0.055504 0.069795
0.465339 0.065244 0.058075
0.465339 0.037448 0.091041
0.465339 0.035567 -0.025260
0.465339 0.017757 -0.041965
0.465339 0.061255 0.077103
0.465339 -0.098862 -0.010195
0.465339 0.082397 0.007666
0.465339 -0.012875 0.024564
0.465339 0.009926 0.028822
0.465339 -0.092566 0.010574
0.465339 0.072130 0.041851
0.465339 0.001154 -0.071946
0.465339 -0.084848 0.016589
0.465339 -0.006866 0.043404
0.465339 -0.005293 0.065663
0.465339 0.015397 -0.024587
0.465339 0.045129 0.036575
0.465339 -0.016171 -0.091425
0.465339 -0.092442 0.012092
0.465339 -0.079851 -0.044036
0.465339 0.050637 -0.073784
0.465339 -0.024825 -0.033574
0.465339 0.027125 0.085913
0.465339 0.006846 0.087483
0.465339 -0.044398 0.053802
0.465339 -0.005625 -0.036543
0.465339 -0.031701 -0.018348
0.465339 -0.013160 -0.053195
0.465339 -0.022841 0.081429
0.465339 0.008314 0.000910
0.465339 0.008504 0.016675
0.465339 -0.029720 -0.078638
0.465339 0.067515 -0.061539
0.465339 0.055973 -0.048009
0.465339 0.038790 -0.017932
0.465339 0.060900 -0.012524
0.465339 -0.013635 -0.049018
0.465339 0.089672 -0.000458
0.465339 0.027118 -0.068960
0.465339 0.057101 -0.006097
0.465339 0.062549 0.026368
0.465339 0.020969 -0.074849
0.465339 0.038271 -0.063596
0.465339 -0.022527 0.044544
0.465339 0.024898 -0.067543
0.465339 0.052363 -0.034326
0.465339 -0.068055 -0.057464
0.465339 0.052417 0.021090
0.465339 0.015206 -0.070449
0.465339 -0.001697 0.075885
0.465339 0.011789 0.068327
0.465339 -0.015611 -0.009950
0.465339 -0.000317 0.057045
0.465339 0.061296 0.078985
0.465339 -0.013282 -0.028090
0.465339 -0.023610 -0.082605
0.465339 0.056618 -0.013519
0.465339 -0.002461 0.050227
0.465339 0.019229 -0.093612
0.465339 0.043226 -0.057159
0.465339 -0.059270 -0.063339
0.465339 -0.034753 -0.070630
0.465339 -0.022243 0.094775
0.465339 0.058113 0.075321
0.465339 -0.090944 0.014170
0.465339 -0.056413 0.035442
0.465339 -0.009307 -0.062535
0.465339 0.060583 0.062834
0.465339 0.011175 -0.019969
0.465339 -0.080727 0.041983
0.465339 0.082571 -0.028837
0.465339 -0.059892 -0.035341
0.465339 0.073268 -0.010647
0.465339 0.020815 -0.060354
0.465339 0.075421 -0.063603
0.465339 0.029349 0.029488
0.465339 -0.063877 0.009664
0.465339 0.078146 -0.045014
0.465339 0.042503 -0.026789
0.465339 0.087983 0.002661
0.465339 -0.046297 -0.056840
0.465339 -0.006515 -0.020582
0.465339 0.040766 0.019658
0.465339 -0.017554 0.026553
0.465339 0.065317 -0.040505
0.465339 0.013555 0.079896
0.465339 -0.070565 0.070575
0.465339 0.004353 0.032492
0.465339 -0.064981 0.070174
0.465339 0.040608 -0.029711
0.465339 0.092223 -0.016910
0.465339 -0.009964 0.065036
0.465339 0.065454 -0.012107
0.465339 0.030591 -0.055018
0.465339 -0.019047 -0.031968
0.465339 0.064913 -0.044013
0.465339 -0.072758 -0.049949
0.465339 -0.057595 -0.049737
0.465339 0.004090 0.020427
0.465339 -0.035614 0.057163
0.465339 0.030611 -0.032301
0.465339 -0.090310 0.035721
0.465339 -0.022897 -0.050934
0.465339 -0.074084 0.015096
0.465339 0.001127 0.024033
0.465339 -0.019426 -0.012434
0.465339 0.015471 0.057113
0.465339 0.082230 -0.039193
0.465339 -0.002473 0.089466
0.465339 -0.097741 -0.018077
0.465339 -0.042491 -0.056906
0.465339 -0.032604 0.078632
0.465339 0.015077 -0.057547
0.465339 -0.001090 -0.001653
0.465339 0.002933 0.047851
0.465339 0.047110 0.033599
0.465339 0.095254 0.008331
0.465339 -0.080568 -0.004167
0.465339 0.044290 -0.023820
0.465339 -0.054294 0.020645
0.465339 -0.060961 0.067895
0.465339 0.039061 0.052469
0.465339 -0.094004 0.029228
0.465339 0.052004 -0.080896
0.465339 0.000553 -0.070613
0.465339 -0.019080 0.077174
0.465339 -0.070005 0.026242
0.465339 0.010865 -0.073669
0.465339 0.058290 0.056571
0.465339 0.054326 0.047976
0.465339 0.037984 0.080729
0.465339 0.040831 0.070771
0.465339 -0.096915 0.010083
0.465339 0.092415 -0.001591
0.465339 -0.082490 -0.026666
0.465339 -0.057649 -0.057149
0.465339 0.055259 0.072865
0.465339 0.062502 -0.070087
0.465339 -0.026630 -0.053640
0.465339 0.041893 -0.005267
0.465339 0.038555 0.088404
0.465339 -0.012366 0.069972
0.465339 -0.012443 0.014908
0.465339 -0.029941 -0.012684
0.465339 -0.044978 -0.033233
0.465339 -0.040501 0.043919
0.465339 -0.016528 0.081028
0.465339 0.048570 -0.027707
0.465339 0.056674 -0.054656
0.465339 -0.043796 0.081637
0.465339 -0.077979 -0.057431
0.465339 0.008802 0.041211
0.465339 -0.076884 0.042814
0.465339 -0.064167 -0.028177
0.465339 -0.022765 0.090567
0.465339 -0.081871 -0.007653
0.465339 0.079180 0.010258
0.465339 0.010746 -0.021534
0.465339 -0.052314 0.078741
0.465339 -0.061050 -0.008194
0.465339 0.004372 0.073739
0.465339 0.059592 0.064439
0.465339 0.057953 -0.029550
0.465339 -0.022205 -0.049545
0.465339 -0.038147 0.064308
0.465339 -0.037200 0.051172
0.465339 0.053409 -0.072759
0.465339 0.035807 -0.031865
0.465339 0.035416 -0.054932
0.465339 -0.085455 0.043363
0.465339 0.069414 0.034925
0.465339 0.001024 -0.041712
0.465339 0.089405 0.023098
0.465339 0.015978 -0.033287
0.465339 -0.067174 -0.028706
0.465339 -0.012072 0.053396
0.465339 -0.084509 0.052154
0.465339 -0.017129 -0.026689
0.465339 0.032220 0.073579
0.465339 -0.079458 0.035282
0.465339 -0.075438 0.008562
0.465339 -0.055212 -0.075189
0.465339 -0.098916 -0.011880
0.465339 -0.003026 0.021106
0.465339 -0.006752 0.026228
0.465339 0.088309 0.001037
0.465339 -0.055338 0.022118
0.465339 0.012795 -0.098683
0.465339 -0.003064 0.078530
0.465339 -0.070744 0.062806
0.465339 0.077765 0.028186
0.465339 0.051188 -0.022865
0.465339 0.008641 0.091227
0.465339 -0.047524 -0.028024
0.465339 -0.048631 0.019038
0.465339 0.015321 -0.027847
0.465339 0.057652 -0.048156
0.465339 0.064872 -0.053314
0.465339 0.049265 0.046787
0.465339 0.039673 -0.063094
0.465339 -0.014623 -0.085216
0.465339 0.077200 0.007827
0.465339 -0.083142 -0.028135
0.465339 -0.028755 0.059948
0.465339 0.031185 0.081986
0.465339 0.001828 -0.057752
0.465339 0.056743 -0.073192
0.465339 0.029271 -0.074485
0.465339 -0.063273 0.070613
0.465339 0.006188 -0.033650
0.465339 -0.025790 0.054815
0.465339 -0.060453 0.075029
0.465339 0.037756 -0.085428
0.465339 0.060996 0.029006
0.465339 0.063816 0.008411
0.465339 -0.003196 0.063159
0.465339 -0.037621 -0.003311
0.465339 0.035541 0.086815
0.465339 -0.033942 -0.076424
0.465339 -0.078393 0.031353
0.465339 -0.091490 0.019418
0.465339 -0.052050 0.016333
0.465339 -0.083136 -0.043755
0.465339 0.019502 0.009365
0.465339 0.071619 0.067609
0.465339 -0.020784 0.056103
0.465339 -0.052543 0.020639
0.465339 -0.092872 0.024630
0.465339 -0.091227 -0.029222
0.465339 0.073528 -0.001344
0.465339 -0.090675 0.004255
0.465339 0.024168 -0.081596
0.465339 0.086625 -0.002680
0.465339 0.070472 -0.050325
0.465339 0.039154 -0.048692
0.465339 0.071149 -0.055440
0.465339 0.051710 0.029891
0.465339 0.013718 -0.006406
0.465339 -0.044463 -0.047009
0.465339 -0.058284 -0.075848
0.465339 0.087538 0.041510
0.465339 -0.011382 -0.024861
0.465339 0.021541 -0.057100
0.465339 -0.079440 -0.032705
0.465339 0.052751 -0.023156
0.465339 0.052777 0.083356
0.465339 -0.011756 -0.016378
0.465339 0.002211 -0.069083
0.465339 0.015429 0.073380
0.465339 0.086235 -0.035008
0.465339 0.060705 -0.076983
0.465339 0.090369 -0.027382
0.465339 -0.071581 0.024864
0.465339 0.044931 0.061293
0.465339 -0.041626 0.039164
0.465339 -0.045923 0.046057
0.465339 0.033387 -0.066988
0.465339 -0.077623 -0.016148
0.465339 0.006410 0.059204
0.465339 0.037076 -0.074356
0.465339 -0.011413 -0.082048
0.465339 0.000009 0.002741
0.465339 0.067545 0.034582
0.465339 0.074250 0.018355
0.465339 0.022968 0.042578
0.465339 0.012129 -0.051645
0.465339 -0.029611 -0.017224
0.465339 -0.018439 0.024035
0.465339 0.064163 0.002877
0.465339 -0.028521 0.058266
0.465339 0.083225 0.036529
0.465339 0.072907 0.066570
0.465339 -0.016719 -0.001551
0.465339 0.027893 -0.095635
0.465339 -0.029851 -0.032843
0.465339 0.018945 -0.057161
0.465339 -0.014118 0.075933
0.465339 -0.035886 -0.021116
0.465339 0.032768 -0.044390
0.465339 0.081387 -0.032246
0.465339 0.090812 0.023733
0.465339 -0.064470 -0.053608
0.465339 0.058342 -0.063587
0.465339 0.017586 0.003142
0.465339 -0.046431 -0.004555
0.465339 -0.082238 0.055523
0.465339 -0.021099 0.045343
0.465339 0.055437 -0.078971
0.465339 -0.019551 0.049908
0.465339 -0.078746 0.045891
0.465339 0.058468 -0.008613
0.465339 -0.046729 -0.082065
0.465339 -0.017638 -0.017884
0.465339 0.077575 0.043563
0.465339 -0.017468 0.007032
0.465339 -0.020271 -0.097391
0.465339 -0.030540 0.007265
0.465339 -0.097480 0.008691
0.465339 0.074477 -0.024432
0.465339 -0.041127 -0.037858
0.465339 -0.007327 0.008917
0.465339 0.050565 -0.034934
0.465339 0.032367 -0.061435
0.465339 -0.067536 -0.001994
0.465339 0.085056 0.040069
0.465339 0.006885 -0.074432
0.465339 0.041149 -0.021829
0.465339 0.069926 -0.069093
0.465339 -0.094070 0.016170
0.465339 -0.041588 -0.024992
0.465339 0.028001 -0.083170
0.465339 -0.008343 0.038719
0.465339 -0.004445 0.073475
0.465339 0.048528 -0.067160
0.465339 0.067250 0.071139
0.465339 0.090082 -0.010813
0.465339 0.037147 0.060297
0.465339 -0.058506 -0.046135
0.465339 -0.059646 0.028796
0.465339 -0.049691 -0.048886
0.465339 -0.092504 0.031138
0.465339 0.031370 0.017533
0.465339 -0.063803 -0.046803
0.465339 -0.034644 -0.066442
0.465339 0.029556 0.010541
0.465339 -0.060857 0.002657
0.465339 0.017714 0.083688
0.465339 0.041470 -0.080236
0.465339 0.073444 0.044420
0.465339 0.047123 -0.047715
0.465339 0.010136 -0.016935
0.465339 -0.013414 0.043593
0.465339 -0.049698 0.079392
0.465339 0.063174 -0.066657
0.465339 -0.018363 0.071190
0.465339 0.025297 0.061665
0.465339 -0.007888 0.063394
0.465339 -0.034093 0.061378
0.465339 0.020211 -0.051528
0.465339 -0.054790 -0.004276
0.465339 -0.082011 -0.012894
0.465339 -0.031371 -0.067397
0.465339 -0.051034 0.001647
0.465339 0.052379 -0.021428
0.465339 -0.026300 -0.038683
0.465339 0.094185 0.009739
0.465339 -0.013603 -0.024240
0.465339 -0.036311 -0.085990
0.465339 -0.088549 -0.023193
0.465339 -0.065758 0.046793
0.465339 0.037909 0.092376
0.465339 -0.084964 0.029376
0.465339 0.066449 -0.064279
0.465339 0.045273 -0.088727
0.465339 -0.031253 0.088529
0.465339 -0.002293 -0.082523
0.465339 -0.043202 0.033697
0.465339 -0.032239 -0.064304
0.465339 -0.061123 0.057772
0.465339 0.049936 -0.082463
0.465339 -0.018626 -0.096099
0.465339 -0.020053 -0.092673
0.465339 -0.055295 -0.080333
0.465339 -0.085162 -0.044081
0.465339 0.098687 0.005080
0.465339 -0.043681 -0.054160
0.465339 0.012299 -0.062221
0.465339 0.074059 0.022529
0.465339 -0.006493 0.060392
0.465339 -0.056593 -0.008180
0.465339 0.085507 -0.036335
0.465339 -0.075027 -0.061569
0.465339 0.079695 0.012380
0.465339 -0.027240 0.095716
0.465339 0.026016 -0.074274
0.465339 -0.061960 0.076973
0.465339 -0.002045 0.044961
0.465339 0.001869 0.043527
0.465339 -0.023879 -0.032582
0.465339 -0.089827 0.019882
0.465339 0.091562 0.025242
0.465339 -0.019018 0.019083
0.465339 0.073450 0.012491
0.465339 0.034630 -0.059106
0.465339 -0.082890 -0.054675
0.465339 -0.002089 -0.084828
0.465339 -0.043536 0.027572
0.465339 -0.031622 -0.005362
0.465339 -0.031209 -0.057768
0.465339 -0.010495 0.041107
0.465339 -0.010220 -0.058518
0.465339 0.019796 -0.066913
0.465339 -0.007186 0.080012
0.465339 -0.048224 -0.050112
0.465339 0.083258 0.003052
0.465339 -0.025836 -0.064933
0.465339 -0.055271 -0.061894
0.465339 -0.003360 0.019413
0.465339 -0.013801 0.010817
0.465339 -0.011474 -0.057708
0.465339 -0.071035 0.040992
0.465339 0.009156 0.026837
0.465339 0.003535 0.023769
0.465339 0.001803 0.093178
0.465339 -0.052564 -0.047451
0.465339 -0.014373 -0.065594
0.465339 -0.026114 0.084140
0.465339 -0.018605 0.080144
0.465339 -0.093833 0.023259
0.465339 0.003497 -0.065193
0.465339 0.014407 0.061650
0.465339 -0.006791 0.086024
0.465339 0.016868 -0.037593
0.465339 -0.062431 -0.004939
0.465339 0.050749 -0.007581
0.465339 -0.009482 -0.006328
0.465339 -0.078123 0.048371
0.465339 0.088973 -0.036102
0.465339 0.041366 -0.076462
0.465339 -0.054517 0.052997
0.465339 0.091457 -0.015537
0.465339 0.036126 0.043238
0.465339 0.034202 -0.009515
0.465339 0.002745 -0.063607
0.465339 -0.039117 -0.018248
0.465339 0.096001 -0.027502
0.465339 0.007811 0.078056
0.465339 -0.028611 -0.006234
0.465339 0.025731 0.076062
0.465339 0.065474 -0.035550
0.465339 -0.058464 0.035005
0.465339 0.074349 -0.053019
0.465339 -0.047307 -0.029827
0.465339 0.017989 -0.092148
0.465339 0.055294 0.013374
0.465339 0.075315 -0.056069
0.465339 -0.093539 -0.027080
0.465339 -0.078137 -0.012005
0.465339 -0.027877 -0.009046
0.465339 -0.019876 -0.038419
0.465339 0.006900 -0.047534
0.465339 0.093596 -0.012452
0.465339 -0.032840 0.066098
0.465339 -0.055819 -0.057409
0.465339 -0.047013 -0.059000
0.465339 -0.022051 0.048926
0.465339 0.067963 0.022710
0.465339 -0.012955 -0.095697
0.465339 -0.096945 -0.005273
0.465339 -0.010051 -0.025219
0.465339 0.078881 -0.016529
0.465339 0.015285 0.074957
0.465339 0.042695 0.038154
0.465339 0.024720 0.072526
0.465339 0.005928 0.048756
0.465339 0.021837 -0.030965
0.465339 0.080243 -0.049674
0.465339 0.063406 0.066422
0.465339 -0.069291 -0.024496
0.465339 0.004115 0.065291
0.465339 -0.059065 0.009002
0.465339 -0.049610 0.053104
0.465339 0.018803 0.085124
0.465339 -0.008720 -0.034823
0.465339 -0.059394 -0.015465
0.465339 -0.018796 -0.010509
0.465339 -0.044689 0.016282
0.465339 0.033105 -0.014077
0.465339 0.030411 0.033796
0.465339 -0.069718 -0.027088
0.465339 0.011603 0.096528
0.465339 0.075727 0.046279
0.465339 -0.051212 0.056768
0.465339 -0.033193 -0.030429
0.465339 -0.015377 -0.048127
0.465339 -0.090501 0.041758
0.465339 -0.046942 0.055179
0.465339 -0.021969 -0.037032
0.465339 0.069991 -0.032383
0.465339 0.009525 -0.074278
0.465339 0.060167 -0.071672
0.465339 -0.019184 0.029274
0.465339 -0.003873 0.027272
0.465339 0.067301 -0.034808
0.465339 0.023076 0.016136
0.465339 -0.076665 0.049817
0.465339 -0.032654 -0.012238
0.465339 0.069776 -0.000645
0.465339 0.076353 -0.047109
0.465339 0.013902 0.035848
0.465339 -0.030996 -0.089994
0.465339 -0.067713 0.060665
0.465339 0.015517 0.035120
0.465339 0.012985 -0.050508
0.465339 0.015786 -0.011808
0.465339 -0.032109 -0.010659
0.465339 -0.002636 -0.025211
0.465339 -0.030050 -0.063397
0.465339 0.002903 -0.048025
0.465339 0.001734 -0.086872
0.465339 0.082170 -0.043741
0.465339 0.055230 0.006748
0.465339 -0.007958 -0.046027
0.465339 -0.050387 0.070120
0.465339 -0.056531 0.058160
0.465339 -0.001299 -0.093456
0.465339 -0.016680 0.035205
0.465339 0.019807 0.093359
0.465339 0.060303 -0.067993
0.465339 -0.000008 -0.020170
0.465339 -0.002807 -0.005279
0.465339 0.027949 -0.029702
0.465339 0.015898 -0.078817
0.465339 -0.050066 0.042925
0.465339 -0.079221 -0.008240
0.465339 0.052968 0.030994
0.465339 -0.076387 -0.015355
0.465339 0.059160 -0.033104
0.465339 0.021779 0.069765
0.465339 0.081100 0.041095
0.465339 0.010494 -0.001224
0.465339 -0.000902 -0.052591
0.465339 0.071158 -0.016395
0.465339 0.046142 -0.008919
0.465339 0.014525 -0.021251
0.465339 0.052253 0.075655
0.465339 0.011825 -0.027262
0.465339 -0.001817 0.004963
0.465339 0.032599 0.014945
0.465339 0.050969 -0.011810
0.465339 0.024552 -0.077865
0.465339 -0.047494 0.042099
0.465339 -0.014941 0.070683
0.465339 0.072006 0.038912
0.465339 0.002117 -0.017209
0.465339 0.031345 -0.074815
0.465339 -0.080957 -0.002847
0.465339 0.081235 0.006387
0.465339 -0.070689 -0.028609
0.465339 0.066504 0.023696
0.465339 -0.017089 0.022996
0.465339 -0.008682 0.002126
0.465339 0.084104 0.027590
0.465339 0.067927 -0.059531
0.465339 0.020049 -0.073778
0.465339 -0.034909 -0.046942
0.465339 -0.078945 -0.004306
0.465339 -0.032087 0.002199
0.465339 0.035688 0.008896
0.465339 -0.026434 -0.095761
0.465339 -0.063718 -0.069079
0.465339 -0.044279 -0.035276
0.465339 0.079240 0.055573
0.465339 0.021020 0.019930
0.465339 -0.041453 -0.031884
0.465339 0.072358 -0.034135
0.465339 0.027688 0.019777
0.465339 0.052879 0.048884
0.465339 -0.042451 0.020300
0.465339 0.034511 0.053830
0.465339 -0.038107 0.002357
0.465339 0.026565 0.030218
0.465339 0.015796 0.008505
0.465339 0.017590 0.041528
0.465339 -0.070617 -0.000263
0.465339 0.006096 0.012479
0.465339 0.040148 0.037809
0.465339 -0.040076 0.065791
0.465339 0.058917 0.050831
0.465339 -0.017962 -0.033459
0.465339 -0.024704 0.060264
0.465339 -0.025182 0.048235
0.465339 0.089365 0.002253
0.465339 0.080088 -0.020985
0.465339 0.059709 0.072186
0.465339 -0.084889 -0.019201
0.465339 -0.015171 -0.086552
0.465339 0.057266 0.028711
0.465339 -0.008326 -0.090087
0.465339 -0.080248 0.031474
0.465339 -0.032936 0.026397
0.465339 0.048931 -0.019825
0.465339 0.036466 -0.018541
0.465339 -0.000986 -0.060758
0.465339 -0.075036 -0.035665
0.465339 0.004131 -0.043935
0.465339 -0.049053 0.022778
0.465339 -0.038096 0.040837
0.465339 -0.084953 0.007997
0.465339 -0.062386 0.053305
0.465339 0.046452 0.000158
0.465339 -0.046957 0.063435
0.465339 0.009873 -0.054860
0.465339 -0.087117 -0.046132
0.465339 -0.043020 0.015932
0.465339 0.099930 0.002127
0.465339 0.071078 0.055776
0.465339 -0.083828 -0.030657
0.465339 -0.020894 0.032986
0.465339 0.029654 -0.080933
0.465339 -0.056651 -0.012527
0.465339 0.004830 -0.007722
0.465339 -0.047176 0.061123
0.465339 0.031296 0.040297
0.465339 -0.045309 -0.086120
0.465339 0.013341 0.011558
0.465339 -0.071683 0.001342
0.465339 0.021016 0.085048
0.465339 -0.014893 0.059949
0.465339 0.068218 0.027015
0.465339 0.024380 -0.073214
0.465339 -0.033037 -0.075323
0.465339 -0.013128 -0.063662
0.465339 0.064126 -0.041354
0.465339 -0.003767 -0.078262
0.465339 0.012612 -0.095650
0.465339 -0.023741 0.048782
0.465339 -0.033729 0.042972
0.465339 -0.078116 0.020392
0.465339 0.066687 -0.023716
0.465339 0.035333 -0.022381
0.465339 0.036909 -0.069049
0.465339 0.000661 -0.065496
0.465339 -0.063976 0.052306
0.465339 0.004099 -0.004054
0.465339 -0.031477 -0.000697
0.465339 0.099135 0.013133
0.465339 0.099795 -0.005065
0.465339 -0.058312 -0.066345
0.465339 0.011004 0.035056
0.465339 0.014932 -0.005113
0.465339 -0.054117 -0.035350
0.465339 -0.063032 -0.060727
0.465339 0.029671 -0.029297
0.465339 -0.035503 0.021545
0.465339 0.083103 -0.020112
0.465339 -0.091148 0.008329
0.465339 -0.013827 0.057316
0.465339 0.035806 0.084350
0.465339 -0.084214 -0.023509
0.465339 0.000325 0.059514
0.465339 -0.068112 0.045674
0.465339 0.008853 0.037959
0.465339 -0.027422 0.011763
0.465339 -0.026040 -0.016319
0.465339 0.029278 0.044490
0.465339 0.053991 -0.002972
0.465339 0.002961 0.090246
0.465339 -0.015219 0.064787
0.465339 0.028783 0.054266
0.465339 -0.025017 -0.022993
0.465339 0.021065 0.064999
0.465339 -0.016908 -0.081584
0.465339 -0.061536 -0.066567
0.465339 -0.040553 -0.080239
0.465339 -0.005291 0.039844
0.465339 -0.065386 0.039564
0.465339 -0.035394 -0.053495
0.465339 0.024097 0.012314
0.465339 -0.070574 0.027632
0.465339 0.042978 0.008204
0.465339 0.017960 0.051800
0.465339 0.040985 -0.084442
0.465339 0.055281 -0.065574
0.465339 0.034443 0.062144
0.465339 0.056092 0.003776
0.465339 0.088164 -0.042645
0.465339 0.079810 0.037377
0.465339 -0.003619 0.051614
0.465339 0.057258 0.000246
0.465339 0.010393 0.080381
0.465339 -0.028978 -0.047947
0.465339 0.014832 -0.096931
0.465339 0.046176 0.068355
0.465339 -0.048242 -0.031071
0.465339 0.034111 0.036715
0.465339 0.006984 -0.043904
0.465339 -0.048510 -0.066330
0.465339 0.077745 0.009623
0.465339 0.039425 -0.064560
0.465339 0.068718 -0.026573
0.465339 0.088446 0.038712
0.465339 -0.022173 0.059564
0.465339 -0.078755 -0.035806
0.465339 -0.084818 -0.051856
0.465339 -0.009246 0.056174
0.465339 0.048268 -0.061625
0.465339 -0.070743 -0.007728
0.465339 -0.040853 -0.033256
0.465339 -0.004180 -0.041872
0.465339 0.014052 -0.049310
0.465339 0.078874 -0.011439
0.465339 0.079764 0.059696
0.465339 0.003891 0.099081
0.465339 0.030554 -0.056518
0.465339 -0.060254 -0.036707
0.465339 0.076266 0.024940
0.465339 0.006505 -0.054771
0.465339 -0.054992 0.056962
0.465339 -0.008095 0.047324
0.465339 0.019108 -0.010063
0.465339 0.097555 -0.005388
0.465339 -0.008404 -0.082705
-0.466955 -0.006530 0.008119
-0.466955 -0.017126 0.068554
-0.466955 0.006884 0.084192
-0.466955 -0.064674 0.067745
-0.466955 -0.066740 0.057142
-0.466955 -0.007329 -0.074181
-0.466955 0.001991 0.056285
-0.466955 0.025686 -0.058210
-0.466955 -0.054952 -0.009320
-0.466955 -0.042088 0.035969
-0.466955 -0.020025 0.071159
-0.466955 -0.069567 0.066049
-0.466955 -0.050455 -0.052805
-0.466955 -0.091608 -0.004961
-0.466955 -0.008466 -0.092533
-0.466955 0.031476 0.051706
-0.466955 0.012289 -0.055845
-0.466955 -0.014087 0.032078
-0.466955 0.075114 0.052371
-0.466955 0.079441 -0.014128
-0.466955 0.079702 0.051083
-0.466955 0.005037 0.050019
-0.466955 0.057352 0.010690
-0.466955 0.019636 -0.032752
-0.466955 0.026139 0.044030
-0.466955 -0.038813 -0.080101
-0.466955 -0.023784 0.086874
-0.466955 0.000243 0.055885
-0.466955 0.019417 0.052338
-0.466955 -0.073573 -0.062692
-0.466955 0.066276 -0.042168
-0.466955 0.032091 0.094755
-0.466955 0.041821 0.015290
-0.466955 0.014603 -0.080743
-0.466955 0.015982 -0.033978
-0.466955 0.015662 0.072640
-0.466955 -0.095738 -0.012974
-0.466955 0.088660 0.023203
-0.466955 0.048447 0.044148
-0.466955 0.016751 -0.036913
-0.466955 -0.006571 0.032660
-0.466955 -0.075218 0.038051
-0.466955 -0.063182 -0.074870
-0.466955 -0.059221 -0.068830
-0.466955 -0.031226 0.063277
-0.466955 0.073384 -0.048691
-0.466955 0.026575 0.026561
-0.466955 0.019541 0.017932
-0.466955 0.082796 0.010823
-0.466955 -0.063123 -0.039865
-0.466955 0.012415 0.053732
-0.466955 -0.053484 0.061431
-0.466955 0.002572 -0.069087
-0.466955 0.029528 -0.071024
-0.466955 -0.016789 -0.004811
-0.466955 -0.009831 0.066575
-0.466955 0.007048 -0.070255
-0.466955 0.058248 -0.016949
-0.466955 0.047197 0.074162
-0.466955 -0.000156 0.094017
-0.466955 0.089211 -0.030803
-0.466955 -0.071199 -0.046099
-0.466955 -0.076796 0.016314
-0.466955 0.033144 -0.085155
-0.466955 0.042575 -0.079952
-0.466955 0.034748 0.051154
-0.466955 0.003388 0.093326
-0.466955 -0.044228 -0.067440
-0.466955 -0.041228 -0.039213
-0.466955 0.053494 0.041986
-0.466955 0.085784 -0.012035
-0.466955 0.024281 0.096760
-0.466955 0.040275 0.056579
-0.466955 0.084404 0.001760
-0.466955 0.054643 0.075999
-0.466955 -0.016210 0.088856
-0.466955 0.047141 -0.009446
-0.466955 0.011918 0.041979
-0.466955 0.073815 -0.062714
-0.466955 -0.094961 0.018558
-0.466955 -0.051839 0.009097
-0.466955 -0.046727 -0.037643
-0.466955 -0.068739 -0.003307
-0.466955 0.000054 0.085823
-0.466955 -0.039544 0.057858
-0.466955 -0.023316 0.082046
-0.466955 -0.062428 0.018774
-0.466955 0.012362 0.021380
-0.466955 0.083256 0.025041
-0.466955 0.001537 0.004901
-0.466955 -0.073735 0.021607
-0.466955 0.003052 0.068913
-0.466955 -0.029464 -0.087917
-0.466955 0.097574 -0.004607
-0.466955 -0.015529 0.032713
-0.466955 -0.065092 0.066311
-0.466955 -0.074755 0.023051
-0.466955 0.041198 0.088118
-0.466955 -0.091220 0.013057
-0.466955 -0.060263 -0.030585
-0.466955 0.019217 0.036846
-0.466955 0.087389 0.010652
-0.466955 -0.029386 -0.011900
-0.466955 -0.019037 -0.042080
-0.466955 0.019800 0.023599
-0.466955 -0.028040 0.040271
-0.466955 -0.009962 0.015992
-0.466955 -0.071502 -0.031678
-0.466955 0.045173 -0.082382
-0.466955 0.010213 0.022284
-0.466955 0.054325 0.052276
-0.466955 -0.013065 -0.044021
-0.466955 0.025451 0.086882
-0.466955 -0.017726 0.000709
-0.466955 0.035070 0.046000
-0.466955 0.066528 0.017729
-0.466955 -0.084510 -0.012536
-0.466955 -0.023808 0.029333
-0.466955 0.084493 -0.028576
-0.466955 -0.040432 0.029346
-0.466955 -0.065574 -0.020221
-0.466955 0.051857 -0.080386
-0.466955 -0.066956 0.015928
-0.466955 0.069140 0.017674
-0.466955 -0.075212 -0.042403
-0.466955 -0.014924 0.019001
-0.466955 -0.097417 -0.003028
-0.466955 -0.006190 -0.072830
-0.466955 -0.076151 0.030381
-0.466955 -0.012929 0.054232
-0.466955 -0.085758 0.016193
-0.466955 0.092564 0.003076
-0.466955 -0.086601 -0.043919
-0.466955 0.027616 0.027590
-0.466955 0.014820 0.077471
-0.466955 -0.042532 0.011611
-0.466955 -0.009447 -0.077370
-0.466955 0.084757 -0.007336
-0.466955 0.085212 -0.001545
-0.466955 0.097467 0.022012
-0.466955 0.083771 -0.042625
-0.466955 0.013282 -0.065583
-0.466955 -0.001494 0.033593
-0.466955 0.072888 -0.033001
-0.466955 -0.030161 -0.058319
-0.466955 0.073264 0.050625
-0.466955 -0.007757 0.092101
-0.466955 -0.004251 -0.012745
-0.466955 0.055364 0.050930
-0.466955 -0.082619 -0.017686
-0.466955 0.034423 -0.006656
-0.466955 -0.079273 0.002740
-0.466955 0.029289 -0.079078
-0.466955 -0.066555 -0.024536
-0.466955 -0.011745 -0.008086
-0.466955 -0.000725 -0.047199
-0.466955 0.085297 -0.027184
-0.466955 0.088893 0.006816
-0.466955 0.008325 0.070865
-0.466955 0.071848 0.038038
-0.466955 0.007547 0.002573
-0.466955 0.020620 0.019136
-0.466955 -0.027154 -0.008427
-0.466955 0.016792 0.052885
-0.466955 -0.030958 -0.092357
-0.466955 -0.080268 -0.036365
-0.466955 0.018681 -0.039814
-0.466955 -0.001825 0.087517
-0.466955 0.020602 0.074847
-0.466955 0.023268 -0.040811
-0.466955 -0.057585 0.029554
-0.466955 -0.074848 -0.022421
-0.466955 -0.038695 0.012561
-0.466955 -0.043192 -0.021665
-0.466955 0.004272 -0.014560
-0.466955 0.070587 -0.003108
-0.466955 -0.087965 -0.007663
-0.466955 -0.093379 -0.024695
-0.466955 -0.055450 0.023484
-0.466955 -0.005754 0.070055
-0.466955 0.050038 -0.024698
-0.466955 -0.006558 -0.014208
-0.466955 0.076576 -0.007760
-0.466955 0.019780 0.010474
-0.466955 -0.049795 0.071426
-0.466955 0.028434 -0.091223
-0.466955 0.063452 -0.027636
-0.466955 0.014556 0.020114
-0.466955 -0.073602 -0.017285
-0.466955 0.004236 -0.011687
-0.466955 -0.033737 -0.050496
-0.466955 0.017281 0.082721
-0.466955 -0.056064 -0.003782
-0.466955 -0.017555 -0.008378
-0.466955 -0.058702 0.003912
-0.466955 0.008337 -0.043429
-0.466955 -0.050795 0.072441
-0.466955 -0.031370 -0.068117
-0.466955 -0.052372 -0.036151
-0.466955 -0.009340 0.024777
-0.466955 0.040722 0.084393
-0.466955 -0.016355 -0.022429
-0.466955 0.085959 0.039700
-0.466955 -0.022939 -0.090810
-0.466955 -0.008683 -0.084188
-0.466955 -0.030575 -0.030674
-0.466955 -0.021613 -0.030497
-0.466955 -0.051266 -0.079999
-0.466955 -0.058305 -0.014287
-0.466955 0.051297 0.020083
-0.466955 -0.023920 0.078865
-0.466955 -0.043228 -0.035679
-0.466955 -0.023239 0.088931
-0.466955 0.004218 -0.026322
-0.466955 0.023100 -0.004986
-0.466955 -0.052930 0.052547
-0.466955 0.090679 -0.003753
-0.466955 -0.065552 0.006902
-0.466955 0.046957 -0.006570
-0.466955 0.087749 -0.047577
-0.466955 0.051854 -0.034391
-0.466955 -0.003080 0.056854
-0.466955 -0.033674 0.033577
-0.466955 -0.079258 0.041620
-0.466955 0.025574 -0.061305
-0.466955 0.074242 0.066797
-0.466955 -0.069471 -0.042832
-0.466955 -0.056544 -0.079435
-0.466955 -0.026269 -0.038646
-0.466955 -0.022406 -0.053353
-0.466955 0.004123 -0.075213
-0.466955 -0.065179 -0.064617
-0.466955 -0.097020 -0.004456
-0.466955 0.064645 -0.045678
-0.466955 0.042195 -0.030564
-0.466955 -0.030458 0.095142
-0.466955 0.032895 -0.067722
-0.466955 0.020456 0.011930
-0.466955 -0.009228 -0.087285
-0.466955 0.051970 -0.000260
-0.466955 0.066428 -0.065166
-0.466955 -0.002479 -0.094738
-0.466955 -0.063291 -0.017165
-0.466955 0.086496 0.030213
-0.466955 -0.002574 0.064047
-0.466955 -0.018010 0.030854
-0.466955 -0.070007 0.027189
-0.466955 -0.036302 0.077630
-0.466955 0.057713 -0.059342
-0.466955 0.096506 -0.012646
-0.466955 0.073786 0.023613
-0.466955 0.036293 -0.064636
-0.466955 -0.094139 -0.023202
-0.466955 -0.016146 -0.060696
-0.466955 0.013009 0.083898
-0.466955 -0.014164 -0.010374
-0.466955 -0.010361 -0.059039
-0.466955 0.084296 0.035009
-0.466955 -0.040084 0.070836
-0.466955 0.002367 0.076267
-0.466955 -0.087710 0.028144
-0.466955 -0.064140 0.005707
-0.466955 0.031949 -0.026158
-0.466955 -0.010567 0.079448
-0.466955 0.089963 -0.005201
-0.466955 -0.016150 -0.032191
-0.466955 -0.014572 -0.019881
-0.466955 0.079334 -0.033804
-0.466955 -0.067136 -0.055205
-0.466955 -0.019988 0.079511
-0.466955 0.006310 0.070671
-0.466955 -0.083737 -0.048275
-0.466955 0.052018 0.068055
-0.466955 0.053818 -0.017232
-0.466955 0.045702 -0.003865
-0.466955 0.098897 0.009940
-0.466955 0.094452 0.013796
-0.466955 -0.079174 -0.044545
-0.466955 0.053911 0.000389
-0.466955 0.009435 -0.000916
-0.466955 0.032370 0.049133
-0.466955 -0.082828 0.037559
-0.466955 -0.014807 -0.078016
-0.466955 -0.009979 0.036101
-0.466955 0.055893 -0.074221
-0.466955 -0.017645 0.048665
-0.466955 -0.059500 0.033295
-0.466955 0.062826 -0.032356
-0.466955 -0.032822 0.071881
-0.466955 -0.029799 0.075015
-0.466955 0.000687 -0.000764
-0.466955 0.040486 -0.017620
-0.466955 0.020580 -0.078081
-0.466955 0.027670 0.031417
-0.466955 -0.051258 -0.056721
-0.466955 -0.081028 -0.030039
-0.466955 0.032705 -0.009660
-0.466955 -0.088947 -0.025647
-0.466955 -0.061309 0.074821
-0.466955 -0.026102 -0.089818
-0.466955 0.023533 0.045140
-0.466955 0.082482 0.056408
-0.466955 -0.015546 0.080450
-0.466955 -0.086487 -0.003104
-0.466955 0.096745 -0.024176
-0.466955 0.068404 0.071090
-0.466955 0.079492 0.038058
-0.466955 -0.039354 0.018043
-0.466955 0.022000 0.043170
-0.466955 -0.051422 -0.034602
-0.466955 -0.087489 -0.010955
-0.466955 0.040413 0.065132
-0.466955 -0.031592 -0.063809
-0.466955 0.036219 0.081171
-0.466955 -0.050476 -0.022123
-0.466955 -0.065248 -0.002519
-0.466955 0.020400 -0.062986
-0.466955 0.037779 0.022054
-0.466955 0.075675 -0.002532
-0.466955 0.019758 -0.065803
-0.466955 0.064770 -0.073771
-0.466955 0.024037 0.000286
-0.466955 -0.013617 0.066896
-0.466955 0.001010 -0.053088
-0.466955 0.046114 -0.016853
-0.466955 -0.021080 0.063907
-0.466955 -0.020320 0.092229
-0.466955 -0.091692 -0.024455
-0.466955 0.004319 -0.088013
-0.466955 0.050801 0.029167
-0.466955 -0.077701 0.024729
-0.466955 -0.011997 -0.032391
-0.466955 0.022472 -0.025149
-0.466955 0.041586 -0.025685
-0.466955 0.068379 0.048141
-0.466955 -0.074050 -0.043584
-0.466955 0.000626 0.027937
-0.466955 0.048981 -0.057703
-0.466955 -0.016554 -0.000299
-0.466955 0.042178 0.047601
-0.466955 -0.001747 0.017582
-0.466955 0.021388 -0.042882
-0.466955 -0.053402 0.026222
-0.466955 0.052619 -0.045249
-0.466955 0.001829 0.046124
-0.466955 0.064168 0.065752
-0.466955 -0.001146 -0.083521
-0.466955 0.061186 0.006503
-0.466955 0.087615 -0.030574
-0.466955 0.051536 -0.078126
-0.466955 0.043535 -0.081236
-0.466955 -0.012911 0.039761
-0.466955 -0.050175 -0.040176
-0.466955 0.064051 0.056022
-0.466955 -0.035169 -0.032197
-0.466955 0.092379 -0.001996
-0.466955 0.010707 -0.034388
-0.466955 -0.007693 0.019315
-0.466955 -0.039858 -0.060139
-0.466955 0.064772 0.062235
-0.466955 0.031042 0.001667
-0.466955 0.009155 -0.084878
-0.466955 0.027998 -0.032130
-0.466955 0.016990 0.047531
-0.466955 -0.005479 -0.047854
-0.466955 0.080282 -0.027863
-0.466955 0.036232 -0.017161
-0.466955 -0.036049 -0.038851
-0.466955 -0.065035 0.045868
-0.466955 -0.008571 0.070185
-0.466955 -0.027044 -0.052796
-0.466955 -0.026041 0.035868
-0.466955 -0.047400 0.074246
-0.466955 0.051542 0.030512
-0.466955 0.017321 -0.023134
-0.466955 0.028185 0.039248
-0.466955 -0.060583 -0.004982
-0.466955 -0.035289 0.090768
-0.466955 -0.007547 0.038691
-0.466955 0.043044 0.057855
-0.466955 0.022348 -0.037024
-0.466955 -0.029046 -0.085984
-0.466955 0.047490 0.029782
-0.466955 -0.057128 0.060077
-0.466955 -0.003646 -0.082051
-0.466955 0.090672 -0.009436
-0.466955 0.007680 0.055974
-0.466955 -0.046134 0.070943
-0.466955 -0.027781 0.067896
-0.466955 -0.072921 0.060637
-0.466955 0.040768 -0.087570
-0.466955 -0.072686 -0.036652
-0.466955 0.038706 0.090264
-0.466955 0.028334 0.017436
-0.466955 -0.071412 0.047215
-0.466955 -0.058004 0.075559
-0.466955 0.093749 0.004807
-0.466955 -0.034062 -0.054598
-0.466955 0.076833 -0.047196
-0.466955 -0.050695 0.061058
-0.466955 -0.004076 0.042051
-0.466955 0.010071 0.055377
-0.466955 0.041798 0.016911
-0.466955 0.068939 -0.021077
-0.466955 0.047435 -0.013503
-0.466955 0.071872 0.065460
-0.466955 -0.005466 0.004385
-0.466955 0.030734 0.013516
-0.466955 0.063430 -0.044912
-0.466955 -0.047627 0.030228
-0.466955 0.000222 0.095497
-0.466955 -0.057044 -0.074979
-0.466955 -0.092512 -0.016321
-0.466955 0.036957 0.020624
-0.466955 -0.050877 0.069328
-0.466955 0.061147 0.076380
-0.466955 0.023909 0.022319
-0.466955 0.069082 -0.065395
-0.466955 -0.083311 -0.036352
-0.466955 0.081098 -0.055403
-0.466955 -0.075350 -0.011360
-0.466955 -0.040451 0.088882
-0.466955 0.070069 0.065203
-0.466955 0.077269 0.009488
-0.466955 0.089383 0.035186
-0.466955 -0.062742 -0.050382
-0.466955 0.048209 -0.085076
-0.466955 -0.072631 0.018477
-0.466955 -0.038668 -0.081854
-0.466955 -0.011967 0.032379
-0.466955 0.015220 0.021739
-0.466955 0.019884 0.038537
-0.466955 0.013952 -0.054323
-0.466955 0.053556 0.061190
-0.466955 0.055011 0.018325
-0.466955 0.067291 -0.071745
-0.466955 0.052820 -0.056030
-0.466955 -0.008095 -0.062274
-0.466955 0.016360 0.050990
-0.466955 0.059890 -0.047392
-0.466955 -0.085961 0.047478
-0.466955 -0.038205 0.064889
-0.466955 -0.080879 0.005898
-0.466955 0.008783 0.015196
-0.466955 -0.025634 -0.022591
-0.466955 -0.023629 0.037630
-0.466955 -0.077419 -0.030253
-0.466955 -0.096311 0.011907
-0.466955 -0.001232 -0.050713
-0.466955 0.069901 -0.032823
-0.466955 -0.002600 0.020830
-0.466955 0.027125 0.032765
-0.466955 -0.039063 0.060844
-0.466955 -0.052319 0.054119
-0.466955 0.088228 0.003140
-0.466955 0.063959 -0.031164
-0.466955 0.025378 -0.066881
-0.466955 -0.025919 0.071051
-0.466955 -0.096944 -0.022393
-0.466955 0.002701 0.085286
-0.466955 0.062471 -0.003167
-0.466955 0.038481 0.076060
-0.466955 -0.055156 -0.055991
-0.466955 0.010233 0.015093
-0.466955 -0.094940 -0.028269
-0.466955 0.020976 0.087955
-0.466955 -0.031743 -0.033374
-0.466955 0.023340 0.042305
-0.466955 -0.013060 -0.052902
-0.466955 0.048821 0.077801
-0.466955 0.049378 -0.037930
-0.466955 0.002166 -0.094865
-0.466955 0.031097 -0.078949
-0.466955 0.022235 0.041382
-0.466955 0.048325 -0.060096
-0.466955 -0.086972 -0.018118
-0.466955 0.064817 0.037722
-0.466955 0.030757 -0.070082
-0.466955 0.021769 -0.007813
-0.466955 0.014091 0.094542
-0.466955 -0.000431 -0.027591
-0.466955 0.075752 -0.023936
-0.466955 0.016193 -0.022147
-0.466955 -0.091678 0.021132
-0.466955 -0.034157 -0.003325
-0.466955 -0.055595 -0.045849
-0.466955 0.027771 0.085640
-0.466955 -0.024517 -0.011322
-0.466955 0.034119 -0.038147
-0.466955 -0.006774 0.025722
-0.466955 0.029171 -0.042230
-0.466955 0.029052 -0.067763
-0.466955 -0.022067 0.039969
-0.466955 -0.004105 0.036299
-0.466955 -0.032887 0.094042
-0.466955 0.096468 -0.001489
-0.466955 -0.015264 0.074845
-0.466955 -0.052474 -0.024028
-0.466955 -0.004730 -0.029824
-0.466955 0.036294 -0.039868
-0.466955 0.039953 0.082182
-0.466955 0.059713 -0.072768
-0.466955 -0.039970 -0.040100
-0.466955 -0.035943 0.032182
-0.466955 -0.000374 0.024201
-0.466955 -0.010570 0.029597
-0.466955 0.060890 0.013515
-0.466955 0.000478 0.076989
-0.466955 0.057228 -0.014623
-0.466955 -0.074780 0.005599
-0.466955 -0.027151 0.085021
-0.466955 0.035007 0.036921
-0.466955 -0.040001 -0.026324
-0.466955 0.017280 -0.052982
-0.466955 0.069378 -0.015977
-0.466955 0.070136 -0.039223
-0.466955 0.018323 -0.050630
-0.466955 0.052044 -0.005297
-0.466955 -0.026629 -0.085062
-0.466955 -0.037536 -0.048251
-0.466955 0.007064 -0.077572
-0.466955 0.066809 -0.054608
-0.466955 -0.020506 0.007525
-0.466955 0.003907 -0.067105
-0.466955 -0.062454 -0.077093
-0.466955 -0.044086 0.077363
-0.466955 0.090691 0.011526
-0.466955 -0.001922 -0.037583
-0.466955 0.056312 0.063968
-0.466955 0.030208 0.007592
-0.466955 -0.017151 -0.079707
-0.466955 -0.087237 0.038706
-0.466955 -0.095263 -0.017983
-0.466955 0.057373 0.056049
-0.466955 0.034564 0.013038
-0.466955 -0.016649 -0.065312
-0.466955 0.035891 -0.031673
-0.466955 -0.017082 -0.057667
-0.466955 0.030025 -0.016764
-0.466955 -0.028067 -0.030419
-0.466955 0.034951 -0.029148
-0.466955 0.091544 0.028599
-0.466955 0.021058 -0.033044
-0.466955 -0.053738 0.013778
-0.466955 0.026052 0.092807
-0.466955 0.044301 -0.030760
-0.466955 0.004818 -0.052167
-0.466955 0.078476 0.029497
-0.466955 -0.049448 -0.010768
-0.466955 -0.031233 0.005708
-0.466955 0.002576 -0.039466
-0.466955 0.016379 0.088427
-0.466955 -0.023582 0.047498
-0.466955 -0.006888 -0.064596
-0.466955 0.048115 -0.086487
-0.466955 -0.022152 -0.080800
-0.466955 -0.021886 0.070360
-0.466955 0.016792 0.062625
-0.466955 -0.072001 0.002360
-0.466955 -0.072671 -0.046935
-0.466955 0.023365 -0.071738
-0.466955 0.014875 0.050691
-0.466955 -0.022559 -0.012891
-0.466955 0.040848 -0.022255
-0.466955 0.051021 -0.042561
-0.466955 0.017995 0.079272
-0.466955 0.049176 0.040768
-0.466955 0.052458 0.074419
-0.466955 -0.029159 0.026257
-0.466955 -0.045889 0.077193
-0.466955 0.022386 -0.046479
-0.466955 -0.069327 0.003693
-0.466955 -0.081847 -0.019444
-0.466955 0.072282 -0.037576
-0.466955 0.020263 0.025431
-0.466955 -0.075858 0.020672
-0.466955 0.039164 -0.023275
-0.466955 0.041766 0.055847
-0.466955 -0.038209 0.066579
-0.466955 -0.020360 0.090686
-0.466955 0.095600 -0.025392
-0.466955 0.039246 -0.085000
-0.466955 -0.086965 0.006866
-0.466955 -0.041667 0.014906
-0.466955 0.049709 0.014818
-0.466955 0.030355 0.067875
-0.466955 -0.007824 0.056179
-0.466955 0.000791 0.011415
-0.466955 0.009288 -0.012872
-0.466955 0.037627 -0.066583
-0.466955 -0.022550 0.067486
-0.466955 0.020079 0.079862
-0.466955 -0.063758 -0.038259
-0.466955 0.054067 0.019635
-0.466955 0.017586 0.006178
-0.466955 0.010793 -0.044793
-0.466955 0.006750 -0.047145
-0.466955 -0.053742 -0.008142
-0.466955 0.009235 -0.079800
-0.466955 0.092725 0.017393
-0.466955 -0.034479 0.086100
-0.466955 0.092664 0.019304
-0.466955 0.063261 0.062581
-0.466955 -0.050570 0.033063
-0.466955 0.033965 -0.042806
-0.466955 0.006093 0.072485
-0.466955 0.046546 0.027568
-0.466955 -0.035948 0.081537
-0.466955 0.048623 -0.025170
-0.466955 -0.031106 -0.026985
-0.466955 -0.060458 0.042025
-0.466955 0.055118 0.016638
-0.466955 -0.070421 -0.056282
-0.466955 -0.038669 -0.066308
-0.466955 0.088468 -0.018921
-0.466955 -0.036534 -0.040653
-0.466955 0.095561 -0.029118
-0.466955 0.042414 0.050253
-0.466955 -0.023069 -0.061706
-0.466955 -0.073364 0.030182
-0.466955 -0.011199 0.031090
-0.466955 0.067326 0.036452
-0.466955 0.003231 0.046729
-0.466955 0.090607 0.020091
-0.466955 -0.035616 -0.054057
-0.466955 -0.021179 -0.051012
-0.466955 -0.024612 0.021830
-0.466955 -0.026846 0.032864
-0.466955 0.082505 -0.044327
-0.466955 -0.046237 0.036184
-0.466955 0.075150 -0.007089
-0.466955 -0.007284 -0.060979
-0.466955 -0.040844 -0.046886
-0.466955 -0.022741 0.036153
-0.466955 0.066256 0.002702
-0.466955 -0.003587 -0.085875
-0.466955 -0.059719 0.021569
-0.466955 0.063021 -0.009363
-0.466955 -0.000814 -0.062759
-0.466955 -0.048468 0.007870
-0.466955 0.032224 -0.082339
-0.466955 -0.048679 0.035263
-0.466955 0.050453 -0.004599
-0.466955 0.060407 0.000927
-0.466955 0.022443 -0.010148
-0.466955 -0.062313 0.016679
