-0.466955 -0.036730 -0.035272
-0.466955 0.046577 -0.008040
-0.466955 0.005594 0.011843
-0.466955 -0.027012 -0.024560
-0.466955 -0.007128 -0.023104
-0.466955 -0.012536 0.024961
-0.466955 0.066266 0.054192
-0.466955 -0.055798 -0.082521
-0.466955 -0.001934 -0.000968
-0.466955 0.042732 0.060383
-0.466955 0.060326 -0.004629
-0.466955 0.023933 0.017039
-0.466955 -0.011253 0.070016
-0.466955 -0.041773 0.020650
-0.466955 -0.050654 0.000725
-0.466955 -0.052182 -0.041443
-0.466955 0.016559 0.084711
-0.466955 0.028458 0.028519
-0.466955 -0.045523 -0.059881
-0.466955 -0.002851 0.093242
-0.466955 -0.062447 -0.021809
-0.466955 -0.092477 0.002930
-0.466955 -0.051399 0.028482
-0.466955 0.087603 -0.030384
-0.466955 -0.037881 -0.068763
-0.466955 -0.066133 -0.030871
-0.466955 -0.047974 -0.039973
-0.466955 0.060278 0.070289
-0.466955 -0.009587 0.012218
-0.466955 -0.075542 -0.032142
-0.466955 0.023062 0.003253
-0.466955 -0.020822 -0.021250
-0.466955 -0.027624 0.058360
-0.466955 0.030238 -0.068233
-0.466955 -0.013339 0.044971
-0.466955 0.061316 -0.062544
-0.466955 -0.003858 0.064014
-0.466955 0.044442 -0.001688
-0.466955 -0.047773 0.084297
-0.466955 0.025287 -0.048646
-0.466955 0.099821 0.005517
-0.466955 -0.014294 -0.027962
-0.466955 0.071395 -0.017906
-0.466955 -0.052175 0.056545
-0.466955 0.057096 -0.037776
-0.466955 0.043128 0.078645
-0.466955 -0.020451 -0.094376
-0.466955 -0.026193 0.070851
-0.466955 0.028983 -0.014256
-0.466955 0.058535 -0.016514
-0.466955 0.078884 -0.037067
-0.466955 -0.088492 0.008749
-0.466955 -0.040875 -0.005760
-0.466955 -0.083209 -0.043545
-0.466955 -0.088391 -0.037103
-0.466955 -0.007636 0.017821
-0.466955 0.053183 -0.052456
-0.466955 -0.028873 0.054072
-0.466955 0.035343 0.034645
-0.466955 0.004022 -0.083472
-0.466955 0.078539 0.052575
-0.466955 -0.060643 -0.049367
-0.466955 0.015974 -0.060726
-0.466955 -0.044071 -0.054761
-0.466955 0.013439 0.070449
-0.466955 -0.016301 -0.048656
-0.466955 0.034980 -0.016766
-0.466955 -0.073837 0.060335
-0.466955 -0.086892 0.027997
-0.466955 -0.085335 0.043006
-0.466955 -0.007549 -0.044533
-0.466955 0.008994 0.077707
-0.466955 -0.001928 -0.090536
-0.466955 0.007244 -0.088283
-0.466955 -0.029863 0.024329
-0.466955 -0.059421 -0.000302
-0.466955 -0.028019 -0.000977
-0.466955 0.047938 -0.000269
-0.466955 0.091327 -0.038081
-0.466955 -0.072064 0.019698
-0.466955 -0.062973 -0.013006
-0.466955 0.043452 -0.062922
-0.466955 -0.053308 0.069416
-0.466955 0.025416 -0.083830
-0.466955 -0.076881 0.045685
-0.466955 0.025034 -0.032767
-0.466955 -0.010573 -0.060688
-0.466955 0.011446 0.044743
-0.466955 0.040338 0.068174
-0.466955 0.027477 0.053855
-0.466955 -0.080098 0.036821
-0.466955 -0.038158 0.092306
-0.466955 -0.033723 0.079271
-0.466955 -0.043605 0.075337
-0.466955 -0.051507 -0.084902
-0.466955 -0.025529 -0.045123
-0.466955 0.065083 0.005740
-0.466955 -0.048549 -0.036781
-0.466955 0.082262 0.045404
-0.466955 -0.039442 0.088101
-0.466955 -0.008833 -0.070287
-0.466955 0.026926 -0.046636
-0.466955 -0.043361 0.000104
-0.466955 -0.022076 0.066399
-0.466955 0.078533 -0.025969
-0.466955 -0.075954 -0.009848
-0.466955 0.088523 -0.014276
-0.466955 0.000737 0.051733
-0.466955 -0.042727 -0.027586
-0.466955 -0.097875 -0.002038
-0.466955 0.062625 0.004953
-0.466955 -0.045470 -0.015314
-0.466955 0.052731 0.032900
-0.466955 -0.075815 0.053359
-0.466955 -0.048697 0.047694
-0.466955 0.041155 -0.033737
-0.466955 0.074120 -0.066819
-0.466955 0.007964 -0.052118
-0.466955 -0.008874 -0.040358
-0.466955 -0.038260 0.068980
-0.466955 -0.030730 -0.009708
-0.466955 -0.055798 -0.015858
-0.466955 -0.037375 0.067560
-0.466955 0.043505 -0.027412
-0.466955 -0.006002 -0.022103
-0.466955 0.085401 -0.028031
-0.466955 0.029855 0.052557
-0.466955 0.045202 0.035042
-0.466955 0.016093 0.096573
-0.466955 0.050449 0.025650
-0.466955 0.040230 0.047361
-0.466955 -0.064997 0.034404
-0.466955 -0.014011 0.002080
-0.466955 0.004436 -0.090247
-0.466955 0.047821 0.011830
-0.466955 -0.067821 0.035302
-0.466955 -0.062164 -0.015225
-0.466955 0.008737 0.083469
-0.466955 -0.039872 -0.078376
-0.466955 0.094306 -0.013729
-0.466955 -0.056661 0.062011
-0.466955 0.006760 0.098323
-0.466955 -0.045680 0.073418
-0.466955 0.077495 0.035087
-0.466955 -0.020512 0.004742
-0.466955 -0.063160 -0.029248
-0.466955 -0.057652 -0.066223
-0.466955 -0.061688 0.016543
-0.466955 -0.084372 -0.006046
-0.466955 0.080853 -0.044198
-0.466955 0.074081 -0.050569
-0.466955 0.017346 0.072412
-0.466955 -0.020140 -0.039741
-0.466955 -0.074038 -0.023178
-0.466955 -0.007575 -0.039416
-0.466955 -0.028193 0.084551
-0.466955 -0.058917 0.065449
-0.466955 0.044044 0.083465
-0.466955 -0.037224 0.052868
-0.466955 0.065942 0.042485
-0.466955 -0.008039 -0.026449
-0.466955 0.087735 -0.022360
-0.466955 -0.038473 -0.078340
-0.466955 -0.009209 0.027510
-0.466955 -0.006026 -0.073192
-0.466955 0.038537 -0.010618
-0.466955 0.062193 -0.032991
-0.466955 0.008882 -0.027475
-0.466955 -0.023928 -0.037862
-0.466955 -0.001481 0.006499
-0.466955 -0.088866 0.007244
-0.466955 0.011543 -0.013056
-0.466955 -0.069559 -0.030677
-0.466955 0.064732 -0.037167
-0.466955 0.082616 -0.045897
-0.466955 0.076107 0.063732
-0.466955 0.034773 0.009315
-0.466955 0.052506 -0.029728
-0.466955 -0.045486 -0.055403
-0.466955 0.047660 -0.029103
-0.466955 -0.011277 -0.098294
-0.466955 0.022042 -0.031377
-0.466955 0.075157 0.008327
-0.466955 -0.031074 0.049922
-0.466955 -0.059057 0.029444
-0.466955 0.009306 0.001029
-0.466955 0.026329 -0.053564
-0.466955 -0.010789 0.033867
-0.466955 0.088834 0.027132
-0.466955 0.054330 0.056140
-0.466955 -0.068288 0.029718
-0.466955 0.032665 -0.007085
-0.466955 -0.030533 0.079857
-0.466955 0.016266 0.044347
-0.466955 0.034046 0.017151
-0.466955 -0.051881 -0.059355
-0.466955 0.025731 -0.092330
-0.466955 -0.007108 -0.037614
-0.466955 0.033915 0.066127
-0.466955 0.094820 0.011391
-0.466955 0.020792 -0.047705
-0.466955 0.063185 -0.037006
-0.466955 -0.023924 0.058237
-0.466955 -0.004870 0.045530
-0.466955 0.004992 0.079984
-0.466955 -0.042196 -0.005343
-0.466955 -0.096159 -0.017536
-0.466955 -0.037236 0.005182
-0.466955 -0.091339 0.019531
-0.466955 -0.085819 0.045036
-0.466955 0.037492 -0.069734
-0.466955 -0.027897 -0.059218
-0.466955 0.048252 -0.032909
-0.466955 0.013554 0.009134
-0.466955 -0.028977 -0.056017
-0.466955 0.036910 -0.030512
-0.466955 -0.009932 0.045681
-0.466955 0.062737 -0.022441
-0.466955 -0.000918 0.060896
-0.466955 -0.010341 0.006005
-0.466955 0.027443 -0.006538
-0.466955 -0.059419 -0.033848
-0.466955 0.036829 -0.008535
-0.466955 0.057672 -0.002307
-0.466955 -0.018542 0.043092
-0.466955 -0.014444 -0.039363
-0.466955 -0.098660 0.009726
-0.466955 0.071674 -0.013185
-0.466955 -0.003646 -0.054570
-0.466955 0.034801 -0.065148
-0.466955 -0.010468 0.003984
-0.466955 0.049857 -0.033286
-0.466955 0.017932 -0.056503
-0.466955 0.058678 -0.037215
-0.466955 0.017612 0.056742
-0.466955 0.066810 -0.067780
-0.466955 0.079330 0.053959
-0.466955 0.092520 0.030988
-0.466955 0.043343 -0.032571
-0.466955 0.031383 -0.094024
-0.466955 -0.036367 0.021583
-0.466955 0.053889 0.027006
-0.466955 0.027613 0.013605
-0.466955 0.061234 -0.053004
-0.466955 -0.083530 0.042772
-0.466955 -0.044555 -0.022270
-0.466955 -0.053824 -0.003625
-0.466955 0.049190 -0.071676
-0.466955 0.002622 -0.018792
-0.466955 -0.034750 0.037596
-0.466955 -0.057196 0.066572
-0.466955 0.021918 -0.004289
-0.466955 0.069193 0.001563
-0.466955 -0.061973 0.030219
-0.466955 -0.065721 -0.041862
-0.466955 0.047909 0.010120
-0.466955 -0.012975 0.062419
-0.466955 0.020655 0.038655
-0.466955 -0.031207 0.041297
-0.466955 -0.050595 0.020248
-0.466955 0.018065 0.053177
-0.466955 -0.005499 -0.064300
-0.466955 -0.026329 0.035676
-0.466955 0.002579 0.057559
-0.466955 0.034548 0.054896
-0.466955 -0.087047 -0.047824
-0.466955 -0.063868 -0.063202
-0.466955 0.068679 0.013069
-0.466955 -0.061862 -0.018215
-0.466955 -0.041118 -0.003004
-0.466955 0.078641 -0.027560
-0.466955 -0.099187 -0.003510
-0.466955 -0.057481 -0.078771
-0.466955 -0.027895 -0.041486
-0.466955 -0.071565 -0.033237
-0.466955 -0.091449 0.008936
-0.466955 0.072758 -0.023532
-0.466955 -0.047089 0.086837
-0.466955 -0.016695 0.001188
-0.466955 0.029643 -0.007894
-0.466955 0.030306 -0.077564
-0.466955 0.093805 0.004138
-0.466955 -0.007170 -0.046691
-0.466955 0.045811 0.085159
-0.466955 -0.025001 0.024822
-0.466955 -0.001973 -0.076362
-0.466955 0.007697 0.091008
-0.466955 0.046159 0.064119
-0.466955 0.089564 0.023469
-0.466955 0.007795 -0.005427
-0.466955 -0.003064 0.071396
-0.466955 -0.058548 0.073628
-0.466955 0.035400 0.017318
-0.466955 0.074490 0.023805
-0.466955 0.066997 -0.010282
-0.466955 0.026203 -0.003704
-0.466955 -0.029699 -0.045769
-0.466955 0.004313 0.001370
-0.466955 -0.089560 -0.013014
-0.466955 -0.012155 -0.088795
-0.466955 0.067406 0.003230
-0.466955 -0.004355 -0.004187
-0.466955 0.093260 -0.021337
-0.466955 -0.012294 -0.060908
-0.466955 -0.004728 -0.094478
-0.466955 -0.060971 -0.068454
-0.466955 -0.016824 0.066041
-0.466955 -0.061682 0.042085
-0.466955 0.030021 0.060790
-0.466955 0.023271 0.082368
-0.466955 0.086709 0.010883
-0.466955 -0.071229 0.014285
-0.466955 -0.003598 0.079657
-0.466955 0.075018 -0.033259
-0.466955 0.011957 0.070118
-0.466955 -0.077489 -0.014951
-0.466955 0.029926 0.000277
-0.466955 -0.029424 0.068010
-0.466955 -0.050074 -0.063411
-0.466955 -0.081757 -0.053714
-0.466955 -0.017955 0.036460
-0.466955 0.039854 0.014113
-0.466955 -0.090334 0.020713
-0.466955 -0.076614 0.003545
-0.466955 -0.054492 0.077096
-0.466955 0.039388 0.060983
-0.466955 0.036778 -0.033460
-0.466955 0.055994 0.056142
-0.466955 -0.002512 -0.073189
-0.466955 0.071999 -0.052937
-0.466955 -0.084764 -0.015111
-0.466955 0.016032 0.036533
-0.466955 0.041982 -0.013209
-0.466955 -0.093906 0.003496
-0.466955 -0.036389 0.047468
-0.466955 0.033710 -0.064293
-0.466955 -0.014678 -0.010631
-0.466955 0.038308 -0.043095
-0.466955 0.013712 -0.091037
-0.466955 -0.073887 0.023952
-0.466955 -0.001266 0.053296
-0.466955 0.006091 -0.007435
-0.466955 0.007643 -0.046146
-0.466955 -0.003444 -0.009103
-0.466955 0.020320 -0.087892
-0.466955 0.065665 -0.014465
-0.466955 0.055173 0.009074
-0.466955 -0.033812 -0.022731
-0.466955 0.059804 0.001208
-0.466955 0.009582 0.073362
-0.466955 0.095578 -0.018694
-0.466955 -0.071818 0.063395
-0.466955 -0.081768 -0.005817
-0.466955 -0.014992 -0.080227
-0.466955 -0.069672 0.025762
-0.466955 -0.063373 -0.075142
-0.466955 -0.031784 -0.021127
-0.466955 -0.007360 0.079876
-0.466955 0.052798 0.049689
-0.466955 0.073052 -0.035040
-0.466955 0.050883 -0.049513
-0.466955 0.053358 0.059229
-0.466955 0.037363 0.023173
-0.466955 -0.053689 0.018579
-0.466955 0.003199 -0.010227
-0.466955 -0.090734 -0.019774
-0.466955 0.032550 -0.092150
-0.466955 -0.014437 0.070139
-0.466955 0.086129 0.004685
-0.466955 -0.005442 -0.016651
-0.466955 -0.008596 -0.083339
-0.466955 -0.003272 0.000166
-0.466955 0.049281 0.086857
-0.466955 0.000777 0.002927
-0.466955 -0.054174 -0.037444
-0.466955 -0.009406 0.088727
-0.466955 0.034998 0.040059
-0.466955 -0.004302 0.033123
-0.466955 -0.047319 -0.083464
-0.466955 0.043040 0.030224
-0.466955 0.077661 0.042998
-0.466955 -0.092984 -0.019465
-0.466955 0.085812 0.008695
-0.466955 0.094225 0.020966
-0.466955 -0.059734 0.059998
-0.466955 -0.006724 0.078325
-0.466955 0.048730 -0.070046
-0.466955 0.080573 -0.024032
-0.466955 -0.036470 -0.064756
-0.466955 -0.006728 0.074801
-0.466955 0.087614 0.037093
-0.466955 0.040130 0.070280
-0.466955 -0.064266 0.045084
-0.466955 0.024747 -0.035683
-0.466955 -0.067161 0.011642
-0.466955 -0.062815 0.077012
-0.466955 -0.001838 0.082393
-0.466955 -0.010338 0.018479
-0.466955 0.020446 -0.002989
-0.466955 -0.014558 0.039542
-0.466955 0.024408 -0.071484
-0.466955 -0.062059 -0.072457
-0.466955 0.026387 -0.050345
-0.466955 -0.047325 -0.068031
-0.466955 0.039042 0.025987
-0.466955 0.076084 0.053679
-0.466955 -0.032743 0.028707
-0.466955 0.033143 -0.034109
-0.466955 0.048265 -0.068445
-0.466955 -0.013513 -0.090092
-0.466955 -0.080230 -0.058592
-0.466955 0.021574 0.071783
-0.466955 0.036058 0.031111
-0.466955 -0.048475 0.059738
-0.466955 -0.014706 -0.056483
-0.466955 -0.030609 0.081422
-0.466955 0.064564 -0.015681
-0.466955 0.035702 0.057811
-0.466955 -0.008307 0.078818
-0.466955 0.035604 0.080822
-0.466955 0.006535 -0.024714
-0.466955 0.045719 -0.033901
-0.466955 0.040152 -0.086119
-0.466955 0.014464 -0.061297
-0.466955 0.075055 -0.046595
-0.466955 -0.026229 -0.058691
-0.466955 -0.018040 -0.003488
-0.466955 0.084013 -0.030517
-0.466955 0.052322 -0.001403
-0.466955 -0.030574 -0.090327
-0.466955 -0.009830 0.044085
-0.466955 -0.010959 0.096029
-0.466955 0.063596 -0.030596
-0.466955 -0.085892 0.006170
-0.466955 0.023407 0.010112
-0.466955 0.026535 0.016609
-0.466955 -0.020990 0.039487
-0.466955 0.026077 -0.019988
-0.466955 0.002339 0.026123
-0.466955 -0.077096 -0.036576
-0.466955 0.051397 -0.061371
-0.466955 0.032582 0.082510
-0.466955 0.024194 0.055024
-0.466955 0.010959 -0.027942
-0.466955 -0.003971 0.091938
-0.466955 -0.029844 0.074905
-0.466955 0.042535 0.063488
-0.466955 -0.064331 -0.022991
-0.466955 0.004447 0.077044
-0.466955 -0.070990 -0.038083
-0.466955 0.065027 0.002249
-0.466955 -0.067720 -0.068010
-0.466955 -0.032283 0.045050
-0.466955 0.005902 0.007994
-0.466955 0.040900 0.073616
-0.466955 -0.049441 -0.006034
-0.466955 -0.019786 -0.017530
-0.466955 -0.092150 0.023544
-0.466955 -0.042651 0.058998
-0.466955 0.089766 -0.034855
-0.466955 0.062648 -0.039403
-0.466955 -0.024184 -0.091787
-0.466955 -0.042322 -0.079579
-0.466955 -0.039296 0.018710
-0.466955 -0.015775 0.070597
-0.466955 0.069451 0.059122
-0.466955 -0.076946 0.038459
-0.466955 0.021867 -0.083199
-0.466955 -0.049856 0.040061
-0.466955 0.059007 0.063915
-0.466955 0.070010 -0.027981
-0.466955 0.054691 -0.083328
-0.466955 -0.023430 -0.072064
-0.466955 -0.027767 -0.054657
-0.466955 -0.074251 0.030227
-0.466955 0.010439 0.048626
-0.466955 0.008781 -0.097052
-0.466955 0.038446 0.001749
-0.466955 0.036286 -0.084324
-0.466955 -0.018406 -0.040897
-0.466955 -0.000493 -0.064397
-0.466955 -0.006584 -0.028125
-0.466955 -0.051463 0.062886
-0.466955 0.027908 0.075410
-0.466955 0.054274 0.052912
-0.466955 0.030904 0.083668
-0.466955 0.075552 0.024738
-0.466955 -0.082093 -0.028600
-0.466955 -0.063813 0.031409
-0.466955 -0.015316 0.005800
-0.466955 -0.014141 -0.069111
-0.466955 -0.027532 0.048878
-0.466955 0.052414 0.031500
-0.466955 -0.022762 0.092755
-0.466955 -0.021186 0.023369
-0.466955 0.005972 0.061789
-0.466955 -0.000221 -0.009873
-0.466955 -0.026193 0.049368
-0.466955 -0.085405 -0.018498
-0.466955 0.096912 0.021695
-0.466955 0.041047 -0.032080
-0.466955 -0.051386 -0.014711
-0.466955 -0.014017 -0.051911
-0.466955 0.060694 0.050815
-0.466955 -0.029152 -0.002066
-0.466955 0.011843 0.025770
-0.466955 -0.042538 0.070330
-0.466955 0.041743 0.041658
-0.466955 -0.051676 0.068911
-0.466955 0.077203 -0.054808
-0.466955 0.011186 -0.015419
-0.466955 -0.021382 0.024930
-0.466955 -0.025043 0.013070
-0.466955 -0.080227 -0.006712
-0.466955 -0.042506 -0.088940
-0.466955 -0.019588 -0.066239
-0.466955 0.062085 -0.055331
-0.466955 0.006610 -0.071025
-0.466955 -0.071531 -0.019422
-0.466955 -0.095647 -0.019133
-0.466955 -0.035631 -0.010924
-0.466955 -0.008630 -0.014973
-0.466955 -0.002231 0.088681
-0.466955 -0.028929 -0.031285
-0.466955 0.047756 -0.084886
-0.466955 -0.039042 0.023632
-0.466955 -0.002893 -0.047886
-0.466955 -0.040426 -0.043519
-0.466955 0.060396 -0.009051
-0.466955 -0.028195 0.031808
-0.466955 0.086533 -0.049381
-0.466955 0.004737 0.056206
-0.466955 -0.012341 -0.029496
-0.466955 0.009635 0.094152
-0.466955 -0.092446 -0.031543
-0.466955 -0.023722 -0.050145
-0.466955 0.031178 0.071388
-0.466955 0.068211 -0.029199
-0.466955 -0.012698 -0.034168
-0.466955 0.017193 0.045478
-0.466955 -0.026822 0.007259
-0.466955 0.023306 0.005076
-0.466955 0.062378 -0.031506
-0.466955 -0.084920 0.030858
-0.466955 0.014544 -0.047853
-0.466955 -0.018391 -0.012881
-0.466955 0.060166 0.036265
-0.466955 0.079316 0.012581
-0.466955 -0.012930 0.069748
-0.466955 -0.044160 -0.074992
-0.466955 0.031241 0.001672
-0.466955 -0.064024 0.075955
-0.466955 0.022163 -0.013752
-0.466955 -0.079295 0.058133
-0.466955 -0.051389 -0.010030
-0.466955 0.073200 0.043695
-0.466955 0.002276 0.022212
-0.466955 0.026075 0.020800
-0.466955 0.070657 -0.049073
-0.466955 0.067105 0.025003
-0.466955 -0.004937 0.018452
-0.466955 0.024562 -0.038923
-0.466955 -0.059398 0.063187
-0.466955 0.035113 -0.069067
-0.466955 0.010786 -0.085495
-0.466955 0.036780 -0.060149
-0.466955 0.080986 0.004704
-0.466955 0.047514 0.023273
-0.466955 0.040454 -0.055248
-0.466955 -0.018189 -0.057029
-0.466955 0.017550 -0.013144
-0.466955 -0.040647 -0.087889
-0.466955 0.081885 -0.026986
-0.466955 0.072405 0.056952
-0.466955 0.052632 0.029012
-0.466955 0.021145 0.027799
-0.466955 0.082621 0.000828
-0.466955 -0.095590 0.024223
-0.466955 -0.003867 0.002385
-0.466955 -0.010724 0.016600
-0.466955 0.024231 0.076863
-0.466955 0.097063 0.023355
-0.466955 0.060156 0.079395
-0.466955 0.068148 0.036793
-0.466955 -0.010719 0.027440
-0.466955 0.029367 0.082371
-0.466955 0.092124 -0.017218
-0.466955 0.031929 -0.040237
-0.466955 -0.050059 -0.079073
-0.466955 0.014452 0.003986
-0.466955 0.009632 -0.009465
-0.466955 0.060191 0.012140
-0.466955 -0.026976 0.055334
-0.466955 -0.017453 0.022507
-0.466955 0.006871 0.044169
-0.466955 0.001130 0.038383
-0.466955 -0.058506 -0.057103
-0.466955 0.063157 -0.026831
-0.466955 -0.089378 -0.019184
-0.466955 -0.003238 0.005241
-0.466955 -0.027046 0.019966
-0.466955 0.028559 -0.019001
-0.466955 -0.003658 -0.018461
-0.466955 0.033778 -0.055238
-0.466955 0.006657 -0.092150
-0.466955 0.081655 -0.004465
-0.466955 0.045664 -0.029236
-0.466955 -0.081808 -0.000236
-0.466955 0.084737 -0.011364
-0.466955 -0.019035 0.074050
-0.466955 -0.057789 -0.004825
-0.466955 0.001396 -0.083272
-0.466955 -0.058712 0.056550
-0.466955 -0.035335 -0.034480
-0.466955 0.017270 0.095277
-0.466955 0.069770 0.043522
-0.466955 0.012142 -0.044353
-0.466955 -0.074775 0.056381
-0.466955 0.017523 0.036900
-0.466955 -0.081104 0.057716
-0.466955 0.068244 0.033587
-0.466955 0.052704 0.022678
-0.466955 0.070790 -0.010668
-0.466955 -0.011375 0.011015
-0.466955 0.038714 -0.013396
-0.466955 -0.044587 -0.086360
-0.466955 0.036877 0.052327
-0.466955 -0.040433 0.038723
-0.466955 -0.009968 0.094617
-0.466955 -0.024220 -0.005070
-0.466955 0.015406 0.031039
-0.466955 -0.044032 0.070586
-0.466955 0.029225 -0.076317
-0.466955 -0.012841 0.056953
-0.466955 0.014053 -0.054084
-0.466955 0.064264 -0.059459
-0.466955 -0.084436 0.001296
-0.466955 -0.019902 0.043362
-0.466955 0.064982 0.069561
-0.466955 -0.054527 -0.075994
-0.466955 0.073301 0.055686
-0.466955 -0.023978 0.065922
-0.466955 -0.056737 -0.064204
-0.466955 -0.000950 -0.059500
-0.466955 0.033819 -0.023542
-0.466955 -0.067394 0.025774
-0.466955 -0.039289 0.062604
-0.466955 -0.016804 0.087809
-0.466955 0.013284 0.075810
-0.466955 0.029788 -0.063399
-0.466955 0.059966 0.074034
-0.466955 0.030110 -0.074958
-0.466955 0.033704 0.059376
-0.466955 -0.000427 -0.075446
-0.466955 -0.035404 -0.014464
-0.466955 -0.005763 -0.098979
-0.466955 0.014663 0.027461
-0.466955 0.016511 0.048461
-0.466955 0.018637 -0.015066
-0.466955 0.019815 0.000603
-0.466955 0.041723 0.009757
-0.466955 0.059326 -0.066170
-0.466955 -0.065875 0.069782
-0.466955 -0.034203 -0.069317
-0.466955 0.074339 0.054097
-0.466955 0.000096 -0.008096
-0.466955 -0.027330 -0.088097
-0.466955 -0.081591 -0.031025
-0.466955 0.074260 -0.056856
-0.466955 -0.061502 0.068352
-0.466955 0.011086 0.003375
-0.466955 -0.077290 0.000572
-0.466955 -0.009141 0.038321
-0.466955 0.042603 -0.045013
-0.466955 -0.031927 0.009337
-0.466955 -0.077539 -0.010584
-0.466955 0.032231 -0.077405
-0.466955 -0.076149 0.017941
-0.466955 -0.017397 -0.084536
-0.466955 0.082005 -0.056618
-0.466955 0.073216 0.065538
-0.466955 0.039644 -0.027284
-0.466955 -0.010128 -0.091273
-0.466955 -0.071217 0.064775
-0.466955 0.042232 0.045394
-0.466955 0.030328 -0.018887
-0.466955 -0.006437 0.090633
-0.466955 0.036960 -0.022384
-0.466955 -0.078740 -0.029312
-0.466955 0.090295 0.007731
-0.466955 -0.065759 0.052995
-0.466955 -0.051162 -0.075824
-0.466955 -0.035950 -0.004167
-0.466955 -0.091063 -0.027629
-0.466955 0.046311 -0.045905
-0.466955 0.068594 0.006515
-0.466955 0.006415 0.035287
-0.466955 -0.023336 0.064475
-0.466955 -0.000673 0.014290
-0.466955 -0.078147 0.037522
-0.466955 -0.007616 -0.063329
-0.466955 -0.000332 0.010178
-0.466955 -0.028784 -0.020987
-0.466955 -0.044758 -0.035689
-0.466955 0.075370 0.015470
-0.466955 0.066883 0.056363
-0.466955 -0.012411 -0.020631
-0.466955 0.014575 0.040171
-0.466955 -0.024544 -0.033687
-0.466955 0.036711 -0.004328
-0.466955 0.019364 -0.069608
-0.466955 0.013375 -0.057028
-0.466955 0.070770 0.028558
-0.466955 0.008836 0.079483
-0.466955 -0.016004 -0.093250
-0.466955 0.082880 0.009624
-0.466955 -0.017421 -0.017717
-0.466955 -0.092614 0.005946
-0.466955 -0.050756 0.008241
-0.466955 0.000632 0.080575
-0.466955 0.011964 0.031568
-0.466955 0.001573 0.082000
-0.466955 0.056897 0.081007
-0.466955 0.061896 0.072551
-0.466955 -0.046849 -0.064684
-0.466955 -0.031216 -0.032899
-0.466955 -0.072170 -0.012543
-0.466955 0.071275 -0.050468
-0.466955 0.012949 0.084481
-0.466955 -0.044916 0.000724
-0.466955 -0.070127 0.002565
-0.466955 -0.053648 -0.039388
-0.466955 0.073095 0.035422
-0.466955 0.028448 0.068493
-0.466955 -0.016735 -0.079873
-0.466955 0.028278 0.044128
-0.466955 0.041593 0.070909
-0.466955 -0.005217 0.051470
-0.466955 -0.058019 0.067744
-0.466955 -0.024163 -0.002431
-0.466955 -0.049592 -0.052705
-0.466955 0.090828 -0.005509
-0.466955 0.035919 -0.014517
-0.466955 0.046996 -0.006428
-0.466955 -0.068340 -0.072416
-0.466955 -0.078565 -0.005885
-0.466955 -0.023268 0.028981
-0.466955 0.064360 -0.070698
-0.466955 0.075382 -0.014730
-0.466955 0.017596 -0.081898
-0.466955 0.029739 0.033164
-0.466955 -0.075052 -0.003174
-0.466955 -0.011377 0.075873
-0.466955 -0.002832 -0.032424
-0.466955 -0.056373 0.005872
-0.466955 -0.014022 0.000545
-0.466955 0.035624 0.084409
-0.466955 -0.046175 0.077910
-0.466955 0.004159 0.062391
-0.466955 0.024447 -0.081757
-0.466955 0.008887 -0.070697
-0.466955 -0.010515 -0.017462
-0.466955 -0.005293 -0.018164
-0.466955 -0.001976 -0.049387
-0.466955 0.064246 0.022604
-0.466955 -0.034982 -0.024015
-0.466955 0.065146 -0.020618
-0.466955 0.035620 0.067305
-0.466955 0.057068 0.000925
-0.466955 0.035891 -0.051576
-0.466955 -0.052007 -0.036451
-0.466955 0.067364 0.001210
-0.466955 0.019485 0.035873
-0.466955 -0.000295 0.005156
-0.466955 -0.023622 0.013338
-0.466955 0.008693 -0.037801
-0.466955 0.042101 -0.041640
-0.466955 -0.002102 -0.029843
-0.466955 0.093313 0.011419
-0.466955 -0.043871 0.089362
-0.466955 0.008331 -0.058912
-0.466955 0.053766 0.071394
-0.466955 -0.080127 0.005270
-0.466955 0.007939 0.081523
-0.466955 0.037897 -0.027913
-0.466955 0.073630 -0.006667
-0.466955 0.070146 -0.032144
-0.466955 0.076578 0.038845
-0.466955 -0.005428 0.097262
-0.466955 0.011850 0.011227
-0.466955 -0.045272 0.013389
-0.466955 -0.035881 0.023097
-0.466955 -0.011070 -0.023927
-0.466955 -0.099466 -0.004996
-0.466955 0.047197 0.062869
-0.466955 0.009978 0.006567
-0.466955 0.065726 0.055625
-0.466955 -0.039888 0.022215
-0.466955 -0.084627 0.011604
-0.466955 0.088970 -0.018110
-0.466955 -0.057826 -0.071570
-0.466955 0.061937 -0.012531
-0.466955 0.012983 -0.011113
-0.466955 0.005197 0.027179
-0.466955 -0.092444 0.020513
-0.466955 0.032442 -0.084732
-0.466955 0.048247 -0.016830
-0.466955 0.080241 -0.051073
-0.466955 0.088001 -0.035526
-0.466955 -0.015820 0.053391
-0.466955 -0.055659 -0.023213
-0.466955 -0.002225 0.027189
-0.466955 -0.081947 -0.015149
-0.466955 0.087387 0.048471
-0.466955 0.058738 0.019112
-0.466955 -0.000877 0.073646
-0.466955 0.005594 0.040459
-0.466955 -0.004749 0.078650
-0.466955 0.050790 -0.062875
-0.466955 0.021466 -0.054879
-0.466955 0.078324 0.049519
-0.466955 0.053643 0.074807
-0.466955 0.022889 0.053851
-0.466955 -0.080871 0.018379
-0.466955 0.026808 -0.067704
-0.466955 0.007309 0.054200
-0.466955 -0.038050 -0.014879
-0.466955 0.052165 -0.033972
-0.466955 0.006743 0.030795
-0.466955 -0.031517 0.046295
-0.466955 -0.004570 0.065298
-0.466955 0.037615 0.065645
-0.466955 -0.045524 -0.057101
-0.466955 -0.067468 0.052505
-0.466955 0.018951 -0.082553
-0.466955 0.043777 0.045890
-0.466955 -0.019143 0.014430
-0.466955 0.034871 -0.052648
-0.466955 0.070664 0.003773
-0.466955 -0.031138 -0.039325
-0.466955 -0.005010 0.023120
-0.466955 -0.030389 0.077934
-0.466955 -0.036675 0.006916
-0.466955 0.097770 0.003859
-0.466955 0.049426 -0.026127
-0.466955 -0.031784 -0.025278
-0.466955 0.062715 -0.056790
-0.466955 0.039308 -0.063927
-0.466955 -0.051858 0.001815
-0.466955 0.002957 -0.091088
-0.466955 -0.078375 0.049158
-0.466955 0.050152 0.041520
-0.466955 -0.026418 -0.080644
-0.466955 0.063137 -0.002634
-0.466955 -0.025154 -0.006436
-0.466955 0.057160 -0.033746
-0.466955 -0.004259 0.077251
-0.466955 0.086044 -0.019478
-0.466955 0.020686 0.047912
-0.466955 -0.020819 -0.063768
-0.466955 -0.040324 -0.068972
-0.466955 0.096442 -0.008732
-0.466955 0.035435 0.049595
-0.466955 0.020672 0.026354
-0.466955 -0.053233 0.038379
-0.466955 -0.075789 -0.040401
-0.466955 -0.012866 -0.028007
-0.466955 -0.093134 -0.012360
-0.466955 0.053979 -0.005237
-0.466955 -0.042171 0.012035
-0.466955 -0.078891 -0.002472
-0.466955 0.009051 -0.023629
-0.466955 -0.015424 0.024879
-0.466955 0.012746 0.067135
-0.466955 -0.083640 -0.033500
-0.466955 0.084548 0.010105
-0.466955 -0.065092 0.058080
-0.466955 -0.016255 -0.085463
-0.466955 0.055970 0.026846
-0.466955 0.058147 -0.004551
-0.466955 -0.002765 0.020972
-0.466955 -0.007499 0.088380
-0.466955 0.055159 0.006827
-0.466955 0.065245 -0.002251
-0.466955 0.011251 0.099262
-0.466955 -0.076346 0.047118
-0.466955 0.000749 -0.026122
-0.466955 0.057656 0.066595
-0.466955 -0.030530 -0.025922
-0.466955 -0.050225 0.069673
-0.466955 0.037448 -0.044358
-0.466955 0.014630 0.058466
-0.466955 -0.001615 -0.074777
-0.466955 0.066500 0.073845
-0.466955 0.058582 -0.070750
-0.466955 -0.021521 0.033728
-0.466955 -0.000820 0.008365
-0.466955 -0.021501 -0.056221
-0.466955 -0.024332 0.059676
-0.466955 0.061632 0.070366
-0.466955 -0.009987 0.015162
-0.466955 -0.016233 0.056774
-0.466955 0.069350 0.023404
-0.466955 -0.010549 -0.094979
-0.466955 0.066968 -0.022965
-0.466955 -0.085987 0.013132
-0.466955 -0.052045 -0.081602
-0.466955 0.040072 -0.001470
-0.466955 -0.079247 -0.003997
-0.466955 0.050834 0.039336
-0.466955 0.009704 0.002418
-0.466955 -0.031761 0.057592
-0.466955 -0.065787 -0.048825
-0.466955 -0.099051 0.008192
-0.466955 -0.024745 0.086519
-0.466955 0.006963 0.055666
-0.466955 0.018519 -0.066202
-0.466955 0.009248 0.027014
-0.466955 -0.007791 -0.078245
-0.466955 0.066572 -0.044318
-0.466955 -0.074382 0.065332
-0.466955 0.071514 -0.024642
-0.466955 0.082056 -0.035326
-0.466955 0.015527 -0.026685
-0.466955 -0.079880 -0.012947
-0.466955 -0.075285 -0.033753
-0.466955 -0.086913 -0.018142
-0.466955 -0.044457 -0.020049
-0.466955 -0.062440 -0.019675
-0.466955 0.039657 -0.058999
-0.466955 0.070718 -0.019358
-0.466955 0.019603 -0.074272
-0.466955 -0.039249 -0.003058
-0.466955 0.055374 0.042412
-0.466955 0.012079 -0.088400
-0.466955 -0.072015 -0.061480
-0.466955 0.008164 -0.092552
-0.466955 -0.022925 0.043895
-0.466955 0.082310 0.018126
-0.466955 -0.042580 0.005062
-0.466955 -0.059349 0.035227
-0.466955 -0.050544 -0.048519
-0.466955 -0.038897 -0.001570
-0.466955 -0.058576 0.013627
-0.466955 0.083710 0.004692
-0.466955 -0.004817 0.061836
-0.466955 -0.070859 -0.059501
-0.466955 0.098473 0.002159
-0.466955 -0.013885 -0.047678
-0.466955 0.021037 -0.008442
-0.466955 0.013503 -0.039796
-0.466955 -0.048596 -0.034218
-0.466955 0.040326 -0.035077
-0.466955 -0.063166 0.022012
-0.466955 -0.082872 0.011840
-0.466955 -0.012018 -0.008763
-0.466955 -0.026137 -0.016872
-0.466955 0.050962 0.046365
-0.466955 -0.070071 0.024286
-0.466955 0.087892 0.032017
-0.466955 -0.085821 0.004172
-0.466955 -0.008096 -0.028159
-0.466955 -0.032318 0.066468
-0.466955 -0.031272 0.035044
-0.466955 0.003525 0.033632
-0.466955 0.050239 -0.078736
-0.466955 0.017568 0.004272
-0.466955 -0.048356 -0.015519
-0.466955 -0.088162 -0.035512
-0.466955 0.044408 -0.067856
-0.466955 0.046117 0.077769
-0.466955 -0.040807 0.019355
-0.466955 -0.052329 -0.039957
-0.466955 -0.080902 -0.001680
-0.466955 -0.083338 -0.015180
-0.466955 0.088210 -0.026594
-0.466955 -0.065986 0.002548
-0.466955 -0.032869 0.041984
-0.466955 0.001012 -0.070358
-0.466955 -0.003555 0.050621
-0.466955 0.040224 0.041583
-0.466955 0.048835 0.028906
-0.466955 0.050584 -0.055736
-0.466955 -0.012151 0.041990
-0.466955 0.033527 0.030558
-0.466955 0.026065 -0.001917
-0.466955 -0.042113 -0.013353
-0.466955 0.093972 -0.027933
-0.466955 0.042502 0.007342
-0.466955 -0.056824 0.057101
-0.466955 0.025903 -0.039690
-0.466955 -0.060207 -0.038407
-0.466955 0.078599 0.015772
-0.466955 0.009171 0.035166
-0.466955 -0.025468 0.046338
-0.466955 -0.039269 -0.083910
-0.466955 0.009066 0.090435
-0.466955 0.019799 0.054707
-0.466955 0.067028 0.011766
-0.466955 -0.002984 0.045545
-0.466955 0.085829 -0.012806
-0.466955 0.019940 0.005874
-0.466955 -0.091354 0.030321
-0.466955 0.007624 0.061205
-0.466955 -0.086627 0.032006
-0.466955 -0.034312 -0.056019
-0.466955 -0.050535 0.058685
-0.466955 0.005854 0.058593
-0.466955 0.026719 0.044034
-0.466955 0.089959 -0.009564
-0.466955 0.041601 -0.058434
-0.466955 0.044253 -0.026243
-0.466955 -0.074355 -0.037589
-0.466955 -0.080443 0.023583
-0.466955 -0.043111 -0.058759
-0.466955 -0.022443 -0.082253
-0.466955 0.004060 0.092117
-0.466955 -0.042365 0.044580
-0.466955 0.009613 0.075043
-0.466955 -0.054308 0.027019
-0.466955 0.012226 -0.026886
-0.466955 0.031275 0.018485
-0.466955 0.008132 -0.062912
-0.466955 -0.035314 0.015807
-0.466955 0.011970 -0.025485
-0.466955 -0.029506 -0.041344
-0.466955 -0.026712 0.031564
-0.466955 0.077127 -0.061358
-0.466955 -0.046286 -0.084717
-0.466955 0.011101 0.068699
-0.466955 0.036239 -0.055632
-0.466955 0.048320 0.056434
-0.466955 -0.068819 -0.063546
-0.466955 -0.010074 -0.056778
-0.466955 0.029274 0.036641
-0.466955 -0.037010 -0.047644
-0.466955 -0.001961 -0.012052
-0.466955 -0.091345 0.014541
-0.466955 -0.041121 -0.059231
-0.466955 -0.065187 -0.043462
-0.466955 0.062353 0.061892
-0.466955 -0.021764 -0.091879
-0.466955 0.004739 -0.053890
-0.466955 -0.036376 -0.012282
-0.466955 0.000571 0.039800
-0.466955 0.018870 -0.077326
-0.466955 0.025230 -0.028670
-0.466955 0.066172 0.067474
-0.466955 0.027625 -0.025033
-0.466955 0.041527 0.055374
-0.466955 0.045827 0.012154
-0.466955 0.042015 -0.024591
-0.466955 -0.021192 -0.077930
-0.466955 -0.059768 0.046123
-0.466955 -0.018496 0.065874
-0.466955 -0.074243 0.043641
-0.466955 -0.098036 -0.018141
-0.466955 0.026006 -0.073747
-0.466955 -0.085317 0.040794
-0.466955 0.056147 -0.040923
-0.466955 0.055863 -0.068753
-0.466955 -0.021991 -0.019741
-0.466955 0.025928 0.084671
-0.466955 0.076052 0.057854
-0.466955 -0.075247 -0.023913
-0.466955 -0.031183 0.006670
-0.466955 0.074215 0.052077
-0.466955 0.064731 -0.026867
-0.466955 -0.022424 -0.012622
-0.466955 -0.025312 -0.081881
-0.466955 0.054849 0.030801
-0.466955 0.013420 0.028359
-0.466955 0.071434 0.012504
-0.466955 0.057192 0.037944
-0.466955 0.042859 -0.067355
-0.466955 -0.052401 -0.004187
-0.466955 -0.037004 0.085971
-0.466955 0.026778 -0.072392
-0.466955 -0.012204 -0.082695
-0.466955 -0.053085 0.036859
-0.466955 0.009664 0.045359
-0.466955 0.056428 -0.080808
-0.466955 -0.017237 -0.019697
-0.466955 0.013746 0.025998
-0.466955 0.085516 -0.029468
-0.466955 0.042431 0.049119
-0.466955 -0.083122 -0.013512
-0.466955 -0.056717 0.015811
-0.466955 -0.046964 -0.033367
-0.466955 0.035154 -0.007207
-0.466955 0.031164 0.085472
-0.466955 -0.006530 -0.058278
-0.466955 -0.048599 -0.017223
-0.466955 -0.056978 -0.080914
-0.466955 -0.049948 -0.040112
-0.466955 0.025324 -0.087609
-0.466955 0.017500 0.021839
-0.466955 0.067791 -0.048067
-0.466955 -0.068852 0.048063
-0.466955 0.058225 -0.051504
-0.466955 -0.095315 0.009325
-0.466955 -0.054901 0.015048
-0.466955 0.047662 0.084630
-0.466955 -0.004407 -0.087876
-0.466955 0.065330 -0.053245
-0.466955 -0.008814 0.056311
-0.466955 0.036735 0.063384
-0.466955 0.040094 -0.021951
-0.466955 0.033389 -0.008374
-0.466955 0.042549 -0.034504
-0.466955 -0.042377 0.065658
-0.466955 0.006005 0.017462
-0.466955 -0.052277 -0.005638
-0.466955 -0.017582 0.049001
-0.466955 -0.023632 0.030410
-0.466955 -0.041302 -0.053490
-0.466955 0.095632 0.021027
-0.466955 0.028126 -0.084723
-0.466955 -0.083391 0.046820
-0.466955 0.016439 0.003206
-0.466955 0.009249 -0.081851
-0.466955 -0.039911 -0.038671
-0.466955 0.073987 0.037316
-0.466955 0.046483 0.061632
-0.466955 -0.030188 -0.020728
-0.466955 0.010547 0.036933
-0.466955 0.046108 0.081500
-0.466955 -0.003597 -0.074019
-0.466955 0.020551 -0.046111
-0.466955 -0.010739 0.068119
-0.466955 0.020628 -0.065377
-0.466955 0.099537 -0.007713
-0.466955 -0.038033 0.061914
-0.466955 0.072257 -0.011444
-0.466955 0.047099 0.070382
-0.466955 0.067738 0.029181
-0.466955 0.009339 -0.077899
-0.466955 0.055893 -0.001787
-0.466955 0.005069 -0.044465
-0.466955 -0.034678 0.043912
-0.466955 -0.053058 -0.009166
-0.466955 -0.032700 -0.083023
-0.466955 -0.062475 -0.061510
-0.466955 0.007956 0.065986
-0.466955 -0.067052 -0.062675
-0.466955 0.023276 0.061049
-0.466955 -0.028665 0.020974
-0.466955 -0.055283 0.013498
-0.466955 0.028367 0.055126
-0.466955 -0.034225 0.003317
-0.466955 0.057779 0.040900
-0.466955 0.013582 0.012619
-0.466955 0.022269 0.086321
-0.466955 0.075060 -0.021148
-0.466955 -0.007958 0.077344
-0.466955 -0.099209 0.006395
-0.466955 -0.016320 -0.078365
-0.466955 0.077770 0.048230
-0.466955 0.050475 -0.036094
-0.466955 0.058937 0.069551
-0.466955 0.093248 -0.003546
-0.466955 0.052285 0.037192
-0.466955 -0.034198 0.074867
-0.466955 -0.068763 -0.023491
-0.466955 0.061507 0.054954
-0.466955 -0.022494 -0.043369
-0.466955 -0.005649 -0.055948
-0.466955 -0.088269 0.001565
-0.466955 -0.031207 0.055794
-0.466955 -0.038577 0.082982
-0.466955 0.052980 0.015452
-0.466955 0.040958 0.045831
-0.466955 0.046034 -0.088094
-0.466955 0.048071 0.049403
-0.466955 -0.065426 -0.021621
-0.466955 -0.000096 -0.041897
-0.466955 -0.014891 -0.003805
-0.466955 -0.032296 0.089594
-0.466955 -0.072687 0.039275
-0.466955 0.006579 0.064886
-0.466955 -0.052387 0.029615
-0.466955 0.087338 0.017788
-0.466955 -0.031202 -0.030717
-0.466955 -0.049605 0.042790
-0.466955 -0.077047 0.062311
-0.466955 -0.066078 -0.035744
-0.466955 -0.075246 -0.035787
-0.466955 0.062167 0.027259
-0.466955 0.020413 0.010948
-0.466955 0.027845 -0.059076
-0.466955 -0.084500 0.004705
-0.466955 0.048099 0.076188
-0.466955 0.072408 0.015672
-0.466955 -0.039198 -0.054239
-0.466955 -0.047649 0.052895
-0.466955 -0.071294 -0.069208
-0.466955 -0.063234 -0.060099
-0.466955 0.032490 -0.012898
-0.466955 0.011359 -0.063573
-0.466955 -0.067037 -0.024302
-0.466955 -0.039740 0.036164
-0.466955 -0.017811 -0.015679
-0.466955 0.015593 -0.096715
-0.466955 -0.000185 0.017105
-0.466955 -0.017977 0.004180
-0.466955 0.063411 -0.041094
-0.466955 0.046660 -0.069223
-0.466955 -0.039464 -0.014866
-0.466955 -0.037697 0.050268
-0.466955 -0.029690 0.092263
-0.466955 -0.079456 -0.036578
-0.466955 -0.033985 -0.086576
-0.466955 0.028664 0.058165
-0.466955 -0.021846 0.069351
-0.466955 0.075562 -0.004483
-0.466955 0.007828 -0.048716
-0.466955 -0.029034 0.055950
-0.466955 -0.024512 0.061394
-0.466955 0.021783 0.044517
-0.466955 -0.072471 0.027022
-0.466955 -0.025724 0.055953
-0.466955 0.042629 0.014462
-0.466955 -0.090578 -0.023628
-0.466955 0.037060 0.067418
-0.466955 -0.013700 -0.081697
-0.466955 0.034760 -0.011023
-0.466955 -0.065621 -0.009887
-0.466955 0.041805 -0.054001
-0.466955 0.068443 0.015926
-0.466955 -0.092717 0.010114
-0.466955 0.011863 -0.032698
-0.466955 -0.034116 -0.020791
-0.466955 0.017232 -0.040417
-0.466955 -0.017806 0.076607
-0.466955 0.033655 -0.009991
-0.466955 0.083703 0.048102
-0.466955 -0.025152 0.021452
-0.466955 -0.034038 -0.032110
-0.466955 0.041909 0.066836
-0.466955 -0.037490 0.078884
-0.466955 0.090302 -0.026919
-0.466955 -0.000223 0.043344
-0.466955 0.084649 0.033798
-0.466955 -0.047204 0.007956
-0.466955 0.052573 0.038728
-0.466955 0.056190 -0.034931
-0.466955 0.039988 0.043119
-0.466955 -0.079714 -0.000942
-0.466955 -0.079886 -0.049433
-0.466955 -0.083807 0.041272
-0.466955 -0.019179 -0.051910
-0.466955 -0.097236 0.006971
-0.466955 0.052798 0.051168
-0.466955 -0.063319 -0.044340
-0.466955 0.020251 0.071523
-0.466955 0.054870 -0.019877
-0.466955 0.002413 0.078779
-0.466955 -0.072503 0.015226
-0.466955 0.005242 0.081790
-0.466955 0.070089 0.064330
-0.466955 0.000914 -0.027650
-0.466955 0.078960 -0.048218
-0.466955 -0.056117 0.075706
-0.466955 0.031089 -0.012914
-0.466955 0.087518 0.013348
-0.466955 -0.043979 -0.037810
-0.466955 0.055705 -0.082323
-0.466955 0.022737 -0.032901
-0.466955 0.018044 0.088818
-0.466955 0.050573 0.030691
-0.466955 0.061641 -0.061013
-0.466955 0.058826 0.008159
-0.466955 -0.077090 0.033326
-0.466955 0.088568 -0.016492
-0.466955 -0.010642 -0.009726
-0.466955 0.033095 0.056400
-0.466955 0.045648 0.045655
-0.466955 -0.015583 0.073563
-0.466955 -0.086122 -0.028947
-0.466955 0.051062 -0.047978
-0.466955 0.019034 -0.019968
-0.466955 -0.048628 0.007803
-0.466955 -0.099111 -0.010967
-0.466955 -0.034230 0.055805
-0.466955 0.087298 0.035398
-0.466955 -0.077406 -0.060268
-0.466955 -0.013368 0.055554
-0.466955 0.072916 -0.009381
-0.466955 -0.081726 -0.021445
-0.466955 -0.042550 -0.051782
-0.466955 -0.029694 -0.033032
-0.466955 -0.050843 -0.020530
-0.466955 0.052869 0.078220
-0.466955 0.018141 -0.058006
-0.466955 0.032756 0.034382
-0.466955 0.065646 0.032370
-0.466955 -0.011490 -0.062291
-0.466955 -0.015914 -0.035251
-0.466955 0.007516 -0.002439
-0.466955 -0.076355 -0.051638
-0.466955 -0.011301 -0.010987
-0.466955 0.024562 0.056693
-0.466955 -0.021894 0.013869
-0.466955 -0.053754 0.015837
-0.466955 0.007821 -0.071836
-0.466955 -0.016292 -0.002594
-0.466955 0.017461 0.023430
-0.466955 0.003715 0.078217
-0.466955 -0.014103 0.063496
-0.466955 0.033766 0.008321
-0.466955 0.072570 -0.015847
-0.466955 -0.018748 0.069377
-0.466955 -0.044545 -0.072933
-0.466955 -0.057584 -0.051925
-0.466955 0.001413 -0.009514
-0.466955 0.001269 -0.072996
-0.466955 -0.056458 0.045474
-0.466955 -0.098673 0.013578
-0.466955 -0.033400 0.080776
-0.466955 0.000577 -0.045458
-0.466955 -0.044355 -0.067066
-0.466955 0.085475 -0.020873
-0.466955 0.083059 0.016075
-0.466955 -0.041529 0.035393
-0.466955 -0.088899 -0.020729
-0.466955 -0.039628 -0.052845
-0.466955 -0.000585 -0.040097
-0.466955 0.057951 0.072472
-0.466955 -0.079382 -0.055497
-0.466955 0.060258 0.006973
-0.466955 -0.000089 -0.020292
-0.466955 0.048650 0.006227
-0.466955 -0.033734 0.073262
-0.466955 0.019126 -0.026992
-0.466955 0.026838 0.026229
-0.466955 0.010545 -0.076679
-0.466955 -0.054819 0.062128
-0.466955 -0.040474 0.063758
-0.466955 0.072734 0.028250
-0.466955 0.009810 0.081515
-0.466955 0.095371 0.008274
-0.466955 0.002072 0.034037
-0.466955 0.042669 0.058240
-0.466955 0.061693 0.000964
-0.466955 -0.055229 0.028871
-0.466955 -0.036363 0.036518
-0.466955 -0.033140 -0.076829
-0.466955 0.037270 0.005423
-0.466955 0.036998 0.056477
-0.466955 0.033358 -0.021861
-0.466955 0.052377 -0.005021
-0.466955 0.056252 0.023433
-0.466955 -0.029411 -0.068612
-0.466955 0.062782 -0.075470
-0.466955 -0.029710 -0.019228
-0.466955 -0.009310 -0.068756
-0.466955 0.043991 -0.028853
-0.466955 0.027666 0.083477
-0.466955 0.020942 -0.015905
-0.466955 0.077824 -0.021791
-0.466955 0.026212 0.095046
-0.466955 -0.012646 -0.097805
-0.466955 -0.015575 -0.089219
-0.466955 0.004147 0.035463
-0.466955 -0.061651 0.000449
-0.466955 -0.027549 0.040555
-0.466955 0.006999 -0.097914
-0.466955 0.051636 -0.068317
-0.466955 0.020750 0.077427
-0.466955 -0.050229 -0.080695
-0.466955 -0.097129 0.014022
-0.466955 -0.071244 0.060970
-0.466955 -0.026393 -0.021989
-0.466955 -0.062997 0.003164
-0.466955 0.073564 0.022801
-0.466955 -0.090601 0.013119
-0.466955 0.003128 -0.098419
-0.466955 0.055210 0.043793
-0.466955 0.024261 0.027520
-0.466955 0.085740 0.020237
-0.466955 0.005794 -0.022479
-0.466955 -0.069696 -0.043822
-0.466955 0.047198 0.006871
-0.466955 -0.006097 0.068033
-0.466955 -0.015989 0.063943
-0.466955 0.090563 -0.028875
-0.466955 -0.000508 0.090979
-0.466955 -0.067965 -0.059571
-0.466955 -0.072924 -0.010451
-0.466955 0.043209 -0.002483
-0.466955 -0.063148 -0.027830
-0.466955 0.046563 -0.013710
-0.466955 -0.049289 -0.023088
-0.466955 0.052509 -0.024815
-0.466955 -0.010894 -0.087356
-0.466955 -0.071911 -0.009170
-0.466955 -0.043821 0.005675
-0.466955 -0.021459 -0.067273
-0.466955 0.037278 -0.041432
-0.466955 0.049195 -0.062885
-0.466955 -0.038966 -0.058714
-0.466955 0.012325 -0.098542
-0.466955 -0.003157 -0.086987
-0.466955 -0.042960 0.082052
-0.466955 0.061412 0.052402
-0.466955 -0.048004 -0.013535
-0.466955 -0.044391 0.046263
-0.466955 -0.030611 -0.062769
-0.466955 -0.091055 -0.039923
-0.466955 -0.036191 0.049618
-0.466955 -0.004178 -0.081614
-0.466955 0.061301 -0.057246
-0.466955 0.035185 -0.003331
-0.466955 0.040661 -0.025277
-0.466955 0.065563 -0.068958
-0.466955 -0.038136 -0.081069
-0.466955 0.093011 -0.024595
-0.466955 -0.004261 0.087480
-0.466955 0.024817 0.068866
-0.466955 -0.053712 -0.021934
-0.466955 0.027676 0.024801
-0.466955 -0.002538 0.069455
-0.466955 -0.049511 -0.069056
-0.466955 -0.066577 0.022532
-0.466955 0.053967 0.042039
-0.466955 0.019465 -0.022939
-0.466955 0.010506 -0.026530
-0.466955 -0.041940 0.037892
-0.466955 -0.029237 -0.089493
-0.466955 0.019594 0.002051
-0.466955 -0.095245 0.028824
-0.466955 -0.004076 -0.027970
-0.466955 -0.011098 -0.076200
-0.466955 0.026279 0.074274
-0.466955 -0.073759 -0.009095
-0.466955 -0.021460 -0.074589
-0.466955 0.083922 0.053706
-0.466955 -0.083676 0.025941
-0.466955 -0.049673 0.044841
-0.466955 -0.054704 -0.014669
-0.466955 0.017488 0.077999
-0.466955 -0.006708 0.057165
-0.466955 -0.077014 -0.013635
-0.466955 -0.034982 -0.064168
-0.466955 -0.053497 -0.074852
-0.466955 0.038483 -0.022621
-0.466955 -0.037536 -0.029204
-0.466955 -0.045916 0.030003
-0.466955 0.047098 -0.021272
-0.466955 -0.037847 0.088515
-0.466955 -0.013596 -0.087199
-0.466955 -0.044728 0.017623
-0.466955 -0.068514 -0.012821
-0.466955 -0.036628 -0.019897
-0.466955 0.013728 0.049128
-0.466955 0.003950 -0.097321
-0.466955 -0.062162 -0.034345
-0.466955 -0.035372 0.001897
-0.466955 0.009642 -0.035063
-0.466955 -0.000937 -0.026207
-0.466955 -0.031170 -0.019289
-0.466955 0.090905 0.041447
-0.466955 -0.017787 -0.092753
-0.466955 -0.012656 0.022695
-0.466955 0.041875 0.000954
-0.466955 0.063346 0.067961
-0.466955 0.058055 -0.063093
-0.466955 -0.087415 0.021798
-0.466955 0.085465 0.051983
-0.466955 0.023385 -0.083790
-0.466955 -0.078228 0.041267
-0.466955 0.070556 -0.053432
-0.466955 -0.040619 0.075730
-0.466955 -0.013163 -0.006474
-0.466955 0.047069 -0.004494
-0.466955 -0.018081 -0.048519
-0.466955 -0.076603 0.049724
-0.466955 -0.001667 0.009588
-0.466955 0.007674 -0.013095
-0.466955 0.014467 -0.094069
-0.466955 -0.070825 -0.051198
-0.466955 0.057893 -0.074896
-0.466955 0.016061 0.078206
-0.466955 -0.001443 0.028995
-0.466955 -0.011177 -0.047085
-0.466955 0.004286 0.044574
-0.466955 0.095827 0.026825
-0.466955 0.038611 -0.004999
-0.466955 -0.089842 0.002342
-0.466955 0.035371 0.063695
-0.466955 -0.006091 -0.035246
-0.466955 -0.019390 -0.033795
-0.466955 0.068892 -0.038919
-0.466955 -0.035196 -0.037475
-0.466955 0.077194 -0.016244
-0.466955 0.012125 0.002029
-0.466955 -0.051470 -0.045410
-0.466955 -0.021800 -0.000009
-0.466955 0.000638 0.055252
-0.466955 -0.019558 0.019390
-0.466955 0.040928 0.076840
-0.466955 -0.049326 -0.001751
-0.466955 -0.042019 -0.025981
-0.466955 0.009729 0.033068
-0.466955 -0.058963 0.057910
-0.466955 -0.033617 0.018442
-0.466955 -0.045265 -0.068337
-0.466955 -0.070880 -0.025106
-0.466955 -0.003172 -0.079468
-0.466955 0.031840 0.020911
-0.466955 -0.056305 -0.013335
-0.466955 -0.046965 0.069971
-0.466955 -0.040778 -0.041373
-0.466955 -0.091100 0.005368
-0.466955 0.000927 0.083481
-0.466955 0.009375 0.087006
-0.466955 0.035387 0.051413
-0.466955 -0.036312 0.058292
-0.466955 0.016031 0.041136
-0.466955 -0.025397 0.019771
-0.466955 -0.069053 0.004782
-0.466955 -0.046535 0.014382
-0.466955 0.051040 -0.043957
-0.466955 0.043114 -0.051442
-0.466955 0.004781 0.033092
-0.466955 0.069107 0.029350
-0.466955 0.007223 0.084308
-0.466955 -0.024994 0.034236
-0.466955 -0.025195 -0.031037
-0.466955 -0.021965 0.035555
-0.466955 -0.074293 -0.027515
-0.466955 -0.018912 0.089903
-0.466955 -0.045543 -0.004539
-0.466955 0.060215 -0.070914
-0.466955 0.003642 0.069617
-0.466955 0.059007 0.006314
-0.466955 -0.058065 -0.076495
-0.466955 -0.013375 0.090495
-0.466955 0.001695 -0.017177
-0.466955 -0.039200 0.091338
-0.466955 0.028095 -0.017570
-0.466955 0.028237 0.022623
-0.466955 0.097292 -0.022126
-0.466955 -0.046757 0.088236
-0.466955 -0.002953 0.028711
-0.466955 0.029330 -0.020473
-0.466955 0.096640 0.015358
-0.466955 -0.095579 -0.008964
-0.466955 0.018621 -0.021610
-0.466955 -0.051291 0.044804
-0.466955 -0.048924 -0.045218
-0.466955 -0.047895 0.078062
-0.466955 -0.031442 -0.075007
-0.466955 0.000256 -0.090641
-0.466955 0.028763 -0.079580
-0.466955 0.066165 -0.004985
-0.466955 -0.066920 -0.036897
-0.466955 -0.094527 -0.011927
-0.466955 -0.031936 -0.008420
-0.466955 0.049320 0.020706
-0.466955 0.093957 0.033749
-0.466955 -0.015913 -0.020287
-0.466955 0.005027 0.025145
-0.466955 -0.033563 -0.063096
-0.466955 -0.034839 0.045367
-0.466955 0.053143 -0.057987
-0.466955 -0.006512 -0.025998
-0.466955 0.059901 -0.007564
-0.466955 -0.032853 -0.055434
-0.466955 -0.082322 -0.027060
-0.466955 0.016634 0.046982
-0.466955 0.015252 -0.021271
-0.466955 -0.057584 0.044278
-0.466955 0.018417 -0.079668
-0.466955 -0.050239 0.037056
-0.466955 0.021614 -0.027756
-0.466955 -0.072314 -0.024267
-0.466955 0.081296 -0.002489
-0.466955 -0.033980 -0.053020
-0.466955 0.026112 -0.055149
-0.466955 0.081566 -0.019639
-0.466955 -0.026333 -0.012625
-0.466955 -0.055906 0.074330
-0.466955 0.059250 -0.010023
-0.466955 0.034370 0.033318
-0.466955 -0.014063 0.068768
-0.466955 -0.020891 -0.036635
-0.466955 -0.080759 -0.037948
-0.466955 -0.061022 0.063238
-0.466955 0.072981 0.012341
-0.466955 0.044650 0.014302
-0.466955 -0.037228 0.040830
-0.466955 0.051316 -0.025782
-0.466955 -0.058655 -0.048499
-0.466955 -0.007901 -0.048426
-0.466955 0.077267 0.062521
-0.466955 -0.070230 -0.029065
-0.466955 0.004141 -0.059338
-0.466955 0.040372 0.001839
-0.466955 0.003770 -0.022589
-0.466955 -0.020194 0.087411
-0.466955 -0.036931 -0.055940
-0.466955 -0.023523 0.019861
-0.466955 0.015576 -0.084782
-0.466955 -0.070617 -0.031843
-0.466955 -0.053274 0.062652
-0.466955 -0.075296 0.004238
-0.466955 0.015346 0.092152
-0.466955 -0.037674 -0.046362
-0.466955 -0.027659 0.062428
-0.466955 0.054091 -0.018081
-0.466955 -0.039571 0.047769
-0.466955 0.078932 0.056033
-0.466955 -0.065246 -0.034078
-0.466955 -0.006806 -0.017304
-0.466955 -0.025862 0.050980
-0.466955 -0.006140 0.076881
-0.466955 0.085446 -0.032303
-0.466955 -0.058695 -0.042281
-0.466955 0.060105 -0.056143
-0.466955 -0.061551 -0.024925
-0.466955 0.084728 0.011518
-0.466955 0.012997 0.016965
-0.466955 -0.068161 -0.019426
-0.466955 0.057182 0.007355
-0.466955 -0.029539 -0.015287
-0.466955 0.024998 0.044767
-0.466955 0.044721 -0.070513
-0.466955 0.091078 0.000543
-0.466955 -0.010623 0.052160
-0.466955 0.083964 -0.047253
-0.466955 0.005589 0.060194
-0.466955 0.098178 -0.006032
-0.466955 0.027116 -0.038567
-0.466955 -0.039520 0.089723
-0.466955 0.002609 0.016809
-0.466955 0.022323 0.075052
-0.466955 -0.005532 -0.024942
-0.466955 -0.073289 0.053754
-0.466955 -0.023945 -0.075762
-0.466955 -0.062647 0.008480
-0.466955 0.037511 -0.050222
-0.466955 -0.047348 -0.029124
-0.466955 0.039232 -0.052358
-0.466955 -0.027187 0.010499
-0.466955 0.019275 0.049761
-0.466955 -0.024351 0.010812
-0.466955 -0.081382 0.014972
-0.466955 0.026216 0.091263
-0.466955 0.051332 0.056739
-0.466955 -0.030302 0.009350
-0.466955 0.055239 0.005122
-0.466955 0.013517 -0.005748
-0.466955 0.009890 0.047250
