-0.466955 -0.005770 0.030707
-0.466955 0.063016 0.059521
-0.466955 0.057492 0.023655
-0.466955 0.021576 -0.020060
-0.466955 -0.077385 -0.045763
-0.466955 0.065371 0.049749
-0.466955 -0.043429 0.031224
-0.466955 0.086137 -0.032648
-0.466955 0.035964 0.010857
-0.466955 -0.081477 0.024022
-0.466955 -0.014443 -0.084421
-0.466955 -0.006678 -0.076802
-0.466955 -0.060729 0.002153
-0.466955 -0.089682 -0.014028
-0.466955 -0.028656 -0.070596
-0.466955 -0.022074 -0.070202
-0.466955 0.058542 -0.071591
-0.466955 0.012978 0.088588
-0.466955 0.091895 -0.001494
-0.466955 0.034558 -0.045885
-0.466955 0.030930 -0.017422
-0.466955 0.012368 0.070671
-0.466955 -0.018744 -0.058395
-0.466955 -0.036996 0.016755
-0.466955 0.078270 0.011125
-0.466955 -0.036506 0.029267
-0.466955 -0.022294 -0.055304
-0.466955 -0.084427 0.039175
-0.466955 -0.059592 -0.063752
-0.466955 0.038330 -0.037078
-0.466955 -0.053607 0.072737
-0.466955 -0.026503 -0.043338
-0.466955 0.042423 0.054404
-0.466955 0.060129 -0.061228
-0.466955 -0.018394 -0.013104
-0.466955 0.054892 -0.036343
-0.466955 -0.026074 -0.026484
-0.466955 0.063186 -0.075506
-0.466955 0.013361 0.053523
-0.466955 -0.090386 -0.020909
-0.466955 -0.006467 0.044021
-0.466955 -0.033685 -0.058891
-0.466955 -0.022625 0.008429
-0.466955 -0.016966 -0.047748
-0.466955 0.075660 -0.025640
-0.466955 -0.057524 0.044427
-0.466955 0.032002 -0.038254
-0.466955 0.064076 -0.020379
-0.466955 0.052916 -0.055375
-0.466955 -0.023467 -0.005569
-0.466955 0.044760 0.038070
-0.466955 -0.079040 -0.015549
-0.466955 0.060685 0.033095
-0.466955 0.017343 -0.002156
-0.466955 0.021824 0.061188
-0.466955 0.006763 -0.046565
-0.466955 0.027236 0.054875
-0.466955 0.018890 -0.000302
-0.466955 -0.047998 -0.053922
-0.466955 0.005253 -0.046354
-0.466955 -0.051905 0.049643
-0.466955 0.057784 -0.072958
-0.466955 -0.039334 0.074617
-0.466955 -0.061738 -0.019878
-0.466955 -0.082021 -0.028563
-0.466955 0.023956 0.010813
-0.466955 -0.031887 0.027512
-0.466955 -0.077670 -0.038764
-0.466955 0.074137 0.037913
-0.466955 -0.004076 -0.088494
-0.466955 0.022931 -0.059750
-0.466955 -0.003168 -0.061634
-0.466955 0.020409 -0.032114
-0.466955 -0.041304 0.069212
-0.466955 -0.026716 -0.077055
-0.466955 -0.032830 0.079639
-0.466955 -0.030651 0.018557
-0.466955 -0.049339 -0.001118
-0.466955 -0.076143 -0.041638
-0.466955 0.065850 -0.073923
-0.466955 -0.074627 -0.031315
-0.466955 -0.018226 0.029795
-0.466955 0.006477 -0.078815
-0.466955 0.006094 0.025772
-0.466955 0.043139 -0.047933
-0.466955 -0.042391 0.080421
-0.466955 0.028452 0.057754
-0.466955 0.040585 0.009342
-0.466955 -0.038633 0.005083
-0.466955 0.067430 0.069913
-0.466955 0.036631 0.067786
-0.466955 0.058851 -0.078571
-0.466955 0.023605 0.015931
-0.466955 -0.023280 0.084261
-0.466955 0.053408 -0.062201
-0.466955 0.007747 0.009491
-0.466955 -0.035394 -0.088904
-0.466955 -0.046206 0.017483
-0.466955 -0.045233 0.049325
-0.466955 0.044071 -0.055256
-0.466955 0.051564 0.039016
-0.466955 0.045425 -0.035336
-0.466955 0.078525 0.004354
-0.466955 0.015114 0.061663
-0.466955 -0.039804 -0.034121
-0.466955 -0.009834 0.049956
-0.466955 -0.032353 0.013601
-0.466955 -0.007026 0.093887
-0.466955 -0.029939 0.017216
-0.466955 -0.061004 -0.038902
-0.466955 0.071416 0.045886
-0.466955 0.046889 -0.084829
-0.466955 -0.033382 0.012203
-0.466955 0.048687 0.082813
-0.466955 -0.025748 0.055394
-0.466955 0.025719 -0.056813
-0.466955 -0.029000 0.066977
-0.466955 -0.059772 -0.015025
-0.466955 0.002080 0.023028
-0.466955 0.050389 -0.082441
-0.466955 -0.011081 0.033054
-0.466955 -0.003774 -0.073731
-0.466955 0.000988 -0.072784
-0.466955 0.054134 -0.081733
-0.466955 0.053064 -0.009994
-0.466955 -0.024592 -0.063826
-0.466955 -0.070200 0.003535
-0.466955 0.034669 0.026701
-0.466955 -0.067808 0.000046
-0.466955 0.077212 -0.031380
-0.466955 0.022614 -0.063308
-0.466955 0.011235 -0.060431
-0.466955 -0.029531 0.081687
-0.466955 -0.018213 -0.065487
-0.466955 0.047985 -0.055236
-0.466955 -0.070381 0.004938
-0.466955 -0.075124 0.050520
-0.466955 0.018963 0.058647
-0.466955 -0.057458 0.035914
-0.466955 0.078530 0.053030
-0.466955 -0.051021 0.001666
-0.466955 -0.076625 -0.023463
-0.466955 -0.042269 0.002396
-0.466955 -0.055257 0.023106
-0.466955 0.083620 -0.040827
-0.466955 -0.082859 -0.034103
-0.466955 -0.045546 0.046063
-0.466955 0.045823 0.053040
-0.466955 0.022176 0.030942
-0.466955 -0.061213 -0.061476
-0.466955 -0.010699 -0.084147
-0.466955 -0.009921 -0.068145
-0.466955 -0.050953 -0.042394
-0.466955 0.012171 0.046873
-0.466955 0.056645 0.070254
-0.466955 -0.011832 -0.080073
-0.466955 0.045775 0.061195
-0.466955 0.059747 -0.011973
-0.466955 0.093825 0.024025
-0.466955 0.007810 0.058792
-0.466955 0.087648 0.020756
-0.466955 -0.076460 0.017875
-0.466955 -0.084629 0.024563
-0.466955 0.018548 0.061519
-0.466955 -0.053922 0.045173
-0.466955 0.042937 -0.037105
-0.466955 0.001104 0.026959
-0.466955 0.012156 -0.051596
-0.466955 -0.052123 0.062646
-0.466955 0.030490 0.030320
-0.466955 -0.023470 0.019161
-0.466955 -0.086790 -0.040893
-0.466955 -0.003497 0.098822
-0.466955 0.001111 0.036648
-0.466955 -0.070688 -0.026500
-0.466955 0.043853 0.044410
-0.466955 -0.013227 -0.016457
-0.466955 -0.044681 -0.023669
-0.466955 0.088959 -0.030937
-0.466955 0.069783 -0.007975
-0.466955 0.019191 -0.012750
-0.466955 -0.027955 -0.082368
-0.466955 0.002971 0.050943
-0.466955 0.005593 -0.086617
-0.466955 0.001468 -0.097608
-0.466955 0.083890 -0.034435
-0.466955 -0.022774 0.020695
-0.466955 -0.077351 0.011310
-0.466955 -0.098398 -0.005726
-0.466955 0.063231 0.002582
-0.466955 -0.032439 -0.054321
-0.466955 -0.037736 0.074032
-0.466955 -0.002468 0.005602
-0.466955 -0.025717 0.080815
-0.466955 -0.010470 -0.006826
-0.466955 -0.025602 0.043571
-0.466955 0.029811 0.047061
-0.466955 -0.058294 -0.065938
-0.466955 -0.040592 -0.080674
-0.466955 0.037220 0.077389
-0.466955 -0.079345 0.037228
-0.466955 -0.058179 -0.064308
-0.466955 0.049395 -0.067801
-0.466955 0.034123 -0.047519
-0.466955 -0.018708 0.090864
-0.466955 0.084147 -0.051049
-0.466955 0.069995 -0.033168
-0.466955 -0.072108 -0.027260
-0.466955 0.025876 -0.025733
-0.466955 -0.072607 0.003721
-0.466955 -0.066972 -0.030648
-0.466955 -0.072522 0.048567
-0.466955 -0.017684 -0.007856
-0.466955 0.061845 -0.075435
-0.466955 0.022156 0.005649
-0.466955 0.019194 -0.002190
-0.466955 0.001279 0.035239
-0.466955 -0.025012 -0.086784
-0.466955 -0.037130 -0.079600
-0.466955 -0.045965 0.033340
-0.466955 0.045663 -0.066463
-0.466955 0.059759 -0.054534
-0.466955 0.023642 0.007769
-0.466955 0.004595 -0.070125
-0.466955 0.079035 0.060232
-0.466955 -0.021809 0.012167
-0.466955 0.073859 0.013065
-0.466955 -0.049827 0.050219
-0.466955 -0.032071 -0.003081
-0.466955 0.009296 0.025261
-0.466955 -0.090767 -0.037006
-0.466955 0.022213 -0.043873
-0.466955 -0.033068 -0.079289
-0.466955 -0.058432 0.017661
-0.466955 -0.026235 0.040678
-0.466955 -0.058192 0.008180
-0.466955 0.070338 -0.025010
-0.466955 -0.021698 0.031578
-0.466955 -0.078245 0.015106
-0.466955 -0.000579 0.033404
-0.466955 0.045800 -0.069783
-0.466955 0.081803 -0.040247
-0.466955 0.081227 0.016296
-0.466955 0.007271 -0.052955
-0.466955 -0.058423 -0.062689
-0.466955 -0.078814 0.019710
-0.466955 -0.081288 0.018831
-0.466955 0.016847 0.002861
-0.466955 -0.091947 0.013497
-0.466955 -0.008237 0.086487
-0.466955 -0.019957 0.091920
-0.466955 -0.066590 0.018517
-0.466955 -0.002372 -0.052996
-0.466955 0.085178 -0.020855
-0.466955 0.044233 0.018975
-0.466955 -0.009198 0.071371
-0.466955 0.059488 -0.004652
-0.466955 0.070684 -0.042394
-0.466955 -0.044246 -0.048987
-0.466955 -0.025002 0.066578
-0.466955 -0.019153 0.068599
-0.466955 -0.037617 0.002606
-0.466955 0.019349 0.001956
-0.466955 -0.077462 -0.062203
-0.466955 0.072697 0.066500
-0.466955 0.020481 -0.015349
-0.466955 0.063537 -0.067601
-0.466955 0.033484 -0.049525
-0.466955 -0.034140 0.082984
-0.466955 0.064733 -0.065496
-0.466955 0.043461 -0.063401
-0.466955 -0.025575 0.092411
-0.466955 -0.063657 -0.044316
-0.466955 0.051593 0.014736
-0.466955 0.047273 -0.019210
-0.466955 -0.088563 0.040514
-0.466955 -0.047904 0.007952
-0.466955 0.088405 0.041207
-0.466955 -0.038610 0.079903
-0.466955 0.096353 0.006934
-0.466955 -0.075326 0.030457
-0.466955 0.062599 -0.033374
-0.466955 -0.075874 0.024101
-0.466955 0.008405 0.085214
-0.466955 -0.011492 -0.020281
-0.466955 0.014445 -0.098362
-0.466955 0.010702 0.016436
-0.466955 -0.051925 -0.073672
-0.466955 -0.000783 -0.096543
-0.466955 0.083967 -0.039261
-0.466955 -0.082860 -0.021816
-0.466955 0.064924 0.010140
-0.466955 -0.007111 -0.040647
-0.466955 0.092549 -0.007353
-0.466955 -0.037331 0.018374
-0.466955 -0.080437 -0.029908
-0.466955 0.010188 -0.032714
-0.466955 0.074555 -0.011303
-0.466955 -0.023254 -0.091343
-0.466955 0.033905 0.081354
-0.466955 0.082997 -0.013548
-0.466955 -0.073633 -0.026895
-0.466955 -0.056726 0.065986
-0.466955 -0.000872 -0.037637
-0.466955 0.059251 0.060656
-0.466955 0.011165 0.015114
-0.466955 0.034521 -0.033846
-0.466955 0.066814 -0.011648
-0.466955 -0.075996 -0.032308
-0.466955 -0.015129 0.089465
-0.466955 0.090690 0.041525
-0.466955 -0.001659 -0.039533
-0.466955 -0.096006 0.000232
-0.466955 0.036964 -0.025897
-0.466955 -0.007681 -0.049214
-0.466955 0.007592 0.002829
-0.466955 0.040975 -0.060101
-0.466955 0.084838 -0.046418
-0.466955 0.069603 0.061824
-0.466955 0.035903 0.088075
-0.466955 0.013233 0.042552
-0.466955 0.079925 0.025399
-0.466955 0.072267 0.032587
-0.466955 -0.040650 -0.066676
-0.466955 0.055685 0.073242
-0.466955 -0.050938 -0.017654
-0.466955 0.096404 -0.022809
-0.466955 -0.086098 -0.035344
-0.466955 0.046994 -0.059210
-0.466955 -0.022918 -0.023561
-0.466955 -0.075590 -0.038899
-0.466955 0.047727 -0.086847
-0.466955 0.049794 0.029320
-0.466955 -0.032129 0.047364
-0.466955 0.025886 0.018610
-0.466955 0.094311 0.028674
-0.466955 0.058726 -0.041438
-0.466955 -0.010421 -0.055778
-0.466955 0.026305 -0.058147
-0.466955 -0.082394 -0.041714
-0.466955 0.065742 0.023961
-0.466955 0.052964 -0.048226
-0.466955 -0.073197 0.033199
-0.466955 -0.029618 0.001632
-0.466955 0.031603 -0.089348
-0.466955 0.073845 -0.017286
-0.466955 0.045519 -0.077507
-0.466955 -0.073632 -0.000280
-0.466955 -0.004119 0.009224
-0.466955 -0.028341 -0.045576
-0.466955 0.021650 -0.027021
-0.466955 -0.054851 -0.032787
-0.466955 -0.043354 -0.038445
-0.466955 -0.059211 0.062160
-0.466955 -0.026391 -0.037351
-0.466955 -0.066294 -0.043203
-0.466955 0.030898 -0.009319
-0.466955 0.016412 0.075940
-0.466955 0.011039 -0.028523
-0.466955 -0.010673 0.077207
-0.466955 0.024645 -0.055442
-0.466955 -0.058702 -0.031461
-0.466955 0.052254 0.044087
-0.466955 0.018549 0.057294
-0.466955 0.051269 -0.054392
-0.466955 0.040355 0.080536
-0.466955 0.051875 0.022891
-0.466955 -0.046876 0.044155
-0.466955 0.044616 0.023385
-0.466955 -0.027393 0.089169
-0.466955 -0.052442 -0.038868
-0.466955 -0.029778 -0.042983
-0.466955 0.016452 -0.060888
-0.466955 0.063810 -0.010211
-0.466955 0.029171 0.017078
-0.466955 -0.006048 -0.014655
-0.466955 -0.049028 -0.066787
-0.466955 -0.086719 -0.019855
-0.466955 -0.087072 0.029020
-0.466955 0.052582 -0.081900
-0.466955 -0.063227 -0.019227
-0.466955 0.061586 0.074512
-0.466955 -0.064718 0.072585
-0.466955 -0.005987 0.074780
-0.466955 -0.080632 0.027937
-0.466955 -0.070258 0.059935
-0.466955 0.039449 -0.053335
-0.466955 -0.017143 0.080519
-0.466955 -0.003090 0.052061
-0.466955 -0.037339 -0.053401
-0.466955 -0.025345 0.015679
-0.466955 -0.072913 0.045748
-0.466955 0.002509 0.026721
-0.466955 0.056967 -0.021549
-0.466955 0.019404 -0.077344
-0.466955 -0.063329 -0.059745
-0.466955 -0.083171 -0.039714
-0.466955 0.085617 0.044904
-0.466955 -0.017623 0.038445
-0.466955 0.073620 0.025198
-0.466955 -0.050204 -0.055814
-0.466955 -0.037668 0.013562
-0.466955 0.024768 0.013559
-0.466955 -0.004247 -0.062409
-0.466955 -0.057855 0.048460
-0.466955 0.092539 -0.003061
-0.466955 -0.023645 -0.070604
-0.466955 0.008831 -0.091362
-0.466955 0.022480 0.008563
-0.466955 -0.017055 0.084483
-0.466955 0.029981 -0.036793
-0.466955 0.020588 -0.013871
-0.466955 0.046352 -0.016089
-0.466955 0.069939 0.060388
-0.466955 -0.089029 -0.029528
-0.466955 0.080309 -0.012469
-0.466955 -0.008185 0.061762
-0.466955 -0.068731 -0.003178
-0.466955 0.055183 -0.060757
-0.466955 -0.071250 -0.029591
-0.466955 -0.052295 -0.009128
-0.466955 0.075251 -0.001992
-0.466955 0.049443 -0.032501
-0.466955 -0.005501 -0.074803
-0.466955 -0.041696 -0.047691
-0.466955 0.039034 -0.054907
-0.466955 -0.031157 -0.027568
-0.466955 -0.047564 0.083699
-0.466955 -0.094514 0.030068
-0.466955 0.082455 0.033317
-0.466955 -0.000016 -0.047089
-0.466955 -0.090610 0.010306
-0.466955 -0.090378 0.015592
-0.466955 0.066894 0.060169
-0.466955 0.047325 -0.021859
-0.466955 -0.031895 0.024635
-0.466955 -0.048454 -0.082656
-0.466955 0.090903 -0.004617
-0.466955 0.017843 -0.024698
-0.466955 0.034919 -0.032235
-0.466955 -0.004327 0.074304
-0.466955 -0.050837 -0.003015
-0.466955 0.076398 0.034134
-0.466955 0.039259 -0.088339
-0.466955 -0.009998 0.026371
-0.466955 -0.007744 -0.081606
-0.466955 0.073468 0.047126
-0.466955 0.052735 0.046633
-0.466955 -0.020320 -0.053832
-0.466955 0.068816 0.022121
-0.466955 -0.088461 -0.026766
-0.466955 -0.019409 -0.089516
-0.466955 -0.010086 0.085020
-0.466955 0.075124 -0.065510
-0.466955 0.025096 0.008409
-0.466955 -0.040473 0.033978
-0.466955 0.027285 0.095419
-0.466955 0.011442 0.033993
-0.466955 -0.002555 0.024584
-0.466955 -0.056607 -0.043580
-0.466955 0.073374 0.041983
-0.466955 0.083726 -0.045552
-0.466955 -0.026956 -0.004152
-0.466955 0.053274 -0.000615
-0.466955 -0.050300 -0.073822
-0.466955 -0.063985 -0.034425
-0.466955 0.077886 -0.059364
-0.466955 -0.079455 -0.033921
-0.466955 0.076669 0.017158
-0.466955 0.041411 0.042758
-0.466955 0.006989 0.068182
-0.466955 0.093974 -0.010603
-0.466955 0.052031 0.052790
-0.466955 0.097629 -0.010307
-0.466955 0.054300 -0.054963
-0.466955 -0.062604 -0.002803
-0.466955 0.060010 0.045180
-0.466955 -0.023618 0.067766
-0.466955 0.054010 0.083669
-0.466955 -0.035243 -0.014948
-0.466955 -0.067347 -0.028744
-0.466955 0.030418 -0.060688
-0.466955 -0.029295 0.054100
-0.466955 -0.078867 -0.000056
-0.466955 0.031132 -0.070694
-0.466955 0.022370 -0.080388
-0.466955 0.054783 -0.064560
-0.466955 0.081218 -0.028741
-0.466955 -0.068968 -0.055205
-0.466955 -0.039908 -0.039362
-0.466955 0.083719 0.032088
-0.466955 0.069579 -0.047898
-0.466955 -0.030470 0.071221
-0.466955 0.029214 0.083155
-0.466955 -0.009086 0.096671
-0.466955 0.028082 0.046378
-0.466955 -0.023899 0.022660
-0.466955 0.012223 -0.058482
-0.466955 0.058286 0.051279
-0.466955 0.050092 -0.039129
-0.466955 -0.027948 -0.044080
-0.466955 -0.064430 0.002384
-0.466955 -0.032226 -0.055845
-0.466955 -0.042976 -0.028709
-0.466955 -0.020764 -0.052066
-0.466955 -0.039645 -0.007771
-0.466955 0.007160 0.024746
-0.466955 -0.019725 -0.024653
-0.466955 -0.063071 0.000262
-0.466955 -0.073346 -0.020746
-0.466955 -0.003889 -0.080273
-0.466955 0.030598 -0.007888
-0.466955 -0.031892 0.053933
-0.466955 -0.032668 -0.046860
-0.466955 -0.048780 0.066207
-0.466955 -0.053925 -0.019366
-0.466955 0.076670 -0.050247
-0.466955 -0.054277 0.027044
-0.466955 -0.092003 -0.008861
-0.466955 -0.065932 0.047165
-0.466955 -0.000857 0.091882
-0.466955 -0.035497 0.036198
-0.466955 0.067090 0.062141
-0.466955 0.041945 0.067582
-0.466955 0.003760 0.037514
-0.466955 0.046848 0.051551
-0.466955 0.044250 0.076544
-0.466955 0.070747 0.027770
-0.466955 0.033004 -0.069375
-0.466955 -0.064211 0.008072
-0.466955 -0.082945 0.014711
-0.466955 0.024269 -0.033780
-0.466955 0.059230 -0.022369
-0.466955 0.053686 -0.035518
-0.466955 0.048058 -0.016603
-0.466955 0.006285 -0.089292
-0.466955 0.019333 -0.005004
-0.466955 -0.025785 -0.006597
-0.466955 0.010543 0.029788
-0.466955 0.092881 0.011296
-0.466955 -0.035367 0.085661
-0.466955 -0.038733 -0.028656
-0.466955 -0.032844 0.036265
-0.466955 0.080296 -0.055231
-0.466955 -0.052712 -0.052366
-0.466955 -0.022948 -0.044695
-0.466955 0.068864 -0.034647
-0.466955 0.003941 0.080597
-0.466955 0.063323 -0.037076
-0.466955 0.027002 -0.040458
-0.466955 0.040446 0.068236
-0.466955 0.079777 0.039771
-0.466955 -0.080516 0.022602
-0.466955 -0.033945 0.027883
-0.466955 0.086901 0.011930
-0.466955 0.017148 -0.039361
-0.466955 0.072532 0.053284
-0.466955 -0.066628 -0.032944
-0.466955 0.017710 -0.058072
-0.466955 0.003676 0.029292
-0.466955 0.085910 0.038393
-0.466955 0.079238 -0.016545
-0.466955 -0.012834 0.025226
-0.466955 -0.033877 -0.013960
-0.466955 -0.029322 0.056424
-0.466955 -0.019212 0.073582
-0.466955 0.049038 -0.003856
-0.466955 0.028619 0.077331
-0.466955 0.029236 0.051245
-0.466955 -0.057398 -0.075753
-0.466955 -0.017453 -0.066817
-0.466955 -0.052481 0.060605
-0.466955 0.075490 0.015504
-0.466955 -0.031027 -0.001931
-0.466955 -0.018475 -0.093815
-0.466955 0.046168 0.076669
-0.466955 -0.089152 0.000690
-0.466955 0.072096 0.015085
-0.466955 0.069550 -0.020924
-0.466955 0.076365 0.036840
-0.466955 0.001403 -0.078382
-0.466955 -0.082016 0.002896
-0.466955 -0.037287 0.015092
-0.466955 0.049738 -0.011691
-0.466955 -0.021348 -0.018989
-0.466955 -0.044425 0.023694
-0.466955 -0.012320 0.079346
-0.466955 0.000221 -0.024682
-0.466955 -0.011857 0.030931
-0.466955 -0.022893 -0.003111
-0.466955 0.028234 0.032584
-0.466955 0.014588 -0.068658
-0.466955 -0.017502 0.044736
-0.466955 -0.036787 -0.061255
-0.466955 -0.025742 0.060722
-0.466955 0.023622 -0.027395
-0.466955 0.082259 0.020311
-0.466955 0.019529 -0.085508
-0.466955 -0.056312 -0.049912
-0.466955 0.033036 -0.060463
-0.466955 -0.092627 -0.006731
-0.466955 -0.073447 -0.035877
-0.466955 0.038274 0.048129
-0.466955 -0.068063 0.013649
-0.466955 -0.044823 0.075919
-0.466955 -0.058450 0.052611
-0.466955 0.076048 -0.021761
-0.466955 0.010485 0.087343
-0.466955 -0.031868 -0.074541
-0.466955 -0.012271 0.070669
-0.466955 -0.052367 0.000436
-0.466955 -0.019111 0.002338
-0.466955 -0.090255 -0.011033
-0.466955 -0.053869 0.031685
-0.466955 0.064429 0.056710
-0.466955 -0.045195 -0.020997
-0.466955 -0.084149 0.031599
-0.466955 0.025274 -0.074109
-0.466955 0.040271 0.036143
-0.466955 -0.037556 -0.081933
-0.466955 0.044334 -0.036909
-0.466955 0.063553 0.020804
-0.466955 -0.015596 0.042819
-0.466955 0.013589 0.000761
-0.466955 -0.012333 -0.053272
-0.466955 0.031553 -0.059569
-0.466955 -0.068733 0.067208
-0.466955 -0.080976 -0.003568
-0.466955 0.056439 -0.074390
-0.466955 0.017035 -0.046543
-0.466955 0.045875 0.025928
-0.466955 0.090212 0.026158
-0.466955 -0.053490 0.017257
-0.466955 -0.075192 -0.035297
-0.466955 0.004232 -0.075527
-0.466955 0.008349 -0.061949
-0.466955 0.022538 -0.005524
-0.466955 0.012387 -0.087739
-0.466955 0.015827 -0.001590
-0.466955 0.075574 0.031812
-0.466955 -0.004544 0.007859
-0.466955 -0.062787 -0.017905
-0.466955 0.075514 -0.000222
-0.466955 -0.092202 0.010673
-0.466955 -0.021481 -0.088978
-0.466955 -0.025287 0.012674
-0.466955 -0.069168 -0.053774
-0.466955 -0.055010 -0.054089
-0.466955 -0.057573 -0.019628
-0.466955 -0.012487 -0.025633
-0.466955 0.032291 -0.016604
-0.466955 -0.014080 0.040628
-0.466955 0.094491 0.011845
-0.466955 0.062286 0.061309
-0.466955 0.034428 0.018180
-0.466955 0.039090 0.074076
-0.466955 0.062609 -0.001723
-0.466955 -0.072796 -0.044149
-0.466955 -0.052741 -0.070767
-0.466955 0.008459 0.027741
-0.466955 -0.048139 -0.037518
-0.466955 -0.011930 -0.033704
-0.466955 -0.001550 0.090448
-0.466955 0.074685 -0.063072
-0.466955 0.044249 -0.070614
-0.466955 -0.081201 -0.052804
-0.466955 0.007983 -0.007500
-0.466955 0.043079 0.072778
-0.466955 -0.073051 -0.015147
-0.466955 0.042018 -0.025796
-0.466955 -0.024701 -0.039550
-0.466955 0.056941 -0.014153
-0.466955 -0.084548 0.010446
-0.466955 -0.051779 -0.061543
-0.466955 0.088418 -0.003595
-0.466955 0.017857 0.048478
-0.466955 -0.065082 -0.042449
-0.466955 -0.026793 -0.045153
-0.466955 -0.084933 0.005927
-0.466955 -0.029337 -0.029819
-0.466955 -0.083941 -0.016233
-0.466955 -0.016559 0.074599
-0.466955 0.003185 -0.035121
-0.466955 0.079672 0.044982
-0.466955 -0.056314 -0.006722
-0.466955 -0.016657 -0.070782
-0.466955 0.006321 -0.029058
-0.466955 -0.080588 -0.032828
-0.466955 -0.030046 -0.007977
-0.466955 -0.074426 -0.023951
-0.466955 0.001531 0.000051
-0.466955 -0.005185 0.071733
-0.466955 -0.044540 0.004982
-0.466955 -0.034423 0.021833
-0.466955 -0.030329 0.008726
-0.466955 0.018471 -0.055281
-0.466955 -0.045117 -0.007660
-0.466955 0.073430 -0.020687
-0.466955 -0.004308 -0.053321
-0.466955 0.028744 0.010775
-0.466955 0.000345 -0.036123
-0.466955 -0.045034 -0.013911
-0.466955 -0.063692 -0.042030
-0.466955 -0.026683 0.082297
-0.466955 0.033952 0.039093
-0.466955 0.027507 0.082766
-0.466955 -0.037971 -0.018735
-0.466955 -0.049837 0.033544
-0.466955 -0.069790 -0.050926
-0.466955 -0.071682 -0.010385
-0.466955 -0.098437 -0.015618
-0.466955 0.053708 0.015376
-0.466955 -0.053006 -0.012424
-0.466955 -0.061604 0.035204
-0.466955 0.059989 -0.032935
-0.466955 0.061170 0.016249
-0.466955 0.001265 -0.091001
-0.466955 -0.016133 0.098541
-0.466955 -0.043225 -0.060567
-0.466955 -0.036699 0.068375
-0.466955 0.012421 -0.002843
-0.466955 0.023266 0.076820
-0.466955 0.032697 0.063068
-0.466955 0.032442 0.020433
-0.466955 0.000704 -0.030460
-0.466955 -0.010454 0.095768
-0.466955 0.013582 0.061497
-0.466955 -0.094244 -0.021789
-0.466955 -0.017773 -0.078707
-0.466955 0.061259 -0.015111
-0.466955 0.014699 0.053553
-0.466955 0.084104 0.044489
-0.466955 -0.084716 0.019318
-0.466955 0.088284 -0.022598
-0.466955 0.003638 0.022162
-0.466955 -0.007005 -0.067341
-0.466955 -0.077671 0.047133
-0.466955 0.016337 -0.011142
-0.466955 0.035115 -0.085840
-0.466955 0.036320 -0.042341
-0.466955 -0.094063 0.025994
-0.466955 -0.012370 -0.088216
-0.466955 -0.008593 -0.015394
-0.466955 -0.007751 0.047833
-0.466955 0.014607 -0.061337
-0.466955 0.000374 -0.061553
-0.466955 0.059185 -0.048333
-0.466955 0.002144 0.098990
-0.466955 -0.043985 0.016234
-0.466955 0.016665 -0.083777
-0.466955 -0.032310 0.040772
-0.466955 -0.016903 -0.064028
-0.466955 -0.022711 -0.013884
-0.466955 -0.040975 0.072355
-0.466955 0.007160 -0.011813
-0.466955 0.017041 0.038896
-0.466955 0.037482 -0.054350
-0.466955 -0.059733 -0.011999
-0.466955 -0.046812 -0.050505
-0.466955 -0.028201 0.019754
-0.466955 -0.065196 0.062232
-0.466955 -0.047940 0.032854
-0.466955 0.009648 -0.029355
-0.466955 -0.051903 -0.027767
-0.466955 -0.061769 -0.026147
-0.466955 -0.031733 -0.039238
-0.466955 0.044716 -0.061346
-0.466955 0.041549 0.052303
-0.466955 0.007234 0.086348
-0.466955 0.029053 -0.045416
-0.466955 0.079741 -0.005410
-0.466955 -0.023422 -0.072402
-0.466955 -0.004437 0.034379
-0.466955 -0.056036 0.041669
-0.466955 -0.030789 -0.040574
-0.466955 -0.082552 -0.029927
-0.466955 0.014120 -0.007550
-0.466955 0.090497 0.014544
-0.466955 0.095643 -0.007524
-0.466955 -0.026739 0.087864
-0.466955 0.035253 -0.080203
-0.466955 -0.019091 -0.026915
-0.466955 -0.034424 -0.049994
-0.466955 -0.033402 -0.073752
-0.466955 0.034857 0.023948
-0.466955 0.053146 -0.057332
-0.466955 0.012138 0.027942
-0.466955 0.034834 -0.060615
-0.466955 -0.055692 -0.034579
-0.466955 0.020102 0.023736
-0.466955 -0.070838 -0.008299
-0.466955 0.054019 -0.028056
-0.466955 0.089628 -0.001242
-0.466955 0.010186 0.037767
-0.466955 -0.083442 -0.001430
-0.466955 -0.017255 -0.014019
-0.466955 -0.031433 -0.008420
-0.466955 -0.093957 0.031618
-0.466955 -0.003234 -0.067925
-0.466955 0.074671 -0.006305
-0.466955 0.021838 0.034561
-0.466955 -0.078799 -0.045737
-0.466955 -0.033657 -0.076692
-0.466955 -0.074625 0.053662
-0.466955 0.000221 -0.081034
-0.466955 -0.084708 0.007423
-0.466955 -0.052247 -0.059089
-0.466955 -0.017093 0.041592
-0.466955 -0.033653 0.074036
-0.466955 0.018382 0.069851
-0.466955 -0.044373 0.026113
-0.466955 -0.056400 0.011051
-0.466955 0.089674 0.039329
-0.466955 0.041718 -0.046702
-0.466955 -0.039349 -0.077691
-0.466955 0.084247 0.033517
-0.466955 0.015394 -0.064002
-0.466955 0.002547 -0.079606
-0.466955 -0.042849 -0.043720
-0.466955 -0.028886 0.085669
-0.466955 0.023672 0.096870
-0.466955 0.058709 0.075319
-0.466955 0.032992 -0.051773
-0.466955 -0.019982 -0.092160
-0.466955 0.002177 0.075548
-0.466955 0.074757 0.036336
-0.466955 0.063272 0.073142
-0.466955 -0.014014 0.071572
-0.466955 -0.025452 0.020711
-0.466955 -0.054821 -0.071067
-0.466955 -0.021408 -0.028049
-0.466955 0.084758 -0.052660
-0.466955 0.030847 0.021149
-0.466955 -0.062037 -0.042273
-0.466955 -0.071939 0.022200
-0.466955 0.080816 0.028101
-0.466955 -0.032641 0.082615
-0.466955 0.045774 -0.008967
-0.466955 0.032450 0.016954
-0.466955 0.005081 -0.030177
-0.466955 0.011794 0.080065
-0.466955 0.074575 -0.041424
-0.466955 -0.052291 -0.011097
-0.466955 -0.011801 -0.001114
-0.466955 -0.039103 0.031034
-0.466955 0.007346 0.070394
-0.466955 -0.013900 -0.056281
-0.466955 -0.057039 -0.052181
-0.466955 0.054494 -0.041996
-0.466955 0.069478 0.050337
-0.466955 0.006411 -0.097870
-0.466955 0.085596 0.008373
-0.466955 0.063320 -0.008337
-0.466955 -0.059070 -0.008693
-0.466955 0.096377 0.001506
-0.466955 0.085252 0.023979
-0.466955 0.009722 0.043049
-0.466955 0.070930 0.044023
-0.466955 0.017890 0.001523
-0.466955 0.087876 0.015008
-0.466955 -0.048452 0.027935
-0.466955 0.033361 0.070826
-0.466955 -0.065740 -0.007721
-0.466955 0.018413 0.080939
-0.466955 -0.034183 -0.002631
-0.466955 -0.026757 0.019147
-0.466955 -0.004847 0.043806
-0.466955 -0.003453 0.046046
-0.466955 0.032424 -0.094154
-0.466955 0.027502 -0.005033
-0.466955 -0.026353 0.049946
-0.466955 0.033335 -0.076470
-0.466955 0.009110 0.019379
-0.466955 -0.085967 -0.032226
-0.466955 -0.085889 0.011261
-0.466955 -0.017300 0.090341
-0.466955 0.000249 -0.053724
-0.466955 -0.062893 0.058295
-0.466955 0.090286 0.003254
-0.466955 0.029230 -0.065791
-0.466955 0.069990 -0.055472
-0.466955 0.080741 0.053381
-0.466955 -0.030468 -0.009571
-0.466955 -0.020558 -0.057231
-0.466955 -0.052156 -0.007598
-0.466955 0.031133 0.078021
-0.466955 0.016967 0.058022
-0.466955 0.006482 0.059606
-0.466955 -0.078769 0.035756
-0.466955 -0.048280 0.085444
-0.466955 -0.085277 0.049105
-0.466955 -0.027422 -0.006208
-0.466955 -0.093597 -0.031959
-0.466955 -0.000689 0.068564
-0.466955 0.082187 0.031741
-0.466955 0.097794 -0.018211
-0.466955 0.025656 -0.035319
-0.466955 0.030780 -0.066726
-0.466955 -0.028855 -0.020057
-0.466955 0.039473 0.059342
-0.466955 0.014026 0.028091
-0.466955 0.040902 0.069715
-0.466955 -0.052810 0.084775
-0.466955 -0.027718 0.081087
-0.466955 0.014750 0.018431
-0.466955 0.046179 0.085970
-0.466955 -0.016596 0.048945
-0.466955 0.045428 -0.055747
-0.466955 -0.069540 0.025578
-0.466955 0.017285 -0.052072
-0.466955 0.034432 0.078605
-0.466955 -0.011141 0.060683
-0.466955 0.049461 0.012371
-0.466955 -0.088174 0.021257
-0.466955 0.082310 -0.009092
-0.466955 -0.017849 0.067746
-0.466955 -0.062050 -0.072740
-0.466955 -0.042242 -0.083401
-0.466955 -0.054359 -0.026724
-0.466955 0.072900 -0.052036
-0.466955 -0.015483 -0.037014
-0.466955 0.009534 0.039565
-0.466955 -0.053394 0.054742
-0.466955 0.040396 -0.005844
-0.466955 -0.008519 0.065437
-0.466955 0.018453 0.064369
-0.466955 -0.086016 -0.042351
-0.466955 -0.073830 -0.028330
-0.466955 -0.035010 0.069231
-0.466955 -0.032966 0.021125
-0.466955 -0.025152 -0.070267
-0.466955 0.021581 0.019995
-0.466955 0.086224 0.033610
-0.466955 -0.062172 0.062594
-0.466955 0.058839 0.063501
-0.466955 0.006254 0.010898
-0.466955 -0.005305 0.057001
-0.466955 0.072239 -0.067446
-0.466955 -0.045682 -0.024687
-0.466955 0.022863 0.004290
-0.466955 0.079420 -0.010434
-0.466955 -0.028635 -0.007723
-0.466955 0.023484 0.005850
-0.466955 0.021125 -0.077420
-0.466955 -0.030069 0.059066
-0.466955 -0.024423 -0.054561
-0.466955 -0.008708 -0.024802
-0.466955 -0.002625 -0.002768
-0.466955 0.007069 0.047065
-0.466955 0.003902 -0.080897
-0.466955 -0.004797 -0.045063
-0.466955 0.014175 -0.004142
-0.466955 0.017333 0.079491
-0.466955 0.020461 -0.049285
-0.466955 -0.034161 0.091894
-0.466955 0.042292 0.000062
-0.466955 -0.092262 -0.037075
-0.466955 -0.031646 0.008309
-0.466955 -0.087830 -0.025240
-0.466955 -0.051821 -0.083386
-0.466955 0.013616 0.075071
-0.466955 -0.036678 -0.070174
-0.466955 -0.006302 0.069329
-0.466955 -0.017802 0.059092
-0.466955 -0.007271 -0.007619
-0.466955 -0.009541 0.029685
-0.466955 -0.013534 0.015182
-0.466955 0.033693 0.034226
-0.466955 -0.014996 0.034168
-0.466955 -0.007701 0.074516
-0.466955 -0.035532 0.079890
-0.466955 -0.054995 0.007112
-0.466955 0.054367 -0.031048
-0.466955 -0.058122 -0.009847
-0.466955 0.080995 -0.002684
-0.466955 0.040138 0.057891
-0.466955 0.070593 0.001073
-0.466955 0.032855 -0.072168
-0.466955 0.072804 0.044978
-0.466955 0.019677 0.027399
-0.466955 0.015840 0.009764
-0.466955 -0.083811 0.005047
-0.466955 -0.067735 -0.027059
-0.466955 0.007344 0.030976
-0.466955 0.004861 -0.026227
-0.466955 -0.024039 0.080451
-0.466955 -0.053812 -0.021738
-0.466955 -0.082837 -0.051760
-0.466955 -0.027491 0.010840
-0.466955 -0.042763 0.021166
-0.466955 -0.059539 -0.020937
-0.466955 -0.030948 0.029080
-0.466955 0.010885 0.013177
-0.466955 0.077584 -0.022218
-0.466955 -0.026078 -0.021903
-0.466955 0.020493 0.076899
-0.466955 0.003508 -0.071393
-0.466955 -0.022217 0.080195
-0.466955 0.090017 -0.022414
-0.466955 0.011714 -0.061917
-0.466955 -0.079861 -0.031539
-0.466955 -0.009892 -0.008185
-0.466955 -0.006221 0.048502
-0.466955 0.004462 0.003508
-0.466955 -0.030763 -0.085346
-0.466955 0.037626 -0.063797
-0.466955 -0.074449 -0.009824
-0.466955 0.020077 0.054154
-0.466955 -0.039312 -0.037655
-0.466955 0.097255 0.011233
-0.466955 0.032847 -0.061878
-0.466955 -0.068542 0.037552
-0.466955 -0.079368 -0.047881
-0.466955 0.069987 -0.037438
-0.466955 0.019560 0.042382
-0.466955 -0.018078 -0.033486
-0.466955 0.063736 -0.034227
-0.466955 0.094471 -0.031202
-0.466955 -0.017825 0.073897
-0.466955 -0.084219 0.043227
-0.466955 -0.057847 0.037265
-0.466955 0.037498 -0.007011
-0.466955 0.087941 0.044208
-0.466955 -0.040588 -0.090539
-0.466955 0.056240 -0.030984
-0.466955 0.063061 0.026523
-0.466955 -0.007242 0.014530
-0.466955 -0.029224 0.052255
-0.466955 0.098984 -0.007055
-0.466955 -0.008362 -0.097265
-0.466955 -0.030272 -0.092761
-0.466955 -0.050477 -0.009151
-0.466955 0.010533 -0.044172
-0.466955 -0.044328 -0.056403
-0.466955 -0.043222 -0.036346
-0.466955 0.012845 0.086947
-0.466955 0.058782 0.054929
-0.466955 -0.042313 -0.086396
-0.466955 -0.051253 -0.072067
-0.466955 0.025323 -0.067236
-0.466955 0.059341 0.073104
-0.466955 -0.087761 0.030562
-0.466955 -0.061917 -0.047947
-0.466955 0.044256 -0.050799
-0.466955 -0.052037 -0.005499
-0.466955 -0.074138 0.027890
-0.466955 0.059996 0.023952
-0.466955 -0.059463 0.012970
-0.466955 0.078329 0.002556
-0.466955 -0.067607 0.032751
-0.466955 -0.029358 0.000068
-0.466955 0.062514 -0.052775
-0.466955 0.035173 0.016943
-0.466955 0.071412 -0.023571
-0.466955 -0.042556 -0.039751
-0.466955 0.015644 0.030113
-0.466955 0.053643 -0.011652
-0.466955 0.017237 -0.078133
-0.466955 0.038856 -0.006281
-0.466955 -0.063186 0.023669
-0.466955 0.001216 -0.065766
-0.466955 -0.051090 0.053063
-0.466955 0.044859 -0.015694
-0.466955 -0.032215 -0.031288
-0.466955 0.005454 -0.039563
-0.466955 0.015281 0.049728
-0.466955 0.050909 0.041081
-0.466955 -0.021466 0.053790
-0.466955 -0.038858 0.051636
-0.466955 -0.088064 0.011613
-0.466955 -0.028086 -0.047991
-0.466955 0.033781 0.002520
-0.466955 0.051883 -0.022009
-0.466955 0.050887 -0.000384
-0.466955 -0.033922 -0.080491
-0.466955 0.011089 0.036473
-0.466955 0.055732 -0.043002
-0.466955 -0.079935 -0.044160
-0.466955 0.009376 0.053120
-0.466955 -0.041242 0.074242
-0.466955 0.037101 -0.010517
-0.466955 0.017907 -0.016972
-0.466955 0.030682 0.009779
-0.466955 -0.013301 0.035496
-0.466955 0.004047 -0.084335
-0.466955 -0.028402 -0.012628
-0.466955 0.026015 0.020400
-0.466955 -0.024620 -0.023351
-0.466955 0.047341 -0.053431
-0.466955 -0.000364 0.077116
-0.466955 -0.000473 0.002716
-0.466955 0.010322 0.055899
-0.466955 0.002473 -0.017544
-0.466955 0.062397 0.013811
-0.466955 0.016048 0.017751
-0.466955 -0.008810 -0.092105
-0.466955 0.063450 0.012263
-0.466955 0.024175 -0.096652
-0.466955 -0.039136 -0.065681
-0.466955 -0.080240 0.036001
-0.466955 -0.046532 -0.004737
-0.466955 0.014948 -0.048864
-0.466955 -0.035363 0.009320
-0.466955 0.031702 -0.043656
-0.466955 0.004742 -0.048274
-0.466955 -0.023267 -0.011167
-0.466955 -0.084090 0.017858
-0.466955 -0.037115 -0.027470
-0.466955 0.037437 0.059157
-0.466955 -0.012890 -0.064273
-0.466955 -0.021223 -0.043924
-0.466955 -0.093916 0.014655
-0.466955 -0.084053 0.045305
-0.466955 -0.097174 0.019969
-0.466955 0.022422 0.029463
-0.466955 -0.029833 -0.048485
-0.466955 -0.072122 -0.042842
-0.466955 -0.018689 -0.091128
-0.466955 -0.035012 -0.006633
-0.466955 -0.056255 -0.000793
-0.466955 0.036725 -0.081561
-0.466955 0.071501 0.050677
-0.466955 0.035103 0.022280
-0.466955 0.025224 0.050562
-0.466955 0.039616 0.091660
-0.466955 0.060802 0.062329
-0.466955 0.076349 -0.036744
-0.466955 -0.097582 0.010751
-0.466955 -0.019473 0.006025
-0.466955 0.080524 -0.044366
-0.466955 -0.006104 -0.018327
-0.466955 -0.067735 -0.052518
-0.466955 0.069150 0.006205
-0.466955 0.066946 0.024673
-0.466955 0.054813 -0.022481
-0.466955 0.022901 0.062070
-0.466955 -0.015714 0.083224
-0.466955 0.065393 -0.018298
-0.466955 -0.086573 0.025167
-0.466955 0.087545 0.030397
-0.466955 0.049396 0.003735
-0.466955 -0.087472 -0.029823
-0.466955 0.082911 0.009518
-0.466955 -0.088413 0.043142
-0.466955 -0.006421 -0.039445
-0.466955 -0.068900 0.001350
-0.466955 0.082684 -0.036271
-0.466955 -0.043664 0.003170
-0.466955 -0.056543 -0.053727
-0.466955 0.036821 -0.037267
-0.466955 0.045040 -0.079504
-0.466955 0.087156 0.006440
-0.466955 0.083419 -0.026749
-0.466955 0.012430 -0.075930
-0.466955 0.066829 -0.053158
-0.466955 0.061136 -0.043930
-0.466955 -0.047930 0.055920
-0.466955 -0.044491 0.017961
-0.466955 -0.058917 0.035577
-0.466955 0.005636 0.093177
-0.466955 -0.027876 0.042221
-0.466955 -0.026948 -0.093467
-0.466955 0.060651 0.076427
-0.466955 -0.083789 0.000167
-0.466955 -0.055261 -0.016617
-0.466955 -0.067664 -0.018159
-0.466955 0.018134 0.089261
-0.466955 0.032347 0.081728
-0.466955 -0.074267 -0.044475
-0.466955 -0.014109 -0.078708
-0.466955 -0.082328 0.026576
-0.466955 -0.021524 -0.062014
-0.466955 -0.026275 -0.023416
-0.466955 0.027780 0.004268
-0.466955 0.051788 0.007760
-0.466955 -0.063031 -0.056545
-0.466955 0.053425 0.027908
-0.466955 -0.032726 -0.045239
-0.466955 0.083548 -0.049787
-0.466955 0.000316 -0.099094
-0.466955 -0.047895 -0.013897
-0.466955 -0.027012 0.051892
-0.466955 -0.034600 -0.072710
-0.466955 -0.085005 -0.009272
-0.466955 0.012234 -0.037297
-0.466955 0.007882 0.032540
-0.466955 0.007430 -0.020560
-0.466955 -0.074868 -0.058296
-0.466955 -0.012927 -0.010061
-0.466955 -0.063359 0.020459
-0.466955 0.018525 -0.003408
-0.466955 0.031300 -0.072129
-0.466955 -0.011501 0.023041
-0.466955 -0.096661 0.012066
-0.466955 -0.021172 -0.065895
-0.466955 -0.090028 0.002546
-0.466955 0.049006 0.028062
-0.466955 -0.004938 0.037566
-0.466955 0.055248 0.014805
-0.466955 0.008565 0.088035
-0.466955 -0.002949 0.028656
-0.466955 -0.049917 0.004353
-0.466955 -0.071186 -0.044400
-0.466955 0.054648 0.009211
-0.466955 0.090620 -0.000129
-0.466955 -0.025507 -0.085125
-0.466955 0.036197 0.004594
-0.466955 0.018625 -0.033772
-0.466955 -0.006589 -0.024759
-0.466955 0.046738 -0.062196
-0.466955 0.077981 0.044014
-0.466955 -0.052941 0.006521
-0.466955 -0.000412 0.084589
-0.466955 0.043978 0.056861
-0.466955 -0.010572 -0.029280
-0.466955 0.002463 0.066190
-0.466955 -0.049427 0.022403
-0.466955 0.073663 0.010303
-0.466955 0.009902 0.089447
-0.466955 0.040683 -0.026376
-0.466955 -0.000460 -0.090087
-0.466955 0.003222 0.063839
-0.466955 0.070656 -0.004985
-0.466955 0.002841 -0.085156
-0.466955 -0.027637 0.072590
-0.466955 0.030666 0.017066
-0.466955 0.082058 0.050735
-0.466955 -0.037838 0.090101
-0.466955 0.033696 -0.022664
-0.466955 0.001429 -0.040295
-0.466955 0.021939 -0.008428
-0.466955 -0.011827 -0.004406
-0.466955 -0.023253 -0.077989
-0.466955 0.066740 0.047177
-0.466955 -0.069707 -0.028594
-0.466955 -0.078214 0.062054
-0.466955 0.066262 -0.027856
-0.466955 0.063334 -0.040178
-0.466955 -0.043125 -0.026938
-0.466955 -0.076709 0.028009
-0.466955 -0.022974 0.026893
-0.466955 -0.043240 -0.054078
-0.466955 0.003412 0.068967
-0.466955 -0.089570 -0.019792
-0.466955 0.074008 0.004190
-0.466955 -0.083438 0.028536
-0.466955 -0.072666 0.066427
-0.466955 0.090609 0.012678
-0.466955 0.096277 -0.026395
-0.466955 0.061200 0.038187
-0.466955 0.031328 0.090104
-0.466955 -0.033101 0.052990
-0.466955 0.036736 0.031234
-0.466955 -0.007142 -0.078348
-0.466955 0.071897 -0.030965
-0.466955 0.059608 0.078578
-0.466955 0.052435 -0.014980
-0.466955 -0.034285 -0.044055
-0.466955 0.068282 0.057610
-0.466955 -0.004955 0.096131
-0.466955 -0.076929 -0.000436
-0.466955 0.035956 0.025485
-0.466955 -0.089158 -0.025350
-0.466955 0.013079 -0.074310
-0.466955 0.017527 0.044460
-0.466955 0.052274 -0.032476
-0.466955 -0.069717 0.023812
-0.466955 0.037936 0.092588
-0.466955 -0.035102 -0.065179
-0.466955 0.015273 0.036594
-0.466955 0.012905 0.056037
-0.466955 0.038577 -0.050192
-0.466955 0.000961 0.033847
-0.466955 0.062317 -0.031004
-0.466955 -0.021021 -0.036559
-0.466955 -0.090059 -0.033114
-0.466955 0.015536 0.035109
-0.466955 -0.051048 0.028252
-0.466955 -0.031434 -0.060899
-0.466955 -0.078232 -0.006617
-0.466955 0.022271 0.037767
-0.466955 -0.022297 -0.058468
-0.466955 -0.011598 0.075869
-0.466955 0.032653 0.038026
-0.466955 0.010529 0.047649
-0.466955 -0.052478 -0.035743
-0.466955 -0.030623 -0.035988
-0.466955 -0.009730 -0.034709
-0.466955 0.092114 0.003104
-0.466955 -0.015681 -0.075217
-0.466955 0.001406 0.052273
-0.466955 0.067242 0.000418
-0.466955 0.093018 -0.014197
-0.466955 -0.047623 0.000791
-0.466955 0.020140 -0.056804
-0.466955 -0.057537 -0.023428
-0.466955 0.072325 -0.062089
-0.466955 -0.004527 0.052824
-0.466955 0.003489 -0.022106
-0.466955 0.042261 0.036658
-0.466955 0.003822 0.074875
-0.466955 0.066517 0.007590
-0.466955 -0.068734 -0.023744
-0.466955 0.065766 0.017524
-0.466955 -0.096459 -0.024572
-0.466955 -0.006148 0.042541
-0.466955 0.019051 -0.049878
-0.466955 0.094392 0.021951
-0.466955 0.080867 0.005274
-0.466955 -0.067439 -0.015066
-0.466955 0.038578 -0.071948
-0.466955 -0.025504 -0.025260
-0.466955 -0.009852 -0.026622
-0.466955 0.011185 -0.050314
-0.466955 0.059118 -0.030592
-0.466955 -0.064731 0.049478
-0.466955 -0.041943 -0.037995
-0.466955 0.059330 0.031510
-0.466955 -0.076133 -0.057492
-0.466955 -0.048533 -0.039429
-0.466955 0.020809 -0.082994
-0.466955 0.002830 -0.075124
-0.466955 0.097715 0.001198
-0.466955 0.056765 -0.051580
-0.466955 -0.062905 0.055490
-0.466955 -0.060199 -0.035357
-0.466955 -0.049563 -0.070793
-0.466955 -0.082836 -0.046600
-0.466955 -0.054291 0.024543
-0.466955 0.000205 0.099080
-0.466955 0.054188 -0.078752
-0.466955 0.047847 -0.066184
-0.466955 0.076215 0.038433
-0.466955 0.013331 -0.083948
-0.466955 -0.029238 0.041647
-0.466955 0.054976 -0.075331
-0.466955 0.018729 -0.006349
-0.466955 0.024517 0.083929
-0.466955 0.029180 0.081457
-0.466955 -0.000577 -0.029141
-0.466955 0.025097 -0.027530
-0.466955 -0.077430 -0.032942
-0.466955 -0.047854 -0.044480
-0.466955 -0.035961 -0.042474
-0.466955 -0.007270 0.022007
-0.466955 0.088165 0.016521
-0.466955 0.050615 0.034373
-0.466955 -0.025140 0.079058
-0.466955 0.075792 -0.009551
-0.466955 -0.023444 -0.095266
-0.466955 0.081197 -0.035047
-0.466955 0.017304 0.023791
-0.466955 0.022890 0.047276
-0.466955 0.066022 0.006300
-0.466955 -0.034533 0.037468
-0.466955 0.054793 -0.050444
-0.466955 0.076949 -0.033534
-0.466955 -0.029767 0.003141
-0.466955 0.064603 -0.057667
-0.466955 -0.007405 -0.017486
-0.466955 -0.072716 -0.018478
-0.466955 0.006807 -0.022283
-0.466955 0.002069 -0.012567
-0.466955 -0.079449 0.007273
-0.466955 0.065848 -0.072281
-0.466955 -0.008364 -0.004554
-0.466955 -0.075341 0.044964
-0.466955 0.092283 -0.015513
-0.466955 -0.092398 -0.033171
-0.466955 0.054798 -0.000341
-0.466955 -0.032769 -0.063851
-0.466955 0.008187 0.064702
-0.466955 -0.001731 0.054783
-0.466955 0.088996 0.029820
-0.466955 0.079667 0.029935
-0.466955 -0.027058 0.012144
-0.466955 -0.033427 0.068781
-0.466955 0.045998 -0.032573
-0.466955 0.067342 -0.070291
-0.466955 -0.006357 -0.089042
-0.466955 0.037827 -0.005311
-0.466955 0.097321 -0.021845
-0.466955 0.088193 -0.020337
-0.466955 -0.078048 0.056616
-0.466955 0.011963 -0.098801
-0.466955 0.063153 -0.057223
-0.466955 -0.081915 -0.025041
-0.466955 0.049656 -0.001740
-0.466955 0.072411 -0.053724
-0.466955 -0.017247 -0.018235
-0.466955 0.057192 -0.027038
-0.466955 0.031176 0.043997
-0.466955 -0.042533 0.009292
-0.466955 0.076850 0.013443
-0.466955 -0.029458 -0.001938
-0.466955 0.056723 0.049963
-0.466955 0.020649 -0.052973
-0.466955 0.005466 0.091728
-0.466955 0.055020 -0.048833
-0.466955 0.079893 0.043519
-0.466955 -0.097991 -0.000117
-0.466955 -0.055332 0.062737
-0.466955 0.091874 0.015672
-0.466955 -0.038942 0.003482
-0.466955 0.073885 -0.067064
-0.466955 -0.037087 0.035070
-0.466955 0.011777 -0.083684
-0.466955 0.060410 0.052149
-0.466955 0.023185 0.039064
-0.466955 -0.045234 -0.060122
-0.466955 0.000947 -0.043466
-0.466955 0.028559 -0.071165
-0.466955 0.017217 -0.009685
-0.466955 -0.033593 -0.005773
-0.466955 0.021295 -0.066970
-0.466955 0.014019 0.067659
-0.466955 0.001845 -0.074129
-0.466955 0.085686 0.047325
-0.466955 0.026655 -0.054131
-0.466955 -0.014119 -0.087306
-0.466955 -0.028959 -0.032757
-0.466955 0.024031 0.080494
-0.466955 -0.077869 -0.049196
-0.466955 -0.070829 0.055945
-0.466955 -0.071080 -0.019246
-0.466955 -0.019551 0.062657
-0.466955 -0.050874 -0.035334
-0.466955 -0.043529 0.034030
-0.466955 -0.065238 -0.049641
-0.466955 -0.013496 0.003875
-0.466955 0.050274 0.062393
-0.466955 -0.064465 0.033220
-0.466955 -0.084992 0.051709
-0.466955 -0.087780 0.035216
-0.466955 -0.096126 0.024833
-0.466955 -0.058314 -0.079074
-0.466955 -0.083826 -0.028283
-0.466955 -0.009397 -0.096022
-0.466955 0.010656 0.004253
-0.466955 -0.008813 0.022008
-0.466955 0.073494 0.000430
-0.466955 -0.035486 -0.013209
-0.466955 0.064066 -0.032670
-0.466955 -0.001663 0.012647
-0.466955 -0.020470 -0.016006
-0.466955 -0.062392 -0.074497
-0.466955 0.075018 0.045033
-0.466955 0.097062 0.015804
-0.466955 0.058080 -0.036906
-0.466955 0.059474 -0.007831
-0.466955 -0.004928 0.079056
-0.466955 0.069735 -0.060417
-0.466955 -0.006913 0.049857
-0.466955 0.036604 0.079466
-0.466955 0.022078 -0.081894
-0.466955 0.085986 -0.022782
-0.466955 -0.008575 0.004548
-0.466955 -0.021459 -0.000992
-0.466955 -0.059626 -0.049000
-0.466955 0.065119 0.027293
-0.466955 -0.017487 -0.027712
-0.466955 -0.082560 -0.015149
-0.466955 -0.083349 -0.013625
-0.466955 0.098353 0.010225
-0.466955 0.001545 0.054314
-0.466955 -0.039371 -0.088644
-0.466955 -0.054244 0.052172
-0.466955 -0.005653 -0.092823
-0.466955 0.093791 -0.015762
-0.466955 0.066808 0.056838
-0.466955 -0.068463 -0.021858
-0.466955 0.018705 0.033629
-0.466955 -0.057954 0.004722
-0.466955 0.001842 0.031557
-0.466955 -0.044245 -0.078774
-0.466955 -0.053224 0.046688
-0.466955 -0.069378 -0.035598
-0.466955 -0.059843 -0.074467
-0.466955 -0.040731 -0.056067
-0.466955 -0.028348 -0.081031
-0.466955 0.000792 -0.082627
-0.466955 -0.068799 -0.049578
-0.466955 -0.022890 -0.043119
-0.466955 0.040729 0.078189
-0.466955 0.001273 0.025260
-0.466955 0.033040 0.078668
-0.466955 0.022148 0.018143
-0.466955 -0.052699 0.076233
-0.466955 0.068075 -0.054417
-0.466955 -0.004832 -0.013685
-0.466955 0.092914 -0.035029
-0.466955 0.074671 -0.039771
-0.466955 -0.006165 -0.034522
-0.466955 -0.004254 -0.029558
-0.466955 0.094056 0.014496
-0.466955 0.040052 -0.032486
-0.466955 -0.028569 -0.092522
-0.466955 -0.071625 -0.040163
-0.466955 0.083923 -0.008645
-0.466955 -0.087631 -0.028227
-0.466955 -0.056222 -0.021104
-0.466955 -0.015444 0.024214
-0.466955 -0.040957 -0.089098
-0.466955 -0.045275 -0.050850
-0.466955 0.063781 0.061410
-0.466955 -0.069978 0.036006
-0.466955 -0.031363 -0.094428
-0.466955 -0.016473 -0.010703
-0.466955 0.043706 -0.084900
-0.466955 0.032927 -0.075084
-0.466955 0.009950 0.017784
-0.466955 -0.007427 -0.023540
-0.466955 0.027202 -0.078518
-0.466955 -0.021859 -0.083727
-0.466955 0.015867 -0.008582
-0.466955 -0.073364 -0.005364
-0.466955 -0.044697 0.011122
-0.466955 0.080319 -0.006805
-0.466955 0.042128 0.074135
-0.466955 0.014677 -0.086959
-0.466955 -0.043511 -0.014256
-0.466955 -0.033029 -0.023785
-0.466955 -0.060743 -0.030137
-0.466955 -0.031790 0.051706
-0.466955 0.017142 0.005025
-0.466955 -0.010271 -0.075008
-0.466955 0.047228 0.083434
-0.466955 0.007972 0.015660
-0.466955 -0.006201 -0.045826
-0.466955 -0.059830 -0.042642
-0.466955 -0.040381 -0.069456
-0.466955 0.015772 0.038221
-0.466955 0.031903 0.054745
-0.466955 0.083930 0.008177
-0.466955 0.034262 0.056634
-0.466955 -0.056505 0.043307
-0.466955 -0.060311 -0.044527
-0.466955 0.062360 0.064502
-0.466955 0.005337 0.030004
-0.466955 0.025352 0.014913
-0.466955 -0.084281 0.046989
-0.466955 0.087252 -0.018418
-0.466955 0.081413 0.039128
-0.466955 0.012120 -0.077508
-0.466955 -0.025091 -0.042683
-0.466955 -0.082558 -0.011674
-0.466955 -0.004395 0.040328
-0.466955 -0.053947 -0.065691
-0.466955 -0.035159 -0.058832
-0.466955 0.074768 0.052544
-0.466955 0.094073 0.032325
-0.466955 -0.027558 0.032705
-0.466955 -0.047434 -0.083731
-0.466955 -0.077070 -0.051763
-0.466955 -0.060829 -0.016252
-0.466955 -0.058602 0.024607
-0.466955 0.069928 0.026639
-0.466955 0.026873 -0.007075
-0.466955 -0.004806 0.029676
-0.466955 -0.031105 -0.044967
-0.466955 -0.051323 0.036722
-0.466955 0.020798 -0.092383
-0.466955 -0.059449 -0.016827
-0.466955 0.030849 -0.052603
-0.466955 0.051472 -0.065303
-0.466955 0.028813 -0.040152
-0.466955 0.062177 -0.038690
-0.466955 -0.035659 0.031411
-0.466955 -0.083641 0.051596
-0.466955 0.053488 -0.026637
-0.466955 0.014151 -0.029998
-0.466955 -0.035872 0.082625
-0.466955 -0.052734 -0.078807
-0.466955 -0.072034 -0.050448
-0.466955 -0.059650 -0.065881
-0.466955 0.030080 0.013497
-0.466955 0.043539 0.068214
-0.466955 -0.027660 0.037181
-0.466955 0.007556 0.048811
-0.466955 0.011920 -0.004696
-0.466955 -0.086673 -0.039028
-0.466955 0.001251 0.065001
-0.466955 0.054937 0.060793
-0.466955 0.060247 0.053689
-0.466955 0.001373 -0.063373
-0.466955 0.067715 -0.033728
-0.466955 -0.052248 -0.068090
-0.466955 -0.054372 -0.034175
-0.466955 -0.056769 -0.040380
-0.466955 0.013006 -0.060794
-0.466955 0.039295 -0.067486
-0.466955 -0.057031 0.046813
-0.466955 0.081896 0.037131
-0.466955 0.067659 0.034603
-0.466955 -0.082053 -0.043439
-0.466955 0.010643 -0.024275
-0.466955 -0.066633 -0.041466
-0.466955 -0.066690 0.014695
-0.466955 -0.006176 0.055917
-0.466955 -0.012953 0.028317
-0.466955 -0.039117 0.010138
-0.466955 0.090886 0.035742
-0.466955 -0.045648 0.027007
-0.466955 0.068511 0.035834
-0.466955 0.013071 0.072585
-0.466955 0.031589 0.012685
-0.466955 0.044520 0.085673
-0.466955 0.072977 -0.060330
-0.466955 0.004556 -0.089228
-0.466955 0.075891 -0.018255
-0.466955 -0.020263 -0.002455
-0.466955 0.099255 0.008388
-0.466955 -0.032971 -0.022206
-0.466955 0.028509 0.062507
-0.466955 0.038773 -0.029438
-0.466955 0.024736 0.062494
-0.466955 -0.082096 0.008004
-0.466955 0.008590 -0.046098
-0.466955 -0.007520 0.041726
-0.466955 0.029504 0.014961
-0.466955 -0.042769 -0.089956
-0.466955 0.040815 -0.042147
-0.466955 0.005109 -0.003922
-0.466955 -0.010335 0.039423
-0.466955 -0.032035 -0.065011
-0.466955 -0.057996 0.041436
-0.466955 0.026831 0.058007
-0.466955 -0.091464 0.027109
-0.466955 -0.085887 0.008185
-0.466955 0.064760 -0.027534
-0.466955 0.033089 -0.088422
-0.466955 -0.040814 0.021798
-0.466955 -0.050295 0.035023
-0.466955 0.019958 0.075645
-0.466955 0.022942 -0.089937
-0.466955 0.021698 -0.013088
-0.466955 -0.082725 0.001632
-0.466955 -0.088284 -0.023773
-0.466955 -0.042035 -0.010807
-0.466955 0.006336 -0.031957
-0.466955 0.023973 -0.005961
-0.466955 0.008168 -0.085634
-0.466955 -0.079058 -0.020672
-0.466955 -0.007200 -0.093626
-0.466955 -0.083892 0.048559
-0.466955 0.079438 -0.060103
-0.466955 0.003939 -0.077181
-0.466955 0.048751 0.021545
-0.466955 0.062878 0.075870
-0.466955 0.051319 -0.020360
-0.466955 -0.089710 0.019581
-0.466955 0.015241 0.024683
-0.466955 0.002914 -0.052096
